ply
format ascii 1.0
element vertex 1347
property float x
property float y
property float z
end_header
214.516159 -1223.570068 1729.419067
261.538605 -1009.071045 1931.528320
395.397736 -1195.727295 1865.609009
433.653351 -1012.152710 1922.242676
222.384140 -876.352051 1918.829346
407.858948 -1079.453247 1856.279053
363.127899 -1026.445679 1860.253784
341.981781 -962.354858 1869.828369
531.709656 -1091.888550 1876.977173
366.675415 -1041.529053 1847.512695
176.302246 -1038.270996 1836.437256
297.536407 -889.718567 1961.340942
413.616852 -976.754761 1873.619629
288.880829 -918.589478 1878.076660
236.976349 -1094.092407 1806.274536
402.506866 -930.038635 1932.442627
386.802307 -938.786194 1959.031860
289.041199 -1279.571411 1700.903809
95.472351 -1082.321899 1785.335083
453.708862 -943.760254 1994.750610
360.236145 -1241.327026 1757.226196
226.165390 -920.424072 1882.596191
355.420685 -1058.091675 1837.989136
413.699707 -1132.229248 1818.502441
393.255341 -1123.044434 1789.002441
376.126160 -951.926270 1999.368408
133.762054 -1095.545288 1789.822266
381.714600 -920.274536 1925.783936
284.291626 -980.161682 1869.122437
209.915283 -1118.035156 1789.528442
358.599762 -1122.877075 1795.023560
297.618103 -1019.237122 1862.992432
159.175003 -1132.575684 1792.628418
225.163132 -1062.362427 1828.551758
249.597870 -1071.058960 1821.494873
310.262451 -1234.595459 1718.934570
452.544189 -1055.802979 2071.957031
350.743073 -959.232971 2047.487915
107.173553 -1142.151611 1792.994751
363.908234 -1086.465820 1813.011597
318.846649 -936.351379 2007.567017
314.751892 -1016.378174 1851.637207
310.028961 -962.530090 1860.820313
235.136017 -929.717102 1890.895508
240.430527 -972.241882 2139.037354
257.414764 -1106.905640 1799.757568
387.528870 -1224.948486 1802.153442
281.471619 -934.295105 1879.634155
521.428223 -1089.176758 1959.182739
194.816895 -1059.985596 1839.541138
327.510925 -977.022705 2080.880859
146.644272 -1014.644226 1852.478882
439.414825 -943.640076 1910.787842
452.199707 -965.355469 1934.548828
266.163788 -1091.479858 1813.539673
222.467346 -947.560913 1882.142456
443.927063 -1045.016479 1892.595581
277.058655 -1225.479248 1719.915405
454.403503 -933.606934 1921.083252
404.309509 -943.037170 1881.295532
411.236816 -946.694702 1879.338013
310.076660 -925.090576 1904.769165
287.712006 -1215.224365 1722.445801
308.757050 -946.354492 1883.830200
477.660126 -1074.182861 1898.593018
169.231766 -1077.345093 1821.162231
447.140167 -943.748840 1924.389648
315.451385 -1185.052612 1749.665649
113.655289 -1171.616089 1754.043091
407.902710 -950.933655 1877.458496
513.641541 -1087.569336 1890.007568
221.681473 -906.465881 1908.395752
438.533661 -1018.085144 1960.618896
129.520981 -1079.904297 1801.990601
259.294464 -1170.813110 1763.396851
234.166641 -1085.917725 1830.218384
357.383545 -1303.233765 1738.486938
355.138672 -1198.395020 1784.527710
463.454834 -1061.097168 2051.826172
340.114197 -1023.254578 2144.375977
233.135132 -1076.892212 1824.297119
341.054230 -920.918518 1888.413330
276.730896 -910.296326 2011.240967
75.361359 -1127.244507 1773.617920
286.311676 -1056.654785 1836.236084
289.183777 -960.451172 1866.658447
406.419067 -1095.366821 1814.110352
232.668915 -932.406128 1889.473633
538.561157 -1060.252930 1982.509033
482.664307 -1061.686890 2052.400146
399.245453 -1020.556335 2091.684082
525.728516 -1088.455444 1881.641602
444.283752 -1024.713623 2077.912598
356.938080 -1268.925659 1726.848389
137.875534 -1237.455444 1759.574219
296.826843 -976.627502 1863.630371
289.580109 -1109.149048 1805.905884
229.935699 -1052.734375 1841.569580
312.046387 -1227.871216 1723.874512
251.880402 -1079.551392 1831.320313
455.445587 -965.484314 1962.718506
234.807846 -955.489441 1881.169922
156.411224 -1059.820679 1823.788086
392.700104 -1074.030762 1819.808472
276.258942 -951.884338 2073.303223
252.754776 -950.553650 1880.604736
245.306915 -915.082947 2038.187134
450.746735 -959.658813 1992.951538
236.712372 -1022.004395 1867.126587
471.442932 -1062.380981 1876.405151
211.015625 -982.341370 2171.189697
289.417542 -935.550781 1884.012451
334.276001 -1149.791138 1771.352783
317.634766 -880.208191 1911.894653
330.381073 -968.227905 2061.740723
246.549286 -1054.781006 1849.330688
123.386566 -1064.753540 1814.808716
155.493011 -987.843994 1863.589233
206.641174 -1099.553955 1808.274780
469.609070 -1071.911743 1871.187622
420.666077 -972.715820 1878.576172
454.031067 -1089.881104 1865.875244
456.699951 -1028.018555 2124.514404
460.550385 -1040.820190 2004.333374
309.157898 -969.445435 1862.573242
385.950470 -980.712036 2054.006104
411.097961 -1111.448853 1836.862183
312.204132 -969.231079 2076.083496
278.715485 -928.671753 2028.128540
371.828735 -1270.720215 1755.789185
325.333221 -891.543152 1912.768799
387.804443 -977.159973 2033.647827
375.192902 -975.416077 2034.627686
468.482117 -1044.035034 2006.880005
372.728241 -936.537415 1986.044312
199.233017 -868.390259 1952.239868
454.659393 -966.935120 1911.173828
331.436066 -1020.867676 2147.085449
258.779785 -1096.559204 1819.846191
434.590820 -976.679321 1877.478760
237.376404 -903.399902 2006.241577
437.414001 -1044.594360 1971.592773
368.738281 -1121.405640 1785.268555
408.967804 -938.737915 1932.004395
195.791962 -868.518311 1934.339722
344.132751 -937.285950 1998.282227
348.288635 -1013.995239 2123.229248
422.883240 -1093.596680 1863.057739
377.573212 -932.432556 1967.041138
205.605362 -896.728088 2066.125732
337.076843 -898.323425 1898.768311
174.071243 -913.142944 1898.912598
336.882935 -975.570435 1859.806885
297.901062 -1246.485352 1710.370117
354.908783 -927.888062 1962.662598
405.997284 -1035.404175 1859.390869
127.904091 -1127.342285 1764.328857
395.593201 -1021.634216 1841.802246
438.229706 -1042.142700 1958.791504
300.640472 -942.873596 1870.310913
266.256012 -920.721436 1893.019653
397.782898 -1121.237427 1791.091187
108.102409 -1050.628540 1807.709595
408.347778 -972.992249 1875.063721
438.608337 -1051.453491 1994.272583
496.194153 -1080.842163 1925.306396
477.424072 -1082.241577 1931.843262
136.556122 -1093.427612 1803.753418
400.411255 -1100.970459 1832.289307
410.808929 -947.449280 1891.046631
302.617615 -961.548584 2067.666992
270.382446 -1080.027710 1817.778442
89.143608 -1093.961792 1765.730225
193.564102 -942.714844 2111.191895
240.466644 -945.925659 1882.209106
438.076202 -945.889038 1948.020996
91.666801 -1121.618408 1779.906860
160.301300 -1039.450439 1828.690796
252.970413 -909.067383 2043.264404
251.039139 -935.536377 2069.601074
396.461945 -1031.960938 1841.700562
458.591766 -1043.332886 1886.918457
130.195908 -1136.045410 1776.717163
246.016998 -859.933716 1946.751953
236.896286 -853.436523 1935.077515
143.778732 -1192.270630 1745.203247
513.968689 -1085.769409 1913.539307
401.001312 -954.577820 1972.173462
212.260193 -1009.351929 2193.358887
387.679016 -943.139221 1879.006958
428.954834 -984.489258 2031.930908
197.970078 -950.270996 2106.706787
448.450623 -1067.921387 1901.244873
486.670044 -1076.326782 1881.643066
364.595123 -1074.508789 1826.715332
458.188324 -940.177795 1903.614136
419.288391 -1003.481018 1889.106934
291.049072 -1228.557617 1715.086060
402.504181 -915.584961 1902.318726
488.927795 -1071.286621 1875.531860
158.739761 -956.794861 1888.851685
214.548691 -878.553040 1941.139282
188.909134 -1142.499512 1776.288940
461.940338 -1004.758484 2034.716431
406.817139 -1120.422852 1820.354980
117.485840 -1196.830444 1757.279541
216.704681 -1071.403931 1825.553345
106.317780 -1151.806274 1759.944702
227.113739 -929.711304 2077.268555
379.137207 -1054.927002 1827.857178
142.997910 -1029.558960 1835.032715
471.584717 -1106.780762 1902.260010
324.852844 -915.997192 1908.102295
497.883087 -1067.114136 1982.111572
349.553131 -1204.994873 1759.265991
446.497314 -943.535278 1971.513306
326.839539 -1160.906128 1762.765991
380.359161 -916.557007 1939.688599
394.911804 -1156.276123 1791.118530
330.584595 -1159.986572 1773.029297
126.939957 -1157.411499 1767.459839
345.569702 -986.736938 2078.238281
372.983704 -1241.005859 1822.626953
357.959686 -1002.077637 2092.870117
161.572983 -1060.903809 1836.006104
456.006561 -963.538391 1911.971191
365.012756 -921.811340 1895.194946
428.175476 -1061.206055 1924.821289
337.524445 -1000.006409 1843.217285
383.833252 -1041.486450 1838.941040
439.644135 -1079.505371 1924.415649
271.149261 -938.147705 2079.598145
319.028564 -996.789063 2119.726074
285.854034 -924.022278 1890.804688
382.964142 -908.088318 1939.328857
457.187286 -1022.337097 2114.343018
362.109955 -937.118530 1884.836670
343.557098 -925.456726 1883.837524
368.079437 -977.329651 2046.872803
430.579987 -940.322937 1945.798828
304.089325 -990.999756 2114.515869
218.757721 -1044.231445 1831.484619
468.405853 -1045.017212 1901.313354
436.567047 -985.548157 1879.549438
410.070770 -1021.466003 1847.635620
217.690002 -1244.766479 1720.413208
396.378113 -1079.562622 1865.109619
123.146271 -1109.951904 1787.422119
516.833923 -1079.897461 1984.970459
326.488708 -1274.157227 1735.270630
206.156311 -867.304871 2029.164307
376.889160 -1145.609375 1781.023926
258.589233 -1121.461426 1790.313599
388.638885 -990.805847 1857.890259
402.184143 -1020.727600 1851.400391
440.939667 -1026.016846 1917.425049
547.843750 -1103.537109 1886.524170
491.232910 -1082.600220 1900.163208
309.622131 -1042.262329 1856.689331
303.003662 -1000.479065 1877.600952
404.371368 -933.125244 1886.658081
389.817993 -1093.615234 1815.758667
418.213654 -934.193237 1894.029663
472.175201 -991.777527 2029.384521
385.389435 -968.062927 1869.462769
258.362030 -836.017090 1952.537231
400.961395 -975.565063 2030.509277
465.675262 -993.753723 2097.252197
286.416534 -940.969604 1872.604980
410.905579 -1047.370361 1887.932739
235.832794 -1264.003662 1708.479004
205.490707 -1176.790039 1752.604370
259.995117 -891.626221 1982.597168
208.944992 -1181.285522 1760.817139
301.649597 -915.621887 1889.883301
183.305511 -900.187622 1897.277954
264.964691 -993.014771 2177.356201
307.442841 -896.330566 1932.504272
424.638611 -1051.683960 1893.780273
316.630341 -976.622314 2086.838135
204.364105 -1014.490479 1853.230469
227.808197 -1137.464844 1800.088745
318.537598 -935.756653 2018.875000
361.448700 -936.191528 1994.739868
368.478180 -1041.466553 1846.265259
96.570915 -1098.504150 1735.575684
469.863770 -1041.680542 2011.032471
282.089661 -1172.880615 1767.324951
368.738373 -1271.302856 1770.124268
291.836334 -901.985962 1956.424194
425.275635 -1057.035889 1882.330933
156.696396 -1101.495361 1802.478027
337.118896 -919.329834 1886.036133
364.327606 -1015.613708 1858.342651
329.663757 -1180.951294 1755.463501
263.470062 -907.447632 1902.314697
348.562714 -1197.580933 1761.861206
235.927628 -1144.031128 1779.799805
380.027344 -942.847168 1969.047241
291.305359 -940.637451 2037.791992
452.928345 -1062.375488 1914.747070
332.781372 -899.616333 1922.103760
234.328598 -965.523499 2129.702881
403.339203 -1036.987061 2142.370361
403.785400 -989.100769 1857.128784
444.481750 -967.643738 1929.547485
110.615715 -1153.385620 1763.678223
248.834122 -1252.610107 1707.983154
393.408997 -1081.546021 1830.632446
400.327057 -927.295593 1923.369141
465.973083 -1051.144043 1997.290649
437.147705 -988.167297 1886.116577
240.083511 -1063.715820 1832.402344
198.968903 -964.897339 1876.226929
376.699615 -1129.105835 1785.263916
454.566040 -1021.860474 2077.477051
447.493561 -1061.482544 2090.148438
272.787506 -1005.195984 2165.481934
129.966385 -1181.883789 1758.075928
418.881470 -936.167358 1896.787354
220.032623 -910.969971 2061.662842
272.480621 -1165.295776 1772.000977
381.491150 -1013.783691 2096.239990
311.016418 -1146.544556 1782.081421
394.038757 -1066.203857 1834.800293
442.304047 -1090.294678 1896.568604
327.118317 -905.704956 1950.918579
452.450470 -947.109436 1900.452148
366.662750 -994.313660 1854.819214
350.177063 -1302.361694 1729.296997
337.616913 -1208.388306 1746.139893
414.408264 -942.713379 1960.059082
463.992615 -994.341431 2080.197510
389.095886 -1089.957520 1814.985596
181.434937 -1111.447876 1788.379028
350.402191 -934.008484 2000.349243
393.898834 -961.445557 1877.675049
290.654510 -1233.804199 1714.960327
401.698547 -1037.017822 1853.367065
118.395493 -1044.089600 1803.039063
337.216919 -1252.437012 1737.386597
416.468842 -953.840820 1882.794922
208.821625 -846.940613 1969.854614
212.649124 -898.916992 1910.301514
288.158356 -869.029358 1934.687134
481.800964 -1096.940186 1899.067383
223.048904 -1044.395142 1846.197021
313.734222 -947.869751 1872.699829
504.160217 -1092.097778 1893.073608
368.825104 -919.973145 1896.197632
348.488403 -1280.310303 1738.438599
210.867096 -1066.614258 1827.477295
490.431824 -1074.423340 1884.097900
237.611862 -1305.822998 1748.577881
365.677643 -1127.735718 1778.684937
377.475647 -1065.747192 1830.651978
232.288361 -982.610107 2162.111816
265.262054 -972.184570 2140.331787
446.423035 -931.635132 1909.014282
236.960297 -921.729126 1879.961426
207.096359 -908.708679 2050.266846
337.859283 -1244.028809 1717.727051
323.411530 -981.958313 1854.768066
307.556580 -953.319214 1869.472412
199.444534 -939.692993 1884.490601
241.085419 -859.147461 1931.375610
365.741516 -926.025146 1949.210938
338.816284 -1005.136719 1854.134644
435.817535 -1022.871094 1932.634155
323.203705 -1024.417969 1892.115845
405.355530 -1046.760254 1869.022827
226.007599 -1154.117920 1778.209717
298.511505 -970.044739 2093.178711
380.124969 -978.181274 1868.507446
441.412994 -983.941345 1915.987061
406.566376 -971.677490 2008.892700
337.682556 -952.659363 1884.284546
141.232788 -1087.034180 1795.226685
132.604660 -1025.331299 1836.405151
119.509186 -1048.684448 1815.876343
290.887573 -1172.759644 1759.645996
388.273956 -910.081665 1925.404419
260.488403 -1188.464111 1751.853638
514.976929 -1064.041748 2030.875732
340.063751 -950.602417 1872.544067
419.463654 -945.261475 1942.798340
199.188705 -964.869629 1877.200806
536.981079 -1054.221558 1996.241089
95.056717 -1179.777832 1742.889648
407.169250 -940.728821 1893.941528
257.529938 -930.699890 2051.643555
241.406143 -1129.738525 1800.035034
390.309967 -927.928711 1886.302612
368.191925 -1242.422241 1745.914185
461.500305 -1080.891968 1913.415649
293.870422 -965.636719 2086.735840
477.625580 -1066.926025 1973.841309
369.099274 -924.741089 1887.973511
361.873566 -1018.542358 1854.795532
150.126892 -1008.406616 1842.589600
475.019653 -1053.805786 2031.969238
224.341309 -1259.841431 1710.795654
313.498779 -979.528503 1859.107788
268.807831 -1011.317566 1865.432373
320.532013 -918.381042 1977.584717
506.628754 -1052.775513 1987.833496
480.046661 -1050.535278 2020.457764
259.832092 -950.638367 2091.586182
387.530151 -967.000732 2010.549194
205.385605 -877.529724 2033.935059
462.278320 -1059.661987 1877.783936
99.478539 -1220.865356 1729.927856
494.454315 -1085.126221 1923.834717
115.134346 -1109.511597 1801.164429
251.691833 -993.745544 2159.718018
402.730774 -998.037842 1865.604980
325.499359 -913.074524 1892.585205
504.165955 -1072.918213 1880.441650
521.262512 -1069.532837 2018.850342
362.128784 -1248.051270 1741.587036
195.516785 -1240.917236 1745.450562
356.983246 -1077.028442 1831.419556
267.027039 -1204.371704 1759.055420
333.931152 -889.145630 1948.047607
361.825806 -1007.515747 2086.078125
351.454742 -910.271423 1941.858643
512.380188 -1042.875366 2010.797485
271.149933 -1235.709473 1735.227051
448.226685 -1038.437988 2011.803833
453.714111 -986.191284 1979.657715
167.578094 -1024.709595 1841.684692
411.102417 -1117.873169 1813.298706
170.564804 -932.714355 1904.256470
375.496307 -998.919861 2062.225830
441.986725 -982.996338 1885.357910
264.115753 -1234.460815 1712.243896
173.348190 -1038.313599 1832.898804
357.323181 -1012.141907 1859.612671
141.963974 -1126.715088 1782.565186
428.692535 -1017.792419 1883.625488
422.571106 -981.729309 1874.298096
401.281006 -1043.126587 1838.001587
451.702271 -1061.348511 1906.985474
389.998566 -985.980530 2036.757324
403.340302 -1054.818115 1846.092285
176.486664 -1228.818848 1719.260864
420.943237 -916.867126 1924.172485
217.398819 -1125.538452 1789.703613
177.489304 -947.670288 1894.133301
336.409180 -909.569824 1890.342896
285.503479 -1153.661377 1782.585938
397.824493 -1052.811279 1847.003418
312.036102 -950.631042 1872.684814
205.847534 -1099.970459 1805.473022
394.317566 -969.782471 2011.259888
401.223145 -997.843506 2056.013428
499.103516 -1085.275269 1914.808838
433.054962 -1023.536560 1905.823975
283.274689 -862.581787 1940.070923
381.074890 -901.721924 1920.326782
186.796341 -892.842163 1913.879761
343.653625 -953.295410 2040.939331
406.892853 -927.249329 1908.044678
241.998871 -1022.783081 1853.894287
115.859695 -1214.167114 1769.115601
97.402458 -1108.574707 1792.479980
450.803558 -1054.795532 1889.937500
428.751709 -951.860474 1981.628784
293.872375 -916.990112 1976.245972
306.636444 -928.327148 2007.441040
458.230408 -1061.206055 1937.159180
458.016449 -1051.874634 1884.065918
141.417770 -1133.740845 1812.521362
252.412491 -859.830078 1957.100830
257.502411 -874.176208 1958.878784
145.266800 -980.269958 1844.384644
422.548187 -1045.901001 1924.326050
509.675659 -1090.912354 1916.057495
195.623398 -880.995850 1920.967163
414.947083 -1001.846497 2063.479492
198.650604 -864.054443 1959.526123
352.633575 -1018.160522 2119.733154
401.813904 -933.819153 1887.521118
84.217567 -1142.133179 1765.326660
541.631836 -1089.608643 1883.553589
435.706482 -962.137756 1999.989624
325.827332 -930.805359 2020.333740
148.245422 -1089.572021 1790.728638
223.167221 -1152.617065 1769.549561
380.387787 -940.837219 1972.486938
354.372833 -1243.852417 1746.979736
155.751617 -1066.017456 1821.942383
554.165710 -1091.688110 1866.004272
352.907135 -1158.775024 1772.508911
359.519196 -1158.836182 1772.299561
319.580994 -1082.923218 1821.854858
379.160431 -1178.959961 1776.919067
337.571777 -965.500854 1874.756470
443.046204 -1047.562622 1903.958374
195.740051 -959.278381 2167.472656
372.605255 -998.159302 2078.529053
278.422455 -1237.162720 1711.904907
205.379929 -965.930176 2162.878662
439.592377 -953.915100 1993.064575
239.265396 -920.360474 2052.117188
331.417419 -918.318665 1892.132324
297.017853 -885.688171 1946.854858
343.289154 -1252.874512 1725.381592
445.612610 -939.409241 1936.397949
277.785980 -932.444458 1880.891113
256.335358 -1059.292969 1835.209229
155.026413 -1188.674927 1752.964844
226.982086 -985.264099 1865.375610
257.673859 -1328.290527 1771.142822
448.510437 -1040.836304 1994.955811
336.856354 -1024.151733 2153.083984
147.021667 -1080.241699 1807.747925
267.306458 -940.633606 1892.177124
375.383881 -902.888428 1925.057983
245.476105 -864.359680 1926.551514
264.038544 -899.736206 2017.085083
422.655334 -1020.298340 1866.986084
371.411682 -934.985291 1891.001831
253.698914 -1193.684448 1753.148682
430.421753 -1088.004395 2096.664795
509.113373 -1099.635986 1970.571655
407.001587 -933.453979 1937.752808
417.119415 -1047.302124 1891.822144
206.400330 -840.083130 1967.285400
249.090240 -944.828247 2086.061279
190.698151 -889.922546 1920.354736
197.988754 -925.266724 2107.115234
317.326691 -1196.578979 1745.143433
359.482208 -903.184082 1937.038940
281.641083 -954.552795 2076.646729
429.177979 -1035.802002 1872.463257
235.240723 -1066.120239 1841.725098
291.158234 -875.716736 1947.335938
388.150909 -980.779480 2033.736938
333.458252 -1196.994751 1754.544312
282.966888 -973.849976 2104.926514
100.808022 -1104.533691 1778.119019
402.291138 -1051.434204 1855.648804
351.611298 -962.705200 2023.994141
235.360886 -907.975403 2038.006226
522.904602 -1076.942627 1885.109497
388.216125 -983.012329 1868.614624
210.089218 -976.231079 1878.696899
506.112885 -1078.273682 1908.619751
359.467285 -1239.369751 1748.336182
198.859329 -1155.540161 1807.597778
183.775574 -1157.130615 1763.439575
305.107727 -1225.277344 1738.516479
275.352631 -930.109619 2038.030151
284.905579 -1008.026794 2134.666504
200.491714 -948.798035 2180.913330
307.848328 -1282.876465 1725.045166
377.002472 -951.086060 1877.407471
413.022675 -971.796387 1884.959473
366.838501 -947.727783 1888.578979
336.482422 -1202.739136 1753.322632
139.248459 -1061.445923 1818.966431
292.399536 -945.226746 1875.062988
280.615662 -1170.104736 1759.440308
399.682007 -1083.998291 1827.729492
239.103912 -944.499084 2094.794189
215.834564 -958.396118 2129.513916
381.152374 -1010.586731 1854.520996
132.671890 -1110.689697 1773.748047
337.836823 -961.051208 1869.597168
144.145554 -1176.182129 1767.222534
257.594757 -957.525879 2101.141602
318.336365 -945.268555 2026.564941
218.731094 -961.268372 1876.328857
213.789520 -1217.324097 1716.999756
314.079926 -982.498596 2116.557617
309.146545 -944.165222 1875.474976
327.899811 -1007.958679 2129.531982
349.527802 -988.891724 1861.177979
410.261047 -973.002625 1865.660889
302.648193 -892.236633 1942.704224
379.556580 -971.166565 2042.336304
397.172058 -1143.936523 1789.696655
216.799438 -1100.016113 1805.640137
440.703491 -965.366211 2008.958252
82.824875 -1144.500610 1756.043823
346.658630 -1072.067139 1825.868652
209.189850 -939.495300 2110.535645
378.657837 -991.843323 2058.093506
274.673584 -1069.517578 1831.081421
381.281769 -1136.876953 1788.754150
447.078033 -1074.898804 2077.260010
419.052124 -987.953918 1874.347046
288.644592 -1233.519653 1725.545532
399.217010 -928.375488 1891.727417
525.185364 -1076.356201 1979.943359
493.563263 -1074.595215 1861.194336
533.252686 -1070.718262 1990.285034
515.402039 -1056.918457 1990.573608
331.631195 -982.897095 2104.357178
386.891388 -1096.445313 1815.804688
139.821869 -1193.396606 1784.796875
195.807648 -924.275635 2086.864502
361.209076 -962.956909 2029.440918
245.928665 -1231.658813 1707.740112
451.687317 -1076.416382 1887.693726
366.926636 -1124.827759 1780.579834
394.675293 -928.759094 1948.136841
328.520325 -1070.467041 1830.807007
305.538208 -1136.864014 1797.117798
248.137161 -1140.273560 1786.327271
204.890274 -974.776733 1872.249268
312.721741 -896.182129 1901.328979
279.552246 -974.244751 2114.432129
394.038177 -1054.175171 1838.593384
487.539551 -1076.213379 1871.602051
245.395538 -863.931152 1938.359131
289.785553 -1088.623535 1824.511108
85.600792 -1139.312256 1761.525146
181.034882 -896.974487 1904.567261
341.048737 -1080.651855 1830.636597
373.268768 -939.683350 1904.165405
465.799347 -1030.916626 2010.068481
341.921143 -998.130188 1861.844360
454.040375 -967.652588 1995.755371
457.521667 -1078.613159 1941.391357
265.804321 -1124.690674 1799.328979
447.220154 -1052.915527 1894.768066
349.501556 -933.887390 1892.761108
259.340820 -1201.831421 1739.310181
453.265167 -970.603943 1909.135986
281.603516 -906.374207 1969.401245
296.502563 -1125.613647 1789.751709
445.540527 -979.392090 2072.582520
100.448738 -1098.769653 1765.076172
240.173813 -1204.534058 1736.644775
216.225327 -895.126465 2032.103149
395.061005 -1140.079834 1823.152588
399.691284 -1089.261597 1828.312622
396.027588 -964.665649 1993.252197
445.706421 -1000.858521 2064.113281
376.978546 -950.470825 1883.817261
278.620453 -927.422729 2010.831299
370.640350 -1272.008301 1809.579712
329.133087 -1221.867798 1748.504883
290.587128 -1209.860718 1726.410767
500.503418 -1064.789551 1981.347900
258.605225 -1211.431885 1732.363892
304.593140 -934.917358 2024.889893
462.078796 -1046.162476 1892.879761
515.600830 -1045.573975 1996.182739
505.306061 -1053.404419 2037.211548
408.179749 -1100.907715 1873.770020
311.836426 -1070.376221 1827.008667
439.047363 -956.493469 1907.294434
113.284126 -1146.750000 1766.618774
411.823853 -953.527527 1979.292480
223.125198 -830.784851 1929.488403
106.033257 -1084.412964 1806.114014
403.920410 -1172.971924 1813.258423
330.686066 -999.983765 2110.900635
228.403931 -1120.144409 1798.673584
426.455048 -1065.758667 1974.425415
239.972168 -1073.599365 1837.961060
146.735977 -1099.960938 1800.599121
177.542557 -1002.613770 1853.764282
318.200714 -947.195129 2034.918335
396.644135 -1111.424561 1807.734131
307.906189 -1104.650146 1803.363892
406.792908 -964.536194 1875.306763
216.601105 -862.508728 1938.969971
520.873596 -1088.022095 1912.040405
410.195038 -940.135864 1887.724854
218.224960 -1046.157715 1852.148682
477.334686 -1042.347778 2031.667236
343.242096 -1196.531982 1754.407959
221.876343 -961.952576 2136.316162
409.341492 -1018.379517 2092.204834
407.071228 -1151.978760 1861.735596
298.591248 -902.234436 1900.792358
383.839935 -990.786926 2055.479248
407.932617 -1027.155518 1861.432739
358.478363 -1067.487427 1837.618164
307.329681 -911.585388 1996.829712
103.672836 -1087.378052 1806.870239
210.752335 -839.284851 1968.286377
210.118683 -963.511902 2145.699219
420.475952 -1058.758789 1868.352417
222.121307 -935.752502 2086.390869
195.857941 -1271.000366 1726.541870
323.204742 -907.985474 1895.573975
456.789948 -1053.020020 2054.133545
371.624542 -975.516785 2057.599121
413.400085 -1148.910522 2088.661865
452.265594 -996.356445 2034.677490
228.882217 -883.599731 1977.887573
349.226929 -1125.653931 1779.818848
168.486526 -972.405212 1879.672363
221.370132 -1051.866821 1847.438965
184.960449 -1194.760498 1745.807861
326.778442 -1188.625732 1747.519531
145.634750 -1094.761719 1802.051514
274.979187 -888.278564 1905.568970
319.675934 -1193.331177 1748.715942
309.807953 -983.101074 2121.229004
268.001221 -1129.010376 1785.860107
356.189545 -1013.939453 2115.170898
301.900848 -1255.446167 1708.715332
261.714783 -1029.267578 1853.644409
341.604126 -993.415466 1855.762817
540.770752 -1101.305420 1888.303101
286.851746 -1255.298584 1716.651367
140.192703 -1068.432373 1808.177979
295.593475 -1069.471436 1831.916504
291.570648 -1169.761230 1769.560669
453.876678 -961.717041 1931.916504
205.426697 -972.533997 1883.336304
205.954391 -846.215942 1978.067139
194.784210 -905.200989 1885.824219
393.267700 -1012.679993 1852.960815
105.562119 -1087.929199 1811.253906
302.824036 -1072.828979 1830.557739
237.618713 -1077.828735 1834.371826
392.089142 -1039.316040 2134.024658
113.952042 -1170.404053 1796.327393
192.569229 -920.551331 1892.886597
181.409424 -994.191406 1858.387085
369.641876 -989.564392 1850.853760
373.763611 -1036.673340 1838.668213
432.869843 -1051.073853 1920.469604
403.953644 -925.640442 1912.230225
468.638123 -1038.952026 2024.970703
204.797745 -860.023743 1915.378052
255.906143 -910.783752 1896.538574
114.484711 -1074.639526 1809.340332
417.865570 -1072.510864 1885.170288
304.557983 -898.657898 1962.678223
379.179413 -988.392517 2051.712646
374.879700 -953.357422 1878.979858
322.344238 -946.713318 2030.850220
352.431763 -989.774658 1854.364258
254.415375 -1161.960449 1769.033081
189.020844 -1365.374146 1896.007690
280.158203 -918.096802 2017.327515
183.132111 -903.534424 1898.178101
385.185852 -1075.150635 1823.520508
362.992676 -1009.359985 1848.189819
357.310669 -961.294373 2022.045410
175.756088 -1171.722412 1753.853027
252.761169 -999.974915 1856.749268
119.899269 -1082.846558 1800.155151
268.671906 -1028.034424 1876.157837
210.014709 -889.173584 1930.952148
136.001465 -1018.880066 1848.903198
413.079987 -1017.884338 1845.616211
380.113251 -928.137939 1955.081055
307.788330 -1072.694946 1822.794556
258.422119 -920.051636 2029.721069
169.802521 -1230.484375 1754.066772
231.892715 -1238.649780 1732.143188
279.467621 -960.891479 2094.626953
386.354645 -925.507202 1891.198486
353.401337 -969.838745 2020.979858
437.735931 -968.596497 1903.828613
407.707855 -1179.183716 1886.062866
389.819061 -1098.585083 1831.815308
470.392944 -1078.468140 1873.467407
521.548767 -1089.409546 1891.537354
384.600342 -953.346619 1881.384644
279.409149 -1058.255493 1835.381348
421.271851 -1014.407593 1880.244263
412.722321 -988.598694 2022.279297
315.648315 -1193.190186 1743.030640
202.444458 -952.952637 2147.619629
219.343277 -871.769714 1975.369385
325.670227 -1341.318970 1765.011597
445.340363 -1091.799683 1867.379761
385.307343 -1122.143188 1790.009155
481.860291 -1079.632324 1876.599365
504.834473 -1056.028198 1993.586792
214.711426 -1228.868286 1723.177490
488.672760 -1070.549561 1869.997070
303.277130 -1188.449463 1743.010864
327.459473 -1227.739380 1740.395386
450.259521 -1060.709839 2060.350830
311.604431 -1063.981812 1835.038330
196.338516 -896.432373 1922.487305
194.818634 -873.544312 1941.643921
403.434021 -932.222290 1938.716919
450.561066 -986.460754 1919.269531
169.937668 -1099.179688 1806.739380
258.820160 -904.394592 2023.364990
549.738098 -1095.456787 1896.335693
407.978455 -981.171692 2035.469360
228.685699 -869.981445 1969.608765
208.104370 -1079.955322 1810.211792
398.845123 -973.795349 1877.040771
230.952682 -1151.796021 1779.351929
287.040802 -963.403625 1866.698364
542.635315 -1073.289917 1881.000366
210.399704 -1092.326782 1803.895630
452.785400 -988.734558 2045.630981
389.930176 -1151.716797 1776.995361
463.624603 -1059.952515 1987.938477
263.255188 -880.984192 1923.796265
221.587601 -961.099182 1883.449097
373.530426 -946.037598 1878.333740
384.354736 -931.877014 1884.732666
143.278885 -1107.725586 1793.170410
225.284637 -1152.207764 1791.508057
446.350922 -976.210815 1922.330200
543.455139 -1081.284180 1880.289185
263.691193 -908.281311 2009.436035
388.657043 -1051.597900 1837.116333
373.287231 -1058.636108 1826.176025
424.600739 -1147.837402 1824.180908
362.753235 -940.224609 1988.539429
220.711243 -1165.588257 1760.939453
297.024139 -869.794556 1946.827271
179.450104 -974.013245 1873.824951
340.884155 -1246.894653 1747.335205
357.166016 -905.023438 1918.546509
195.741959 -1005.982788 1852.565308
196.717880 -976.565735 1864.794800
492.739960 -1049.927490 1900.182983
458.340515 -1033.238403 1999.017456
302.750153 -885.501099 1908.873535
197.079529 -1075.341553 1833.837280
455.249969 -1034.397217 2059.364746
200.519470 -1095.265137 1809.235718
119.215103 -1130.905151 1772.425293
380.809540 -976.681946 2029.672852
365.020386 -932.508362 1908.002563
488.839417 -1077.785156 1895.819336
457.158752 -1058.557983 1999.185059
281.337494 -1145.292969 1776.331909
196.704315 -1159.024780 1763.283203
321.799103 -1191.412354 1737.470703
283.792755 -1234.394531 1713.724976
424.775024 -1043.157837 1866.123047
457.183075 -1030.136353 1907.818970
374.122772 -1056.229858 1827.849487
372.430054 -912.557007 1902.248779
399.500153 -1076.644531 1833.680054
230.870880 -1360.088257 1840.138916
323.170074 -917.106812 1891.723755
417.078766 -942.564087 1937.543335
315.947968 -921.915833 1892.800293
445.246674 -955.368164 1964.419922
451.392578 -982.694580 1986.847412
276.989288 -1257.503418 1706.409790
378.982910 -1023.872437 1849.050537
375.888916 -1014.422729 2076.748047
265.924194 -1196.566284 1753.598145
287.427887 -977.075195 1849.080933
384.258850 -995.364563 1859.237915
356.170868 -1217.228149 1772.400391
440.092743 -982.066589 2060.428955
265.334351 -962.642273 2102.470947
337.249908 -1007.930664 2119.520264
443.193207 -1032.679688 2079.130859
277.083679 -1364.003662 1808.167114
148.105865 -1242.186035 1721.060669
243.289078 -1191.175537 1755.644897
380.501648 -967.433594 1996.498535
88.681190 -1123.274902 1777.710449
108.007271 -1246.917969 1755.451660
356.766907 -1225.293213 1740.994995
242.311340 -834.976746 1943.859131
163.644012 -990.429260 1867.216553
355.989044 -1248.570313 1745.459229
383.670349 -1069.433472 1821.263428
183.088028 -903.446533 1920.190674
384.113098 -1015.267761 1850.571899
314.233887 -1012.228638 1855.397583
361.783417 -1170.460938 1783.296875
439.015442 -992.577515 1946.029175
368.451263 -916.500549 1940.488647
445.340851 -969.880493 1960.021729
258.937836 -985.808228 1872.969238
221.150543 -881.981812 1990.491089
360.774872 -1284.945923 1738.233643
446.591461 -1059.161743 1983.645020
387.010864 -1119.756592 1792.340820
244.614944 -957.776794 2115.953857
252.713577 -1297.933716 1726.324951
327.584137 -1258.880981 1735.491211
324.955963 -1168.403320 1762.991455
376.707916 -996.322083 2057.128906
323.151093 -1214.386230 1738.866699
453.610687 -1019.282837 2085.663574
172.895752 -1061.448486 1828.906494
225.830582 -1231.673828 1730.272095
395.476990 -965.701050 1875.402222
357.506500 -893.265076 1912.055786
227.442764 -900.617737 2025.260376
338.323883 -1008.994995 1863.419312
112.674889 -1210.685913 1749.448608
143.251572 -1121.662964 1785.487549
350.430115 -1230.551636 1741.044678
315.631683 -1105.740356 1811.500244
330.846832 -1303.222534 1742.079712
320.183685 -879.232300 1932.940063
439.136017 -934.209167 1900.640991
438.578125 -1044.899902 2122.320557
282.529602 -1316.901611 1738.171387
130.701080 -1180.663574 1802.730347
370.166595 -935.103943 1884.905396
372.571533 -1237.072144 1763.010132
226.552399 -983.232483 2162.938721
279.520477 -954.492615 1879.533203
321.025909 -1036.345093 2158.147705
502.990692 -1071.539307 1971.734497
207.793747 -876.085388 1947.446533
378.997101 -929.977234 1943.996948
272.293640 -946.576233 2076.736816
535.008484 -1092.637695 1877.185181
415.922638 -1111.476440 1844.600830
289.522308 -885.657166 1906.139038
273.167938 -1370.936401 1821.331299
287.909912 -1019.620422 1859.509888
220.676147 -995.394897 2184.522217
458.821442 -1047.184448 1988.776733
402.436707 -1086.187866 1828.449097
288.785797 -950.222168 1877.623047
446.417053 -1060.401367 1920.464111
282.879364 -1121.417480 1804.425049
203.153793 -866.680420 1953.671021
449.542877 -957.513916 1960.963257
227.298981 -1214.321411 1741.614868
326.447235 -1235.325684 1723.597656
264.970581 -977.392944 2126.130371
201.783188 -1038.893921 1848.782349
384.508118 -1168.538574 1778.455200
475.818939 -1069.315186 1914.205078
381.630157 -950.875916 1871.246460
523.073059 -1077.356445 1990.963745
311.812988 -880.576294 1910.487671
322.918549 -937.637573 2006.373169
193.913300 -1234.089966 1725.988403
410.575592 -948.438477 1960.618774
539.564148 -1085.872192 1906.813232
284.305481 -1144.591675 1785.843994
144.885132 -1063.121216 1816.998657
452.872253 -1038.672119 2129.020996
476.999023 -1072.418823 2059.469971
370.587830 -982.662292 2071.326904
170.975250 -1033.349487 1841.035645
140.240158 -1090.637939 1818.668091
300.841644 -901.772949 1899.449829
172.084732 -932.296387 1908.343628
315.206360 -946.242554 1877.432129
305.229584 -1077.841919 1827.465576
443.172089 -1062.376709 2085.133545
430.425964 -1067.802124 1887.584229
172.981567 -1150.212769 1794.423340
419.125183 -1072.287476 1861.156250
342.965088 -1260.799438 1722.395020
216.316971 -998.193420 1857.246582
458.925629 -1059.770508 1995.771729
415.071136 -1106.394897 1848.331177
440.808685 -970.841125 2020.822144
315.203430 -1280.978027 1707.539307
378.206024 -1064.504883 1820.789429
448.071564 -1042.390137 2034.976685
287.101288 -888.461121 1959.877808
566.694153 -1081.404053 1879.527100
317.173462 -1038.649170 1846.584473
123.719414 -1146.469238 1766.505005
452.249908 -1013.432800 1980.591675
439.380524 -986.408997 1945.963379
206.422974 -840.443176 1968.917236
442.671234 -1013.855286 2090.752686
215.158478 -989.128174 2197.683350
123.333145 -1078.163330 1812.621582
397.093658 -1063.629761 1846.184814
454.045166 -961.647095 1973.996826
412.253510 -950.488037 1958.978882
83.127747 -1179.902222 1747.223511
332.915924 -917.338440 1990.733398
215.230362 -1062.079346 1838.006470
336.053711 -1210.987061 1744.098633
444.558502 -928.707214 1922.703125
333.097717 -1012.973145 1850.734985
459.444183 -1072.340088 1929.576904
385.254181 -933.438843 1910.305664
386.112732 -976.230896 2017.851563
151.345490 -973.283142 1874.225098
259.610443 -984.670044 2144.822754
179.880356 -930.215027 1851.749390
240.728592 -870.221130 1923.062256
479.335907 -1083.741699 1869.820557
212.079376 -883.111084 1929.714111
214.214645 -1052.244019 1849.232056
304.513214 -1084.972046 1818.724365
216.010635 -937.541870 1887.872803
276.518311 -940.262695 2073.645508
247.175064 -1029.428101 1850.749756
127.164230 -1201.729248 1748.019165
269.091492 -892.854187 1909.944946
445.712738 -1040.679199 1894.624878
264.281067 -941.169128 2070.330811
460.462036 -992.609924 1972.139648
216.151871 -948.010376 2116.641846
415.726837 -922.933533 1901.611328
204.466187 -1059.604004 1832.099854
341.105621 -918.501404 1887.782349
112.367569 -1086.734131 1806.585693
400.348053 -1151.416260 1782.955078
136.253555 -1010.532959 1835.438354
318.627319 -874.828186 1914.323853
511.691223 -1057.892944 2021.500122
254.519882 -1098.691284 1808.393311
202.678665 -870.668335 1948.703613
436.873688 -963.813293 1902.937622
420.892822 -980.649109 2027.916138
270.692017 -935.691895 1881.143799
307.608276 -1265.250244 1703.338501
363.776672 -939.142883 1880.222534
409.393829 -1061.426514 1884.189819
258.548828 -941.014893 2070.727051
398.360382 -1050.378052 1830.778198
173.961639 -1004.036926 1851.418457
482.640686 -1064.554688 2051.466309
487.158051 -1084.804321 1921.433838
419.709167 -992.919006 1875.010132
214.510223 -1008.960083 1884.448608
345.232513 -1249.027710 1739.277222
368.849091 -1262.856812 1760.954712
314.541595 -1202.396606 1755.470581
368.687256 -1252.350586 1761.283203
120.849678 -1220.290161 1772.262207
207.693710 -904.556519 1919.382446
324.903076 -1184.088257 1748.742798
173.477036 -950.114197 1888.603760
339.687012 -1086.085083 1825.746216
333.464355 -972.245911 2064.901123
290.577118 -1071.963623 1830.666016
188.167465 -1145.666138 1797.012695
444.364471 -1056.652954 1885.019653
294.908691 -985.867676 1846.643677
155.044479 -1089.214233 1826.742798
436.997620 -943.467896 1938.962036
206.626266 -959.856689 1875.577148
201.116867 -890.065125 1893.508911
297.031128 -1089.502563 1817.758789
298.525787 -1167.506104 1774.700562
140.279419 -1017.665894 1818.476196
382.629578 -1017.308411 2096.940430
220.842636 -991.624084 1873.510498
268.528320 -972.693298 2122.396484
472.705353 -1046.463867 1997.324219
422.863892 -1027.439575 2128.004150
68.547783 -1156.699097 1768.435669
424.653015 -979.116089 2029.423828
387.911285 -964.224609 1871.363403
515.842712 -1065.819092 2016.529541
215.291611 -853.991272 1960.027710
245.514297 -942.001709 2102.121826
239.709503 -1042.806030 1862.652466
208.214767 -1142.941650 1784.428467
331.071716 -1204.989380 1746.772217
216.582367 -905.041626 1904.180664
154.483047 -991.869263 1844.317993
179.397049 -898.696716 1923.677124
407.321014 -1026.127197 1852.198853
382.089752 -1054.597046 1836.151367
380.086182 -982.063416 1868.949341
419.124054 -1124.186035 1879.073730
356.399200 -1089.242798 1811.872192
213.551788 -857.950134 1968.172974
443.551727 -1028.116943 2084.092285
453.011871 -1052.109619 2082.237061
103.827477 -1153.303223 1758.004150
442.925018 -943.423218 1910.660278
211.923492 -958.715149 1886.780884
355.243774 -915.891968 1892.514038
376.647888 -1235.291016 1765.446655
252.312729 -1169.670410 1763.837280
321.914795 -947.611450 2024.093384
265.402832 -917.548340 1893.728394
420.855865 -1126.113892 1814.973999
121.435303 -1301.544556 1837.554810
451.586456 -1022.250854 2032.437988
92.581688 -1084.097778 1788.461304
109.648972 -1142.291016 1763.626709
264.110931 -1130.761597 1804.530518
110.272552 -1093.936401 1802.427856
459.430603 -1062.103027 1901.024780
444.021393 -980.797119 2044.239502
137.808990 -1134.306030 1780.250000
385.456726 -1071.608887 1816.853516
226.115433 -965.076538 1874.917236
230.874802 -1047.616577 1853.225586
309.095703 -1166.989014 1781.245605
528.168884 -1063.368286 2017.300415
221.601425 -942.115295 2118.346191
378.874451 -964.089844 2008.771851
271.911041 -1001.636780 2186.663818
450.384735 -1031.826172 2058.388672
445.511200 -956.760254 1886.473267
434.943329 -987.711731 1929.707031
407.706543 -1076.828735 1842.647095
349.777740 -1154.685303 1766.135254
205.314255 -883.894714 2064.189697
241.189285 -1031.287476 1863.535156
354.025513 -1241.830566 1724.506104
297.489838 -933.637695 2024.556641
288.152893 -906.118652 1983.550537
191.973175 -874.940735 1922.505737
306.243195 -1249.661987 1715.166382
409.764771 -992.483154 1859.724121
319.902802 -1206.177124 1736.933350
391.467621 -973.332581 1998.276489
36.476234 -1286.774170 1887.105469
192.191132 -870.380066 1935.575562
477.459290 -1080.020630 1873.972046
333.437439 -928.082153 1982.240356
172.894470 -1030.053345 1835.362061
116.246170 -1148.090088 1751.246826
328.737732 -1025.141846 2162.554688
116.057556 -1174.558350 1754.314209
280.586456 -1219.979004 1748.731079
207.089722 -858.672913 2012.808838
361.283478 -1172.350464 1757.481201
342.588196 -954.815857 2025.237671
365.083008 -953.756226 1869.368774
256.282623 -870.130188 1953.661255
444.619385 -979.182251 1949.037842
240.601120 -995.698303 2199.130859
445.734528 -1029.988770 2047.086182
402.951416 -949.046021 1885.515137
228.331711 -908.686890 1907.028076
133.815201 -1005.997131 1858.929199
175.854843 -1208.639893 1716.357422
523.748108 -1066.316406 2013.440674
384.341248 -976.446411 2025.829102
335.290588 -1202.798462 1751.452271
424.015686 -950.926270 1886.377197
411.246857 -1138.421753 1814.818237
157.647873 -1097.904907 1804.956909
124.267860 -1082.897949 1802.181274
475.770630 -1063.997437 2063.605957
308.088745 -1157.792480 1776.129761
281.468689 -891.272827 1909.826538
116.620750 -1215.485596 1736.130737
191.016449 -1100.721191 1814.788940
346.591064 -1128.398315 1786.696899
389.171875 -998.548218 1855.284912
207.955582 -1163.775879 1761.181152
330.618622 -1173.057251 1755.364746
242.028610 -925.196289 2057.991699
282.744324 -1128.839844 1800.498657
455.510071 -997.632813 2011.697144
227.167572 -923.755066 1893.295532
453.556458 -988.907715 1935.615601
109.884056 -1049.607300 1834.304443
389.763824 -1086.886230 1819.957031
364.796173 -923.404785 1911.495605
397.494080 -1187.505005 1804.653320
441.736176 -1018.506042 1996.952148
334.431702 -1183.922852 1762.457153
234.364670 -1157.240601 1767.115601
438.764709 -981.287354 1918.780396
132.769882 -1066.847534 1816.477905
180.668808 -1229.162231 1732.453125
65.838333 -1180.024780 1727.891968
228.606857 -1226.151733 1706.624756
304.999237 -896.132080 1910.928833
306.505768 -972.776245 2090.875732
381.452698 -1248.826660 1750.306396
190.883759 -1016.552368 1867.983765
435.159607 -1037.466064 2123.855713
425.805908 -1088.680176 1867.830444
312.746887 -979.489807 2088.954102
444.657166 -963.148438 1950.403687
298.875641 -989.749329 1856.867188
326.829315 -945.567871 1872.405884
328.453735 -907.947937 1955.562012
198.575531 -920.229248 1899.252441
444.604248 -928.799316 1927.641479
387.746185 -1017.411377 1849.864380
458.585999 -1050.336670 2012.469482
318.649597 -1003.306458 1868.213257
355.774780 -950.114563 2012.961182
370.351166 -1285.129639 1793.959229
473.796814 -1068.301147 1912.100464
315.837463 -1190.669434 1737.263062
193.757751 -910.311096 1888.710205
332.171021 -944.699402 2022.667969
241.788147 -921.862854 2049.625244
373.237549 -953.503357 1994.952271
205.512863 -898.121521 2044.811768
259.135651 -930.707092 1884.080688
222.947876 -985.945190 1894.822754
167.070602 -934.380798 1871.260742
464.899506 -1067.718384 1901.085815
243.329529 -965.297241 1860.769775
358.837006 -964.550659 1867.863647
162.748764 -1324.522827 1843.513062
156.977234 -1036.893677 1828.834839
368.254639 -1202.681641 1776.270386
309.858185 -1314.682495 1733.314331
401.809814 -1008.398254 2090.381592
543.093994 -1092.651245 1892.399048
289.692017 -976.091797 2126.520996
250.803696 -1157.120728 1773.991699
381.152496 -1053.629150 1835.066528
206.788010 -856.216248 2005.809204
339.372803 -1266.825195 1719.071655
433.937164 -1053.661255 1911.557617
415.669403 -1011.071594 1848.870605
451.040161 -1017.950500 2022.317261
424.895325 -934.170288 1907.191528
218.193375 -1026.533203 1860.265747
467.789368 -1075.133179 2058.312256
237.544785 -1076.252563 1817.206055
466.423035 -1066.470947 1913.690796
287.777039 -922.353821 2037.960449
450.269318 -1065.131958 1931.269775
485.052216 -1081.178711 1875.440918
108.470955 -1137.284058 1763.498779
435.579865 -1043.910522 1884.946411
232.223480 -904.653442 2050.395996
450.766998 -993.343384 1989.810425
398.185089 -936.518494 1952.679077
127.115089 -1217.094727 1719.724487
170.095596 -1045.853516 1837.685425
274.285492 -902.137085 1904.301880
156.515259 -1141.677124 1779.244141
353.584564 -890.262695 1936.951172
440.856415 -985.002136 1940.319458
429.121338 -969.128479 1882.084839
343.404480 -1126.906738 1776.427368
219.529297 -1045.412720 1849.387695
400.338135 -987.300110 1858.097900
261.564606 -924.804749 2046.143311
120.186852 -1160.765747 1762.555908
293.460968 -970.824402 2098.662598
368.173950 -1246.364136 1808.739624
322.662567 -958.835388 1864.777954
357.021454 -1276.709106 1775.791504
86.875725 -1159.162842 1768.797119
368.131439 -1234.927490 1779.173096
243.745865 -933.816956 2095.149902
479.893127 -1058.537964 1983.041870
467.513123 -1035.255005 1903.952515
409.049347 -952.649353 1884.717285
416.169891 -1118.319092 1875.351563
246.920502 -967.002808 2101.621826
174.313843 -1081.155151 1813.339966
239.451080 -1240.147705 1724.213135
208.665497 -944.920349 1882.483154
279.328827 -1203.308105 1744.620483
430.490784 -1104.680054 2099.404053
169.444122 -1123.843262 1786.827148
238.673798 -933.645081 1886.805542
149.570953 -993.432251 1865.181885
368.049133 -1199.815430 1760.545776
189.820251 -910.005432 1912.526245
206.627060 -965.333740 2187.030518
163.126251 -1043.938477 1825.813599
334.265137 -949.911865 2029.460571
333.991913 -956.227783 2039.276855
551.215698 -1105.951660 1865.635010
197.478287 -942.394836 1882.845459
224.506409 -846.892151 1961.020142
205.325043 -935.942566 2101.303223
209.837341 -945.520569 2106.625488
185.249176 -1044.718872 1839.458130
288.849670 -902.077576 1989.223511
204.750504 -1002.902832 1859.066528
200.026871 -917.030640 1905.502563
222.766510 -851.832336 1930.125488
447.643707 -1001.767700 1964.238647
225.477707 -1254.054321 1701.472534
344.420349 -889.019775 1912.637939
339.080078 -944.459351 2010.126587
215.226151 -948.376892 2134.521240
486.428986 -1076.798828 2056.997559
301.867554 -1201.300171 1734.772095
309.488037 -909.808411 1895.184814
305.074310 -952.019775 2054.068604
338.483826 -936.842773 1892.959595
356.773285 -1090.255981 1807.596802
446.784698 -969.910095 2040.943115
438.331329 -1018.912842 1971.532959
537.586853 -1093.326050 1912.566772
304.235382 -912.188416 2004.963013
452.856812 -1071.279663 1923.997192
311.229523 -984.723022 2106.855713
267.812195 -954.815796 1882.723755
387.855499 -930.391418 1899.552856
216.775589 -878.702087 1996.851929
383.268158 -935.039001 1884.787231
329.383392 -1207.753052 1745.002319
208.162781 -927.343689 2083.689697
457.919373 -937.846802 1922.580566
107.334946 -1168.493896 1778.053345
354.263092 -1031.976196 1847.184326
291.148499 -907.166748 1990.053711
227.617386 -827.981873 1942.234131
298.897003 -1289.902832 1720.036621
375.209351 -976.833679 2056.695068
368.092651 -1237.630981 1783.969360
167.121689 -1122.078003 1806.135864
79.856613 -1140.392822 1717.288208
388.275330 -1042.604980 1835.872803
350.755432 -1189.091187 1769.394165
279.302124 -1192.010010 1768.254395
299.291931 -1031.425293 1844.441284
446.955322 -978.231628 1960.428589
377.056274 -984.541870 1856.597412
196.371826 -934.626465 2115.511963
439.027008 -929.938477 1941.830933
233.022186 -990.148010 2151.850342
205.444992 -919.667603 2050.273682
442.164490 -985.885193 1961.324707
439.988434 -1000.139771 2078.408203
85.354622 -1169.677612 1754.838989
444.883606 -1038.720947 2029.622559
408.781647 -1090.742065 1830.490356
95.072578 -1096.762085 1798.622070
228.394287 -949.102722 2112.470703
532.084900 -1049.556885 1993.946045
122.360840 -1138.274536 1788.693115
441.842438 -964.392700 2014.880005
355.105316 -951.942383 1872.472046
387.172272 -1036.337036 2133.908936
256.277924 -978.258545 1864.118530
217.024292 -844.043579 1931.981201
449.472076 -1008.397156 1998.803955
247.129608 -1137.836670 1784.057739
229.937485 -895.762817 2020.045776
205.062210 -847.349792 1966.360352
165.056122 -937.637329 1902.150024
73.082924 -1175.613770 1749.680908
449.737610 -981.311157 1965.744263
357.445679 -1262.134033 1763.426880
309.581055 -1200.166260 1740.057861
227.623276 -843.064758 1967.119751
243.026535 -1070.073608 1834.709717
285.548462 -1231.811035 1712.226318
428.350708 -1029.957397 1891.748291
122.872902 -1136.248901 1758.791992
442.507599 -1016.990479 1921.826538
482.364929 -1028.279297 2000.160645
