ply
format ascii 1.0
element vertex 1401
property float x
property float y
property float z
end_header
1009.733154 1909.960938 302.300079
988.538696 1943.703857 275.555206
957.350586 1903.738281 251.337387
695.547607 1982.051758 324.907715
1044.798584 2111.365967 291.394836
794.608521 1953.024414 350.638641
1011.422852 1961.143921 386.045197
678.149292 2025.700806 400.027924
790.525879 1955.909058 359.297974
866.609314 1947.480225 477.197205
958.018616 1883.985352 344.008148
873.105042 1913.228882 285.982452
926.988159 1909.625610 179.238953
678.040649 2004.237549 335.667328
988.032837 1904.023804 389.598297
836.717407 1934.634766 355.800049
957.273560 2030.825195 155.683151
919.575195 1920.277466 400.449097
705.993896 2034.206909 583.887512
1004.809814 1917.311279 372.937866
804.706909 1939.734375 447.866882
761.374207 2044.998047 552.072815
779.128723 1941.691650 465.150482
941.697021 1987.543335 133.741455
670.777222 1986.745361 330.961914
938.221191 2019.443481 124.375404
882.167297 1924.364380 371.411774
982.183716 1991.517700 205.642303
1052.451904 1939.100098 350.778442
791.635742 1928.149170 465.763977
944.578491 1891.005859 237.748489
851.057617 1970.503540 490.165833
977.611816 1938.374512 237.300629
892.702576 1900.276855 299.912933
779.877686 1943.765381 488.397369
984.730286 1983.918091 230.426971
952.859741 2011.192139 112.973755
807.567505 1943.961792 358.329193
810.519714 1934.070435 439.332886
685.380005 1971.821411 397.277832
734.614929 1971.047607 349.093872
761.093689 2049.833984 553.776001
1057.534058 2108.774902 378.028625
1023.605652 2017.589844 400.484070
933.848145 1896.861816 339.484955
778.792480 1947.952759 406.543304
1057.469116 2000.514038 459.765137
958.420410 1892.182617 346.842590
1004.879517 1952.959961 527.531006
982.664978 1940.332153 519.927246
951.522522 1889.868164 214.913910
579.319641 2010.835938 312.618195
746.197876 1969.712891 301.037048
616.954834 2035.989746 376.135925
778.827271 1951.997192 359.307220
827.473633 1929.031128 431.614532
839.735962 1945.870850 176.877838
1006.881042 1964.196411 301.290985
881.505798 1910.333862 220.848663
769.897217 1955.421753 381.978699
864.792236 2039.035278 498.997986
760.477844 1942.830688 192.012344
643.420410 1999.650513 404.190125
954.503174 1891.831787 340.826294
832.416687 1947.565430 370.655304
858.729004 1922.005615 249.191406
925.465820 1943.586792 113.167328
969.386230 1937.619019 481.714081
974.527405 1879.723022 325.816071
1014.002869 1902.130005 321.721313
749.798828 1967.187744 435.442932
995.317566 1952.826904 511.175110
950.849182 1920.900391 201.537292
956.050049 1884.942871 273.662323
606.175903 1992.854126 480.498535
708.356995 1965.714355 212.036377
970.468994 1901.114258 390.475525
603.077454 1984.417114 299.264526
997.104919 2207.265381 149.901855
896.111450 1965.075928 454.661133
897.678345 1906.503052 265.184418
843.177673 1955.767212 480.166840
727.404968 1955.707520 206.415710
1006.139465 2094.380615 243.213654
900.926575 1902.236328 289.292175
994.379639 1883.569580 359.336151
970.023315 2040.907593 167.999176
802.671570 1952.607544 299.778412
887.747314 1908.991943 360.523499
1010.083984 2015.957886 266.077667
951.669800 1892.397339 274.374176
1048.666138 2010.231934 435.112823
1030.124756 1921.112793 361.443115
704.017517 1972.070190 405.185791
775.911011 1950.445679 262.424164
984.903137 2045.187988 194.865631
1077.119385 2017.016724 340.985504
699.827271 2016.675293 567.823730
976.741394 2047.677124 178.518600
731.786377 1980.485718 354.104797
678.915833 1982.342896 334.901947
1053.184692 2014.387695 339.128937
638.459778 2014.923828 549.354553
989.111023 1889.123901 362.586304
804.995056 1975.760010 252.251740
780.680603 1954.176147 328.193665
1017.372681 1998.247803 293.827179
1007.139404 1995.912842 278.996368
1015.245972 2122.360352 250.147369
978.981689 2057.343506 176.490784
981.937317 2138.551025 139.949539
985.491760 1905.302612 299.137543
925.246887 1905.585571 393.366516
1001.011658 1890.599731 347.495697
751.387695 1954.991943 443.489777
983.524170 1885.204224 364.773560
936.665100 1889.704224 296.237488
737.654724 1961.116211 200.644516
952.529175 1962.299438 427.980286
760.521240 1958.800537 436.903442
632.873901 2080.640869 518.362000
944.994690 1975.694458 143.877274
897.111572 1905.235962 217.488800
736.108032 1973.126953 528.141357
737.479553 1961.798340 355.153534
967.532288 1957.667114 434.007080
977.564026 2053.810547 177.375427
954.583313 2009.052246 412.200409
976.284851 2028.768921 169.803345
977.873657 1882.736450 319.133972
906.830750 1898.469604 376.989532
849.553894 1937.102295 301.861877
649.341064 1983.487427 270.364563
739.037598 1963.451538 257.801727
972.165405 1917.446777 249.576889
696.719360 1958.177612 483.223724
983.715149 1906.298340 387.480652
777.241943 1959.197876 426.749939
683.973450 1975.100586 393.363861
924.994934 1904.192871 401.076965
721.870911 1961.350342 413.155243
718.789795 1961.992676 466.674744
618.235657 1987.103271 335.942810
941.669922 1899.653442 374.084595
1023.880920 2048.881836 260.174988
1048.875122 2102.707275 325.335724
706.526245 1966.232300 401.992310
908.819031 1899.026855 347.732635
826.790527 1986.543213 253.967010
674.880554 1965.299194 516.032227
992.046143 1924.447266 377.902008
1042.531372 1921.256958 343.767944
857.041138 1924.577148 234.372681
766.259827 1963.601074 242.247696
925.243103 1922.134888 110.811424
1053.094849 2089.525146 395.180389
939.795837 1910.619751 392.496460
1018.803223 2042.236694 289.070221
868.005615 1930.556030 453.185944
988.664612 1922.250610 291.577148
930.755432 1889.258301 251.095825
847.300842 1969.060669 367.331787
1083.888184 2015.403687 347.241302
899.817139 1919.089111 190.144699
938.336975 1944.110229 423.631195
730.169434 1981.239136 538.783997
762.027588 1965.854248 515.378296
743.277283 1968.941040 298.781342
717.737732 2019.779541 595.679626
677.474731 1983.200439 254.253662
1065.884033 2103.462402 330.363983
932.766418 1909.463745 192.012421
975.059570 1994.316772 402.316437
940.848511 1906.120728 179.984283
994.345947 2155.416504 134.108124
994.346252 1981.954346 232.715607
776.404114 1956.169312 360.886963
684.865662 1981.412720 553.559326
834.102905 1940.664307 330.329926
1037.514526 1939.262817 353.307648
790.602905 1951.060913 290.696655
614.433044 1991.163208 298.624390
692.787842 1976.290771 425.024597
944.886169 1890.573364 274.556702
1020.968994 2043.404663 274.524841
873.379456 1943.535889 172.409744
849.918701 1930.033325 216.161728
886.611694 2015.657227 485.730225
784.227966 2026.486816 522.792542
982.866638 2025.223145 203.206238
846.065918 1977.991821 265.023590
969.184265 2130.672607 125.741478
924.806946 1904.188232 324.330719
1075.123291 2027.122070 356.710388
730.968384 2021.518677 562.477478
684.139587 1985.357544 426.982880
777.545532 1956.308716 376.063049
940.181274 1970.430298 138.370911
996.590881 2007.627319 247.739761
847.073792 1922.923340 424.713318
673.031555 1970.594238 525.299194
649.003113 2100.780273 554.879456
957.091858 1968.939453 430.261383
934.493896 1949.739380 120.803154
777.172241 1967.270020 180.110779
874.873413 1921.778687 237.791504
817.711365 1948.443848 401.549469
1065.928955 2019.042480 356.220306
934.919495 1902.120483 256.785706
954.774048 1906.434814 297.744598
970.831604 2067.406494 114.660561
998.234741 1959.511841 507.496063
968.053223 2000.473389 502.283447
1045.458374 2102.587158 274.649750
1044.827637 2107.637451 270.954865
821.599670 1951.085083 280.640472
953.206787 1953.947510 451.438477
983.867920 2013.916138 399.077301
599.378052 1999.322998 362.448120
943.847656 1941.237915 103.837822
980.837891 2074.978760 109.969887
905.438110 1961.689453 432.465027
927.942993 1904.208374 242.281006
928.617615 1900.175537 395.555969
1060.010864 2111.057373 300.637421
977.913208 2104.314697 175.614197
727.341797 1964.662476 412.143463
984.410217 1891.030518 370.370880
1010.683289 1988.047974 294.494690
995.003662 1968.942505 270.804382
652.513855 1988.330078 318.580261
992.136780 1948.337524 382.910919
917.712524 1904.914185 298.959442
765.372620 1946.063232 193.894165
594.276184 2002.100464 412.617676
1025.014282 2054.005127 281.805206
923.291077 1895.763550 259.211853
924.969116 1901.079956 326.563324
1056.267456 2118.758545 313.550323
566.320801 2009.328735 301.183075
1044.907715 2157.040771 295.361816
731.123108 1969.343994 511.021423
1058.081177 2146.910645 304.225250
985.744446 1979.994385 242.824677
822.211975 2027.808960 520.330322
659.763611 1986.389282 249.568253
923.220276 1916.920288 406.987640
963.852478 1935.510498 464.382050
929.699768 1927.601685 125.312538
1074.920410 2104.927734 329.489197
997.704102 1977.899658 262.892761
955.596252 1964.148071 411.263611
1053.826904 2128.491943 279.401398
701.198364 1974.699585 293.995148
977.895081 1885.551270 276.881104
956.672058 1899.719727 175.724060
969.073059 1956.889038 207.186142
1037.908081 1925.278931 344.211395
1011.452515 1940.551270 534.996277
1062.362061 2014.447876 363.147247
603.827026 1980.586548 480.117950
924.789856 1897.395630 346.737518
852.499084 1953.791992 459.966614
1065.474365 2012.758423 471.223602
836.278748 1926.299683 418.706055
606.521362 2036.562012 489.822723
1093.368408 2071.340332 356.315704
833.415222 1931.768799 413.921722
959.421387 2003.639404 488.647552
787.813171 1950.143311 216.202850
817.512695 1950.851196 371.256439
1005.244385 2020.325806 415.533661
813.487854 1936.388672 476.577271
989.104614 1957.959717 485.054382
982.906250 1886.519409 314.005829
846.416870 1942.320923 165.991089
596.453735 1990.301270 353.891754
967.970398 1896.083374 383.296539
817.715393 1934.890137 454.343750
951.951965 1884.971313 305.880432
597.158813 2001.008057 271.565338
912.067200 1905.513062 388.582520
963.029053 2089.121826 136.426865
609.990356 1994.623169 391.923370
607.558594 1994.904175 405.311737
656.874146 1988.410645 305.357147
846.514221 1927.031006 334.778992
727.862732 1981.058105 413.157288
733.705933 1950.841797 456.637604
1005.723511 1987.420776 254.550781
984.071655 1887.944092 373.001465
920.745300 1898.001831 403.559906
949.967834 1937.968262 403.266785
781.898010 1959.277588 242.129456
659.363098 1998.778687 323.560791
655.352112 1997.805664 391.362396
926.857056 1902.109863 318.367798
1062.734497 2004.353516 358.342255
964.578796 2080.269043 127.601540
1012.726318 2040.787842 266.113770
933.955933 1914.367432 392.526520
973.783752 2081.762695 149.969330
992.642883 1936.951050 546.420837
655.708862 1971.574097 535.143005
788.486511 1951.518555 389.252991
925.595642 1916.222656 151.323517
906.286682 1907.792358 204.674164
777.267090 2046.099609 535.382507
727.766724 1971.166016 552.599243
952.720398 1951.066528 483.557556
962.855835 1929.981323 470.317108
997.827942 1939.533691 301.440948
762.197754 1974.837769 300.407074
737.582458 1967.279297 442.137939
1017.441162 2125.906738 231.265015
747.406372 1998.056030 547.098694
1028.403320 1974.730225 328.025177
1039.435059 2039.276123 301.543121
667.815796 1968.364746 468.423401
923.548462 1901.514648 351.623596
1010.442993 2070.598389 218.400955
916.900330 1903.343262 198.531754
582.299561 1997.797852 311.210327
707.245056 1964.644043 460.880188
624.956970 1986.214966 523.632507
1009.879150 2013.429321 428.181885
858.899292 1930.572144 440.931061
700.165833 1969.096069 317.581879
959.014160 1900.535400 373.604370
865.731384 1923.287842 194.523834
1003.051941 1950.824585 315.682495
983.871765 2093.995117 179.613205
1048.249390 2014.576538 481.883514
886.635864 1909.595947 259.361176
886.102417 1940.088501 164.591904
874.309814 1911.382813 154.236862
968.675842 1956.060181 469.106598
899.081848 1910.522583 418.629883
985.423462 1888.076660 302.878998
985.262146 2054.465332 218.809372
855.914429 1927.146606 212.124191
869.236389 1922.331177 192.748856
1057.410767 2042.052856 365.788605
1007.086731 1970.338379 284.568756
781.390747 1944.779907 438.703735
728.702820 1977.380981 382.175140
1039.791260 2005.495117 378.995209
606.897278 1999.381104 461.655243
964.107239 1940.344849 514.589417
895.291443 1906.077271 332.107727
1054.724731 2101.572266 385.442749
786.395203 2031.157104 522.279480
996.362854 2025.899536 412.739990
630.176575 1993.210938 342.874420
610.043945 2023.359497 502.727783
970.662781 1939.369629 458.865814
731.832458 1981.827515 544.574585
1055.582153 2019.766479 450.355255
698.867615 1978.533936 370.775970
1033.243042 1963.224609 363.590668
968.239868 1903.718140 224.037613
697.294250 1990.774048 417.781311
845.537354 1931.939819 201.086594
795.506287 1955.110962 315.591370
926.357910 1950.226074 415.554291
1055.109253 2061.732178 396.845856
950.216248 1949.857178 180.165359
669.731506 1985.677979 298.199707
969.858704 1957.693970 463.653290
950.132813 1885.723999 320.639618
831.863098 1944.829956 347.110687
845.985168 1948.061646 244.786316
910.799316 1905.464111 215.295334
1002.902100 1983.205688 277.243286
648.047119 1994.641113 455.802582
969.210327 1889.673218 340.337524
1012.289978 2010.380493 406.452209
573.087952 2131.693848 357.805939
833.842346 1955.857666 164.510330
969.419922 1939.677124 442.896851
944.005005 1955.322998 184.962128
827.983765 1944.053589 238.346542
918.921631 1900.266968 219.162598
827.592834 1936.233398 388.738129
820.182556 1949.400269 488.666840
578.188293 1986.324463 287.901978
1052.806274 1962.749878 346.287506
1007.614929 2017.058960 260.405640
1032.994995 2008.443604 443.588501
937.723206 1893.356079 369.482880
786.271545 1969.920654 238.920715
917.195190 1905.367065 361.941620
1011.236938 2158.922363 229.436646
664.068298 1975.111938 539.876526
978.589600 1882.062012 311.705841
693.211060 1979.853882 363.953979
917.297729 1911.765991 123.740318
753.842834 1958.742554 503.484833
915.385254 1899.509644 262.647308
600.335938 2059.922119 332.450134
970.508789 1883.100342 332.224854
696.719971 1974.421265 436.151459
973.806030 2010.457520 200.414505
1068.233521 2065.078857 433.930054
1000.295349 2188.893799 120.231422
786.370300 1939.590820 493.973175
777.923401 1939.077515 187.489395
635.890869 2027.170288 547.919556
1008.028748 2130.332764 195.213745
1060.921509 1969.065674 343.777649
689.859131 1975.162720 391.401947
817.758301 1923.976440 478.175232
852.626709 1932.309448 451.061157
1027.904053 2035.045532 299.123993
983.276733 2046.738892 172.903137
803.414612 2010.317871 521.355835
985.549316 1935.637573 520.879822
653.363953 1988.569702 391.920929
911.736084 1898.139526 328.459106
719.817932 1974.649048 447.030640
990.726013 1962.668091 243.122345
1034.476074 1946.520142 363.263031
853.653259 1945.187256 485.457001
882.038452 1905.058716 305.821381
957.927673 1947.199341 197.861389
895.718750 1988.568970 468.775970
799.523926 1952.881104 398.700867
1007.477234 2154.267090 182.424088
736.090454 1957.106812 532.546509
977.268188 1895.910400 239.755493
962.343750 1966.925781 440.177979
635.699585 1993.116699 327.944763
1065.643433 2074.863037 432.081543
707.701355 1953.740356 481.471497
875.776733 1908.547241 291.608948
930.546326 1914.975342 140.810394
982.903809 1938.463623 499.859772
1079.415283 1988.368896 339.666565
828.614563 1949.851563 162.525284
878.901184 1932.827515 132.665421
768.742249 1960.942749 355.847687
746.327148 1940.556519 471.501770
665.479675 1962.226685 514.641785
1046.483643 2096.906738 302.598328
885.054199 1913.112549 290.968170
1001.445984 1955.937988 282.377869
893.284424 1913.123779 399.261230
829.352844 1950.456421 383.224945
915.736572 1943.093018 428.066315
615.573669 2007.306030 430.196533
969.334045 1938.353271 405.444702
1004.687439 2135.514160 164.776581
781.742004 1960.296387 230.482086
1088.337036 2025.597046 345.227722
882.486816 1938.658936 138.109299
971.931030 2023.260986 183.651077
851.224976 1928.536377 404.828796
994.163818 1902.866699 324.492615
696.128296 1956.233276 483.861084
993.752014 2136.333984 117.025856
988.892517 1900.318237 383.542236
950.956604 1887.856689 294.099365
980.784302 1981.807373 223.184006
1028.085815 1983.311523 313.899689
948.329773 1979.331421 409.370667
871.025452 1928.929443 148.867081
927.450867 1893.468384 350.155731
546.863403 2011.952271 309.006927
862.608215 1919.467163 257.743469
976.188538 1888.407104 269.500000
736.478577 1969.018188 522.777588
704.213928 1984.200806 297.314484
1056.651123 2045.191284 390.021423
1073.822998 1974.448853 355.079041
1045.333740 1976.579590 335.764282
954.295837 2008.264038 153.926224
859.106812 1922.389038 263.572083
980.151855 1964.515259 469.193451
1049.773926 2157.070801 251.332275
726.672729 1966.967041 427.919678
663.755005 2031.240967 397.087982
582.111877 2147.414063 368.289917
684.979553 1974.542603 539.538208
1020.079041 1980.515503 308.198486
754.789246 1960.747192 261.972260
983.545898 1942.376587 397.534912
720.372681 1963.508179 527.023071
1008.185852 1995.398926 392.227966
847.100281 1957.069092 253.632187
739.743103 2026.908447 555.322815
663.412964 1981.855835 446.809967
934.642761 1913.463501 170.421646
970.174133 2032.014893 179.982376
764.448975 1955.272339 224.898987
702.051575 1951.145020 472.424011
993.425659 1938.499146 273.558197
1057.081177 2020.074951 334.307465
1023.206177 2016.625244 396.532501
802.979614 1934.646851 446.770111
1053.791504 2124.058594 312.168640
981.177307 1942.537476 276.970642
993.148621 2020.020996 229.540161
984.870361 1901.451172 325.221283
761.730347 1991.180908 534.435669
829.119934 1928.383179 416.526489
643.617310 1997.716187 315.504272
972.907776 2073.234375 112.590996
973.772827 1932.089600 231.775803
966.366699 2145.229492 132.148544
941.464111 1953.973389 431.798218
993.433289 2153.299561 130.832306
990.774292 2092.484863 176.267624
956.671753 1886.224731 300.000641
624.496399 2239.268311 406.749756
717.559570 1977.783203 531.510132
796.536377 1931.254150 443.545624
1029.887573 1926.442871 363.719727
954.166626 1930.711670 202.637848
717.031067 1987.615356 550.772034
789.035767 1931.493286 475.762878
999.289612 1944.617554 294.163727
741.040588 1971.365234 266.065094
873.286743 1932.450928 375.622467
687.441833 2005.435303 567.338501
1029.720459 2067.528320 284.032013
934.681091 1940.516846 111.827011
977.174194 2014.437988 413.960785
1018.077271 1965.304077 393.271088
918.593201 1912.864136 129.609024
964.943420 1938.792480 477.228973
797.815491 1943.629272 404.022003
695.717285 1988.299561 570.723938
975.489868 1961.314819 436.491028
1070.859863 2080.257813 381.369507
679.867859 1980.053345 293.977692
732.411499 1952.846313 473.398499
751.002625 1975.013306 514.570801
743.695251 1977.770996 293.256561
866.017090 1929.985229 473.332336
929.433350 1968.903931 125.547592
823.313660 1925.626221 447.033112
642.699768 1992.277832 458.138000
618.755981 2045.974487 511.413269
953.803772 1961.678589 183.224777
1070.329712 2012.809692 357.901154
897.474426 1900.099121 270.891357
953.580322 1885.338013 269.022186
986.680908 2062.158691 188.623322
804.824585 1961.779297 252.972183
1070.734619 2056.279053 444.087646
1040.523071 1941.612305 349.666290
951.576233 1887.344482 295.127838
727.414551 1970.742676 280.294952
1054.345337 2014.405518 424.804901
806.576233 1935.400146 441.464020
934.618408 1915.080566 181.698059
840.550232 1937.066772 223.942123
841.161743 1936.057007 218.789688
996.406189 1950.547241 287.997467
948.055237 1983.680420 144.973602
1007.077026 1999.737549 268.573517
698.497375 1960.529541 502.011780
878.501953 1916.441040 307.496735
1001.834595 1898.357910 366.839661
1099.845825 2097.636963 354.526459
624.225098 1973.932495 489.057159
853.688232 1936.921997 389.088043
594.017456 2020.759644 339.552277
633.779907 1994.160889 342.938354
906.111206 1909.695313 265.156799
841.497681 1938.411011 227.166763
968.581970 1930.292236 218.134659
676.462524 1984.247192 323.209167
935.496155 1932.417603 415.119965
768.125549 1968.672485 308.404419
869.855835 1939.612183 193.648285
676.942688 1956.505005 486.413940
983.510681 1948.341431 260.966248
760.033875 1956.767212 367.655762
1036.400879 1999.565063 385.472687
848.340759 1929.126465 378.389313
754.573792 1952.897461 459.222626
975.378052 1978.068604 397.584442
915.419128 1913.281250 140.758575
796.413757 1925.689941 463.723267
972.282043 2030.118042 416.169006
963.817261 2093.603760 128.408020
687.138428 1979.885498 233.630325
661.702515 1973.588867 504.823334
748.412109 1952.754639 449.625092
797.340576 1947.480835 351.015625
726.627686 1963.682129 505.001160
913.329102 1906.897339 320.007538
1083.290405 2095.754639 358.935181
696.828613 2002.249512 329.003998
594.444031 1989.942139 359.406982
771.271057 1957.544067 397.325867
808.520142 1946.395142 381.854218
763.834412 1952.864868 401.417572
986.756531 1959.317993 477.614868
973.978333 1965.695923 435.892792
758.382507 1961.072998 214.281540
799.756531 1939.526001 432.780731
980.110291 1912.406616 265.851929
849.232239 1934.868530 405.610748
816.693848 1948.787476 180.743652
1004.316284 2207.343018 131.263794
931.051208 1891.802490 235.921570
1009.831787 1903.125854 359.568451
799.600281 1929.013306 497.110504
867.125488 1920.807983 445.170288
791.840759 1963.091309 299.787720
881.155884 1907.161865 283.119385
962.239929 1985.795044 185.220566
871.436707 1913.237061 258.060699
931.112122 1909.916626 155.506821
771.595398 1951.901489 222.562881
940.727966 1919.867920 159.846878
651.031677 1965.133789 504.648834
683.716553 1958.680176 499.327881
1031.508179 2121.350586 279.181091
701.066711 1989.597290 303.299713
986.808960 1918.102539 375.591278
795.664673 1954.525024 330.269440
614.461060 2002.308350 283.900146
948.990112 1899.607544 257.588959
1060.288818 2027.699463 435.825073
998.913086 1938.656616 527.448853
756.731201 1952.371460 454.555847
740.080444 1960.475708 306.484161
852.833252 1910.918091 163.269470
996.022583 1885.101563 366.582764
1046.760986 2052.171387 311.119324
950.624756 2045.827148 120.271355
582.906982 2004.526367 499.142395
643.780884 1973.392822 481.470978
999.200134 1930.780640 526.085205
976.833679 1919.500732 268.344299
910.249146 1899.569214 293.341705
918.868652 1980.326294 455.276825
866.659485 1928.093140 424.943970
995.001160 1954.402466 534.759216
1045.841919 1983.650024 368.765472
937.734131 1887.084839 269.388916
1042.673096 2143.077393 273.545929
830.289307 1927.699097 467.719238
812.436951 1937.076904 502.638733
882.787720 1918.187012 279.271515
954.420471 1937.913696 400.899139
704.633240 1957.825439 536.431152
711.819519 1976.635010 279.213226
897.834473 1905.245728 407.492432
994.088928 2003.302856 240.935776
928.021484 1893.935547 278.095062
686.166809 1976.679932 428.082642
630.835571 1988.100952 288.341675
709.231079 1972.422241 336.178345
915.851318 1899.138672 342.568634
696.891541 1959.256592 536.284363
937.251709 1891.296753 264.267456
856.905151 1939.940552 372.367767
637.817139 1987.692871 480.590118
672.679321 1985.500366 473.331970
987.157898 1961.667358 249.293625
751.412231 1953.307617 425.900146
613.741577 2005.311279 261.663940
637.903870 2000.154053 267.112335
979.365234 1992.501709 464.392426
1055.823486 2139.337402 297.646393
994.801636 2081.071533 195.773712
998.742249 1921.545166 380.210663
989.251892 1953.769287 386.805664
757.155640 2006.618530 560.089111
1056.371338 2086.451172 400.848846
1017.413818 2024.605957 278.381042
1018.174194 1950.954346 371.822662
798.313477 1962.239380 236.761322
876.263672 1994.079102 482.710480
996.397461 2151.836670 168.287720
621.767883 1970.372070 252.169830
710.717529 1988.459229 546.237793
730.512390 1972.293579 458.123322
966.850586 2025.081909 162.783524
933.989014 1950.833862 434.602905
925.197327 1943.683716 420.396454
953.746643 1945.002319 191.236816
725.723389 1962.103394 513.986511
1011.143433 1967.811890 295.258545
860.249695 1926.037842 187.201904
864.590271 1932.972534 183.313660
819.611633 1955.855591 289.491516
1010.657898 1968.488770 282.288727
1003.332336 1880.805908 345.450989
836.728088 1956.819702 316.767334
738.550232 1971.104736 294.011108
725.386902 1960.132202 525.987061
1020.377014 2094.256104 223.035950
881.021301 1928.598022 179.794479
675.240540 1983.728638 297.079773
821.763367 1978.937866 245.343231
667.400269 1977.355957 551.017761
791.369568 1939.192993 432.419708
818.455994 1940.301270 215.970016
1018.350342 2009.005371 316.516785
724.943359 1957.882813 489.299225
957.207642 1889.082031 361.369080
1047.077393 2169.082275 239.962753
1011.757263 2043.095703 237.963181
983.212402 1935.162109 505.634369
767.349060 1963.798584 352.837921
688.224426 1978.857666 243.485336
693.396484 1952.968140 500.129852
926.216064 1894.222778 266.733795
636.470703 2025.400513 437.957031
925.758545 1895.552734 254.665741
1008.278564 1920.347900 375.416626
816.238708 1931.505005 433.592804
687.578430 2010.358032 586.666077
827.342468 1930.563354 435.605469
924.435486 1939.787842 127.844490
684.842224 1971.432251 442.696564
976.105225 1915.963257 225.078690
963.832581 1901.013306 337.316345
542.156982 1998.793213 305.440979
757.735107 1962.297852 352.596588
643.115173 2006.192871 551.367798
574.625305 1999.729004 332.646271
977.792969 1932.364990 470.778564
1032.827026 2153.972656 243.955063
940.574890 1891.819458 323.329681
730.230896 2012.091553 577.672058
1006.910889 2058.936035 236.125320
723.623596 1989.886108 271.793945
813.887390 1955.532959 483.799011
1019.844482 1985.694092 321.873840
881.731323 1915.102417 245.008759
918.076965 1893.592896 340.217407
938.203552 1895.890503 231.211700
953.084839 1941.676636 191.438583
722.730347 1977.808472 539.885376
596.042419 2023.488159 424.878723
800.116333 1924.073853 482.049042
683.713867 1998.092529 317.739410
563.453125 2015.690918 358.062469
943.796814 1889.744263 297.945709
935.269043 1970.666870 115.103737
596.697388 1982.907593 454.349609
844.147339 1931.190430 186.969360
1001.670837 1879.945313 337.046600
914.574890 1933.075195 131.816711
926.516113 1904.221680 404.391388
783.414063 1954.168579 213.145767
1001.798157 1945.409180 316.720245
569.250610 1995.536621 403.095062
708.672180 1977.015991 226.660477
970.969727 2117.804688 133.732269
842.976563 1996.265869 495.459961
618.701050 2001.749390 273.589203
895.770508 1904.978516 390.242432
902.038696 1906.195313 398.385406
890.857239 2002.286499 474.734558
784.627258 1964.619507 280.192566
659.348206 1986.601929 314.693573
977.666870 1943.768433 243.386841
592.228027 2041.915649 345.819153
854.317444 1921.018433 186.617447
593.691833 2010.370239 293.105713
1062.245972 2024.631958 467.844086
1015.329041 1889.581299 348.303314
950.959106 1900.960815 143.250793
837.537292 1942.149658 407.534241
779.545715 1957.318237 317.251038
711.918274 1986.897339 413.329773
974.433044 1957.411499 216.237610
836.544250 1946.312500 377.780975
791.528748 1937.802246 495.766602
898.618164 2055.490234 456.001404
994.709900 1912.379028 293.044342
676.478821 1986.557251 230.128662
1060.768311 2092.060059 315.117798
1055.035645 2019.786987 437.149963
844.180054 1950.357788 492.225891
725.344543 1966.102783 202.604919
991.906311 1892.702881 330.200470
880.688538 1935.050171 143.582977
791.338623 1954.148560 184.053040
937.425903 1954.576294 422.507111
628.948547 1981.385010 265.332275
965.882629 2044.085449 159.243317
807.045593 1930.626343 486.443726
695.014160 1959.927124 470.382111
832.659668 1939.520630 339.798889
968.577942 1881.245483 331.445038
799.577820 1954.629761 251.219315
980.554932 1968.227539 474.126129
870.568970 1923.848877 221.543427
620.920593 1985.809570 440.782196
731.917847 1966.746216 444.922241
912.333130 1902.261108 229.856400
967.585815 1890.446167 371.113678
875.941772 1940.899658 140.570953
949.970459 1948.091675 451.979065
842.173279 1947.537842 279.568787
941.104431 1901.581421 221.917862
943.000305 1884.377197 345.636688
782.219666 1958.230957 497.302307
1016.177490 1969.309448 311.785339
685.297241 1971.305664 310.426086
1023.507080 2027.242310 317.212769
1020.873352 1968.553223 376.584320
901.667297 1912.575928 199.520432
1070.108276 2007.990234 354.151855
1013.075439 1903.358276 378.036102
1078.254761 2047.223755 338.116791
1029.684692 2040.367432 304.736755
877.173889 1921.235718 429.470551
1067.099976 2123.084473 322.215820
1070.365479 2038.415771 339.560608
985.425232 2114.214111 156.536209
746.587158 1971.983643 319.344940
580.055969 1995.797119 403.189758
906.702637 1900.641846 348.452881
1054.040894 2021.464600 390.014404
931.905823 1941.038574 430.075775
1044.817261 2077.807129 308.669067
1006.948486 2064.217285 231.030121
789.656311 1936.167847 440.604858
877.801208 1944.188965 148.576981
810.604736 1944.505127 375.694214
1062.172852 2058.754395 330.951752
566.487793 1997.382935 386.200958
932.775452 1950.148315 467.053864
887.325684 1907.350342 271.126923
722.907166 1986.301025 567.751282
811.326050 1947.289185 359.526764
993.124878 2044.724487 225.833572
831.216003 1945.911011 160.555389
636.013733 1981.212646 525.629944
1001.176208 2080.991211 190.996567
639.449280 1971.105347 527.207886
810.968994 1947.327393 492.724335
991.784302 2020.052734 208.486176
757.094604 1953.730713 227.154846
654.997498 1979.567139 436.060577
729.251709 1989.046387 288.011353
1050.611694 2047.713623 397.632507
990.986328 2066.584229 170.809845
786.659851 1933.117065 447.484589
950.358032 1902.742188 190.111847
771.638367 1976.290161 514.343689
716.262939 1971.899048 571.205200
933.646729 1891.278809 303.581085
983.088867 1936.104248 514.381104
739.288147 1956.386841 428.809601
965.010010 1974.833252 184.775406
661.997070 1979.877075 233.094788
994.533936 1928.288696 374.294830
723.252441 1976.177856 447.701263
971.242065 1889.769775 305.570374
1027.499146 1945.721680 330.822815
644.087158 1970.360107 478.375183
948.249878 2042.692749 127.911606
972.569641 1954.341797 449.233521
915.214966 1920.183105 408.678406
942.438965 2052.832520 129.251892
600.551941 2004.354980 432.115417
754.401184 1968.613281 366.369904
766.593323 1951.500732 220.119110
737.941650 1958.475830 505.214111
727.098572 1977.932373 284.884735
948.407715 1945.614380 173.017578
800.217957 1948.033447 213.497833
742.239319 1974.828491 277.751801
1002.477417 2024.623535 245.148071
967.061707 2034.551392 171.303635
949.544312 1898.531494 274.248596
706.246094 1970.144165 379.528839
896.887268 1911.662109 184.676483
885.892761 1909.905029 218.498367
1026.542603 2089.121582 268.151093
699.196533 1969.455200 538.028564
1031.237915 1985.549927 378.586945
866.648621 1912.616699 417.471832
779.295959 1952.184692 393.939240
782.212280 1989.333374 523.031616
863.852661 1922.274414 288.578400
624.599121 2005.583252 533.803284
717.529602 1964.498535 407.931732
685.738953 1964.753906 530.240112
759.843506 1966.936401 267.980927
688.106567 1977.185059 243.495163
604.268555 2024.536499 366.524323
1105.335815 2118.268066 338.608093
1005.414124 1972.353394 515.983154
834.503235 1937.490967 416.343018
1017.222473 2007.053467 401.458862
897.708923 1923.408081 411.852356
983.094543 2214.611572 145.964371
889.737183 1907.504517 339.541840
836.325378 1945.470825 237.131866
637.590088 1975.487061 484.428101
942.587952 1936.207886 443.668762
1044.755981 2047.119629 387.312042
641.643982 1983.671265 275.316040
657.633057 2039.681152 565.888672
995.850891 2089.588623 168.019211
616.584473 1995.666748 475.822906
828.971802 1929.600220 439.542389
970.317383 1890.605225 379.252228
639.698486 2009.897461 549.017029
714.101685 1971.794434 575.893005
962.449707 1885.696045 308.366699
906.696228 1999.868530 469.006836
892.508606 1922.901001 158.696152
733.955750 1976.576294 575.947327
935.079407 1936.384399 149.113510
930.017456 1949.886353 419.587250
723.152100 1994.391968 542.061462
762.144104 1972.128906 307.573059
579.701904 1990.698975 339.937378
737.464783 1965.154907 270.848633
976.913330 1910.491821 384.916931
961.821472 2030.234497 151.797073
1062.956665 2030.743530 396.630920
892.223633 1908.204102 308.020538
936.794495 1971.261108 125.642570
801.091187 1953.170654 301.029083
1018.784790 1952.160156 381.888519
781.271545 1959.122559 318.667969
728.736511 1968.614502 208.576523
1009.410095 1922.911865 292.152313
739.839539 2015.654297 577.596619
959.266235 1938.636719 476.788330
634.649170 2001.974731 275.982330
964.788330 1938.119385 419.376251
686.768738 1974.043823 415.292725
890.431763 1902.554077 319.346558
783.396057 1964.942993 220.372650
963.659607 1979.224121 434.768097
886.711060 1946.878784 459.190674
925.268738 1905.355713 386.479340
946.288635 1888.317261 251.335403
1060.807495 1983.052612 351.002960
1020.490479 2117.420654 254.998581
1016.792114 1991.932983 293.304993
1004.219360 1951.947144 282.356079
1035.003418 2027.074341 430.467865
972.550781 1917.602051 230.123367
922.429626 1890.788330 241.299637
761.490234 1945.689575 508.855835
842.506897 1950.666504 149.768463
693.887634 1981.239990 354.965454
875.384216 1953.587891 489.942902
953.374146 1889.269897 350.814453
973.433533 1910.138672 260.590515
727.362976 1959.879028 272.729370
878.214233 1924.233032 407.816864
917.222900 1894.166748 227.617813
848.915100 1928.302734 201.025360
1030.521606 2007.808350 426.884491
956.171204 1929.447144 456.624329
959.136230 1996.642578 120.957710
667.465332 2147.381104 570.161682
706.480408 1967.037354 265.651459
998.440308 1969.321289 506.713989
996.776367 2048.260010 233.218765
865.417847 1904.005859 316.883698
1061.703979 2081.346191 426.361267
774.858643 1956.924805 508.167511
835.994080 1950.898804 232.556442
966.143921 2065.053467 120.570679
952.566589 1939.564941 458.065063
911.541382 1904.136353 226.436417
671.437439 1993.782715 304.009003
809.150269 1944.474243 348.468262
704.626831 1964.066040 440.891968
857.065918 1939.850220 367.615631
675.051086 1985.740845 352.072632
922.429382 1897.110596 262.214325
994.226379 1978.472168 251.778793
1021.379761 1995.144165 289.363281
918.337769 1897.057251 279.971130
744.739075 1958.700684 512.134399
988.424683 1901.612305 369.493073
698.616333 1988.304688 220.538681
832.004578 1940.311646 498.187592
975.758728 1939.929443 266.344574
762.803650 1961.317139 198.907333
943.873047 1942.894653 417.851471
1027.230835 2080.964600 267.388428
802.311646 1950.976929 395.653778
803.823242 1929.412842 471.600006
1052.709473 2065.363037 324.394867
814.871338 1942.145508 485.112457
1066.253174 2069.826172 418.568665
964.514587 2067.208496 123.877663
925.121216 1899.403442 205.620377
809.056335 1926.319580 493.424225
837.803528 1949.073242 296.405273
965.799927 1902.918457 315.736481
766.998657 1956.068970 326.139984
1053.734619 1997.575439 362.607361
705.877930 1979.207275 427.699280
893.564209 1934.629639 148.348068
886.641174 1912.246582 310.578705
828.379639 1967.721924 237.972626
1074.909546 2077.727295 376.126160
972.368835 2005.958252 185.754425
974.692078 1883.446655 325.307831
1058.371216 2153.445557 291.739471
625.163635 2024.605469 350.059906
1035.905884 2137.624512 258.457825
915.382385 1898.603394 267.665436
975.346497 1929.422363 476.048248
823.568298 1964.427124 319.295685
947.591187 1946.502930 164.292969
1026.664063 1941.398926 336.054535
607.621399 1983.097900 311.225006
967.754089 2016.180908 173.215973
916.772278 1903.189697 213.855545
772.563538 1968.054932 270.733917
1071.235107 1987.103271 345.662384
950.762451 1999.234375 158.899643
676.148804 1977.576904 236.975998
997.209656 1902.869751 286.760590
984.222046 1971.062256 402.631927
974.915161 1946.363892 463.452454
609.867432 1980.230103 477.270172
748.754150 1966.346191 377.340485
741.987000 1973.573486 260.286102
829.544312 1945.975098 372.943542
1090.814331 2044.447510 346.902924
750.993103 1962.636963 218.686554
1012.030151 2083.261719 214.202591
1078.904541 2028.925659 378.978577
851.971313 1938.401367 275.087402
686.869202 1957.070801 490.420532
962.849609 1893.819336 152.985107
833.790161 1940.293823 472.954895
725.284912 1967.356567 424.080841
1058.566772 2069.660645 400.647827
621.164429 1989.318481 295.204956
738.973206 2003.833984 558.349487
832.701660 1978.409302 504.001648
885.392639 1917.495972 369.741699
770.554504 1939.656616 184.806534
896.083801 1975.852661 461.678528
989.805603 1906.285278 284.175140
872.673462 1926.119507 445.687836
739.030884 1974.303345 520.587158
678.224304 1972.456177 225.142700
864.301880 1923.523804 317.969666
653.188232 1966.688965 244.088806
893.045288 1916.189697 175.313431
831.462585 1943.470215 221.576569
645.362000 1988.146118 260.744171
1069.210571 2061.908203 427.796265
1052.827148 2004.269653 467.760864
1021.165649 1926.704102 339.573395
650.353638 1991.750854 360.919952
968.858948 2054.154785 153.384140
1003.904968 1956.968018 526.705139
912.748901 1927.194458 178.193283
1048.419678 1945.969849 351.527863
946.559509 1971.448486 163.979523
1088.182861 2100.456543 337.261200
874.539063 1961.798950 453.368317
757.778015 1985.815552 520.174561
1018.846252 2114.642578 239.832184
827.291931 1958.933105 249.740860
813.072449 1944.401123 394.208862
882.245178 1959.108643 437.942474
953.432251 1917.749756 167.710907
1015.540222 2155.252197 171.610764
968.220398 1949.775879 477.263336
955.418091 1886.632935 296.166962
994.997681 1939.176880 274.965546
1029.715820 2080.565186 273.096069
1010.347046 2121.926270 185.470947
994.506348 1972.773926 267.311340
952.457153 1889.345337 219.208832
683.127136 1988.608398 548.080811
896.697021 1909.657837 400.621399
829.422424 1938.460327 376.873016
974.553284 1994.436890 433.791321
737.621277 1966.927124 377.287323
856.921631 1922.093994 292.118256
692.019714 1991.634888 254.413437
1006.565063 2009.523682 449.493744
1035.491089 2032.870850 405.430603
804.152100 1933.815186 467.992615
1068.319580 2075.448242 331.065643
693.910645 1995.835327 347.983734
1017.236938 2072.440674 249.238480
783.425232 1943.402832 441.399445
607.552856 2017.458496 416.435974
850.810303 1962.714355 312.219330
949.801208 1893.933716 282.025055
782.558716 1954.996948 379.066742
1006.245056 2194.819092 160.367157
965.872253 1941.165527 441.156097
1008.179138 2091.997070 225.604263
605.458496 1993.951294 502.073151
1076.366333 2048.559814 454.864258
739.280396 2010.204590 573.705933
956.860474 1886.944580 336.827423
971.771606 1883.707153 259.925995
818.600281 1931.324951 428.095673
831.255310 1943.725220 172.096741
723.293396 1959.854858 453.520935
676.012085 1985.893555 332.390381
602.881958 2074.629883 458.170197
1022.664673 1936.373779 365.302063
1008.309326 1911.138916 329.546112
1035.938965 2055.454346 305.869293
719.672119 1978.453857 222.279572
891.397095 1904.632324 299.024567
713.272827 1973.900757 376.881409
655.042603 2019.303955 567.036316
958.308472 1931.016235 208.733963
984.594238 1988.569092 490.467468
1016.296204 1998.235840 385.806366
1045.426514 1968.072998 359.143280
599.315735 2014.408936 318.192535
874.530823 1945.635742 465.032593
839.757996 1934.981812 182.231079
707.184998 1982.278320 321.765808
1050.335327 2046.173218 384.470001
670.614380 1980.780640 342.583862
933.599243 1913.437988 238.078140
979.239563 2104.293701 125.853333
955.864685 1923.317993 213.975464
1011.193726 2007.283569 444.415466
847.327393 1944.996582 388.990906
646.843140 1991.065186 248.479675
624.015991 1998.307129 325.725189
625.637634 2121.226074 479.568695
985.452637 1894.301636 380.979858
755.461792 1957.549316 304.761749
990.982605 2021.096924 233.863464
710.234863 1966.146484 530.940979
1053.648804 2037.060913 429.878113
966.697998 2004.397217 189.748535
776.477295 1960.462524 242.511353
984.540894 1881.130615 363.208344
971.253174 1887.115601 295.045746
906.527771 1953.073486 424.987091
996.647888 1888.429199 360.508270
912.113831 1910.830811 393.394043
954.007324 1904.113770 198.183624
928.212891 1887.620117 249.012619
803.889954 1940.726318 422.407104
730.248596 1964.798340 407.078094
813.124023 1936.654663 456.334137
733.115234 1947.172119 452.676208
952.604065 1893.360474 218.845749
978.036316 1946.909546 499.969849
792.159241 1943.712158 466.073486
758.445923 1960.637451 521.168640
815.558411 1929.236084 431.725189
610.481506 1993.543701 323.335114
851.408936 1932.345581 470.726013
1096.953857 2071.668213 350.330688
946.055115 1891.866455 324.805237
1060.598999 2033.525269 440.722076
758.157471 1963.377197 212.625412
952.759705 1888.428589 325.907410
725.197327 2015.211914 567.904358
942.179321 1961.507080 110.136711
852.948059 1930.635986 209.789719
965.306885 1880.234253 331.228607
927.844666 1893.813232 247.300766
892.203064 1922.057983 140.332703
955.706177 1950.225830 461.765991
600.326660 2000.089478 455.450867
981.778931 1889.190918 377.027283
942.489746 1900.524780 212.952621
1031.769287 2079.412109 312.802277
855.397400 1926.128418 307.737152
951.550842 1940.249023 467.913055
803.405273 1946.648438 199.540009
960.337524 2023.970215 153.426086
774.936707 1951.271362 186.085632
901.860413 1919.370239 408.579834
964.929810 1932.194824 519.217590
880.625427 1913.563110 420.981323
1058.458862 2020.657227 438.390289
974.680969 1976.474487 208.171005
660.975098 1997.243652 309.656403
1031.704956 1947.456909 367.662964
938.359680 1891.538330 349.761780
1052.058838 1986.158325 368.761566
857.685303 1929.722900 142.019089
744.948059 1956.010010 265.948547
991.569153 1905.796875 370.949738
955.974548 2007.551147 157.768494
985.950623 2164.315918 137.771820
964.408081 1930.007690 473.786530
973.532959 2180.185303 136.193710
745.198669 1984.521606 539.619324
818.953064 1966.074951 234.797806
1047.000977 2009.449951 479.658813
846.819214 1942.042847 387.875702
640.944214 1991.740845 272.332397
821.157593 1922.025024 468.666595
962.142456 2083.361816 132.436905
968.795776 1898.764038 225.239716
966.203735 2147.691650 136.204437
894.080322 1907.396729 253.049576
873.353577 1915.410889 411.693359
968.284180 1883.895752 277.714935
841.068970 1942.981079 352.403595
713.436646 1978.928467 351.185425
765.418091 1964.055298 315.319763
1003.641174 1951.531616 378.946289
949.324280 1942.144043 423.798035
659.568359 2070.402344 571.358215
1038.356812 2040.917358 400.816956
758.889526 1964.685791 256.869049
1033.999512 2003.366699 455.554504
745.246033 1959.368286 237.804779
1004.646973 1895.521729 371.113251
893.333984 1905.777832 394.654572
750.649292 1984.171509 543.244019
830.693115 1923.088135 447.576843
1071.601074 2017.813110 340.077179
1046.214111 2025.095703 457.576111
907.082581 1923.980347 139.215500
1051.696167 2031.291870 420.778137
974.125061 1922.194458 238.884979
738.113159 2017.087402 576.121277
1002.165833 1994.258179 394.001190
827.050415 1941.474121 333.292480
987.309937 1933.529541 509.146942
752.479004 1941.852783 208.936523
911.594177 1902.332520 239.956085
775.901794 1963.634644 197.197983
981.294922 1879.059326 316.327942
812.992126 1949.614136 376.418549
767.814331 1954.497681 223.568939
1039.426270 2033.738159 384.004761
743.017151 1971.323608 213.586029
960.440918 1882.652588 265.210297
1016.070801 1909.625854 340.430908
790.652222 1949.442505 351.747620
785.625732 1950.644531 220.566055
772.542053 1965.687500 269.349640
951.175171 1890.060303 319.570129
909.594910 1892.944214 368.504486
976.661194 1928.519165 492.913696
716.479492 1998.310303 572.570251
1064.242676 2048.953857 426.247528
703.273499 2011.564819 578.817932
802.047668 1949.623901 351.070313
987.914429 2013.483398 249.190735
876.508362 1924.870239 421.428955
975.365295 1900.193970 329.761627
746.951721 2033.092407 553.891785
819.017761 1950.975708 363.659576
754.979858 1993.613159 535.671814
642.669373 1998.713379 413.492157
1052.472412 2016.677734 446.669067
963.406433 1887.383911 327.299225
630.494995 1995.668213 266.490753
630.074829 1987.697632 257.186829
781.218811 1948.962036 226.737289
999.500183 1961.728027 277.084595
802.004700 1945.206299 364.704224
1000.401306 1983.849243 262.006012
561.952942 2047.328369 382.276855
992.954773 1971.173218 488.441284
944.949280 1942.828125 421.390228
770.325439 1963.031616 288.106567
812.547180 1946.238159 244.196548
727.593445 1928.057617 217.778900
961.577942 1951.671509 472.952118
1006.144775 2006.955933 270.062347
733.000610 1972.722656 272.472565
895.623901 1901.072998 289.081970
974.214844 1969.000000 512.154907
908.231445 1905.924561 330.773102
777.444397 2048.226563 543.839600
827.292480 1927.886963 443.339661
999.070801 2059.610596 199.545776
840.466614 1924.932495 446.018829
926.973083 1939.231567 455.843658
876.327576 1926.339355 444.618774
701.476807 1983.364136 362.828613
1027.343750 2033.549438 293.595764
796.524475 1944.979614 216.076981
803.911499 1961.200806 209.442581
621.320374 1999.203735 273.799103
709.485596 1990.326172 230.249359
1052.637939 1950.711914 352.362122
992.185791 2107.448486 174.229111
662.916687 1990.476074 435.220337
1010.623718 1939.618042 313.092010
926.243408 1911.115601 295.835907
1011.070435 1934.629028 377.443451
1058.893677 1988.377563 341.087219
997.975037 1937.011719 511.648499
819.369873 1940.932739 472.534454
973.287781 1962.758667 463.602570
744.206726 1965.074585 230.535049
965.165283 2035.201782 159.631531
764.308533 1951.892700 225.252960
750.721558 1970.156738 298.818726
867.286560 1914.428711 348.868744
1085.540894 2059.353271 348.692047
829.408142 1934.108154 447.155823
638.210266 2062.376953 539.546753
1020.118835 2002.075684 392.898895
1005.868896 1923.293579 317.885681
1059.205688 2073.006836 394.231171
928.334106 1909.626099 243.898209
1051.340454 2013.079102 369.311676
1033.836182 2142.511230 276.606171
615.217102 1997.897583 524.949890
715.296936 1963.024170 467.757233
722.524170 1970.038574 517.536865
1014.411377 2104.937012 205.784637
752.471069 2002.538818 544.151306
1047.161987 2061.974609 412.755096
715.769592 1963.179077 479.558838
984.652283 1909.367310 376.850586
960.291687 1919.111572 201.026047
1015.269165 2088.862305 243.249008
1051.498901 2073.103027 325.441040
711.793518 1968.373901 444.911682
1022.128906 1913.327148 350.437531
977.861389 1887.717529 354.894318
957.324707 1898.663208 301.518616
743.309021 1969.115967 348.541779
1021.291138 1931.536133 373.435669
934.015381 1919.782959 194.946518
990.032593 1922.877319 271.602844
882.032043 1921.305420 175.637512
863.084900 1923.191895 433.223785
821.135864 1934.111572 216.976929
873.058472 1920.059692 314.432861
973.824402 1880.187744 322.053253
989.099915 1876.062378 318.366425
871.504333 1922.411865 182.497543
668.283752 1985.719604 332.274445
968.072876 1977.185059 509.422058
1001.608765 2017.407715 394.541931
751.177063 1957.135376 232.161926
965.575012 1963.438110 195.189209
724.497986 1991.282593 565.916565
713.957153 1983.261475 535.864868
1027.890015 2119.873291 248.256073
990.585449 2043.880371 210.798096
1012.202637 2025.518188 249.401779
1018.894958 1907.649048 354.665680
982.242676 1895.585938 297.634979
687.602051 1957.844727 481.192627
657.275208 1989.843872 329.424286
856.092407 1962.151489 466.932922
930.179871 1928.409058 162.570892
990.956604 1927.271362 527.935059
825.723328 1944.766235 388.294586
782.933960 1960.771240 357.455383
667.916809 2207.082275 521.529358
952.068176 2024.795410 114.705193
1030.296631 2106.292969 291.492340
1056.281494 1969.391357 360.048431
1050.487671 2113.614990 387.103058
1026.245972 1915.269409 358.571594
777.725708 1958.147705 336.815186
941.645386 1965.031006 155.112579
966.230957 1893.025513 243.748489
817.322021 1945.191895 387.820801
640.046387 1987.528198 266.431976
845.733276 1938.874512 203.978683
780.870789 1949.291748 388.926910
964.341003 2047.837769 174.001831
770.549988 1981.281982 520.994446
822.300659 1992.960205 495.658478
723.027161 1983.270142 543.229492
873.136658 1935.111572 316.670258
1030.318115 1941.626709 358.800385
1036.873657 2093.899902 280.453064
958.151184 1987.764404 428.431976
1059.678101 2055.134521 426.317719
779.129333 1974.033936 504.873016
586.838623 1991.637329 414.734619
791.935974 1941.095581 480.364624
1038.255005 1962.053467 359.293152
985.616516 2026.980591 415.126984
913.475403 1908.368774 411.120453
918.598450 1906.185913 377.022827
628.874939 1986.413574 476.160095
972.740601 1914.026611 271.911530
803.041504 2039.488525 523.376892
1045.057983 1996.911621 429.037201
635.717285 1994.909668 285.897003
945.773621 2007.959717 138.578293
836.256104 1941.836426 223.918655
959.150513 1939.744263 488.395203
718.016968 1962.039795 498.952271
761.245056 1957.872925 244.973129
