ply
format ascii 1.0
element vertex 1419
property float x
property float y
property float z
end_header
636.515625 2031.676147 15.133321
864.953918 2144.414307 239.585098
763.400146 2007.773438 194.738983
382.175079 2067.820801 49.759552
779.447815 2005.570923 -59.149277
843.254944 2008.202515 180.677597
856.339294 2040.691284 160.894196
623.152283 2042.890015 188.783279
728.204468 2010.770874 193.500977
840.159546 2052.363037 127.557404
800.330322 2112.253662 218.629623
792.960876 2037.186279 -42.285656
809.020752 2056.727783 20.134232
677.344055 2026.613770 40.560425
624.737000 2036.583618 175.911469
561.778259 2052.693115 155.427658
766.722168 2023.003662 -69.347145
664.859192 2067.443115 73.564697
706.537170 2153.061279 278.325806
630.893127 2041.048096 188.454407
438.146759 2048.757813 43.482273
690.757690 2016.551025 181.476715
840.791870 2005.506104 182.034088
829.045471 2079.863525 64.776581
800.106812 1975.943237 84.861763
805.591431 1975.981079 4.181971
640.532837 2036.599243 218.571564
610.519226 2047.308594 85.974869
695.818298 2022.939575 168.033829
791.771729 1972.844727 25.749172
670.233276 2054.143311 119.932693
861.291382 2103.412354 204.838623
577.789795 2075.048828 296.924469
838.874268 2189.818848 5.383026
847.928345 2024.208496 165.200089
798.458435 1989.455811 172.440414
790.492859 2070.957764 -70.368195
766.769897 2077.621826 236.726593
891.500122 2114.553711 165.600861
783.810608 2002.903320 202.790314
757.511963 2044.491943 323.360260
830.838074 2135.081543 266.458496
753.239685 2060.219727 293.802032
422.798706 2085.646240 171.542725
699.146606 2017.844849 -43.959229
600.065308 2043.879517 39.055267
472.682617 2070.552734 309.553711
859.577942 2219.438965 194.298111
772.601379 2060.642578 292.231171
730.708252 1995.860718 106.488434
476.940735 2058.839600 239.718933
807.980774 2059.882813 11.989554
642.055115 2106.603027 285.497009
475.108063 2087.975342 285.790009
534.209351 2057.076416 210.237808
751.331116 2063.299072 242.411697
488.716248 2046.924316 32.076626
840.068359 2238.279541 -23.218580
796.754211 2068.115723 353.350647
668.649414 2026.562500 40.895172
855.240540 2154.107910 101.753273
817.696228 1991.544678 144.052933
632.693848 2033.312744 207.978882
704.292480 2087.093750 260.994720
798.855591 2005.367920 209.308640
838.135376 2029.059326 156.145065
734.149597 1989.547363 35.578197
747.996338 2033.310913 225.874435
682.968994 2025.757324 158.663055
667.478271 2036.635254 199.468811
428.250671 2077.277344 155.808350
636.023804 2045.979126 266.973206
818.503723 2066.040527 200.547119
808.328552 1985.913574 171.277908
741.806763 2005.237793 214.094467
451.978333 2067.652588 275.487030
665.172607 2034.412964 52.062969
625.518188 2040.627319 99.596230
732.562134 1990.803101 10.419352
714.839172 2084.225830 256.529785
743.966248 2009.915649 201.734650
673.887268 2077.618896 296.464844
634.497864 2042.591064 31.202284
620.019409 2047.519775 187.354889
387.822296 2049.791504 44.725922
826.409424 2057.917236 86.796936
745.310059 1998.964233 205.459244
592.881287 2043.274048 197.469131
875.985718 2128.479248 263.347992
813.102783 1999.353516 202.121536
756.086060 2060.647705 285.478119
830.463196 2239.678223 -63.156738
782.873169 1992.232910 133.019608
638.455078 2118.745361 277.136597
579.743469 2056.419678 256.658447
690.418701 2091.338867 265.908356
527.559814 2048.890137 69.623489
803.186279 2116.238281 -56.231609
681.338989 2035.549072 190.097183
822.556152 2189.267090 -25.092850
877.904541 2174.161377 185.695999
763.229004 1984.075806 -49.884224
757.788208 1983.685303 -12.163706
824.336304 2156.527344 -86.915459
858.918518 2211.852295 65.705093
784.598938 1991.433960 187.179474
819.877380 2122.780762 -4.602008
836.115356 1991.921631 128.247665
744.976501 1993.727295 134.172394
856.600891 2171.054199 95.142319
899.829651 2208.096191 172.472534
802.429565 2083.258545 -73.916023
405.436859 2102.999268 109.628365
467.987335 2165.240967 334.411102
717.929871 2013.899902 218.312561
862.711975 2082.316650 140.411377
549.276367 2062.063477 52.764286
417.762726 2070.297607 249.744400
711.133911 2015.588501 211.188507
789.487793 2070.145996 296.154297
432.304993 2096.572510 157.071014
828.189026 2011.176514 203.288849
858.276062 2140.742432 228.731247
620.679321 2051.722900 296.855408
702.367554 1990.795898 92.999603
642.849060 2044.462036 268.906097
805.478882 1973.388428 81.820465
807.559875 2149.646973 -59.211510
837.570618 2247.687012 -37.835537
460.790802 2065.177734 200.027176
834.102783 2067.994629 68.878639
596.997070 2045.281616 153.963943
619.043030 2044.273682 211.179581
405.073303 2061.483398 85.938080
766.796936 1983.640015 20.741596
780.364014 2002.314453 200.979721
512.625122 2064.423340 186.191559
729.002319 2000.183594 96.665840
711.342285 2003.589233 151.587402
727.176758 2062.030029 221.659012
414.741333 2064.000977 140.876251
791.559326 2089.528076 268.425995
573.108887 2048.481689 134.200150
759.730408 1985.092529 103.903641
589.666260 2061.248779 295.585907
683.336365 2025.820923 174.229477
556.204895 2035.637085 37.245380
482.004852 2065.816162 197.981522
374.414703 2074.362793 74.640053
582.621521 2041.056885 96.341637
705.744934 2022.911987 168.844086
828.833557 2157.272217 -0.214800
783.918945 2087.083252 273.174347
478.543610 2074.492432 288.076294
632.733948 2051.003662 278.170258
822.115601 1995.314575 199.137070
871.631470 2052.132813 199.177505
754.984985 1974.303955 62.248795
828.503540 1990.347290 162.018890
567.899597 2039.643311 3.497648
442.701294 2056.211182 24.764135
631.547668 2032.785156 128.849060
727.670532 1997.641846 152.517014
683.554321 2012.241333 57.392715
446.063416 2098.879883 73.169670
735.763428 1988.804810 113.825066
676.112671 2030.695557 167.292511
756.789612 1995.901001 170.421783
801.294312 1994.821289 204.437988
796.937256 1994.146973 163.492523
483.440308 2033.505127 14.048111
655.328247 2015.419678 37.213364
765.444702 2060.737061 289.112274
623.488647 2036.365723 272.918396
857.482605 2039.267944 165.624741
796.325562 1993.343872 198.703690
875.843018 2182.734131 251.546539
831.708618 2045.660522 119.878937
724.081360 2065.349609 254.790878
688.926331 2044.928833 245.584335
459.514038 2072.687012 175.551788
807.653320 2046.877686 25.512825
766.458374 2093.913086 309.542603
494.426025 2080.472656 200.282562
480.797546 2063.344727 107.466850
813.733582 2038.011597 60.346344
742.288635 1999.111206 123.135277
773.039246 1986.463623 19.504168
850.045959 2018.783447 190.167908
763.364014 1994.745239 191.718414
563.458008 2055.061768 221.932709
817.646851 2040.533691 66.235634
599.267639 2007.192139 -9.678023
746.044922 1989.038208 70.716827
827.122620 1999.905640 183.999664
902.842224 2228.316650 140.690140
564.039551 2095.141846 306.042572
383.375000 2075.572754 53.870949
586.597473 2041.031128 264.795074
511.089630 2080.435791 306.556213
761.215515 1985.946411 111.770943
715.983154 2053.112305 254.748505
462.378418 2302.466064 300.601471
831.959290 2214.651855 -64.744080
675.858398 2010.477783 42.784035
836.784729 2157.964600 26.426950
783.569824 2005.701904 179.892349
817.656433 2075.121826 -9.154617
556.906494 2048.242676 74.473404
851.103638 2248.228760 8.616433
620.325134 2062.012939 305.469360
716.701904 1994.568359 -47.287369
803.622803 2014.317749 28.258835
455.394867 2082.767334 185.273010
715.711060 2012.920166 -50.389488
404.612457 2081.409180 133.771912
432.234375 2073.629883 200.615067
492.595551 2063.721680 211.544434
899.919434 2143.207031 169.037491
844.304138 2267.457275 -32.644119
795.959839 2149.844482 244.325348
760.653687 2000.773560 145.947540
725.433960 2079.506592 268.770386
690.291687 2003.856689 32.842003
854.991699 2228.166504 -1.650782
496.775665 2073.906006 175.080750
446.541931 2182.985352 318.134155
442.513916 2060.996094 85.072220
793.331299 2050.731689 -48.612377
868.228882 2245.319580 67.181114
722.728577 2017.470703 215.217422
723.551270 2011.531250 -55.018925
573.865845 2067.909668 280.589691
444.327667 2063.326660 131.920853
623.371338 2044.928833 274.888885
755.772827 1987.991333 -12.981986
453.670441 2049.668457 77.559776
861.429260 2247.714600 11.341115
859.705811 2261.141113 19.932360
513.022278 2071.177002 288.237091
578.335571 2055.791260 181.100952
456.732361 2081.820068 224.457581
747.013550 1991.228516 122.951393
776.733704 1993.849609 195.405045
789.170837 1975.758911 99.588043
474.749573 2064.832031 234.856705
712.174072 2102.643066 262.866211
821.148987 2087.564941 38.022263
784.335022 1993.402344 179.341904
508.946808 2057.489258 123.638405
791.776489 2059.104980 327.069550
781.509583 1983.319214 106.767426
510.905731 2091.782959 312.112213
505.531921 2095.100342 342.206299
653.405518 2023.446045 16.325605
792.671692 1981.830200 46.907082
785.219543 2110.664795 228.282593
432.853027 2272.759277 196.172699
721.386047 1993.111572 20.805216
865.174683 2224.356934 83.973816
512.219177 2054.108643 273.171448
720.187500 2034.174194 233.494690
668.646851 2032.664429 224.056213
463.080658 2064.812256 258.644592
527.975037 2039.559448 11.502028
789.980774 1997.685669 -3.131297
544.394226 2045.996704 47.366943
817.523376 2152.831787 -21.654924
357.204834 2099.092773 59.206825
862.269897 2135.014160 218.186325
709.353088 2134.073242 273.693665
682.956116 2065.275146 250.446075
618.139709 2048.760742 169.155136
813.648132 2109.999512 -13.341836
825.689758 2163.548340 25.128387
819.592102 2034.417480 76.137154
809.069214 1982.460938 125.274879
649.299255 2023.690918 -35.137730
779.221741 2083.363770 214.871613
800.616272 2028.671753 51.248795
660.022522 2009.406372 3.466236
468.955017 2063.990479 202.324799
600.977295 2022.799561 36.629284
676.164612 2018.433716 18.953175
630.880615 2034.006836 286.051727
437.320709 2073.213379 95.359215
777.502747 1980.477173 -28.206785
689.404602 2024.116211 232.779968
619.843445 2039.596313 153.955917
696.397583 1996.291626 9.712263
572.828857 2045.811401 246.854767
568.249390 2046.534424 259.447968
648.760010 2034.981201 139.260727
868.027710 2195.916748 115.835045
535.433716 2067.214600 173.277740
819.114990 2054.246094 50.573174
636.812927 2020.986572 -21.560289
854.232910 2146.242432 112.197083
803.766479 1986.318726 44.956245
705.559998 2005.610840 69.245926
444.623444 2103.337891 85.342751
609.298035 2035.080688 287.900116
828.877380 2057.603760 58.791183
731.991455 2001.921143 202.126953
689.992126 2052.140381 235.853897
731.258240 2041.426147 221.453323
854.904480 2160.296387 60.840214
464.273499 2068.931885 130.219223
752.018250 2028.616821 216.505203
794.709595 1999.606445 151.893173
829.723999 2087.794678 71.748932
771.139160 2000.503784 187.858475
384.322906 2080.019775 79.417900
874.153137 2050.376953 166.615570
498.418945 2062.526367 222.833298
866.973389 2176.807373 121.061707
815.452881 2150.086182 -66.418205
496.985443 2065.976074 298.530212
563.400391 2111.145264 311.352478
494.311646 2064.197266 118.125084
547.053406 2125.052734 332.530304
845.583435 2148.922852 219.374847
674.739990 2033.368652 228.813339
710.490356 1996.012695 34.219345
399.169647 2077.595947 161.712875
461.814301 2054.906250 38.088985
548.409058 2027.933228 -1.735611
482.482361 2061.389160 195.175171
598.481750 2042.397217 77.475533
758.476257 1991.830322 -64.084221
854.949951 2038.534424 186.030090
789.675964 2095.149170 270.794281
524.257385 2050.779053 103.034172
525.633606 2094.145996 335.638519
554.182190 2034.022827 38.009392
638.059875 2037.181274 205.178238
841.099915 2250.079346 -26.024805
465.547729 2145.997803 331.486786
425.017303 2116.776855 110.311096
823.894165 2044.194336 71.645454
529.065247 2088.507568 312.944550
865.524292 2149.460938 260.321960
816.069824 2010.878296 190.550507
553.237427 2037.467651 45.921852
632.077820 2051.761230 96.645744
775.327942 2017.070313 -64.797707
797.479736 2061.434570 -50.542580
465.325165 2067.103760 111.069626
567.524963 2042.310181 269.247955
861.599976 2134.976807 110.176109
842.873108 2004.029053 144.861908
738.628723 2058.932373 246.063507
681.739136 1998.782593 -40.275192
805.711243 2061.700195 9.513789
749.888550 2052.161133 233.673599
673.752075 2030.571533 135.657761
594.866394 2049.101563 224.000137
591.104187 2037.857178 234.625961
623.858582 2036.313843 243.294144
399.856232 2081.594238 108.088333
842.970093 2260.828857 -24.487846
591.013916 2049.773193 163.452652
627.397522 2034.002441 266.114777
441.333740 2118.524902 172.740784
479.923737 2053.603516 21.119595
754.943481 2052.794189 214.510651
688.762085 1999.485596 -42.939457
867.148438 2227.862061 87.421570
600.289917 2041.204346 264.186676
844.397705 2014.721069 161.481171
830.268188 2134.651611 -18.359051
849.796448 2138.984863 58.176846
848.299927 2027.557983 185.794968
622.036194 2003.935425 -18.929605
780.350403 2046.815308 235.992493
640.427246 2033.147095 225.798584
477.059235 2077.662598 293.100281
586.839844 2042.453369 254.131668
715.716187 2006.333130 -43.015953
871.832153 2158.435547 250.499786
838.949158 2053.652344 117.478806
533.856873 2086.966064 315.236877
476.881165 2049.749512 25.132204
675.651855 2020.487549 36.055576
487.701569 2051.701904 102.006134
867.524902 2240.158936 88.131630
810.377197 2137.740967 -52.201817
801.676270 1995.518799 10.392457
839.132996 2026.187622 192.215149
803.630615 1976.721069 70.766586
425.756531 2057.166016 91.348007
814.943970 2082.843506 202.143875
579.411499 2040.461304 270.866974
853.284302 2073.110352 189.453049
679.388672 2040.751831 250.467453
711.017761 1992.373169 12.003630
711.371094 2029.998413 152.018753
634.611877 2024.877686 -18.656158
771.676697 2116.911621 237.399597
782.752869 1975.821777 78.208160
527.469849 2067.314453 299.226898
423.909515 2064.970459 177.053848
855.762390 2144.029785 78.551773
824.743774 2162.613281 -22.554672
712.347168 1994.364868 53.495869
486.489227 2058.026855 259.296448
736.131775 1992.244995 80.346916
626.480835 2040.617310 205.469635
611.313110 2034.895508 -3.396999
458.444000 2050.927734 79.855278
825.422852 2078.032227 44.472240
815.853638 2016.376099 88.694366
834.419067 2151.605957 31.855698
789.783386 1990.514282 -30.216131
679.223999 2036.271484 258.137115
495.932556 2065.285400 302.604156
647.166260 2029.837891 261.585266
422.480835 2078.462158 254.153915
427.556396 2062.568115 41.038120
545.713562 2055.165527 210.630371
520.852234 2054.733398 100.154701
783.467896 1983.216553 44.859985
520.533875 2055.554199 275.433685
630.429871 2064.184082 276.900970
574.861755 2046.898071 284.351074
612.395447 2041.193237 33.806919
809.176819 2009.721436 5.252683
738.973267 2021.032104 215.361816
588.888428 2049.618164 249.183456
843.044495 2236.682617 0.419382
698.640503 2008.629517 33.582520
583.953369 2042.790649 155.870819
816.557129 2150.173584 -40.568562
747.596375 1994.503906 -24.424231
791.624084 2029.461426 208.931793
853.959656 2160.468018 54.490768
868.077942 2259.086914 19.084085
677.499817 2063.254639 271.118744
522.740234 2011.124023 20.782928
686.065247 2017.960205 177.470490
854.498779 2264.377686 6.087046
510.653687 2059.490967 247.231308
676.742920 2031.360229 244.226578
529.891541 2059.212646 153.721451
779.615967 1993.144409 112.592773
847.730591 2141.454346 107.641647
794.492310 1987.004150 47.970669
448.617676 2058.885986 80.790627
810.545776 1998.232544 96.282486
803.394958 2001.219971 200.588882
868.447021 2185.601563 205.640854
808.661499 2134.454590 213.675598
842.532166 2205.986328 -27.893013
624.790955 2038.429688 168.828018
818.888489 2038.794800 64.103134
545.262756 2102.112549 315.233368
755.203857 2073.455078 241.943878
851.182495 2200.286621 57.963223
890.520752 2092.155273 159.534424
575.465576 2046.474487 132.975113
825.127258 2226.459229 -89.524323
509.511200 2094.863525 315.978302
859.140869 2250.385010 36.946957
889.899231 2240.404053 136.277725
640.219299 2030.010620 88.030670
720.357117 2002.906494 109.879669
846.112427 2118.726074 66.190254
788.949646 1994.867188 -27.048655
784.458984 2023.438599 -51.348862
778.934631 1982.861816 -15.234119
616.298218 2112.829834 306.210571
737.794312 1989.044067 85.168327
635.713196 2050.886230 58.950825
839.033264 2133.495117 261.673126
840.045227 2111.090576 123.137383
867.658447 2052.343994 183.250565
794.172302 2054.569336 -49.599052
784.307068 2070.240234 -74.047165
783.473877 1980.826782 85.379112
567.134949 2046.240234 125.579941
829.814514 1982.353149 181.185989
771.106140 2064.694824 251.323166
634.020691 2043.889038 277.032166
578.117126 2067.060303 191.090103
409.722778 2114.616699 189.272964
842.166260 2117.754639 206.458817
845.207520 2150.617676 34.226837
805.218689 2000.457153 42.783768
749.292114 1994.964233 170.109390
582.286316 2033.317383 6.426401
823.048584 2003.886597 137.750214
803.169434 1981.513184 116.041763
790.000305 1987.110229 176.935440
833.313293 2165.832764 -25.604790
536.992188 2032.055908 -0.595235
415.477722 2087.583252 218.974533
866.517334 2063.829590 173.260788
444.988586 2070.978760 140.834412
474.251923 2057.698730 244.814056
542.146301 2062.898926 126.142220
790.497681 2064.986816 335.651825
774.577148 2099.620850 237.918198
534.654236 2091.285645 344.858154
372.787903 2059.152588 51.371632
888.511353 2110.719727 173.402908
828.649902 1981.374146 124.951759
841.480408 2183.659424 17.900118
734.729675 1992.590454 -56.075649
574.412842 2067.469971 191.772186
839.903564 2124.924072 110.299065
826.949585 2161.301270 204.520615
759.533325 2070.996094 219.216370
628.500916 2117.936279 288.861450
535.474426 2074.933838 295.269714
792.747009 1976.468994 68.293480
526.441650 2042.350952 21.850407
628.915588 2033.851440 260.999573
511.309357 2087.926758 358.717285
669.145325 2043.616211 279.820587
806.001526 2006.768799 35.290688
758.503418 1977.541138 -52.340832
802.475342 2087.253662 -76.498955
711.231567 2067.558594 133.644653
873.972595 2123.105225 274.488495
803.471069 2079.587402 -49.281395
415.802002 2086.776123 240.638824
740.908752 2073.125000 258.321991
866.970337 2207.486572 99.299973
462.417480 2085.272705 109.380310
848.756714 2129.367676 122.844887
583.609131 2034.085938 53.043694
715.871948 1993.563599 17.152842
700.271301 2006.505371 103.337204
781.707581 2105.096924 244.232574
812.104187 2081.964111 -24.411917
529.710999 2134.076904 337.744812
762.237366 1982.660767 13.259897
690.613220 2009.598145 30.991549
621.159363 2019.819092 15.031382
867.917969 2065.814209 156.457825
599.362000 2045.017578 168.296524
855.469849 2128.442871 188.441177
793.390320 2068.563477 -57.123177
767.140991 1991.025024 -10.503053
597.566101 2147.385986 301.584198
507.027802 2047.205933 39.172508
496.725891 2080.359375 72.678650
649.749207 2031.811157 268.005920
545.022217 2053.147705 113.194801
766.420715 2061.991943 373.883026
762.218201 1985.464844 125.952576
827.881226 2112.975586 32.942463
451.723206 2068.883789 288.318420
844.879333 2072.870605 193.749237
791.384521 1995.755249 -63.084793
768.978699 2004.153931 203.824066
433.367249 2070.235352 250.328430
750.538879 2008.626099 200.746704
772.375916 1984.259399 117.247910
554.492676 2053.886475 216.030029
633.080872 2016.989136 20.405956
487.682617 2060.269287 303.528625
785.031189 2096.667969 250.973206
826.081787 2241.871094 -69.243332
777.414795 1980.677124 91.207497
528.697205 2081.369873 319.493439
539.834961 2078.485107 293.842621
766.534546 1985.090820 97.162537
786.101868 2058.756836 251.510483
518.830444 2051.603271 264.700500
589.390076 2041.688110 267.949463
647.391541 2026.415283 20.523546
771.471558 2000.747070 -54.638981
544.431702 2042.469971 263.487244
892.987366 2151.872559 178.675201
834.825867 2080.419922 128.596924
587.707031 2044.179077 216.708267
542.336548 2040.827759 33.556339
541.109009 2052.341309 273.136627
874.800354 2197.049316 175.674393
810.568359 1982.595581 132.902390
862.863586 2078.175049 135.404480
788.614807 1977.825928 25.527279
575.402893 2037.421387 95.555664
861.653503 2203.514160 81.878441
532.280457 2079.909912 316.513763
858.453857 2154.781250 116.330147
472.749786 2069.475830 239.192413
830.239319 2043.065674 115.820740
814.364746 1978.692139 155.661362
846.531738 2142.223633 229.385025
620.842529 2031.055298 39.919315
655.777588 2045.349365 124.449135
582.663330 2047.282837 142.213821
754.112000 2079.756592 286.495972
435.896759 2063.825439 129.824783
489.847565 2056.660400 10.831715
669.090698 2029.809937 160.660461
526.088562 2060.141846 154.764908
681.461609 2011.380859 26.479265
444.547607 2066.279785 27.028500
532.925354 2052.441650 291.503265
711.957581 1996.116455 98.381325
508.704590 2057.636963 155.602875
630.461792 2034.936157 166.536163
674.267456 2040.441528 263.165405
610.767578 2039.205200 259.445923
679.280884 2038.020752 252.090042
780.797974 1981.900391 93.163872
820.807495 1991.820068 187.660294
836.573303 2229.517578 -19.938828
779.401001 1994.737305 167.381439
560.036804 2054.851563 180.547729
877.420532 2061.797852 170.504013
744.427612 1990.850586 -48.760571
798.056152 1981.433716 109.505127
813.341919 2100.376709 -17.414282
861.914063 2033.553223 164.590103
758.324463 2061.016846 249.901016
604.705505 2045.364868 47.703850
718.977417 1995.364868 87.488724
642.364563 2024.175049 63.600010
849.252625 2134.955566 291.390717
540.483765 2064.865967 309.990662
806.862732 1985.178345 165.212662
540.691650 2054.237549 244.709625
665.756653 2039.111694 204.491699
657.112061 2027.259399 222.149033
429.111206 2076.647461 294.655579
839.437134 2040.937012 138.136032
836.417053 1997.847900 161.319489
625.107727 2035.989868 247.529984
758.064636 1974.985840 69.302826
462.897339 2170.603271 335.719910
527.667175 2067.022217 297.423981
832.706299 2165.301025 10.679860
794.577026 2014.100464 -2.897647
673.138428 2033.747314 253.772552
628.308655 2031.012939 31.778967
801.979126 2016.272949 209.620209
660.862122 2016.529907 -8.609226
748.733459 2001.754761 -61.356815
864.108398 2026.769165 168.107971
868.252441 2156.961914 115.345734
740.660767 1990.862549 -48.289536
835.527954 2108.466064 64.806938
556.464722 2041.980835 8.312090
811.344849 2181.141846 -84.784149
863.692444 2182.722900 184.287994
858.062317 2252.751953 -95.472794
651.407410 2101.427734 269.689575
644.062622 2078.864746 282.982056
801.414490 1974.223267 60.357670
861.761475 2198.163086 218.205948
672.297119 2027.039063 32.345150
550.464844 2067.521240 228.867401
550.810303 2094.821045 302.391418
760.863220 1993.398682 113.401733
665.214294 2031.191895 81.045372
827.642822 2200.647705 -47.047832
774.730774 2072.151855 220.514481
414.496765 2121.087646 118.625145
414.241638 2052.562256 79.436462
853.931030 2052.631104 152.318726
601.275330 2041.281860 179.994431
574.877502 2051.035156 104.231796
700.897583 2047.457886 236.775375
801.823059 2103.852783 207.001297
598.985901 2039.429077 264.958862
825.258118 2111.038574 201.499573
578.293701 2088.634277 290.876251
853.136902 2117.353271 93.273209
609.668030 2039.448608 284.172913
860.434326 2108.676025 131.588058
776.792664 2051.181641 212.707169
800.138000 2105.422363 -56.607544
507.140808 2103.868408 340.442993
873.216309 2198.512939 130.823502
866.554138 2219.380371 177.908554
444.127472 2081.712402 89.165268
625.304688 2036.543579 63.289227
568.151733 2053.166748 109.081345
499.052185 2066.971924 291.478241
780.440613 1984.912109 151.971619
566.755371 2060.026611 110.338707
840.067810 2049.809570 112.126930
715.335327 1988.462280 -29.559677
687.922058 2028.062500 133.620575
861.344055 2174.815674 70.860085
784.540161 2056.199707 325.615204
467.239227 2063.738770 263.796692
659.691467 2042.458618 256.830170
861.083923 2158.632813 84.556053
712.760010 2005.746826 -41.916660
730.054199 1988.615479 109.213509
905.922974 2194.439209 157.664764
453.472870 2076.838135 205.274033
794.882324 2008.399414 207.387985
528.328857 2049.862793 73.670776
800.929932 1995.800415 199.485901
714.809143 1993.372681 124.424957
593.141907 2026.593140 7.423199
772.518799 2076.040771 273.896362
820.825134 2072.999268 38.862221
866.960205 2154.985596 227.807526
639.830505 2041.926514 271.420959
723.491821 1991.918701 128.559067
818.595093 2005.770264 201.628662
604.593506 2045.853027 173.633743
411.981506 2085.859131 220.574387
873.978088 2250.961670 98.737915
848.159058 2082.769043 138.451584
836.583496 2185.915527 10.425274
504.449036 2075.848145 106.487907
751.214722 2051.823730 297.261292
803.043274 2001.680298 168.978119
817.031433 2134.399170 -10.734226
734.817627 2002.300171 181.625641
555.949951 2098.974121 320.704193
585.886414 2044.723389 264.591034
444.093689 2075.749512 287.012695
868.001892 2171.966309 126.429855
685.282776 2025.503662 191.977142
700.406372 1988.436035 -25.752794
902.217102 2135.626221 174.302368
837.948914 2155.700195 78.300125
634.480896 2030.774170 224.121017
604.339233 2041.378296 281.705719
752.302063 2065.898926 362.436768
613.823303 2045.141479 201.420853
883.074097 2178.493408 140.532822
827.616455 2077.650391 104.680397
735.841370 1955.548950 -36.397820
595.555481 2056.144775 301.385040
781.853333 2043.388184 -54.803867
666.536926 1997.559326 4.972060
708.267029 2014.321533 203.818832
807.872681 1999.352051 14.499256
655.735291 2034.209595 113.866936
861.445801 2165.588135 231.020645
785.576477 2000.170898 96.186707
832.513611 2177.029297 -14.517701
439.481903 2250.163574 240.220764
774.174561 2059.822266 295.417664
864.153076 2208.260986 186.249466
586.737366 2042.531372 78.277283
526.585876 2057.461426 229.716476
661.986145 2050.419922 152.331100
774.946045 1990.002808 -47.378826
846.381042 2242.664307 0.732108
666.977722 2030.485474 249.262100
461.202850 2083.040283 303.716766
833.304993 2212.073486 -36.083347
441.649933 2039.411011 25.616951
828.078247 2127.805420 239.460312
880.608765 2167.321533 181.710464
794.672424 2081.356934 -65.348869
713.354370 1995.332764 70.742378
395.348724 2072.375977 125.515816
863.215210 2137.744629 277.494080
817.504456 2106.273926 -1.943107
896.853638 2152.010986 178.515869
793.637878 1972.939331 78.666695
719.385132 1995.720459 46.907822
483.092743 2062.017578 279.506317
799.918274 2053.586670 349.592224
849.796814 2058.604248 142.514603
801.684204 2009.129517 197.142120
845.418823 2085.263672 194.745514
777.259277 1990.952271 -27.584747
621.660095 2042.506226 262.956940
740.184875 1989.208130 -10.880116
856.716980 2151.426270 219.730087
652.062927 2030.502930 168.612366
866.090698 2062.823975 184.972717
878.338867 2126.764893 272.151215
789.658203 2084.769531 241.638672
815.949158 2092.394287 -4.210392
820.416687 2216.298340 -87.368057
731.548096 2044.354980 236.018219
774.782043 2047.642334 221.025024
617.433533 2020.838379 -13.214593
552.733093 2029.662842 -2.416312
538.691589 2053.814941 90.048332
773.805847 2044.381470 232.302734
868.586975 2145.961426 137.850281
857.131775 2109.114746 191.925369
675.791321 2023.729248 50.987331
822.417236 2247.809326 -83.651199
541.685974 2049.490723 152.713867
875.530029 2209.278320 123.795242
551.603149 2151.296631 335.839600
501.059662 2051.883301 27.772108
825.391663 2235.908447 -67.112061
511.671356 2065.912109 294.904755
789.961487 2070.279053 353.942719
457.689636 2081.893555 228.460953
552.734741 2062.926025 184.019638
479.584930 2046.805542 58.149586
771.282043 1995.974365 137.994202
625.865479 2035.923096 236.614029
730.732849 1995.509399 157.722488
627.035461 2038.198730 100.826057
463.570068 2052.234863 65.806084
462.799774 2072.338867 296.068542
785.772705 2104.338379 335.133179
591.692139 2053.320801 127.155853
596.032776 2041.435303 51.403442
427.966400 2073.139893 151.631485
791.581360 2075.262939 294.938446
582.237366 2057.878418 113.660263
528.328674 2057.416260 175.077972
815.444214 2124.374268 316.127045
602.286377 2080.640381 280.934235
685.365845 2025.846680 246.594543
782.205078 2033.214478 -50.411316
687.196472 1993.401611 -21.541740
869.902466 2038.453613 167.253052
833.773315 2221.103271 -22.656982
868.471436 2236.544678 42.805706
815.350952 2135.099121 -37.866409
824.381165 1993.805786 106.103439
779.501404 2062.770264 261.539246
769.405762 1989.052124 -27.708469
692.672363 2026.805298 190.650909
447.091278 2083.715332 217.381927
735.257629 2001.158081 132.585251
806.384460 2084.333008 341.234833
638.483459 2048.656494 197.718384
629.445679 2009.290039 -27.563215
872.111206 2204.747803 83.010147
866.910156 2113.610107 144.790131
489.126801 2066.413574 255.468628
813.771179 2084.644043 18.989342
485.574707 2063.698730 123.769279
789.866333 2003.478271 187.977036
466.690155 2089.875244 329.955292
657.493896 2026.735718 135.496521
739.564636 1989.150391 101.233284
638.791382 2039.193848 99.323616
520.537231 2060.190430 242.775986
847.868958 2172.687744 63.763165
536.500122 2128.315186 337.722778
560.473328 2055.819336 175.466583
796.390015 1979.243896 118.301224
522.171631 2051.647217 67.996040
787.897705 2038.089233 -70.253860
519.821533 2056.566650 147.232590
751.715271 2071.742432 240.576599
396.528564 2071.317383 174.049149
477.729401 2055.671387 30.958130
513.785645 2057.546143 216.760956
765.338074 1974.916138 46.567337
654.449890 2104.383545 269.033966
765.917908 1982.129150 135.861298
703.331055 2091.343994 258.273468
841.097961 2027.810547 188.433090
592.287964 2048.875977 202.529633
391.537537 2074.379150 189.244110
627.713379 2050.212158 178.814514
476.926544 2046.847656 25.108793
795.207031 2090.124268 291.701202
686.422729 2054.738281 162.751236
863.050049 2039.771606 161.279770
448.899841 2081.269531 272.601501
673.667114 2004.589233 -2.698997
745.658020 1992.618530 118.843216
474.624298 2086.012695 103.154266
603.221741 2029.405884 1.215754
558.011841 2052.282471 296.778381
815.613770 2127.874756 270.560272
859.880493 2258.599121 31.703915
885.667175 2159.520508 259.519989
710.785706 2001.820557 -9.852196
436.046631 2040.794800 29.343838
827.114319 2135.765137 199.467377
793.169617 1990.529663 164.010483
898.440430 2141.281250 165.370468
710.505432 2001.845825 37.829411
646.862976 2030.576416 85.485344
743.435425 1997.646973 70.837997
767.025757 2066.892578 264.076904
533.404968 2057.101074 161.641449
645.072083 2036.794800 194.279022
862.608093 2048.185303 171.378326
638.719482 2013.768433 15.759565
458.942749 2057.930908 112.217247
554.119812 2049.338379 195.731583
784.606079 2063.717041 301.862335
808.736267 2006.782715 186.150528
642.558167 2038.087769 122.193840
572.562378 2057.689941 190.094757
787.726868 2056.387451 -63.707634
757.832153 2047.838135 244.099197
712.188416 2004.988525 142.577255
655.635925 2025.718628 219.674530
812.076843 1978.457642 110.990486
795.199707 2006.164185 20.144453
415.557953 2071.836914 187.508301
805.832703 2030.435303 9.022586
816.021179 1999.325317 123.363579
785.107117 2007.156006 196.365112
565.547119 2041.013062 76.097954
718.664429 1998.510620 43.263062
587.660217 2043.058105 175.840225
644.064575 2051.079346 269.064331
802.786255 2088.947998 202.470261
851.824219 2243.815674 19.946314
851.147278 2148.338867 238.130066
875.609924 2047.703735 176.145828
596.280945 2060.346680 168.676895
832.733826 2241.458496 -88.774986
709.273926 2004.887695 175.787979
871.973083 2085.127686 184.985458
795.391174 2076.531738 325.174591
823.413940 2134.765381 40.657379
585.443909 2047.061646 276.189117
548.260010 2056.979492 175.286392
566.434998 2092.661377 318.003754
761.103271 2037.056030 213.409332
494.657623 2082.976074 112.479652
787.685791 1990.373413 104.358360
835.745117 2032.558716 206.667557
529.413879 2058.381592 131.123276
704.669739 2008.958984 -34.278446
882.472900 2098.029785 173.593933
731.847595 2004.798096 -42.589596
753.753967 1985.093628 79.435623
881.747681 2115.294678 149.872070
836.891541 2272.637451 -86.476067
743.276367 1994.843628 179.120377
508.333527 2058.615479 226.175400
765.883362 2016.443604 -67.420082
442.957336 2064.426758 40.778027
824.643677 2007.895020 182.845642
668.140015 2007.794434 0.242261
728.440918 1988.126221 161.247696
531.876587 2060.946777 85.780556
555.393494 2170.111328 325.761261
701.987671 2006.680176 83.433479
734.351868 1999.774292 65.015816
671.720154 2014.133423 41.807114
602.309814 2044.056396 163.003922
774.151062 2078.128174 261.461731
837.268188 2016.511597 179.118240
691.943054 2018.592041 218.776184
510.370697 2063.740967 173.893326
527.900757 2047.474976 68.224380
821.265686 1984.936401 169.983688
802.855774 2051.422607 352.604523
832.225586 2117.107178 196.337585
592.836609 2053.880615 272.228668
515.612671 2049.880859 65.347878
516.992065 2088.863281 326.260834
774.913330 2031.380615 207.803101
533.336853 2093.895996 343.990601
834.116577 2254.330566 -54.702843
682.323059 2010.624512 26.950443
849.578186 2155.544922 73.908943
821.460449 2009.790039 106.293457
570.444641 2064.856689 293.266418
642.281494 2040.901611 258.721619
772.161194 2060.901855 365.700714
751.890930 1991.671753 153.829010
706.741028 2056.033691 148.810181
793.647888 2090.412842 -49.726604
576.295471 2049.043945 65.532890
599.981384 2021.643066 33.046894
764.399658 2139.289063 216.308395
823.058594 2100.428467 71.107872
819.193115 2207.713623 -78.110100
797.996765 2057.719971 -41.430355
549.255188 2083.267822 291.248718
796.804321 2089.965576 298.879791
451.626678 2081.052979 267.920471
820.741638 1999.496338 194.318939
784.287231 2051.073975 317.674103
852.742615 2150.666260 227.001724
606.494019 2026.459473 -12.731096
547.174988 2053.366943 258.525146
602.601746 2045.209961 281.396729
570.364990 2052.100098 145.468414
801.894043 2089.669434 -79.481392
602.297058 2037.116211 -0.915915
834.922668 2059.982178 123.935165
631.483948 2084.563477 287.812225
750.399109 2001.779785 192.269989
636.956177 2046.588135 191.952591
758.729004 2071.061279 269.056305
477.942108 2059.416748 260.174225
479.337616 2156.910645 343.868744
864.775146 2227.459229 90.056824
693.638184 2012.030273 14.323956
801.416138 2137.978516 -67.399391
891.881287 2199.334229 168.042770
820.386292 2070.694336 30.029072
767.576294 2001.776978 -20.122828
844.965881 2192.588135 37.366840
874.432251 2171.862305 256.862366
408.927460 2077.995117 169.010162
854.861694 2144.212891 74.658073
507.612671 2057.743652 206.041443
846.886414 2098.765869 114.155853
820.690247 2099.143799 11.922330
769.233032 1994.644409 186.402664
742.461365 1993.811646 164.129761
874.997070 2061.886963 162.022171
803.838257 1983.427490 157.318466
626.593750 2041.402588 192.531708
634.553711 2027.924194 258.902283
795.910889 2063.979492 321.830933
676.795044 2001.924561 -35.946098
771.222229 2069.501953 302.327881
828.588928 2093.635742 45.414112
814.994141 2005.703369 179.494919
776.065918 1957.628784 -52.930733
560.060669 2062.410156 278.947479
816.720459 2092.835693 -17.951664
722.911804 2012.543213 -50.002190
800.499329 2100.126953 317.804596
794.723206 1997.990723 -54.151855
557.915344 2036.130981 23.569281
528.538818 2058.253906 127.705345
642.575684 2016.853394 5.444555
432.698486 2062.579834 61.664749
793.125549 2054.928955 -73.092178
554.552429 2043.682739 2.006540
785.547546 2034.046997 -69.867630
711.884460 2013.759033 214.015091
482.119659 2079.833984 214.929703
812.716736 1982.574829 57.842907
615.039063 2033.773804 244.607529
797.210449 2000.299438 147.927292
877.982056 2073.099854 171.370728
699.924377 2078.757813 250.545959
739.025696 1995.690674 -44.346828
574.429138 2060.934082 156.296143
561.585693 2053.141357 242.177628
744.164856 1988.081787 53.418579
507.944183 2054.293945 258.259247
496.216064 2089.657959 335.029999
687.189636 2069.015869 257.867126
521.738098 2060.643066 68.553940
789.574158 2052.388672 351.033447
826.541687 2021.551147 133.278595
625.647827 2050.186035 48.392357
822.594849 2080.841309 50.381615
474.705658 2072.262695 214.123642
718.404846 2001.459351 -16.641529
823.410278 2252.003662 -84.378128
630.425049 2040.434326 284.318268
690.137207 1997.217651 -37.057625
811.520996 2072.890625 203.340897
609.537537 2018.027100 -12.104596
474.396729 2063.322998 209.397125
850.872559 2150.939941 219.792496
800.238403 2053.276367 -31.783571
658.359680 2003.841431 -37.551819
779.844116 2086.531738 252.316849
514.407043 2083.400146 339.951569
806.887512 1985.037109 102.097168
845.901001 2221.820801 4.649047
629.814636 2049.910400 276.190430
544.846191 2082.927490 299.192657
762.841919 2074.248291 252.926529
843.790405 2132.234375 198.464218
863.237488 2172.065186 203.435547
716.162903 2051.856445 255.435211
732.428833 2000.213501 -26.704065
872.154968 2045.066650 177.119949
881.830444 2237.984619 182.937103
759.948914 2048.733887 264.093903
772.398132 1987.682861 -35.215446
837.430969 2005.641846 200.318527
822.765564 2107.106445 14.352335
603.723877 2041.592163 81.808365
816.997742 2131.042236 19.183416
437.470306 2072.318604 224.251282
650.169006 2032.758057 269.174286
859.585144 2165.896973 111.524200
573.799438 2053.946777 282.296661
787.877380 1999.000732 -12.695871
861.202515 2192.317627 88.945358
848.004089 2018.010742 185.794373
617.452026 2046.199097 60.594467
848.445251 2140.511963 83.874329
723.218628 1979.672852 49.036865
654.720398 2008.833740 12.363570
779.887573 2079.884033 245.871124
722.553772 2073.849854 249.851761
781.516479 2079.254395 320.417755
594.977844 2045.791992 284.494385
764.462341 1987.350098 122.575668
519.808105 2055.231445 273.352936
627.340271 2014.422363 10.636179
872.209106 2148.551758 221.052170
712.308960 1994.070557 -17.199381
533.220337 2081.243652 321.836884
487.046051 2054.194824 70.777130
784.904663 2056.101807 217.320770
732.243652 1996.207275 165.471375
763.510010 2073.553955 224.400864
500.320770 2085.725098 307.827271
818.413696 2119.915283 -85.164078
734.121460 1991.302612 50.129860
865.566101 2089.543213 150.713974
782.613586 2074.300293 316.302948
753.360962 1988.402832 -62.719597
501.778290 2066.468506 300.425507
556.382507 2067.883301 284.182007
464.807098 2043.166382 35.915108
824.708862 2065.228271 71.169418
849.876648 2126.150635 102.309914
524.650757 2085.844727 308.524200
626.641846 2034.659912 144.778458
852.743286 2040.631348 189.723511
455.463043 2063.534424 81.766602
862.570557 2052.072021 159.118027
485.307709 2066.657227 86.552750
725.695068 1991.330200 27.409639
689.668701 2027.262207 166.766144
787.613281 1988.581787 175.456192
456.655396 2059.257324 265.108978
832.810730 2133.075195 203.470490
790.223633 2091.329346 240.172012
860.638123 2044.220093 177.152359
492.792511 2069.302979 275.393341
793.470398 1982.508911 -1.460915
562.653687 2036.889893 20.953209
783.931641 2054.802490 272.092346
860.737183 2142.847412 97.942169
556.402344 2033.115601 -2.679074
712.352966 1986.012573 2.204036
773.096191 1995.766846 198.787186
767.111267 2046.879395 249.164536
879.777344 2093.194092 156.345062
764.923889 2132.471191 288.491608
796.656860 1975.032227 -31.406549
578.488037 2048.285156 272.855499
626.382996 2032.583008 253.172913
448.162476 2054.321777 72.727875
839.761108 2215.761230 -46.749401
542.446289 2069.375000 272.493866
786.984497 2051.513184 250.691711
851.881958 2146.255859 101.189293
766.062317 1991.360352 -66.820732
903.656311 2140.850098 169.148941
598.079102 2041.958740 201.449539
691.424438 1989.773071 -37.341629
812.798340 1980.671265 133.885483
737.459229 2071.594482 232.964203
808.748108 2076.389404 8.793385
747.386108 1996.202271 -51.520187
767.831299 2001.437988 211.745132
515.867981 2127.575439 362.955627
469.351868 2113.043701 142.680481
598.151062 2041.959839 184.451233
449.606415 2069.507080 192.517349
772.382751 2086.453369 215.711487
900.075562 2223.195557 154.040848
461.311218 2073.294434 66.700272
621.288208 2053.243408 183.097931
669.118103 2048.135742 78.676659
602.825867 2044.432373 162.170258
844.049194 2126.035889 194.321014
811.836182 2125.064453 238.220016
846.525696 2088.484619 96.627785
711.026733 1995.236694 -6.344906
824.623108 2050.473389 37.546261
522.999390 2124.739746 346.878754
494.311890 2129.851563 358.821960
491.185944 2075.370117 289.847717
605.280579 2030.699829 -21.534279
792.721741 1990.828979 -28.048376
901.972900 2205.416748 170.026718
861.914612 2137.754883 269.614410
788.187988 1973.051270 48.669270
747.789856 1997.171631 148.496155
779.523865 2014.043091 -45.378784
749.956787 2012.346558 208.436676
506.249298 2052.955811 74.946327
445.783020 2053.023926 63.509731
661.914490 2029.983643 30.313969
780.122864 1989.131836 180.268234
851.740967 2128.796631 234.631958
746.382629 1991.704224 -56.607311
654.344055 2032.454956 203.664063
782.618774 2011.341309 -67.773849
804.149414 2051.783936 -13.411140
693.490784 2012.965820 -42.413494
800.961548 1983.455811 161.649811
830.639160 2082.668457 196.688309
791.722168 2145.979004 206.557358
770.788940 2053.736572 281.904266
838.103455 2169.653809 20.687538
869.741821 2066.053223 160.637192
461.584351 2065.826416 243.751663
796.680542 1977.916504 120.540016
478.204254 2071.243408 250.603943
805.042603 2096.614746 211.586578
820.935120 1998.467896 199.527481
726.876709 2030.543945 229.956665
793.877075 2080.904297 314.435333
486.237183 2056.405029 270.092529
791.510254 2098.654297 206.665771
414.400330 2069.030273 102.858978
778.716003 1981.158569 46.530067
382.458496 2053.902100 49.052280
724.466370 1995.885864 137.547485
682.616699 2034.055908 202.507294
865.043701 2124.697510 261.646545
862.310425 2225.710449 61.581638
775.537903 1996.863037 14.534145
761.830566 2059.105957 261.788849
718.260437 1995.307251 137.223984
835.552002 2098.066650 85.106163
545.876404 2045.721313 118.251724
801.688721 1980.926147 148.499115
592.708435 2042.576782 182.921997
773.817444 1977.840942 53.898628
803.919373 2099.904297 332.114044
856.452515 2210.202148 21.752785
655.373840 2033.601685 32.530579
757.609070 2107.174561 279.321259
871.407959 2044.059814 177.899048
831.106384 2025.029297 146.570831
438.333649 2080.493652 292.256012
759.890869 2006.955444 198.870514
681.191101 2001.797729 -44.685352
560.300842 2063.450439 280.446136
816.658142 2204.790527 -70.980980
429.892029 2064.985352 200.913528
534.895691 2062.963135 278.623840
826.552307 2218.636230 -58.077579
826.284119 2069.564697 69.729141
790.041138 1981.694824 159.559265
483.364380 2067.994873 262.544434
903.612976 2165.192383 169.145447
605.860413 2046.170166 288.533691
387.952271 2080.741455 157.882431
629.501892 2024.250244 -0.432248
533.337708 2069.076660 101.194260
824.177917 2128.595947 247.802414
821.704529 2166.179688 -77.491692
759.788696 2066.502197 276.927338
791.576904 2083.150879 296.703217
851.463867 2224.856201 -13.735961
701.225037 2018.318848 165.244446
580.442383 2054.030273 151.413849
734.877625 1992.923828 112.556007
430.444031 2048.498779 45.596344
846.476990 2157.614990 108.650192
831.257141 2067.055908 77.926460
617.437805 2041.577515 86.211830
747.962463 2055.475830 264.905151
726.819580 1992.213867 146.843704
661.552979 2035.986572 51.921024
816.828186 2234.444336 -42.730331
716.648560 2003.837036 139.245743
793.775513 1996.657471 -62.414787
797.928223 2013.518555 210.577988
612.829102 2038.993896 215.398773
445.049133 2068.882813 278.157684
639.566223 2010.612305 -8.341553
573.793396 2155.664795 319.136444
857.625000 2263.743164 -10.172376
637.097412 2039.902100 257.293884
741.902954 2004.828491 -40.564102
828.694885 2135.575439 16.734575
822.378479 2046.973145 198.873230
561.073975 2057.169922 206.103622
463.829132 2064.589355 100.297844
544.936707 2069.965820 276.566864
498.964813 2063.856445 87.102493
497.431396 2061.136963 104.459526
815.337646 2215.591309 -67.981659
553.467834 2049.486084 268.493042
432.061279 2057.499512 227.046768
516.121033 2063.459473 201.780411
571.219421 2045.290527 119.657486
841.393677 2111.541016 83.558006
806.447693 2224.249268 -74.563721
830.070435 2081.324219 59.615112
820.970215 1992.472412 106.517815
376.185516 2073.583496 116.878563
453.424622 2065.979980 268.775391
697.466614 2021.157593 176.276886
535.148071 2039.803345 28.756149
743.687805 1991.055786 130.618469
799.037964 2174.537598 -77.308640
591.034485 2042.573364 244.393219
427.208191 2076.180664 220.111511
603.851807 2048.333740 130.710037
805.505859 2087.631836 -22.793068
628.791992 2051.107910 79.358528
608.893982 2083.603760 293.754364
633.587219 2035.935913 116.568245
605.897278 2049.649414 279.898010
782.931641 2036.514893 215.757339
735.873352 1999.908691 101.240761
638.656006 2035.159180 124.447952
458.392822 2077.828369 294.293854
703.345093 1996.665039 75.719429
845.172119 2071.845703 125.869194
773.631897 2050.884521 274.703888
510.213135 2034.087158 54.805038
668.058411 2024.876099 226.740082
784.909790 2070.281738 323.204926
839.025696 2039.496826 134.141312
681.060364 2019.713745 62.785477
728.310669 1999.086304 140.262863
525.581787 2081.161133 327.084198
863.080933 2247.600586 12.258066
471.566681 2060.779297 274.790100
848.294617 2106.382568 112.992592
830.974670 2019.381470 155.540314
497.248260 2056.611572 266.443573
790.265320 1977.759888 105.603027
683.417603 2017.534546 41.146191
825.070923 1986.917725 151.975342
775.922607 2040.971924 -67.463608
609.427429 2001.236450 -16.217758
524.412415 2039.189575 29.428064
777.038757 2074.954590 279.979767
794.111084 2058.905518 303.581421
778.325073 1976.280151 32.438881
556.134705 2065.436279 266.760254
363.331848 2096.445557 143.655533
824.527100 2007.129150 189.426743
722.281555 1988.165039 88.545616
607.279724 2039.908813 205.073914
781.785278 2000.317139 173.221558
851.594666 2031.690552 166.981247
686.409729 2005.375244 28.619984
461.588257 2061.247070 81.142746
753.850891 1999.352783 196.984009
835.579468 2030.119019 150.535400
854.180359 2158.208740 208.680161
716.879883 2013.173706 211.120468
894.316589 2052.104492 185.965332
763.027649 2020.516968 210.818466
602.242798 2035.489258 -9.725041
788.878235 1972.977661 52.891411
855.101379 2103.507568 192.446213
794.301453 2066.364990 330.373169
636.628540 2041.874512 262.853546
694.850769 2001.112915 -4.609292
849.332825 2153.234863 217.538757
744.947632 2030.001953 220.728287
471.869110 2067.244629 171.235657
818.656982 2002.209595 145.386795
778.495483 1981.011108 95.938484
481.522583 2061.832275 240.929306
467.152527 2091.618408 310.100250
863.528076 2170.102295 83.187134
769.890686 1991.835327 188.075211
807.736145 2059.249756 12.417400
882.882385 2098.773682 169.855972
773.683472 2007.371704 -64.997734
410.529236 2077.765625 194.643341
829.929138 2000.611572 176.252625
400.983643 2064.736084 76.359993
838.984009 2127.454590 65.307686
688.707275 2044.543823 239.645370
607.704712 2008.075562 -18.714489
642.988342 2032.831421 200.842514
520.619507 2063.418945 243.515121
724.261047 2008.529785 182.124481
836.584473 2261.507080 -47.344265
867.777100 2147.188477 242.782654
682.786438 2020.576538 34.184361
731.924011 2002.823975 89.312737
806.848816 2123.125732 -44.672497
544.102173 2066.489746 284.517578
805.268311 1993.526978 159.832321
788.133728 2012.604370 -15.341240
446.849426 2076.916016 177.869476
876.206055 2187.223633 231.133026
837.837341 2200.546143 7.646318
707.860718 2003.001831 152.506897
800.488831 2063.218506 290.071350
639.185852 2030.797729 105.665649
837.735901 2009.874390 111.886208
797.934082 1994.653687 171.072220
854.096985 2270.011963 -38.540508
567.074097 2133.390381 306.557922
799.446472 2046.879639 202.242310
743.758118 2006.200562 221.093018
813.061951 2040.537109 202.120972
587.233643 2043.022827 -18.079159
446.499359 2083.754395 247.307373
849.735046 2164.781738 71.370453
421.900482 2082.321045 303.013519
799.216858 2032.226440 202.290817
744.105652 1986.590698 12.235165
610.775574 2040.266113 156.416580
865.444031 2176.552246 121.650627
390.323273 2072.038818 71.666763
850.187622 2137.388672 63.805515
638.066467 2017.760132 -5.838854
716.505554 1989.768921 44.037041
583.944214 2050.147217 170.453064
863.310120 2174.262695 78.776131
812.140015 2075.526855 351.715210
386.820831 2064.638916 45.122597
607.989319 2052.707764 107.004601
398.932617 2070.520020 102.605026
584.225037 2041.357910 49.850651
812.255005 2149.004395 -76.413155
820.415039 1983.492554 163.206985
623.725037 2040.558960 258.639893
495.532227 2082.191650 336.934723
430.816681 2076.357666 237.362991
785.693970 2058.144775 298.635925
583.589905 2051.710205 46.586159
777.237000 2057.177246 275.980316
490.143677 2072.500488 275.425323
547.457703 2036.041626 33.239315
529.991821 2045.541138 61.326942
