ply
format ascii 1.0
element vertex 1343
property float x
property float y
property float z
end_header
-369.267090 -2108.827881 610.184998
8.135189 -2070.002441 488.049103
5.883479 -2113.050537 691.133484
-252.436493 -2047.093994 532.527527
-0.044887 -2073.639648 535.961975
-98.369362 -2064.107178 421.040039
-278.724518 -2160.587646 787.075134
-308.652679 -2001.345703 675.447327
-382.722565 -2296.169434 619.145447
-339.786255 -2123.586670 712.821350
-303.081512 -2232.117676 800.469421
-268.032318 -2044.641602 486.663971
-373.163605 -2183.201660 648.364563
-56.375454 -2058.909912 613.471802
-401.384979 -2083.699951 536.864136
-302.708649 -2093.904297 771.755920
-215.736008 -2099.013184 748.663513
-294.093353 -2015.222534 745.905579
-410.157166 -2029.027954 526.777832
-239.274826 -2152.913330 812.371765
43.755543 -2108.621338 493.738861
-294.290680 -2056.186768 767.775696
-300.082336 -2044.316772 770.663879
-227.940186 -2058.789307 743.564819
-214.933868 -2085.095215 743.717285
52.512787 -2183.485107 494.401093
-242.443604 -2019.134521 640.583069
-220.917892 -2058.998291 752.400391
-404.290771 -2047.116455 527.460510
56.812225 -2061.678955 566.358337
-286.797363 -2014.490234 597.613098
-112.198532 -2073.315186 734.071167
-203.758148 -2061.914063 759.503113
-338.789337 -2038.979736 684.055603
-396.655396 -2012.725342 532.598633
-165.001404 -2044.043213 500.498383
-185.419815 -2057.175781 444.065094
-88.308884 -2039.868774 706.763184
-243.226593 -2131.341309 845.826233
-344.970886 -2051.525391 705.961304
-355.518951 -2169.995117 710.952209
-208.880493 -2039.592773 658.773254
-329.557190 -2097.610596 721.961914
-216.573242 -2019.867920 723.818909
-196.566635 -2058.366699 787.944031
-179.534424 -2045.213867 595.062439
-338.717377 -2216.607910 739.612854
-132.932297 -2052.446533 847.289795
-197.041138 -2068.388428 830.842529
15.978727 -2063.895752 540.256531
-128.272293 -2053.173584 536.892639
-228.247589 -2010.459106 692.381592
-284.942841 -2162.661377 817.062134
-260.017975 -2085.607910 558.718445
-192.665070 -2074.917236 792.790344
-291.348267 -2038.126831 769.802612
-116.459526 -2048.230957 614.466309
-298.873688 -2131.102539 777.658386
-321.884796 -2013.517334 587.238647
-324.952515 -2037.259399 519.001099
-345.767426 -2194.929443 692.316589
-323.298828 -2010.794189 690.778748
-322.693024 -2060.122314 727.678589
-286.542145 -2022.356079 539.418945
-335.137268 -2104.251221 687.487122
-42.932266 -2041.490112 662.997986
-309.410675 -2007.872559 756.652588
-365.194489 -2022.697510 599.673218
-397.159393 -2266.899658 598.146179
-316.130066 -2254.390625 801.026794
-170.197861 -2058.632324 500.979034
-71.496704 -2073.985107 418.907990
-272.224670 -2035.278931 470.707642
-183.983429 -2031.509888 680.566406
-233.673050 -2015.012817 634.655396
-221.171356 -2032.109375 629.745972
-252.931870 -2127.514648 765.331299
-213.155121 -2041.358398 663.781372
-162.783569 -2068.585693 837.296509
-236.010300 -2020.253784 651.824890
-128.520355 -2048.563232 607.397400
-244.108749 -2004.623413 692.916992
-221.759888 -2130.592285 868.528931
-220.809265 -2148.095703 796.162659
-78.651611 -2033.392212 694.485107
-293.710663 -2004.306519 721.331726
-194.075134 -2053.808350 786.360901
-93.836067 -2034.778198 649.219971
-413.634644 -2191.279541 555.659729
-301.521820 -2016.160522 765.802002
-52.206238 -2071.801270 729.994812
-277.707092 -2106.594971 772.529541
-10.277818 -2048.680176 647.624634
-293.311768 -2015.913330 756.762390
-239.772354 -2129.956299 783.264526
-327.955048 -2048.886230 761.770081
-15.606322 -2091.798828 454.716125
-120.073502 -2062.683838 488.285278
-178.365158 -2080.278564 830.771729
-381.706696 -2044.997925 573.854492
-315.952972 -2059.886230 730.176514
-289.054688 -2007.406128 658.597290
-355.935425 -2152.956299 686.284729
-290.580292 -1998.508057 644.131165
-396.997559 -2110.652344 577.336914
-328.403503 -2180.257568 787.651184
85.070396 -2087.953857 482.942383
-138.375381 -2055.891357 480.285675
-220.337784 -2013.195679 654.871948
-5.402106 -2072.901367 684.925964
-164.636139 -2051.342773 851.801575
16.643385 -2074.421387 430.315796
-180.704758 -2043.635742 475.889923
-218.498779 -2148.527832 799.595886
-271.961700 -1999.015137 695.184509
-291.631622 -2019.103027 703.194519
-225.273209 -2008.194092 710.652466
-353.210968 -2229.730469 801.091309
-8.657115 -2080.522705 487.137665
-32.936207 -2056.170410 685.585876
-306.097626 -2021.725098 561.586975
-142.572861 -2029.595337 703.225098
-240.642090 -2068.355957 759.278687
-1.052233 -2052.318848 625.657043
-268.185455 -2151.697998 792.395081
-236.614777 -2012.435059 642.686157
-198.225143 -2082.651367 772.273376
-406.447449 -2283.397949 608.659973
14.222537 -2038.533691 604.676147
-157.936295 -2056.417480 541.139038
-241.154404 -2155.968506 860.972534
-402.153748 -2243.838379 565.392822
-350.160339 -2046.333496 654.457886
-5.057567 -2086.248535 693.362488
-362.499725 -2230.986328 672.245117
-62.419453 -2054.874268 597.839417
-138.838882 -2082.437744 729.744202
-294.563782 -2216.029297 801.309998
-169.827423 -2049.434326 660.379395
-330.912140 -2035.527710 513.742981
-145.517853 -2050.594727 619.489563
-5.914115 -2069.195068 568.110535
-346.385834 -2134.672607 794.956604
-254.308136 -2020.027832 738.216797
-141.222870 -2052.135498 547.874146
55.731422 -2075.742432 644.459717
-330.768219 -2141.306641 747.081848
-0.193859 -2077.555176 451.092072
-430.449646 -2249.170654 562.418640
-97.230453 -2031.991577 685.781433
-177.770157 -2037.415283 714.533508
-162.311630 -2053.590576 487.756805
-302.999969 -2037.390015 514.446533
-25.739300 -2060.157227 621.290527
-327.715942 -2036.574219 699.280457
0.122202 -2069.972656 460.633362
-205.643936 -2040.914917 637.785278
-132.026962 -2069.207520 527.106750
-165.266708 -2051.160645 524.053833
-181.821152 -2073.052979 807.753235
-262.481476 -2047.842529 561.432739
-359.776886 -2003.027954 614.961365
-131.973526 -2008.802002 423.731201
-168.160950 -2058.984619 506.589233
-94.725014 -2041.800537 722.184204
10.300883 -2120.968750 378.171844
-80.228348 -2064.161377 476.733704
-161.262238 -2056.990967 477.250763
-358.189941 -2237.289063 704.692017
-214.554276 -2143.560791 856.519348
-178.941971 -2086.781250 838.093323
-311.521210 -2010.348877 601.701172
-15.898483 -2063.978760 673.718933
-381.807861 -2171.369141 624.118225
-428.921722 -2078.288818 534.687134
-232.322586 -2039.217285 507.112671
-414.578644 -2239.258057 565.785217
12.169551 -2066.716064 666.024414
-76.034958 -2084.943604 421.964844
-128.376968 -2021.781372 422.683716
-316.022003 -2097.464600 775.843018
-48.526340 -2065.133301 716.646179
-45.423901 -2064.753174 527.708069
-233.206970 -2043.919678 456.264099
-383.502167 -2196.191162 606.305176
19.706720 -2051.688232 634.210205
-158.377167 -2025.281128 707.204529
-411.112549 -2007.258423 534.969055
-22.149622 -2046.933105 690.500122
-225.796570 -2015.683960 726.559692
38.301224 -2055.659912 620.880981
-70.204369 -2057.135986 568.310608
-264.927124 -2019.576172 662.572693
-266.494995 -2092.453857 763.137146
-130.408569 -2032.006104 410.950958
-301.939484 -2152.861572 777.564209
-374.543335 -2016.879761 519.037231
-281.181061 -2034.873047 524.101257
-123.643394 -2048.336426 628.957581
-39.760025 -2031.637207 662.153564
-100.622406 -2061.466309 497.381073
-216.766098 -2052.671631 570.252319
-270.017578 -2158.639160 789.040466
-370.305725 -2254.740723 671.697205
-37.740799 -2059.363525 562.242065
-31.288225 -2065.222900 569.155212
-56.508137 -2059.063232 419.788605
-256.745789 -2076.289063 547.521851
-45.702530 -2065.152588 518.646240
3.226600 -2046.422852 639.198792
-332.446655 -2020.474976 543.549500
-187.024551 -2086.044678 828.757996
-169.373611 -2025.962769 698.626282
-363.688751 -2036.153564 547.222046
-152.819321 -2112.946045 815.100525
-224.303101 -2148.582275 772.952942
-333.729523 -2057.373779 690.699829
-386.453766 -2215.743896 653.768982
-75.547981 -2074.429443 445.970306
-237.613174 -2058.791992 539.618408
-278.254517 -2034.071899 532.670715
-12.817451 -2253.565430 373.581818
-111.250725 -2059.212158 471.508148
-239.776749 -2025.211548 739.798767
-325.581726 -2047.781738 488.142792
-100.962860 -2051.202637 592.438904
26.412157 -2060.937744 575.428467
-334.995331 -2037.133911 509.174072
-174.613525 -2092.495117 848.681396
-245.199310 -2051.965332 531.106323
-257.820587 -2143.416992 781.641907
-110.486183 -2034.955566 713.102661
-232.567657 -2052.029297 526.409912
-120.350410 -2075.008301 722.278687
-162.827454 -2075.327148 721.119324
-378.010101 -2141.857178 623.232239
71.673805 -2071.850342 634.865112
-188.010025 -2058.594238 437.363129
-271.905029 -2028.925903 758.496277
-386.853119 -2021.768799 526.278748
-333.689484 -2034.234497 685.733765
-297.371429 -2015.917480 587.901428
-264.838562 -2171.969238 844.281128
-82.753983 -2048.403809 635.430420
-326.187958 -2059.649170 706.940430
-354.791443 -2019.894165 550.020142
-254.267441 -2144.064453 810.333069
-264.891479 -2129.209961 822.600769
43.648808 -2066.481445 455.401367
-362.678619 -2158.945801 690.230103
-174.099747 -2044.711304 470.748077
-327.482483 -2019.710327 636.369995
-255.550415 -2086.956543 766.502075
-25.480946 -2059.534180 489.808716
-341.429688 -2065.612549 679.943542
-177.486801 -2052.645264 737.331055
-252.281586 -2015.870972 745.003479
-89.414131 -2074.177490 395.238098
-328.943542 -2018.588989 601.989136
-136.533920 -2055.080078 482.835846
-409.910919 -2133.348145 535.012817
-422.605499 -2109.010742 537.333984
-399.661224 -2133.402344 577.374390
-281.591858 -2016.778564 766.645081
-92.145340 -2033.657715 653.280273
-237.075470 -2142.780273 859.527222
-402.124908 -2031.722046 532.473999
9.080294 -2046.299438 636.221069
29.520931 -2055.433594 556.689575
-301.102570 -2129.953613 803.609802
-412.619598 -2103.038330 556.349792
-366.618683 -2124.713867 644.745056
-414.446289 -2299.551025 588.147888
-68.743935 -2054.492432 546.470337
-384.725342 -2215.050293 657.614441
-209.849899 -2083.508789 736.382690
-335.443359 -2177.618896 741.007385
-25.276646 -2049.912842 666.820129
-331.851105 -2098.872559 780.699951
-352.199310 -2031.450684 631.628113
-36.685394 -2045.800537 596.676270
38.082481 -2065.101318 645.440369
-247.346863 -2047.208862 467.653076
-175.578186 -2073.174072 806.865784
-71.786659 -2062.371338 615.942993
-320.086304 -2059.895996 725.416260
-160.225616 -2057.047363 421.454681
-362.542267 -2040.617310 641.250244
-200.685226 -2062.414307 527.277588
-179.979065 -2065.581787 727.208191
32.737099 -2059.457275 665.076599
-230.393982 -2022.140015 667.731201
-53.590954 -2050.425049 647.167542
-160.196198 -2052.401367 478.399200
-9.363014 -2077.314209 681.877441
-141.759903 -2039.909302 623.870300
-22.555380 -2067.683838 381.494751
-236.106827 -2022.878174 603.113953
-339.664856 -2090.058838 784.684265
-255.880127 -2031.450684 752.559937
-329.516113 -2039.492310 705.379639
-355.450195 -2033.927612 513.557678
-368.795685 -2038.493164 621.779114
-348.280304 -2166.569824 706.195557
-368.058533 -2104.034668 640.437134
-240.985764 -2013.770874 584.038879
-204.435638 -2047.809326 516.297607
-355.278687 -2116.657227 677.129089
-153.368759 -2063.087646 436.000916
-263.342194 -2005.881836 698.094910
13.379663 -2053.311768 561.673584
-5.565129 -2064.840820 500.247284
-171.009293 -2062.645264 439.004089
-437.003296 -2213.273926 551.536438
-188.899796 -2067.203857 645.242615
-274.560150 -2010.881104 664.722473
-226.655853 -2049.699707 454.708160
-399.101837 -2114.859375 573.404541
-327.341644 -2085.311768 747.609558
-353.803741 -2003.764160 617.249390
-311.221619 -2177.629395 793.087402
-383.892303 -2273.036133 681.132446
-182.343369 -2078.634277 816.979614
-19.211802 -2066.501709 575.966003
-315.965424 -2003.245605 657.934998
-256.227386 -2240.915771 776.893738
-272.724518 -2232.181396 790.565186
-15.940237 -2059.139404 411.805267
-348.696564 -2199.686768 716.112610
-405.120026 -2326.069580 567.624573
-196.005386 -2072.581299 749.407593
-310.998840 -2018.940552 676.524536
-132.343781 -2064.450684 419.866699
-320.797668 -2029.384277 693.408630
-352.127380 -2266.652588 719.234924
-362.142792 -2036.800537 531.761536
-394.851044 -2109.273926 550.558411
-107.987396 -2060.787598 491.344604
-298.783264 -2127.049561 777.632446
-382.194977 -2131.791992 633.529968
-131.032898 -2049.185303 585.927673
-404.828156 -2091.764648 548.127747
53.715752 -2070.579346 476.449036
-157.371185 -2034.397583 649.314636
-218.787491 -2014.984619 692.292542
15.776553 -2048.033691 634.908020
16.455704 -2069.407715 569.959229
-168.663208 -2049.562012 452.907166
-23.770414 -2050.547607 656.168579
-370.082642 -2101.822266 629.807312
-141.133026 -2060.396484 439.410217
39.846512 -2055.566406 656.295898
-300.514984 -2142.656250 776.069885
71.699646 -2067.753418 531.538330
-245.106476 -2011.574951 729.929932
-400.797546 -2128.204346 577.131042
-246.599594 -2154.915283 823.806641
-327.799774 -2223.493164 802.199463
33.867455 -2074.741455 672.909424
12.812457 -2052.009277 468.400452
-426.319336 -2294.434082 582.616455
-97.676842 -2067.991699 479.063232
-230.086075 -2000.918945 672.797302
33.907906 -2055.478760 508.711456
-344.568146 -2210.132568 750.914490
-142.882813 -2045.689209 604.484009
-318.145538 -2024.385254 606.388428
-355.017120 -2089.849609 655.097229
100.011620 -2074.232910 636.399536
-168.528580 -2033.067383 431.490295
-414.457733 -2316.335693 590.162048
-380.236755 -2028.294800 545.308350
-348.289398 -2062.622559 650.428162
-332.111298 -2031.252930 684.271362
-267.164520 -2180.615234 842.480774
-232.503235 -2061.565186 525.545898
-418.344025 -2230.111328 552.947266
-342.537750 -2217.700439 765.079346
-419.448090 -2024.138916 533.706604
21.372887 -2133.903564 692.135559
-372.125488 -2036.786377 609.105225
-135.350952 -2058.813477 535.698730
-390.131317 -2172.692139 584.928284
-56.396461 -2059.095459 559.894104
-305.487762 -2028.480591 535.331848
-200.729462 -2019.771729 697.260559
-208.828125 -2068.291992 737.141357
-350.118622 -2237.791992 724.500000
-379.925507 -2082.099121 606.460510
-69.504547 -2117.348145 723.869751
-398.447449 -2037.475342 559.569031
-303.566833 -2021.956665 689.882446
-164.697739 -2054.224121 739.270630
-415.096680 -2257.249756 569.149902
-333.456390 -2021.647461 711.025940
-399.381378 -2318.048340 597.513367
-238.313080 -2052.073975 505.280334
-49.926262 -2041.426025 705.881714
-339.395538 -2033.101074 503.028137
-206.436737 -2029.185669 728.831055
-427.432831 -2150.966553 544.418762
-308.753357 -1999.631104 675.581543
-328.932678 -2015.813721 539.441895
-213.891617 -2050.595703 449.761932
-280.846252 -2001.483032 672.795532
-45.577957 -2080.749023 711.116577
-159.066650 -2063.624512 565.106323
-411.228241 -2250.007568 578.961182
-62.182804 -2095.324951 513.484558
-127.111069 -2064.167969 731.966736
84.140480 -2069.499512 665.042480
-390.154572 -2271.343750 639.521179
-278.393585 -2146.858643 805.148621
-58.231613 -2061.658203 485.091766
-131.981796 -2035.947021 646.892700
-274.244263 -2018.510010 594.955505
-305.604187 -2088.704102 781.706238
-421.382050 -2289.575928 566.818604
15.274592 -2056.848633 624.336609
-154.708832 -2064.823975 517.316833
98.753242 -2055.600586 594.080688
-98.441429 -2049.582275 624.544861
-298.035797 -2061.635986 781.448364
-383.185333 -2136.581787 615.591736
-210.075989 -2097.098877 763.740723
-301.535278 -2033.927612 753.636047
-351.656128 -2066.333252 654.447876
-309.071930 -2004.289795 682.088501
-312.827423 -2024.556396 534.846619
-34.201382 -2103.339600 714.704529
-376.513306 -2201.173340 653.138916
-310.091827 -2057.833008 748.018005
58.492836 -2067.314941 514.252014
29.524443 -2063.959229 532.086853
-53.146416 -2043.345581 703.510925
-341.110046 -2224.287598 806.523315
-240.713409 -2025.412231 637.097900
-238.138870 -2040.117798 543.950500
-254.033447 -2085.237549 758.788208
-254.756409 -2101.861084 588.687866
-244.809021 -2016.420166 747.603638
-141.482681 -2033.539429 701.650452
54.730270 -2084.024414 522.536377
-360.744873 -2036.382446 645.242737
-134.636795 -2038.597412 659.125244
-325.637787 -2008.024170 675.154480
-172.779587 -2055.044678 449.356171
-382.989227 -2021.316040 607.329468
-436.054443 -2169.749756 546.240784
-170.235092 -2042.252563 430.688995
38.482147 -2059.377197 532.323547
-93.293701 -2051.747803 691.833435
-293.241821 -2007.523438 646.677979
-355.377045 -2195.779541 720.479980
-183.847366 -2079.903809 812.649841
-364.981689 -2212.191406 684.329590
-96.393799 -2053.442627 392.748688
-299.881836 -2027.091797 536.940979
-353.295166 -2165.708496 714.052124
-21.922825 -2068.043945 407.163574
-258.391907 -2016.650391 667.261902
-314.140015 -2031.083008 563.689392
-370.144043 -2021.112305 544.681763
-383.396454 -2101.651611 610.585754
-140.798752 -2057.473877 504.080475
5.644071 -2064.350098 496.716888
-338.764954 -2069.424316 720.128967
-235.852356 -2045.771973 487.134369
-123.408684 -2051.278564 589.240723
-422.120026 -2316.705322 565.269714
-262.766174 -2009.288330 702.900757
-260.565857 -2163.814697 825.720154
-37.845230 -2054.081299 689.848389
-71.180130 -2070.570801 451.655884
-263.645569 -2046.947021 557.723145
-210.907639 -2061.663330 784.929626
-274.290588 -2049.795410 765.944397
-204.367905 -2029.194702 727.759766
-296.674469 -2007.978638 687.079346
-85.460548 -2125.472900 742.620789
-147.469803 -2040.883301 645.768066
-288.482880 -2031.427246 512.146179
-332.588745 -2007.215210 671.161011
-296.188965 -2124.232178 777.848877
-432.170410 -2161.705566 541.166870
-86.140465 -2048.928223 603.147949
-327.414642 -2013.634033 578.775940
-94.738884 -2066.195557 604.262939
-270.833252 -2018.440186 731.605103
-126.449608 -2035.659302 727.167786
-162.488739 -2050.753662 782.275757
50.456676 -2046.810913 590.880859
52.161507 -2072.691162 642.224182
-221.373367 -2086.960449 764.305664
-361.353729 -2164.920898 669.443787
-308.140350 -2014.112671 594.376282
-249.627472 -2052.031250 472.890991
-408.624512 -2271.888428 600.270264
-328.487061 -2103.431885 780.862671
-272.512054 -2038.030151 542.121521
-288.191223 -2002.107056 720.096863
-377.270111 -2247.252441 667.598389
13.724319 -2084.275635 681.441101
-275.566162 -2005.960571 729.300659
-319.744812 -2054.757568 763.781250
-232.777008 -2017.549072 716.290894
-297.549835 -2128.469482 801.769958
-162.598419 -2057.441162 825.513977
-27.376450 -2054.009277 577.007568
7.660379 -2118.709961 696.277954
-396.970306 -2154.821289 608.059814
-115.567078 -2062.920410 403.484985
-383.710175 -2111.152832 607.620972
-299.907593 -2010.794067 610.575073
-29.584225 -2041.641968 654.145447
-322.553497 -1998.427612 644.400208
42.717854 -2053.055420 623.267090
-126.239166 -2057.876953 518.734253
-96.704918 -2089.578369 450.771912
-373.971588 -2152.234131 614.820374
-200.445892 -2093.643311 788.586609
-239.183533 -2015.726563 695.397827
-226.405884 -2046.602051 543.895874
38.817413 -2090.743896 688.000061
-404.984253 -2102.352051 552.661743
-267.504578 -2187.354248 832.202576
-116.435776 -2054.592041 554.868225
-395.652649 -2069.207031 571.242615
-63.933716 -2060.616943 545.285400
-157.723404 -2051.200684 530.214905
-318.984253 -2006.911255 609.194885
-276.353455 -2029.281250 776.369019
-16.822733 -2058.690430 547.487732
-326.188934 -2017.701904 578.063965
-124.092529 -2032.006836 669.423889
-41.639748 -2092.129639 458.313232
-375.010895 -2206.010986 679.241638
-132.672073 -2026.663940 690.288147
-218.026688 -2149.430908 822.189026
-321.086090 -2014.003052 618.418701
-156.390900 -2044.853760 611.195374
-50.603504 -2082.076416 447.767639
-254.713150 -2083.677246 756.661804
-35.494011 -2063.855225 594.296814
-47.446568 -2073.737549 395.218170
-256.321930 -2154.562500 791.006775
-342.706055 -2025.294189 638.736328
-245.688431 -2063.070557 751.683777
-287.303223 -2144.304932 795.651062
-330.570404 -2062.385010 766.219299
-201.699905 -2067.376465 545.602539
-15.972416 -2059.099609 658.363892
-172.813034 -2040.109985 732.411438
-425.507721 -2307.773193 557.952881
-394.695740 -2254.039551 628.450073
-270.962128 -2012.345825 585.185608
26.108507 -2048.453369 603.632996
-318.626984 -2005.491455 634.373230
-242.205795 -2097.191895 582.141174
-374.059204 -2041.163696 510.170929
-226.497604 -2011.510986 736.389465
-350.246826 -2108.513916 675.195862
-307.390411 -2026.026733 525.348572
-94.052498 -2066.448975 724.002869
-174.268204 -2051.682373 450.259674
-311.132874 -2161.529297 793.828491
-241.664734 -2013.482056 706.663452
-419.029663 -2264.880615 569.782349
-244.963516 -2019.960205 630.192749
-87.026390 -2046.157349 711.854370
-199.649200 -2064.918213 755.836243
-122.996605 -2053.676025 863.021362
-337.882416 -2031.973389 535.620605
-332.574249 -2016.328735 596.264465
-283.738007 -2035.618286 515.949341
-391.778595 -2028.359253 548.112549
-316.071350 -2016.708740 593.401733
-417.490143 -2194.054199 537.710266
-281.183441 -2133.468750 774.756287
-236.889359 -2008.685913 707.914856
-382.994873 -2268.964111 654.759033
-101.182243 -2031.170166 677.905151
-429.954132 -2130.175049 540.630920
-84.407547 -2026.713379 695.278198
-156.096786 -2069.997803 793.663208
-110.117661 -2062.649658 477.462402
-256.040375 -2151.510986 843.789612
-212.060104 -2043.518433 573.213318
-80.171028 -2080.057617 466.923401
-119.558578 -2057.356689 437.563660
-284.351807 -2023.326660 765.736755
-328.909393 -2027.282593 692.324219
16.216290 -2056.296875 661.798767
-334.802856 -2042.587402 699.493896
-267.304230 -2153.633789 826.448853
-198.762207 -2021.435303 693.152710
-96.742523 -2039.184448 662.998535
-252.357391 -2009.263550 603.666199
-111.035873 -2051.015625 531.771057
-23.931683 -2102.304443 700.576111
-380.581177 -2281.185791 660.524597
-180.175537 -2061.104004 563.088440
-180.277679 -2035.545532 668.164856
-288.434570 -2012.653687 607.721741
-158.171036 -2046.006836 712.712341
-381.272614 -2051.546875 622.522095
-380.871582 -2275.675049 689.085754
42.015633 -2052.838623 624.072388
-59.931942 -2038.907471 687.041138
-111.208580 -2028.851440 697.893616
5.158730 -2047.913940 633.807861
50.824356 -2069.409180 534.670471
-212.860519 -2046.943848 482.040253
88.450684 -2150.759766 563.921021
-254.138962 -2017.375854 639.381287
-144.376709 -2039.175781 415.601379
37.206047 -2060.668945 571.473083
-360.361115 -2190.752930 680.426880
45.206627 -2071.608398 630.486572
-161.580246 -2062.520264 833.465637
-190.827576 -2026.368164 716.276611
-205.871765 -2052.151855 741.569580
-338.700653 -2114.499023 775.272156
-232.565308 -2016.810791 696.406982
-270.835052 -2008.098877 728.247375
23.659931 -2056.462158 495.534210
-411.663208 -2158.338379 547.683655
33.611824 -2053.800293 552.297119
-401.108032 -2284.941162 573.819580
90.258614 -2055.676758 569.209900
-243.520599 -2006.286743 677.134949
-288.829712 -2037.581421 473.348755
-388.287811 -2086.140381 577.222046
-373.830383 -2231.340088 668.720825
-360.119781 -2193.772705 684.639587
34.382996 -2042.923828 621.218933
-258.694153 -2009.023682 741.370544
-148.070450 -2058.215088 807.114929
-338.078339 -2019.104370 558.084961
-161.145004 -2119.201660 787.856506
23.629370 -2066.508301 655.857544
-338.100433 -2004.162720 607.680847
-400.808899 -2084.627686 525.833313
-47.147861 -2050.308350 584.045288
-290.937775 -1999.098389 736.008545
-163.151855 -2072.979004 803.342957
82.406113 -2063.953613 648.708374
-421.154114 -2289.648926 575.226440
-354.722015 -2238.606201 750.847290
-352.477539 -2047.503540 665.318115
-283.347565 -2007.567261 737.986389
-168.967148 -2055.887939 523.439697
79.243095 -2065.453125 647.342834
-338.529755 -2093.742188 743.227417
-93.531975 -2038.233887 708.724792
-325.970367 -2141.886230 793.850891
1.965776 -2050.589355 609.693848
-320.423309 -2059.390381 748.820801
-406.206512 -2030.053833 520.314636
-244.766907 -2014.750488 609.758301
-341.889496 -2024.056763 601.735352
-362.582306 -2265.948975 699.618042
-102.162750 -2071.106445 712.796326
67.665489 -2080.813477 658.987854
-143.978836 -2057.302246 486.737915
-114.174568 -2025.614136 690.757324
-387.562378 -2221.344482 615.176453
-109.479073 -2039.697144 652.099976
-324.074768 -2020.871582 683.907410
-224.866562 -2006.698364 675.411926
-340.004852 -2127.639893 788.969788
-221.248093 -2135.948242 856.659973
-356.495270 -2112.018066 672.808350
-287.642212 -2163.937988 782.259216
-306.575439 -2021.160645 543.594055
-273.040741 -2207.049561 820.614380
-273.598206 -2002.275879 736.842346
-62.862968 -2051.623291 377.618378
-281.410309 -2010.708862 620.728638
-118.328735 -2065.364990 491.456451
-148.478226 -2058.498291 441.008728
-403.950684 -2229.818115 619.763916
-381.216644 -2097.125732 614.599426
35.790100 -2061.859863 534.763062
-64.988495 -2031.658691 668.508667
-149.110245 -2029.660034 700.276489
10.006589 -2058.295410 665.981934
-159.185760 -2053.708984 832.238464
-271.993317 -2028.887329 575.176086
-33.412659 -2054.263428 612.114319
-271.122803 -2192.797852 833.192505
-208.359482 -2030.412354 624.536865
-242.941467 -2013.492188 730.341003
-108.122375 -2043.983643 654.553955
-362.121155 -2015.867798 620.853210
-351.774750 -2228.479004 794.167419
-118.118736 -2059.291260 472.210663
-337.181763 -2012.686523 574.668030
-422.009460 -2036.897339 527.313354
-340.332397 -2173.275879 709.123657
-298.188843 -2150.876709 784.148865
-329.936310 -2090.876709 725.360840
50.120155 -2080.848877 686.118591
-263.417572 -2027.736572 770.131470
-302.013306 -2029.007935 540.262878
-329.780182 -2095.703613 772.563171
-294.766418 -2004.126099 753.425903
-154.524521 -2077.106201 722.197510
-22.629774 -2066.614258 388.313751
-223.281174 -2015.837646 651.886292
-132.881638 -2040.735962 700.905945
-284.007996 -2192.406738 811.080994
-229.496780 -2011.357422 684.592712
-181.582047 -2098.221680 830.900269
-228.947571 -2027.849121 740.195557
-159.373260 -2065.598389 752.630920
-311.301270 -1999.144775 659.808716
-154.456146 -2063.652588 434.093048
-277.613281 -2026.197021 559.316406
-145.842026 -2052.702148 460.674164
-50.948719 -2045.856567 704.052063
-351.137390 -2270.001465 723.456238
-279.774811 -2039.223755 508.151978
-290.654999 -2011.847900 594.260315
-415.666046 -2224.139404 554.830383
-223.882904 -2041.230957 449.047974
44.383636 -2060.412354 602.416809
-52.201756 -2067.689453 489.678680
-254.498062 -2015.282104 654.030823
-167.070465 -2131.235840 799.916077
-352.732178 -2018.736938 587.565491
-219.411987 -2155.353516 777.694824
-265.475433 -2133.085693 831.014404
-274.805603 -2025.119019 596.993774
-275.951416 -2082.088623 768.902100
-84.974686 -2058.616211 429.340942
-326.054565 -2080.622803 779.983337
-96.814598 -2065.406006 592.090515
-417.693817 -2150.330566 560.338684
-376.568146 -2192.115479 646.187866
-236.171295 -2104.343994 619.333557
-54.163986 -2040.399536 675.442993
-239.482452 -2044.973022 532.626099
-150.893616 -2043.793091 665.293884
-124.450401 -2028.097656 412.295502
-275.754944 -2036.694092 472.120605
-149.843307 -2024.675293 688.403870
-391.083679 -2092.543457 571.856323
-90.384262 -2024.898193 685.949829
-366.645020 -2072.551270 637.686401
-245.186279 -2018.013062 709.328064
97.046646 -2079.532715 572.549805
-205.557632 -2054.154053 517.160461
13.878160 -2053.132080 595.074341
-183.054642 -2053.012451 739.402283
-243.169250 -2145.498047 859.572937
-290.461029 -2137.774170 778.347046
-182.388229 -2061.675049 494.974731
-343.940765 -2127.022217 774.082764
46.101070 -2070.840576 686.856689
-221.492752 -2058.507813 447.120087
-412.391357 -2277.458496 587.363281
-249.936707 -2101.178711 756.136902
-347.001312 -2094.597168 677.726135
65.630547 -2096.101318 669.651123
-360.563385 -2040.856567 508.944366
-270.782990 -2042.121826 537.530945
-276.013641 -2022.159546 570.866577
33.407066 -2048.243896 625.546570
-298.742371 -2038.977173 759.737000
-3.833658 -2035.544434 622.556274
-273.292908 -2040.944580 487.572174
-231.266174 -2030.943481 615.830872
-102.733192 -2053.889160 443.239136
-109.826332 -2056.287354 446.259766
-262.375061 -2143.578613 799.506042
-183.933441 -2026.610840 720.380310
104.892479 -2069.988525 591.792908
-186.449097 -2017.198975 718.603821
-170.713943 -2053.649658 494.309021
-201.137192 -2071.177002 765.321045
-247.108612 -2153.263672 855.853943
-263.204437 -2016.835571 725.363098
-391.117554 -2045.204224 516.268982
-285.185791 -2088.116943 774.343079
-327.729706 -2011.254761 631.290771
-289.667145 -2186.527344 788.576660
-402.342712 -2168.454346 579.739136
-307.059296 -2051.474854 772.193726
63.259125 -2061.475586 660.422180
-333.932098 -2026.882935 680.053101
87.982132 -2057.997803 596.156433
-341.634888 -2188.980225 723.106201
-201.249817 -2068.196045 554.522522
-398.193634 -2200.619385 622.098694
-79.805565 -2048.830078 437.532318
-373.915924 -2029.177246 524.254028
-403.259827 -2165.489990 573.544678
-406.059082 -2303.001221 618.331482
-309.984467 -2005.003296 680.211914
-71.659264 -2061.354980 385.063324
-223.663162 -2006.514893 670.217529
-170.808121 -2090.681396 861.359802
39.819199 -2060.872803 660.028198
-147.558731 -2030.898926 674.229614
-194.175690 -2101.750000 799.768555
85.872826 -2069.686768 651.562561
-365.205780 -2107.156006 618.675171
-16.669626 -2070.790771 691.795959
-407.635010 -2103.236328 529.463623
26.852894 -2065.234863 550.858215
-253.341766 -2010.472900 671.982788
-151.506317 -2099.615234 835.813721
-247.533936 -2006.013794 661.816589
-330.589874 -2022.969971 631.677307
-151.361130 -2045.904175 417.761047
-75.422119 -2077.027832 385.774506
-360.153381 -2044.743652 508.981628
-311.304504 -2022.826294 711.877747
-171.418274 -2096.668701 853.917908
-93.654686 -2039.746460 661.192566
-325.044098 -2124.781738 730.601074
-445.830597 -2206.591797 552.266479
-58.430157 -2059.972656 415.233734
19.454048 -2067.926758 561.064575
29.352571 -2077.895508 681.717773
-313.399506 -2059.605957 766.603271
32.544712 -2054.509033 615.332092
-100.753204 -2061.672363 442.810089
-264.430389 -2142.228271 818.941101
-317.430450 -2006.643921 595.270081
-164.101746 -2047.623901 795.050781
-432.836365 -2227.938721 545.012878
-203.271561 -2042.603516 438.310028
-146.375641 -2042.532715 833.341309
-267.114594 -2011.314697 624.650757
0.499781 -2080.342041 423.782990
-263.597809 -2005.509277 722.340088
-90.730896 -2085.344482 400.392792
-206.798264 -2020.037476 672.975830
-359.201599 -2253.808594 733.376709
-378.011261 -2159.115234 624.375916
-238.541504 -2141.994873 763.348267
-61.466572 -2037.958984 691.754761
-27.854815 -2043.575928 657.608826
-303.727234 -2006.245483 758.378845
3.096961 -2047.144775 607.388428
-225.667923 -2013.719604 716.153931
48.392864 -2061.359131 622.229187
-180.583298 -2054.243652 720.064636
17.389370 -2073.799072 536.055725
-289.139587 -2073.591553 770.279907
-244.008514 -2090.217529 756.398560
-194.763321 -2033.279785 731.744995
-417.849091 -2126.093506 532.077515
-83.136513 -2043.276123 720.080322
-115.792404 -2040.686523 648.469971
81.236481 -2065.700684 573.182129
-420.550903 -2018.453247 533.618469
-182.519287 -2052.384766 640.142395
-103.728706 -2074.922852 405.832458
-200.718323 -2053.752686 535.098572
-218.145950 -2062.118652 450.006256
-66.951912 -2041.312866 396.628693
-322.357147 -2026.084961 575.724365
-350.447510 -2068.435303 673.600830
-380.076538 -2193.554932 638.281738
-317.473602 -2000.062622 641.739075
-301.956482 -2099.026611 785.571899
19.591860 -2044.961060 656.478699
30.343603 -2142.833740 429.822906
13.611056 -2098.799805 687.270752
-210.122559 -2041.649536 489.546600
100.953911 -2092.634033 628.591980
-11.699296 -2054.625000 658.724060
-171.091736 -2061.808350 780.092896
-323.167755 -2001.896240 678.380981
-196.182907 -2054.310303 766.658875
-128.550171 -2060.064209 445.685333
-153.054855 -2079.605225 759.983276
-295.917358 -2103.081299 778.255737
-337.264954 -2170.121582 730.528931
-199.184769 -2067.503906 790.899048
-312.420807 -2021.157959 569.219788
-350.230652 -2179.197998 726.155823
61.112770 -2047.846802 644.150085
-156.132858 -2055.925781 825.035706
-398.620117 -2279.970215 615.590332
-410.337189 -2134.875977 541.556824
-420.286957 -2049.167725 532.254578
-316.550629 -2044.430054 726.676453
-301.200500 -2011.471436 700.288330
-219.148148 -2051.406006 527.804260
-216.918106 -2120.296143 752.435486
-268.592072 -2022.074951 579.611206
-305.902985 -2038.106567 512.896423
-162.949478 -2058.178711 847.216675
-145.225967 -2057.478271 555.530823
-62.996189 -2056.507324 616.631531
-186.304520 -2056.160645 490.395477
-152.278198 -2039.730347 620.174988
-323.205139 -2172.060059 792.239502
-15.733738 -2042.419678 645.811462
-378.249237 -2228.529297 626.547791
-47.602985 -2088.567139 451.100098
-197.291763 -2058.538330 779.210754
-123.274254 -2050.259033 572.944885
-95.157852 -2053.721436 593.407715
-399.808167 -2212.812256 622.691284
-133.166153 -2066.027344 423.416351
-350.675140 -2022.564331 503.110199
-148.309875 -2122.981689 843.217285
-404.747314 -2180.189697 544.459351
-346.203400 -2084.668213 687.894531
25.286755 -2064.788330 671.206360
-33.882809 -2134.525391 708.564575
-300.863159 -2036.930298 502.646576
-357.323090 -2046.507813 503.935303
-221.064117 -2018.591797 683.359070
-339.149231 -2254.103271 723.339355
-251.095779 -2141.240723 777.372314
-350.539154 -2198.569336 710.965820
-151.600571 -2052.076416 477.207336
-229.263977 -2061.997314 510.140503
-324.246277 -2023.745605 698.148010
-37.850567 -2050.652832 597.779541
-136.902344 -2028.214355 704.288025
-230.359924 -2050.096680 462.659851
-292.117126 -2002.921997 653.032166
-370.142578 -2088.887695 645.802368
-383.391174 -2117.793457 624.944336
-337.769928 -2006.382813 656.125122
-349.637360 -2234.786377 782.352539
-19.186510 -2069.482910 684.051392
-241.723343 -2149.144043 843.622681
-218.930023 -2138.449219 822.022827
-60.653831 -2066.752197 479.850861
72.618164 -2066.515137 658.912231
-182.909271 -2057.395264 757.601379
-249.640091 -2031.584473 588.919189
-128.794052 -2028.109863 694.129395
-170.063766 -2052.416504 428.341278
-395.147888 -2141.568604 586.933350
-37.185307 -2128.614990 723.957458
-314.806213 -2043.288940 518.004822
107.021507 -2066.602783 619.690735
34.875847 -2046.369507 646.669495
-370.383209 -2014.776245 561.523193
-38.067299 -2070.196533 538.634583
-44.294899 -2060.933594 422.529724
-294.280243 -2020.502686 669.753479
-258.061737 -2010.053223 648.065369
94.058479 -2076.215332 598.094116
-190.717438 -2082.788330 813.696228
-338.444031 -2057.973145 680.934387
-251.415512 -2130.181641 878.264343
-308.988007 -2168.300537 789.454163
-164.588150 -2068.607666 872.985046
41.527645 -2073.128906 522.493469
-310.534149 -2034.509888 747.215210
-307.376495 -2096.420410 790.594910
-90.050835 -2033.107666 670.859131
19.571411 -2064.245117 553.179138
-296.162323 -2004.624023 742.943848
-128.049393 -2047.766968 647.788635
17.339985 -2068.485107 672.316162
-218.996811 -2045.389648 488.440826
-233.385376 -2056.166992 744.056335
-311.777832 -2068.293701 776.678528
53.887230 -2131.639648 687.112671
108.748604 -2124.299316 610.130127
-314.247559 -2060.727783 790.022827
-167.449356 -2097.225830 851.166992
-339.972687 -2154.179688 720.925659
-165.820007 -2064.550781 880.144531
-248.892822 -2274.024658 770.625122
-52.091751 -2052.945313 577.822876
37.259995 -2224.390381 472.900055
-388.499268 -2038.530396 515.204773
-336.703369 -2182.748047 738.075623
-379.736359 -2036.274170 530.964722
-151.222244 -2061.133057 483.514740
-205.728561 -2062.520996 755.971130
88.479530 -2158.583008 572.149841
-264.137115 -2055.643066 756.545959
-319.261353 -2000.739136 614.577332
-31.473961 -2035.279663 649.334412
-325.234894 -2074.356934 770.640137
-357.496429 -2032.896973 500.542358
-195.450058 -2150.312744 738.205566
-96.238937 -2031.412476 679.114441
-305.505157 -2008.151855 625.523193
-133.703522 -2028.475708 705.110840
-402.827515 -2094.244629 557.315674
-389.493988 -2151.267090 601.710632
-293.944061 -2002.628174 697.711731
-228.229782 -2053.415527 480.770081
-290.983032 -2158.511475 809.920837
-164.781479 -2028.542969 669.990723
-349.639832 -2261.303955 736.097412
-205.028717 -2061.602295 765.103760
-321.099487 -2065.575684 770.811523
-142.204788 -2048.788086 560.852417
-403.255493 -2259.982910 599.364929
-312.121643 -2023.591553 545.683228
-294.563904 -2028.421753 560.167114
-364.804443 -2228.808838 682.605652
-179.838196 -2059.235107 490.402771
-86.156502 -2043.665405 618.523193
86.054680 -2106.625977 672.967712
5.073125 -2078.645508 373.486176
-378.282959 -2114.940430 609.231201
-225.960327 -2077.863525 743.073669
38.512115 -2056.594727 614.823059
-360.185730 -2261.883789 680.809204
-0.397761 -2035.861206 630.815125
-216.609360 -2128.772461 743.035156
-285.649353 -2030.432373 532.285767
-237.713760 -2006.778076 637.856323
14.029747 -2046.779663 637.778137
-64.445007 -2058.115234 526.529053
24.786804 -2065.674561 671.733276
-316.710846 -2056.621582 736.153076
-387.386841 -2149.265625 604.139404
-196.007065 -2052.614258 762.910156
38.443619 -2059.068359 632.176636
-346.890076 -2270.942383 713.772095
-326.676819 -2026.118164 548.473022
-294.013885 -2010.230591 767.656982
-91.235245 -2057.196777 585.274719
-371.016785 -2020.772827 599.686218
-180.889206 -2064.404785 579.897583
-268.735352 -2181.055908 839.261841
-151.039063 -2058.979492 473.158142
-243.260941 -2017.536743 744.271729
-62.966175 -2067.886719 386.378937
35.993401 -2076.979004 664.598389
-12.929770 -2081.658203 693.314209
-406.380829 -2017.332764 531.129395
-365.397614 -2101.739990 661.229187
-226.875687 -2129.070557 850.362854
-215.253693 -2040.645020 734.714050
-233.998535 -2050.664063 504.844055
-414.882355 -2237.842285 565.571350
-112.566269 -2053.096436 570.793701
36.188255 -2073.467285 500.378235
-231.712524 -2009.331177 709.866028
-89.269447 -2060.503418 500.352051
-171.386368 -2070.535645 829.039490
-13.442595 -2112.786377 688.984497
-236.621033 -2015.541748 707.093750
-365.820251 -2022.682617 547.576233
-244.276398 -2010.388550 685.894409
-3.570584 -2066.159912 414.137817
-159.232391 -2070.728516 480.530487
-322.656677 -2053.595703 730.703918
72.601685 -2065.510742 667.440979
-154.032578 -2046.833130 539.434570
45.452625 -2062.415771 630.348389
-168.041458 -2051.547607 537.732239
-385.696350 -2129.928223 607.818726
-188.824265 -2086.412109 805.175964
-161.021729 -2040.905640 668.619385
-56.648842 -2102.014893 713.124390
-287.640961 -2002.993042 763.132446
-89.925766 -2062.964600 502.217041
-124.065979 -2051.410889 448.553162
7.753348 -2048.398682 602.026489
-221.307190 -2109.771240 764.443970
-345.735748 -2106.671387 708.240784
-385.501068 -2208.083496 634.097290
-236.021698 -2042.712891 475.889343
-218.519272 -2116.985840 764.307922
64.401184 -2120.990479 700.164612
-241.150635 -2151.965820 833.104309
-213.512878 -2043.642334 479.809479
-191.522018 -2059.843506 541.045471
-238.685974 -2025.498169 618.669434
-262.470337 -2011.281616 650.494324
-346.909485 -2073.004395 690.303406
-409.302734 -2267.356201 621.974060
-238.858429 -2040.840576 496.754364
99.302689 -2071.510010 635.912476
-427.120667 -2188.230957 548.760498
-269.646698 -2147.081543 825.755676
55.406761 -2049.493896 616.423950
-285.730652 -2017.419067 721.304932
-289.157196 -2012.307983 598.965576
-292.375763 -2015.003540 595.323425
-342.673370 -2014.136475 576.306091
-67.163666 -2029.716309 690.975891
-63.469868 -2082.053223 438.604980
-153.466721 -2055.728271 710.525024
-69.393616 -2061.669189 410.905334
-423.082031 -2262.807373 583.133606
-422.603577 -2307.992676 568.139648
-385.590424 -2086.700439 595.672607
21.717751 -2087.024170 684.677124
-372.383270 -2143.000977 645.347656
-119.068535 -2055.856445 565.713501
28.449392 -2101.215332 463.188812
-231.174652 -2043.193115 600.913757
-170.333908 -2105.234863 844.636475
-238.629837 -2066.872314 525.909424
106.235451 -2115.348633 604.622620
-54.763474 -2061.339844 411.977081
-129.434967 -2061.089355 429.326294
-331.187897 -2041.995117 709.407410
-337.307343 -2100.367920 712.196350
-230.240189 -2033.685791 636.446533
-344.011627 -2251.951172 761.819824
-273.871552 -2016.786987 707.166260
-39.997761 -2056.032959 592.057800
-137.731430 -2058.688232 442.870483
-103.147430 -2080.890869 399.789276
-415.654785 -2256.565430 575.516296
81.333046 -2063.133301 547.365967
-344.702118 -2214.815186 725.395264
-94.019150 -2043.233398 716.391968
-380.733734 -2219.893555 640.997681
-58.769695 -2051.193848 645.338745
-202.783569 -2131.552734 845.143860
-120.364845 -2076.983643 450.812042
-129.079895 -2040.635010 647.838074
-348.997711 -2052.471191 672.515686
-33.205883 -2035.324463 629.798950
-362.163666 -2249.029541 666.960205
-319.944946 -2005.560425 642.941101
-104.432274 -2033.304688 727.676819
8.995077 -2118.202637 688.222412
-312.777374 -2042.675293 741.676453
-228.643326 -2050.582031 477.068207
-386.893524 -2023.544067 527.677917
-294.878815 -1999.173340 627.735168
-302.746918 -2205.562500 797.820923
-217.972382 -2052.210205 494.169617
-176.526062 -2057.907715 500.589020
-106.949997 -2032.441528 697.452576
-348.398193 -2141.899902 691.555054
-332.085175 -2106.110596 739.642395
-399.471008 -2160.534180 583.392029
-81.283333 -2052.104004 560.461975
-414.927887 -2164.925537 536.690979
-78.650482 -2028.700928 401.221436
-389.165436 -2253.186035 639.718933
-14.521226 -2114.542480 710.732178
-406.308624 -2258.119141 625.513550
-354.429932 -2035.637451 530.720032
65.396072 -2044.269165 602.534851
-270.407227 -2015.299561 717.673828
98.005119 -2078.041748 656.633118
-288.340302 -2006.803101 626.249207
-344.952148 -2105.338623 694.562744
-152.564484 -2066.259277 757.347168
-282.990631 -2068.832764 770.838623
-61.187031 -2035.723633 684.534851
-164.186554 -2037.070679 709.439026
-334.825378 -2007.870117 603.766724
-214.156311 -2064.091797 479.035126
-390.597382 -2184.179443 609.999146
7.863660 -2057.949463 661.799500
-345.544220 -2185.654297 789.708862
-102.014442 -2047.116211 718.971191
-294.160522 -2011.657593 605.244141
-81.837204 -2044.062012 645.040100
-187.413269 -2073.427002 821.830505
-296.896515 -1999.120483 744.379150
-321.612610 -2066.304688 744.893921
-340.437408 -2178.106934 764.767944
-339.602142 -2096.979248 692.066895
-55.011696 -2059.668213 510.220490
-231.812073 -2030.120972 619.495972
-370.218689 -2171.683594 659.437439
-383.204865 -2025.832397 547.765198
-172.125351 -2060.250732 536.119080
-188.782501 -2063.681885 758.210022
-234.096771 -2039.810181 472.201050
-363.506989 -2147.458008 636.564758
-193.829941 -2061.234131 827.533813
-301.235962 -2009.547729 616.800110
-286.671112 -2041.477539 487.753143
-178.105911 -2054.211182 552.650085
-159.415482 -2033.958862 705.707825
-202.777405 -2092.612793 776.441162
-170.296219 -2059.420410 793.739441
12.066447 -2045.802490 634.591309
-253.134796 -2014.991821 645.186096
-404.209412 -2128.072510 578.563293
-372.698181 -2048.487305 605.945801
-395.265625 -2188.466309 605.290100
-128.924561 -2031.374390 716.910034
-178.566971 -2090.891357 836.818726
-60.509754 -2079.888672 493.910095
-339.976746 -2103.470947 786.697083
-95.607353 -2052.847656 568.122253
-10.721483 -2067.579834 502.600067
14.304581 -2053.908203 640.330444
-284.694824 -2012.631104 617.281006
-380.073364 -2110.827148 609.160950
-171.206696 -2037.441528 657.657837
-407.421783 -2191.863770 576.171326
-411.227570 -2054.213135 531.684204
-275.634369 -2017.923706 615.386658
-2.623457 -2060.808594 673.302246
-296.670624 -2021.904907 483.190460
-215.256485 -2068.381592 537.775879
-376.201721 -2123.307617 631.555420
-183.408707 -2044.098999 633.445435
-128.509277 -2070.685791 408.549683
-341.241699 -2143.296143 772.479187
-169.221558 -2056.339111 470.054504
-173.510986 -2089.447998 847.663818
-356.131805 -2156.413574 655.797241
84.111923 -2120.596680 672.530151
-164.021790 -2061.325684 846.918396
-358.596191 -2110.420410 653.075867
-79.802284 -2034.316040 707.114136
-178.265564 -2044.775513 612.607422
-163.681763 -2056.586426 483.008759
-177.594315 -2068.013672 774.814575
-406.632965 -2199.812500 602.352173
-333.397186 -2009.764771 612.924377
-383.746033 -2049.770264 563.581238
-182.616089 -2021.286987 719.060974
-360.764099 -2228.098877 794.901123
-272.373383 -2011.427246 638.450745
-380.574158 -2014.905640 563.588135
-207.860992 -2057.794189 731.989929
-227.347794 -2048.217285 470.687469
21.669813 -2048.943115 600.234436
7.376161 -2056.764404 597.504578
-228.492142 -2131.161133 832.651306
-161.062057 -2048.192627 716.108459
-335.081665 -2135.722656 781.890564
-381.120453 -2073.184326 572.885925
-227.679108 -2019.211182 718.699951
-424.507385 -2199.038086 549.125122
-129.975693 -2058.137695 511.203705
-47.897655 -2052.022705 699.265808
11.743554 -2126.047607 697.527222
-332.932404 -2161.888672 799.118835
-199.154678 -2048.130615 557.701782
-331.844543 -2075.660400 761.301758
-102.682800 -2051.039307 579.448303
-296.487732 -2009.695190 613.327637
-263.817749 -2039.600952 500.326172
-169.822937 -2055.474854 590.794067
-133.039993 -2036.823364 646.195801
-276.169189 -2006.574097 686.102783
-339.627167 -2042.192383 673.320129
-297.249481 -2021.253540 688.735596
-409.313263 -2097.514893 527.938110
-283.057648 -2171.392578 785.395203
1.383103 -2070.351563 496.604309
-106.883965 -2068.161377 421.069763
-351.454407 -2239.657471 778.251465
-168.847076 -2092.777344 867.710999
-381.924225 -2261.135254 660.289429
-356.357666 -2151.057861 678.704468
62.806450 -2048.406738 570.878357
-48.534122 -2045.426636 628.042419
-341.431793 -2235.515137 737.708252
-245.280716 -2043.859131 475.218750
-68.851936 -2055.964355 479.281830
-109.465927 -2033.730347 657.044128
-343.041168 -2033.247803 516.350647
-2.007226 -2062.164795 676.776550
-356.407043 -2246.780273 750.211304
-367.369110 -2282.592285 688.549255
70.569946 -2044.155762 587.975464
-39.504429 -2069.087891 429.687500
-333.099030 -2030.739258 493.396118
-29.163679 -2037.786743 666.056335
-253.112122 -2043.597290 582.084045
-54.493904 -2094.150879 483.861694
-152.505524 -2056.274658 858.246216
-281.278503 -2005.816772 637.116577
-117.378288 -2041.231934 418.688354
-224.537735 -2155.303467 761.102966
-283.104462 -2078.454102 765.739868
-207.015289 -2088.927734 796.275818
-215.633560 -2081.608398 748.724426
63.132248 -2217.052246 532.268555
-211.241074 -2144.417236 749.531128
-203.276184 -2022.129395 666.116638
-308.292725 -2190.272949 795.374451
-401.398254 -2139.260742 577.175232
-333.032501 -2075.400146 700.974976
-216.034073 -2016.860474 719.007202
-265.837891 -2204.535889 843.759399
-344.681763 -2042.638184 663.844055
-421.820282 -2193.115723 538.603027
-21.377926 -2094.325684 471.348358
-294.475342 -2000.095947 691.948364
-36.569057 -2046.821045 637.436829
-110.954346 -2032.963135 712.051697
-298.828369 -2025.310303 762.524292
53.676567 -2092.324463 688.399475
-232.231735 -2146.015381 864.504211
-42.337891 -2038.064209 691.806946
-18.477404 -2129.151123 699.097046
-131.510376 -2067.076904 714.059265
-383.168274 -2190.578857 630.499084
-20.210320 -2069.468018 379.403381
-158.904633 -2034.111328 667.170227
-160.723618 -2023.757813 690.799744
-161.436493 -2076.238281 802.596008
-70.456627 -2068.249268 398.980164
-313.780151 -2038.657837 719.026123
-25.486473 -2052.044189 589.003540
-228.587601 -2017.360840 658.270142
-393.171661 -2241.308594 664.514893
-194.852356 -2048.922363 459.777924
-451.795990 -2245.948975 559.851135
-312.371063 -2043.587524 752.575806
-233.719696 -2006.086914 703.522766
31.181953 -2050.219727 590.060425
-338.536194 -2127.023682 716.416565
-290.736359 -2049.864014 482.586914
-191.189835 -2120.642578 775.078247
-296.944458 -2001.458008 735.228821
-352.705627 -2254.377197 723.777222
-374.706573 -2043.398193 607.807922
-331.492798 -2125.689941 777.515015
-114.416351 -2084.672119 734.848633
-268.490631 -2151.732910 780.034912
-267.498444 -2021.075195 568.764526
-406.419739 -2121.573486 540.267639
-303.521790 -2018.086914 679.465820
-297.435211 -2000.516846 665.767212
-215.277725 -2009.627930 654.441772
-314.363708 -2006.907959 700.554260
-332.639801 -2072.632080 708.136780
-384.130859 -2199.388428 630.219055
-360.347809 -2215.048828 793.587280
-344.508362 -2032.968018 680.266357
-318.294556 -2043.513794 519.724426
-179.452087 -2075.319824 818.961182
-215.725235 -2092.601563 773.281311
89.498878 -2095.575439 664.980469
-270.919556 -2010.736328 690.130066
-281.226746 -2018.195923 726.603516
-251.061584 -2052.050537 478.674469
