ply
format ascii 1.0
element vertex 1372
property float x
property float y
property float z
end_header
1043.422974 596.635437 1785.922607
1306.342041 372.511688 1669.966064
1379.607056 387.599976 1688.353394
1219.485840 683.416870 1844.523071
1218.229370 679.116333 1866.017334
1211.321655 542.887756 1739.815063
1109.417236 248.504623 1764.348999
960.973328 521.189941 1824.819458
1204.310425 597.451050 1752.507080
1130.681885 619.744080 1742.000488
1223.827148 631.713623 1764.325195
1055.926392 449.174011 1790.100586
1117.889160 619.373535 1745.975342
959.612183 510.796204 1946.760864
1013.031555 606.626831 1787.114014
1191.900879 571.788147 1741.681519
1199.704468 480.850525 1703.720215
1245.656982 451.537933 1683.113281
1170.177856 710.038025 1946.520020
1080.523071 603.283020 1949.092163
1265.042725 315.554901 1693.946045
919.162659 501.192139 1837.339355
1243.488037 664.393311 1713.639160
1101.099365 484.868103 1812.900513
1157.940308 639.153015 1992.410278
1335.628540 336.849518 1657.623169
1167.857422 693.006348 1920.316040
1040.842896 486.581879 1775.682983
1192.635864 429.568451 1718.999634
1130.964966 263.916168 1754.035278
1229.182617 682.916870 1839.913086
1001.171753 573.666199 1843.665405
1194.154541 377.143768 1728.867432
1040.731689 543.951721 1770.407227
1246.020996 261.937073 1715.063110
1102.978638 602.068726 2048.803467
1045.124512 458.266144 1803.204712
992.482117 550.043945 1921.805542
1134.790039 445.453522 1750.444580
1176.230469 606.085449 1759.864990
1347.724487 369.245941 1665.563965
1080.599609 347.231781 1780.833496
1051.366577 422.959625 1817.130249
981.925232 539.558044 1804.049683
992.825195 575.366089 1815.003296
1054.182251 496.892456 1774.949951
1169.884155 635.254517 1778.801880
1142.088257 368.406403 1759.562622
1073.353760 419.349548 1803.048828
1078.603760 627.217957 1806.599854
1128.801514 521.749329 1774.987427
1211.987671 308.657440 1723.575562
1005.405273 603.484680 1795.523926
993.113647 551.851013 1941.916504
1240.883667 524.348145 1693.876221
944.319092 513.931030 1847.325684
1199.215332 490.804108 1705.154785
995.645325 462.993805 1811.942139
1202.698486 666.864746 1863.486938
1150.395630 681.142273 1908.788696
1199.082764 605.872314 1752.246704
1185.939209 203.955887 1735.170776
1243.021362 658.301575 1758.351318
993.426331 530.612183 1805.185425
948.413879 499.365479 1859.950439
1019.860229 440.638489 1821.065063
1068.455444 631.353821 1758.431641
1154.917603 336.946564 1752.886108
981.783691 560.348328 1868.741089
978.135498 526.732239 2008.202881
1150.466675 667.710144 1935.404785
1284.223267 362.451752 1660.595703
1176.392578 690.304810 1987.503418
1044.312744 572.413574 1777.629028
1237.892212 646.416992 1768.450195
1156.965942 461.206787 1739.577393
1112.175537 667.183594 1777.893921
947.431702 516.082336 1830.837524
1064.395874 587.974731 1753.445679
1319.481689 459.660431 1732.076904
1007.717773 601.923340 1811.626709
1132.181396 575.409485 1727.613647
1162.361084 231.230209 1743.252319
979.462280 505.805084 1828.997314
1185.810425 613.222961 1777.355835
1050.801758 591.489990 1914.972778
1113.965576 630.586060 1748.949341
1220.708984 617.111816 1738.324341
1134.157837 628.847534 1754.790771
913.271301 510.739502 1841.096924
1046.346680 587.928650 1862.599243
1100.349121 666.234863 1817.094971
1110.553955 610.049744 1735.059082
1357.083008 426.486389 1685.177856
1020.376099 550.898010 1785.243652
1005.595154 587.478943 1782.106201
977.317627 546.827026 1803.385864
1093.006348 606.362854 1967.500732
1110.454590 474.910675 1788.646729
930.803833 554.505188 1841.709595
1182.922485 406.398193 1745.072388
1172.270142 670.362244 1885.340454
1218.220825 699.834229 1863.569458
1090.757690 589.360657 1742.437500
1228.943237 485.776093 1688.204346
1049.159424 587.112854 1762.721680
1249.360229 401.420746 1706.326660
983.153076 517.778076 1989.182861
1177.494263 521.890808 1712.845703
1115.622803 662.420105 1770.511230
1197.430908 607.648010 1797.651367
1130.589233 384.319275 1766.963623
1275.685547 397.676849 1668.666626
1230.368286 506.741455 1689.252075
1153.609619 230.598068 1757.624268
1089.265015 319.271362 1782.984131
978.873596 574.974182 1824.333984
1147.453613 583.295898 1720.525635
1252.841064 603.658508 1773.871094
916.056030 510.766327 1867.892578
1077.162964 393.948029 1803.592651
1080.940674 541.898132 1738.820068
1374.947998 397.761627 1687.137817
1129.340454 709.053162 1878.659790
1044.262817 494.119568 1778.757446
981.059509 520.674561 1815.573120
959.244812 558.250732 1814.142822
1247.554810 692.949890 1821.674072
1084.755005 561.603210 1744.685181
1132.760376 263.623779 1756.053223
1009.180542 585.090393 1826.908203
1020.347473 557.075134 2010.079468
1191.258667 619.480957 1788.116089
1058.644775 577.503357 2025.723145
1342.863770 336.910614 1658.496216
1051.252808 525.531799 1765.508423
1227.297485 606.925232 1742.867432
1351.185425 417.260773 1671.931641
1256.193481 636.741272 1726.842651
1199.277832 500.560974 1710.574463
1273.824463 427.220673 1683.919556
1173.407959 658.665527 1838.932739
1050.665405 332.387238 1802.778442
933.128967 509.544373 1879.477539
1182.160400 636.142090 1831.299316
1253.640381 308.984589 1698.129639
1163.007446 480.586761 1739.809814
1141.810181 686.931763 1849.177490
1203.866089 481.034637 1705.486938
1183.605713 670.782959 1872.909668
983.918030 526.735962 1989.961060
1220.458862 627.521545 1770.785645
1215.461792 648.284851 1744.998291
1219.411255 548.551392 1724.781982
1088.368530 530.946777 1760.420166
1087.713623 575.008240 1744.551392
1121.976563 556.134949 1741.211792
986.247131 480.141663 1827.103271
1114.445923 646.326172 1757.739990
1238.393188 535.613464 1732.562134
1340.498291 459.189941 1739.252441
1037.824463 574.622437 1786.329102
1239.956909 523.288513 1690.646118
1041.292236 478.229065 1783.624146
1035.543579 428.681458 1800.398682
1182.903320 473.904388 1719.472778
1172.965454 524.584106 1715.790283
945.305115 531.737854 1833.948975
1035.509033 526.326721 1774.946899
1118.026245 606.627319 2022.698853
1217.512817 302.383606 1710.805176
1344.389771 312.063477 1663.877808
1310.029419 362.778259 1655.814697
945.175537 504.752106 1862.094727
1118.470581 634.139343 1884.165039
1146.166016 425.894653 1748.353149
1243.620972 528.293945 1740.574341
1144.420532 685.281860 1869.669189
1207.293945 327.666779 1725.691895
1191.981323 352.985291 1742.525513
1230.471680 659.799011 1733.423218
1092.717773 609.177063 1955.333008
1213.895996 434.930298 1710.077026
1195.382446 643.610779 1852.868164
1205.054321 368.295288 1732.325317
1015.029114 563.780640 1919.211792
955.658997 513.077576 1820.679565
1106.926880 567.576721 1746.021851
1097.222534 305.111115 1786.869263
1256.315430 441.562134 1679.747681
1342.050171 357.129761 1664.620483
1125.670044 663.949646 1879.330322
1118.017334 684.571167 1838.717651
1203.825195 627.630127 1769.984741
955.716309 537.580872 1825.538696
1269.939575 405.686157 1676.850342
1150.803223 687.416687 1878.086426
1211.837158 165.614029 1838.607300
1282.244873 423.932861 1678.201782
1028.963013 358.835480 1789.582153
937.623779 487.167816 1859.988892
1177.883667 642.118530 1827.821045
1101.482544 354.901154 1764.609375
1164.466309 462.666351 1735.469482
1093.221924 639.082214 1888.675781
1209.582397 543.540710 1709.440552
1278.776001 657.830078 1701.947144
1084.281250 607.098450 1941.504395
1094.374756 386.943268 1789.708252
1059.416626 627.151978 1789.757446
1176.510864 499.074677 1722.435425
1262.100586 392.940948 1699.262573
1028.428711 586.033691 1774.693237
1060.673462 327.147095 1792.071167
1124.406372 587.207397 1725.808960
1121.263306 688.244934 1840.036255
1085.705811 345.399170 1778.792847
1239.853027 647.543396 1766.135132
1322.178711 372.475739 1663.927002
969.044861 536.343872 1918.532593
1145.095337 358.712891 1770.068115
937.123169 491.639893 1850.096802
1233.395020 205.519989 1742.434692
1168.465942 456.298065 1730.380737
1017.815491 552.191528 1782.015137
1247.705688 666.317078 1716.949219
1213.926880 658.219482 1833.133301
1169.632813 396.781036 1740.002686
1103.606812 537.708618 1742.477539
1043.102417 330.424805 1817.257202
1165.479614 669.508118 1850.371460
949.370178 547.481934 1847.239624
1215.377441 464.196350 1706.207520
1228.939453 533.659790 1720.875366
1052.349854 583.219421 1764.404053
1296.621826 283.678345 1680.396118
1056.209351 587.601746 1942.895996
1048.227539 599.361877 1866.773193
1145.281616 685.223145 1921.472168
1141.802490 263.224213 1758.439453
1085.387695 524.677124 1751.386597
1256.582642 699.219055 1820.815063
972.904236 538.763611 1899.632202
1257.069214 637.633484 1716.441772
1275.848267 424.294495 1682.469727
1099.660278 661.053650 1822.081177
1126.586060 253.615753 1748.656128
1025.019043 391.862915 1805.396118
1108.745605 560.118286 1735.060059
1249.025513 416.808441 1681.142334
1229.478882 379.929016 1708.395874
1172.555542 691.321838 1896.623291
1077.125610 640.743042 1799.212769
1089.543823 641.477234 1814.528931
1207.462158 666.668945 1865.022583
1188.291138 406.260559 1726.637085
1127.381470 363.792572 1755.187500
1115.470459 543.540649 1739.420898
1043.285156 529.863037 2098.608154
1143.610718 638.944153 1971.003540
1046.387939 368.610596 1792.968994
1095.092651 579.384949 2072.623291
1080.536255 448.931580 1789.882202
1096.220459 507.819061 1763.494873
1285.041260 436.282227 1692.335449
933.883118 512.431091 1850.650269
1081.549683 643.577881 1745.330811
1060.406982 307.315369 1794.426636
1333.168823 434.464996 1689.714355
1185.641968 289.710327 1737.696411
1047.243774 424.297882 1801.482056
1071.140625 643.492615 1762.745728
1078.154907 599.363098 1954.261719
1113.440063 618.808777 2014.288452
1137.324585 258.771332 1750.189941
1247.879761 275.657837 1698.010620
1194.598511 292.855408 1729.930542
1252.326416 322.146942 1698.425171
1130.886719 715.150696 1896.073364
1216.050659 618.437805 1781.575684
1133.281006 692.252014 1848.855347
1116.768433 235.198181 1774.899780
1054.232666 604.106873 1826.614868
977.066162 490.232452 1819.300781
978.019531 490.188629 1832.385864
1125.278198 514.937561 1758.303711
1343.827393 382.504456 1655.803223
1009.719116 532.376404 1798.171265
1184.416748 628.608276 1831.941406
977.927185 562.017090 1856.476440
1032.149292 594.966187 1770.770874
971.865112 542.901306 1906.593262
1288.609863 541.878235 1778.413940
950.396179 520.113831 1905.065918
1091.111694 651.606079 1845.394775
1142.523926 270.044800 1790.463135
984.986755 560.949951 1812.375977
1109.203979 666.974731 1745.827881
929.841003 524.680908 1861.147949
1003.214844 430.552673 1825.227661
1059.560303 613.716003 1840.599121
1172.827881 523.803406 1714.951904
1243.265503 566.916016 1738.239136
986.200623 567.460327 1849.386353
1195.675903 693.583618 1971.673462
1111.985352 571.187073 1734.548218
1179.107544 375.638885 1733.454102
1132.810181 636.327759 1741.003540
962.595093 530.777100 1952.490723
1046.958862 486.077911 1774.339966
1086.319336 287.737732 1781.006592
1159.508545 200.390457 1756.110962
1101.653198 632.933716 1742.707520
1224.552368 408.492035 1701.400879
969.873413 453.623810 1835.599365
1147.526611 368.123169 1756.196899
1101.492676 634.008118 1874.262939
1249.689453 640.379028 1715.913940
1176.390259 589.342346 1733.988403
1104.250122 361.814148 1781.848877
1048.722046 335.475128 1815.945435
1238.143311 667.243469 1721.954834
1254.832031 672.161865 1721.093262
1096.627319 421.398224 1777.424561
1245.315552 512.563110 1716.427002
1093.215820 574.757202 2076.132324
1246.244141 522.435425 1714.337891
943.403870 468.874359 1850.768799
1015.528442 461.967224 1803.665649
1017.582703 511.431763 1788.354126
985.439392 439.531708 1833.773315
1192.043945 604.606567 1745.924072
1123.446777 668.091614 1875.659058
1129.746826 577.503052 1735.548096
1292.419800 335.968445 1665.862671
1137.166626 532.310791 1740.667358
1037.098511 435.700134 1797.475220
1022.139587 538.330811 1987.043579
1283.347046 670.875183 1698.023071
1171.017700 215.436234 1737.632690
1203.639038 266.941223 1750.244507
1198.707153 625.862305 1772.955200
958.575317 542.041687 1858.674316
968.824890 541.330933 1900.289185
1086.189941 459.062439 1790.927734
1244.504639 602.035278 1861.689209
1095.487061 622.800354 1952.079956
1155.736572 640.208923 2001.089478
1298.500122 440.816772 1684.501099
1049.561523 540.013428 2112.666992
1252.458130 651.767273 1725.473633
1153.853760 458.363312 1746.108887
978.826050 454.953217 1828.974243
1036.450195 548.825806 2026.077759
1173.038574 517.771545 1717.936401
1020.697327 538.803589 2082.868164
1138.505127 570.996338 1730.866455
1243.932373 707.711548 1853.317627
954.554626 500.411255 1829.862671
1231.443359 711.597046 1852.097168
1310.227539 362.895355 1667.432861
1034.553467 581.159973 1771.715942
1058.873657 401.111145 1796.859741
1124.594116 650.627502 1879.580933
1255.887939 302.119507 1685.962280
1075.185181 525.532593 1760.059082
1232.751221 463.384888 1687.853638
1216.636719 498.788177 1695.316650
1094.319214 634.897217 1905.805786
1077.015747 593.527161 1973.851440
1033.575073 379.083008 1802.424683
972.494812 561.366638 1816.782959
948.221558 560.137268 1825.193970
1064.812378 540.734070 2111.386963
1001.205994 568.705994 1859.187866
1096.138672 257.375854 1788.822876
1226.105591 422.634094 1709.865234
1105.569214 677.890320 1832.799316
981.308472 533.449402 1947.457153
909.347107 511.784210 1856.874390
1244.195557 328.639496 1694.159180
1170.979370 657.281738 1963.628906
1166.548584 681.343872 1953.025757
1109.961792 367.271912 1774.139038
1172.912476 622.841858 1805.421875
1342.149048 414.452332 1654.512573
1074.800781 571.756409 1753.598755
964.515625 453.696594 1835.139771
1055.103271 503.753052 1760.178345
1179.527344 364.117676 1743.279785
1175.455688 645.512878 1998.299194
1281.994019 674.315796 1707.279419
915.134827 520.477966 1838.215698
962.662354 525.505188 1918.339111
1103.078003 395.551758 1784.594482
914.978149 503.263123 1862.837769
928.330505 570.391907 1830.643188
1035.272827 607.070374 1778.539063
1280.296265 523.767639 1750.843506
1152.308228 392.792725 1747.755371
1126.974731 326.236023 1772.052246
1072.933228 600.111511 1929.813965
1333.568481 448.440552 1728.065430
1011.672119 551.430481 1917.983398
1070.859619 630.409668 1754.346069
1249.151733 717.489441 1849.518677
983.326782 425.702911 1806.513794
1068.761963 549.862427 1765.233398
1080.939453 607.079163 1924.623535
1066.297363 327.546417 1794.931641
1196.977051 654.087463 1868.412231
1273.962524 645.497986 1716.542725
1381.183228 340.652924 1683.950562
1091.799194 647.343079 1750.055420
1095.443726 559.930908 1741.406738
941.827698 504.712463 1854.321899
933.788391 517.976135 1893.610962
1397.763794 401.124115 1707.822876
1158.434326 504.231476 1734.966675
958.398376 514.251404 1930.997437
1158.546265 670.110474 1952.616821
1187.757446 490.218658 1710.928467
1024.040527 530.997253 2055.837402
945.273132 459.243408 1839.017944
1147.654907 662.469116 1928.737427
1250.057617 485.840179 1669.516113
1121.800537 426.605438 1764.744263
1098.326294 661.807495 1795.972168
1232.291382 272.389069 1689.609253
1056.387817 614.321716 1759.089478
1145.621216 254.869873 1748.322876
1008.772522 421.606903 1810.431885
1103.709717 278.226624 1770.135132
1031.261353 537.467590 2019.976563
952.237061 453.393799 1849.908813
1109.547119 476.119049 1779.238525
1130.655762 472.136780 1761.784912
1022.569153 558.790100 1769.823975
1228.247314 634.318604 1771.672485
1179.035400 660.447998 1859.507446
1103.898560 620.061646 1734.863037
1245.732422 519.654785 1692.959351
1212.604248 546.112061 1703.340820
1053.711792 543.295593 2094.356689
1216.242554 600.745728 1741.593872
933.499573 478.903168 1853.402710
1160.852173 485.528137 1732.249268
978.029480 530.386902 1998.318604
917.514832 500.253113 1861.697510
1117.451050 647.514587 1758.606567
1075.024902 616.973816 1864.585083
1170.197388 477.484619 1754.406250
1042.762817 590.872559 1930.250488
1118.389404 489.764252 1781.453369
1223.188232 437.012970 1703.437256
1227.748047 495.062988 1687.946167
1137.465576 567.208008 1730.945557
1034.265259 567.581482 1962.541504
1299.425415 309.864685 1665.511230
1103.187500 299.699371 1778.841187
1083.283203 586.304688 1755.595703
1308.352905 289.275879 1660.386597
1005.545837 578.460815 1787.391724
1196.401367 503.731171 1701.998413
1179.726563 253.782181 1757.912109
1264.206543 328.977844 1701.367188
1139.295532 635.306152 1745.414917
1097.043579 422.367798 1778.636841
1201.151489 625.076904 1773.395752
985.502502 561.248169 1855.044189
1030.303223 534.565735 1780.154907
1175.363525 254.445953 1754.525757
1203.222900 614.913086 1844.611328
951.250000 461.277771 1805.926514
1249.732056 718.817444 1824.883911
1083.889893 635.122559 1879.762939
1142.176270 507.165009 1751.800171
1109.100220 630.575562 1743.567749
1272.427002 460.884186 1672.802856
967.089233 540.772766 1811.641602
1123.257446 642.940308 1755.726929
1319.040771 394.085205 1671.199585
982.513062 461.671417 1825.015381
1165.209717 333.546509 1753.315308
1238.676270 686.526184 1837.807495
1098.820923 488.071625 1770.979980
1207.728027 679.251831 1909.727417
1170.529053 665.678040 1858.335938
1041.161987 582.042175 1959.648682
957.543152 509.739716 1826.003784
1007.358643 528.860474 2023.305420
1078.084717 590.714661 1978.182129
1085.029541 378.886475 1786.162598
1081.792480 603.797424 1745.333008
1029.784302 561.054565 1982.383423
1315.563965 341.448700 1653.408691
1156.216187 604.805847 1738.171631
1061.621826 611.761169 1752.530151
1167.807861 309.486420 1741.030396
1114.939819 649.637817 1872.595947
1005.867920 438.200287 1809.698486
1113.079590 335.732117 1759.005615
1183.933594 703.183105 1942.140137
1177.041138 359.809906 1735.219727
1063.136963 300.888489 1795.137085
1021.132813 552.595764 1989.651855
1213.099976 534.096436 1706.336914
1131.507568 334.877380 1752.308105
1132.268066 600.716248 1723.218140
1277.150635 385.209320 1668.281738
959.118958 450.660522 1855.592529
1002.581665 555.431885 1928.515625
1152.030884 163.307907 1741.489868
1074.302979 443.843658 1785.810913
1222.644165 254.408066 1715.960938
1126.522583 403.168549 1774.969360
1110.729248 309.038879 1788.250610
1113.555176 614.356018 1940.696533
1263.826660 698.964600 1815.263550
1190.274780 520.290588 1706.025269
1009.367737 508.030304 1797.981079
1148.035278 327.945282 1772.638916
1072.970459 276.474823 1785.719116
1242.712036 644.555298 1738.368652
1103.214844 365.873230 1780.504028
1143.574829 601.306519 1739.618286
945.834106 527.225281 1854.104248
1327.310425 363.210022 1641.298096
966.843628 580.267944 1805.034668
1136.883179 502.806122 1770.652832
1230.422485 686.238708 1825.810669
1114.270508 601.666565 2030.441040
1076.366333 633.279785 1754.854370
1186.289551 399.578491 1730.840210
977.862976 567.925354 1868.875000
944.641785 511.260742 1884.429565
1267.064697 464.059113 1677.017090
1035.539185 562.777344 1772.841064
1038.000977 406.466125 1804.971069
1066.778687 583.214355 1960.201660
1178.245850 349.954254 1740.076660
1124.075806 612.963623 1743.488159
1086.188477 267.741455 1774.211060
932.671692 545.568787 1834.517456
1219.829590 497.587677 1708.831177
1171.135864 529.083130 1715.989380
1210.797974 592.682983 1744.139648
1265.243164 366.324982 1678.407837
1112.322876 635.353088 1736.150513
1248.003418 693.293457 1818.764282
1165.486084 647.107544 1794.066040
1126.168457 630.662720 1955.861084
1210.563843 629.081543 1811.997559
1009.309509 597.336853 1786.518555
987.166626 418.777344 1843.092285
1112.559937 673.477417 1793.470215
1140.305176 667.694946 1910.389648
1171.315674 670.915100 1867.002808
1164.246216 480.108002 1745.611572
1143.266724 397.259918 1752.778076
1300.873901 438.410919 1685.307495
1191.223511 615.972473 1801.508423
1177.780884 679.496216 1879.817993
1097.128784 540.633484 1741.025513
1260.506592 445.184265 1680.432983
1114.195068 411.895325 1768.901367
1133.066040 582.115601 1735.543457
1198.164063 503.732269 1703.041260
1209.992554 583.429932 1740.364624
1085.480957 668.865295 1759.892334
1096.047119 453.690613 1774.507935
1060.678101 568.190063 2066.116943
995.173889 554.847107 1919.628540
1289.495239 411.434326 1683.322510
1269.694946 267.561279 1680.718994
1050.543091 560.391052 2061.913818
1193.707031 438.782532 1717.570557
961.177368 561.540100 1828.239868
1123.903442 237.625214 1764.665771
981.956543 415.613434 1822.349487
1276.072754 403.421082 1686.909546
1391.081177 411.267059 1713.358398
1060.867920 522.097900 1770.028564
1035.059082 559.914368 1993.349487
1149.241333 684.899475 1855.274292
1049.788818 579.685059 1761.480469
998.512146 584.742615 1797.435791
1328.704956 434.285004 1692.345825
962.585571 460.535339 1845.181519
1037.860840 602.373779 1769.066040
1139.286621 657.177795 1793.828979
925.765442 513.763428 1882.307617
1048.361450 605.939392 1779.965088
1164.150024 692.509583 1935.413696
1122.945313 649.320801 1760.662842
1149.767212 657.706970 1941.888916
1124.465942 681.603821 1873.524170
1178.479858 663.026245 1991.569824
960.428162 537.993347 1895.485352
1048.381104 584.434814 1926.347168
1057.905884 591.721069 1881.897339
1226.471313 519.345764 1689.980225
1133.226074 324.592743 1762.342163
1064.653809 629.540527 1752.484009
1180.077148 555.966370 1713.969238
1233.146484 256.232025 1717.165649
920.595093 531.345459 1915.785278
1158.646973 628.139893 1776.745605
1257.560669 457.157288 1687.638672
1264.517334 482.664337 1686.792480
1133.761108 433.718323 1752.138672
1230.697021 449.680176 1696.386230
1158.036255 660.047607 1802.462402
966.595276 513.624146 1955.434937
1118.378052 558.361816 1734.282471
1183.888428 520.472595 1719.134155
933.189514 506.778290 1846.769531
1149.131592 679.639160 1834.247314
1261.745972 290.083435 1746.083862
1233.266968 652.267456 1759.778442
1156.508667 529.517761 1731.822510
1198.775269 638.945679 1860.300659
945.046692 527.919678 1849.242554
1024.688354 595.203064 1834.496704
1272.137695 633.019287 1769.281006
1319.687500 414.972778 1659.730835
1045.955322 560.693970 1762.580688
1161.392456 648.254395 1983.453003
1240.427979 339.246918 1705.609985
1082.337646 528.356567 1752.393555
1071.594238 585.308594 1754.552002
968.640930 540.095154 1903.796021
1157.418091 339.340240 1747.734985
1136.326782 195.286957 1758.019043
1142.890869 406.107422 1753.227173
1197.892456 484.047455 1709.022461
1128.269775 475.516815 1765.007813
1322.046509 446.909180 1695.652832
1322.886475 429.833038 1677.000366
1099.548584 694.542114 1827.157959
972.252136 556.534485 1860.574341
1009.995483 442.561188 1792.088257
1241.981445 472.031891 1678.131592
989.640869 585.677124 1795.064453
1090.904663 577.213318 1752.448730
1255.141724 569.521667 1772.370483
1055.153931 562.384949 2035.420166
1231.553955 336.455139 1711.651733
1207.762451 394.166321 1727.234131
1249.999634 414.823059 1690.121094
1234.705078 707.990540 1842.781738
1123.681519 665.470581 1777.947388
1141.529785 221.065521 1751.834961
1144.564087 538.562988 1736.259766
1098.996338 603.514099 1997.696899
1328.528931 458.625458 1741.211060
1198.541138 246.490616 1717.771606
1191.316040 512.448181 1701.765381
1180.206055 598.736084 1768.310669
1231.536377 701.573914 1859.218872
1007.387695 462.470856 1804.897949
1293.864502 339.755615 1659.717651
1129.099854 192.365005 1746.232910
1235.695557 698.016052 1841.989990
1227.713623 689.448975 1876.935303
1080.692505 635.945862 1816.799927
1185.439941 699.854736 1948.121460
1085.770874 648.028625 1749.680054
1211.813843 471.295624 1696.821899
1180.436157 429.783417 1726.185303
1229.031250 299.730286 1724.994507
1256.755859 458.759888 1678.461670
1033.800415 600.438843 1773.344971
1156.697632 649.890442 1962.047241
1247.575684 471.670776 1697.018799
1051.349121 561.142151 2021.362915
1217.075439 511.882782 1691.896240
986.640869 534.881531 2023.470093
1120.375244 246.685760 1764.937134
1067.662354 537.834595 1746.875610
1072.139771 554.383484 1755.530396
1093.514404 651.478455 1761.277100
1136.210449 694.255859 1876.317871
1290.846313 382.989655 1663.104980
1159.398438 418.908936 1750.799683
1029.039063 529.986267 1791.108276
939.775330 494.596893 1832.171509
1095.078247 541.541199 1745.304321
1118.494385 385.650482 1770.699219
1022.750427 584.991333 1868.389893
1231.982422 694.949646 1871.688721
1251.253784 639.085083 1784.770874
1191.814941 198.212448 1728.500366
1098.853394 235.401077 1769.913696
1289.873779 264.124939 1682.284424
1079.433105 586.032715 1752.535278
1027.300781 359.948364 1810.855469
1164.255859 245.035797 1781.657593
1153.035156 693.995728 1893.979980
1010.954468 445.402466 1806.204468
946.663086 536.231934 1842.835938
1035.845581 513.976013 1771.868530
1213.157837 681.106323 1889.390137
978.761292 572.553406 1813.329102
1122.817993 317.936401 1766.061279
1140.909058 375.668152 1771.672485
1119.684570 468.699310 1809.244141
1128.777710 664.692505 1881.658447
1068.923218 612.277039 1892.164917
934.781311 512.113464 1885.969727
1060.140625 353.772430 1786.560913
1018.629395 527.048523 2072.784180
1160.913940 692.384094 1893.933960
1080.106689 634.297424 1761.545654
1284.734131 293.764679 1685.313721
1274.364990 290.060364 1683.725464
1068.824219 323.311127 1788.416504
1132.160034 609.594727 2005.808472
1361.098877 400.147919 1672.245850
1286.154419 404.943146 1666.089844
1052.162598 386.239624 1798.311157
985.664001 581.453918 1800.088013
1123.622070 638.348328 1744.627930
998.467285 586.769409 1793.852295
1151.466187 645.575378 1965.604980
1335.128906 361.192047 1651.484253
1089.924927 598.011841 1750.235962
963.688110 460.446655 1838.436890
930.727051 500.511627 1884.739502
1053.330811 529.246765 1770.221313
995.758545 401.189392 1830.705566
1139.775024 426.871307 1762.573242
1226.053223 297.193237 1727.125854
1118.657104 597.812744 2057.071289
1129.306641 420.863617 1759.230469
1114.929077 586.333984 1733.558228
1160.289063 633.423767 2022.985229
1117.267822 593.745300 1738.078735
966.203064 431.989258 1822.845581
1205.083984 415.012787 1719.286743
1158.288086 496.660095 1734.022827
1140.426514 640.131042 1780.832642
1257.333008 518.491577 1729.918701
1013.337708 599.531982 1783.901978
1071.957642 346.171600 1782.921631
1041.274902 568.628845 1976.003784
1132.348145 595.055115 1738.308594
1052.045776 376.659973 1807.352661
1220.274170 584.956238 1748.406738
1298.127075 470.729004 1702.463135
1288.173950 501.184967 1732.310791
1334.006958 302.799591 1664.590820
1218.659058 671.854126 1839.098633
923.925842 517.785645 1840.293579
1043.869873 566.797424 2026.737061
1272.222412 306.972351 1690.216064
1041.289307 612.645752 1825.173462
1167.902466 678.006409 1971.420410
1025.072021 478.971619 1797.105835
981.581787 517.684021 1805.428955
918.943726 521.102783 1898.091309
1070.980591 484.557404 1758.248291
1259.116577 364.014099 1684.363281
913.737671 529.469177 1846.084839
1034.761963 573.110352 1787.670532
1170.092407 204.720963 1742.891479
1174.621948 677.435913 1882.293335
1230.640503 338.014404 1710.687256
1305.150024 514.941101 1751.632690
1110.951172 304.235321 1764.327881
1232.877319 633.035828 1720.768799
1312.811523 426.664368 1670.114868
1147.890503 623.489197 2029.700684
1224.467285 328.347351 1715.504639
1172.210449 679.867249 1884.264038
1062.325317 539.965027 2114.222168
1032.965088 457.821136 1805.684814
1344.576294 345.429688 1660.418457
1070.811157 287.334747 1757.142700
1194.630981 354.869110 1725.828613
952.286987 479.920074 1852.160400
1189.219482 401.773438 1729.098999
938.846741 494.221497 1864.867798
1007.056152 521.964844 1791.389771
1183.184326 539.053162 1707.699097
1074.838257 611.391174 1896.337036
1122.888062 640.792786 1957.051758
1110.347046 510.756592 1810.815063
1065.599243 480.477814 1793.762329
1158.810059 701.068176 1903.234619
1064.962524 321.221039 1799.433838
1323.195190 342.217743 1672.914673
1084.558716 367.950500 1792.861328
1154.080933 527.249756 1736.141479
981.815002 550.816467 1811.137695
912.995544 525.716309 1863.008667
1131.699097 364.929230 1771.035034
1036.974854 616.417419 1799.717651
1145.394165 195.471512 1754.790405
1265.472290 686.288757 1803.212036
1131.616821 560.073669 1732.748901
1047.489380 608.093994 1852.731934
1217.108521 310.570313 1720.888550
1086.917847 601.297974 2010.887939
1183.748169 705.400818 1944.109741
1285.109741 675.178345 1698.596313
1296.694702 217.131485 1856.517822
1121.199341 662.297302 1774.279541
996.361145 523.005371 1796.555542
1293.627197 329.747009 1654.383911
1095.172729 591.877502 1746.066650
1179.390503 365.870239 1737.976685
1224.038940 685.733948 1875.294312
1209.812012 427.947571 1721.938721
1173.694458 332.025269 1744.387207
1136.657471 282.158417 1790.289795
1089.046997 572.495117 2059.975830
1125.044434 584.562866 1729.620850
1243.909546 464.525146 1683.099243
1031.768066 398.242920 1799.519775
1107.625610 397.291931 1776.619629
1233.164185 460.052185 1696.325439
1014.231323 415.175598 1808.570923
1238.572876 714.792114 1849.396606
1106.239136 641.033386 1870.115723
1111.665161 293.506256 1769.095825
1063.600464 591.259094 1926.888916
1266.235474 480.898193 1684.494263
1036.200195 537.898621 2015.088135
1276.445557 494.502289 1694.807617
1236.304199 431.457672 1691.654053
1128.752319 610.758667 2046.298828
1255.881348 662.873718 1760.571167
1069.924438 582.887817 1944.929077
1052.577393 561.875916 1764.587646
1082.401123 657.867859 1759.557007
1097.349854 577.862305 1744.029297
963.832825 568.612671 1832.619507
904.478882 528.126892 1870.642944
1078.265869 579.156494 1754.441040
1092.487793 608.711792 1959.433716
1146.408569 604.271851 1728.868042
1065.280518 574.558838 1761.875610
1280.694092 402.594849 1670.445923
1165.796143 642.030396 1811.446533
1174.720581 702.978638 1950.890747
1075.161255 549.946472 1752.564697
1152.721802 277.434082 1755.278320
1151.730347 598.035278 1744.123535
1251.838989 501.891724 1702.469971
1072.624756 398.666687 1793.507690
916.084961 525.005249 1894.539551
1133.047729 441.795074 1756.415039
1188.548096 260.209717 1775.981812
1369.376831 305.510590 1723.523682
1002.776428 538.068787 1983.912598
1222.702515 676.642029 1830.543091
1017.213196 568.622559 1905.599731
1238.581543 649.848267 1724.117920
1355.472900 364.343079 1655.581177
1047.924438 601.318481 1855.613525
1181.165283 470.564270 1727.901733
1224.266235 559.226685 1750.848022
1134.800049 638.508728 1997.446289
1247.184082 478.771332 1681.599121
1134.579102 649.650391 1915.548950
1204.748291 590.156128 1742.872070
1080.252441 344.038971 1782.538086
1160.963989 237.669266 1759.703613
1133.070435 614.127502 2031.644409
931.264465 523.059143 1919.394775
1053.986816 632.170715 1768.604126
1022.712280 579.213989 1877.985229
1158.663452 259.341248 1758.911011
1191.459961 634.331604 1751.840210
1017.459412 563.587891 1938.880005
1237.553589 286.029877 1720.422119
1223.575806 631.801392 1752.621704
1213.404053 232.157150 1758.734253
1215.188965 545.119568 1720.621704
1250.228149 539.250610 1730.107788
1215.251221 333.399597 1728.912354
1069.458130 596.532227 1985.526367
1096.766113 483.348724 1773.225220
1130.287842 511.296631 1751.525757
1351.392090 449.614502 1740.796021
1228.335815 650.137756 1733.341431
1088.528320 604.012085 1964.693726
1225.806030 667.526123 1924.369873
1356.382568 283.300720 1755.913574
1126.914795 644.435364 1899.439697
1194.646606 211.307632 1731.383301
960.580994 461.762115 1820.755005
1217.727173 396.625977 1710.247681
1120.094360 621.551147 1735.066650
1190.017700 627.268494 1751.136963
1151.970093 635.327026 2003.033813
1175.102051 503.171082 1730.980957
1180.552856 514.966187 1713.562988
1302.160034 442.745972 1686.015747
1222.807983 633.044250 1769.850952
1038.244995 586.217163 1792.571655
1366.189819 285.904053 1784.962036
949.177917 525.862793 1955.205933
1338.809937 339.897369 1655.983521
1195.943604 625.317810 1752.125000
958.644104 500.707520 1828.300293
1255.582520 535.803833 1753.343262
1004.064575 545.693481 1793.040283
1171.922241 293.736115 1744.546509
1117.500122 557.911255 1743.906616
1340.120728 424.183289 1691.707520
1086.785645 454.077271 1788.392456
1045.344971 533.851318 2092.123291
1359.910767 425.554810 1678.982910
975.932739 410.732788 1814.838745
1137.357666 627.504883 1994.458374
1032.466675 588.452026 1768.675049
1323.100952 450.542480 1721.864502
1161.622192 418.641052 1741.943848
987.885132 538.343689 2040.504150
1102.034546 676.650757 1798.965942
1263.566162 670.006653 1750.740723
1100.432129 607.237427 1753.413452
1122.118408 195.365509 1731.043091
1164.181519 635.726379 1802.341797
1144.185913 636.781738 1787.741089
1077.581665 559.836182 1761.571655
1235.776001 624.179626 1732.011353
1025.948975 545.157410 1772.900757
1260.929688 482.829071 1690.374756
1120.752930 670.466492 1863.070435
976.054871 552.207458 1809.711914
1137.319824 670.678711 1824.919189
1240.011841 712.419373 1867.566650
1109.766113 277.536713 1764.775024
1320.542114 337.835968 1675.128540
1167.653931 680.560791 1868.039429
1038.340820 550.293640 2032.046875
1208.115356 541.906128 1740.833130
1088.244751 637.602966 1829.840820
1180.812866 413.195007 1734.348145
1020.814941 513.976074 1786.857544
1102.717651 636.152588 1892.151245
1221.625366 597.715637 1830.297974
1175.246704 612.290710 1784.664307
1222.637695 526.936035 1701.464600
1281.506470 333.716309 1681.120850
1167.454102 592.303955 1760.445190
1047.888550 587.332275 1929.536987
1156.590454 576.418640 1729.107788
1014.962585 589.548218 1778.410889
1348.093872 435.057068 1662.501831
1145.261841 172.084290 1738.018433
1212.303345 330.920410 1731.154541
1268.427124 359.731659 1699.782349
1193.061279 321.344025 1734.092896
1081.020386 601.923035 1952.049072
1157.670532 648.650940 1979.293213
1045.860352 571.717407 1977.698242
1120.556274 608.677307 1732.305664
1107.021851 646.508789 1759.875244
927.864624 506.740967 1851.195557
1243.446777 524.007935 1705.672485
1053.122803 608.862915 1840.611450
1176.116821 358.624634 1754.885620
1015.102478 514.261230 1793.026001
1157.022461 194.338348 1755.789551
1092.437256 472.328400 1763.322632
1205.358887 589.526733 1735.139038
1052.879028 607.497864 1774.399048
1140.569946 576.363159 1731.151001
1177.969849 623.934998 1770.966431
1192.314209 669.772339 1912.508667
1063.641968 433.300018 1826.067871
1133.331421 690.439331 1869.963257
1088.970459 427.116089 1775.149170
1362.485229 410.042572 1683.282349
1362.471069 451.291779 1735.924805
902.357117 533.477722 1869.036011
1140.578247 213.586807 1751.048096
1106.554443 626.125977 1738.778809
990.310059 560.880615 1817.035767
1318.635742 322.053101 1647.315186
1022.651733 552.319153 1994.328613
1144.991455 431.345795 1751.290649
1088.724731 635.407715 1856.207031
1109.043945 549.440796 1745.270508
1197.619507 666.182434 1900.203247
1143.577148 662.697815 1805.384033
1176.494019 435.360687 1732.804810
1115.560669 661.995422 1789.851318
978.310791 408.077026 1819.606934
1029.507202 599.537109 1799.267090
1119.697754 661.231689 1777.232300
1117.635254 458.194641 1770.517090
1090.311523 309.820892 1789.932251
949.740784 528.045654 1853.937256
1367.947510 347.520905 1663.737061
1174.451782 690.061707 1931.101807
1231.810303 647.800049 1738.516479
1112.259888 523.357361 1767.500732
1262.662231 665.972351 1744.779175
1221.419434 310.179077 1708.330688
1332.963257 370.018829 1663.897583
1107.723389 675.308044 1815.739014
951.256653 528.507019 1959.653198
1198.476807 677.875183 1907.637451
1068.698853 611.658569 1880.208496
1050.925659 615.535034 1837.842163
1196.572754 315.848022 1733.107910
1145.668213 631.599792 2005.127930
1225.921387 508.535492 1689.036133
1046.286499 416.251434 1791.288818
1064.169067 515.442078 1772.404907
1086.335205 648.566895 1790.080322
1250.018188 501.879425 1686.727783
1131.144653 676.645691 1827.744263
1166.088379 665.435486 1846.247681
1243.728271 685.322876 1821.519043
1204.196411 670.459534 1919.173584
938.861023 521.728271 1886.190674
1132.178101 491.855621 1750.861694
1393.864380 284.335510 1865.928345
1256.839111 709.902039 1807.979614
1196.363647 557.838623 1725.686768
1074.243042 586.497375 1761.509766
1000.668640 539.168274 2045.298462
1046.763062 588.497375 1762.284912
1221.121948 685.826294 1906.304443
1203.984741 399.468658 1721.488647
1150.025513 400.219849 1753.927734
1085.411011 428.953888 1790.087891
1312.142578 502.796326 1769.352173
1127.034912 627.619568 2014.728149
1170.968994 578.027710 1744.509888
1198.144653 266.224548 1762.591919
1184.255127 222.083130 1735.410400
1078.899292 643.802124 1792.935669
1259.729614 282.495850 1746.279541
1082.373535 547.234436 1749.639771
1076.017090 580.211426 1749.995605
1033.061035 569.902832 1767.468262
989.904785 586.870178 1819.411377
1178.221802 235.595230 1726.888794
1105.838379 604.003174 2012.577026
1141.672729 204.837738 1755.948486
1002.831482 546.345154 1789.844849
1205.092529 375.556946 1722.797363
1058.280151 455.471527 1793.585938
1073.772095 610.237976 1908.930420
1266.456543 682.996033 1722.359863
1227.305176 403.919495 1716.293701
1111.897583 291.166351 1760.871582
1016.829590 607.580566 1789.998169
1089.724731 602.984802 1975.883911
1249.969238 398.948395 1681.748779
1342.625000 378.439392 1672.170288
1105.750366 248.884125 1774.446899
1098.450806 629.090698 1742.476929
1333.957397 426.648834 1679.815186
960.336182 540.157593 1859.370605
1137.858032 670.931824 1809.510742
1196.019409 475.761047 1715.273926
1010.648560 519.878479 2045.451050
1157.080444 348.817139 1745.834106
1145.580688 638.395813 1761.314575
1272.378784 635.984863 1762.951416
1218.822998 405.270081 1714.260010
1171.642456 692.758911 1927.045898
1340.164551 371.407043 1651.306396
1120.847290 322.854401 1755.715454
1156.228271 456.710205 1737.266357
1073.626587 633.259338 1830.255859
1107.159546 269.310638 1770.020264
1215.110352 576.903137 1736.351929
1039.331055 433.737823 1810.775513
1225.510986 686.734985 1879.529175
1040.223145 538.732666 2112.869629
1080.063354 434.425262 1780.367310
1085.597900 258.432831 1776.249146
1264.585938 346.107574 1687.350586
1216.675415 441.018616 1712.403198
1058.627563 570.534241 1755.509766
1083.944824 632.978394 1743.457031
1098.462646 630.206116 1892.408691
1053.870972 551.227173 1773.629761
1161.257690 680.387329 1829.776123
1119.506104 595.576843 1731.417480
1114.830078 654.446289 1863.984741
1080.074097 616.178772 1879.427490
1076.975098 318.186523 1789.346680
1297.356445 543.796265 1792.906738
1025.184204 458.433258 1805.702393
1173.881348 295.097137 1739.763184
1073.689209 604.599731 1926.390259
1315.207886 429.780579 1691.182129
1140.321777 709.115051 1850.192139
1001.562378 453.941010 1811.237061
971.157471 534.944580 1875.112915
1024.908936 516.505493 1784.502686
1118.388672 688.280151 1848.741455
1071.219238 588.159973 1978.534790
1220.111694 391.596710 1728.242432
1033.301636 602.053162 1778.722778
1247.799194 717.008240 1795.228394
1219.139771 647.420593 1744.434204
1110.992798 626.794983 1930.703125
1270.427979 324.979034 1696.809082
1142.498779 360.849243 1748.698242
988.270508 542.241943 1917.229614
995.657288 590.115417 1837.716553
1006.888794 487.828064 1784.866333
1104.796997 680.795593 1799.958252
1256.274292 707.128906 1828.818115
1122.593872 686.823425 1817.543701
1065.840820 512.488525 1761.825684
1065.351318 325.013428 1810.297485
1153.601563 664.364380 1941.686279
1098.804443 667.907349 1799.865479
1234.741821 644.745789 1832.119751
1110.717041 630.614075 1742.685669
1043.228638 590.903015 1778.817993
1214.166382 347.063293 1715.407227
1137.441284 610.975952 1732.600952
1362.653320 361.180664 1666.556763
1278.433716 465.970276 1690.957520
1136.987793 620.673584 1730.840942
1016.794189 377.089600 1828.511475
1183.623657 686.867371 1935.524902
1203.062134 406.627563 1714.913330
1117.717896 600.366455 2054.981934
1189.069946 611.062256 1809.018677
1290.080322 304.288910 1683.664917
1128.282837 700.186157 1817.044922
1375.399048 362.165985 1679.227173
985.966614 555.298584 1871.884033
1110.821167 374.462891 1782.277954
1003.033203 531.396301 1999.441650
1167.591675 612.802063 1779.946045
1075.346191 625.699158 1853.570679
1048.945801 348.035004 1801.347046
1277.139648 674.641174 1725.557129
1165.317627 454.867706 1737.244141
1242.961060 710.038513 1847.006226
1257.003418 658.454407 1750.764282
1244.404785 596.852478 1736.385376
1195.921631 560.799133 1725.631714
1194.052002 652.358704 1852.362915
1277.442993 677.487610 1736.217285
1167.402588 329.189911 1754.905518
1028.640137 530.628845 2099.580322
1232.483398 630.681763 1726.496582
1085.798828 317.545319 1781.584961
1137.118164 653.727356 1942.048706
1049.315796 537.153809 2089.558105
1134.777466 228.215057 1758.652588
1109.409912 364.853333 1789.575928
1398.962646 321.834259 1724.584351
1077.776733 488.622437 1769.506226
1056.997192 587.100098 1765.662109
1111.933228 619.837463 1752.221069
1119.102783 635.801575 1733.939087
1201.521118 689.953125 1971.270996
1129.044678 265.711639 1759.329712
1274.419189 664.952026 1745.123413
1053.759644 580.842163 1758.153564
1204.241821 674.201782 1892.047974
1234.439087 659.104492 1940.667969
1194.488403 597.866089 1754.318726
1189.855469 483.385529 1709.842651
1102.248169 663.123840 1765.768799
987.584229 525.349121 2020.875366
975.179443 445.812866 1842.327881
1310.862915 282.440002 1670.179199
1004.504517 569.717773 1879.834473
1110.837524 652.402527 1750.710205
1290.527954 416.100769 1675.422119
1172.426514 446.883636 1734.067017
1231.467285 702.576538 1857.330322
1213.140991 640.408752 1853.100220
975.108704 540.158508 1915.250000
1150.115234 289.736267 1768.462646
1030.520996 567.798340 1986.596680
1121.305054 244.457870 1763.112061
1199.524292 525.191589 1699.254272
1206.610718 442.302673 1708.330200
1193.416870 667.755127 1841.851440
1250.593872 561.780029 1763.271118
1408.063599 312.715027 1769.830688
1005.125488 573.223816 1783.437378
1122.493164 456.532654 1764.477417
1341.007813 425.310730 1711.591797
1156.796753 597.786316 1742.330811
1002.300537 562.791626 1909.826294
1076.354126 438.198303 1786.537598
1197.741333 483.455048 1706.151611
1005.906738 384.663757 1817.194702
997.369446 575.284180 1800.172729
1097.610962 550.111816 1750.367065
1160.233398 346.223145 1740.641113
1065.090332 641.338440 1773.600830
1104.125854 637.832947 1744.739990
1089.542236 440.814362 1776.838013
1113.133667 406.325500 1777.141357
1273.890869 341.632263 1694.957397
962.690674 483.764008 1826.344971
1144.860840 427.095612 1746.399658
1232.946045 519.375427 1692.665894
1300.075562 421.073578 1681.836548
1005.728943 562.077820 1781.801270
1085.312012 336.323578 1777.406860
1087.494507 601.996155 1972.310547
994.633423 535.320435 1999.487183
1038.601440 591.332947 1893.806885
1029.110229 570.259766 1921.418213
1048.807373 576.274475 2002.893188
1343.757446 394.196655 1673.460327
1114.810547 574.829529 1735.297974
1257.810059 409.707184 1680.534302
1055.145264 616.996094 1760.878662
1232.354492 495.149963 1703.921997
1056.256714 578.618347 1984.577881
1090.545898 586.329041 1748.285767
914.397461 503.592224 1860.180298
1068.864990 310.092407 1796.079468
1110.988647 692.782349 1811.865356
1094.437256 268.811188 1780.888794
1094.312012 387.055115 1776.788208
1247.331177 332.437683 1695.804810
1224.192261 538.226074 1710.668091
1312.376587 527.061951 1745.298950
1171.584595 445.334564 1740.867432
1183.760620 349.528076 1737.101807
1190.025269 608.910461 1752.072632
1080.893677 558.665894 1747.093506
1146.651489 389.414948 1752.728027
1331.779907 359.305695 1652.310181
1261.204834 336.531952 1693.785645
1334.138916 389.483032 1654.879517
1024.541748 587.216309 1772.276489
1288.808716 385.802063 1664.102051
1039.994507 492.138916 1770.904419
1076.943848 636.331665 1844.932251
1303.738770 381.189209 1661.729980
1179.329834 703.908020 1951.383789
1244.519531 243.461014 1732.522095
1242.600830 702.348450 1882.784424
1298.528564 487.754089 1729.651245
1151.002441 450.497406 1748.463501
1086.585938 655.925171 1779.554810
1281.157349 674.071289 1704.378784
1013.359070 526.058533 2048.297119
1097.576294 331.228363 1775.496948
1198.091309 512.136719 1713.756226
1138.776367 633.877014 1770.106201
1254.898804 443.881653 1679.208374
1256.084351 356.706146 1685.297119
1158.978882 643.681458 1787.805420
1071.080566 607.791321 1910.873779
1123.467163 634.152344 1935.496826
1222.206909 411.161285 1727.673340
1217.267578 626.501770 1760.149902
1016.217163 553.396545 1922.222412
1133.405518 325.017303 1765.583496
1096.729614 535.398132 1741.602173
1028.687988 559.502991 1784.164307
1130.296387 665.120483 1884.850708
1121.603760 605.126892 2046.853394
1214.917603 695.570862 1861.819458
1255.125977 692.876343 1816.904541
1244.230591 677.372742 1830.016357
1169.253662 553.343933 1713.030640
1214.933716 649.316956 1741.643311
1221.175537 384.679657 1705.859253
1076.708618 598.480591 1956.440430
1099.048584 631.065796 1740.473267
1031.567383 609.814697 1848.662109
1157.338013 571.563904 1720.368896
1075.227783 532.296875 1763.411987
1240.245850 467.880829 1678.524536
1020.718506 558.734741 1793.551025
1127.527954 686.447083 1838.279175
1006.779968 577.371338 1782.102783
1201.874390 441.585480 1737.650024
1126.613403 287.168121 1758.919434
1138.718750 691.386780 1888.880737
1060.679810 588.732239 1929.258423
1221.118286 537.833740 1729.506592
1014.117432 444.623779 1806.330566
1140.477661 228.592087 1768.407227
1079.861084 625.701721 1865.626221
1098.992188 519.959290 1738.105103
1075.634033 570.198242 2036.254883
1029.365356 527.551392 1778.137573
1211.129639 607.811279 1751.856079
1187.035767 627.579468 1756.508057
1182.598755 612.537598 1810.476563
1043.991821 540.963013 2099.561035
1317.511841 306.520630 1662.306396
1303.504517 420.408508 1672.636719
1077.928101 537.192566 2084.173828
1220.414185 278.479919 1721.249146
1186.248413 519.117493 1710.901367
1186.096924 520.268799 1721.863525
1233.116577 279.892242 1763.544189
978.361267 435.079132 1810.878052
1160.442383 459.058594 1734.836548
1151.226685 704.425110 1899.186035
1141.290161 363.284668 1764.380371
1102.678711 579.251709 2024.533936
1173.462280 653.372925 1841.221802
958.567688 571.670227 1811.950684
1082.703735 485.321320 1757.389893
966.884766 424.053802 1818.422363
1125.626953 665.667725 1792.800903
1176.000977 459.993225 1735.130005
1080.728882 378.072906 1801.519775
1202.711182 349.643250 1726.102417
1124.710327 679.522705 1832.059204
1211.391113 625.409546 1735.380981
1256.690063 668.386353 1719.325928
1007.560852 578.711182 1873.960693
1269.535522 420.589661 1675.203857
1146.192505 617.972412 1736.593018
1165.111572 602.192444 1764.929810
1285.993042 648.205322 1695.657349
1408.970703 385.909760 1710.302002
1343.299683 383.525024 1668.836670
1093.940674 365.194305 1782.157471
1122.179565 374.218292 1769.502441
1169.191040 380.134949 1752.027222
1186.596069 347.405029 1763.271606
992.850281 532.768188 2014.599365
1262.864136 669.189148 1747.271362
1019.883545 494.339508 1774.881592
1215.415771 682.570129 1909.782959
1265.664673 270.812073 1695.014038
1311.267700 445.707245 1706.449829
1103.984009 561.091431 1736.358765
987.206970 435.581726 1835.343750
1017.838440 554.593079 2001.025879
1020.935730 583.411621 1857.962524
1322.320313 342.817841 1651.297119
1099.822876 667.183472 1822.801514
1037.385498 437.756622 1807.717529
1246.632080 562.488220 1763.500488
1244.303345 249.634583 1707.932373
1230.437744 680.568542 1830.779053
911.947632 514.352844 1859.904297
1029.792236 618.441162 1792.850342
1034.474609 582.269836 1781.037231
1066.504272 523.067139 1762.230835
1245.240723 664.307861 1726.341919
1283.305786 677.302368 1756.249878
1197.257568 314.279724 1726.531250
1113.687622 582.047546 1727.429932
960.783325 565.316528 1829.065063
1170.795898 364.353729 1742.885986
908.883362 521.572388 1880.785767
1045.311279 564.587524 1758.458496
1068.457764 626.280029 1863.293945
972.210815 462.234772 1839.168579
1234.865112 229.056152 1702.313232
1096.482056 511.457733 1754.648682
1301.178955 443.619385 1692.592407
1160.275757 396.500549 1738.750366
1082.293579 623.519653 1870.511108
1077.833740 558.016663 1753.188599
1011.382019 543.689636 1987.198853
1260.730957 358.607849 1703.718628
936.101685 512.026917 1885.582275
