ply
format ascii 1.0
element vertex 1380
property float x
property float y
property float z
end_header
1500.494385 1764.111084 -4.449862
1325.620972 1670.650879 238.161789
1355.607300 1649.013794 165.425171
1320.390869 1633.279175 24.276777
1064.948975 1843.580078 133.295059
1060.410889 1850.669312 197.166153
1361.594727 1730.108887 273.877197
1064.906738 1816.801147 19.139349
1407.921631 1664.951782 120.198944
1353.362183 1791.980103 354.374786
1234.911011 1751.332397 222.144241
1501.389038 1779.523193 49.653858
1517.796265 1840.101563 137.280869
1344.917969 1636.394165 75.118561
1304.755127 1754.285889 323.348053
1187.858276 1746.021118 29.452276
1072.377930 1823.510376 33.552246
1372.683960 1623.252319 17.609282
1531.754761 1861.252930 130.677887
1511.696777 1828.271484 259.027588
1156.773926 1784.931274 251.425446
1198.769653 1735.125122 28.045868
1216.531372 1768.430542 281.022980
1379.291016 1625.509399 31.059263
1292.991943 1697.127563 189.206924
1199.878052 1741.881226 32.402508
1086.067505 1850.827271 268.289612
1405.416870 1701.006470 267.110931
1291.213745 1678.525635 224.033539
1247.551147 1656.761108 19.396637
1201.573608 1757.840210 134.202499
1400.090698 1669.571533 212.475174
1182.612183 1769.283081 241.463684
1511.523560 1817.327881 89.371964
1454.255127 1815.171021 337.922333
1399.662476 1802.822632 346.758667
1139.164551 1788.681152 78.547211
1453.408569 1736.483887 142.000931
1314.183228 1731.297974 261.020782
1160.837280 1782.319214 244.748642
1310.567993 1661.456787 84.198769
1493.401367 1810.535889 200.769516
1310.067627 1757.618042 368.813812
1502.679810 1802.462524 161.243195
1361.524414 1635.454468 180.883942
1318.194092 1651.241211 157.712982
1152.822021 1807.698486 170.706863
1433.240479 1636.484009 3.262110
1495.510132 1860.983032 248.092209
1242.082031 1738.826172 262.494232
1090.174683 1860.073853 276.282318
1557.843262 1820.298462 -12.548784
1488.874634 1764.230347 247.426270
1177.186646 1786.311768 228.824417
1140.160767 1796.630615 150.627197
1393.719604 1655.826904 124.074074
1331.466675 1635.618896 10.139010
1513.653320 1811.543457 -16.615658
1187.635742 1888.461182 287.227417
1414.633179 1779.919678 267.947083
1426.732422 1674.066406 15.520112
1057.536133 1840.006714 144.806000
1221.227539 1748.887573 265.302460
1389.683228 1643.162598 52.170845
1327.753906 1684.741699 244.950180
1423.024902 1690.012939 254.699326
1471.147095 1759.600342 117.343140
1245.348755 1716.493774 -8.633148
1431.154419 1798.372192 352.477509
1286.649292 1772.845947 266.471344
1085.836182 1830.620850 20.510656
1184.443115 1766.420532 166.563644
1103.990479 1822.819946 208.033936
1072.124268 1837.626099 121.310036
1187.559082 1767.105225 195.069412
1302.553955 1776.026123 392.296844
1258.793823 1677.649414 2.202987
1420.433838 1674.628174 269.337250
1280.675293 1663.036011 6.139151
1166.750732 1771.508301 239.294632
1032.178345 1871.226074 253.485260
1221.882202 1745.440674 117.657860
1345.364380 1772.973022 344.124023
1389.640015 1647.479736 154.953629
1104.158691 1868.187500 101.005127
1210.786621 1746.614624 61.298637
1144.338623 1806.295776 165.723434
1285.942627 1702.415405 244.515503
1377.614990 1751.881958 284.405823
1472.936890 1744.223877 241.309967
1288.792725 1688.196411 102.847595
1349.599121 1650.506714 225.728027
1199.469360 1758.398682 103.703682
1366.703003 1625.579956 40.405060
1316.260864 1681.837769 231.577469
1136.748779 1792.457397 120.094856
1323.283691 1744.855347 263.093567
1031.361816 1902.956543 246.177109
1503.524536 1806.861694 184.584763
1090.611572 1830.682007 40.560307
1287.152466 1699.906860 146.342087
1131.751099 1767.885498 -12.570875
1457.226685 1747.535034 63.991219
1371.213013 1654.196899 235.402466
1274.381958 1710.454102 228.488129
1364.868652 1628.400635 146.462875
1160.035156 1782.873413 91.149879
1397.112305 1649.989746 141.285187
1228.292847 1738.955322 153.659912
1416.475220 1760.725708 263.794739
1411.823242 1659.715576 46.689049
1314.561768 1671.597412 23.303570
1302.910522 1668.510864 90.655556
1524.519653 1831.825684 -1.453151
1413.281860 1652.928223 25.791370
1260.677734 1743.286011 264.230133
1066.941162 1927.740723 276.922272
1325.255493 1666.640625 76.607826
1167.631470 1759.555298 72.235970
1050.181152 1824.888916 -17.793676
1287.088623 1703.504761 63.833462
1424.250366 1807.329590 332.899200
1504.789917 1800.934692 3.045794
1256.161011 1727.227661 252.253632
1405.699951 1710.795410 263.447571
1424.989258 1632.723145 3.187546
1448.714233 1716.535889 249.250366
1177.526367 1742.108765 -10.323083
1204.151733 1753.623169 153.544296
1300.634644 1753.687134 332.885315
1291.366821 1707.173340 263.423767
1301.997192 1667.966675 168.887955
1376.736938 1625.488525 96.584358
1332.274292 1753.600342 350.024689
1460.774780 1727.994141 18.288334
1091.343872 1842.832153 206.264679
1520.096924 1837.262329 73.264084
1289.350220 1717.313110 267.727570
1284.284058 1727.254395 263.018250
1105.561401 1770.518555 -19.550703
1363.808716 1634.264648 157.986267
1476.716309 1783.128784 80.893776
1458.554199 1755.695923 192.403534
1104.728882 1810.218262 141.750763
1375.259521 1643.202026 221.919098
1451.085449 1759.579468 268.532135
1304.168945 1716.066895 263.910828
1152.849365 1799.824097 124.007500
1138.343018 1793.816650 156.954544
1318.271729 1756.496948 366.316040
1375.462402 1625.879517 161.095459
1346.848511 1640.215576 178.076263
1127.904175 1804.130981 123.703712
1463.541992 1747.002319 195.535553
1507.171143 1824.778687 69.058372
1026.014038 1870.690918 103.532715
1367.787476 1628.435791 14.138009
1356.823853 1635.498535 62.853394
1328.675049 1772.007813 326.841370
1493.634033 1832.502563 178.223587
1383.698975 1648.337891 182.700546
1152.411255 1902.035522 287.227570
1206.478271 1740.574829 47.662548
1486.659546 1771.235229 16.822752
1155.225586 1796.843262 207.146942
1312.217896 1759.517944 323.981689
1232.234375 1742.025879 110.891922
1017.824341 1847.119751 41.339046
1296.198242 1666.070801 187.652222
1061.202148 1828.844971 215.930618
1362.933228 1635.946289 210.303284
1521.711060 1845.351318 148.019516
1467.546875 1761.644531 158.663757
1505.550415 1795.674194 18.041655
1285.211426 1695.694214 108.037010
1320.084717 1658.374268 128.546417
1295.071655 1693.104736 238.725281
1108.573608 1790.943237 50.103157
1287.691284 1693.565918 167.292145
1149.574341 1791.306763 222.353653
1393.422607 1796.010986 311.550537
1425.674561 1692.170776 258.394531
1241.742676 1755.083130 134.083160
1205.242432 1756.576782 167.500839
1431.031128 1759.583252 276.754456
1317.626587 1658.609131 131.021591
1388.825806 1645.974854 226.536636
1303.507813 1684.733154 199.533554
1430.117554 1709.545166 174.550125
1318.857544 1674.982422 252.309158
1312.713989 1662.036011 110.693451
1300.933960 1759.902466 359.834290
1450.438110 1723.977051 187.827667
1523.861206 1830.397949 25.015268
1495.958862 1733.771484 -7.589577
1342.007568 1770.051514 377.390778
1424.214966 1688.187500 103.817238
1027.540283 1919.128906 194.205154
1361.655029 1772.390869 282.175232
1447.037842 1805.689697 321.292206
1083.802246 1900.188110 297.257172
1325.565918 1698.485718 259.244507
1264.627686 1742.884399 264.222229
1155.640869 1791.709839 144.606003
1324.161987 1654.805176 76.869507
1427.044556 1706.551147 183.841019
1337.900146 1757.004028 264.374542
1127.406128 1798.446411 242.906494
1322.147095 1756.386353 366.886078
1070.969482 1846.186523 151.195160
1332.622070 1754.142822 387.362244
1416.667725 1663.084717 66.762238
1211.057739 1752.905640 260.916290
1261.733032 1739.547852 167.505157
1350.411133 1789.764282 368.065186
1276.564819 1725.229126 102.031319
1406.756104 1781.908081 367.821472
1145.717041 1782.775269 235.158249
1398.393555 1795.608887 371.100739
1307.116821 1705.523804 267.429138
1223.967041 1742.833862 266.087494
1097.680298 1831.870972 96.318176
1217.734253 1752.880737 285.494995
1267.805664 1721.495728 219.009186
1401.210815 1615.180908 5.787628
1066.004517 1837.419067 93.743210
1360.579834 1638.080566 178.504990
1242.489868 1739.928589 263.194092
1332.719727 1749.013428 269.339203
1047.499023 1911.170166 283.145325
1141.214600 1811.392944 197.698898
1460.798706 1827.014160 311.908447
1075.820923 1850.617676 255.837845
1291.553589 1769.505615 330.766693
1226.753662 1748.001709 195.014450
1314.411865 1680.242065 5.851437
1326.002930 1654.613892 76.139458
1341.624268 1733.536865 276.990814
1193.316284 1759.672974 147.554108
1187.599854 1766.837158 231.352600
1034.571533 1850.536987 206.609039
1031.203979 1893.520264 241.881638
1471.423828 1764.499268 262.817413
1410.786743 1649.129395 75.106888
1533.227661 1852.185303 36.301361
1111.763184 1812.313354 103.594551
1443.361816 1812.935547 349.896210
1425.808716 1685.862915 63.493801
1279.046753 1737.779541 258.332336
1082.744873 1823.324219 225.537003
1412.084961 1664.760742 81.008308
1082.744751 1841.399536 147.530823
1234.906128 1797.277344 280.788330
1185.304199 1892.778931 276.589233
1392.830200 1651.222412 163.397705
1161.267700 1864.775513 292.713867
1053.874512 1856.668701 251.195465
1293.477051 1677.625732 117.363838
1388.864258 1664.640503 211.954147
1047.969360 1940.055664 133.146286
1461.458252 1742.912842 230.153290
1079.601074 1825.319946 211.361588
1281.325928 1687.349731 59.221104
1484.021729 1767.963135 129.204788
1176.447144 1797.189575 292.007843
1355.815674 1651.552856 12.550374
1526.206177 1837.680176 62.622948
1272.786133 1719.659424 212.281921
1111.464111 1806.552979 240.793930
1515.932739 1802.337280 239.529984
1347.803833 1794.556519 265.432159
1334.454834 1661.298462 248.437836
1475.541016 1760.106079 159.342056
1354.197998 1656.705566 244.270737
1367.136597 1649.109741 160.523926
1392.989990 1667.604492 252.630615
1352.566650 1654.593628 179.788895
1281.443359 1696.181885 199.116989
1245.089111 1729.143066 234.886322
1466.688965 1737.001099 105.638161
1114.600098 1810.073242 221.706085
1305.164917 1677.935669 234.584976
1326.888428 1660.441650 16.429905
1277.790894 1740.135498 71.354523
1482.586670 1792.736450 178.957062
1380.908447 1618.912842 115.480881
1489.780273 1774.766357 250.536972
1110.203857 1833.705078 192.637909
1265.594849 1699.436523 22.287998
1436.133545 1672.963867 44.672989
1043.753906 1828.652222 57.218666
1345.161621 1670.089966 275.139191
1205.821655 1766.632202 168.219757
1392.231201 1762.535278 265.868103
1318.712524 1674.562012 174.579453
1149.643921 1782.889282 247.000046
1456.243042 1764.919312 260.245941
1539.574097 1861.318359 13.557731
1209.900391 1748.157104 97.186844
1250.500244 1746.736816 132.510239
1479.787842 1783.204102 161.909332
1479.214600 1766.953247 86.259743
1104.599976 1816.639404 214.595474
1052.368896 1848.460693 109.914330
1029.749268 1851.728394 212.734344
1057.777832 1959.272827 122.931961
1502.342773 1795.649780 20.325966
1399.152588 1651.620850 256.911499
1318.212036 1737.547974 305.332275
1023.107971 1856.837036 207.678101
1452.853882 1817.853638 334.536072
1138.298218 1793.051636 18.449760
1042.671265 1847.415161 123.910690
1197.573853 1751.011353 249.231155
1125.156372 1826.661865 260.629242
1322.348999 1747.081055 395.701569
1214.440796 1750.107910 196.299088
1466.533813 1826.643066 285.787598
1118.566650 1788.596802 63.400269
1102.270630 1826.550659 46.480541
1087.502319 1826.187866 185.430069
1124.594727 1806.690063 232.720673
1294.001343 1676.217896 186.303040
1089.848755 1800.350220 24.979858
1334.247070 1651.509033 213.203247
1436.920532 1694.114624 36.682129
1289.857056 1705.584106 245.131958
1195.976318 1740.686523 24.514585
1487.041138 1807.064209 153.018890
1161.170532 1863.823364 288.267578
1395.560669 1673.152100 221.749847
1423.273560 1696.539063 226.162491
1371.807007 1634.768799 189.077896
1201.345581 1756.072266 71.671303
1355.705933 1631.238770 28.080881
1370.630371 1658.485107 266.040070
1239.648682 1748.770630 269.800018
1429.875732 1786.654297 327.462952
1345.322998 1744.426636 266.376770
1215.579102 1756.781860 97.245010
1254.997803 1745.705322 260.628418
1280.678101 1753.265015 272.392395
1275.034058 1752.761475 259.483429
1325.756348 1661.854126 2.593038
1314.601563 1764.300781 276.719543
1263.294434 1732.462891 208.696884
1120.166748 1814.670776 200.990784
1309.465576 1741.944336 293.210876
1141.952393 1755.821411 -16.048117
1335.094849 1757.870972 398.311310
1360.373657 1644.642212 222.925522
1521.442871 1854.077759 181.046677
1345.238281 1638.221069 83.262993
1195.312866 1755.985962 127.570580
1428.141602 1697.940674 51.807621
1451.097168 1805.344116 300.962097
1122.806885 1808.796143 58.909626
1451.027588 1710.765625 275.498657
1454.894165 1703.641113 0.613427
1459.947510 1733.236938 56.912083
1129.092163 1817.426636 78.144157
1166.627441 1756.946655 -6.475675
1060.074585 1859.616699 266.400909
1073.790771 1816.954956 31.107893
1313.312988 1661.587524 78.858215
1259.850098 1724.186646 172.161957
1511.289307 1807.289673 113.687828
1096.182861 1817.049194 164.811676
1538.384155 1850.056396 28.242313
1384.683838 1638.435181 23.413469
1513.170166 1840.058716 139.204971
1246.914063 1692.783081 -3.201948
1474.412476 1773.045776 164.117584
1306.753052 1674.277466 26.308325
1145.158691 1783.763550 235.900574
1087.246094 1861.743652 292.735596
1147.782227 1767.947144 2.251819
1218.080200 1745.913696 100.612572
1510.591431 1786.042358 -15.059227
1512.244873 1792.973877 9.097812
1349.761841 1788.298950 291.823547
1196.764282 1761.483643 233.033112
1196.603027 1757.690796 103.099144
1387.473755 1653.229126 236.963989
1064.717896 1883.142334 315.070648
1430.813110 1674.109863 -1.663371
1490.818237 1805.891113 251.662079
1381.021240 1637.962646 208.910934
1075.177246 1838.407593 49.962090
1279.098022 1772.647217 380.004364
1478.755859 1777.672241 141.804321
1220.862915 1742.451660 253.091339
1416.241455 1688.472290 218.923828
1053.798462 1900.791016 259.322357
1058.207153 1884.251953 306.997620
1453.464844 1809.440308 285.409302
1400.615112 1635.705322 109.352997
1443.158691 1723.333008 230.070679
1426.916260 1707.786377 267.798340
1285.794189 1671.447876 135.028595
1231.660889 1738.300903 174.810577
1496.401611 1797.754150 84.083397
1150.685547 1804.371216 196.426132
1287.336426 1681.442261 99.116791
1289.065674 1770.778809 407.407043
1385.790771 1786.100830 279.043610
1194.807495 1760.903442 108.227455
1167.501587 1773.520264 280.610901
1145.363892 1766.872803 22.459824
1419.287476 1677.277344 83.943596
1495.464844 1773.151733 261.458435
1380.922485 1629.820435 42.753368
1254.623779 1729.976563 221.615570
1291.352173 1687.207764 209.341614
1380.998291 1657.670044 222.561142
1443.069092 1683.957642 248.867828
1180.372192 1768.880615 220.583984
1391.123169 1650.270142 122.683624
1453.724487 1747.903076 197.823868
1357.867432 1639.923218 181.066971
1318.884399 1763.354736 344.225281
1503.233276 1811.145630 220.246750
1342.596558 1644.364258 111.012131
1460.728271 1815.159058 267.564880
1345.507446 1638.383179 163.678589
1144.776611 1794.810547 103.038132
1108.343750 1804.563232 1.973178
1266.505859 1741.664063 206.212128
1460.888428 1766.228394 269.174225
1289.425171 1775.160278 307.136841
1308.481567 1766.447632 305.974548
1380.076538 1638.360107 84.386124
1059.887939 1870.479614 246.239655
1249.257324 1729.428101 111.424873
1338.163940 1655.120972 159.398376
1533.954590 1866.661987 124.066803
1335.443970 1650.748291 85.189323
1347.655151 1654.351440 118.740646
1322.971191 1761.052734 396.969238
1477.446655 1784.723022 161.492188
1391.067627 1804.311646 335.103607
1100.960449 1774.331909 -2.462775
1387.114502 1626.678345 47.379253
1531.721069 1838.843506 254.009857
1552.247192 1868.174683 -19.084770
1513.710815 1825.671997 105.562614
1331.604370 1792.635498 376.696716
1033.646362 1843.978760 133.823700
1259.708862 1726.599487 243.084061
1435.976929 1753.920898 263.552795
1449.565430 1776.788696 266.851929
1473.024414 1766.428345 145.758850
1437.980469 1730.618896 266.130157
1259.927979 1695.614624 16.956753
1421.772949 1788.085449 298.585358
1381.859253 1695.576416 274.319366
1409.817627 1690.125366 132.779404
1407.135864 1659.035767 96.899948
1418.577271 1791.476074 331.187988
1423.829346 1711.689575 271.621246
1430.497925 1787.491455 344.505981
1149.090942 1883.893311 281.035492
1405.848389 1764.485962 268.470306
1412.526611 1663.477783 255.783569
1479.936279 1757.061157 28.278048
1183.669312 1777.840576 95.542221
1183.452515 1783.994873 213.062210
1508.902344 1801.172729 242.277359
1363.545898 1637.710938 183.328674
1292.527466 1687.738892 8.373078
1175.979736 1750.814697 -4.288424
1309.607910 1748.953125 358.392151
1056.644531 1852.658203 241.109283
1226.322632 1752.271362 265.652893
1342.416382 1769.472412 373.640411
1321.969849 1669.209229 157.121246
1450.468994 1733.831665 225.852280
1368.106567 1640.676636 19.322474
1376.709595 1617.530273 30.782408
1103.470459 1816.982544 94.388496
1529.817139 1850.017822 104.565849
1192.946289 1750.489502 14.536313
1241.375854 1794.615356 306.745422
1153.710693 1803.445068 248.902496
1176.709229 1781.832275 192.387131
1426.288696 1661.554810 77.268578
1273.122437 1812.990234 287.138397
1370.094727 1659.236084 225.792496
1063.682129 1871.522461 288.213837
1512.134644 1829.607178 246.023331
1059.039185 1844.202393 127.920067
1513.095703 1841.718506 193.430939
1066.728271 1893.690918 270.717743
1039.045166 1867.905762 165.503891
1299.293213 1676.124390 133.010010
1125.322998 1823.362305 258.882019
1296.548218 1791.547241 287.421753
1310.578857 1667.439575 11.262826
1186.581299 1748.717285 40.879803
1407.158447 1609.080933 9.060822
1523.914795 1847.056641 116.353676
1522.089478 1829.836426 52.919930
1066.939575 1844.107788 204.595200
1370.463745 1630.346436 138.561508
1534.523193 1816.738525 235.969116
1011.497009 1888.352173 185.594376
1497.838501 1810.117920 257.196411
1233.720703 1767.725586 283.028076
1430.992065 1788.445679 281.204529
1450.228027 1722.103638 91.257385
1063.984497 1849.255493 150.030533
1270.280151 1704.384155 169.232361
1068.611328 1852.787964 190.006638
1417.805176 1670.976196 112.872063
1489.595459 1783.974243 101.236145
1151.079834 1894.088501 274.765991
1386.341309 1781.394775 286.237488
1529.854370 1824.707397 -17.009909
1136.276978 1794.801270 240.502899
1125.853271 1804.162842 167.005585
1182.235474 1748.809204 25.358154
1345.412109 1632.418335 161.718857
1267.894287 1727.839600 263.886322
1381.006592 1817.646729 296.807220
1302.334106 1662.345703 136.570618
1322.347900 1687.444458 257.271332
1229.734863 1739.912720 81.267365
1049.278931 1874.742432 57.064629
1348.446899 1646.614990 221.085968
1324.249756 1661.605347 200.152451
1421.789551 1799.626587 363.165588
1479.197632 1759.325073 132.897339
1019.663574 1877.641602 187.736542
1286.905884 1699.967896 70.063187
1340.604370 1646.991577 163.084381
1246.304810 1765.341309 278.435791
1462.208496 1817.776733 280.701447
1464.554565 1738.389526 47.176609
1304.708496 1675.252930 166.516968
1539.262329 1839.330444 59.632027
1493.774414 1803.465210 154.896042
1293.827759 1804.234253 290.480743
1193.526733 1763.895874 233.938248
1322.579590 1749.660767 371.595245
1287.844238 1683.817627 174.354202
1356.217773 1636.626587 94.787697
1160.939575 1781.793213 240.082687
1291.402100 1700.214600 256.610199
1099.034668 1785.852417 -11.731536
1431.037720 1805.514893 332.822754
1116.149658 1783.639648 6.234542
1031.550781 1863.414063 169.186554
1365.236572 1668.901733 271.560486
1309.752075 1753.464722 350.089325
1143.795166 1788.652954 204.990616
1155.966675 1787.687744 222.824554
1351.773804 1713.717163 265.248352
1093.723999 1849.472900 252.218826
1316.230591 1775.198364 349.094391
1212.577881 1748.525513 150.774429
1067.525513 1899.285889 272.840271
1124.895264 1793.159058 42.736526
1504.270264 1772.835205 -7.412775
1048.062256 1831.506470 2.187272
1262.744629 1815.744995 286.975616
1378.172729 1653.874634 241.025528
1288.885010 1770.959595 400.194672
1255.603882 1845.145996 307.930939
1217.252563 1734.908691 39.454723
1288.064575 1729.501099 273.857178
1224.547852 1754.309082 280.861633
1163.871460 1756.786011 0.948833
1380.971558 1700.409180 263.913757
1322.116211 1762.062744 287.670807
1466.215210 1828.857178 315.494781
1397.203613 1680.709961 208.873032
1420.686157 1793.976318 328.449341
1489.760498 1800.554077 157.826813
1249.491577 1727.309326 255.770996
1217.288452 1754.383057 199.853836
1272.541260 1693.832520 20.957308
1176.912598 1784.429443 183.745499
1307.714111 1669.774292 206.050446
1285.716553 1688.277222 172.718353
1494.327026 1831.383911 173.967346
1081.638184 1834.529175 223.494293
1433.566772 1690.866699 97.407387
1380.683350 1805.113647 265.274963
1231.017212 1721.405884 16.071280
1130.628174 1795.693359 70.327744
1347.049927 1741.357178 292.891785
1394.145874 1637.884644 172.505325
1168.846924 1758.675415 35.508465
1386.578857 1635.013550 60.454170
1423.187012 1676.640869 98.250847
1511.156494 1814.621582 246.363556
1342.595215 1700.415649 280.717499
1450.949341 1677.077637 22.041050
1443.637939 1696.571289 98.916862
1436.276733 1694.160889 72.673141
1385.810669 1616.213867 40.491528
1009.469727 1864.874390 107.464050
1436.267700 1696.885010 61.550163
1349.910645 1777.534180 309.591187
1094.231934 1817.252319 215.738327
1165.247925 1760.352173 27.642401
1421.187988 1780.826538 361.306976
1467.241577 1754.694946 132.175934
1464.371094 1846.227783 305.707794
1324.686768 1757.321289 396.273865
1313.466553 1758.780884 369.500336
1063.915405 1872.056885 252.406219
1463.917114 1736.514038 -2.563871
1245.062378 1744.490601 270.631195
1293.590820 1747.607178 282.880371
1367.266479 1624.126465 137.872238
1038.068970 1871.728394 251.515167
1167.751709 1782.708740 188.448318
1516.214355 1829.121460 112.995735
1502.016113 1832.723511 210.053635
1522.868652 1844.806030 107.936134
1464.874634 1752.377441 113.718483
1360.827393 1630.025269 167.103973
1474.345581 1729.280884 250.234131
1373.353760 1624.951904 92.541534
1458.062622 1815.432739 335.674774
1194.022461 1767.817627 277.135010
1406.211548 1658.041138 94.641357
1068.989624 1964.733887 86.441711
1175.594971 1779.519287 175.389923
1499.805054 1784.905396 246.269104
1030.755981 1840.344849 26.764029
1291.866821 1685.643677 98.873039
1174.638184 1779.650879 158.952713
1178.759766 1774.003540 169.179657
1532.954224 1834.850098 72.787910
1342.101196 1642.737427 58.589771
1219.804932 1746.959839 211.292465
1338.486694 1649.244751 2.992338
1155.633545 1781.887451 158.165512
1143.656372 1755.497192 -14.451282
1132.956543 1814.217773 179.703766
1223.944702 1754.914673 93.554016
1270.790039 1716.164063 257.164551
1063.854370 1838.221558 156.579269
1337.555542 1646.562256 125.345818
1063.221924 1845.720703 244.846359
1090.973755 1994.779907 63.169037
1526.406372 1860.187744 172.054153
1529.311035 1839.099243 137.992569
1332.643921 1739.666138 305.123596
1459.344116 1722.956909 248.441971
1477.583130 1774.845947 134.286682
1300.074707 1834.670410 303.169769
1173.526611 1777.483032 256.602356
1030.768555 1880.762939 241.568848
1108.122070 1844.208008 281.242676
1261.775146 1733.521851 199.815781
1244.125000 1706.124390 38.190403
1285.803345 1703.313110 64.557129
1519.370972 1836.856201 128.678772
1463.015747 1818.069336 286.768341
1404.687988 1674.227539 256.940704
1425.887451 1700.006348 148.333237
1053.724243 1825.051025 24.632795
1407.608887 1793.932983 335.961182
1365.856201 1632.479980 194.446075
1153.428467 1791.900146 56.363060
1390.207397 1737.450073 266.595551
1409.047363 1595.091675 48.476425
1099.598267 1843.940674 272.123199
1253.280273 1730.997681 95.710838
1408.097412 1685.486938 210.497238
1295.416016 1679.550903 69.127922
1311.983521 1661.064819 94.012291
1014.669922 1853.281006 34.932262
1068.437866 1823.155762 29.518730
1277.536255 1738.172485 200.932022
1498.044800 1812.634888 263.152191
1246.773438 1736.917480 58.975769
1310.488403 1764.938232 384.468872
1333.517090 1653.237549 180.562744
1279.247437 1816.999023 288.194641
1331.915405 1666.280884 12.783429
1284.535034 1718.236450 172.366959
1337.440918 1761.031372 279.589630
1298.641602 1687.358154 235.872986
1157.903687 1793.145142 271.260559
1077.120972 1811.895874 10.222018
1410.855835 1682.258423 218.888763
1358.105957 1635.439331 15.050031
1128.176025 1863.830566 286.877167
1513.749146 1815.437256 63.581173
1343.872925 1650.809204 196.360611
1356.945190 1631.401733 90.806038
1451.660156 1738.390503 151.542328
1140.258057 1788.910034 231.050552
1345.968872 1653.430786 229.211121
1374.016235 1674.723022 277.073456
1387.269165 1601.289063 17.197002
1413.979736 1699.862793 261.880859
1402.321655 1646.015991 190.751556
1480.895264 1775.282959 222.605545
1109.527222 1764.534546 -0.978652
1179.895264 1778.955811 209.577393
1289.264038 1694.461060 177.681351
1403.960571 1657.239014 136.656967
1213.373047 1758.047607 256.442230
1273.708740 1708.481934 259.843597
1228.044067 1768.757690 261.103851
1198.416748 1761.114502 100.678078
1379.895996 1794.734375 319.789001
1238.406128 1735.591431 230.509781
1133.821777 1788.611206 235.764465
1122.070557 1779.704590 19.708115
1282.806519 1767.076294 370.733978
1389.713135 1650.565430 140.786026
1141.729858 1831.561768 253.962601
1417.348389 1748.943115 264.663513
1041.348511 1858.197754 240.459732
1285.824341 1701.248047 79.065651
1461.769409 1772.405640 270.918671
1445.718994 1722.912598 196.358505
1353.131470 1661.955078 256.132782
1328.340454 1658.333130 186.365005
1437.323364 1710.136963 158.733536
1413.362305 1652.356445 60.073837
1100.106689 2012.597900 82.793915
1167.601196 1780.532837 274.978394
1242.844238 1735.056641 161.468903
1319.092407 1683.336304 253.288101
1457.231567 1706.617432 42.668907
1279.289917 1693.693726 17.087053
1508.452881 1802.053223 260.186035
1424.551392 1789.466919 281.809509
1379.910522 1625.805054 124.071396
1239.748291 1733.658325 233.457123
1247.789307 1736.041626 83.835342
1167.330811 1772.825684 270.441162
1263.304443 1722.897095 205.017166
1409.481201 1630.423340 6.978032
1495.108276 1769.052368 42.872807
1278.409546 1675.744629 89.874367
1492.520874 1807.835327 197.300323
1323.799072 1655.523193 141.630737
1477.617188 1769.311401 123.432724
1153.856567 1793.349854 233.224411
1348.392700 1795.106445 378.524902
1134.942017 1798.756104 222.059967
1304.373169 1695.698242 249.971710
1086.141602 1868.035645 281.707977
1389.907715 1626.740845 111.286316
1376.611694 1650.614380 246.309921
1058.620850 1959.676880 273.785370
1317.492920 1657.969116 10.122396
1448.279419 1701.581909 61.555893
1300.692383 1703.591431 254.245316
1352.756470 1726.245605 270.783539
1294.694946 1684.772705 217.962524
1333.992554 1687.591064 257.606079
1361.556274 1801.659546 262.954590
1035.574829 1908.012695 66.604149
1527.480469 1842.052002 163.683441
1303.946533 1763.866943 400.825836
1319.402222 1657.423462 63.390881
1169.008057 1777.633911 189.806580
1368.490967 1636.168091 225.466583
1406.256958 1790.735596 319.068420
1333.961060 1647.068726 105.424889
1386.341431 1674.190186 268.270325
1155.118652 1815.288452 259.015503
1306.405396 1667.174316 67.484467
1449.443481 1786.554321 298.157715
1483.913940 1790.669922 151.482285
1226.026855 1748.336914 247.739975
1450.358154 1723.496948 109.272469
1328.352661 1753.539063 271.836761
1193.654175 1773.057373 270.290924
1140.618774 1841.063232 264.207123
1300.649048 1684.138428 199.168991
1224.133057 1728.164307 81.092140
1078.355957 1846.282715 157.955704
1482.962280 1762.400269 39.808086
1506.513184 1820.447510 140.030075
1285.516113 1767.272705 266.068451
1342.292114 1654.359253 159.855026
1334.829590 1744.531128 341.001129
1276.432495 1694.124634 183.200134
1185.861694 1752.851196 34.361748
1316.481812 1662.272217 82.349129
1110.919922 1790.619507 -14.988099
1294.319946 1683.593140 156.512024
1180.379395 1786.965088 290.330078
1529.432983 1847.368530 186.731537
1341.735596 1728.073120 263.402283
1314.130127 1748.019897 293.617615
1066.547485 1836.099731 189.229843
1032.938110 1925.850464 241.020447
1509.263794 1812.739014 167.414688
1167.209961 1788.208374 120.257866
1381.987671 1823.521118 321.689575
1401.212891 1673.031372 228.662643
1315.402222 1658.795898 105.042610
1262.013306 1719.918701 261.003204
1375.002319 1657.701294 213.062653
1191.642090 1762.337158 104.052925
1429.571045 1700.972900 267.919861
1306.936890 1679.625000 214.551529
1406.243896 1769.058838 266.545349
1493.316284 1792.569946 221.813156
1061.442139 1844.681030 172.017365
1222.597168 1744.807861 53.253883
1372.960693 1621.721802 49.636024
1366.552612 1787.231934 270.724182
1296.283447 1713.619385 81.667290
1164.124634 1768.301025 42.030350
1283.231567 1708.878784 121.271950
1214.102905 1761.668457 272.411652
1408.744263 1650.483521 11.008792
1496.893066 1831.073975 190.932953
1328.748535 1768.269897 378.493866
1393.460327 1620.051270 30.917089
1529.903564 1853.989868 91.025116
1466.671997 1771.183594 203.272980
1220.729370 1723.787964 2.007511
1181.218384 1762.275391 55.483829
1368.461182 1631.933228 90.088249
1069.516602 1930.418823 279.696777
1466.337158 1811.808594 258.230804
1324.098389 1741.237183 334.430115
1347.171143 1769.090454 326.465851
1132.484741 1790.059082 57.645390
1411.137695 1652.887085 56.387024
1548.860718 1850.110352 24.674238
1335.843628 1768.059204 322.686035
1247.501221 1747.544312 266.413269
1428.089111 1743.348755 275.892151
1367.623657 1648.888916 245.746399
1171.902100 1907.685913 283.344147
1376.911499 1711.368896 275.702301
1012.266907 1871.382813 171.486481
1491.300903 1778.621826 -1.891944
1307.204346 1683.651733 212.632004
1444.121216 1693.089600 -1.318287
1340.764160 1643.697266 85.775085
1226.863281 1748.863647 157.128555
1069.328003 1831.901611 86.466209
1198.597290 1758.001099 263.843506
1507.016724 1767.084839 -7.610896
1326.896729 1742.613403 342.443085
1222.541504 1749.681152 153.559097
1389.531372 1615.935059 157.514664
1404.176880 1653.900269 251.899857
1074.332764 1840.630737 204.234940
1251.981079 1706.359863 49.384071
1117.728638 2054.935547 174.798080
1154.676636 1769.115967 -10.456674
1051.218384 1877.669312 276.120300
1342.024902 1631.984741 139.926285
1386.914795 1646.197021 149.790054
1405.399292 1644.350464 84.708908
1169.820801 1781.061768 95.247475
1158.380493 1787.780518 156.932266
1116.656128 1802.522705 102.316353
1029.950684 1847.587036 71.113564
1042.225708 1829.149414 20.062605
1271.208496 1692.648315 47.850410
1328.534058 1650.462158 99.231476
1425.721436 1775.447876 283.822937
1334.097412 1779.867798 277.512634
1428.150879 1680.563477 13.091273
1184.201050 1762.968384 105.107574
1073.463013 1855.763916 273.803101
1222.167236 1743.546875 83.424400
1431.987183 1704.586548 261.248840
1478.375610 1740.084106 52.938297
1145.885742 1780.780273 8.975794
1413.712280 1694.934082 267.345337
1305.980835 1671.481323 182.215836
1326.880493 1682.551514 245.915726
1335.005859 1749.905884 364.175537
1139.168701 1798.542480 249.793854
1422.962646 1802.268677 300.666718
1155.221924 1808.496704 288.055847
1204.648193 1756.957886 102.749214
1072.127563 1846.075806 137.749008
1411.352783 1741.662598 282.519379
1144.092651 1793.262451 207.922318
1304.995605 1674.576416 140.154144
1310.055420 1663.905762 32.800518
1463.628784 1762.155762 137.598663
1495.450195 1795.397339 221.500259
1324.155884 1740.768799 261.404694
1490.434692 1799.716675 28.876904
1329.573608 1677.294800 250.512115
1186.024658 1749.089966 32.087940
1393.122925 1641.194214 50.716995
1376.107666 1659.174561 228.598892
1454.757690 1805.106934 274.924316
1104.385254 1806.517090 77.261314
1029.701172 1870.584961 153.093048
1409.801636 1662.367310 86.362732
1433.317993 1683.705688 255.896332
1432.561890 1708.416992 126.969772
1368.690552 1644.991455 260.684174
1331.306519 1675.416870 253.185471
1360.689209 1651.276733 188.807449
1072.393921 1825.387329 2.180520
1333.155151 1749.821167 284.029022
1471.397217 1776.541626 254.597610
1401.687012 1655.409790 174.913803
1366.282959 1645.483398 33.105003
1483.877075 1799.328369 184.193802
1225.229736 1710.179077 11.700218
1333.824463 1778.452026 286.821289
1421.123657 1757.441895 265.240753
1531.310913 1852.627930 55.090446
1266.106323 1759.504517 273.472809
1325.771118 1767.266357 371.678375
1084.887085 1866.407104 278.207520
1351.103149 1653.077881 171.151627
1310.261353 1763.686157 406.169769
1448.359253 1721.245361 84.579773
1076.926025 1841.661743 240.876617
1429.731323 1799.541626 320.277466
1399.534912 1681.883911 271.186829
1447.572510 1708.975952 65.894440
1421.434448 1681.816284 84.092415
1532.220703 1838.857300 16.726608
1325.395264 1744.724365 353.701355
1307.876465 1673.991699 111.881638
1211.658813 1777.276978 282.233276
1525.104492 1833.272461 50.175362
1122.554932 1812.402954 203.697449
1490.797607 1735.393921 -6.468969
1417.465942 1684.095215 59.806656
1080.769653 1845.874268 86.065529
1090.424927 1865.299805 282.055084
1217.789429 1747.691162 245.327179
1336.541626 1642.807983 130.941360
1300.491089 1661.706177 6.597066
1397.021973 1611.803223 7.244333
1204.206543 1760.302002 73.671852
1458.321655 1796.677856 266.557953
1273.607544 1737.465332 161.640503
1534.954224 1853.727295 63.301090
1379.391724 1632.567993 190.661194
1322.445313 1667.781860 20.715464
1454.805420 1750.569580 181.810242
1061.936890 1848.963745 233.865845
1298.501831 1737.542480 265.647919
1038.194946 1852.223999 224.275681
1200.364868 1756.367554 156.458115
1526.481934 1864.654297 182.025604
1171.591309 1785.655273 148.634048
1289.796021 1680.120972 37.546188
1347.549683 1774.639893 336.755463
1336.675415 1637.183838 117.762680
1425.843628 1695.726929 234.156921
1413.198608 1792.584595 333.609741
1439.525757 1702.675293 261.961426
1342.719238 1652.457642 211.059296
1344.896484 1787.030151 312.902130
1307.429443 1762.316895 394.589081
1159.636475 1784.349731 95.465622
1521.778564 1838.185791 92.872009
1047.682861 1834.182861 19.709723
1171.091064 1769.404053 26.618935
1516.147217 1817.359863 258.020203
1315.455322 1687.466797 249.491943
1308.780396 1675.795166 200.300583
1113.152466 1805.947510 110.112976
1422.971802 1691.080933 204.501999
1298.637329 1676.034424 114.378731
1490.588013 1805.720093 208.771255
1383.708252 1637.637817 60.572430
1040.417847 1835.307373 3.242474
1447.848999 1736.947021 164.847534
1485.614624 1780.675415 115.507950
1240.049072 1709.481323 39.184418
1504.552734 1774.692749 3.826041
1079.183105 1802.419312 -3.445761
1209.902588 1826.436768 280.742157
1181.604492 1801.026855 277.792572
1197.372925 1759.437378 264.985291
1410.570679 1674.777100 65.266441
1079.149048 1861.612549 279.322723
1457.860718 1700.207153 -2.801918
1352.755859 1634.657104 74.144829
1294.260376 1691.442139 231.043137
1254.680664 1754.355103 259.281464
1433.015747 1693.878662 150.164307
1168.013550 1784.475586 71.430336
1468.611816 1833.558594 256.590973
1313.386597 1764.661377 413.964813
1469.091919 1772.539063 260.960327
1116.735229 1802.569824 66.883537
1453.581299 1744.275757 233.626724
1301.219238 1682.919067 187.368042
1425.592896 1668.479248 30.759644
1102.670776 1830.529297 52.626335
1169.942383 1783.063721 229.360382
1043.249390 1861.329468 221.886078
1512.713257 1815.885376 72.415504
1130.298340 1792.403442 112.910019
1378.354370 1734.700195 267.615662
1519.320068 1827.996216 33.963711
1296.943848 1672.473145 156.829849
1163.869507 1754.981445 -13.730015
1206.826904 1753.556763 81.354202
1170.601074 1747.111084 -12.515154
1237.276123 1734.688477 260.696777
1357.686646 1646.342407 222.155960
1100.233154 1862.423096 302.101532
1219.595581 1750.727173 70.856461
1478.901123 1771.991211 112.586411
1331.608765 1755.457397 394.706421
1251.191284 1728.680908 45.573059
1167.435791 1799.072632 285.557953
1137.257935 1794.632568 179.275650
1148.081055 1822.963745 275.071228
1117.938965 1808.749634 240.769760
1375.859497 1635.664063 27.702351
1145.982056 1785.387207 43.851055
1361.070068 1627.549561 116.008209
1196.777954 1767.485352 181.851074
1318.139648 1677.304688 35.651279
1412.351563 1673.381714 145.137192
1196.765381 1738.663208 18.283228
1416.936523 1639.587524 43.186188
1320.837402 1679.874512 241.224854
1442.289673 1689.048218 269.046509
1123.463623 1798.014648 239.493515
1074.962036 1823.196655 20.398157
1448.979492 1712.049194 259.441498
1216.025146 1758.217163 291.192261
1334.811890 1678.140381 264.414459
1188.987061 1766.704712 232.056961
1078.187988 1929.314941 286.420563
1250.687866 1836.762085 288.121094
1484.504395 1838.297119 266.709717
1319.079590 1656.290894 189.209427
1356.342529 1692.655029 270.434784
1531.431885 1846.128174 46.956627
1294.024536 1697.509888 92.340721
1301.257324 1689.499756 1.423993
1351.901001 1634.776611 147.180237
1182.585571 1883.695313 293.515045
1223.503052 1743.133789 22.392250
1136.124390 1797.970703 163.493286
1413.512939 1688.335815 240.888611
1092.706299 1855.797852 261.503784
1369.474365 1630.852295 117.656700
1465.857422 1825.708130 300.901581
1370.759277 1627.382690 63.556274
1283.499390 1703.759399 40.332184
1402.342529 1676.983276 243.282745
1402.488281 1802.806152 344.529388
1036.543457 1861.405762 124.340500
1092.899048 1785.608154 -20.352381
1209.721680 1752.291382 96.341156
1513.320801 1818.867798 57.905212
1399.229858 1626.385498 28.139917
1153.351318 1853.648926 283.989563
1167.276733 1773.912109 112.548904
1475.105957 1751.711060 -2.100109
1128.760132 1790.641602 4.242907
1095.226196 1796.351929 40.057861
1268.844727 1702.688965 60.108101
1434.096313 1776.183594 313.261169
1340.330688 1679.067505 271.612213
1103.500854 1848.158081 283.686584
1174.915039 1762.578369 245.273636
1033.289307 1836.916748 23.345572
1234.879272 1739.815674 193.125641
1299.266235 1687.847778 255.239059
1081.556641 1806.527100 -2.442594
1485.669556 1781.963379 91.813316
1144.166748 1789.506470 248.912338
1411.403320 1648.030762 66.962433
1486.445435 1775.106934 86.434616
1409.668335 1732.324463 266.622650
1068.355225 1835.600464 144.434448
1211.781128 1765.110107 177.251282
1197.914307 1880.625366 297.161499
1117.002930 1903.779297 300.575317
1301.602417 1662.323242 118.193192
1416.789307 1802.505127 313.590851
1180.660889 1769.384644 74.967117
1370.948486 1631.298706 76.112785
1289.751465 1709.058838 259.943695
1354.239014 1640.512817 192.981293
1330.492310 1647.236694 99.226433
1462.483398 1752.119141 158.301987
1394.695557 1627.492188 158.138474
1012.009705 1858.534546 128.295029
1261.599487 1737.369751 70.244240
1181.658569 1768.203369 134.626938
1313.753906 1668.704468 183.792435
1291.863525 1701.893066 245.426788
1418.812622 1713.159546 203.973846
1063.902466 1853.857544 253.694183
1335.119751 1654.259033 16.452400
1346.770264 1638.837158 112.030128
1292.912109 1692.315430 90.723381
1141.579590 1787.439087 61.668324
1072.659058 1880.673340 283.933838
1324.282959 1666.582153 167.785095
1470.198608 1768.363647 147.557343
1414.182373 1693.501709 271.196808
1096.838013 1833.876953 76.164421
1122.982300 1849.580566 277.582062
1477.895264 1741.895874 16.240196
1486.220093 1748.417358 20.846977
1330.470459 1809.984497 335.128448
1490.631592 1791.893677 58.724457
1420.484375 1687.497437 231.564941
1233.732056 1835.044312 286.824280
1119.249146 1826.777466 256.735992
1112.244751 1810.287964 91.426018
1310.581665 1757.005737 384.844513
1313.448975 1684.711548 263.421021
1074.908691 1832.624756 148.500839
1287.612061 1698.037842 138.376328
1167.910645 1794.501343 212.931229
1173.949219 1811.847290 276.801331
1359.936279 1649.218506 241.566620
1352.581787 1635.266846 114.621780
1382.295166 1670.120972 268.527008
1066.269043 1833.911499 168.457581
1115.651855 1773.547729 27.784786
1373.359375 1635.708618 237.049591
1330.831055 1659.801514 99.478661
1087.853882 1805.771851 -5.437474
1392.713867 1737.938477 264.376282
1516.370605 1857.610474 134.557617
1297.926636 1681.908691 2.111907
1396.451660 1620.157837 97.959457
1313.497070 1765.915161 284.173615
1240.464600 1737.018433 221.445251
1304.338135 1675.678101 168.457870
1088.693481 1823.590088 91.181320
1453.476440 1726.508789 23.905552
1420.058350 1658.880737 31.725300
1499.990234 1790.644043 232.010864
1319.559937 1761.826050 276.721313
1427.351318 1699.980103 185.438019
1418.960693 1682.375122 111.124054
1555.920044 1850.111450 -14.632871
1456.084961 1815.243408 277.261963
1202.949585 1755.315552 130.362885
1008.140686 1867.360962 131.216232
1408.533447 1675.594482 152.507370
1183.922485 1830.924072 288.661224
1476.044922 1783.538208 200.454773
1314.078857 1747.636108 273.876038
1359.698364 1693.871460 270.663055
1435.202271 1700.962891 132.421432
1353.531494 1631.504639 83.578163
1107.699951 1904.169556 304.150055
1478.975830 1767.200562 170.353073
1140.675293 1797.938965 220.690292
1430.709473 1713.856323 227.326462
1471.200928 1765.505493 149.162476
1288.338135 1689.511230 56.910835
1277.219849 1799.344727 279.102051
1419.113403 1681.735107 169.531021
1053.250488 1820.895264 -25.154932
1052.044556 1851.933472 209.609711
1434.031860 1686.879517 123.552689
1029.859009 1864.489746 155.733932
1396.741943 1644.607300 182.694626
1133.201050 1788.852905 50.501377
1145.504761 1800.675171 195.573639
1349.564331 1656.001587 228.063919
1462.525146 1741.597534 166.305374
1111.133545 1823.633545 256.599396
1178.731079 1745.783936 18.931698
1346.934204 1767.767090 279.361053
1307.739136 1648.754028 117.908836
1423.229004 1713.681274 158.624435
1187.511475 1743.851440 18.783897
1240.402710 1659.158203 18.833416
1155.744873 1830.105469 290.138153
1272.788208 1769.283569 165.131546
1314.281006 1748.767334 158.576584
1390.864258 1800.916870 309.646027
1348.033203 1634.684326 75.986595
1510.606445 1831.017334 152.635620
1440.589600 1736.258911 267.157593
1310.337280 1659.422241 108.006607
1032.319580 1919.927246 237.360901
1029.773315 1911.876465 127.853271
1134.659790 1770.553223 39.578999
1464.936523 1737.794800 43.146206
1169.104492 1753.738403 6.366534
1319.943359 1655.595947 162.689285
1370.319092 1635.464722 7.386097
1353.843994 1639.209229 165.181305
1353.194702 1622.295044 26.841940
1420.524048 1801.345337 329.901581
1106.974609 1845.880737 280.479279
1399.585571 1814.762207 299.959747
1164.523682 1781.222290 128.698837
1058.153320 1831.950684 -5.526342
1325.759399 1665.003296 24.359348
1441.627808 1714.097168 257.958679
1284.585815 1766.699219 289.290802
1313.141846 1668.855591 196.510269
1486.041748 1837.940796 252.119217
1285.828979 1695.211304 147.587952
1176.265869 1773.690308 280.289185
1462.278076 1730.165894 272.709686
1127.646362 1810.817017 199.313446
1229.777710 1739.206543 81.390305
1473.518555 1782.968384 106.460152
1073.262695 1897.320435 288.782074
1090.326782 1879.778320 304.393494
1221.362793 1730.385010 -10.802167
1280.664917 1722.660522 214.620529
1257.549072 1738.612061 154.730347
1452.493286 1724.814819 86.482605
1223.307617 1750.176147 259.361084
1326.513428 1677.354126 246.765366
1520.914917 1833.546875 184.737854
1335.986938 1649.574463 40.180798
1318.179810 1755.898560 281.503571
1332.962646 1655.540527 26.424841
1362.821899 1656.162964 255.677811
1451.626709 1744.622681 198.496140
1062.860962 1843.133789 113.288605
1408.711914 1673.154907 194.181259
1056.819580 1827.659668 -3.881334
1361.410156 1632.785400 168.760239
1025.808350 1860.409302 78.888023
1480.626709 1781.600952 260.304993
1281.077148 1691.800049 22.882257
1335.229858 1740.477661 264.424255
1303.787231 1752.665649 292.133392
1512.345947 1799.627686 251.812225
1428.271851 1699.169434 173.727036
1039.602539 1873.255249 100.511681
1509.269531 1825.354980 246.732758
1255.415283 1677.384888 0.952850
1328.652344 1657.761353 229.287231
1442.933472 1720.788574 127.392273
1249.257080 1698.533447 -6.554036
1428.714478 1794.999756 354.346893
1260.307129 1725.628662 138.293762
1333.673950 1710.861450 280.243103
1057.787231 1831.313354 93.578133
1462.130005 1722.216309 3.923388
1159.983276 1791.991699 267.060272
1100.860840 1794.790649 28.129375
1106.005005 1908.586548 286.417358
1047.745239 1955.533813 245.721771
1237.028809 1738.636353 151.736252
1053.967163 1847.527466 144.247284
1132.269043 1866.421753 286.251678
1438.966797 1700.956299 249.097092
1433.017212 1704.006958 164.238205
1483.293579 1801.939941 159.415924
1075.607666 1869.304443 284.535767
1076.287231 1832.498901 101.247597
1020.296143 1866.459351 148.405869
1384.552124 1638.662354 18.255009
1278.911865 1759.337891 261.250275
1197.288086 1746.229004 88.519699
1441.222046 1715.353882 110.182190
1077.275513 1888.479492 281.277557
1148.633423 1765.464233 26.660421
1434.656372 1786.592773 330.191895
1085.915039 1863.447510 306.436310
1307.303467 1760.345947 367.570831
1371.398071 1623.657471 35.544331
1519.889893 1783.852905 241.521667
1388.425659 1648.550781 166.909103
1138.908691 1798.364136 73.189339
1279.964722 1667.727295 4.455038
1100.807373 1809.864136 85.253510
1404.699707 1624.027710 75.598999
1412.024780 1602.250488 13.976124
1314.209839 1752.014038 315.047394
1285.538818 1691.019165 146.380478
1453.338989 1720.608765 1.198958
1355.195923 1785.372803 299.335419
1155.973633 1777.998779 121.377213
1535.202148 1827.642456 25.468637
1431.639038 1701.651123 156.763535
1083.359741 1807.564331 -22.660805
1426.504639 1673.263062 51.491455
1076.744263 1827.442749 226.024612
1372.518066 1646.670288 159.372040
1224.069580 1726.876099 77.369934
1269.460693 1741.535034 271.270996
1029.939819 1847.194702 214.691254
1353.706421 1654.763672 219.157196
1115.290649 1809.176514 170.988098
1473.235352 1750.480713 240.994568
1194.037354 1774.235962 273.500214
1332.717896 1662.637207 198.426392
1353.941528 1634.503052 136.017944
1011.636292 1864.066162 190.366547
1259.279297 1726.133057 248.640320
1293.208740 1778.734985 280.855164
1497.296997 1779.935913 257.724518
1519.636475 1829.349854 59.857647
1256.452759 1770.861206 271.843842
1420.460449 1660.613403 32.460056
1257.159790 1700.078735 46.860519
1402.761719 1783.844482 277.397400
1111.631592 1852.863892 276.067749
1523.114502 1852.770386 205.264496
1222.423340 1759.696289 116.529022
1431.655273 1696.251953 129.605759
1288.735840 1711.708008 188.001862
1107.055298 1831.056519 260.015381
1105.292358 1810.082153 239.815994
1141.458008 1792.649902 166.861282
1305.868652 1662.491577 128.859161
1328.505493 1805.675903 356.353607
1074.631714 1822.001587 29.377691
1445.708252 1809.334595 306.165375
1349.436646 1850.448608 266.130035
1180.669800 1869.408936 276.566650
1153.659302 1740.911865 -4.695801
1246.010742 1755.157349 266.728088
1096.641357 1994.697998 21.878241
1428.093262 1674.618774 61.902134
1451.619507 1788.386353 346.116730
1092.641235 1831.149780 30.392227
1320.520752 1749.813721 345.015198
1268.277100 1691.971191 25.103033
1376.737793 1627.410400 146.340103
1469.138550 1738.621948 240.678345
1265.174683 1738.601685 262.174042
1384.340942 1622.539917 52.427425
1444.753662 1718.923096 268.895721
1413.875000 1667.893311 264.598511
1091.382813 1869.236572 297.602203
1326.988281 1765.682251 349.787018
1247.614502 1729.984375 120.400970
1111.678223 1841.375610 256.012939
1411.867920 1699.307007 178.804321
1462.928833 1827.374146 313.349701
1103.012207 1817.563477 193.469055
1271.766846 1698.427124 100.666443
1221.453125 1753.407959 271.280060
1497.884521 1787.859985 232.305435
1039.887329 1833.440308 73.098984
1280.750122 1707.374390 232.793320
1028.235352 1868.919189 246.591354
1276.371094 1694.211060 -4.119405
1312.551880 1655.769165 154.595917
1528.668579 1836.117798 31.141956
1218.127808 1747.841309 147.568710
1301.654053 1742.857910 265.819763
1218.142456 1747.155640 180.445038
1368.893311 1627.521729 186.030655
1129.563232 1796.257935 112.917419
1191.216431 1758.732300 70.349426
1077.090454 1822.325928 108.849388
1392.160767 1656.760742 269.191833
1387.308716 1623.582764 78.896797
1331.090576 1762.459473 302.936554
1105.329834 1794.059448 53.350689
1499.772217 1806.366333 134.170776
1230.127686 1740.356934 186.537338
1443.741211 1679.738281 3.391807
1287.432129 1699.250366 65.598045
1350.639404 1793.983887 314.570831
1325.896606 1657.822388 21.776417
1240.555054 1747.413452 173.115707
1490.258423 1802.834595 264.758331
1508.976685 1763.046875 -8.826305
1445.644043 1717.316040 264.331848
1221.402588 1753.400146 80.799324
1285.341675 1699.354004 70.708572
1271.680420 1736.071533 271.619904
1439.208130 1796.697754 269.947845
