ply
format ascii 1.0
element vertex 1397
property float x
property float y
property float z
end_header
884.892273 1977.648804 327.337219
1156.480347 2100.438232 142.522812
884.836487 1937.231445 194.409668
1134.582886 2032.671387 72.782341
837.723328 1936.782104 85.486328
955.253357 1897.994141 194.305496
1146.888428 2042.634399 281.360962
844.266418 1969.281250 329.328461
1092.315308 1927.159790 82.390938
701.383545 1988.236084 75.592659
825.319153 1959.288696 229.596100
1128.095337 2066.007813 -17.782005
994.421448 1933.374756 277.735718
1111.733154 1991.270508 39.268658
954.609314 1921.574463 240.049042
1011.776062 1874.236816 238.578400
1055.503540 1965.521118 359.083160
929.596497 2019.354858 326.619873
1024.460815 1858.375244 9.720003
907.969849 1922.394287 171.816193
951.817871 1898.541748 37.496685
993.356873 1869.620483 75.046112
713.741516 2175.441895 147.765533
957.599243 1896.072021 38.129829
1132.270996 2043.325195 45.238514
1141.962769 2029.601196 283.999878
1107.088989 2000.266235 3.207583
1060.714844 1999.054810 272.218445
970.975342 1886.133423 97.380371
1145.878418 2059.410400 165.176849
1081.006836 1900.699951 41.305538
1008.770630 1863.777954 9.629617
1129.935059 2024.612061 75.273529
1130.701904 2011.079590 337.640289
1037.863037 1930.247314 387.135284
923.913879 1924.220581 96.832314
846.291016 1942.055664 166.301880
1128.366821 1979.990845 351.429321
845.113953 1945.258057 158.734634
842.105652 2036.703491 340.404572
904.234619 1918.305664 309.618988
1058.050659 1850.300781 89.204269
1139.283447 2006.439453 106.677658
1055.814819 1859.869507 187.118179
889.220032 1932.069824 310.723480
1008.942993 1935.368042 312.214569
673.160461 1999.761475 124.879295
991.136414 1888.610840 268.120941
1022.520935 1865.686157 133.211288
1065.412842 1850.256958 229.014282
712.300842 1989.645264 314.835297
884.016296 1936.288452 263.369019
922.453430 1904.259888 60.321472
1020.359924 1930.648315 335.744446
932.262207 1918.655762 179.216187
679.382202 2017.979980 133.568466
1030.523193 1947.139038 329.664734
1031.512207 1858.411621 117.102295
848.120239 1945.463989 325.654114
1147.729614 2087.486572 38.607822
1075.980713 1839.231201 187.140488
901.743835 1932.945435 306.012085
1102.316895 1874.598145 252.606750
912.762146 1919.470093 287.352509
939.116333 1925.474854 121.884171
862.345825 1927.559448 71.687019
790.189148 1966.308472 250.934692
1052.238770 1948.711304 353.566132
992.330872 1865.275635 147.596115
1004.354492 1858.088989 14.489926
749.319824 1985.788452 230.519684
1024.480591 1934.169312 381.609802
873.626160 1943.062866 135.463409
1112.203247 1876.913574 231.484436
984.814026 1895.166992 259.705231
1117.814209 1936.854370 206.060745
1032.643433 1857.427612 129.836624
993.225403 1880.987671 195.275726
1170.325928 1980.476563 235.113449
1012.245605 1864.593872 238.199982
976.743530 1880.758179 193.258423
850.908081 1943.420898 219.163345
1085.318970 1843.125732 33.362110
885.207458 1937.592407 247.733658
874.838135 1953.984863 306.863037
1135.490601 1924.795532 229.489166
729.034363 1986.795288 321.098694
1145.873413 2018.062866 211.795929
918.239990 1917.409302 23.593546
1125.306274 2002.743042 285.177856
1028.724854 1867.820801 10.213438
995.320190 1892.998901 278.124512
824.116028 1964.535522 322.735168
712.418274 1995.731201 193.267517
978.611328 1860.677979 125.954987
739.961731 1991.048706 259.460327
729.842163 2000.932007 350.182922
689.189758 1986.268066 60.666496
1106.352295 1919.920166 262.623444
979.100342 1900.045776 276.390961
1001.200378 1869.755249 219.349426
1167.095093 1959.967773 233.575562
800.436462 1973.383911 342.340576
1116.649658 1900.692261 238.560440
1078.264038 1911.851807 11.455425
806.344238 1986.502808 336.961823
995.527832 1866.674805 98.103165
1138.377563 1886.419922 261.178955
877.466675 1914.011841 28.678543
1066.510376 1903.625000 4.417337
937.901123 1920.080078 146.326324
770.056458 1987.784912 171.760681
1074.380249 1844.772827 214.760605
1102.833618 2023.427490 -5.699145
802.984741 2043.866455 367.767334
771.550415 1993.036133 351.656494
666.866028 1976.319702 65.734161
1155.819214 1965.690796 230.387573
1120.202026 1894.858398 253.160202
1095.953979 1883.325317 200.005035
795.792542 1929.213867 41.264393
1075.248779 1847.268311 159.933838
1084.744507 1890.834351 269.068329
1042.692505 1867.613037 110.860764
955.051025 1905.060059 207.839432
901.512756 1939.017578 247.149475
870.539856 1944.093384 272.627411
775.151611 1990.246826 352.569641
846.798157 1928.105225 89.744720
817.784790 2049.837402 366.417419
1007.830688 1930.457397 360.306702
966.544189 1889.271973 155.022812
1043.045044 1938.205811 420.712891
1137.942993 2058.454834 91.036224
849.735657 1944.328735 91.420708
840.375977 1946.086426 151.392578
955.914246 1902.702393 260.551331
902.349426 1934.163818 316.052673
1055.430176 1921.222900 277.637390
1055.179810 1938.857300 292.295410
728.303406 1981.143921 102.302544
1139.080200 2013.839355 203.969864
1073.335938 1888.192383 268.083557
1034.987305 1872.993774 191.192673
687.676453 1991.445557 71.185959
1006.586914 1881.354736 262.680206
784.653198 1964.130127 85.826378
1185.750366 2021.044189 240.731567
1189.184326 2048.155518 236.508041
871.538330 1935.124390 323.106842
1070.599609 1988.238403 273.054749
1033.613647 1852.857666 85.864510
1097.206543 1949.176636 30.682812
681.812378 1990.473022 114.607124
768.259155 1959.820313 60.925713
1149.453003 2047.902466 319.177063
989.918396 1888.971069 251.587875
814.785339 1967.831299 111.914574
803.417725 1984.512207 233.589172
816.786804 1929.450073 38.373295
753.484619 1989.719360 338.672150
1145.755859 2023.745117 167.232864
1149.005493 1951.212402 225.368881
1134.862671 1994.776733 252.069916
744.965088 1982.439209 205.671021
905.460571 1911.148071 32.384815
822.367920 1948.307373 43.298485
1013.625000 1927.456665 341.572601
1007.649170 1939.482666 333.392487
1082.609619 2003.449707 295.921478
1152.279297 2027.428833 142.845505
1080.306152 1844.228516 183.190247
970.974182 1880.589111 176.316086
742.526978 1996.645874 263.680481
816.419067 1939.569458 49.034096
1068.198608 1867.989868 104.829834
679.897278 1987.772339 101.222633
995.674683 1916.247437 288.621460
1137.412720 2031.971436 96.122292
1166.832886 2113.365234 41.610016
982.705994 1880.210571 178.323532
1148.793213 2027.009399 340.896027
983.528809 1891.708374 251.161560
1132.254883 2017.988159 113.647903
890.250671 1970.371582 317.342438
779.048279 1977.021973 337.231445
894.005859 1948.949585 311.328033
1095.442871 2005.227905 315.187653
1079.491455 1852.905640 115.167938
933.440491 1907.383911 100.108147
1038.749756 1958.759766 288.743011
713.786499 1981.069824 67.426155
887.008789 1933.784790 191.692429
1173.926758 2084.333984 242.441864
662.450928 2006.470337 106.593956
849.237854 1928.039185 70.616974
720.660034 1984.682861 286.178192
848.372253 2042.343994 343.145416
950.922913 1958.502808 299.176697
988.910522 1894.890381 272.256836
1139.642456 1995.376587 143.136490
1144.496582 2027.622925 97.783882
1013.734619 1874.187256 163.530609
1085.128662 1917.261963 31.779947
929.374756 1918.669556 192.367142
1113.498901 2022.774658 2.678595
978.487915 1927.261108 281.688477
1135.225464 2001.050903 336.050110
1034.176270 1854.056885 195.960022
921.733154 1874.275024 40.024147
828.585938 1968.748779 151.358658
895.067627 1960.857178 351.248016
1038.744995 1869.158325 253.828354
1008.517883 1943.774780 332.923706
746.882202 1990.099976 320.184357
1145.634521 2031.200439 152.163025
711.706726 1976.855591 82.512161
1067.032349 1866.119507 116.424728
1086.874146 1942.624268 268.276337
1163.236694 2101.749512 111.570335
1045.850952 1856.784668 219.101349
956.162415 2005.942993 325.595825
852.087830 1956.567017 190.334167
931.721375 1903.655151 74.019386
988.088196 1871.328125 116.559921
958.084290 1905.059814 210.636734
889.217346 1944.243652 295.993408
1135.108154 2011.853882 -18.784264
1055.094360 1964.661987 274.651154
1140.850220 2002.725220 133.701218
815.130920 1961.200195 112.110092
912.155212 1921.137207 171.723236
759.430481 2003.767212 347.636780
1131.166382 1969.455200 157.283585
820.795959 2041.189331 367.483734
1010.888550 1937.602417 393.208435
1020.075806 1866.935547 209.217529
937.081543 1932.695557 329.408051
1045.711182 1846.558228 103.152397
983.971924 1892.635986 258.756805
708.382385 1994.420410 322.644440
697.722412 1986.787598 185.071564
949.755310 1913.038452 294.737244
1082.958984 1856.483643 159.703522
1080.568970 1852.896606 122.897247
1101.967163 1966.337891 106.587120
771.246033 1977.009644 260.556213
1049.886475 1959.119019 354.104523
991.420776 1867.129395 120.618599
688.500427 1987.171997 76.447067
1141.464355 2090.725586 52.033875
1063.333862 1875.187134 265.684753
973.411987 1890.583130 199.159164
1153.126587 2063.759033 117.455605
753.876709 2012.628662 344.225220
1057.240112 1954.489136 407.052979
926.559570 1915.968140 141.650177
785.792786 1963.877441 299.213959
966.017273 1872.943848 165.851318
941.783508 1903.799561 102.212250
1057.766113 1858.415405 258.589203
974.526917 1865.668945 79.431595
802.119873 1957.157593 312.883453
1028.134766 1867.897705 239.737091
1013.953064 1873.465332 76.631836
728.916626 1993.638794 244.424484
721.674744 1988.653442 198.882904
1166.956665 2099.832275 180.994598
760.460510 1973.007446 134.475479
918.805359 1914.144897 49.381104
810.006348 1983.679810 341.260071
1062.291260 1860.807007 194.842422
1174.071899 2094.399902 114.247086
1030.026489 1861.678345 215.587387
1019.373352 1866.160400 2.299358
1106.541382 1908.864380 167.441513
998.598083 1948.083374 299.892853
1122.220459 1998.282104 333.607452
1147.300049 1942.198120 250.655380
854.624451 1925.783936 80.781448
960.457275 1874.031128 140.508408
1072.717285 1866.760132 136.419846
1062.681519 1841.393555 87.649437
844.453369 1964.458130 328.649994
828.254089 1950.009644 205.547134
1139.468872 2006.466187 328.628052
1037.671997 1924.328735 306.355621
983.822205 1928.025391 278.970428
1094.858398 1912.738647 103.562546
718.298218 1994.268921 304.501892
848.267517 1955.093750 197.782562
1185.865967 2074.594238 240.674835
746.404724 1983.434082 266.064514
1055.189209 1853.373657 -2.708149
1057.599365 1860.836914 243.257782
1062.702393 1860.283691 26.578777
858.358459 1951.209961 189.037796
1156.070801 2034.244263 150.070129
748.234436 1973.861694 105.644630
1035.109497 1936.713135 422.296204
1033.859863 1859.212280 166.750687
750.023682 1994.633911 313.013397
1080.591431 1898.379761 79.811493
1201.424316 2033.340698 225.002060
952.002441 1891.218262 144.972412
779.850159 1969.049805 136.982651
848.577209 1948.576782 269.040649
824.205505 1965.480713 317.010223
976.044800 1896.526611 183.137909
889.763489 1932.694824 261.220612
1144.612427 2079.831299 35.723705
706.086975 1993.428223 275.233612
986.835083 1872.855347 15.683378
1134.306885 1961.658447 186.236237
829.822693 1954.683838 282.617676
1156.874878 2061.367188 157.665009
864.899841 1936.390747 305.974213
987.531799 1881.044922 96.473915
1101.688110 1973.136230 16.518990
858.314941 1950.444580 236.909592
1107.519409 1963.229614 88.485527
1069.046021 1897.822266 63.683323
1009.594910 1861.938110 137.432983
692.754089 1986.003418 103.908600
1145.547241 2027.655396 205.195541
1141.912842 1985.458862 190.187729
1071.884277 1848.648682 -5.215893
1145.855347 2036.265625 252.178925
1098.327759 1991.730469 -4.646504
1058.419678 1847.776733 189.077225
695.449951 1982.283936 187.602615
1156.651001 2067.197266 133.910873
1047.953857 1929.351929 360.192871
1113.155640 1944.667847 143.654816
760.257996 1966.233521 56.869316
1174.184082 2017.384888 221.690475
1125.263062 2014.335571 46.922985
1089.873169 1923.119629 75.399879
1173.718872 2089.212646 241.920303
1080.834961 1979.099609 282.959045
943.225342 1918.189453 272.112305
703.651428 1993.559692 228.512344
1075.882568 1872.348877 105.462234
939.470947 1929.347534 183.369705
845.479858 1954.493408 166.800522
909.876587 1916.833252 278.498566
1139.336426 2032.345215 263.175873
1019.224487 1937.096313 419.438202
872.080383 1932.342651 278.538361
927.773865 1923.953369 303.523285
935.639282 1888.895996 31.979082
1027.023682 1858.502563 160.341141
904.132751 1936.968262 252.549561
1069.571411 1856.061646 146.715942
808.335083 1922.458862 48.247246
937.873596 1919.021851 248.663437
1038.628906 1853.654785 72.919922
1122.379272 2004.469971 66.772858
1149.406860 2034.726074 162.167267
1054.092285 1967.248657 273.284576
775.976318 1973.978027 154.267303
1014.964966 1959.732300 353.310547
1019.400879 1873.744629 228.871994
861.285889 1939.677612 285.535706
1071.330444 1860.812378 144.834732
938.760498 1921.291138 288.286072
750.248535 2006.441162 339.232117
712.701660 2006.930420 338.143677
1010.117737 1852.850830 90.864822
890.597412 1913.882324 84.794968
1164.291870 2081.635010 173.955231
848.452087 1945.330933 317.000610
704.407898 1984.998047 57.524990
1117.173096 1998.427979 -17.024437
811.600708 1963.007690 213.405838
781.942505 1956.677856 57.376163
1122.157349 2008.485596 69.032257
837.773682 1959.706055 181.846680
1094.814941 1908.657471 153.311462
1072.062866 1861.177002 264.511017
1056.599365 1939.012207 322.028778
987.236694 1965.538330 136.362686
1063.273926 1943.152954 384.075104
723.464600 1975.744141 67.958664
1079.701050 2014.153320 344.613281
721.900513 2015.246704 348.706482
1125.142578 1920.644165 226.896484
847.520142 1958.077271 174.948914
831.009521 1947.325684 262.633179
1103.852539 1928.434570 115.519524
1193.321045 2047.727051 247.408035
1110.331299 1941.526123 132.492310
915.184082 1976.390503 326.679871
922.268738 1928.195068 310.692322
1051.202881 1860.082520 226.792297
1082.420776 1895.407227 102.904236
1038.891235 1851.535156 169.453476
748.102234 1986.986816 304.090363
749.687317 2004.359131 111.494331
1049.720337 1967.721924 326.643738
894.966187 1933.635376 118.182281
975.469666 1881.717041 127.407623
822.156860 1952.267944 58.056889
947.808289 1902.080200 32.749329
1023.112061 1928.228760 296.513977
1136.257568 1988.479614 181.777069
833.846191 1933.558228 74.998558
751.756714 1969.040283 56.047169
704.386047 2011.980713 226.468643
834.242188 1951.655884 105.111931
1076.298950 1853.544312 99.097519
1115.705688 2001.506592 26.896259
826.444824 1892.146729 55.425323
1087.253784 1880.263794 199.135727
784.373535 1988.524170 333.385559
788.217834 1973.481812 229.906586
1070.200439 1910.233154 35.014774
1018.803833 1944.415039 411.984039
1098.830322 1901.698242 265.277252
1094.636719 1926.939331 58.347660
1056.529785 2020.262695 273.293823
1042.118652 1952.649048 278.125977
965.699890 1903.400635 200.597275
1054.848022 1955.262451 412.509918
1012.725586 1938.976074 310.257813
760.196045 2045.127197 369.560364
900.886841 1927.296387 316.055115
684.841736 2052.930420 268.044525
934.942566 1999.207397 326.079834
1108.713623 1971.949707 -15.619198
763.880798 1957.885254 47.593842
692.936584 1995.824219 213.759811
1157.599365 2056.787354 159.807037
972.544434 1898.364624 227.934387
1132.991211 2115.511963 -1.317483
826.221497 1951.498535 124.620598
935.308777 1929.372559 197.679001
1132.640625 1964.348511 253.561646
1058.940918 1849.656982 215.031418
1138.587280 2068.968750 20.534813
1166.195190 2109.062744 104.186913
1065.786255 1880.216431 41.103092
1038.597290 1906.743042 273.075012
1071.023315 1922.530762 -7.940120
1011.310120 1936.288208 290.478363
849.877014 1949.852905 224.653381
893.015137 1938.155884 323.972809
931.709595 1930.251831 207.081192
722.023499 1992.756470 244.887161
1068.125610 1932.530396 283.942322
1078.835205 1924.013916 262.899597
1129.524658 1949.887451 255.842392
1049.023926 1880.413086 -1.746497
755.893677 1997.071167 360.793854
1091.442017 2013.474731 358.976532
1023.040833 1875.471436 263.465576
653.872437 2002.731934 111.023224
1124.088989 1966.172119 256.847504
1156.548706 1919.136963 252.670349
1015.831970 1881.669556 257.043427
795.337280 1962.628296 145.255936
983.446899 1881.838867 210.778931
919.182861 1902.770264 53.276100
936.443726 1909.233765 277.461823
867.217957 1947.600586 336.843842
964.590454 1881.174683 156.010544
753.583618 2027.371460 381.618774
796.710693 1975.519409 224.268677
807.802490 2037.351074 369.804871
985.709839 1878.462891 107.032867
814.124268 1955.672363 128.330551
849.544067 1949.259644 117.475105
912.547302 1920.442871 269.409851
1138.915527 1934.248291 269.497925
917.114685 1925.761353 87.667824
891.070984 1939.513184 320.379089
1103.600952 1956.165894 92.439087
917.512085 1910.424683 278.660339
856.776550 1944.126221 176.944412
911.312988 1944.753906 341.526215
1167.740234 2114.652344 -23.875505
1031.015869 1947.291748 349.574188
1099.211182 1911.636719 148.926926
1038.998413 1965.691895 307.922058
1035.454834 1943.781982 391.132111
964.057861 1881.001831 110.535004
1033.251953 1929.540527 371.152679
732.800537 2239.619629 110.988754
967.214905 1872.833862 131.824738
1001.082581 1887.502808 279.425964
1101.529907 1937.415649 81.029915
1122.177856 2003.565186 64.643234
934.087280 1913.245605 286.059204
1124.713989 1933.180542 213.811859
1056.669312 1966.913574 402.167267
1005.894653 1875.807373 187.144653
1050.813843 1960.335205 273.650269
825.572266 1927.744263 45.648609
1114.909546 1963.770508 261.304352
813.052795 1961.730225 140.414871
1076.646240 1892.152222 -5.449967
771.526550 1965.129272 106.317131
941.562378 1914.193970 230.864227
987.753906 1873.296021 71.759651
1046.575439 1935.906128 409.403229
995.771851 1873.091553 71.530281
1007.728027 1876.172852 112.805893
1111.604492 1908.821899 269.177643
675.648315 1966.644897 64.478577
1046.709717 1844.938599 131.280441
1050.342896 1932.912842 329.578522
1117.812988 1960.838989 179.719727
1018.206177 1870.911743 181.505615
804.818176 1949.919922 50.826431
846.978577 1963.401855 350.896637
935.892151 1900.484253 74.470764
1160.048706 2117.632813 29.073956
1124.930542 1975.097656 153.113861
889.020508 1931.327881 311.609039
844.023560 1933.905640 83.888855
942.597900 1889.244263 93.667473
1161.623047 2107.193359 81.805832
1156.919678 2117.715820 -25.350365
693.499512 1993.156494 276.104919
920.341614 1981.828857 329.647247
1088.807617 1870.326538 100.639458
1082.751465 1850.421753 157.120270
890.014465 1923.731079 298.515503
821.695068 1964.901733 331.490082
935.648438 1917.842896 298.644470
1054.481079 1887.251221 -5.675426
896.118103 1914.696167 100.648949
1031.054199 1940.974365 418.595459
1155.067261 2073.709717 172.741013
795.739075 2001.465942 349.652496
1053.489258 1941.053345 382.677246
968.270996 1874.764771 116.229088
1056.767334 1873.805664 52.929340
1009.453491 1867.449707 187.428024
1045.918091 1854.615967 52.333969
1063.074951 1943.192871 380.201324
986.226990 1875.945190 75.881096
796.103271 1965.232422 135.541122
957.761719 1893.464355 150.127045
1130.548706 1997.798218 -11.550548
1101.326172 1989.776489 348.126465
947.779297 1907.221802 259.235718
956.217529 1899.605591 197.956711
1126.630249 1999.752441 316.153107
722.528748 2011.650269 358.647858
1183.530518 2086.169922 188.644562
848.737244 1945.528564 64.086594
1122.582153 1931.710083 184.213669
796.800903 1960.755859 213.151917
1102.254517 1944.378174 113.417999
958.344482 1883.691650 18.101448
684.023071 1986.533691 92.392395
754.428406 1993.018799 167.895981
1120.714600 2025.626343 82.999886
1104.854736 1945.279663 36.244076
1041.140137 1842.546021 141.242371
1187.938721 2001.262085 238.368591
763.165894 1999.437744 330.880859
803.308716 1958.292603 48.395107
839.417725 1939.439209 298.424561
951.433350 1900.694336 32.476582
889.815369 1917.093872 68.320488
882.724365 1940.322388 116.001976
885.078735 1932.034668 149.949387
1129.949463 1954.411621 196.864624
1149.384888 1949.511719 234.354294
988.856750 1948.038086 290.485260
1124.006470 2008.444946 70.154053
716.656189 1998.693848 331.278870
960.000916 1920.093384 236.873047
1002.233276 1877.282349 221.816193
1064.010010 1861.133789 248.465561
1149.743408 2043.249268 295.830505
846.934448 1942.563721 326.189301
780.956238 1925.388062 61.239189
860.253662 1926.481323 57.723034
1076.247925 1909.488647 -4.487964
1062.828247 1869.019165 52.527763
799.680969 1993.872070 346.795593
763.295959 1963.910522 292.155579
685.746216 1995.999146 284.421387
1123.209839 1960.783203 181.381912
793.809937 1965.876221 207.268356
683.827148 1995.986206 261.002075
772.246460 1975.446167 164.565674
944.432251 1919.327393 298.320740
1113.897095 1985.384277 19.129230
682.258179 2108.253418 113.065895
1051.538452 1845.962158 168.651779
697.719543 1991.066162 59.357204
786.112671 1932.715820 46.235756
1047.498047 1973.371704 322.052765
1060.868896 1841.249512 160.205734
1134.284180 2024.848389 171.627060
969.554382 1888.713379 108.177544
1028.862549 1933.127930 379.506378
1095.780762 1861.858276 197.681793
726.572754 2164.398682 284.049194
1029.612793 1860.593506 196.702927
1037.915527 1872.172241 273.710022
1001.932739 1946.134399 321.922668
1155.750000 2019.832275 247.273071
855.144897 1951.886841 323.782562
1124.216919 1974.027832 192.781281
1094.337158 1926.192261 -10.223858
1133.648560 2037.380005 72.575302
1095.882690 1937.855957 71.877289
1068.427856 1915.753540 -1.880394
1045.307617 1852.574951 59.390991
840.642761 1971.063721 240.765823
1061.380981 1873.694092 245.716568
1194.990479 2075.327637 219.991913
1043.682495 1864.303223 255.312485
807.320129 1963.656738 96.541634
1084.930298 1890.092896 86.698906
1115.382446 2033.643066 13.999834
1159.412109 2032.072998 174.169601
987.794556 1883.971069 213.973236
834.222473 1934.302124 69.744118
1127.674561 1958.804810 162.336716
1135.518799 2000.956421 339.584595
1056.214233 1861.663330 266.563690
1124.899048 2017.497559 51.089886
966.753296 1903.460938 269.145660
941.025269 1925.165894 294.717651
986.981689 1897.596680 285.823151
748.794922 1981.844116 320.830902
800.416443 2068.442139 369.520477
1126.446655 2029.409180 -20.654366
835.503357 1958.304688 255.943222
779.252319 1963.839844 95.761650
1105.724121 1997.891724 22.987755
1009.782104 1929.901733 289.190491
993.704529 1951.727173 304.049896
1093.812744 1873.683838 221.400879
1150.372192 2092.676514 -7.199408
706.265564 1997.813843 334.148651
824.963928 1962.125488 262.498749
1053.934692 1848.851563 25.131721
761.054504 1963.913818 93.478096
1155.202393 1957.035522 265.687805
1036.461792 1848.488403 137.354233
914.341248 1936.641235 239.331192
677.655884 2004.859497 141.975967
1029.651245 1860.610596 200.607376
1166.770142 1980.356934 234.236496
848.496338 1957.449829 344.728363
1052.958496 1974.988647 381.755310
1056.694458 1851.163330 99.325798
701.993469 1980.945679 279.145111
931.683167 1916.947144 209.830963
1132.068970 1947.143066 260.108734
1000.633240 1875.896851 201.917130
868.297058 1937.110962 131.416855
924.839050 1937.052490 223.004395
803.470703 1976.182983 251.964203
1082.712891 1875.201172 143.993652
1105.929565 1963.294434 76.591209
790.992188 1972.106201 271.662781
1041.370117 1927.013184 334.809113
1010.139526 1870.118286 207.134476
1112.363892 1999.792725 300.239136
1131.526611 1991.554688 169.587875
1116.671997 1984.529419 283.087524
852.686646 2030.804321 339.947693
931.553711 1898.820068 70.438202
972.798828 1887.079956 117.124664
840.264954 1993.585571 335.026093
773.897095 1970.279053 130.215118
1041.191040 1939.411255 406.073029
732.585022 1999.159180 243.587692
1141.315308 2033.242188 263.106964
763.292725 1971.412720 293.644684
896.363098 1932.936523 233.021362
814.393921 1972.335327 323.538940
1046.302979 1866.054565 251.455872
787.311218 1964.377197 112.948845
1140.994019 2005.707886 342.806213
1112.246216 1980.580688 77.599556
1022.801941 1872.751465 131.566650
803.802246 1957.967896 122.596924
1056.381470 1975.957153 386.507874
1015.372009 1905.770996 282.903168
723.304382 2151.641113 258.490601
937.459106 1902.957153 21.693207
959.312561 1902.288208 61.568932
1074.265381 1894.151978 45.008369
1025.061401 1876.713745 253.996140
1159.265869 1987.557983 249.848145
714.017334 1996.737671 337.042206
937.595947 1924.866943 243.026520
738.226196 1967.273071 84.129761
1141.820435 2030.529785 141.779022
878.581482 1922.135742 61.341309
900.969604 1926.736450 97.819771
786.694580 1957.489014 64.900482
1040.251343 1865.893311 155.595596
1016.810547 1861.790405 178.763443
1134.658081 2041.199585 46.229397
1112.440674 1980.709351 275.717987
816.565735 1932.702515 39.345699
775.094971 2012.355957 375.151459
970.038879 1898.513428 257.115204
1093.181274 1922.372803 273.815796
1046.957275 1863.637085 118.807022
1154.076904 2041.627930 -25.609045
1041.902466 1851.887451 121.209946
990.458557 1884.599243 16.164549
1115.650146 2001.613770 286.957458
908.881775 1900.724731 42.504002
1150.195068 2083.564941 124.969032
1104.462036 1950.492920 -13.810123
1140.193115 2055.905273 0.480632
767.541382 1968.868164 302.788239
1030.463013 1864.229370 171.693710
778.597351 1992.302856 351.833893
958.736206 1884.879150 12.119182
1131.127197 2052.194092 12.684324
1054.851074 1859.856201 172.851974
1092.151611 1974.214600 269.251190
761.535095 2015.971802 373.411835
978.984375 1888.230469 10.445526
1119.179077 1988.917969 161.152206
1047.138306 1889.188110 269.017578
1010.127625 1865.359619 15.600221
846.461182 1939.621216 116.428886
891.924072 1912.281738 63.428394
1018.824341 1879.123779 254.152527
809.471375 1957.431763 298.862671
1125.023560 1901.737793 256.531006
1149.126465 2077.156738 145.392349
1075.073486 1828.331787 11.349528
1090.790771 1848.801880 176.940140
1148.379028 1924.009033 248.375015
1092.916748 1885.483398 154.349869
735.578308 1987.728882 345.735809
1194.738037 2051.283447 247.157211
748.203491 1972.325562 72.650536
1085.090454 1891.128784 260.299438
1126.875244 1967.565430 185.303284
693.710388 2100.775146 206.386948
1030.269287 1862.453979 222.894669
985.226990 1873.783447 10.156499
863.991821 1926.539551 41.812973
780.832153 1973.890381 200.088852
803.641785 1970.760376 318.854095
1064.605225 1847.639771 196.732285
896.091675 1927.434570 308.210480
1116.746338 2004.854126 283.895264
1086.316528 1930.403931 18.074390
969.168884 1887.705566 121.892975
960.256165 1944.168701 290.110931
995.771179 1869.099609 182.054626
1001.312866 1952.063721 313.217102
1159.379517 2128.784180 13.482166
1150.269165 2074.592285 70.776154
1041.351685 1871.826660 236.875732
1035.183350 1847.263794 7.385808
1014.709778 1863.543701 77.361267
1165.723389 2117.982666 83.151016
1024.842529 1870.988647 3.465138
845.072876 1955.622070 188.212357
854.432922 1929.452637 44.862793
707.131409 1990.644287 304.987946
876.193237 1931.647583 93.136345
1160.357422 2045.391357 148.830475
1033.300659 1965.297974 284.675995
1114.850220 1954.572388 264.284973
1167.026245 1994.398193 224.730591
1107.952271 1964.949707 98.353935
1052.780884 1842.665771 147.164902
1093.982544 1932.114380 -13.239882
709.632629 2015.337891 304.008575
922.582031 1918.309204 292.991608
1048.248047 1859.281738 237.654770
1047.290283 1843.274292 143.529663
1023.355225 1943.833374 336.549255
754.528625 1965.596924 53.435753
1119.070679 1992.451782 74.564751
983.100525 1949.398071 303.750702
819.943420 1953.004272 299.849915
676.326599 2093.987305 107.458794
733.962769 1988.370972 187.474594
822.041748 1942.624023 77.883865
1117.074097 1955.605957 169.939468
1128.628418 2007.048218 326.755157
692.799866 1995.866333 270.591461
765.659485 1965.013916 272.575836
1074.567017 1866.153198 160.582306
1074.432983 1868.171021 55.433422
866.325378 1917.543701 33.260658
1107.628906 1881.254639 261.280212
847.242188 1951.603516 150.456116
738.851013 2089.813721 369.421326
800.675171 1958.728516 295.383545
1039.949951 1865.437134 245.564117
823.944397 1947.328857 117.159439
1010.614624 1937.193970 327.228699
1086.149780 1848.434937 152.587448
777.640686 1968.567749 292.079498
845.635437 1947.183716 332.760986
1089.376587 1878.966187 210.389511
833.883911 1939.136841 59.315247
844.480774 1930.111328 67.230110
1060.568481 1868.346680 64.679077
1043.181519 1860.643921 210.099579
1043.635132 1857.785522 122.807686
715.644043 2002.795166 334.417877
923.608032 1912.266602 284.567902
797.194153 1958.518433 140.271240
1141.314209 2009.956787 174.327652
796.626892 1956.873413 101.555565
1028.599731 1883.915649 265.614990
1018.337158 1871.644775 239.064392
970.969238 1877.052612 126.113670
1122.281006 2006.508301 60.216293
1081.171387 1859.752808 171.546783
875.576843 1933.573853 295.009155
756.392639 1976.853638 271.793427
939.694946 1911.511108 288.503387
908.510498 1953.071411 327.101654
1147.499146 2003.593140 173.114349
1025.975464 1928.630493 341.007111
968.327454 1904.308838 166.242722
845.526245 1947.695557 325.964203
1017.562012 1867.061279 64.111710
1142.577393 2055.501221 65.226936
932.064453 1923.471436 149.557327
1150.450806 2031.934082 313.734161
1090.774536 1905.286011 125.875343
1170.737061 1998.902100 237.353699
889.197388 1934.987305 78.948540
1082.829468 1910.029541 27.951582
974.642456 1878.343994 75.326607
874.546448 1874.238159 47.440472
946.533325 1910.542480 59.126820
777.186951 1994.508057 365.654572
884.304382 1940.498169 204.506744
782.498352 1982.708252 335.272675
1094.455444 1910.971558 94.765213
1107.331177 1912.107788 180.544769
1026.111572 1926.642822 288.793671
1018.074219 1862.789429 168.526443
1111.916504 1884.269287 209.524033
939.244873 1927.752808 295.303772
772.992737 1965.847656 294.976501
1064.352539 1873.808472 59.376202
775.319885 1981.265625 341.307953
1105.396729 1981.138428 24.441793
1045.641479 1949.468872 393.541748
797.585205 1973.876831 93.379585
1075.016968 1848.550415 242.675644
972.534424 1899.430786 224.317459
817.547485 1960.633911 300.979034
1042.059448 1961.234009 386.554840
1128.881226 1951.448608 252.982208
969.669250 1889.024536 103.582153
1189.132690 2036.119995 245.317352
1016.711121 1863.416748 192.305725
1002.633728 1908.067383 280.321075
1028.146118 1924.222778 307.159424
1075.072632 1899.244263 15.835078
1117.099854 1943.929932 183.119110
1082.515747 1919.179199 11.534666
865.026917 1935.541626 292.026825
753.710938 1962.245850 84.007889
1058.345093 1848.106445 184.908478
1045.068970 1947.320435 327.116119
812.301941 1949.465332 44.701118
741.425476 1977.888672 285.636963
927.563599 1914.758423 297.645935
990.786865 2112.383057 278.126190
798.762024 1969.889648 312.410400
1055.906006 1852.049438 209.286514
812.330688 1983.306885 245.049820
736.180725 1967.229004 79.502594
759.861084 1979.518311 195.654434
1090.678711 1991.692261 331.453339
819.919434 1983.480225 342.107727
765.172668 1974.905396 259.180115
986.334167 1890.119385 245.772720
840.952942 1932.276489 62.861057
679.571350 2020.632813 295.546143
882.295532 1936.749268 287.816040
1039.440430 1945.466675 364.658295
1038.488281 1855.873901 11.650800
1132.886353 1974.234619 277.333282
845.676086 1956.551270 210.352295
693.306946 1998.660767 200.863922
920.669373 1895.502808 23.506498
882.167236 1946.732788 142.720551
1087.538696 1900.292114 -9.069334
728.538818 1983.654907 55.053505
870.938965 1945.467407 324.373474
1054.679199 1865.753906 34.673126
873.820618 1995.608521 333.685516
1087.795166 1858.734375 113.336395
891.068909 1917.596802 69.564568
689.479919 1982.502808 110.181236
1034.031250 1865.023315 222.949280
1063.490479 1857.672485 169.440643
1149.494507 2023.779541 339.880219
1150.804565 2052.882568 302.861145
1156.680786 2015.994141 202.730087
1110.327393 2010.184814 50.770130
1123.966797 2024.253174 -12.086695
788.515320 2029.604736 368.570740
685.734375 2065.869385 247.204437
1028.921997 1855.445190 80.499199
1014.444641 1884.613403 269.089905
1145.613892 2040.708374 121.420624
735.550842 1990.909790 275.013611
780.553711 1989.546509 101.556023
978.692322 1871.435913 86.975021
762.636902 1997.302979 134.790176
750.855286 1981.092896 266.488434
855.662598 1943.359741 318.591644
1087.065186 2001.681763 296.238586
1052.659912 1955.450928 394.673309
1018.572693 1869.587769 257.028015
722.741943 1924.824219 71.384766
1144.418945 1940.659058 248.643463
879.161255 1938.868408 217.611282
926.488037 1920.923096 147.122620
1063.690918 1882.766235 -6.702619
1080.793945 1914.504639 49.993031
659.563843 2002.135010 168.298416
1108.212402 1969.631714 52.893650
818.586060 1968.845093 222.891785
1088.044922 1994.625977 319.328735
1142.026855 2011.905640 176.695328
778.711853 1974.609619 174.819382
1072.647949 1881.892334 66.914780
954.855042 1944.595215 290.869324
1060.718140 1859.783081 243.125153
748.480408 1960.661255 105.022842
1112.635620 2011.288696 281.757446
1128.687744 1980.455688 347.344208
956.419495 1905.713501 95.702377
1120.889893 1953.561035 269.910370
1131.758057 2007.468506 49.110474
949.591980 1892.884033 55.270569
766.277710 1980.610962 246.082565
727.125305 1970.819092 86.444000
1026.068481 1870.433228 259.830841
1129.257935 1977.829224 175.881622
729.624695 1996.289185 342.294830
834.899719 1940.604980 135.396103
918.586487 1930.767212 310.101593
910.826477 1918.257324 83.994148
900.547058 1929.452515 185.270615
776.519226 1975.465332 192.641769
1061.531982 1853.719360 -5.694686
1055.160645 1862.052124 236.491791
1145.857300 2135.431641 1.167033
1134.605957 1984.395630 139.897537
1077.163452 1862.436035 6.543965
803.611206 1963.767578 312.987030
1158.681763 1988.788696 246.276901
747.935852 1984.346069 124.850983
1099.074463 1878.238525 204.057861
1140.539795 2026.989014 142.234131
1012.966553 1936.390259 346.587769
1091.436523 1959.733521 44.553772
1111.405640 1940.880981 140.594269
985.872375 1878.882813 198.352203
749.144348 1991.542603 292.991547
1145.623291 2034.636841 301.105072
1103.120483 1886.622803 258.368805
1006.346069 1942.372070 313.325775
1045.540894 1847.643066 88.202896
810.236084 2029.165771 362.031525
1091.376099 1923.553833 83.166458
1082.655151 1870.869141 126.115219
775.938232 2000.965942 367.662964
1115.803223 1928.864258 261.930969
949.283203 1878.254761 25.672390
804.671631 1962.014282 313.957672
935.550049 1915.628296 214.862488
684.272644 2027.348511 147.615295
801.603455 1960.672974 159.374344
1067.911499 1849.168579 181.116470
865.146790 1954.727661 325.606110
1042.690063 1851.524536 224.474091
1044.090332 1862.763794 23.951717
1078.182373 1889.778809 82.945099
1053.542358 1848.321777 36.764210
1056.042236 1866.645630 253.957306
1040.681763 1947.827393 420.579742
1098.012451 1895.687256 159.455444
911.145264 1923.949463 258.679779
870.569641 1933.173218 155.367661
859.136658 1932.266724 292.497803
972.557312 1872.158813 113.280983
944.788635 1929.863770 181.338501
914.799316 1951.910278 330.273926
1124.809570 1939.611450 260.809601
1122.941895 2031.870361 10.373357
1092.819214 1905.638916 149.962585
924.769775 1957.004517 325.850555
1039.550049 1942.698975 396.331573
1104.505615 1973.755127 34.322369
1026.763550 1935.765747 318.371368
910.281738 1921.430420 264.804047
1014.783630 1862.438721 63.825684
1050.204102 1963.144043 342.391479
1128.373779 1957.368896 197.949341
1132.241821 1894.380859 237.737854
1063.793457 1859.842285 103.348755
1132.381836 2015.668945 148.352859
1081.141235 1944.387085 -8.337457
776.153503 1962.268799 309.084167
1161.112549 2122.672119 36.839027
721.376160 1975.730957 67.069237
1022.403564 1855.498169 210.352661
1082.877319 1851.542603 63.003517
979.283325 1883.785522 184.651093
1058.778198 1862.585571 129.185303
671.372864 2001.397583 252.874649
1020.671692 1856.346558 42.868858
787.099731 1971.985474 315.556519
714.130432 2034.876099 175.093216
769.309509 1970.129883 224.474152
961.778137 1956.016113 293.388458
687.818237 1998.296021 255.691177
869.621887 1922.285767 59.269588
1144.355469 1930.693604 232.795670
1142.979492 2042.125244 289.148193
1167.623047 2009.084351 222.743347
742.007202 1978.708252 305.335266
754.846191 1980.927368 119.706993
1082.450073 1852.342041 220.932556
834.515625 2013.523438 341.452026
891.887573 1930.396484 308.572113
674.478821 2018.428467 180.774628
1090.171753 1867.003174 165.562408
1089.548340 1897.756226 -2.032259
887.358459 1946.511475 317.293915
1079.237183 1844.306030 190.462585
996.461792 1879.797119 191.164368
705.867798 1983.312622 115.377151
814.014771 1950.722168 97.973236
734.262451 1985.309204 155.772079
727.661804 2000.126587 265.111145
1071.045532 1852.339844 34.359226
871.168457 1930.719604 303.785217
924.415649 1931.527832 304.131073
835.528381 1969.254517 333.169769
804.230408 1966.205078 128.930771
878.423096 1933.938477 207.924164
841.333801 1935.321411 77.913483
850.580811 1934.963257 303.519409
1118.263062 1997.912720 70.775032
835.948608 1949.994141 248.749405
1029.178467 1941.521362 382.367981
956.364319 1904.837036 60.575871
717.182678 1978.189697 320.614410
1171.358398 2108.452393 149.434006
826.354980 1949.534302 101.855858
1020.084290 1871.533203 242.356949
864.440979 1947.014526 209.602051
1065.897827 1865.083984 200.855408
1056.187134 1991.731079 277.960602
1162.687744 2041.022583 246.180145
1085.314941 1892.219238 122.754135
773.069092 1955.936279 82.741531
1129.100220 1894.952515 240.745773
1108.041626 1992.116821 14.916304
1132.635986 2019.762207 278.517700
842.417603 2012.339600 349.328125
801.195557 1936.005493 49.492683
932.972656 1902.907349 41.205650
1092.921753 1962.666382 265.936340
1169.135132 2003.020752 241.600632
767.983276 1990.336060 257.210876
1009.725403 1879.440430 235.914215
755.004395 1993.435181 241.655502
1048.434814 1956.681641 367.828766
1103.959473 1923.749146 103.767822
868.529602 1931.485352 297.046722
1130.164795 1990.751343 98.708328
1037.452515 1925.059204 369.203674
1141.695679 1924.275635 252.372513
771.144470 2017.481201 376.990631
1099.969482 1878.695435 238.528091
1070.555908 1844.811401 210.826920
812.507019 1960.187744 134.596725
1020.704468 1875.094727 265.246918
1022.516907 1880.108765 3.301824
699.948425 2000.219727 158.659012
703.122986 2135.362549 181.310577
1008.842590 1867.263428 187.588501
1057.091064 1884.264648 275.599182
1039.661621 1966.669922 404.331543
744.507751 1988.141479 304.306702
849.319946 1936.556885 46.813881
1137.282471 2031.181274 293.020691
1008.570068 1874.863281 216.691132
880.036194 1939.865356 334.916962
1149.311035 2099.174805 27.939831
1002.992188 1882.080566 7.320595
822.795288 1957.290161 147.520859
685.158325 2037.443726 160.587326
1018.085999 1859.998169 203.429916
741.772095 1981.973022 74.944542
1085.318237 1886.396851 99.483871
825.157837 1950.729858 300.363037
702.714233 2003.324951 127.287491
851.069092 1935.200684 98.624985
1027.067627 1930.553833 365.456085
818.456360 1950.079956 91.499123
1009.733948 1867.187256 228.663849
1097.619507 1940.698853 262.745911
1110.616455 2019.157471 -0.887113
822.735840 1969.854492 267.200836
1096.575806 1898.409668 187.099701
991.130432 1932.086792 280.640717
1163.460815 2064.989502 261.361816
1085.220093 1845.139648 214.534760
887.214539 1915.132690 89.597305
998.866394 1880.136841 211.572281
830.824219 2054.226563 354.263855
1061.755249 1861.861572 110.735237
1141.958374 1947.910034 225.419327
1099.410034 1910.597534 172.324051
710.246704 1980.483398 97.141937
979.632080 1885.430054 31.087360
1007.246338 1867.249512 70.404396
1114.087891 1972.487915 101.515373
1161.966675 2067.940186 162.550980
1079.131958 1903.853882 60.909710
984.606567 1881.910767 25.087460
806.115295 1965.905029 230.892471
1124.458008 1984.528076 261.676666
1052.686157 1838.686523 4.636632
746.089172 1983.174805 325.073334
1107.160034 1924.131348 162.813385
689.363708 1983.008179 132.426437
710.308533 1986.568481 67.416771
861.307007 1958.244507 338.304962
1114.440918 1966.063721 127.076515
1110.329224 1963.015015 108.142441
1038.570923 1982.014282 278.397400
1147.754028 2116.571289 -12.131483
774.080566 1976.355835 178.340103
894.356262 1925.020020 281.449768
939.688354 1891.193604 17.208155
1091.409302 1923.435791 33.846928
1066.049194 1848.622314 158.886780
864.238586 1932.739014 33.304893
859.159668 2065.728271 349.402832
1098.840576 1888.988281 264.346954
1106.746338 2007.033936 315.434113
782.020020 2019.759033 376.401337
1128.283081 2044.615234 -11.186570
1163.960327 2066.589600 188.073212
1118.028687 2015.318726 -18.483118
736.839844 1984.916382 228.472580
782.846924 1964.164307 109.485451
824.202698 1959.353882 226.716125
884.910339 1926.771118 77.809349
1154.722046 2037.406616 131.923752
878.506836 1937.384033 265.251526
986.948792 1889.614380 243.629501
1094.756104 1993.566772 273.552643
958.175232 1903.003174 220.237732
1078.920044 1888.959106 70.465546
667.571960 1995.501343 112.141319
888.940613 1941.121582 229.424011
1100.275879 1964.844604 264.678345
912.965454 1919.176880 133.232254
1113.176025 1929.982788 177.716492
1142.281860 2075.930420 26.879320
772.005005 1969.211792 122.511665
1111.451782 1887.155640 248.191086
819.532532 1945.846436 80.811012
867.388062 1941.937622 175.231720
767.645508 2000.125854 143.565216
1125.315186 1994.454224 149.857056
1027.631958 1859.902954 107.395988
744.987122 1991.650391 296.123932
810.376343 1979.811890 334.144318
1016.697937 1912.318726 284.274475
835.945129 1943.612061 284.054718
998.478760 1884.101807 236.289902
1087.098633 1861.667358 231.744690
968.863281 1874.664795 99.912109
1144.247559 2009.656372 136.907120
913.964172 1907.439941 71.438416
691.117737 2101.596924 188.687164
702.719116 1999.543457 194.731430
1116.411743 1983.593018 97.103615
1053.372925 1869.257202 84.168053
1044.619751 1960.945190 320.019287
993.706299 1881.147705 102.912422
1114.480957 1917.604248 189.281311
938.288330 1972.493774 329.030151
1122.212036 2005.265381 362.214539
1137.440186 2020.672974 277.387604
1105.028931 1905.409180 215.857269
836.341553 1945.968018 175.695938
748.226624 1965.154175 88.208984
1151.836792 2117.544434 -2.228071
986.628784 1878.989258 44.303074
691.826843 1981.912842 164.214523
910.246216 1922.216309 64.680824
1149.624512 2039.159302 312.790710
947.897278 1915.845581 191.923965
819.839294 1939.433228 59.529079
941.437683 2011.318359 328.572235
1005.540161 1882.418457 260.140961
1112.279419 1993.981812 270.594818
1046.361938 1867.740479 99.472069
875.928711 1933.510376 302.719360
1110.916138 1968.575439 110.216583
1111.613037 1955.130249 193.932175
1023.630005 1857.233765 113.812866
765.833252 1997.846191 340.554840
1027.686523 1862.916260 214.864731
1110.289673 1942.588379 172.249847
1118.673096 1959.853882 188.135468
1038.967896 1870.944946 19.841825
915.082153 1991.120728 334.313782
1047.546509 1924.192749 378.772644
1079.683716 1980.124512 335.904633
664.247498 1990.786011 111.682503
794.144104 1960.427979 109.169937
1142.030884 2042.411133 154.244370
748.740417 1995.328247 222.169571
1054.995117 1878.067993 26.599018
795.794800 1931.048462 50.344719
755.889343 1994.024048 357.555206
1023.090271 1952.247803 286.299316
1032.913086 1862.259888 241.566223
707.515564 2020.938599 181.771622
1029.216919 1856.699463 147.640793
943.928894 1921.090820 251.295639
797.841919 1951.890381 296.022980
1149.163208 1900.032715 249.397278
1030.224854 1860.304077 190.326309
1070.805298 1876.620361 260.425598
898.603882 1970.965454 341.094727
1081.869995 1857.756592 198.347107
901.156860 1975.108887 330.846985
1103.284912 1977.062500 17.090868
1115.186646 1896.768188 205.058853
1146.178711 1956.127075 225.086166
1122.493164 1943.415649 252.868164
778.937012 1981.938477 229.193237
1027.424683 1930.917725 396.506256
1052.109375 1957.496948 340.686218
1101.199707 1884.841309 233.630524
997.333862 1870.089478 179.101105
836.476746 1971.434448 237.222321
854.724731 1960.381714 209.271332
920.121216 1933.774048 191.488724
1074.683105 1871.906860 163.859207
990.524109 1889.668091 279.743286
1145.662109 2083.249756 264.757477
1032.326660 1864.092163 95.896019
1124.945801 1956.879883 204.194717
1022.855591 1934.699463 317.191589
1136.321777 1923.706543 251.455872
970.436951 1885.762695 88.704857
734.534546 1982.253784 278.611664
807.123718 1959.402588 226.147308
980.786804 1896.526245 271.811829
801.096191 1972.899658 241.477966
1119.305054 1889.340820 247.145935
1018.354004 1924.165039 307.818604
773.842590 1958.679199 66.828476
964.230164 1960.459229 301.097931
1034.873657 1936.556763 432.686279
875.842224 1944.086060 175.564590
1004.266541 1934.864380 304.127319
1135.172241 2007.056274 281.594879
1011.685364 1873.793823 215.512497
1171.220825 2005.276489 253.197586
916.470764 1932.822632 215.289993
1133.201538 2039.633545 101.408943
974.454773 1931.596436 206.781021
854.602234 1937.948364 320.312714
1075.795166 1846.495361 126.795959
1037.011108 1852.862793 216.228302
1060.398560 1904.494263 -3.359920
1006.450195 1892.072266 277.901672
1065.022461 1847.651001 130.672485
769.959473 1971.727783 256.810150
747.725281 2028.613037 217.155899
731.796387 1982.204224 307.878357
1034.260254 1933.798462 414.458130
848.830811 1931.290283 50.528412
861.973450 1939.879272 148.222916
685.447510 1989.936279 78.248795
929.252808 1944.398682 331.177338
1129.714966 1982.453125 116.079643
1019.784851 1925.688843 438.510956
988.122681 1884.605835 34.894020
874.551697 1935.790771 220.572159
1088.464478 1893.302368 104.825790
814.709412 1952.148315 293.942993
894.433472 1914.377930 54.401024
938.196228 1924.068359 222.315781
928.773376 1908.391602 146.041443
883.272034 1929.157593 266.630981
714.195374 1999.867554 308.430695
1121.369995 1893.050171 250.425995
1070.221069 1881.488892 262.643463
828.886902 1956.709473 177.677109
1145.339600 2055.557861 29.859930
864.580811 1969.062988 341.272247
990.905090 1888.221069 264.329742
1164.660645 1981.615112 247.590698
1119.031982 1936.843994 152.554932
1074.817017 1851.235840 201.300034
916.748108 1888.325439 23.454514
803.430420 1987.667847 163.618561
1060.627197 1968.887939 399.404846
1079.147217 1880.216553 24.870697
1022.548035 1879.128784 257.262848
1092.932617 1877.368286 259.890808
995.533386 1882.719604 236.466736
1140.886475 1987.572388 364.796326
1101.120117 1928.313477 74.856583
1070.204834 1867.609497 112.535873
868.712891 1928.616333 314.785248
1051.950562 1864.907104 243.224686
1045.872192 1949.981812 407.729492
1167.191162 2099.646729 129.333847
1000.970764 1868.393799 183.782043
838.118896 1955.441528 86.609138
936.842407 1897.283569 111.718941
812.223938 1963.383545 212.443100
923.870850 1930.190918 231.363953
1055.214844 1836.099854 6.973461
843.303528 1985.020020 347.174042
1077.849487 1850.122803 225.172333
1086.530396 1911.842285 50.504574
1063.770142 1944.418701 272.978455
792.868713 1946.918457 84.354919
1059.010132 1985.903320 269.371796
719.145569 2058.947021 360.160278
939.996094 1891.521240 60.439861
904.393433 1919.391602 299.290283
1112.451782 1973.885132 108.538635
897.525757 1941.532593 222.221573
797.909302 1946.810913 111.674179
1112.727905 1926.329102 185.817627
1128.362427 2061.233154 -20.439976
1128.362915 2024.589722 -15.748167
759.427185 1977.094360 315.981934
899.736267 1923.376953 86.106949
1129.457642 2017.350708 274.844452
1123.829712 2006.253052 -14.407113
708.089355 2002.980835 317.727234
921.845520 1914.791626 276.042023
999.038269 1876.012329 12.410933
915.071899 1927.885132 205.055664
1022.016602 1934.659180 306.682922
792.566040 1994.623535 344.000397
1104.828003 1889.295776 262.292786
966.395569 1869.286621 176.388504
756.945251 1966.222046 56.669075
1164.127930 2130.192139 18.304554
1150.320557 1935.838379 238.231186
912.480713 1925.036133 83.248459
1073.873291 1854.587524 49.905064
979.435608 1960.174194 297.880127
1073.895142 1999.284912 318.059845
1069.657349 1848.311035 158.913696
1062.828003 1937.041138 268.463257
1130.148804 2021.500610 58.232410
974.261169 1898.738159 16.021765
1116.749512 1898.963013 255.569443
1131.433960 1996.539429 142.756256
1080.962524 1905.260376 31.382111
1037.142090 1861.434814 230.314133
965.217712 1886.892578 79.958801
1150.774292 1988.749512 249.983643
870.003662 1940.453003 286.724060
1094.821045 1880.381226 207.062042
1193.862671 2053.478027 232.760315
833.261169 1964.891357 333.724976
1090.941162 1926.701050 70.891495
1137.905151 2072.855225 288.992981
969.960022 1885.392212 212.637619
1083.494873 1849.222412 133.208557
1140.020386 1990.281250 158.931091
1102.995850 1952.902466 82.780785
779.771667 1974.238403 187.529404
1048.493652 1855.288940 63.163975
740.382690 1960.282959 59.658474
