ply
format ascii 1.0
element vertex 1368
property float x
property float y
property float z
end_header
1726.621704 1223.416992 310.648834
1681.495850 1253.214233 408.248932
1608.479736 1403.511597 515.261597
1723.767578 1205.391724 480.432007
1626.826416 1331.614868 212.429855
1590.459717 1363.995483 467.968658
1745.755981 1150.921265 390.570953
1754.027832 1158.927002 404.045380
1733.172974 1196.012573 439.422577
1921.800171 1088.167969 490.194031
1680.312378 1311.013794 497.507599
1686.398438 1358.847900 506.416473
1842.537231 1075.301880 398.609863
1785.113647 1096.803589 357.646606
1906.503784 1103.799438 487.207123
1904.935059 1123.216675 356.041656
1800.548218 1098.920776 405.802612
1971.717529 1190.000610 382.459625
1733.097656 1187.398315 249.113846
2028.627441 1214.265991 253.885590
2057.583984 1219.983276 232.098770
1681.414063 1251.924438 260.179291
1656.198120 1267.993408 451.149292
1888.547974 1102.036255 316.569641
1951.717285 1181.660278 499.845581
1861.929443 1198.929321 505.089478
1632.315063 1339.121704 496.435486
1993.238281 1187.488159 340.016754
1985.016968 1183.406616 366.003662
1624.815308 1335.914917 335.624603
1765.384033 1154.722412 238.544205
1745.022705 1149.822266 367.898499
1738.927612 1201.789063 286.133026
2026.369019 1216.905273 345.273529
1982.470093 1173.453979 492.992157
1784.142700 1112.971680 470.351990
1731.422607 1185.989380 451.178619
1828.721191 1068.411621 400.453156
1786.708618 1113.546509 470.381104
1733.345093 1179.325928 456.023834
1599.283936 1332.602173 431.543335
1860.773560 1079.291504 453.428070
1651.369507 1283.450317 471.347809
1694.073853 1232.863770 443.325012
1744.106812 1151.489258 404.170746
1858.547729 1094.274292 483.728119
1809.201782 1177.763428 566.658325
1861.484863 1229.939819 485.709045
1907.416870 1120.000244 326.254547
2016.055298 1183.731445 474.477142
1727.872437 1201.275513 476.009644
1869.936768 1096.509521 455.518463
1993.296997 1206.244263 361.097626
1808.185791 1082.653687 478.327057
1797.242554 1304.010742 522.995056
1763.676514 1118.204590 397.107483
1796.078247 1095.111206 289.223785
1739.373291 1172.998535 261.711121
1830.051147 1159.429810 489.191284
1758.273804 1127.605713 380.358704
1993.160645 1190.472656 377.954956
1791.220337 1185.360229 525.718506
1662.545654 1289.994019 217.842361
1927.567505 1145.023804 425.461884
1886.622925 1114.173462 489.047791
1802.061035 1081.320557 460.511261
1875.532349 1103.526001 225.470810
1648.737061 1373.696655 522.010986
2003.362305 1209.725708 498.433289
1683.833252 1282.796631 500.455139
1798.912964 1082.283691 420.355347
1798.532349 1080.726318 385.574677
2004.985352 1191.596680 265.179657
1872.279053 1161.249756 490.668793
1729.333862 1204.391968 354.324371
1923.072021 1125.702393 247.023468
1692.019165 1257.454468 309.202972
1758.890869 1167.276611 313.214966
1811.464355 1095.333130 398.189911
1669.234375 1260.801392 289.138489
1965.848755 1173.220093 423.069153
1671.045532 1271.033081 422.762024
1729.414429 1330.999268 515.760925
1707.813110 1227.552612 372.375488
1904.996338 1106.193481 489.782990
1806.824463 1069.955566 311.667084
1871.926758 1086.392700 466.386658
1705.466797 1240.480225 498.139893
1786.728394 1182.014404 642.266846
1655.275146 1328.946533 498.697113
1707.633057 1213.365601 464.434265
1740.587036 1177.051636 218.764847
1808.475220 1074.445923 457.376190
1794.470093 1186.876099 619.710938
1732.624634 1193.484009 213.354996
1964.013306 1176.717285 305.881866
1567.662109 1397.174927 291.169464
1963.097290 1134.947388 480.155273
1901.318604 1198.572998 590.328979
1958.513794 1170.634644 426.526855
1836.598633 1080.433716 486.522522
1670.552490 1279.277100 245.644943
1622.219971 1322.613403 390.050507
1621.400024 1357.894043 497.363281
1734.138794 1191.862305 428.756866
1952.286499 1135.436523 486.583221
1765.787842 1134.735107 291.906647
1763.786377 1142.910400 251.078201
1775.584229 1106.680298 333.127502
1784.723511 1178.433105 544.240906
1686.577515 1245.440918 479.894348
1678.682861 1242.387085 502.004333
1560.496704 1408.148682 410.022614
1767.760498 1125.763306 463.868103
1677.582275 1253.777954 242.368164
1821.037842 1099.060669 486.629486
1761.068726 1153.537354 322.741302
1644.666992 1301.780762 210.422150
1678.294678 1257.781982 401.661438
1590.476563 1372.194580 216.567505
2009.445679 1213.448486 339.982391
1893.348267 1115.175293 401.604370
1588.608032 1425.311890 346.571106
1573.758423 1373.147095 458.846222
1926.967651 1192.677612 540.326904
1713.182373 1206.242188 249.210098
1937.317505 1109.567383 219.753998
1777.007813 1128.096436 268.089417
1724.979858 1204.751221 269.381042
1604.630981 1340.819702 415.421356
1941.717407 1188.236938 492.628265
1894.010742 1101.876343 222.954056
1795.849121 1200.826172 306.598419
1633.520264 1308.093628 256.950867
1608.085083 1347.802246 353.313293
1917.429199 1191.174805 561.681580
2024.472046 1196.059082 464.990326
2038.885986 1219.378418 223.391647
1589.874634 1361.837036 422.012329
1744.289185 1190.750122 478.272552
1926.622070 1123.950806 331.381134
1774.669189 1103.197876 418.949982
1686.778320 1361.007690 506.222137
1987.555908 1142.232788 221.271011
1602.570190 1359.418579 494.696320
1718.719238 1215.944702 288.777618
1744.005493 1221.256226 486.247223
2025.402710 1224.863037 394.836426
1655.855591 1304.343994 419.157196
1695.003540 1233.389404 248.029114
1767.423218 1119.090698 403.684937
1778.878662 1245.721069 514.967285
2008.170166 1204.962158 366.903809
1855.301880 1075.788086 337.086517
1633.911499 1308.545410 474.613708
1663.100952 1276.559082 474.578979
1765.841431 1110.730957 296.949097
1742.135498 1174.535767 416.479889
1879.374268 1106.322388 433.570496
1567.181885 1394.232910 465.372650
1752.088013 1209.632690 358.568390
1940.217651 1155.565796 231.266556
2000.592529 1205.991821 426.503906
1607.346313 1366.631592 362.915802
1989.518921 1185.085205 306.851746
1723.436646 1200.501099 241.084793
1798.676270 1205.935181 564.792480
1676.718384 1256.941040 258.131012
1641.130737 1332.929688 326.403351
1743.285034 1177.973022 480.460999
1717.803589 1206.253662 436.343445
1645.110840 1288.600830 425.891083
1783.552002 1109.564331 446.194550
1777.808472 1103.010132 399.551636
1687.152710 1243.638062 307.816254
1812.616577 1063.572632 449.965546
1731.640625 1184.350830 210.798004
1761.144409 1194.291016 496.805817
1739.552490 1242.906616 499.372559
1775.955566 1117.717041 269.364075
1665.735474 1283.271851 382.435242
1721.049072 1199.073120 245.268890
1558.090820 1401.177246 472.122620
1636.753174 1487.603882 413.099609
1928.614746 1136.118164 316.174072
1609.702515 1349.655151 373.122711
1679.099976 1261.581299 415.247192
1780.596680 1177.324463 486.171387
1944.143921 1144.289795 238.293152
1597.128784 1359.424072 405.527954
1684.363403 1248.333252 235.711807
1959.571411 1142.527100 476.424042
1906.321533 1184.070435 577.457031
1914.255493 1125.736450 352.529633
2037.726807 1214.042358 234.890991
1881.437744 1097.745483 479.542053
1988.062500 1202.400635 421.596527
1661.559692 1270.216064 454.628540
1770.870239 1104.065430 407.324310
1730.376953 1181.102661 468.981720
1767.190796 1141.762085 284.596649
1836.562256 1068.484253 250.209366
1791.583130 1083.524536 375.530762
1765.001831 1134.539429 412.669678
1918.393311 1192.731445 500.602600
1738.596069 1182.685669 414.778503
1614.328247 1345.223633 374.081787
1574.120483 1406.473022 480.391632
1803.105225 1072.447388 425.542328
1772.907227 1122.582642 334.089691
1804.655518 1177.553711 605.259583
1739.961182 1169.842285 471.751923
1794.299927 1078.518066 310.480347
1685.128052 1249.648315 269.144073
1793.955811 1086.677002 310.784698
1686.489014 1240.149048 452.746246
1621.035645 1363.607544 345.376648
1828.812378 1057.324219 364.168243
1934.602783 1154.031738 424.334808
1653.646729 1293.448853 416.401062
1624.124878 1321.385620 422.216278
1783.288086 1181.695313 543.864380
1753.812988 1232.891113 509.049744
1760.688477 1165.705200 321.836884
1789.886475 1088.159546 415.041870
1648.932129 1366.649658 516.923279
1848.078369 1085.585083 447.695831
1805.665771 1070.879639 389.928253
1843.256226 1097.864258 225.056351
1936.581055 1158.195679 339.591187
1991.412842 1193.251709 223.563461
1821.213745 1201.694336 489.145325
1805.528320 1094.802612 341.243988
1665.873779 1281.649780 391.847351
1594.371826 1396.431152 500.478638
1892.188965 1217.044312 528.352783
1811.328247 1084.308716 455.848785
1686.845825 1257.363647 334.406158
1744.563110 1145.557739 435.254517
1845.354858 1190.160400 491.777893
1647.813232 1266.450439 470.894958
1962.403320 1208.238037 544.221252
1722.556885 1208.818848 492.078339
1815.413452 1085.214478 298.900146
1901.941162 1126.488647 485.539215
1754.400391 1119.999512 385.257446
1806.699951 1107.768188 239.423645
1590.803833 1395.448730 475.622620
1680.066528 1369.823853 516.404968
1884.579590 1099.722534 428.135834
1876.385498 1099.365112 359.771881
1819.325806 1191.670044 559.553894
1819.259033 1182.787842 537.441040
1964.434937 1175.843994 429.928772
1720.203369 1208.280518 220.037460
1991.649536 1170.641357 289.347687
1777.654663 1117.140625 440.704163
1964.161377 1139.934204 219.176163
1622.178467 1353.136597 519.732666
1628.364624 1332.677246 235.236282
1785.587891 1092.116333 352.378479
1761.773560 1198.414307 321.981720
1588.783081 1349.816895 449.976044
1899.703735 1120.425293 376.245575
1560.266235 1413.348511 466.832275
1583.004883 1387.790161 413.590454
1787.955933 1173.025024 511.371399
1904.468994 1128.024292 502.286041
1932.972412 1111.826538 513.032349
1805.935547 1227.603271 564.307678
1747.087769 1225.830933 361.137054
1723.326294 1210.614990 383.744690
1646.190796 1305.761230 387.871063
1892.998047 1114.590820 418.029785
1614.974854 1341.844727 392.897583
1703.009155 1191.989380 214.373047
1839.442383 1067.569092 429.984833
1894.743286 1090.200562 221.429276
1764.333984 1143.023071 314.507172
1932.736084 1143.854980 372.522675
1993.898193 1181.956543 288.325409
1682.978149 1253.624878 244.212738
1739.087646 1193.320679 380.664368
1741.861572 1178.521851 436.090393
1807.444580 1177.565552 623.507690
1807.015137 1143.629517 493.254639
1689.698242 1240.575073 430.212463
2021.815308 1209.541992 299.310455
1664.378052 1277.109619 235.944778
1574.049194 1349.932617 205.947983
1774.970215 1206.435181 509.542877
1823.968262 1061.089478 259.046844
1757.683716 1132.456421 344.380035
1797.867554 1194.401489 546.070557
1598.296875 1331.719849 440.675659
1785.247559 1106.609497 286.393585
1828.164795 1082.182739 474.259094
1803.558716 1175.347046 599.365356
1695.945435 1251.039917 403.505402
1783.625610 1204.356567 552.436646
1875.399658 1063.628784 218.994400
1587.886841 1355.130859 234.903519
1587.868652 1435.223877 239.267288
1860.492188 1302.923462 480.693512
1812.516113 1188.553345 507.969116
1851.837646 1079.723022 324.577362
1609.767944 1359.481689 480.325287
1561.429810 1412.963379 437.631165
1936.885254 1130.054321 256.787231
1945.853760 1170.872559 404.113098
1605.240112 1345.193115 425.324799
1748.490601 1232.237061 380.759552
1554.600464 1421.769531 455.919708
1617.085693 1344.282104 263.916992
1605.964600 1462.179565 350.306824
1554.945068 1394.539917 324.850739
1799.980835 1189.466797 569.221436
1913.787720 1128.101929 379.518921
1661.499268 1274.344971 209.213165
1782.906006 1098.623901 386.638824
1903.215332 1174.977539 525.164673
1710.053467 1202.923828 475.658203
1769.586670 1205.525879 484.060669
1735.435669 1175.761963 471.435883
1938.323242 1154.306641 424.275116
1601.109375 1325.400757 200.439529
1652.215820 1304.588013 493.862305
1916.433960 1183.954834 535.077393
1754.036133 1135.788818 435.889252
1592.124023 1388.171753 533.649109
2048.178467 1231.309204 349.843262
1791.414917 1184.370483 561.633972
1890.092773 1123.805542 351.680176
1674.652222 1267.298218 314.012054
1745.552979 1145.858887 388.744415
1834.932251 1089.089722 481.534546
1833.261353 1199.592651 504.241974
1854.543945 1081.661011 226.445145
1929.123413 1144.234131 259.151001
1763.058472 1127.926147 341.136230
1800.871582 1099.964722 487.074677
1651.788086 1302.113403 338.663727
1790.584351 1093.649658 462.611267
1974.038452 1179.160889 372.979309
1770.907471 1127.098145 386.385315
1689.893677 1249.165039 510.296814
1781.764526 1134.973755 480.745087
1939.691895 1161.999512 352.014343
1730.201050 1196.220825 261.311646
1760.212280 1143.328979 314.294739
1792.028320 1179.033691 481.137329
1766.200195 1134.929443 465.261169
1697.726196 1241.139038 419.219635
1592.655029 1372.951050 323.794067
1819.273438 1190.671265 572.865845
1626.973267 1333.378418 205.739670
1961.742188 1143.075195 489.366882
1819.515625 1174.366333 617.563049
1883.255249 1219.752930 538.231506
1920.165527 1133.961914 492.966766
1849.352173 1140.393066 499.447052
1598.834961 1351.033325 345.054779
1686.277100 1215.240479 226.250839
2060.227295 1240.774292 237.243500
1786.625366 1094.109009 418.753448
1791.567993 1091.499512 417.739532
1800.445190 1129.699463 217.736633
1619.095703 1363.068604 534.298706
1938.027344 1145.510742 286.720184
1780.765625 1102.345703 323.199463
1610.369873 1340.556030 397.959381
2014.935059 1221.433594 444.704102
1862.670288 1093.338135 393.851074
1797.265625 1078.548828 366.803406
1603.547729 1440.266357 493.941437
1689.109375 1253.522339 385.662659
1623.107666 1476.496094 401.292175
1952.717163 1170.897949 338.247742
1685.731079 1254.471558 430.878082
1661.747070 1268.813477 283.825012
1620.745972 1329.107666 394.185242
1903.877319 1195.587646 541.615601
1789.514404 1211.812012 539.141174
1841.825806 1038.309204 249.357773
1909.116333 1197.128296 508.951630
2011.596680 1205.703857 245.745529
1794.709595 1092.653564 394.077789
1721.597412 1218.705444 500.426941
1693.102783 1241.199097 413.523529
1645.489502 1289.746948 231.320633
1927.984619 1153.897461 360.434509
1630.092773 1307.504150 449.202393
1609.160889 1344.986694 254.076462
1607.112183 1341.123047 506.630127
1681.989258 1253.696655 384.020569
1959.854004 1191.673706 499.748932
1857.759155 1046.304199 224.237747
1720.648560 1197.817993 460.171997
1800.774170 1189.242676 597.843689
1598.711182 1361.413330 515.276550
1684.555786 1237.188354 485.323517
1649.775269 1303.527710 501.536255
1623.552002 1306.741577 464.073303
1873.962769 1119.199341 493.983948
1659.254028 1323.180176 274.308563
1706.791382 1237.893311 281.794037
1689.042358 1238.437378 241.112045
1837.322144 1083.305908 399.986389
1919.116821 1117.778076 284.682800
1837.146484 1056.900757 284.471619
1634.936401 1346.930298 502.850433
1978.161377 1176.311890 341.590637
1704.719727 1215.765259 484.883209
2003.098145 1205.722168 323.756256
1801.491699 1076.561768 318.118713
1849.832886 1195.669189 496.207092
1961.455200 1168.909424 458.032990
1804.462402 1115.679077 492.975830
1957.369141 1207.398071 524.184875
1901.952393 1128.399780 417.924927
1794.972168 1077.755005 355.384796
1852.551270 1115.384644 489.079041
1795.875000 1101.851929 474.363098
1689.935181 1259.872192 324.061584
1937.696533 1144.130737 263.522919
1885.621826 1191.638916 572.729919
1808.237183 1168.500854 551.174011
1834.521362 1071.859741 348.280884
1801.202271 1078.811401 301.375824
1796.199463 1084.135986 456.177094
1952.516479 1154.970703 318.319702
1777.740723 1120.637207 445.994232
1930.794189 1184.890503 495.341583
1714.346680 1208.990967 296.790710
1685.841431 1267.843994 500.176392
1603.037964 1344.754761 382.830414
1936.271729 1169.660400 498.685394
1765.806763 1116.977661 425.608154
1589.228638 1355.373169 463.477081
1755.844238 1197.863892 312.350525
1629.223877 1474.559448 310.084045
1609.828613 1383.305176 507.863800
2022.266602 1207.542969 410.376434
1631.770874 1327.955200 310.622223
1815.431519 1073.299561 265.191284
1718.111084 1218.908936 378.287201
1809.274414 1060.284180 375.545197
1660.748047 1281.719604 276.541931
1568.489746 1398.702393 352.300354
1739.523804 1212.693237 318.507965
1793.327148 1174.470825 594.313599
1782.516602 1099.333252 321.656433
1836.617065 1067.239258 315.993591
1851.666748 1167.051514 496.178009
1784.395386 1126.988159 286.390930
1738.704712 1184.534790 257.560852
1735.224365 1190.100708 215.514542
1837.295654 1083.678345 467.983368
1560.657349 1405.486938 478.358612
1698.649170 1243.129517 407.054657
1709.207520 1207.746704 479.180817
1849.856079 1083.473877 409.172211
1921.702881 1137.612915 421.550751
1588.128418 1359.660400 219.324265
1638.535767 1311.019897 252.734756
1791.591797 1088.165894 356.122009
1884.410889 1102.175293 328.091064
1736.473145 1191.288574 473.014740
1677.670532 1321.066284 499.252167
1719.589478 1222.278198 515.233215
1811.883179 1099.288330 226.166382
1926.725952 1155.629395 396.486084
1612.537476 1345.911987 298.040771
1766.467896 1119.306885 452.061432
1676.075806 1260.967407 370.720093
1763.562134 1217.424927 488.592377
1631.708374 1317.741943 229.418549
1746.287720 1169.086426 383.469543
1941.494141 1156.814941 440.069397
1721.855469 1215.406616 280.831604
2017.613892 1205.127930 256.139648
1765.986084 1117.396729 347.973419
1677.465942 1261.251587 227.966949
1763.192505 1132.170898 330.773346
1878.747437 1194.710571 595.336975
1651.344360 1498.057251 399.685638
1826.876709 1197.349487 592.912170
1685.598633 1521.209961 356.265686
1607.526001 1365.447021 526.913513
1607.639893 1374.010254 268.683289
1804.646729 1176.911377 580.882568
1960.120117 1162.400146 334.229675
1920.070068 1093.295532 219.647903
1680.007813 1331.082886 511.521240
1838.700806 1192.079956 543.049866
1587.810059 1349.110962 420.909882
1831.519165 1059.474487 280.128540
1747.210693 1160.384277 448.111298
1753.645874 1132.122681 410.728180
1578.789551 1396.412964 382.205353
1921.077026 1139.425781 383.696075
1724.849243 1216.102417 276.292847
1631.050903 1394.971802 546.266296
1789.120972 1097.980591 317.467316
1921.692261 1127.409668 239.326797
1667.713501 1301.902710 403.635223
1903.878174 1169.931641 566.538086
1785.994751 1115.467773 403.904175
1736.404053 1195.860474 370.527069
1810.626465 1231.288940 521.315186
1840.813843 1078.296631 361.333191
1894.496948 1086.653687 479.000305
1685.983154 1397.091187 521.622009
1646.973511 1312.508789 489.880524
1907.755981 1198.342163 553.013489
1665.957520 1248.321167 206.972565
1694.911621 1247.136230 273.751068
1791.052734 1106.871948 262.697479
1679.224976 1257.466797 338.269012
1798.792603 1089.355713 296.612244
1622.868530 1312.519165 458.219971
1827.453125 1201.456665 617.298462
1870.389648 1100.354004 449.934570
1988.264648 1181.524170 234.513245
1732.871826 1177.355103 468.778412
1929.373657 1180.288452 503.116272
1832.317505 1210.799561 544.176880
1640.535034 1309.628540 254.907776
1797.337646 1102.262573 487.774170
1962.946167 1221.728760 502.934937
1874.599365 1203.756348 536.665527
1769.486694 1113.245361 392.566406
1927.667114 1117.246094 477.445618
1651.859009 1280.938965 449.315674
1709.331787 1210.877563 481.849518
1944.020386 1131.334961 238.179077
1771.085205 1129.081787 361.186279
1793.917236 1179.986084 537.181396
1940.162476 1193.049194 523.285156
1943.241211 1200.572266 572.194763
1692.458130 1533.212036 443.213135
1630.694092 1355.542847 498.798889
1900.424316 1192.428101 543.778931
1800.914185 1188.675415 508.351044
1838.639771 1056.280273 378.992035
1805.609009 1070.705933 349.139832
1870.731201 1114.557129 487.413422
1692.834717 1249.219971 379.600098
1616.537598 1331.553711 473.675690
2030.025269 1223.026733 428.615662
1574.290161 1393.301147 465.173492
1753.340698 1138.828735 456.860107
1762.600708 1211.973877 604.885681
1933.700439 1150.193359 362.019287
1901.725952 1180.622314 496.919525
1797.564575 1180.414185 571.177063
1714.020020 1220.360352 495.784760
1705.220093 1232.780151 270.770233
1793.147217 1176.707031 586.708740
1697.857910 1240.516602 318.293335
1712.755859 1212.402588 247.079483
1819.339966 1077.505859 227.658371
1941.181885 1166.334595 438.906952
1802.032715 1177.764160 613.487427
1724.080566 1306.967529 514.304504
1847.512207 1081.942139 292.729279
1837.758179 1058.230225 237.052536
1569.137207 1390.997314 420.506012
1828.238403 1204.347290 533.245728
1749.351318 1299.840942 512.459167
1618.770264 1326.754028 302.907410
2062.608887 1237.650879 292.106476
1827.436401 1082.308716 426.892700
1879.685669 1099.261108 298.190460
1734.349365 1181.142212 259.764587
1588.200928 1375.304321 422.358154
1908.004761 1167.229370 506.185547
1816.104126 1056.835815 324.200409
1743.062988 1229.204712 517.860718
2047.317505 1228.006104 274.408386
1885.303711 1078.515503 486.115173
1621.044189 1339.638062 452.269196
1836.731812 1183.432983 489.161896
1841.554077 1074.542114 252.666000
1716.136353 1213.513428 226.623825
1783.921875 1117.883789 422.579559
1662.601440 1325.135254 508.294556
1609.661255 1421.862915 513.712219
1747.204102 1164.163940 440.415131
1613.802124 1369.646362 261.149872
1807.752075 1094.024658 227.710327
1598.266968 1373.434937 354.794586
1664.392334 1258.226440 464.793854
1626.256348 1320.548218 235.687012
1906.942871 1191.956543 502.222321
1683.305298 1256.208374 252.562134
1749.888062 1153.308594 460.741119
2008.800293 1191.484985 358.207184
1733.180298 1201.469604 257.575012
1687.219849 1236.060181 441.883850
1789.148315 1093.422241 360.634979
1806.650635 1100.186279 236.571365
1651.135132 1332.105103 287.777069
1701.813843 1230.376953 376.623871
1878.449585 1101.909302 436.166138
1868.144287 1073.358398 316.315002
1693.971680 1240.211914 490.952057
1900.490723 1183.995850 551.331116
1590.601685 1369.018799 266.605499
1891.409058 1186.390137 520.864136
1605.338135 1344.763428 216.309021
1839.936401 1086.629883 480.720459
1560.505005 1380.022705 433.723938
1724.481934 1210.843384 494.973297
1652.380249 1374.616455 523.400574
1749.295410 1159.712646 446.603394
1999.374512 1187.941772 293.797577
1732.464600 1223.229858 288.780182
1782.088135 1195.076172 543.906555
1805.437988 1190.278320 620.656006
1796.762817 1090.662231 462.541260
1575.614746 1368.994629 444.541138
1945.665161 1163.371704 317.711487
1597.631592 1338.601440 420.354431
1669.938477 1250.170288 457.520264
1700.550293 1234.728516 402.888550
1961.012085 1150.407104 302.583130
1640.648315 1306.482666 267.049225
1608.302979 1373.903320 324.996643
1828.792236 1146.696899 493.406158
1759.824219 1159.678223 311.452850
1651.850952 1269.185547 462.547485
1862.418457 1076.273560 237.199997
2025.484009 1215.993774 371.941040
1572.620850 1394.208008 477.146118
1824.160278 1191.306274 570.165039
1908.588867 1150.676147 490.878571
1795.213623 1125.923462 487.742828
1723.759888 1218.083984 298.037445
1747.448486 1158.784180 353.488464
2044.756226 1245.656128 338.266327
1790.408325 1190.272339 605.016785
1984.173462 1186.175659 360.262238
1923.757568 1122.418457 301.160919
1780.670776 1196.377441 544.864380
1602.064697 1380.105713 332.550690
1827.832031 1065.088379 279.230194
1777.082520 1217.845337 498.148499
1627.426147 1334.996948 272.770905
1663.868774 1294.968018 478.479889
1627.189941 1324.849243 214.293762
1713.153442 1192.778809 466.519928
1850.927612 1081.533203 227.128326
1802.196777 1158.299683 490.269501
1779.043579 1182.427002 579.680542
1869.936157 1091.658325 485.533997
1656.161743 1276.056763 483.953339
1914.347168 1108.127197 476.112793
1809.814819 1062.306396 369.165039
1789.404663 1090.148071 394.911530
1746.107544 1194.415405 314.896149
1962.780762 1167.098267 370.989166
1804.569702 1075.559570 396.722473
1784.822998 1174.145996 494.752899
1589.170898 1352.127686 238.571915
1974.313477 1170.861328 301.116486
1888.035767 1105.268188 288.519684
1754.364990 1157.828369 362.562805
1781.057373 1101.623657 436.515198
1807.192627 1066.595825 371.319336
1921.936768 1138.373413 449.222900
1849.836548 1094.934082 485.757813
1603.220093 1361.072510 308.100037
1842.808105 1091.482544 495.624939
1681.566650 1240.331665 465.576935
1916.820190 1118.912231 357.378876
1809.693115 1178.384033 555.388367
1690.834106 1251.589355 394.716187
1933.315186 1132.044189 489.062134
1812.196899 1189.750854 540.149658
1661.739502 1279.740234 255.341812
1888.150269 1108.526123 492.592133
1709.341675 1209.312378 472.915924
1950.460327 1160.795044 374.510620
1694.981934 1253.579956 270.369232
1805.261475 1101.201660 215.433243
1924.800415 1142.507202 447.939270
1634.879150 1402.610718 535.583557
1823.967407 1183.345459 527.406067
1767.983887 1206.297485 515.132813
1728.184814 1224.940918 507.765045
1818.880249 1158.232056 491.258453
1698.021606 1241.535645 316.895020
1930.290894 1132.977905 494.638092
1805.547119 1166.165649 552.944763
1652.955811 1356.580811 322.216675
1805.716675 1170.123291 514.508118
1850.822876 1065.946899 373.256805
1826.951416 1204.087402 570.705017
1784.230835 1173.263306 546.781982
1635.071411 1302.210205 235.930176
1613.139404 1323.473267 457.903198
2040.827148 1212.364136 318.063232
1718.534302 1205.503662 470.491180
1682.672485 1266.304565 215.190475
1688.383423 1256.528931 213.511810
1578.666992 1363.035156 445.303833
1661.639771 1283.945557 227.589157
1648.181885 1267.187622 461.600952
1867.470459 1081.324829 411.623169
1675.312500 1259.932983 419.168427
1890.937988 1103.033325 367.991394
1762.307861 1166.346924 381.921631
1906.831299 1112.985840 488.272827
1796.401001 1074.861938 385.377350
1783.989380 1118.420532 443.306824
1771.115479 1124.178101 459.952942
1593.051392 1362.084229 469.635895
1836.889038 1208.872314 516.027222
1741.476685 1199.986694 216.361145
1634.579102 1320.952515 205.111435
1839.390381 1055.217529 294.783844
1801.708862 1190.180542 622.623291
1828.315186 1055.383667 335.623352
1617.913696 1320.979248 434.460236
1949.833374 1164.234619 413.512512
1761.882935 1132.308960 461.015167
1910.335571 1127.321533 407.780579
1556.077026 1425.072510 436.779907
1846.956299 1085.415649 331.422150
1822.987305 1197.796265 566.384827
1672.662842 1263.660278 256.445801
1785.664917 1093.100098 395.702911
1978.871948 1182.094727 367.699158
1866.639160 1082.820923 480.540833
1796.799683 1107.755005 393.376129
1942.343994 1130.022827 484.352661
2039.353882 1227.926880 392.297852
1903.698486 1187.223633 579.461365
1832.491211 1053.476929 369.654327
1799.515015 1161.977051 493.959534
1800.542969 1087.631836 454.402161
1650.000000 1286.679321 232.437317
1600.554443 1348.135132 473.915985
1690.734741 1279.562012 273.849060
1609.884155 1348.366699 470.339233
1873.100464 1088.763062 312.469574
1846.445801 1115.786011 491.080933
1568.754395 1385.501709 240.208939
1908.946655 1189.098145 533.263367
1770.294678 1120.628662 459.225128
1983.219360 1165.336914 469.588989
1677.586914 1270.088257 377.431335
1871.620117 1098.220947 346.910492
1916.181152 1124.188110 266.726379
1581.063354 1410.469727 324.350067
1842.403564 1052.592529 226.627014
1897.832397 1112.808350 224.648926
1617.245117 1340.542969 397.518036
1670.751099 1257.549805 482.159637
1694.398193 1250.234985 513.628906
1612.368652 1328.352905 234.869614
2000.905518 1193.322021 335.967712
1746.872314 1183.190308 371.027954
1646.239380 1342.325928 506.467133
1792.902344 1084.767822 351.829285
1793.938843 1084.857788 458.268341
1780.450684 1194.677856 574.921936
1788.605225 1107.436035 402.842316
1820.583740 1100.552002 484.694763
1860.006836 1085.850586 327.057648
1957.946289 1156.061768 238.092972
1765.772461 1170.955078 494.774506
1953.771606 1145.579712 311.605743
1631.024170 1309.765137 469.284210
1667.664551 1270.080688 377.621155
2046.472656 1213.209717 278.101135
1816.828613 1094.859985 468.716522
1578.904907 1383.232544 244.903641
1657.341553 1335.249023 503.369476
1675.717529 1269.381836 284.191376
1799.261841 1107.642822 460.712585
1810.101318 1189.972656 586.668701
1808.162598 1077.742065 461.299561
1623.272095 1403.239746 516.762512
1660.991577 1322.106567 255.887955
1672.452271 1264.784424 498.692108
1644.871216 1319.923462 485.383362
1572.650757 1391.702271 473.183411
1763.491943 1168.032471 337.541656
1740.706787 1161.801636 233.062134
1614.816772 1310.646484 200.279846
1634.968872 1354.921753 523.840576
1939.639526 1143.845215 230.836792
1846.756348 1076.209473 337.644989
1635.821411 1303.656128 471.232147
1739.225098 1142.591064 380.652802
1577.152100 1394.812744 321.527954
1682.633789 1247.900757 448.283325
1933.986938 1138.506958 312.202850
1818.497192 1194.840820 612.694397
1703.330322 1223.728149 432.816498
1636.472778 1305.209839 446.351868
1778.998047 1113.254517 366.100708
1659.622681 1293.584351 502.345612
1837.708496 1212.098633 491.436279
1812.822144 1065.877075 435.586517
1786.197266 1273.524902 521.372375
1623.003784 1316.809448 248.713715
1985.982910 1182.794312 311.339447
1876.067505 1102.865967 355.962067
1793.062866 1093.471680 452.709229
1818.829346 1091.872803 477.246124
1870.871582 1095.392700 489.535217
1571.813721 1412.669922 472.533844
1667.351563 1261.815430 215.039017
1930.499268 1134.816528 229.669647
1745.382568 1173.109863 399.250854
1793.729004 1179.958984 591.309387
1732.233765 1231.865723 495.835541
1774.736450 1110.599121 438.739868
1610.152954 1348.193604 258.337646
1929.668335 1140.920532 344.341034
1924.317993 1167.273560 558.611694
1890.406616 1107.616821 300.770020
1829.356201 1073.223999 440.863739
1593.158569 1428.690796 355.830261
1920.335327 1118.271606 473.123688
1641.070557 1307.042480 270.955048
1697.259766 1367.819946 509.395233
1759.749268 1142.326782 355.134827
1760.575195 1216.131592 593.466614
1654.429810 1290.211670 443.658447
1596.026611 1359.725220 402.777802
1631.188721 1383.946655 527.742310
1736.288452 1233.244141 499.198639
1992.521973 1191.548340 450.957275
1923.622437 1141.677002 387.378662
1887.892944 1110.501587 368.386749
1701.877319 1249.770264 498.493835
1968.542847 1172.787109 372.730896
2047.527344 1231.377075 273.606567
1829.542480 1078.877197 370.245575
1942.184570 1127.691650 474.040985
1850.545288 1049.395020 227.187393
1680.652832 1251.760132 502.829407
1803.612549 1166.447266 545.780151
1595.133057 1302.470093 209.412598
1955.035400 1152.680054 385.188049
1630.066895 1348.206665 517.325073
1970.887451 1166.552246 408.584564
1675.508423 1274.044556 348.868530
1603.536377 1381.246094 485.074280
1605.800903 1339.339478 465.546173
1723.358643 1205.578857 320.981995
1676.728027 1269.587524 422.931671
1871.106079 1084.963013 418.237885
1746.035034 1135.568726 366.412903
1912.593750 1196.391602 568.844238
2033.905884 1184.385132 468.454071
2004.382813 1206.827271 436.821289
1739.016479 1196.812500 428.234894
1947.210327 1148.916626 232.274750
1750.091675 1198.948486 491.061554
1967.597534 1175.596313 406.040771
1885.812988 1116.101929 418.433167
1675.321899 1328.939331 513.534668
1550.969604 1424.177368 418.309906
1630.203979 1306.177490 464.111877
1960.162964 1156.653442 282.291260
1842.649658 1073.150513 261.011963
1825.995361 1201.188965 533.359253
1769.701172 1126.215820 432.341522
1791.124268 1097.355713 456.319763
1649.228394 1306.584717 497.599243
1815.240845 1190.591064 565.973999
1624.924438 1401.126587 537.641357
1703.977173 1325.017456 524.494751
1679.660522 1265.768433 401.592285
1766.030396 1138.405762 278.097443
1790.425415 1083.740234 387.313507
1642.426636 1382.891602 341.044861
1755.334473 1247.846436 496.932434
1588.019165 1371.176270 205.687210
1796.965942 1087.595459 475.517914
1970.356323 1209.203979 510.923615
1722.027344 1284.222656 500.409729
1560.943726 1402.532837 393.259796
1812.999268 1077.200684 461.037506
1703.649780 1246.413330 485.809662
2030.553711 1236.934937 379.646851
1765.095825 1141.360107 349.069244
1749.209229 1188.761108 477.016846
1790.267578 1216.129883 517.456116
1842.745972 1081.078613 329.452118
2039.949341 1208.891846 226.501617
2023.432983 1208.924072 308.476990
1811.215088 1083.973999 226.021118
1967.172363 1168.753418 317.270935
1700.609619 1230.206909 407.790405
1904.953491 1126.262817 377.079346
1806.139160 1105.508789 474.082336
1686.940918 1236.615112 485.071350
1847.895874 1135.831421 491.660492
1935.446045 1151.133301 442.555969
1837.931641 1071.633423 243.099686
2015.136353 1215.737915 497.809662
1898.336548 1193.151611 527.203857
1956.944458 1176.969360 512.450500
1686.587891 1249.291504 246.704376
1785.752686 1096.360962 337.271271
1608.726318 1342.358276 489.214417
1598.097168 1411.468994 515.137451
1791.824341 1098.646240 463.710175
1565.831055 1395.432861 407.539459
1965.068848 1160.890747 308.050201
1843.366455 1081.348755 324.829224
1780.046753 1105.244873 431.159882
1940.858154 1149.726318 378.672089
1813.535645 1078.598633 451.666565
1622.819336 1422.713013 541.058899
1670.375122 1261.521729 473.182312
1896.498779 1097.354492 295.924652
1821.400757 1110.652832 489.977356
1990.851196 1203.603760 495.523834
1773.823608 1172.925903 291.355927
1609.966553 1346.077515 257.020203
1598.699341 1382.947754 462.268616
1754.690674 1198.730469 494.347595
1843.898438 1086.049072 477.756256
1750.028320 1179.280884 232.001465
1762.949341 1120.723511 351.581818
1889.914673 1102.136963 324.202026
1866.686890 1106.325439 493.432190
1826.411743 1204.121704 574.593079
1753.910400 1157.075317 369.168213
1760.144653 1209.640869 622.076233
1882.286987 1145.358398 502.567871
1818.707764 1064.192261 278.009796
1574.868408 1382.242188 493.629395
1829.894043 1049.341431 292.121613
1643.307251 1305.019775 331.515503
1801.481201 1094.743408 477.603546
2049.140381 1228.011475 288.303192
1918.924316 1125.145508 261.675629
1882.206787 1200.257202 550.182495
1829.577393 1072.228271 364.796844
1751.790283 1175.954224 426.270355
1754.005127 1144.747314 447.379120
1822.418701 1109.928589 486.054230
1821.138306 1192.469727 587.657288
1715.721680 1235.920532 232.926773
1778.144287 1186.345337 499.436035
1820.046387 1185.979004 589.154053
1630.162109 1322.612671 320.276154
1825.985840 1194.306274 573.170044
1883.566406 1111.433105 399.689636
1745.074829 1171.695557 279.585968
1728.487183 1197.073242 215.475845
1777.817993 1132.277954 216.616501
1769.114014 1208.210938 499.634613
1618.178101 1329.286255 233.499588
1858.469360 1110.562988 487.726959
1777.003296 1192.656128 578.507874
1743.552002 1170.219360 445.708862
1985.610229 1182.635498 338.587524
1651.806885 1307.838501 504.435364
1752.147583 1176.308350 352.593964
1624.961426 1322.503784 443.433075
1959.506104 1133.595215 483.435699
1768.031738 1139.422607 257.416840
1750.479492 1121.175537 340.091522
1710.406006 1226.731323 376.101135
1636.454712 1319.563232 498.843292
1747.931763 1178.670654 233.754883
1854.788208 1087.194458 383.583008
1617.105713 1353.187866 473.391754
1869.505737 1088.245483 460.950104
1720.103271 1207.050293 427.008057
1828.813477 1083.752686 220.113586
1821.380737 1062.414917 295.454437
1753.213379 1157.811646 249.195160
1621.375244 1341.990479 227.821655
1740.134888 1170.348145 250.825821
1585.086060 1375.676147 289.490448
1805.999146 1095.279053 336.694946
1661.799438 1280.826294 434.742126
1566.732666 1383.039917 247.917175
1913.759399 1127.127808 320.138000
1657.000610 1291.530273 407.070648
2042.390137 1218.769409 377.478424
1788.812378 1106.479370 258.952881
1607.413940 1355.179688 334.519257
1706.691284 1228.926514 466.426239
1787.219360 1212.023438 522.807190
1852.699829 1151.393188 493.331085
1804.281372 1070.882080 331.318787
1781.690674 1107.258423 461.079041
1808.556519 1073.785156 299.027161
1992.388306 1183.691895 282.007019
1617.437134 1335.164551 235.056656
1558.353394 1407.593994 426.746094
1710.406616 1233.595825 279.086212
1968.146729 1175.769531 494.430328
1767.139282 1133.501099 283.095978
1792.450073 1104.867432 468.932281
1798.036377 1191.204224 595.573181
1742.935547 1191.168579 344.516907
2016.936646 1224.742676 431.801086
2001.612671 1190.592896 302.105377
1576.299194 1389.461060 361.575928
1645.665649 1308.792603 204.602341
1783.180176 1114.024414 450.347046
1562.927612 1391.180908 350.445740
1706.647339 1210.132324 466.314117
1647.203491 1328.753296 506.508667
1611.973877 1361.426270 269.520630
1767.052368 1157.110107 298.296204
1849.898193 1084.996216 445.354095
1760.176392 1123.702271 406.729919
1684.874756 1255.805664 353.384796
1804.817261 1066.159912 385.085938
1920.467773 1117.328125 306.878754
1880.492310 1096.721558 304.559540
1928.150635 1185.368408 500.376526
1784.312988 1117.981079 481.236206
1830.604248 1202.121826 618.038940
1759.426758 1154.129395 477.212708
1766.212891 1143.685425 476.584229
1762.874512 1212.035278 297.823730
1611.581665 1394.599487 504.841919
1732.983276 1179.680176 252.373398
1578.710571 1382.725342 415.717743
1622.611572 1357.817749 527.066650
1665.232544 1271.198242 311.628326
1781.606323 1114.090454 428.127991
1856.203369 1151.641602 489.882843
1818.501831 1190.847290 580.161316
1932.672241 1181.589600 490.913361
1693.464722 1226.034790 249.383301
1834.064819 1066.797607 329.853546
1577.197266 1381.342896 487.245392
1730.487305 1183.375977 456.465790
1809.149902 1075.134521 434.590851
1810.698975 1074.579468 289.199554
1651.048828 1325.361694 414.071960
1614.930664 1335.953003 200.790298
1761.578613 1152.716919 475.976196
2014.374512 1192.117065 315.573578
1830.712891 1086.318237 498.971558
1644.731689 1289.265747 473.491608
1894.292847 1118.679443 420.046265
1600.018188 1425.042725 303.666443
1724.339722 1203.614136 375.380402
1852.215210 1088.124756 485.071930
1853.833252 1092.812744 502.957550
1772.551514 1130.188354 485.488434
1654.105713 1301.437256 239.040833
1573.035034 1410.850464 308.271942
1796.213745 1103.641968 402.891632
1782.861084 1181.478271 525.157410
2085.284668 1221.472778 229.635452
1663.494751 1272.638794 246.275742
1794.096313 1082.468750 357.032471
1933.772095 1196.293457 515.170837
1888.433472 1085.869019 222.071182
1697.836304 1220.270630 228.107544
1723.286255 1223.850708 306.495331
2039.992554 1226.878174 322.424408
1592.656006 1362.196045 475.966309
1788.408447 1175.794312 517.697327
1635.465942 1354.588623 517.399475
1588.515381 1366.482544 501.479645
1556.309570 1399.716064 275.091278
1617.925171 1311.512695 434.972015
1810.203857 1086.500366 451.376373
1725.684570 1318.134644 522.140381
1795.259521 1177.833740 560.020081
1857.534424 1074.118286 472.917053
1944.597168 1147.397095 221.644455
1703.043335 1237.707397 447.050751
1630.583008 1340.460327 430.725922
1727.266113 1198.531372 222.025864
1647.322388 1477.788208 215.600662
1678.286255 1250.725830 256.832397
1686.864746 1242.077515 300.036743
1801.373779 1082.256836 297.703186
1899.411377 1087.140259 478.719757
1667.562744 1258.435669 456.686310
1660.408325 1297.743286 416.730804
1592.851807 1351.998291 463.994141
1769.958984 1118.381226 330.873322
1636.137085 1307.800781 234.684555
1785.078247 1100.307251 469.600403
1621.077515 1360.980469 502.959137
1710.365479 1222.671265 348.374908
1837.152954 1195.832886 490.905304
1647.261719 1288.721191 255.636963
1686.989014 1248.407715 335.456238
1907.153931 1104.401001 489.378998
1617.640625 1325.758911 467.475159
1836.382080 1070.740601 456.243347
1830.841064 1047.900024 305.299988
1738.963013 1230.062256 510.060699
1786.957153 1085.476074 370.058319
1792.854980 1289.656250 525.992126
1794.900757 1081.540039 436.330017
1786.309570 1193.953369 343.213898
1611.749146 1362.016479 376.581604
1723.518555 1211.692749 436.511871
1877.437744 1087.292480 249.959061
1734.476440 1186.613525 465.829834
1864.858032 1076.130737 266.771149
1862.461182 1087.888916 315.465576
1856.796875 1082.397583 331.345734
1576.997559 1417.462158 488.738190
1997.790161 1195.547485 381.205994
1697.752808 1254.868896 257.626099
1723.836060 1237.346436 386.590485
1810.143433 1163.398560 526.652893
1557.563843 1393.912842 404.379883
2021.909302 1203.078003 465.049591
1893.462891 1089.978149 490.692230
1585.044434 1387.171997 392.881866
1785.571289 1202.483154 527.269226
1783.169067 1109.626953 309.497192
1813.233398 1096.927490 277.109985
1730.735840 1196.100342 230.056732
1986.505981 1161.144897 474.338074
1803.587891 1177.191772 595.278625
1813.561157 1100.782715 485.639893
1752.217773 1133.974121 344.253998
1629.197021 1491.074707 472.785858
1704.600342 1214.815186 480.102142
1611.136719 1328.875122 248.924576
1811.565063 1064.000732 309.233490
1676.357056 1250.278320 472.950317
1676.631958 1272.853516 304.837982
1607.758423 1339.314941 199.880569
1615.450928 1346.310059 476.969910
1647.729492 1302.927979 286.378845
1781.692261 1103.186157 433.924225
1753.783203 1137.808716 359.630859
1792.853638 1199.148926 527.942139
1642.915283 1313.385742 449.950714
1846.601929 1065.010010 324.079468
1825.585205 1179.964844 504.292847
1980.658447 1182.513306 294.658081
1717.513428 1221.215698 213.928696
1696.587646 1251.207031 291.016815
2006.655029 1196.945068 292.510254
1853.159546 1080.559448 478.422821
1923.483032 1182.980347 488.884186
1615.470215 1363.466064 507.799927
1916.178101 1182.768921 509.906311
1984.884888 1181.406616 345.900787
1758.952637 1208.386475 600.365051
1711.549561 1207.269531 272.606689
1565.230957 1394.536621 460.294403
2002.504150 1202.852295 363.987183
1599.966675 1341.098877 457.991211
1716.764771 1269.295898 509.512268
1689.109253 1249.483643 499.335815
1626.561890 1385.509888 529.128113
1786.407593 1109.204956 278.208405
1750.900024 1160.977295 432.675568
1792.143433 1184.628906 571.058411
1979.049316 1140.336426 229.058670
1978.492920 1156.850830 471.752258
1725.939941 1168.285400 215.650055
1769.555664 1222.758545 502.630920
1647.262207 1291.577271 223.647552
1947.109619 1152.103882 233.375778
1747.340210 1161.642090 451.174500
1561.848633 1410.226440 396.639832
1725.636353 1215.178467 223.187454
1900.129761 1172.379272 492.920593
1695.992676 1238.599609 229.123978
1975.913818 1181.668701 384.678070
1666.254395 1284.078125 353.912720
1956.705444 1162.351196 371.319366
1788.102417 1126.113281 217.766571
1575.664185 1368.888428 438.827881
1939.447266 1153.532959 438.355225
1688.782715 1252.538574 330.333801
1653.157471 1301.898804 468.060852
1673.144043 1278.035645 319.881653
1844.918579 1077.637695 372.352203
1778.441895 1182.066040 569.679199
1760.761230 1139.673462 379.236908
1730.292969 1202.080444 221.971283
1684.950928 1264.878906 318.548798
1586.616577 1364.936768 338.930328
1808.625366 1067.368896 387.509949
1953.557251 1154.759644 308.723938
2004.774780 1204.842285 428.448975
1830.037109 1200.493286 570.177368
1757.477905 1131.057861 359.508759
1958.625732 1145.179077 227.495041
1851.043335 1076.932007 314.045959
1720.838867 1257.489380 498.743164
1617.371094 1358.095093 516.800049
1779.174927 1135.696411 233.394257
1721.775513 1222.747559 502.037964
1904.367554 1115.089600 329.781647
1685.148804 1267.292725 330.404144
1656.766113 1317.726929 497.074463
2029.655884 1208.557129 373.937805
1871.764526 1092.779419 291.037140
1580.404053 1379.975098 257.740906
1648.416992 1293.562744 349.417816
1825.363892 1065.426147 298.433228
1581.392700 1376.174316 410.165009
1984.635864 1176.418457 273.148499
1678.280884 1259.813477 217.292542
1777.728027 1239.987915 513.980591
1750.541016 1236.140015 498.610870
1787.606445 1179.184082 581.600647
1786.153442 1175.828735 495.672180
1725.299683 1221.823486 400.562775
1655.367676 1381.245728 515.819885
1659.945679 1285.868896 500.210938
1753.279175 1157.349854 430.078064
1934.371704 1199.171143 534.985657
1675.855347 1259.603516 415.237396
1781.970093 1114.356323 223.620453
1625.043091 1317.120483 227.774033
1731.155396 1384.093384 511.067291
2030.783813 1208.940918 365.429932
1746.853882 1175.270386 406.264252
1834.533813 1052.592163 223.775986
1757.930908 1130.661499 382.892975
1618.575073 1406.709717 525.642334
1860.026855 1104.525269 400.288055
1917.769287 1182.643677 546.713928
1640.690674 1299.189941 422.370392
1687.541504 1238.048340 238.531723
1756.625366 1192.795532 273.460266
2012.238403 1188.623169 471.925598
1654.690918 1309.434692 367.798706
1781.695923 1176.332397 519.731201
1741.701660 1157.870361 450.018066
1690.994873 1246.519043 384.243500
1808.691528 1183.548218 610.382446
1741.218140 1206.565430 478.629517
1794.765625 1088.040039 326.457245
1597.612061 1335.150391 237.027786
1981.639893 1176.404175 309.167786
1790.149292 1083.909058 374.360718
1565.985229 1389.142212 450.912659
1642.103027 1286.069580 466.758972
1858.680664 1083.162964 337.845764
1771.806152 1199.110962 577.013489
1715.301880 1213.364014 386.239075
1690.209961 1240.116455 446.061188
1918.279785 1146.651245 494.704193
1647.151245 1312.526978 207.742294
1952.496582 1149.683472 237.821594
2016.001953 1220.348267 498.251709
1767.309692 1138.775757 278.328705
1690.442749 1244.812134 412.048279
1616.052002 1321.943359 436.756409
1871.464966 1107.106079 433.587921
1766.097046 1127.045288 426.780945
1596.068481 1456.127075 482.312286
1740.878174 1180.160156 296.305511
1584.054443 1373.281982 206.536392
1850.219604 1079.199463 353.612854
1916.050659 1101.453979 484.968170
1823.026123 1083.928223 341.513367
1704.262817 1235.030151 367.463043
1962.410645 1167.964233 370.127411
1672.159424 1316.610596 500.983307
1750.380615 1164.721191 472.261200
1670.306030 1305.945923 326.943787
1909.871582 1102.158325 476.742157
2042.663940 1216.932007 352.145233
1778.738281 1121.450195 290.066437
1786.203125 1115.718750 399.773041
2057.428467 1252.000610 259.328430
1612.923096 1359.681641 471.846497
1780.932007 1098.893799 395.379608
1782.765015 1091.881470 442.875305
1663.830933 1366.322144 515.774719
1850.623657 1089.298462 454.269409
1948.103882 1147.739014 393.424652
1697.608887 1522.702759 267.071411
1723.975830 1401.416138 526.047119
1771.137085 1126.706543 288.194550
1771.929688 1129.134766 321.885834
1771.014526 1132.799316 271.588440
1667.011841 1260.812134 470.557190
2050.986572 1218.728149 230.044846
1833.466675 1201.283936 586.985413
1957.666870 1155.028076 389.070190
1806.205811 1182.878418 619.677551
1606.406738 1323.578369 247.968811
1562.636963 1391.315918 475.545563
1790.197754 1078.444702 350.096985
1795.620605 1123.264160 235.757950
1569.133057 1410.028320 471.059906
1916.026978 1120.732056 250.457153
1790.912964 1172.531494 583.122009
1567.743164 1313.683472 216.730743
1859.440308 1085.313110 338.641907
1601.619629 1360.859009 457.203613
1695.295654 1233.668457 445.911865
1971.164795 1214.304077 521.592041
1659.368042 1285.164795 257.574097
1624.800781 1331.647583 400.903961
1834.486206 1085.239258 226.185165
1780.831787 1284.577271 520.135986
1888.188843 1116.858276 299.732849
1673.917480 1272.642212 297.381470
1696.207397 1272.327271 266.863983
1641.907349 1401.840576 538.745178
1585.902832 1366.709351 218.591965
1695.629761 1267.819336 506.854248
1762.611694 1144.960327 251.945786
1717.830444 1233.342041 519.005615
2029.329468 1214.500854 289.960449
2034.505859 1190.929932 223.567963
1908.895020 1145.886963 510.116425
1940.089600 1170.568481 494.977173
1882.981445 1116.506348 431.065216
1966.164795 1170.947266 365.383698
1759.449463 1129.596069 439.524048
1833.882080 1080.475830 440.336578
1673.217041 1277.005737 406.246033
1728.353271 1202.609497 385.518219
1726.581787 1193.907227 450.515137
1622.744507 1323.467407 414.305206
1812.819702 1073.613770 414.849670
1647.098755 1375.566162 533.652100
1807.346191 1078.266235 301.506409
1780.096558 1102.704834 343.873077
1848.620972 1189.839600 489.609863
1813.356812 1185.316772 488.075867
1568.329956 1379.597046 204.143494
1773.783081 1135.379028 236.827820
1857.222656 1074.842773 278.800964
1648.202271 1297.869873 284.545044
1707.437744 1214.884644 231.703369
1878.014771 1103.102051 418.971405
1592.321533 1358.024292 364.590637
1920.889771 1153.050171 428.770752
2067.074463 1247.621826 231.591934
1674.885620 1254.975098 233.503311
2009.591797 1205.731201 397.282959
1577.366699 1443.093994 459.565094
2028.130859 1209.588135 268.333466
1707.258789 1234.400757 334.365479
1671.906494 1266.102173 336.952484
2011.388550 1213.898682 330.302948
1599.566284 1394.446289 269.219940
1584.927612 1364.724487 418.682281
1600.968262 1420.760132 500.075134
1724.595459 1231.712524 342.590912
1621.875122 1376.776123 515.909058
1911.627197 1116.732788 486.070953
1769.923218 1131.371216 275.477631
1846.754150 1105.478394 492.507477
1572.823730 1390.788208 340.201538
2023.404907 1220.836060 273.041992
1931.012085 1135.042114 291.510864
1590.702637 1351.222656 236.561798
1644.161133 1304.550659 270.984497
1640.745117 1316.816162 271.784576
