ply
format ascii 1.0
element vertex 1330
property float x
property float y
property float z
end_header
1367.430298 1843.219727 -284.301331
1253.303101 1709.289673 -404.992920
1248.791138 1690.627441 -421.027802
1271.310791 1636.909058 -510.818756
1301.535645 1701.564941 -279.156982
1237.866943 1706.317139 -416.893188
1418.740723 1528.761353 -362.896973
1426.927612 1528.615112 -338.809174
1579.921143 1595.587769 -324.118805
1260.168579 1705.130615 -407.807648
1416.690674 1575.399902 -299.234558
1334.219604 1533.934692 -574.175171
1437.015991 1513.761475 -376.640015
1302.882568 1813.832764 -332.542755
1394.720947 1716.578247 -261.825928
1375.709839 1697.714600 -251.457550
1509.735962 1748.752197 -301.354919
1501.783081 1519.977783 -269.729858
1342.618164 1618.276001 -297.675934
1434.375854 1743.401489 -281.147827
1288.563843 1681.146851 -700.810059
1366.005127 1579.844116 -415.640594
1326.603271 1510.518677 -609.907471
1510.062866 1770.935303 -303.280914
1308.737915 1630.173340 -466.498169
1575.799438 1728.769531 -323.480255
1382.294556 1556.908203 -406.133942
1269.108276 1658.921875 -457.342651
1396.998047 1645.267456 -252.861710
1174.264160 1751.743774 -592.337463
1303.105713 1810.199341 -373.660858
1169.690063 1702.147827 -621.601868
1317.300415 1552.751343 -656.277527
1346.167114 1860.158691 -294.066254
1418.937256 1682.489258 -259.990845
1370.048706 1775.822998 -269.893860
1346.455688 1623.060791 -322.868195
1321.189941 1703.264038 -253.014053
1330.553711 1633.811401 -394.780975
1499.873047 1541.151978 -292.716461
1182.986938 1701.576782 -608.053467
1231.875977 1698.484497 -443.443756
1652.888428 1681.816040 -349.917572
1283.626343 1773.538208 -343.114044
1456.806030 1572.436401 -267.555756
1333.488037 1585.286377 -467.215424
1409.442383 1534.300049 -430.131134
1375.976807 1804.640625 -363.101318
1374.663696 1618.086304 -248.722794
1343.224487 1606.444702 -328.529083
1370.183228 1621.329712 -259.461823
1196.080566 1748.011963 -661.412292
1373.307617 1533.020020 -461.226410
1197.375854 1718.827271 -544.126404
1352.486450 1739.725098 -240.756363
1398.218872 1556.550415 -400.048615
1422.195557 1526.330933 -368.381500
1231.603638 1649.355835 -556.986084
1216.010620 1680.749634 -515.206482
1371.565918 1789.524048 -269.076599
1279.950439 1810.734375 -327.778931
1260.906738 1719.224121 -382.445709
1360.076782 1754.476807 -253.342072
1283.436768 1682.969238 -354.773407
1231.402466 1705.055176 -423.557373
1306.902100 1684.967529 -281.986633
1384.526001 1803.744995 -281.301483
1255.930054 1783.395386 -467.435242
1333.572388 1554.069458 -544.715515
1415.098999 1779.790161 -250.632568
1564.901367 1788.714966 -326.698242
1539.238037 1743.312744 -315.099457
1309.701416 1581.149414 -527.607910
1329.603394 1716.934937 -231.788483
1359.411499 1502.384766 -583.205383
1555.431396 1605.464111 -311.572052
1361.532471 1534.559937 -537.762512
1371.433594 1569.009766 -443.438385
1367.898560 1510.561523 -528.673950
1339.113525 1602.629028 -461.877960
1350.728271 1518.522217 -568.803284
1241.426147 1719.222900 -404.089142
1421.438232 1866.744629 -305.052063
1402.820679 1626.997192 -263.152313
1385.370972 1832.865723 -299.771790
1349.701904 1528.093140 -556.036377
1236.603638 1730.559204 -424.182983
1391.272583 1545.487793 -424.699402
1470.193970 1677.711304 -282.217438
1435.024658 1789.935181 -242.201569
1454.924316 1519.929688 -305.614319
1321.387817 1736.580078 -289.391937
1575.217896 1630.496338 -311.681702
1305.415283 1528.899170 -647.463684
1485.882446 1823.604126 -277.792542
1505.047974 1780.758911 -292.594635
1432.903687 1569.835693 -278.454895
1281.353882 1765.634766 -344.161346
1449.327881 1519.685547 -337.227112
1467.371338 1805.251953 -274.667419
1197.904175 1679.849365 -551.067566
1212.982544 1743.574341 -505.883759
1367.008545 1773.706299 -289.136169
1323.379761 1690.916016 -245.257919
1413.363037 1552.946655 -320.294403
1346.235840 1647.001221 -250.523911
1402.057861 1498.397217 -485.337799
1315.215210 1628.163940 -366.556580
1552.251709 1564.790039 -290.193237
1387.838135 1559.557373 -366.291534
1401.138062 1701.689697 -262.102203
1458.190186 1757.816772 -284.829163
1288.070801 1682.701416 -349.272766
1359.588623 1854.710571 -286.583496
1376.961548 1582.755005 -416.879761
1346.196899 1612.840576 -343.825623
1417.331055 1531.696289 -354.962402
1415.272949 1609.739258 -262.887665
1643.120972 1661.190308 -348.265015
1359.974731 1770.343872 -298.641388
1174.167603 1722.473999 -566.786621
1275.451660 1693.602051 -348.250732
1321.377075 1655.563477 -287.447235
1482.302612 1867.926514 -289.294952
1445.912720 1499.461182 -361.873108
1411.174805 1544.336670 -415.889832
1510.474243 1737.115234 -302.080811
1307.705200 1693.155884 -269.631683
1334.473022 1630.585205 -314.777679
1299.432129 1701.160522 -275.180756
1316.956543 1657.792969 -317.644348
1342.772583 1701.098877 -238.135010
1423.824951 1685.356689 -270.335083
1571.165161 1693.448242 -322.262604
1485.251343 1862.505005 -273.761597
1340.558716 1655.706665 -270.673218
1354.373657 1496.315430 -597.881165
1279.356323 1668.563232 -410.271942
1358.741089 1713.115845 -243.001877
1331.849731 1634.135620 -331.751160
1432.988647 1551.106079 -266.019653
1395.359131 1558.684448 -425.226410
1323.945190 1554.256836 -561.914124
1356.068726 1600.704590 -325.012665
1275.935059 1785.323364 -334.548798
1456.216919 1509.497314 -346.040070
1243.519775 1810.480591 -329.089813
1340.976318 1761.488647 -303.740631
1657.502808 1665.180298 -328.270721
1222.004395 1642.327026 -633.895508
1245.631836 1600.050903 -662.139404
1246.070068 1797.840332 -334.863983
1271.880737 1670.188965 -425.224670
1362.064087 1576.112183 -717.216736
1246.157471 1725.580322 -401.520996
1549.917236 1612.076416 -320.086456
1349.115967 1628.650635 -374.129578
1317.243286 1675.019165 -280.009644
1236.458862 1631.706177 -611.562195
1499.606323 1664.869019 -295.921631
1322.173462 1564.139160 -541.773132
1329.465698 1633.186401 -398.206055
1531.474609 1644.126099 -305.198883
1319.228394 1860.219849 -313.557068
1261.593140 1823.631226 -338.464203
1282.734863 1757.850098 -356.201050
1354.325317 1502.567261 -587.755981
1295.755249 1600.039185 -547.923950
1300.599609 1579.556396 -672.714905
1272.709839 1778.286621 -341.260925
1368.008789 1557.685059 -471.797333
1434.008179 1621.832520 -268.237457
1400.651978 1883.626099 -290.722656
1275.954224 1681.807007 -375.866760
1355.364380 1790.348877 -361.182678
1312.848999 1527.774536 -637.202698
1258.469727 1653.847900 -512.468079
1417.855469 1703.373047 -264.723328
1397.140747 1810.983521 -253.171555
1284.873291 1681.448853 -359.681061
1316.863037 1666.614990 -279.496490
1163.503540 1691.119385 -622.977905
1255.212769 1728.398193 -408.447266
1346.829834 1555.534668 -533.505066
1417.057739 1545.464355 -386.130707
1421.028320 1555.810181 -281.950195
1296.743042 1791.738037 -333.230652
1348.861816 1492.716797 -636.629822
1667.171631 1669.206299 -347.993469
1330.195068 1592.284912 -463.032379
1484.115967 1629.710083 -290.198242
1311.959351 1749.743164 -322.114258
1321.136353 1568.741821 -521.849487
1302.946533 1633.153198 -440.487274
1533.182983 1574.324463 -302.138123
1320.220703 1556.056152 -544.533691
1307.603882 1545.908081 -611.257629
1396.859985 1575.176758 -393.372742
1308.500244 1721.777832 -289.088135
1431.719360 1626.860107 -270.971069
1318.857056 1560.534546 -556.830688
1182.229858 1669.587280 -603.483704
1252.766235 1784.779419 -486.179260
1320.957397 1556.269653 -642.625732
1273.287109 1714.792358 -353.145935
1371.700439 1808.289917 -306.023407
1220.516113 1674.329102 -498.418701
1361.584351 1883.029541 -284.087463
1375.914917 1596.395508 -272.711670
1613.855347 1692.920532 -326.298248
1553.646973 1684.915771 -313.380493
1236.917480 1703.229980 -423.696960
1280.126831 1556.542358 -673.572632
1331.159302 1538.513794 -580.358521
1582.389404 1739.388916 -327.218781
1342.584351 1514.243530 -569.610657
1290.310425 1762.926392 -314.260590
1348.557617 1603.274048 -357.094818
1337.438721 1521.246704 -568.925659
1281.222168 1773.349731 -331.209534
1257.872437 1783.513184 -501.373077
1292.128662 1768.783936 -400.650024
1336.618286 1717.031128 -236.934891
1345.696411 1597.909424 -396.306702
1297.213745 1523.399658 -639.982727
1446.278076 1829.551514 -291.372131
1311.516968 1679.459961 -278.890167
1429.132202 1669.442871 -267.424377
1289.443970 1741.664185 -350.126678
1289.222900 1686.623291 -328.241913
1491.427612 1725.296509 -300.261902
1262.695068 1712.960938 -386.477295
1407.473755 1787.494507 -241.686340
1380.518066 1565.356079 -362.421936
1338.408325 1619.796997 -319.490845
1380.021362 1559.677002 -462.463470
1295.150269 1735.320190 -369.463562
1212.217407 1672.309204 -536.089905
1470.489136 1510.311523 -335.281799
1372.919312 1596.750000 -276.717407
1402.463745 1567.815063 -288.581390
1244.089844 1743.551636 -438.687012
1173.904175 1725.623901 -572.600098
1553.475098 1674.927979 -302.695953
1406.583496 1704.385498 -261.700684
1175.927734 1716.829834 -577.323120
1540.189819 1735.130859 -311.891754
1360.718750 1510.104980 -543.256836
1350.992188 1611.863159 -296.728119
1209.907471 1783.051270 -561.966064
1466.409424 1795.585083 -282.883026
1484.144653 1512.726440 -268.811249
1238.780884 1709.952393 -404.864075
1279.840942 1780.001343 -340.729370
1463.134277 1525.829834 -249.761353
1431.628906 1496.691040 -304.018250
1339.922607 1535.926270 -561.845886
1205.718872 1724.969238 -513.563843
1432.791504 1505.883667 -449.629272
1613.973755 1769.762207 -339.113586
1375.381226 1531.975098 -469.930054
1215.002319 1853.276489 -315.462524
1565.788940 1597.769897 -321.755554
1372.068848 1671.178955 -247.882065
1426.536743 1718.709961 -271.226929
1266.339844 1762.135498 -359.439789
1360.740356 1636.775024 -271.133728
1369.082886 1553.142944 -489.662384
1313.020142 1630.458008 -423.613953
1391.837280 1608.198730 -280.557007
1282.122192 1686.948975 -325.605560
1330.254395 1625.970703 -330.004120
1358.482300 1558.027832 -500.046143
1525.811401 1772.873413 -308.943634
1486.954834 1611.364502 -287.869202
1194.474243 1784.859863 -622.783142
1328.766113 1607.982910 -436.794495
1373.362427 1568.120850 -346.583862
1349.392090 1742.089478 -261.160706
1341.973145 1644.404419 -259.880463
1429.048340 1611.569946 -266.475342
1495.240234 1726.187622 -287.034485
1488.476807 1694.252808 -289.932098
1425.368408 1717.867798 -268.116150
1354.508301 1603.387817 -312.957794
1331.349731 1563.580688 -557.683167
1406.806519 1767.675049 -225.572678
1455.824707 1808.569214 -249.015152
1312.186768 1680.456177 -281.486603
1405.732422 1559.333130 -323.142761
1379.697876 1596.302002 -297.538605
1412.959595 1526.654541 -408.631531
1351.987305 1612.049805 -310.358459
1376.501953 1610.143188 -254.773163
1412.646606 1547.271118 -400.639923
1285.697510 1698.138916 -295.438477
1351.575562 1598.415405 -343.316467
1376.758789 1565.017212 -347.337738
1337.106934 1719.791626 -248.241760
1361.839966 1599.959839 -410.119873
1248.055176 1734.453369 -399.442719
1487.659424 1515.493530 -283.453247
1439.869751 1817.012695 -269.888275
1395.510742 1788.692505 -275.727875
1347.257202 1496.594238 -592.108154
1412.828369 1625.973877 -737.724609
1241.666870 1825.856934 -313.540344
1364.664673 1659.835693 -242.566559
1244.173950 1824.700073 -321.550385
1279.541382 1689.348022 -329.244263
1337.119629 1879.370605 -291.585999
1287.610352 1613.722412 -649.159851
1404.448242 1589.644287 -267.443512
1255.005493 1833.360840 -320.723389
1483.050537 1680.877563 -288.701416
1612.529663 1620.916992 -329.722931
1340.400879 1573.179932 -542.972412
1348.154297 1555.023071 -518.999146
1218.544556 1720.565186 -421.118622
1338.215820 1685.863647 -258.364777
1363.239990 1606.960693 -305.327637
1549.437012 1595.907104 -309.495850
1301.969727 1703.506470 -277.586151
1500.456421 1730.656616 -297.811066
1599.748657 1682.352905 -338.788147
1258.108032 1830.402954 -312.914551
1394.004272 1572.409790 -343.412689
1351.320557 1754.481323 -283.573639
1233.869141 1830.428955 -321.009491
1329.876099 1624.401978 -412.468842
1546.985596 1805.840332 -323.270691
1330.316406 1746.852051 -324.499146
1308.138306 1648.255371 -420.821442
1316.414063 1649.820557 -379.923615
1172.025146 1698.974609 -624.552551
1291.541138 1693.299072 -310.864410
1244.283691 1823.789917 -333.556793
1382.339600 1760.809937 -238.708130
1176.920776 1758.658081 -577.400146
1345.932495 1622.280273 -299.095551
1288.442383 1668.239502 -404.758759
1435.178589 1842.849243 -299.331146
1296.682983 1732.826538 -339.274628
1368.462524 1791.386719 -341.338043
1371.341187 1760.033325 -247.487564
1370.974365 1503.340820 -567.903137
1423.703491 1819.183594 -297.483856
1212.444702 1739.978516 -491.411896
1556.615967 1693.457153 -313.332397
1380.732788 1613.928589 -271.628418
1183.426514 1673.154419 -597.978821
1551.959229 1631.030884 -309.648712
1333.263916 1727.225586 -245.690704
1303.786865 1562.355347 -596.878357
1253.723022 1683.629761 -425.737244
1304.447876 1528.013794 -638.101868
1350.636108 1606.876709 -316.574402
1389.093994 1512.635986 -470.596863
1295.222778 1531.925171 -665.414795
1355.646973 1494.507568 -611.888062
1333.837891 1741.769897 -223.490311
1381.457642 1594.009521 -289.751373
1277.283569 1759.126343 -349.128296
1320.462524 1664.161865 -266.609833
1404.364380 1538.135742 -368.109894
1323.818604 1561.335938 -559.297119
1439.835205 1629.203247 -746.957214
1250.318359 1699.954346 -413.837769
1339.744019 1665.691040 -269.713806
1327.994141 1605.413696 -473.720306
1409.213867 1566.901001 -295.203583
1203.032593 1719.764648 -476.406952
1378.888062 1787.661255 -316.792938
1254.172363 1828.138672 -325.736633
1410.184448 1542.983398 -341.673889
1521.374512 1632.872803 -292.155975
1534.862549 1745.406738 -319.135498
1289.670532 1668.849243 -399.075714
1237.847290 1701.942139 -423.808777
1370.260132 1574.892700 -361.926636
1373.480835 1668.556641 -251.344727
1206.257446 1684.519409 -517.619202
1163.214722 1719.753784 -636.132202
1487.438599 1740.441162 -292.927094
1473.452515 1748.692749 -295.903656
1406.361694 1559.739136 -310.280212
1215.547852 1738.702881 -442.416199
1194.641357 1653.983154 -644.522034
1378.547607 1575.429810 -324.917114
1279.974731 1583.183228 -586.778442
1442.906738 1563.077271 -277.647949
1398.683716 1554.637817 -341.368347
1435.214111 1520.708008 -350.846924
1224.383301 1849.947510 -312.705872
1318.181641 1635.812012 -334.211945
1301.641113 1761.307007 -334.526733
1253.565308 1654.010864 -523.575500
1273.798218 1643.077881 -550.996826
1401.179077 1674.194946 -271.432556
1183.273804 1737.222534 -587.274597
1604.684082 1723.989258 -336.108704
1349.166748 1754.760498 -287.937469
1297.178955 1697.208252 -311.636414
1396.306152 1559.732910 -334.234985
1364.451294 1494.720093 -588.267883
1487.825928 1637.051270 -285.080933
1294.196289 1769.954956 -331.245148
1270.506592 1796.873901 -508.885864
1395.004395 1762.945679 -232.689926
1437.996948 1514.356934 -383.105927
1226.385864 1827.974609 -330.516083
1286.229370 1759.958374 -339.756989
1275.737793 1752.101807 -382.236115
1313.760620 1669.366089 -271.329651
1310.590942 1677.356079 -302.257263
1245.410278 1712.525269 -410.678131
1347.784424 1617.226196 -307.917236
1398.725708 1595.840942 -266.490631
1260.950317 1668.323975 -483.758911
1519.677246 1653.567993 -298.815338
1295.198242 1526.845093 -639.627197
1532.101929 1692.913940 -305.196442
1252.473999 1794.153687 -521.138000
1345.941650 1584.012939 -363.855438
1276.339722 1656.163818 -452.933746
1624.181030 1690.424805 -357.683472
1432.227051 1708.982910 -270.576294
1354.965332 1631.096802 -277.228851
1461.880493 1703.554932 -285.177551
1354.282471 1598.247070 -335.725555
1272.277466 1793.476318 -312.826263
1226.017578 1660.032959 -550.119019
1325.775391 1509.353394 -614.608459
1364.422729 1664.607666 -240.120193
1326.516235 1588.200562 -489.116638
1541.389893 1727.251221 -303.619385
1533.439209 1795.523315 -317.200958
1222.060181 1627.333374 -636.619995
1381.648804 1531.814453 -443.405823
1391.943115 1891.000244 -286.642242
1373.241943 1700.552856 -250.161255
1247.560303 1579.448608 -672.087219
1180.596680 1738.083374 -597.838928
1271.783691 1627.928711 -559.396057
1421.939941 1634.291260 -261.410950
1314.808228 1646.725342 -411.231873
1258.474854 1704.699341 -383.223389
1279.442139 1665.900635 -434.140198
1375.090576 1512.697388 -521.206238
1661.289307 1661.629517 -342.196838
1290.783203 1678.143555 -345.829437
1388.446899 1620.590332 -245.296707
1401.090332 1554.517090 -412.813293
1406.024780 1781.594849 -242.488373
1328.908447 1715.996948 -248.850235
1408.103271 1769.704956 -240.303314
1461.944824 1813.808960 -264.273041
1187.746460 1735.047119 -566.161194
1184.567993 1681.346924 -577.013733
1280.218506 1848.434692 -333.637177
1469.648193 1603.991333 -282.483093
1351.357910 1555.707153 -492.462769
1186.223145 1719.679443 -539.942688
1464.658569 1835.366577 -256.169983
1401.733276 1512.053467 -468.670044
1374.772095 1532.550537 -489.474091
1533.619751 1709.436523 -315.107971
1268.156738 1776.573242 -335.031891
1488.076660 1783.871582 -298.653656
1414.093872 1804.821045 -254.927811
1422.180176 1785.445435 -244.366089
1348.443237 1536.489624 -531.393860
1541.729004 1559.512329 -303.465149
1488.212280 1642.235596 -285.749207
1266.805664 1661.294556 -482.878174
1225.096069 1707.560791 -444.705261
1257.380249 1831.969727 -334.975800
1414.884766 1809.913086 -265.307037
1269.362183 1696.421753 -345.883423
1243.040649 1590.823242 -634.815918
1453.480957 1520.907959 -295.306335
1246.572021 1682.442017 -442.263092
1422.902954 1782.907593 -246.362442
1239.305908 1617.249390 -604.055298
1374.255859 1615.993530 -275.052887
1489.132080 1519.488770 -306.522522
1544.006714 1700.078247 -317.994995
1215.154175 1710.268921 -521.507385
1273.751587 1739.616943 -393.182983
1270.278687 1676.177368 -453.630981
1410.915161 1495.229858 -439.489594
1244.238159 1679.631714 -464.358307
1233.005127 1723.130859 -439.137787
1475.389038 1524.722534 -290.432220
1338.074463 1644.226318 -399.723755
1353.582397 1630.529053 -262.435638
1460.180176 1514.158691 -338.629639
1411.636841 1538.656250 -357.124878
1417.471313 1506.840698 -457.515137
1338.537231 1537.681274 -559.726929
1456.298340 1866.130859 -339.419373
1394.763916 1565.577026 -416.194092
1398.084961 1536.340698 -402.205597
1387.375488 1858.028687 -291.809875
1293.284058 1744.240845 -331.290680
1446.950073 1716.408936 -277.789825
1395.070557 1495.225464 -509.888794
1286.984009 1790.832520 -437.979431
1313.049438 1798.582031 -322.873779
1355.384644 1594.100586 -367.558472
1357.875244 1649.232910 -251.454880
1560.205078 1727.151855 -309.086945
1443.661011 1587.687012 -264.303314
1525.795044 1760.484497 -316.900391
1221.508301 1716.720093 -452.088440
1472.565796 1750.915894 -287.185333
1208.977905 1672.237793 -545.772766
1389.804810 1855.392944 -292.532806
1350.888306 1838.900024 -279.439758
1399.089844 1802.174438 -296.677643
1244.339111 1763.897949 -427.646698
1191.727783 1759.845459 -574.008057
1173.844116 1783.245850 -608.737000
1330.598389 1517.614136 -598.005615
1335.126709 1864.424316 -279.726868
1305.755615 1743.701904 -341.955109
1307.208496 1611.996094 -490.464996
1281.406250 1766.821655 -330.155212
1286.624878 1732.826050 -329.315704
1413.105347 1524.943604 -392.508820
1375.469849 1533.221313 -481.968903
1243.490723 1712.532227 -400.745270
1355.427368 1529.238525 -526.112549
1187.459229 1734.515259 -551.777222
1261.860352 1572.406006 -652.467285
1415.505859 1547.073486 -401.479156
1193.000122 1765.290771 -547.298401
1287.449707 1720.996094 -329.857422
1542.459595 1707.755981 -313.381287
1357.994873 1743.174927 -236.315765
1252.462891 1615.529907 -594.722534
1341.657471 1603.877930 -437.882050
1304.425659 1611.691040 -481.468719
1289.911255 1672.944458 -413.862640
1247.075928 1801.624512 -521.496765
1306.420044 1850.040039 -367.285889
1484.336304 1585.012085 -279.936554
1324.451294 1635.688599 -344.512238
1406.461304 1677.020264 -260.025909
1255.014038 1652.594116 -496.821625
1478.936157 1630.958984 -277.635101
1356.146729 1554.030762 -496.128021
1214.683838 1674.552368 -519.347107
1186.599854 1736.677734 -558.905334
1269.128418 1788.404053 -346.433990
1171.060791 1711.055908 -578.307922
1379.574829 1813.545654 -304.308563
1331.537964 1564.167725 -504.460327
1213.266602 1753.317627 -506.914703
1356.918335 1538.471313 -509.783569
1378.821533 1530.531860 -502.543793
1332.064331 1695.785889 -256.564087
1331.805176 1574.752441 -563.991272
1538.282349 1556.540527 -292.733185
1317.093994 1615.106934 -474.609161
1278.495728 1688.774536 -328.287140
1231.801392 1695.910156 -451.129974
1392.618042 1506.796143 -487.917847
1301.092896 1732.834106 -321.636261
1377.102783 1643.215576 -256.637695
1255.103516 1691.996094 -444.200195
1411.772217 1546.621460 -370.278870
1201.219971 1721.621216 -506.439423
1329.489990 1617.698975 -320.389862
1287.056519 1661.539917 -449.802765
1356.496460 1531.248901 -603.615417
1287.684814 1856.861328 -330.392426
1331.003052 1513.223511 -603.229431
1363.629883 1613.617188 -371.018372
1373.928833 1591.562622 -301.296844
1323.275635 1785.562744 -346.960083
1446.884399 1634.442505 -270.889130
1459.248779 1783.730591 -284.338104
1410.880127 1826.120605 -289.787537
1312.401978 1570.728516 -648.723450
1367.209595 1592.981323 -407.450989
1312.182617 1666.848022 -295.764984
1298.121948 1750.845703 -355.404205
1417.688477 1536.816650 -342.951416
1276.593262 1732.803467 -383.178528
1174.661255 1751.385986 -635.595337
1427.499512 1837.260620 -296.437683
1390.320435 1523.817505 -448.086456
1297.656250 1666.918091 -428.442047
1399.665039 1573.045532 -287.366760
1212.239258 1718.379517 -505.945435
1329.676270 1642.219727 -308.202576
1367.728149 1598.471680 -279.063477
1320.269653 1498.980835 -672.637756
1226.151978 1639.876709 -585.639282
1343.974731 1665.204102 -253.210754
1267.579468 1767.944946 -360.607574
1338.563965 1854.607544 -304.103607
1220.766357 1676.424561 -513.398926
1229.745972 1682.224243 -485.114716
1234.656494 1723.717896 -404.255798
1293.947754 1674.786743 -702.526794
1389.424561 1586.518677 -407.144196
1476.829224 1750.251587 -290.769836
1325.138062 1632.173706 -329.478882
1341.913208 1726.287598 -237.153015
1421.984741 1616.021729 -396.643890
1258.703979 1751.189209 -427.833923
1391.477539 1808.470093 -281.655212
1345.571533 1603.410767 -461.758667
1434.967529 1520.369995 -367.408173
1388.079224 1801.342529 -250.021622
1384.235229 1705.311401 -254.884064
1230.215210 1692.428345 -490.493103
1313.804810 1586.982788 -670.985901
1385.222778 1593.649780 -415.553162
1493.845459 1549.062744 -290.249786
1197.774780 1661.168213 -587.966797
1301.733032 1660.760132 -424.852173
1252.827393 1567.671143 -638.612000
1372.896240 1560.999878 -361.821716
1325.977173 1519.303711 -611.320618
1531.961914 1554.025024 -296.773712
1331.909546 1745.006348 -330.307312
1420.980591 1597.362183 -272.050720
1200.464233 1635.279053 -658.356628
1215.756592 1740.962036 -442.965729
1438.626953 1536.924683 -286.258636
1478.137817 1580.914429 -277.403992
1381.806152 1573.216431 -366.075165
1516.968384 1686.883667 -292.943420
1216.441528 1672.921143 -508.337677
1354.674438 1870.432251 -282.266907
1262.423462 1556.251953 -669.720032
1450.207886 1738.925781 -280.660339
1588.933228 1701.017944 -318.122009
1165.914307 1677.126221 -632.608887
1281.765991 1656.192505 -469.774933
1506.237427 1812.348267 -305.180145
1173.291992 1681.324463 -614.176270
1222.626343 1617.337769 -667.365601
1323.443359 1602.197021 -556.300415
1473.835327 1691.332397 -284.516449
1594.450439 1741.601929 -332.422394
1452.803223 1521.090332 -308.078156
1583.271851 1712.978638 -328.358795
1385.570435 1496.097046 -535.467712
1348.242188 1723.397583 -228.115265
1198.673584 1656.137085 -648.758850
1222.824707 1723.812988 -427.702606
1327.146973 1675.645020 -244.785812
1262.416504 1695.942261 -403.552551
1372.705566 1785.341431 -300.219330
1189.421143 1682.376587 -639.499207
1168.418335 1679.046631 -630.591736
1261.432007 1630.095581 -556.717041
1432.044800 1526.325073 -330.710602
1470.518311 1556.332520 -286.090668
1539.972656 1779.071167 -324.761108
1293.194824 1673.266968 -322.171692
1279.046143 1652.120728 -458.766083
1607.250732 1747.788208 -336.444427
1594.744019 1621.499146 -328.242157
1421.809326 1827.129639 -299.813843
1230.521118 1848.156616 -318.596252
1361.368774 1778.493286 -309.687225
1581.992554 1733.648315 -325.921478
1345.546631 1490.485352 -576.501648
1503.156982 1767.693481 -302.272888
1404.739746 1525.285522 -404.480438
1316.236816 1656.792969 -353.755066
1554.758301 1780.756958 -310.804657
1367.726318 1828.339844 -323.794006
1542.905273 1589.288818 -312.006714
1450.992920 1610.614746 -286.320496
1358.976685 1654.300537 -251.207809
1433.890015 1615.955566 -264.785797
1354.696411 1688.280273 -255.113007
1316.650269 1715.891357 -243.195694
1255.297607 1692.337280 -390.480377
1526.897583 1736.638306 -298.544556
1258.011353 1849.321533 -316.043488
1309.421753 1633.586304 -425.451111
1365.298706 1553.067017 -487.675751
1560.988647 1807.426392 -323.783447
1599.502197 1692.519287 -330.667908
1361.234131 1636.100220 -271.210175
1472.092651 1515.664429 -284.976135
1518.363770 1810.609863 -307.919373
1475.457886 1557.721802 -278.772095
1294.600464 1756.915894 -329.095673
1233.374512 1723.060059 -421.170441
1284.860474 1832.996094 -331.691437
1340.184937 1706.851929 -244.097824
1307.125122 1624.321655 -462.547119
1251.651367 1666.334595 -529.055298
1179.213257 1677.301636 -631.882080
1326.416016 1580.461670 -514.137878
1337.273926 1658.896606 -290.101196
1243.059937 1817.475830 -309.917877
1346.865234 1647.461914 -280.397003
1355.929199 1500.634521 -574.575012
1280.027710 1774.397461 -418.491577
1282.327881 1783.271240 -433.477417
1339.201782 1567.042358 -585.567871
1383.693726 1580.716675 -331.039764
1347.426758 1588.696167 -457.419861
1200.954712 1643.553589 -660.928589
1185.815796 1695.003906 -593.054871
1363.218750 1579.890625 -464.297119
1339.385010 1570.296631 -514.938965
1232.458374 1736.053467 -487.750732
1317.621094 1769.548462 -312.165649
1264.373901 1579.520508 -640.821045
1408.556396 1494.154541 -458.051392
1326.729614 1652.952026 -302.117493
1340.111206 1619.721558 -319.058777
1513.229614 1652.688843 -290.177032
1428.294067 1648.573364 -264.415283
1626.729126 1692.868774 -344.436707
1326.962769 1564.686157 -593.221313
1320.088623 1600.974976 -469.013763
1329.702515 1624.739990 -351.649933
1205.217163 1781.129272 -581.501831
1400.991699 1822.753174 -296.293121
1347.792480 1602.293823 -413.450348
1328.484131 1639.873047 -322.984802
1497.200928 1799.560425 -291.411407
1304.084106 1786.424438 -309.678650
1378.561157 1594.030273 -278.207764
1186.790039 1726.677979 -586.702393
1214.214111 1675.566650 -530.926880
1495.583984 1801.864258 -286.427582
1376.291382 1506.340698 -528.407532
1471.754517 1503.555054 -309.810059
1306.619141 1653.471680 -702.909607
1397.392212 1636.275146 -250.160919
1467.891357 1523.848145 -287.769531
1348.640747 1772.910522 -318.836304
1322.483276 1640.838379 -341.337555
1266.193848 1554.647339 -637.469299
1372.697632 1653.760376 -255.682358
1306.662598 1564.799316 -590.984375
1353.303589 1748.998535 -255.072281
1348.989746 1549.020996 -524.556152
1326.210205 1670.245850 -254.029816
1625.792114 1661.014404 -339.324066
1527.515137 1680.161011 -304.337494
1392.344971 1549.584229 -358.642029
1308.358765 1630.307251 -586.817261
1398.661987 1560.700195 -380.885529
1517.623291 1713.180176 -301.470612
1313.002930 1782.809082 -335.294159
1246.756714 1845.043823 -313.202576
1477.917358 1561.889160 -267.831573
1333.627319 1623.882690 -710.979126
1195.965820 1750.427979 -555.664124
1328.119995 1623.861450 -346.235138
1240.494019 1681.686401 -680.657349
1216.627930 1723.459595 -451.612457
1457.671143 1656.829590 -280.961365
1493.729980 1776.186157 -288.737885
1283.188965 1621.139160 -529.372742
1467.812134 1633.988770 -278.217041
1360.448486 1648.926392 -235.969025
1555.801270 1616.060181 -312.037079
1308.965088 1847.633301 -363.661285
1297.545654 1584.234009 -586.183411
1234.646362 1630.104614 -674.813110
1436.625977 1603.546021 -269.303772
1558.886597 1795.763672 -323.243195
1350.714355 1740.528198 -238.567383
1208.186279 1713.836670 -538.905701
1432.953979 1550.117920 -268.451599
1425.669434 1742.536011 -264.716644
1455.771851 1821.759521 -258.967712
1261.495483 1728.046631 -388.413452
1368.139282 1580.476929 -343.174561
1203.273926 1761.616455 -539.374573
1426.833252 1506.762207 -423.004639
1399.571777 1795.901489 -273.633301
1170.184692 1678.501587 -623.830750
1347.601685 1627.284058 -418.613708
1314.407104 1643.208618 -350.420074
1581.067383 1773.488892 -334.170227
1249.433838 1604.721924 -635.286682
1312.561279 1676.555908 -287.903107
1341.340576 1797.709351 -340.748077
1302.583862 1640.490601 -458.239227
1218.572754 1740.127197 -436.129730
1384.217773 1489.666504 -520.596252
1233.727539 1670.050049 -487.225464
1387.979492 1728.405762 -248.266205
1565.191772 1773.567017 -322.058167
1489.787231 1792.414917 -299.271271
1355.993286 1568.313354 -483.124878
1206.251953 1678.079102 -541.129211
1580.165039 1647.048950 -328.672607
1549.802368 1608.779297 -307.861359
1392.286987 1830.799927 -293.126831
1332.672607 1632.260742 -322.088104
1200.699585 1710.205078 -488.519348
1333.457153 1632.717529 -328.884430
1359.430786 1619.471191 -283.876892
1470.756592 1772.520752 -290.713562
1399.803223 1556.091064 -407.860931
1323.761719 1617.797363 -428.543365
1220.254517 1661.693481 -550.335266
1433.712158 1611.979736 -267.015350
1361.279175 1624.639648 -376.782623
1225.785156 1655.084106 -572.617249
1355.065796 1733.305054 -231.492783
1217.500610 1662.300049 -563.795593
1401.347656 1501.402832 -497.511993
1360.219238 1694.822998 -247.707886
1548.902100 1763.760132 -326.522705
1650.797119 1731.814453 -341.580933
1555.263306 1594.399658 -312.365631
1397.922729 1819.533936 -304.094269
1524.113892 1624.358276 -293.007935
1411.185669 1498.320068 -451.400665
1602.699341 1735.754761 -346.337433
1399.330200 1552.995361 -399.389862
1389.442261 1536.760864 -370.622620
1242.824463 1849.863770 -315.016663
1320.756104 1615.343628 -360.712555
1355.616089 1664.257446 -239.294952
1167.577637 1732.869019 -553.490784
1532.133057 1792.113525 -313.083282
1216.631348 1761.943848 -557.860718
1293.497437 1690.646851 -295.679474
1366.506104 1605.837524 -280.619720
1326.684082 1523.664429 -622.604309
1307.737549 1813.463745 -335.243134
1423.285400 1750.314209 -264.278595
1378.217407 1575.720947 -398.417847
1390.653198 1762.770386 -238.091507
1253.255615 1718.833130 -398.462463
1250.772705 1584.196777 -645.653320
1397.853516 1640.916016 -251.792892
1611.947388 1679.818359 -334.136078
1242.275391 1760.682495 -431.419830
1611.945679 1731.598999 -341.790436
1445.397583 1540.955078 -278.745392
1451.757446 1502.690186 -306.290680
1313.280518 1668.134888 -269.940308
1368.494873 1834.821289 -315.543793
1352.187134 1745.177856 -249.501877
1206.168823 1666.768188 -570.717041
1175.445923 1713.078003 -587.795105
1266.199829 1593.830444 -610.054077
1419.322266 1678.111084 -268.712189
1294.834839 1676.999390 -327.967682
1562.852539 1639.467773 -319.980530
1590.052368 1605.603149 -327.251373
1520.782593 1796.156982 -312.024567
1287.164185 1737.136841 -389.311920
1307.049438 1505.842285 -645.905579
1474.299194 1606.135254 -284.676819
1250.704712 1665.584229 -519.447998
1410.725098 1812.225220 -287.306305
1255.722778 1645.327148 -517.948181
1294.964233 1682.719116 -326.222687
1343.571167 1759.386597 -327.346954
1369.565552 1555.733032 -481.503479
1334.473633 1788.312256 -332.617950
1227.993530 1611.107056 -639.443665
1449.515137 1826.255127 -262.867493
1357.036865 1631.233398 -252.542206
1218.647583 1759.448853 -493.459595
1440.264648 1861.678955 -315.660950
1503.661865 1571.874512 -300.213409
1286.282837 1676.245117 -332.611877
1343.696899 1606.078735 -330.148407
1517.044922 1788.261841 -309.731293
1375.161499 1549.021851 -464.301331
1177.873413 1765.408325 -587.780396
1273.823364 1632.831055 -502.186584
1328.734253 1683.716431 -228.609772
1286.540894 1610.602051 -527.145386
1204.091797 1687.859375 -524.830139
1345.304077 1637.615356 -266.195557
1279.917114 1651.625366 -512.532593
1295.125122 1564.176392 -647.705627
1278.267456 1698.605225 -353.706940
1557.506226 1568.235596 -294.706146
1394.453613 1859.702026 -290.450806
1346.902832 1559.506226 -534.284546
1372.394653 1556.218384 -468.887085
1379.291870 1590.505737 -272.231964
1181.057617 1742.825439 -546.095764
1227.787109 1706.816528 -448.558777
1501.268921 1577.347778 -290.528137
1452.274658 1622.376831 -275.261444
1288.834351 1686.511230 -326.824249
1327.463013 1511.590332 -624.158447
1454.308960 1795.278198 -260.897736
1363.008911 1541.979736 -562.664551
1288.503540 1574.777710 -614.485474
1397.238525 1779.819214 -247.500687
1297.452881 1539.820313 -666.930115
1581.512451 1717.137207 -325.002563
1443.381226 1607.469727 -273.436005
1265.228271 1851.982178 -323.799011
1424.120483 1810.209839 -267.982910
1321.321045 1593.297974 -480.429291
1193.288940 1638.249756 -646.304688
1407.519775 1502.113037 -468.247620
1404.095093 1537.992920 -383.203186
1451.917236 1529.481689 -326.725494
1306.590942 1556.554077 -667.028870
1417.290649 1534.649780 -316.826111
1313.272217 1671.347534 -276.882416
1323.817749 1627.029785 -330.455383
1283.859741 1703.104492 -339.517883
1195.909302 1653.614868 -628.260010
1326.785645 1672.625488 -256.503265
1606.255127 1731.095703 -337.154602
1282.699463 1833.936768 -322.562469
1354.055542 1765.470337 -299.891266
1448.369507 1811.278809 -248.415115
1484.641113 1619.346313 -287.728363
1321.537964 1675.736084 -283.956207
1275.951904 1601.256958 -573.697876
1324.839600 1509.514526 -677.602539
1383.361450 1582.530151 -441.573059
1236.707275 1823.229614 -325.509460
1459.864136 1819.516724 -268.230743
1384.398682 1672.088257 -251.894043
1334.613770 1527.540649 -575.173889
1375.562012 1659.386597 -256.530182
1373.078979 1879.454956 -275.941284
1377.510254 1579.942871 -307.356659
1328.594238 1653.773926 -274.575745
1437.026611 1498.473389 -389.615570
1382.906982 1801.962769 -325.824524
1241.266602 1604.822876 -641.721558
1396.546143 1712.369873 -260.231659
1319.261841 1694.280762 -242.099426
1293.120361 1756.137939 -372.736145
1308.798462 1661.333252 -387.105804
1255.926147 1674.357788 -439.999908
1253.789673 1855.256104 -309.101379
1221.848999 1723.051758 -431.195709
1336.125977 1571.673828 -565.468201
1502.977417 1756.869019 -301.805267
1416.781372 1729.848999 -268.541870
1408.784668 1808.154419 -297.504272
1289.678223 1549.570679 -623.649414
1446.241455 1843.052368 -307.206909
1310.913330 1740.815186 -334.853149
1171.839722 1754.804199 -583.357788
1368.878662 1674.512695 -244.832291
1482.429443 1777.605591 -294.086151
1474.785645 1764.807739 -291.454407
1292.574463 1705.063721 -318.726288
1426.742188 1693.555908 -746.878967
1301.405273 1631.064819 -465.088928
1475.942749 1800.483032 -298.378906
1287.253784 1828.655518 -325.525909
1640.332275 1670.616211 -352.821960
1266.839722 1763.049194 -418.579437
1402.776123 1575.021484 -266.593750
1449.711426 1861.331055 -322.613342
1213.586792 1699.678955 -487.637238
1181.816895 1671.785278 -638.583130
1312.963013 1729.420654 -313.278198
1390.443848 1754.427612 -234.003006
1247.618530 1651.525757 -681.648560
1310.911011 1617.606689 -464.629303
1450.033936 1852.921997 -311.172241
1341.422241 1616.674927 -323.069336
1177.161377 1749.431274 -597.255798
1230.399536 1646.979492 -609.105042
1410.379150 1504.961548 -505.287048
1331.002808 1623.781494 -431.766602
1284.221680 1705.304688 -317.715637
1233.145996 1847.760620 -308.688934
1248.303711 1843.122192 -300.330902
1213.821411 1672.557129 -532.750977
1267.741821 1620.223389 -552.325928
1244.963379 1726.270386 -437.875671
1348.982544 1635.035278 -273.207520
1337.284180 1650.137695 -267.514099
1362.117065 1597.058350 -340.053986
1387.614746 1792.580933 -303.985046
1264.800293 1757.523438 -356.881256
1245.136108 1602.332886 -676.172485
1333.354126 1615.447876 -427.692322
1281.131226 1537.717529 -674.020447
1544.080566 1718.944214 -303.948669
1404.453491 1559.409668 -405.618561
1187.570801 1760.729980 -607.179565
1464.168945 1591.342163 -273.027283
1294.066772 1705.046387 -325.093048
1570.109131 1682.540283 -320.333374
1419.052368 1832.427246 -301.536438
1277.932373 1553.648315 -652.921570
1237.009277 1847.090942 -309.208557
1302.397217 1817.760132 -464.932007
1342.891235 1741.812866 -250.176086
1294.849854 1559.576294 -597.710632
1416.179321 1530.870483 -376.111420
1417.286133 1491.545654 -398.309387
1572.798950 1638.659058 -324.852203
1402.446533 1569.141113 -304.061829
1321.940063 1674.626831 -254.987549
1385.820801 1886.064087 -287.903412
1311.391235 1646.599487 -398.184784
1250.678955 1778.142212 -516.716125
1373.965210 1795.049438 -306.060822
1449.288208 1797.592896 -262.028503
1404.404907 1622.879150 -250.958664
1221.717041 1719.494385 -449.950104
1220.819702 1664.229980 -672.216003
1545.238770 1651.249878 -300.980988
1282.593018 1553.053101 -674.085754
1342.848999 1681.101074 -242.671616
1331.451538 1745.186401 -282.877441
1414.548950 1529.671753 -386.205414
1467.504395 1865.825562 -343.563751
1212.671997 1719.741455 -472.072784
1394.974976 1599.499023 -248.036728
1202.167725 1674.001099 -581.076538
1303.311768 1805.532349 -325.848907
1287.485840 1797.009521 -330.171356
1337.527466 1664.874512 -261.416595
1416.094971 1819.741211 -303.316193
1338.621826 1684.889771 -245.377167
1249.459229 1675.199707 -472.099121
1232.787109 1706.220947 -446.856110
1282.018311 1629.988525 -512.735168
1235.218140 1715.120972 -435.337708
1319.391113 1547.496948 -559.669739
1325.080566 1654.636963 -307.717957
1410.423462 1551.692505 -307.127380
1271.689087 1681.237305 -435.705353
1251.821411 1669.288452 -462.124237
1301.818359 1626.222900 -491.666443
1252.486572 1689.328857 -439.220825
1466.232788 1521.273438 -319.493774
1400.810791 1763.196167 -237.340637
1330.026367 1611.754150 -378.219696
1273.084961 1615.777954 -564.004272
1340.270874 1770.927612 -350.793488
1190.708130 1656.410400 -636.324280
1349.017700 1603.117798 -413.553589
1328.260010 1690.748657 -250.944733
1473.911377 1523.505005 -246.826996
1341.825073 1619.757813 -315.185577
1293.596802 1643.407227 -587.708679
1532.322021 1652.887695 -303.950836
1576.529175 1617.088745 -320.492981
1192.425049 1698.528687 -517.242859
1436.426758 1830.283936 -280.409607
1341.698120 1621.873047 -361.265503
1388.134888 1485.860229 -491.098389
1195.704956 1779.761353 -634.832764
1232.512817 1834.524292 -316.809235
1340.106567 1600.392700 -435.075684
1367.398560 1712.147583 -251.809601
1273.023071 1603.170532 -634.710266
1271.791138 1802.645996 -320.750214
1579.744141 1683.270264 -329.745789
1255.859741 1638.386108 -528.521240
1293.342163 1676.808594 -357.012817
1450.635742 1747.858276 -272.306488
1381.804932 1669.663696 -393.263641
1331.235107 1688.903564 -263.941040
1587.453857 1635.317749 -324.691803
1275.553955 1649.184082 -527.085632
1485.491943 1509.949341 -275.762756
1229.941528 1724.859497 -435.197021
1389.865845 1573.244995 -287.747162
1330.462646 1580.537231 -566.701965
1285.171753 1764.386230 -342.092407
1388.630493 1616.898926 -381.754517
1290.167358 1609.140869 -538.925781
1404.100952 1541.880127 -415.235565
1336.514160 1568.555664 -501.309540
1191.887939 1744.935425 -551.047241
1396.871216 1539.919800 -418.383942
1426.761353 1547.641357 -281.012451
1492.573486 1620.383179 -290.396942
1428.834351 1564.391235 -257.851349
1302.024048 1599.985718 -533.220703
1285.640747 1597.526367 -575.015869
1193.909668 1700.402100 -542.152893
1597.077881 1666.121094 -328.184814
1227.921997 1650.819336 -565.630981
1271.169678 1790.070068 -312.791016
1305.331299 1681.732422 -273.718475
1416.735107 1637.466064 -262.721466
1381.477295 1772.534790 -258.161682
1352.210815 1624.457764 -275.565277
1408.370850 1720.692749 -268.588226
1422.379028 1509.243896 -439.086090
1276.282471 1703.493286 -331.817932
1214.497925 1744.539307 -466.642731
1316.231445 1735.135498 -249.598206
1234.948242 1698.433716 -436.034180
1342.590942 1566.973755 -625.024780
1369.922729 1549.964966 -472.548645
1269.154053 1615.190308 -606.091125
1329.639526 1583.960449 -477.900146
1224.309692 1600.119629 -651.705933
1411.191650 1552.329224 -309.981720
1391.199951 1561.658447 -347.268097
1440.811523 1672.398560 -269.957428
1191.786499 1663.316284 -593.751221
1392.558838 1499.238892 -515.634155
1176.376709 1712.762207 -548.948059
1267.679688 1617.027100 -604.160645
1422.845215 1513.298096 -404.118042
1351.055908 1787.089844 -352.338379
1675.180298 1684.582275 -346.866272
1255.702515 1766.403076 -435.001068
1536.568970 1774.242676 -314.890808
1372.687134 1633.680176 -240.807281
1294.867554 1765.064575 -333.075104
1263.168335 1808.324463 -335.626160
1204.571777 1694.679321 -547.886841
1286.232300 1709.452759 -313.983215
1365.403564 1768.434204 -277.361176
1309.167114 1752.646362 -336.510925
1507.702148 1745.999146 -302.051117
1369.851929 1485.068726 -544.875244
1416.401489 1562.608398 -310.035858
1302.562378 1660.747803 -337.098206
1295.286011 1794.389160 -420.226959
1160.296753 1724.838257 -577.299072
1333.199707 1617.046021 -328.871460
1460.441162 1515.103271 -312.419708
1421.449097 1534.141235 -352.015900
1227.780273 1654.440796 -600.714111
1340.099121 1646.371460 -259.425934
1394.813965 1791.292725 -270.470154
1334.519409 1677.821411 -233.632645
1508.981079 1729.469971 -303.940430
1448.873291 1674.465454 -288.344208
1240.802368 1849.517090 -319.712708
1378.942383 1819.855347 -284.752960
1334.691040 1656.277832 -259.952454
1529.642822 1725.922974 -306.601654
1240.971924 1725.660156 -397.988556
1318.150146 1603.915649 -495.899261
1606.389282 1746.321533 -338.950256
1271.582520 1803.672729 -303.590912
1396.632568 1833.642212 -303.782684
1219.384277 1670.473633 -512.752014
1623.999756 1625.653809 -313.234558
1549.599243 1570.378418 -300.607880
1257.278076 1856.560303 -317.798859
1248.170898 1803.493164 -338.103912
1284.409668 1681.913330 -362.508911
1373.822998 1834.433472 -299.776245
1320.686890 1582.935669 -533.375732
1386.945068 1582.529785 -433.847565
1369.235962 1481.005127 -542.548218
1379.202026 1595.984619 -274.722687
1549.232788 1734.236450 -314.185333
1296.056519 1617.263428 -537.723206
1234.682251 1755.903564 -442.455048
1421.732544 1636.527344 -264.737335
1287.191162 1681.106079 -351.527802
1335.313232 1708.294678 -247.234009
1500.132813 1704.917969 -295.730957
1224.506714 1687.934692 -481.704590
1467.308838 1681.731079 -281.185791
1257.157227 1679.212891 -395.852051
1389.393188 1812.002808 -282.108734
1481.886597 1619.063232 -282.054810
1211.936279 1725.231689 -513.139343
1288.923706 1619.028320 -510.673065
1332.858521 1543.510376 -566.931702
1358.985474 1481.089844 -579.750122
1486.577271 1678.588013 -288.422241
1347.361816 1674.530884 -256.661774
1418.615479 1598.817139 -405.565735
1298.516113 1750.759888 -318.400940
1474.048218 1757.396118 -291.982269
1349.496094 1526.185425 -545.472473
1367.289185 1664.316650 -252.716888
1434.854248 1543.097168 -291.751984
1367.246582 1622.500366 -257.856781
1487.364380 1858.161133 -291.293610
1405.781738 1530.326294 -378.638641
1306.242065 1704.447632 -272.647522
1345.794312 1598.258789 -357.173676
1298.606445 1673.198120 -345.711304
1230.761597 1735.344604 -445.357330
1282.679321 1572.086304 -622.407471
1247.467773 1737.500732 -439.529114
1411.734863 1528.765991 -398.217743
1404.046387 1559.251221 -347.053406
1282.626953 1767.041992 -333.339203
1414.725098 1553.653198 -307.552399
1324.531494 1747.580200 -332.078461
1290.596802 1676.257690 -321.930450
1315.569824 1642.478394 -447.469421
1483.724976 1711.128784 -295.902008
1410.079102 1615.658691 -261.524780
1263.814575 1614.955933 -584.693298
1229.382568 1697.676880 -433.573517
1192.946533 1687.838501 -560.366394
1205.060181 1742.467896 -499.936218
1167.353027 1709.254028 -603.919373
1276.704468 1750.895142 -413.122559
1484.574341 1595.090576 -287.634338
1172.418091 1694.835327 -594.285950
1289.826660 1699.430664 -327.027893
1327.409302 1587.261475 -477.588501
1269.615967 1658.710205 -535.133057
1355.105347 1611.780640 -310.347961
1339.088379 1655.295898 -253.428421
1416.128174 1580.383667 -255.860596
1372.606079 1765.400757 -234.366302
1353.559937 1536.201294 -518.691711
1179.343384 1762.177246 -610.496094
1182.687744 1703.738037 -625.579407
1312.334839 1532.372681 -617.576538
1478.928345 1774.529663 -291.566193
1314.758301 1721.988770 -283.297974
1218.511841 1729.548218 -511.704102
1187.142700 1687.974243 -574.260559
1318.097412 1679.874268 -272.361969
1301.698730 1516.777588 -636.655579
1394.808472 1756.293579 -222.384491
1507.057617 1524.278320 -272.407684
1265.591187 1779.743896 -375.748413
1273.051514 1694.695679 -354.812592
1544.315674 1608.365479 -307.313995
1392.936279 1542.404297 -456.585846
1241.016724 1676.954956 -462.747467
1324.856323 1645.658691 -303.914459
1351.827271 1606.435425 -365.076080
1418.891968 1794.515381 -246.648788
1315.535400 1707.118896 -261.403046
1281.379272 1776.034546 -339.244781
1405.902100 1699.376831 -273.997467
1433.393066 1604.927246 -269.103516
1292.499756 1692.959473 -320.312653
1372.279053 1485.414673 -508.273621
1458.704102 1563.952881 -279.454559
1377.081543 1492.560547 -568.776245
1322.392700 1539.964844 -609.832825
1244.263550 1827.377808 -324.925598
1364.301758 1771.353638 -289.589539
1169.962646 1688.906738 -619.988037
1364.711060 1591.473877 -326.346802
1461.074341 1501.781250 -344.552216
1205.759888 1678.978027 -514.310120
1483.884766 1797.912598 -297.042297
1334.130981 1501.986572 -626.693481
1333.970581 1527.755493 -554.205017
1335.937012 1703.887695 -236.088013
1409.180176 1494.647583 -364.481415
1199.291748 1736.141602 -530.045837
1375.500244 1835.608154 -294.568390
1470.876709 1510.270142 -291.927521
1260.510254 1714.910156 -380.913971
1245.654663 1692.526001 -441.467773
1209.240723 1728.894897 -504.322876
1257.402954 1699.364380 -401.085297
1407.259644 1761.294434 -242.674591
1268.853882 1755.944336 -352.309631
1404.174438 1547.436890 -370.772339
1213.142578 1648.482056 -611.298462
1496.471680 1514.108154 -265.087646
1473.935181 1607.914673 -277.468781
1597.281616 1611.999634 -316.274170
1201.949097 1720.668823 -483.303680
1474.785278 1820.009888 -258.949341
1304.568359 1643.804443 -428.501556
1569.774048 1677.562256 -320.173370
1467.531982 1507.018311 -300.656921
1311.574097 1784.469116 -339.266663
1462.868774 1724.913574 -283.412170
1562.887695 1697.359497 -317.304230
1251.513916 1695.312866 -406.454468
1227.818359 1747.103760 -508.287781
1503.711548 1595.480225 -300.998077
1485.305786 1721.013916 -290.508087
1355.431763 1587.598511 -339.273376
1244.356445 1704.004028 -405.400574
1357.569336 1501.429688 -571.021790
1309.254517 1575.316650 -641.776062
1384.796021 1486.762573 -517.626038
1341.301270 1645.311646 -261.074707
1583.165405 1681.373169 -322.484802
1322.194214 1604.812256 -468.394226
1339.484497 1617.106567 -712.772034
1247.041016 1689.210449 -450.641785
1434.354004 1824.984741 -290.940308
1301.959595 1512.775146 -640.426697
1338.263794 1875.743652 -298.116364
1455.683838 1519.074829 -352.207520
1204.616089 1694.370972 -532.533752
1208.603638 1684.376343 -525.925537
1456.171021 1674.432495 -278.329926
1319.366943 1533.210938 -699.626343
1260.673828 1592.760620 -609.389282
1396.534668 1565.502808 -393.206482
1205.688477 1691.773315 -514.912781
1186.812622 1705.571655 -548.822327
1278.185059 1861.306152 -307.783325
1492.041748 1650.447021 -280.625946
1378.030029 1577.783936 -448.003174
1291.822632 1624.370850 -499.642487
1285.554321 1692.273438 -326.633514
1273.630371 1715.968750 -355.201599
1303.140503 1520.956665 -677.499084
1233.745605 1729.324707 -414.062866
1319.367432 1788.227539 -341.094147
1251.735840 1748.376587 -398.345001
1214.679077 1747.604126 -675.897400
1357.888306 1613.906128 -293.197540
1312.238525 1614.870972 -506.255493
1358.081299 1777.500488 -348.534912
1379.389282 1525.150146 -514.591125
1388.024780 1492.201538 -430.787964
1226.422852 1797.379639 -575.934631
1314.520630 1567.038330 -632.530884
1300.866699 1707.161255 -265.346466
1165.203735 1732.640991 -581.824707
