ply
format ascii 1.0
element vertex 1388
property float x
property float y
property float z
end_header
1121.244385 1939.391724 156.398788
979.195251 1880.154053 179.339752
829.307129 1945.633423 201.965317
1003.297241 1848.925293 228.733688
797.320496 1978.190796 496.554962
1068.222290 1839.004028 345.280701
1084.099121 1834.765015 217.564346
1006.668640 1901.866211 532.889709
858.355408 1922.928589 391.869904
833.004089 1928.027832 464.618896
1056.324463 1839.131958 421.463196
709.718323 1972.584595 248.775955
999.062317 1854.918579 220.648926
1130.114746 1950.967896 286.105896
1079.170654 1873.610596 434.213715
1023.586792 1853.681641 404.481720
1018.497559 1851.580811 344.536591
1029.314453 1914.902466 441.172211
1002.051392 1848.465088 409.497253
780.769531 1953.049927 200.730408
978.795776 1873.950073 438.432129
1174.551392 2006.493652 390.907593
1026.831177 1845.781860 228.472244
873.657959 1915.423340 468.477997
1061.839355 1819.800903 333.035828
1068.844604 1963.088135 525.051758
979.786865 1866.285400 225.791702
895.862976 1907.687866 474.634796
924.070740 1900.946411 416.877777
1070.141113 1821.090332 169.517914
1096.707031 1835.858765 216.916458
1175.846436 2020.496094 422.078369
924.561523 1893.834473 218.971924
1150.348511 1967.483398 425.022736
842.309753 1932.714111 386.147888
844.069214 1915.909546 442.749359
1179.081177 2064.820557 325.061462
809.549683 1950.922119 184.023438
687.023254 2047.761230 335.228363
987.979004 1863.683350 304.504791
1064.587524 1825.878174 267.325226
702.420776 1991.595093 354.021515
880.100769 1929.610474 364.989716
1181.836304 2047.357056 312.847656
1159.202759 2023.556274 298.400024
1159.275757 1998.986328 266.302460
740.366333 1969.117188 191.366043
1042.743408 1929.464478 541.749512
1080.415649 1841.227905 212.981430
1107.059204 1887.349731 267.284119
1093.569336 1969.718506 466.235413
762.550842 1951.636475 431.139008
1151.096802 1975.311157 427.567017
762.999146 1951.938354 403.397522
917.093994 1895.667725 470.889771
779.641174 1967.696289 495.963593
736.214355 1962.203247 295.090942
893.629883 1907.650024 339.286835
768.950623 1971.037354 501.673615
764.671753 1951.382080 232.713104
1100.885254 1977.751831 486.005219
1171.822632 1972.973022 415.312256
1104.110596 1887.638550 179.462860
1157.631470 2026.534424 233.199112
840.405823 1914.172363 451.682098
886.073914 1910.062256 227.514511
808.236633 1928.626953 406.765594
852.014771 1957.020386 481.004333
1156.636841 2006.796143 302.919159
849.020386 1926.528442 297.381165
1137.331055 1954.423828 345.143707
808.429016 1924.928345 227.991745
1128.035400 1882.560791 413.537750
986.607117 1926.157104 350.286255
1042.833252 1844.610718 241.586151
1105.977295 1930.799438 431.917664
968.518066 1936.974365 467.040649
751.076050 1957.153076 204.394958
1029.067505 1861.232422 164.674332
1087.983765 1897.378784 438.346130
761.298035 1958.494019 326.221405
1030.348633 1845.399292 387.793396
799.608276 1944.405151 442.455719
1064.974243 1834.416382 397.180084
703.707153 1978.155396 232.275330
786.087708 1949.192261 319.482361
1174.588257 2029.372192 159.318253
851.684265 1929.158081 246.582214
1012.858887 1851.040527 394.225189
928.551270 1901.067139 408.817566
1117.184814 1974.096558 475.603607
1175.551147 2046.559204 166.504929
1163.463013 2005.036377 387.081818
1177.410522 2052.659912 373.209839
964.701782 1911.671875 468.883484
823.532410 1943.047729 417.977509
776.274475 2010.821533 492.026642
871.476868 1922.287109 276.281067
1058.837646 1895.689209 433.286041
1072.144653 1843.300537 183.251328
897.819031 1904.150635 387.639221
1108.385498 1971.643311 464.320526
776.252502 1948.734863 194.287491
1007.542664 1906.667847 460.239502
828.184570 1913.818604 178.081406
890.096069 1909.255493 190.166824
838.470581 1934.372314 278.406921
1016.245239 1846.487183 174.839355
1101.229126 1837.167358 367.868256
790.348877 1951.161987 349.723633
983.106201 1863.668823 422.372009
765.671082 1951.749634 348.542603
1154.051025 2003.535034 253.785416
1182.945068 2039.158813 433.457520
1037.780640 1894.339478 431.154907
1095.409302 1870.102051 190.742859
1005.683960 1847.696167 248.507874
1033.519409 1931.004639 509.039429
801.525696 1939.670898 298.793060
1123.334595 1941.426025 187.117844
1025.434204 1911.833374 453.528748
1100.250732 1882.978882 243.764038
825.484436 1952.260376 477.972626
703.549866 2085.606934 378.352356
1109.434204 1955.317261 460.278595
1148.244507 2023.137573 431.428375
1081.458984 1805.910156 171.516266
1124.737183 1933.372437 234.858078
1161.299561 2023.642578 426.517792
1132.459351 1907.223633 156.949509
932.572205 1900.701538 457.817780
948.220398 1887.452637 180.670059
1092.617554 1823.199097 280.288666
938.104919 1887.786133 448.701477
997.931152 1858.043213 263.017151
1097.035645 1844.786865 334.912445
682.854370 1984.104004 201.911530
952.518616 1884.408325 441.793060
886.192322 1900.613525 226.241455
1170.108887 2051.226318 371.139038
1017.783630 1927.008911 448.152191
1069.561890 1824.044189 225.375717
1104.682129 1910.394409 300.357056
982.986694 1859.820435 354.409790
770.213684 1961.494507 462.023071
1138.914795 1963.862671 373.124084
906.238281 1950.326904 474.719604
746.467773 1964.816650 298.729095
862.298523 1910.602295 454.001160
831.324402 1943.832031 183.704971
1065.936279 1845.726318 177.143082
831.815796 1927.923706 461.797729
885.910706 1995.165527 496.535645
931.160034 1895.878662 443.756348
965.595093 1932.613892 455.048706
1077.150635 1851.527222 184.528595
1088.017334 1835.189819 159.408508
822.569397 1932.079468 183.758896
970.680542 1881.753662 184.673996
1140.633301 1980.007202 264.376343
1029.666138 1911.972778 500.280121
896.196411 1901.216064 440.808105
1138.778076 1896.672241 420.059967
1082.173950 1832.708130 400.836548
757.858765 1955.042969 447.026550
833.424988 1911.743896 184.720016
976.855713 1870.537109 175.460754
1038.268677 1852.844849 172.079224
1080.775391 1940.128296 439.702271
840.658081 1915.633057 469.624420
1000.424866 1858.045410 318.243408
849.007080 1970.987549 493.688141
1107.565308 1907.245728 426.356476
1074.892212 1842.239380 157.280029
827.181946 1934.722412 238.293381
898.630005 1910.182129 454.528595
1040.368774 1927.898193 505.011810
1145.094971 1986.863525 314.349487
823.711365 1937.389893 260.480103
1141.588867 1964.917969 340.903351
830.435608 1945.796753 455.576294
1118.385986 1949.610352 531.808533
1120.608032 1888.532104 433.390808
1095.759888 1869.276367 379.978394
821.659973 1966.589722 485.864197
1093.547119 1852.892334 320.761627
1012.989807 1911.366821 556.699036
1130.223511 1956.758179 221.265350
1123.308838 1922.285767 356.882690
935.866455 1906.046387 261.829132
1056.278809 1824.739258 168.078247
1125.803101 1875.482544 413.180725
1044.881104 1896.526855 440.873871
784.037903 1955.645020 317.372986
959.999634 1885.390381 327.843719
1124.649170 1945.109497 208.461182
1020.862000 1912.905273 575.356201
1019.572571 1910.606445 434.539032
1191.254883 2068.893311 316.721252
978.904541 1853.461426 176.853943
987.195740 1852.539185 280.903351
999.421204 1852.765625 340.864288
879.833618 1914.439087 350.178772
1062.032715 1836.150757 392.699036
686.712585 1980.399658 315.906921
821.520691 1930.007446 220.526230
1124.213379 1918.148071 243.166397
1139.689697 1996.204468 444.246490
975.625488 1875.660034 248.609863
1073.926025 1820.937378 275.717407
1040.875977 1851.633789 189.510895
1106.974609 1902.089966 174.871078
1078.217529 1825.195557 169.013855
1063.797729 1987.640869 459.011749
793.096741 1938.776245 219.611435
1141.653687 2009.793823 244.234344
1035.515747 1917.823242 497.518799
813.888916 1945.282227 217.625259
732.337769 2156.421143 429.270294
912.074646 1901.267822 326.440460
1054.054932 1818.209595 297.340210
770.096252 1959.714478 478.595825
1079.570801 1841.194336 388.076141
725.090759 1983.957886 209.384720
1103.100708 1863.176270 353.790649
728.448547 1982.341675 266.615234
1089.699951 1837.208862 156.803665
824.427979 1937.191772 473.088928
943.389709 1887.914307 172.974045
1091.692139 1849.629883 313.701782
790.542786 1974.633057 487.160919
932.070862 1896.607788 315.997772
1075.457642 1839.940063 168.515793
988.737671 1861.850830 222.254974
980.241821 1937.213989 465.296448
779.075562 1950.158081 199.211319
671.907715 1991.642944 313.132019
858.587524 1926.383789 272.911926
973.624573 1921.775879 247.926956
884.989014 1925.890869 305.312347
945.243713 1924.837280 465.496979
1060.717285 1832.765137 230.972504
1118.325317 1892.103149 328.927094
770.763794 1965.641113 482.796051
955.803955 1927.544312 361.952240
1027.929443 1837.543579 284.826935
1130.410522 1905.587891 372.227051
922.867737 1904.901855 280.241058
1155.576660 2050.707031 194.943665
840.604065 1939.346558 280.126221
849.549622 1926.535400 322.784454
975.701294 1919.126221 465.241364
734.890564 1976.710938 405.329224
798.145142 1948.481567 468.838440
1013.948792 1837.530273 355.891876
954.105164 1876.486572 217.799789
752.902710 2015.217651 501.352966
1149.406616 1999.724243 274.191620
989.736328 1841.951904 173.388992
908.744263 1909.215332 173.107193
956.739075 1896.419678 276.679810
1136.680420 1970.239624 344.051514
1029.010132 1908.436768 541.097961
1100.444336 1906.150391 243.716949
851.955139 1940.331299 350.533813
1046.974243 1848.497681 185.792450
960.799438 1893.832886 172.201279
883.005310 1927.328613 270.347260
1024.560913 1922.421265 450.571686
1064.180542 1825.455566 419.129456
1144.941528 1952.642578 332.271606
796.147827 1944.331299 193.244934
1049.885010 1910.672485 561.710815
1042.776367 1839.700317 432.027283
746.778809 1966.039429 455.245087
989.097961 1859.779419 421.619446
726.639404 1981.819580 465.169220
924.867004 1895.338257 237.019730
1078.937256 1826.478394 198.349426
1127.132568 1897.323486 422.385803
1030.171509 1845.705322 392.350769
1090.395508 1851.408447 392.575806
1104.278564 1958.537964 491.140411
949.393799 1895.051147 233.777817
969.667114 1866.577515 368.305115
724.962097 1968.936523 214.409042
967.490417 1886.864258 347.717285
1155.504639 2017.473877 445.278290
1164.885132 2052.177734 161.304398
1108.357788 1875.701660 335.426331
963.571228 1882.709473 327.547882
783.743164 1955.698608 458.318634
984.375366 1911.181274 592.060852
1042.281616 1828.330078 371.690948
802.004211 1935.504272 201.214722
1171.539551 2053.024902 265.095734
1015.433472 1838.565430 328.987366
1091.669678 1974.636108 528.321594
972.009216 1855.163452 173.474228
1170.933716 2043.597168 182.957092
1146.022095 2002.823730 155.516357
1141.044312 2047.696045 439.923584
1070.033936 1846.297119 179.362122
816.385254 1938.602539 300.684845
903.220703 1909.254272 306.246765
808.511597 1962.977905 461.066284
1007.017578 1851.697632 386.801025
867.698914 1918.262329 407.556824
809.384583 1934.261108 224.835022
1011.767700 1904.685181 540.884033
861.754150 1923.258301 279.660156
1150.605713 1987.284912 348.862518
691.885925 2048.352051 387.154419
751.099426 1990.114990 482.479950
866.789185 1919.605713 370.548523
1191.815430 2033.321899 411.554718
880.046204 1916.421875 308.801697
1102.730347 1894.811157 163.142685
1104.596802 1897.715210 213.719299
956.377075 1889.741943 220.872040
1135.447998 1955.879761 290.335083
1144.827026 2018.348633 468.609772
746.362610 1999.359497 511.665649
1093.326050 1858.842163 351.214203
1095.839233 1869.845459 195.078598
1173.536987 2057.164307 248.751465
886.276184 1906.751465 413.914948
922.611572 1889.844116 209.783920
1095.639404 1857.180908 351.810577
937.562317 1904.019897 355.616089
1133.277466 1988.447632 479.063904
963.107422 1886.512695 266.893280
1096.680420 1824.623535 325.689758
911.585205 1899.983765 364.857239
994.395203 1913.886353 502.814026
1121.989990 1886.181641 393.583099
790.138916 1942.022705 278.528290
855.320068 1913.587646 209.735016
1143.449951 1952.339844 292.048553
893.213562 1921.805786 371.180817
1141.073608 1954.245605 387.568207
943.431824 1895.908936 353.846466
817.954834 1942.943726 376.214325
896.692017 1907.103760 319.511658
779.889587 1946.391602 384.431946
849.399048 1927.268677 326.928711
852.535828 1932.464966 375.810028
1161.953857 2034.488159 210.178406
931.398865 1896.046387 305.612061
1039.639893 1942.898560 445.969818
1138.501221 1959.557617 307.747040
1069.535645 1839.541626 176.579391
1180.982422 2089.918457 159.869247
980.869751 1866.583252 407.066772
753.547241 1954.287109 274.700500
1101.456177 1964.962524 477.063599
1143.044312 1893.145386 412.373383
900.628601 1902.669800 428.519073
1102.095459 1807.594238 245.732986
937.721680 1881.571045 210.843567
864.144592 1909.264526 453.912262
794.353882 1942.462769 331.800446
1129.324585 1965.598511 460.786621
690.181152 1976.880127 420.678436
1028.280640 1853.163208 432.631470
863.799744 1933.132446 458.959961
1151.092773 1913.912598 410.215210
1099.338623 1949.302368 434.146881
1025.497925 1929.371338 460.747437
1127.975464 2058.494629 440.469574
1036.369385 1838.228394 227.310623
932.675659 1882.960938 212.839264
1196.095947 2013.325806 407.521820
918.690857 1928.467407 456.482117
895.718262 1917.466309 349.706787
1150.987305 2002.704468 210.875519
823.227112 1951.752441 389.047943
753.199402 2008.215576 348.255585
796.431702 1947.834717 266.344757
975.111511 1880.310059 389.496826
722.013428 1960.798096 442.341766
1194.339233 2029.867920 410.847565
958.105347 2023.132080 489.557617
1114.755005 1908.239502 209.213516
1133.008301 1985.238647 469.996490
883.795715 1906.931885 470.894684
861.709961 1921.246216 463.746246
1138.226318 1957.829590 518.716125
1002.530212 1854.637451 371.947327
946.398682 1886.067627 202.947296
1119.464966 1896.969238 430.396637
821.979309 1932.126709 387.839264
1036.989624 1822.523193 291.066284
1029.399170 1898.093628 529.654358
995.305481 1855.737061 381.046356
729.961487 1973.595337 443.465942
976.390808 1876.963989 390.019867
966.261047 1866.918701 324.463043
1037.440186 1953.113892 523.914490
932.780334 1883.239746 208.085861
1027.008667 1848.867188 339.834686
881.924927 1915.261963 475.991302
841.312256 1935.433472 484.215393
914.561768 1909.498047 379.456696
932.152344 1881.953735 431.835175
1094.428711 1825.952148 226.666397
1093.319702 1826.637573 255.341934
997.967590 1903.477905 508.639679
747.654907 1958.332275 328.199219
1154.941284 2000.954956 166.255585
948.031921 1881.665771 207.246704
1173.296997 2045.809814 321.329163
1014.450195 1857.288452 415.574921
860.650757 1908.971558 217.886154
1008.706970 1899.811157 553.826172
1116.703613 1953.518799 534.218628
890.352478 1902.928345 202.667175
972.162109 1883.854004 248.265152
1097.454834 1922.195190 436.633057
955.491150 1887.895508 336.635681
1018.648499 1835.317383 282.384521
1114.784668 1980.688721 480.254364
807.143616 1942.404907 407.168854
1089.923950 1905.658691 439.609283
1032.890747 1846.791382 224.957397
1159.457886 1903.016846 417.736572
1125.499512 1922.112793 334.527893
1110.735107 1887.326050 386.423035
1167.909058 2033.966675 371.929260
837.928223 1928.786377 222.990784
1160.936035 2039.485352 181.576767
1168.420654 2025.986206 221.429138
1138.462769 1964.301270 265.345856
1043.212646 1831.710693 349.682343
1036.828125 1858.866455 162.613556
1178.730713 1994.050537 430.250977
1064.501343 1837.282471 197.268234
1019.636963 1922.537842 480.067352
1073.734497 1817.294922 269.612457
945.980469 1949.382813 461.162476
1019.883972 1921.524780 504.244232
1131.187866 1952.539551 163.943298
933.487793 1893.371948 382.871460
1124.789673 1976.394653 524.094604
1011.200989 1837.325562 345.513306
1115.326050 1919.402344 221.518173
768.964111 1944.844971 415.150726
1072.344604 1830.185547 238.908661
973.964661 1891.794189 436.310059
847.826904 1937.366699 454.992493
1071.144409 1841.243896 411.697845
1177.440796 2068.308594 285.127045
1063.762085 1967.298462 499.224579
1018.759216 1901.341431 526.157410
1008.565491 1863.133911 192.118790
980.151611 1857.565918 350.211823
941.457031 1902.149292 316.887390
1134.863770 1961.218140 265.726257
1049.849609 1837.241943 401.064575
1148.201172 1969.541504 159.697525
711.862000 2098.037842 427.454010
1125.458618 1917.399658 361.734497
988.873962 1848.615723 382.466125
717.871094 1990.469971 470.425995
1012.407532 1843.058105 275.812256
1035.000000 1834.419556 284.240417
704.550720 1960.320557 431.158875
1110.548828 1866.871826 424.958282
1038.782837 1955.491211 447.060242
1033.165894 1833.263672 287.815094
1026.004028 1839.164795 319.041473
834.712524 1993.771606 492.372650
917.638550 1899.669678 364.248627
1091.760864 1836.605591 192.141022
1173.569458 1980.656860 401.241577
1024.508301 1898.754639 548.096008
1175.050049 2019.890869 385.749451
1093.318604 1864.641846 431.352417
1070.581787 1833.693848 428.411835
1095.249756 1893.370361 274.924774
717.917908 1984.771118 187.746765
1064.235962 1900.280640 431.616028
757.596497 1955.249390 391.627563
826.618408 1922.115723 436.256714
1159.913452 2013.284058 310.802643
796.997864 1958.797363 402.779846
702.201660 1970.143311 412.227600
990.682617 1862.818848 364.344696
1052.886719 1839.750122 224.664917
1048.448486 1826.499146 284.496613
688.220276 1986.111816 300.542328
1159.577637 1918.731689 417.020538
1101.304932 1973.671143 519.538696
958.265381 1880.342407 314.826385
824.167358 1943.409424 475.209229
853.297729 1913.037720 448.464447
927.896423 1890.120483 410.256775
1165.421265 2029.484619 436.184845
1095.455566 1865.867554 216.195099
1064.699707 1840.447632 312.500702
1136.746826 1980.521240 159.483871
824.388489 1951.034424 469.018768
1161.872070 1971.721069 393.414734
795.640686 2009.253784 504.656891
1072.175415 1846.131958 432.952057
685.045532 1994.462158 340.685181
984.950073 1863.902100 189.202530
1039.696777 1826.923462 244.816513
1177.588135 1989.819458 414.867706
886.031250 1919.131836 397.940002
767.715027 1937.558838 228.962143
1035.497192 1927.957520 474.353516
759.460388 1978.852173 526.541565
921.067993 1906.184814 177.017212
687.663940 1980.230225 253.757309
1123.996704 1935.538818 208.539551
968.830383 1862.951416 299.773285
1038.731812 1837.159790 402.799438
981.055298 1865.224609 415.226624
1183.343628 1999.165649 421.113525
698.582520 1958.951050 188.928513
833.476074 1943.943726 458.917511
884.711426 1903.985596 449.213043
1031.982422 1833.778931 263.149719
1067.614014 1832.540771 183.828491
851.910339 1906.342163 463.427277
1086.250610 1862.171509 441.214294
891.913696 1908.725220 175.319504
800.238647 1900.802856 195.042435
985.228882 1878.499878 427.271240
1089.116943 1848.422852 180.400375
1145.037109 1977.482056 312.554657
1058.064575 1823.160767 340.692780
1141.108032 1963.887573 367.647980
1077.783813 1824.591064 406.220062
1191.219238 2080.347900 225.554596
865.589355 1914.062500 415.237366
998.592407 1913.156860 531.357849
741.937378 1955.363647 413.862610
926.930847 1910.997437 327.015015
898.382813 1902.588623 217.514954
898.597778 1923.310547 289.459534
842.731201 1920.443237 458.372345
689.768433 1980.435669 294.420258
993.918884 1857.838867 294.761139
844.802368 1931.755249 488.093994
849.933044 1924.976685 216.652466
968.375488 1875.473267 217.016327
1146.872681 1898.604492 411.861572
1029.907104 1834.407715 287.535522
906.274902 1897.754028 217.418640
992.876282 1850.121460 369.489716
849.753845 1937.304565 260.044678
1012.121704 1852.312012 370.857880
1123.016846 1939.879028 214.539124
826.748108 1931.044189 205.267136
742.923767 2167.779541 405.303955
1067.645142 1889.578735 437.126129
866.175415 1916.371216 294.560608
718.623779 1966.408203 389.304077
874.050476 1903.499756 435.817535
933.329163 1890.165283 189.187347
848.325928 1938.555542 320.026642
739.145447 1949.383667 441.718323
1054.959473 1824.358032 257.841400
956.540833 1885.464966 404.473480
1063.263672 1832.707031 185.801147
1085.654907 1847.521118 349.816284
819.048340 1939.367065 244.312027
1076.780762 1832.817993 190.638290
1133.911011 1998.065430 459.559357
974.204224 1850.371460 292.842072
807.304443 1964.166138 484.463501
781.421387 1946.407593 237.647812
845.378296 1930.102539 346.162079
1096.285156 1876.315430 432.607666
1143.606812 1918.353027 407.281708
1139.221680 1964.588257 343.466919
1006.756042 1844.294312 368.300507
1035.921631 1838.863037 208.673981
1165.359863 1999.928223 363.974701
939.197998 1897.565796 295.969025
728.104309 1970.641113 187.212540
1120.976318 1933.361816 231.902344
975.298218 1917.295044 546.418762
1128.177856 1937.973999 276.108917
782.143616 1950.306274 311.826630
1041.629395 1836.525024 233.518082
950.047791 1877.015503 433.543304
1157.861328 2039.447021 340.483307
933.706665 1891.988647 206.688950
851.876953 1968.699707 493.452942
767.104919 1963.324585 427.233917
784.176392 2018.891235 506.831238
905.004822 1908.512085 196.990875
1103.024048 1893.932373 229.538773
1076.387451 1816.640259 169.452713
869.044128 1911.998657 419.870972
836.062683 1928.392944 237.658188
767.522034 1959.240845 377.945557
869.683167 1906.632568 436.381378
1087.218994 1877.872192 432.495361
1101.569580 1883.399780 279.694672
828.892273 1923.539429 430.838898
1124.509277 1904.189697 429.271698
1076.738892 1841.749878 392.283569
864.701782 1915.482910 218.948700
740.455322 1960.761108 328.282196
1164.772949 2050.790527 183.556763
707.201904 2078.309082 426.030823
819.345520 1927.031616 437.803772
1156.034790 1889.718628 439.666199
892.127258 1915.854736 406.449615
849.202515 1925.733276 311.012665
670.433289 1984.539795 307.531616
1111.412476 1901.177856 316.603516
1073.010010 1826.846802 401.123596
1047.809937 1832.246338 372.487915
895.297791 1898.735840 445.541840
1121.633545 1951.927734 182.149826
864.462585 1923.027954 327.076935
885.624329 1903.155884 453.390991
981.929504 1863.884644 207.248123
831.258362 2018.232544 484.710663
1161.815063 2014.832397 334.988892
1006.045959 1910.106934 589.003052
891.800171 1917.226440 177.093155
1146.695923 1990.593140 224.926880
1023.489014 1905.155396 566.992798
970.489502 1883.955078 351.962311
1037.696533 1941.844360 442.669312
1160.632813 2006.677124 223.189148
998.538391 1912.620239 527.770020
1056.819214 1826.249268 335.219971
1046.602905 1910.260132 485.182312
942.843262 1942.700073 468.610107
1137.730591 1972.290161 268.336395
1010.340088 1843.245728 371.772217
1025.119995 1910.519775 567.493591
711.886414 1964.883789 422.559265
1145.735718 1975.224121 344.353241
921.217712 1901.712036 233.351334
765.563721 2021.712646 506.667664
1148.029785 1998.544067 211.593292
1162.150757 1955.468262 405.364777
1128.183228 1947.454346 206.474686
789.762024 1952.586792 283.678345
999.850220 1852.249390 239.091019
764.533020 2012.024170 506.946747
1028.018799 1832.801147 293.515594
1150.554810 1989.472168 163.334427
974.244568 1879.245117 176.375397
976.463135 1895.145996 452.907166
681.002075 1987.964355 205.013214
1002.624451 1851.894287 283.266418
1000.318970 1843.135742 275.502930
990.449097 1848.974976 322.688721
705.991028 2016.980225 275.621796
1154.506348 1972.616333 423.937012
1002.321960 1900.769287 433.773895
992.879089 1853.998901 216.797546
705.205811 1996.119141 485.430481
760.781555 1953.821655 448.071014
1074.428711 1848.080322 181.181305
1061.770142 1830.121826 395.040833
1098.276855 1878.818970 234.390305
820.676025 1927.579712 456.052216
797.508057 1940.568848 384.167633
1018.725281 1905.116333 588.744995
847.739685 1930.644653 355.999542
963.096863 1875.360596 371.306549
964.054077 1866.818359 421.782593
1179.053467 2067.402344 164.120834
1145.816772 1965.536255 441.555511
1052.627075 1833.045288 390.864655
1059.384033 1806.068481 178.908066
742.251770 1974.984131 401.342255
1135.730591 1993.212524 466.063019
753.329163 1945.094360 183.364594
1063.693481 1838.081299 206.988235
1020.256042 2009.439819 442.414978
1170.474121 2060.075195 186.148010
765.631653 1950.256470 396.655212
770.734314 1968.670288 507.240631
934.945557 1887.942627 197.761642
1117.747803 1976.633423 488.832977
849.766663 1911.758179 454.059814
911.289673 1898.463013 386.017059
945.416321 1887.934448 387.207855
828.763550 1927.830566 219.233414
1047.461182 1825.868408 326.639557
913.557129 1895.456299 456.255585
833.260742 1924.265869 447.400146
1022.302063 1847.538696 325.463165
1071.155640 1831.392212 355.755249
1123.177612 1868.058350 411.662689
1045.481079 1829.675171 300.584320
1044.267212 1939.495605 437.147217
1000.551025 1850.684937 252.945343
819.864014 1963.197144 302.650970
950.624573 1883.711792 226.578644
809.363159 1944.630615 454.192688
921.397705 1901.163086 381.372986
875.888794 1920.324585 282.101196
956.983215 1890.312378 351.122162
700.163330 1986.760132 365.013824
955.044373 1896.389526 436.332245
1153.715332 2006.598511 300.576294
1085.880737 1908.102661 431.873871
882.382263 2003.714966 483.573761
1143.351563 1953.411621 429.935760
1168.617798 1962.322998 436.956055
912.116638 1908.128174 206.656494
1025.139282 1927.240845 442.385071
771.240662 1946.005493 224.267502
955.508423 1876.549683 433.243073
1025.029907 1927.729614 454.662872
979.442749 1915.320313 448.334595
704.324402 1966.588257 375.343506
1027.397217 1828.210205 283.787018
966.958252 1867.440308 360.412048
903.054749 1920.610474 310.217255
917.003967 1890.573364 217.474609
1012.808228 1867.833130 165.004059
1185.264893 2056.341309 305.333374
1114.065918 1870.302490 433.132385
971.756287 1916.502197 469.266998
812.694885 1969.619873 484.373291
753.703735 1960.873413 226.969086
1004.251282 1905.178711 441.885773
932.235535 1913.489990 229.208710
993.380920 1857.460327 354.463531
1022.149719 1840.732178 412.473267
1011.163452 1897.470093 436.853241
1124.334717 1940.486328 165.968613
1017.730530 1891.649658 523.970459
900.543640 1900.349609 215.999191
1112.750977 1919.356445 179.810150
815.087952 1931.954956 274.797150
1119.713623 1914.498413 274.955078
1172.438110 1947.598022 420.526062
1144.109741 2023.642334 468.281403
1131.737915 1957.202026 501.861694
1134.501953 1937.668213 223.621399
1059.803101 1823.663574 357.946808
808.442627 1936.186523 286.633057
831.856201 1921.668823 251.275681
834.186462 1948.486450 369.157166
739.982056 1961.499878 385.737976
834.371216 1902.846313 177.863403
1013.533081 1848.603760 382.408783
818.146057 1945.841797 309.193024
1165.836060 1931.149048 417.160065
903.818176 1893.009399 465.365936
1080.656128 1822.824219 425.253632
682.219299 1988.199463 389.147125
976.189636 1848.707275 334.858185
1077.569824 1841.088745 436.690155
1067.394653 1849.277100 436.878967
1048.970703 1822.483887 331.291260
1095.686035 1867.676392 284.914001
1177.390381 1991.721680 432.479065
1134.699585 1895.541260 422.827393
1108.556030 1868.657227 428.212616
768.893738 1950.871582 294.872162
1051.754150 1843.459473 429.560486
928.947693 1884.094849 433.254883
1182.551758 2004.183350 400.219727
703.043396 1963.785522 292.987915
898.478088 1912.392578 323.351929
1009.264160 1840.152222 317.362213
1073.391724 1838.261963 339.264313
971.000366 1861.345215 281.107697
710.660034 1991.388306 470.451477
1136.192993 1964.168335 238.679535
1066.332886 1816.411377 289.632416
756.612671 1970.455200 254.045395
1049.034546 1838.042725 415.203735
873.408081 1931.131226 482.771973
1116.406372 1905.938721 359.918884
1097.339600 1849.274048 311.378906
1027.190796 1849.249146 422.239136
815.467651 1951.163452 342.806641
1117.567749 1912.948486 360.231140
1072.872681 1832.778687 173.499405
866.018860 1914.999023 213.578888
1023.807007 1841.248535 424.828400
1153.076294 2053.571777 426.293335
1080.264282 1840.640137 191.295746
808.408630 1926.167480 450.670715
1019.179626 1897.307373 534.858459
774.986145 1948.444824 400.446503
1179.310791 2032.609375 363.148224
855.315796 1921.156738 314.972443
783.998474 1946.516724 460.482880
973.597168 1889.348022 171.273270
995.011902 1860.389893 257.421753
1138.016724 1989.614990 170.328995
820.930481 1937.955322 467.217194
1026.068237 1885.325684 440.819000
934.689209 1886.194092 419.267883
1135.292358 1953.920166 338.658264
1112.854736 1904.423706 433.334534
1198.522949 2050.598633 398.622101
787.621887 1963.079834 477.928223
1016.628845 1842.562256 287.529541
745.109192 2005.732544 505.047058
1029.363525 1845.013672 352.640869
1072.317017 1822.419922 345.054199
1039.703003 1917.953491 541.692993
1012.632507 1852.229004 191.619965
1006.026062 1849.458252 364.988647
1065.316772 1818.018677 332.697144
902.419556 1907.074219 339.391449
808.641174 1939.631470 448.531616
1124.870361 1971.302124 501.280273
734.982361 1972.874756 292.102509
792.817383 1996.102295 500.158875
1082.954834 1822.514038 400.117645
987.178894 1902.352783 498.563263
913.180115 1904.694702 315.859344
1019.247070 1853.928223 161.448425
1132.903320 1936.420654 366.914063
1149.937012 1964.602173 368.587097
1027.656250 1845.517212 406.458191
1078.322998 1971.695557 458.449799
887.655884 1908.105225 196.322266
984.670898 1861.376465 384.475494
1093.986694 1842.824097 202.270050
699.099792 1964.064575 240.852188
1166.528076 2033.724121 163.248337
1009.170715 1906.481812 549.679932
907.803894 1909.632690 219.803116
1031.711426 1835.349854 325.809387
910.541199 1889.303711 425.384857
794.170288 1948.969604 454.239136
690.885498 1983.621704 434.021851
1063.835815 1820.075806 303.185272
938.958252 1895.544678 459.473389
855.088135 1929.815674 443.832123
1121.614014 1972.932495 163.779419
842.852844 1919.205200 201.069687
995.266174 1905.286743 463.811798
1025.580078 1838.509644 352.943695
1007.844360 1849.202759 215.164444
713.912598 2009.452515 300.941467
993.999817 1854.671143 260.992798
956.806091 1887.849243 320.217529
944.094299 1967.444824 481.925232
968.987305 1870.525146 355.721527
1019.729858 1920.173218 478.008301
1008.524963 1924.929932 462.446777
1017.921875 1838.953979 330.156830
1073.961426 1858.333740 174.561401
960.312744 1896.598877 277.779388
865.770508 1984.717773 492.988892
862.337769 1929.322876 400.096863
876.247742 1959.007202 481.611786
1171.822388 2072.327148 156.360977
727.755432 1964.568604 390.426422
1100.470337 1892.344849 156.726868
1033.191040 1833.005493 376.085022
1059.739380 1820.822266 328.027588
692.180054 1992.119141 326.848297
988.925842 1860.313354 286.983032
1071.057495 1820.859985 331.714874
1076.922852 1817.139526 386.400574
1025.862671 1912.970947 436.828064
692.099731 1975.239624 398.171234
808.162231 1989.502197 483.972748
1160.815796 1944.286743 404.210175
797.384155 1947.957520 364.908936
1124.940430 1934.525024 442.661285
1008.900574 1911.260864 588.361694
1123.401367 1957.394165 459.096985
892.234741 1974.766846 494.106415
1165.250854 2016.238281 381.148102
1123.831787 1919.367920 322.963135
1002.786438 1850.865234 414.660858
868.548096 1925.160889 301.716217
1171.947998 2061.166016 306.438416
996.804321 1844.687378 274.655426
972.224060 1915.842651 440.772552
1105.517578 1857.606323 409.635590
1134.305786 1947.095947 360.570374
1114.023926 1916.024414 225.905655
944.330261 1889.924438 401.664734
792.721802 1928.827271 430.435608
1122.304077 1909.340576 268.593323
1143.360962 1997.686646 505.298004
1006.231445 1861.561890 419.703613
1049.895386 1850.456787 188.717697
1144.183228 1946.473267 427.566315
1137.846436 1957.195313 201.367783
1063.994263 1954.523682 437.624969
849.538696 1929.188599 311.211395
1123.547729 1928.848022 244.053925
1159.906982 2011.783081 328.528839
889.701538 1903.896973 472.074127
727.775208 1973.750854 451.792664
1116.342041 1919.014648 255.124329
941.659485 1885.603516 249.703903
1090.218140 1820.595215 314.689148
994.712952 1902.715698 469.026215
833.333008 1929.572754 468.605438
1013.235352 1844.978394 389.690033
1128.021362 1948.691650 258.520294
1032.844971 1839.742188 269.005829
712.854248 1986.964966 454.793640
1112.779907 1889.727661 261.544464
1107.511597 1924.444214 159.304337
1139.223145 1905.510498 424.420197
946.306335 1892.719116 320.193420
680.885254 2022.759766 368.473175
685.326172 1973.660156 408.535156
1116.953613 1890.848633 252.287537
1043.655273 1909.215820 532.595642
1110.691162 1854.202026 419.753540
1162.600342 1959.289673 424.035370
1173.254150 1997.065186 154.601105
1131.394653 1949.582153 304.873260
1018.793152 1906.592773 570.463318
983.436157 1869.924683 350.030090
1172.663574 2022.432495 323.130157
1166.953735 2020.336914 239.245987
693.581543 1938.435181 203.123032
1130.652832 1937.696777 324.947876
1104.741943 1875.567871 172.050629
856.770996 1932.819336 252.818741
1105.550293 1838.975708 168.884613
809.287659 1945.026123 334.203918
844.296326 1928.500732 296.162689
1126.921143 1946.338623 158.322815
1077.945190 1866.002563 158.354752
850.232544 1922.801636 197.691254
1170.135864 2027.438965 226.279037
946.231445 1888.760254 361.958405
1028.674683 1836.420288 386.011200
733.020569 2028.061890 518.311890
1148.784180 2015.806641 230.504166
759.096008 1957.813477 444.251373
969.428040 1875.682251 183.770386
758.138184 1946.824219 427.964905
1098.696899 1863.312378 229.249832
995.917175 1908.807373 515.923584
789.087463 1907.170532 187.467041
999.759827 1851.922119 410.950531
792.126404 1936.425293 250.987900
1015.969482 1846.250000 317.743011
958.846130 1862.232910 340.576385
1130.998047 1952.287109 360.135864
1040.816895 1964.623657 447.368439
764.709534 1972.798828 308.306396
876.196838 1914.024170 335.245697
1191.280396 2106.678223 191.044830
692.784546 1991.323853 320.466461
1090.264771 1846.207886 161.581909
1086.759155 1851.995728 219.575577
951.510437 1894.579224 436.326935
1137.463623 1955.498047 440.692505
765.327759 1976.406250 280.207794
1013.650085 1840.908936 406.731201
1036.919189 1922.274902 572.796570
1137.327271 1933.423096 333.820007
1088.318604 1881.848389 158.386536
935.400513 1894.632935 384.090942
1103.711426 1874.202881 282.182526
1018.801025 1840.788574 408.669159
1002.925354 1903.066162 474.594238
769.597168 1971.013062 249.788651
1057.604980 2006.370972 444.918945
1060.068237 1833.365723 303.705933
1102.841064 1869.635010 372.080994
1137.935547 1902.522095 424.800018
943.637939 1925.405640 455.697205
988.578064 1928.744019 474.625702
1067.538086 1832.814819 383.119873
1040.941772 1830.681519 266.684540
842.900513 1942.712036 271.183655
1043.660767 1839.801270 344.796143
1103.476440 1874.340942 386.941345
778.809937 1923.380981 182.062073
964.911255 1873.391968 408.520142
866.833252 1924.199585 279.842102
1101.347412 1961.207764 460.143738
832.803101 1936.761841 329.834991
1206.533081 2043.230347 399.718719
1141.840332 2011.816772 453.062897
780.376221 1963.196533 455.034760
1000.803467 1845.803223 271.540436
1124.553833 1934.276489 221.904755
1040.957153 1853.103394 436.958038
1136.323608 1928.694580 384.825104
867.817688 1998.555786 499.345856
759.960022 1948.744995 208.275726
1084.349243 1832.034424 157.344208
1038.570313 1833.386597 383.031921
672.823303 1983.645996 256.803009
1114.694336 1904.145020 197.724472
863.551270 1917.063721 387.641937
1026.660156 1846.928589 330.663147
907.058899 1904.682983 222.467621
712.600708 1970.962402 201.062164
1089.351074 1853.070435 240.814606
956.116272 1885.250854 361.755402
790.385071 1944.574341 440.505737
695.460693 1986.317139 457.479218
1053.629272 1832.442139 317.159180
758.617798 1955.144409 462.986176
1147.445801 1958.951904 345.733612
961.483765 1910.462524 437.936920
1042.109009 1837.295410 307.671173
1100.092407 1844.850830 401.215851
1146.572266 1990.494141 426.400970
768.155151 1991.525513 227.963669
1160.630615 1980.281128 373.473755
1118.064087 1902.811768 377.057220
880.491150 1910.938477 290.488861
1120.607910 1885.477051 421.387573
719.663269 1962.286255 438.419983
1162.544434 2028.583496 323.102722
855.983032 1931.046265 376.067902
1125.949707 1970.722656 427.670593
708.405090 1977.686401 442.818024
1148.906860 2008.913818 305.405731
686.644409 1949.303833 192.157043
690.326111 1980.527588 302.366364
1099.552368 1866.989014 303.044708
902.884583 1904.756714 447.114441
1066.718994 1820.747681 292.050354
965.282104 1968.770142 476.200897
1093.733887 1874.136353 203.566315
1139.826416 1990.868164 348.389099
1102.486694 1879.718140 364.681458
750.821411 1963.906128 197.663986
940.141357 1901.281616 452.678589
1050.696655 1842.641357 291.534485
1134.602539 1982.017212 166.932495
866.947937 1929.889771 178.032257
949.248718 1885.780762 180.834106
1079.917480 1949.040527 436.870300
1011.839417 1844.777344 242.165955
1130.257202 1955.918701 300.167786
854.926025 1916.965454 396.426025
744.997681 1965.721313 276.992798
988.096619 1849.549072 347.904663
910.561829 1891.560791 412.353851
768.907593 1956.342041 258.722717
1013.823975 1922.754272 530.491760
1110.353271 1919.677246 157.437271
740.047180 2172.755127 334.568787
1103.634766 1894.118408 174.983643
1016.033142 1930.939697 539.696777
780.177063 1962.235229 451.480743
974.468811 1864.453003 399.924561
917.301270 1909.136230 324.878906
718.640015 1990.644043 481.237701
871.519409 1918.978638 318.520508
846.174438 1964.781494 474.954681
1091.547729 1848.685669 419.751312
1152.362061 1979.204346 424.461456
692.879761 1982.418457 370.966949
994.940247 1906.102539 570.065796
742.400391 1958.625000 472.171600
933.967834 1919.000000 470.151978
911.180786 1903.947998 187.315430
1074.352661 1837.248535 317.021027
887.888000 1939.675415 470.905334
1125.003906 1923.191284 221.773453
695.732239 1966.591431 240.163406
1140.770630 1956.350586 364.449799
1155.074097 2050.875000 158.021500
1011.189697 1897.333496 512.953918
899.641541 1903.730957 457.147430
788.553040 1991.026367 511.789429
791.699524 1960.598267 489.981079
1178.926880 2036.509766 330.673309
889.152283 1916.183838 248.305786
1061.055542 1824.588867 333.745300
904.963074 1898.739868 413.419067
1144.382324 1972.317139 332.805573
915.169067 1889.835083 222.159424
903.125854 1900.948242 460.377991
1173.722778 2053.005615 331.022095
1034.956177 1834.652832 379.563690
865.565674 1917.375732 366.123413
1112.152954 1900.764771 261.731262
1102.100220 1948.983032 433.777710
813.064575 1943.522095 337.646454
866.261963 1907.346191 454.462860
703.304993 1982.166504 338.028076
1173.409790 2024.025879 221.380295
775.779236 1945.341064 200.588303
785.023560 1947.271729 187.332336
857.673157 1928.195435 244.748459
891.573853 1912.154419 302.377136
925.751892 1914.602783 471.959259
759.389771 1986.189331 485.638458
942.133606 1882.330322 318.400116
1048.204102 1850.337036 410.357758
671.068298 1996.317139 280.333832
1164.215698 2055.062012 164.609772
881.621277 2006.235474 500.362946
1026.155640 1839.963623 295.966400
1137.463989 1997.139526 512.421631
1020.680786 1896.102295 552.268616
959.020020 1885.870361 437.318451
1122.486450 1922.838257 299.819061
1106.728638 1844.242310 362.261536
814.552979 1947.517456 312.979980
801.260742 1956.076660 463.968414
945.674316 1897.881714 369.437531
1163.753296 2097.493164 201.213043
1030.622559 1952.960693 445.720551
813.462646 1944.052612 312.626404
859.206543 1923.223145 228.659912
1187.060669 2082.505127 298.609039
960.595032 1931.115356 478.273865
756.614563 1961.673218 466.042328
884.121521 1906.582764 415.941650
1095.338013 1852.235107 227.292831
1094.200439 1956.252563 541.875183
776.530334 1978.782227 497.393829
1099.056152 1862.571655 249.829880
974.749084 1899.525391 255.301697
969.875000 1876.477905 266.272064
688.328979 2018.478638 447.860077
930.474304 1888.453125 245.987885
1042.814941 1933.257813 563.315796
847.627075 1912.741089 456.656982
1066.527466 1822.291382 279.104462
877.992981 1986.820801 494.778198
882.108765 1915.578735 353.451172
1037.027222 1955.469116 485.499878
1141.658691 2008.593018 503.920807
1069.029297 1842.450684 435.638977
1094.864624 1848.354858 372.269836
1145.780029 1984.292236 231.609940
1083.750000 1824.620605 161.317566
769.548096 1956.011353 450.199493
1015.769775 1857.484985 413.698639
1185.899048 2005.502319 407.962372
1128.263184 1965.110962 500.276825
1132.880859 1923.320190 156.134033
1108.528687 1891.339111 361.019287
967.009644 1875.925171 325.860901
761.268433 1954.353882 391.124146
1026.896118 1858.044312 176.785736
854.522461 1914.921631 469.770111
834.872742 1948.566650 231.281113
874.969238 1930.789673 295.443542
880.965332 1915.195068 465.550232
1066.125610 1854.807739 159.470703
1074.016846 1825.525146 386.518738
701.155945 1993.137817 356.742065
1104.342773 1842.416138 163.435974
816.063232 1942.250366 181.150757
1165.942627 1975.426147 427.006439
1152.446533 1985.439209 163.842438
965.271301 1876.469360 395.437836
801.209595 1945.016968 194.550873
1185.758179 2010.510864 400.231781
757.225281 1953.829102 403.639893
869.570618 1922.903931 302.280670
906.798889 1893.976929 443.259705
971.592163 1860.301636 295.554932
1148.995850 2020.421631 165.294846
1080.662476 1832.479248 419.251617
1030.972900 1842.985962 208.496292
741.357239 1971.181274 239.772781
1165.604004 2012.309326 282.161285
880.122498 1964.675659 492.964447
685.496033 1976.838745 349.048492
1175.073730 2028.309937 332.664032
694.617615 2068.256836 299.980499
1156.801758 2009.912476 278.220795
1169.558960 2097.130127 195.381012
1109.132202 1889.327881 309.510010
1132.869507 1943.752197 360.650543
703.489624 1987.010132 460.020325
922.638794 1965.577393 477.710297
1163.603271 2055.808838 182.002945
949.133118 1882.629272 401.678070
1088.143677 1849.765991 256.749573
1094.339355 1863.732666 162.346298
840.348572 1921.215332 227.899033
875.465820 1913.764648 351.602051
702.514404 1986.369751 321.806824
1091.199585 1832.738281 259.495056
794.065430 1950.722412 336.928711
969.360168 1892.507446 168.890015
1125.521484 1947.289185 197.506287
900.563293 1920.681519 293.514465
1115.897705 1932.889893 157.540558
1030.514771 1892.332397 463.856842
991.105164 1935.128418 477.529175
981.212830 1870.662964 345.759583
719.977173 1976.206055 245.040329
1108.071411 1880.879517 380.907440
1039.216431 1834.679443 284.168518
782.658508 1954.350464 363.292175
970.728210 1914.756592 248.098618
1036.852417 1937.071899 470.368896
773.960266 1948.773315 447.387726
778.811707 1939.947144 425.801056
1135.820190 1909.443115 430.377502
1158.079468 2019.308228 246.594330
1080.243896 1819.833496 379.218506
988.129456 1870.741943 180.082016
798.862488 1961.039917 257.650146
985.820496 1861.911377 297.150269
1126.912598 1955.446289 510.117859
986.243958 1874.920288 438.096863
881.955505 1924.203125 226.648285
1131.934326 1979.897949 484.829254
1120.722656 1905.613770 370.718140
1074.706909 1856.293579 177.320999
1107.664795 1870.412354 380.814758
1137.840210 1960.341675 305.522614
1080.618164 1830.483643 413.194214
923.784912 1896.995850 311.266022
931.307495 1907.890991 467.057526
751.732544 1990.448975 489.724976
879.371277 1912.258545 474.492493
1184.506958 2009.700195 414.341827
1014.255493 1845.911987 244.281799
876.047546 1915.705811 358.648071
980.346741 1854.927002 242.971771
756.170410 2009.595215 513.261169
1086.663574 1828.725220 197.852158
771.393311 1943.522827 443.717743
1014.211060 1929.032349 532.338379
1005.838318 1901.858154 444.675385
817.216370 1922.642212 437.016022
1110.132568 1902.620483 304.161011
943.689697 1933.320068 451.486603
1067.631836 1837.592407 407.986908
834.719666 1928.511475 239.109085
766.951233 1957.825195 405.641724
1046.513550 1830.735596 350.149414
867.386230 1921.081543 192.010681
1110.900391 1912.711182 180.375595
1167.332886 2032.306763 359.660400
1040.526733 1933.838501 565.707153
966.458862 1870.420898 382.464844
1030.913208 1861.518555 433.027039
943.438477 1888.319580 289.412079
1028.333008 1911.053589 558.558960
968.637390 1860.724365 333.816559
850.536255 1918.795410 417.615601
954.773132 1939.602295 324.570587
711.147949 1970.030640 230.123322
910.104797 1913.977661 257.422607
1034.700195 1925.082520 564.489197
1023.180176 1907.283936 541.980530
1014.152344 1838.049194 297.448456
922.834045 1888.552490 426.262390
964.510315 1893.842773 446.505219
990.304077 1872.780396 177.476730
702.545105 2010.929932 473.964813
909.277161 1903.003174 366.665497
1146.069702 1953.238037 376.684784
738.965515 1959.643921 472.526978
842.516235 1932.529785 270.550751
921.321899 1903.225586 298.281494
1039.899048 1937.189453 542.302673
1006.678406 1898.417236 470.052704
1148.738281 1997.157227 315.411011
786.000610 1961.262939 386.632233
1037.674438 1840.983154 322.763824
880.340576 1931.132446 372.456451
1185.647705 2076.278320 319.907135
1000.476318 1851.442871 308.131775
1104.007080 1895.631958 440.753113
989.300537 1856.026489 248.287277
678.038879 2010.843994 388.285828
988.519104 1918.452148 440.332733
1003.567444 1853.329468 404.872833
1026.341675 1848.601196 323.201874
990.609314 1866.292847 427.346222
707.689392 1977.838013 455.729095
1031.913086 1900.043091 548.654602
1030.375244 1921.072266 536.750122
1025.134033 1841.810059 271.567383
804.069397 1942.728149 313.330475
988.685852 1905.016846 557.208130
929.673706 1900.771606 290.952698
840.939453 1942.279297 321.422455
967.000854 1883.965698 232.047485
924.623413 1857.248535 189.013748
866.348694 1913.945557 204.409622
1135.666260 1950.166016 368.047729
1064.570557 1820.692993 258.912506
1029.963013 1828.501221 304.104706
1020.468323 1931.978271 470.355591
1139.360718 1995.685059 159.150238
885.234070 1904.546875 176.476486
1038.619385 1839.780151 414.212372
922.104553 1891.490723 400.819641
814.319519 1940.410278 364.849152
733.492188 1982.139282 493.510986
1012.795959 1852.820557 420.121277
1153.418579 1959.659302 438.588440
779.887329 1986.107666 229.708084
910.510254 1909.235718 280.411682
1154.118774 2008.684570 253.810944
1174.485962 2063.234375 230.577332
1029.577637 1918.778809 556.056213
1026.105103 1930.773804 446.096191
689.322144 2062.013672 227.504929
854.174561 1893.879272 192.097504
895.755920 1855.059326 190.333588
1186.171021 2065.932861 159.598846
997.673889 1852.493774 402.736725
883.450317 1971.087280 492.008575
937.202576 1891.805420 450.013794
1017.702637 1860.778442 178.217636
959.642273 1880.142578 383.094910
1102.335693 1836.102661 416.135803
830.411804 1948.902588 365.199097
994.717896 1906.497437 435.744171
957.997803 1879.397827 401.935120
1131.608643 1939.402954 383.309570
923.548035 1898.420532 441.860901
1172.448608 2003.981079 393.557037
970.751282 1924.110474 328.984406
769.229980 1949.742798 380.710876
1141.418945 1876.743042 424.814545
1081.160522 1840.916748 246.973480
753.355591 1962.276855 289.604523
778.109131 1952.774292 395.620331
728.167725 1964.400391 218.036377
854.207458 1940.753906 284.071960
825.116943 1930.303955 210.660172
1103.373413 1846.742188 174.274109
1173.311035 2056.054443 294.411407
788.850708 1952.597412 218.338486
1090.992798 1958.941650 451.755585
1017.001648 1911.728271 472.898468
1067.968018 1831.990356 379.605011
1140.322754 1890.893799 411.978607
1086.302979 1858.223633 201.006317
1132.827148 1935.744751 374.647064
717.879761 1966.109985 447.073151
1012.666443 1912.878662 455.965881
1140.612671 1903.606689 399.938538
1090.418457 1964.841064 509.704742
1073.165771 1823.353516 350.301697
1106.924316 1879.488770 292.997131
929.325012 1892.432129 213.749695
1042.479248 1829.360107 355.283691
890.029297 1920.625854 464.821777
969.182678 1874.479614 437.881470
1122.869263 1920.934937 157.208847
950.513977 1884.500000 438.692688
795.037109 1939.326294 433.210999
939.038818 1885.991699 295.209564
740.808472 1976.215576 204.873047
763.509460 1964.410645 427.143066
1036.140503 1824.674072 270.609100
933.892151 1886.454956 242.085922
1152.416870 1991.052979 356.378357
1086.928711 1834.418213 427.254211
802.557434 1971.374756 476.464783
705.818604 1977.668945 434.220215
1194.499268 2076.665039 316.364532
1030.493042 1929.122681 488.880737
826.576355 1947.788574 223.655960
867.563171 1979.805664 473.967438
1006.859131 1852.134888 167.762268
1041.331421 1825.880859 318.476563
757.369080 1946.665894 434.020416
1097.307617 1852.407593 304.708221
1116.809204 1897.412476 385.109955
783.005493 1966.486572 483.188812
1129.505127 1963.908447 213.167221
906.211853 1898.825928 207.243256
1094.370972 1825.187988 285.606323
1074.750244 1834.217773 418.038147
1089.757935 1824.950073 292.040375
673.589905 1987.787598 365.355469
1108.308350 1895.189697 309.375061
797.185608 1955.394775 397.668243
1025.327271 1842.343140 418.352234
1044.466431 1834.534302 418.484802
1132.557251 1958.435913 493.342133
1040.663452 1838.077393 417.419800
1110.706787 1915.535156 434.836914
