ply
format ascii 1.0
element vertex 1344
property float x
property float y
property float z
end_header
-95.037582 1907.047729 1125.194580
-244.910599 1850.764404 1256.483032
-172.649628 2143.372559 1084.152222
-348.140625 2021.848022 891.238342
-168.181412 2011.486694 1003.890381
-365.417816 2066.876953 901.928345
-316.609619 1723.405273 1310.583740
-250.874130 1798.363281 1297.909302
-353.853363 1814.522949 1057.762817
-305.658691 2048.917236 927.797791
-197.874390 1797.180420 1144.224854
-273.185303 2090.074219 997.124023
-115.993500 1933.018433 1020.934021
-284.111481 2084.600342 985.104248
-188.496017 1866.953979 1015.822754
-358.047455 1811.148560 1057.586670
-266.643951 1857.166260 970.544861
-350.739594 1894.047241 889.883972
-258.959198 1971.457031 906.512268
-211.579727 2055.484863 1013.957153
-461.987610 1719.312622 1126.810547
-352.166138 1742.067993 1165.435059
-290.365723 2149.490479 1035.802979
-144.268829 2009.142578 1059.037109
-293.295441 1834.904785 1056.690308
-167.994720 1885.354370 1015.583130
-228.688583 1775.560425 1194.871948
-160.126328 1980.851685 991.650452
-317.474152 1788.494629 1137.391479
-141.964615 2066.485107 1102.393555
-336.226074 2051.040771 909.641541
-177.997543 1888.208496 1137.412598
-269.497650 1760.895264 1202.154419
-205.578049 1796.945313 1152.124634
-173.424042 1968.046997 1116.361816
-55.109383 1924.011963 1163.320313
-109.461662 2067.913574 1125.502563
-149.103043 2083.152100 1047.907227
-362.963928 1803.226807 1067.526855
-266.358185 1943.859375 866.872314
-221.792374 1872.544189 1000.883789
-354.203674 1852.985840 957.477966
-84.253036 1914.211548 1128.490479
-280.351166 1821.261475 1087.292480
-209.898697 1897.259277 975.956665
-171.726166 2018.407837 1007.372925
-246.263702 1790.735962 1210.824097
-251.396683 1766.534180 1204.730225
-224.426529 1878.464722 966.291687
-228.334564 2133.756836 1061.920654
-127.368988 1943.890747 1016.352234
-192.340912 1872.754395 999.877319
-398.183716 1738.835815 1159.597778
-281.643463 1891.703857 941.252808
-203.870010 2072.938232 1030.176514
-205.552643 1849.994263 1222.031128
-294.937592 1808.662598 1099.279419
-309.587738 1874.513062 955.905273
-64.644997 1906.776245 1161.995605
-141.273956 1938.094116 1059.814331
-281.486786 1912.775513 913.152893
-387.029999 2140.290283 925.111023
-185.844437 1868.184326 1164.467529
-348.980530 1879.693970 912.226929
-232.959229 1893.994263 951.062500
-197.469940 2117.474609 1146.273682
-264.861786 1746.572144 1327.216064
-249.456863 1746.501099 1256.425781
-285.244354 1721.498779 1269.413208
-461.861115 1778.518433 1048.298828
-236.198029 2087.471680 1020.816528
-164.084045 1897.316284 974.425659
-227.946915 1963.705078 932.192871
-400.881165 1725.751953 1182.177734
-326.534119 1763.718018 1161.030640
-366.401581 2047.016235 894.177124
-258.411041 1943.335938 879.042114
-384.236481 1818.300049 1014.559326
-433.112335 1804.548096 1004.041504
-484.597198 1690.471802 1156.900146
-239.974319 1770.298462 1182.636597
-269.674988 1722.075073 1260.023926
-325.290253 1902.589722 886.664368
-182.010422 1876.398071 1094.263306
-209.987259 1936.615112 903.485596
-288.432159 1745.104004 1233.589966
-278.539307 1734.365967 1275.299683
-238.222916 1887.763184 955.750488
-327.292145 1705.193604 1234.431152
-281.335144 1782.025513 1160.194702
-151.714066 2015.122192 1066.550171
-174.655975 1888.999390 982.604492
-122.337334 1900.947876 1117.702026
-229.080383 1855.977661 996.692322
-280.390198 1824.133667 1073.362305
-249.637756 1959.069702 890.236206
-266.814392 1948.418335 874.173218
-207.512589 2048.697754 1008.081726
-91.103317 2023.601318 1140.762817
-266.886566 2080.906494 990.760498
-184.177277 1859.548584 1038.476074
-74.704666 1931.761475 1132.741821
-248.302917 1746.539673 1264.430908
-471.105255 1746.610596 1078.293213
-396.963104 2185.682861 980.389832
-182.741440 1872.186523 1006.584106
-120.443329 2052.692383 1110.937378
-118.232590 2057.898438 1117.405029
-286.964996 1723.721680 1224.841675
-183.189407 1873.749146 1023.706299
-463.645264 1736.523682 1086.321777
-261.898468 1831.039673 1109.051147
-135.493896 2008.632446 1027.755127
-146.865036 1884.001465 1022.990356
-401.519867 1783.509399 1077.856201
-245.604279 1812.892456 1247.131104
-203.503464 1896.452515 936.038391
-253.389481 2019.275391 942.892151
-430.055023 1818.289063 988.074646
-121.346123 1899.344238 1111.199463
-144.688629 2083.807861 1054.616089
-136.260468 1906.389038 980.996521
-196.471970 2011.440552 989.366455
-294.377991 1909.337036 878.890198
-249.705505 1781.502319 1158.355835
-203.795822 2026.346069 1001.346863
-381.077911 1712.202148 1224.725708
-247.398117 1768.832153 1208.333496
-235.871887 1765.883301 1308.006592
-436.017151 1746.311768 1072.527466
-148.217636 2008.770630 1053.951050
-333.110931 2011.744019 889.311951
-87.585022 2027.063354 1115.113037
-250.466827 1789.046631 1155.021484
-161.134430 1926.532471 1080.894531
-345.473328 1757.999878 1143.800659
-153.441528 1867.606812 1046.313599
-125.697815 1910.928955 1100.893677
-251.525467 1908.171753 906.862671
-337.174957 1870.515869 931.342346
-292.378876 1894.961548 905.281677
-456.450073 1796.421753 1288.791504
-187.182678 1910.962036 1177.868896
-191.721909 1867.293579 1013.590393
-102.060883 2041.110718 1113.464233
-73.910828 1914.541504 1142.352783
-395.616974 1795.537598 1077.011963
-273.452393 1837.388550 1068.108887
-165.742691 2011.592651 1092.599731
-187.906906 1851.815796 1096.812866
-157.471695 1899.582520 1007.916504
-270.643616 2065.333008 976.039063
-123.786484 2019.845215 1048.472534
-250.640869 1967.038330 918.004456
-269.852509 1748.795654 1197.754517
-142.792328 1972.785767 1039.652344
-316.532379 1908.276611 995.888794
-181.393143 1891.633057 977.858215
-193.300674 2036.788086 1018.401978
-380.154877 1837.376465 970.402527
-235.964813 1767.393555 1173.664917
-259.807709 1818.829956 1102.894897
-144.574066 2080.191162 1054.424194
-157.627182 2103.773193 1075.929688
-173.152359 1885.385986 1010.481140
-168.722656 1871.202026 1031.276611
-152.417389 1946.697021 1089.656860
-238.238983 1864.328613 978.162292
-200.135132 1832.648926 1166.958130
-292.576904 1726.582520 1258.994385
-180.607620 1838.429932 1123.074951
-177.255630 1879.968384 1007.507141
-410.915222 1774.687134 1075.512085
-330.748688 1772.590088 1138.355591
-240.008179 1781.790894 1260.496216
-324.148682 1976.390747 874.420471
-158.018784 1897.255981 1089.439819
-334.780426 1888.968750 929.637390
-96.482178 2019.925537 1123.024048
-134.324356 1997.508057 994.918762
-176.451996 1821.857788 1145.715820
-159.444672 1956.774170 1093.597168
-268.897675 1837.587891 1080.082153
-359.073334 1888.338623 906.149841
-345.784332 1894.845581 868.900696
-344.731842 1876.581177 1012.451355
-497.204681 1731.815796 1096.516357
-248.661224 1980.515991 922.254395
-92.273743 1901.021606 1159.891846
-282.634277 1728.190186 1234.748535
-132.460007 1891.584839 1156.612793
-238.513351 1759.467285 1254.630371
-494.775055 1735.557007 1075.237305
-116.183304 1896.248779 1135.313354
-410.755554 1823.329224 982.738586
-146.591293 1917.428101 997.925720
-430.342590 1777.186401 1041.247925
-495.943756 1733.685425 1087.625732
-466.596252 1727.333374 1099.720459
-265.842865 1757.731079 1174.735596
-130.360535 2033.389404 1022.388794
-217.770081 2133.764404 1054.598511
-148.623932 1944.353271 951.212585
-181.369888 1899.871338 957.485779
-130.889175 1899.601563 1128.320435
-357.627686 1809.217163 1057.612915
-152.133804 2045.529419 1094.005005
-127.933754 1903.928101 1109.309570
-309.865448 1807.082520 1092.339966
-208.997147 1960.382935 944.028687
-194.096100 1905.099121 938.048889
-367.365051 1708.998901 1205.416138
-253.824722 1889.874878 935.460022
-122.266159 1914.754639 1146.428833
-475.697144 1734.809204 1095.578003
-210.312775 1782.113037 1180.123413
-342.869354 1797.197266 1093.548096
-299.056091 1913.132568 871.745300
-151.311707 2048.391113 1054.101440
-364.910187 1782.670776 1104.530640
-146.649216 1883.263428 1037.106323
-465.007721 1758.438721 1071.713623
-182.926407 1885.211670 1155.479126
-151.937698 2083.632080 1045.329224
-139.392441 2030.473145 1063.432861
-361.805603 1793.921753 1066.498047
-487.652039 1711.013672 1096.205322
-370.669189 1775.440674 1138.649536
-368.399963 1859.576782 934.235474
-323.847229 1748.799194 1189.089478
-391.948273 1816.949463 944.348572
-217.347672 2032.206421 990.843384
-207.725479 1868.468994 1199.470215
-383.566040 1805.866943 1065.164429
-107.443756 1923.852783 1115.273682
-397.731964 2154.262451 941.835388
-373.981079 2178.634521 994.756714
-181.054672 2151.386475 1066.995605
-195.205948 2010.710205 992.123352
-382.392761 1802.566406 1051.928589
-140.437622 1960.035400 1034.258667
-180.310883 1901.724243 1153.842041
-152.982971 1887.568115 1030.995728
-237.600082 1963.334106 914.546143
-384.543945 1818.698242 1054.017700
-163.476105 1962.217896 966.975342
-383.604065 2119.084961 933.662720
-230.582657 2057.575195 998.297791
-147.800934 1951.315063 1055.549927
-360.024139 1806.717041 1093.144165
-131.731369 1937.634888 989.479004
-132.959351 1998.370605 1113.444336
-168.143890 2077.343994 1075.668091
-341.336639 1684.434570 1259.169434
-338.834625 1949.059937 854.831543
-53.438213 1927.894043 1162.716919
-161.336319 1955.888428 971.195007
-268.986481 1743.711426 1207.629883
-159.378571 2092.716064 1032.077759
-184.959518 1951.412354 948.804138
-223.426910 1878.024170 1054.532959
-190.108170 1913.721191 943.316833
-228.578827 1806.629150 1121.165894
-244.491074 1857.144531 983.879272
-474.428375 1749.740356 1171.742065
-368.610992 1845.454956 968.188538
-233.046051 1778.909424 1227.097046
-201.202988 1854.239014 1186.406372
-284.312256 1749.920898 1202.713013
-305.045563 2101.969238 983.921997
-114.510521 2021.958374 1018.274658
-176.950516 1994.378906 1106.782349
-297.304291 1741.574829 1200.800049
-413.657684 1712.632446 1183.686646
-280.161346 1901.723022 919.356018
-267.351349 2024.585327 946.892090
-231.077560 1872.480469 951.646912
-377.547699 2102.181152 907.654297
-317.498047 1771.615356 1152.601318
-206.733780 1827.255005 1182.533813
-149.384491 1889.930664 1016.240173
-453.643585 1761.021729 1022.870300
-83.155762 1918.672363 1146.760498
-389.710754 1862.121094 937.252563
-326.411011 1820.897705 1047.958496
-425.107910 1798.127075 1021.444092
-381.784790 1707.527466 1225.249023
-292.869965 1927.571411 851.997620
-100.484467 1889.639526 1153.173462
-343.882599 1733.024658 1202.447021
-376.723297 1856.744751 953.958130
-193.575256 2004.714355 1139.576782
-118.124870 1925.257324 983.801270
-326.167145 2064.972900 921.331909
-358.489410 1802.822754 1062.350220
-347.161957 1831.929321 1003.610535
-214.631699 1852.897461 1070.904907
-254.265686 1808.693115 1113.512695
-151.571243 1986.403564 1061.090698
-380.703918 2147.890869 969.398254
-323.038544 1718.597412 1232.982300
-204.359238 1884.798218 960.952942
-458.049957 1740.428833 1088.604004
-474.065552 1742.454468 1121.728149
-359.934845 1729.759277 1199.040039
-93.280365 2004.282471 1147.736816
-270.407928 1864.960327 1004.739319
-182.231323 1909.743164 1163.421021
-172.896225 1884.510254 995.195190
-345.085236 2010.998047 864.354614
-144.078293 1899.869019 985.200745
-247.349762 1783.705933 1156.207031
-130.059921 2015.363403 1109.901855
-345.276184 2041.884644 906.649231
-227.142227 1875.581055 977.272339
-211.729584 2000.319946 983.046753
-206.673904 1796.778687 1173.656128
-349.693420 1867.507690 932.478638
-277.484406 2042.474854 959.583374
-169.557755 1856.800781 1043.790039
-343.018890 1817.569946 1051.387573
-384.342834 1846.852539 926.178345
-243.434906 1896.737549 953.746704
-167.128967 1944.977051 1086.935791
-317.698364 1725.973389 1224.020142
-365.800385 1727.257935 1213.505249
-142.028809 1897.956299 1035.582520
-283.933350 1798.469727 1150.226074
-144.298141 1970.303345 1050.788452
-307.076782 1937.721802 850.096863
-270.922455 1948.977051 871.815857
-220.491379 1866.970093 1002.199463
-160.499603 1974.918213 984.749146
-248.176529 1768.714478 1205.406860
-192.513214 1881.903320 997.016052
-248.635025 2015.864136 943.537964
-259.651764 1961.763062 902.174622
-222.816742 1800.710815 1132.158813
-246.545395 1770.949951 1259.478638
-121.419365 1971.707397 1002.758179
-258.619141 2010.450684 929.147095
-134.147736 2028.205933 1109.855957
-169.904755 2006.779541 993.766785
-205.032288 1822.525391 1163.189941
-291.317291 1786.399048 1138.050903
-377.135010 1791.824707 1075.255981
-346.560211 1869.230469 927.350586
-299.554199 1786.952881 1137.790894
-336.121765 1720.383789 1219.686646
-281.305969 1763.925903 1199.384766
-366.468811 1712.227173 1236.954956
-177.738068 1835.678467 1118.993286
-170.447052 2048.647461 1023.038574
-267.797424 1739.580078 1226.996826
-326.531464 1801.374878 1098.844849
-106.258629 2074.287842 1131.884033
-349.028992 2019.175415 866.165405
-260.069305 1771.263184 1196.511475
-413.529236 1773.827026 1048.481445
-316.180511 1695.460693 1274.339478
-256.769928 1756.715210 1240.694214
-401.139862 1839.924805 972.341675
-177.772720 1869.654785 1049.783203
-396.653778 1832.156006 976.245972
-316.603210 2095.101074 965.760132
-134.062866 1949.352661 1170.177002
-420.178406 1743.018311 1134.935913
-356.451385 1760.968262 1148.003296
-223.933929 1808.784302 1243.922852
-130.323196 2041.939453 1028.232178
-75.853134 1929.242920 1127.610229
-144.672073 1932.090942 980.701965
-238.277695 1990.222412 957.562317
-338.862732 1839.592041 999.040466
-217.163239 1873.247925 1006.840210
-146.342407 2041.847412 1050.542114
-372.681213 1891.775146 903.448303
-299.734100 1871.036133 962.288452
-258.510498 1862.104248 986.926086
-330.883453 1783.265137 1125.734253
-430.989410 1756.450562 1113.494385
-215.305710 1983.520630 949.693604
-328.427490 1836.804810 1017.565735
-229.710419 1757.443359 1283.184204
-292.650391 1959.360596 878.147522
-227.655487 1808.534912 1229.267212
-219.927658 2001.651611 978.725220
-346.828522 1844.953369 898.629883
-184.254471 1821.591064 1170.336182
-150.857971 2077.523682 1113.507935
-408.759247 1707.209106 1215.827637
-269.169617 1777.792358 1180.549194
-132.618790 2014.929565 1026.072754
-193.469711 1804.766724 1175.752075
-173.546936 2031.314453 1017.150696
-274.648773 1720.705444 1283.854980
-104.531685 2064.335449 1124.978882
-470.111145 1701.938232 1132.662231
-332.798706 1800.500366 1090.955322
-197.203125 1827.368286 1108.984863
-217.904282 2110.757080 1155.974243
-265.166443 1715.892090 1266.715332
-148.749313 2064.751953 1044.233032
-298.596222 2095.134277 982.996399
-344.108734 1894.451050 918.631409
-236.204651 1754.482056 1286.618774
-133.469147 1935.480225 1113.747803
-320.148376 1882.970703 911.913391
-374.079590 1789.257080 1085.452637
-414.946381 1717.225464 1165.176270
-246.164978 1804.361938 1265.327759
-136.021072 1961.779663 1121.359375
-193.921158 1935.423950 914.421570
-54.315369 1887.784302 1187.638428
-345.192719 1864.542480 953.530212
-311.979309 1794.979736 1110.757690
-279.782715 2068.621094 980.877991
-120.987076 1993.848877 994.833923
-306.982208 1796.785767 1110.502563
-238.226883 1749.773804 1265.719482
-171.008102 1900.573975 961.679443
-113.194550 2002.553223 994.010071
-267.298553 1926.864746 897.673096
-375.019257 1764.647339 1130.975586
-300.608459 1791.068115 1118.473022
-254.223282 1750.222412 1296.129639
-221.032379 1894.180054 1229.885864
-123.430511 1910.108887 1127.217529
-374.809326 1884.536987 918.960266
-209.516525 2069.780762 1024.539795
-147.304688 1888.986450 1009.755859
-272.173950 1851.016602 1037.996704
-253.982956 1845.152832 1074.922119
-192.564285 2043.620728 1016.510864
-303.240875 2058.599609 944.465515
-305.320160 1807.498657 1102.141357
-178.414810 1894.226685 1112.402954
-289.873413 1843.894287 1041.710327
-139.527344 2019.585815 1037.729248
-145.451309 1936.911743 1063.263550
-157.339828 1881.954712 1019.176575
-244.455093 1795.323975 1148.445923
-126.245995 1908.613159 1117.829224
-276.260834 1936.595337 864.837341
-265.709442 1858.302002 1032.675537
-403.876404 1802.921509 1011.996338
-449.374084 1748.999878 1080.321655
-137.178055 1963.163696 991.387451
-225.523376 1928.514893 875.513855
-325.094940 1776.802734 1132.244507
-379.938019 1719.517212 1191.498413
-118.127480 1921.168823 1117.955933
-327.569946 1918.716675 859.993958
-74.131302 1905.848633 1140.625610
-326.260773 1800.026001 1096.057495
-255.293579 1912.186890 913.300293
-203.958450 2011.264771 985.575256
-215.102219 2065.600830 1016.536316
-289.045135 1711.944336 1260.439209
-318.705109 1873.910278 945.762512
-461.034454 1717.486938 1185.823730
-379.332275 2094.422363 926.007813
-106.739349 2043.645996 1120.826172
-376.851501 1831.713379 1034.477783
-252.595139 1752.114624 1300.088135
-122.978638 1910.165771 1095.545044
-317.436279 1694.062134 1281.916260
-191.946594 1864.085205 1046.872070
-136.047760 1953.801025 1039.468506
-377.802399 2062.488037 911.951599
-348.176697 1765.938599 1137.268311
-261.836060 1896.705688 1065.423950
-456.868469 1725.575317 1132.264282
-230.282608 1923.372192 900.221130
-120.021896 1989.787109 1123.940186
-195.744095 2056.336914 1023.374756
-117.166679 1922.210693 1110.773804
-59.010799 1897.333374 1163.989624
-400.004639 1800.424927 1028.639771
-243.188538 1792.721802 1152.861816
-349.870819 1993.661255 873.611755
-185.552628 1915.840698 934.442444
-182.806427 1972.972656 970.395203
-176.868515 1883.684448 1004.850098
-321.493408 1805.007935 1087.485718
-223.979553 1848.691040 1084.962646
-465.171539 1714.171509 1164.070313
-196.763062 1877.561401 1155.724976
-178.625687 1846.109985 1127.901367
-171.482452 1977.751587 980.784729
-254.563019 1895.095215 929.622498
-116.213776 1925.468506 1099.299805
-79.758705 1921.492920 1144.936157
-199.443710 1825.004639 1122.491089
-117.570824 1926.672974 1095.393677
-296.119049 1909.791138 892.740723
-256.933136 2044.299194 971.061462
-249.723953 1973.278931 937.408813
-241.247849 1879.636597 952.189636
-99.905563 1915.227173 1141.782593
-289.809540 2122.154053 1005.848328
-377.843231 1856.967163 922.956970
-180.975266 1819.624756 1127.154663
-281.790985 2015.113525 919.574707
-142.013077 2014.599609 1094.625488
-318.245819 1895.681030 893.662720
-304.347168 2040.732178 929.863525
-244.208557 2057.059082 988.388367
-223.672394 1797.929688 1205.962769
-129.888382 1997.819702 1165.241333
-274.677216 1913.331665 891.424866
-426.410034 1770.188354 1068.000732
-448.879333 1775.368408 1050.237549
-222.666763 1800.898193 1167.149780
-134.893860 1941.511963 1113.480469
-283.735596 2127.279785 1022.686340
-406.425323 2153.516602 954.671082
-227.637161 1751.129761 1269.910645
-264.117188 1791.046143 1146.504639
-166.623703 1951.934814 1092.670044
-362.649323 1773.393555 1141.329102
-423.515686 1812.030884 999.440063
-117.858711 2054.266113 1118.523315
-193.033981 1903.495239 979.236572
-163.511353 1953.123901 963.791382
-323.716248 1714.754150 1220.770752
-287.683289 1841.463501 1048.950195
-127.017517 1926.388306 1085.483032
-238.780487 1936.932251 890.952759
-455.829681 1716.799438 1168.295044
-68.180740 1934.265015 1154.539429
-283.871033 1743.959473 1194.071167
-107.474571 1920.822632 999.560669
-327.186401 1717.556274 1245.231567
-120.943634 1964.537231 1013.564758
-239.986176 2009.879150 958.291931
-159.191742 1908.456909 973.731201
-237.405106 1976.594971 933.838135
-120.234741 1953.218628 992.796692
-347.635529 2076.437256 930.400696
-161.994446 1902.996460 979.346436
-236.251419 1984.068970 942.208557
-294.764008 1877.155884 935.564148
-279.171539 1770.739258 1163.021606
-247.968704 1796.397827 1139.360229
-375.595428 2156.879150 963.684692
-246.636108 1965.490356 918.365234
-344.714081 1868.728638 1017.174683
-261.481689 1742.358032 1264.555542
-163.406693 2027.296143 1012.532593
-193.512054 1978.898315 968.066223
-256.310547 1757.556396 1227.834595
-220.813492 1825.085083 1103.579590
-175.693054 2012.172241 1000.537292
-390.782532 2181.475830 980.838135
-117.031487 1981.971313 988.211609
-437.108765 1794.309570 1001.392090
-185.916275 1906.757568 943.076721
-163.186600 1907.530396 976.468994
-170.874756 1883.763672 1084.224365
-275.694397 1753.870117 1211.954590
-323.049225 2068.048584 941.117249
-151.180359 1882.741943 1016.950928
-257.065430 2113.782227 1037.815308
-292.474701 1839.446289 1077.250244
-322.287048 2117.582764 993.221924
-362.936401 1820.835938 1039.627563
-295.966797 1938.906860 856.123718
-511.824036 1712.036377 1122.399536
-323.579865 1911.598511 995.070068
-252.544678 1754.687622 1225.104126
-241.163254 1753.607910 1238.122192
-183.394745 1837.834473 1110.908203
-317.992401 2049.793701 932.237427
-413.317566 2175.244141 967.292419
-85.667549 1920.349365 1130.485596
-369.014008 1832.564819 1014.612854
-376.006348 2147.333252 971.573425
-230.243286 1843.106934 1091.601318
-193.703568 1877.309814 992.931396
-262.503571 1755.529541 1202.937622
-140.408020 1984.051758 1041.229614
-310.552521 2099.230469 977.731750
-491.693024 1698.387939 1157.359863
-212.509399 1977.214355 954.233093
-212.687103 1911.976807 916.054016
-129.047424 2049.823486 1076.208252
-418.122803 1787.840454 1040.103027
-264.637024 1900.987671 923.695435
-198.138062 1835.343262 1095.579346
-344.679749 2023.441162 891.613037
-545.155029 1825.261108 1246.797974
-378.676239 1845.066040 958.912048
-521.383118 1677.664917 1123.604858
-220.935593 1855.609985 1038.033813
-183.709229 2033.187134 999.450989
-399.507172 1724.077515 1165.406738
-242.889908 1778.649658 1180.390869
-155.031479 2063.840088 1079.695313
-366.083282 2076.774902 908.771301
-289.832489 1986.361206 899.090332
-296.371582 1809.037964 1094.268311
-435.231903 1788.864624 1007.729370
-100.666237 2026.312256 1114.678955
-207.330185 2033.903198 1012.936707
-379.929657 2107.135010 908.913940
-233.923721 1944.884155 912.354309
-343.149841 1817.794800 1036.971802
-203.485870 2038.204834 1004.641479
-194.243439 1898.243286 958.983215
-237.212875 1832.572632 1105.047363
-276.894836 2004.011719 919.403809
-431.356567 1760.460571 1089.452148
-229.925690 1773.628784 1177.918457
-276.931732 1814.641113 1100.755859
-314.204376 1871.661499 969.571350
-265.354340 1915.042603 883.883667
-354.870697 2027.235474 896.915344
-329.990417 2116.004395 978.247070
-395.213898 1849.494873 936.554749
-175.434494 1890.035278 997.641724
-320.766113 1964.312988 868.330383
-165.038452 1923.712036 960.390991
-323.089783 2035.739746 912.856445
-169.909378 1908.798950 951.425537
-148.731934 1889.921753 1142.826416
-196.419342 1817.785400 1117.465576
-252.740891 2005.941528 948.295776
-94.954750 1922.437256 1112.051636
-149.179337 1915.497559 963.695618
-186.045929 1892.070923 999.559021
-94.096107 1944.271729 1142.113770
-420.660370 2172.740723 971.075745
-286.740479 1906.168579 887.043091
-383.070862 2118.909180 944.953918
-369.369598 1746.335938 1186.827026
-222.276382 2023.092163 967.864929
-161.390228 1881.534058 1025.789795
-286.629547 1865.559814 997.777832
-236.207397 1809.967407 1128.313599
-195.980438 2102.781738 1048.293945
-127.251419 1948.881958 1114.836182
-209.134964 1910.593506 935.122986
-127.163628 1985.683594 1000.669983
-321.670410 2164.265137 1004.534851
-331.432098 1935.023193 846.630066
-309.167938 1975.641602 874.446838
-348.023407 1911.630371 867.125732
-217.309601 2049.752197 1001.471497
-395.377686 1809.856079 1030.002441
-197.112854 1985.328125 966.038208
-255.603180 2006.015259 939.765747
-299.920319 1767.839600 1169.840576
-126.612000 1971.542969 987.501587
-168.569962 1862.260864 1087.687256
-57.222431 1923.315796 1159.171875
-120.360107 1973.573730 1004.502808
-366.503754 2108.118652 951.489197
-216.601929 1814.927612 1118.609131
-145.009796 1900.487793 988.641846
-137.668213 2031.375122 1100.265503
-350.775452 1802.578247 1071.006348
-373.243866 1791.516846 1077.860229
-120.428947 1924.414551 1035.574219
-381.127380 1747.697510 1145.762939
-409.933899 2162.062988 953.855225
-176.246262 1872.020996 1039.841675
-119.898125 1935.731812 1015.057983
-260.354828 1783.860229 1159.671021
-158.534653 1917.124878 1063.473877
-240.596130 1900.685669 909.525085
-231.174973 1884.479004 1048.357422
-355.670563 1846.992432 995.406677
-270.457550 2131.064209 1031.396606
-145.318970 2011.226074 1069.896484
-396.609009 1719.283936 1175.142212
-118.575760 1918.671631 1111.893555
-178.153992 2138.128662 1087.714844
-78.542519 1926.515381 1149.854126
-177.073166 1867.479614 1113.470825
-191.960571 1808.193848 1177.256348
-214.680634 2047.122681 1003.564819
-294.301239 1720.218994 1218.345215
-195.487183 1870.461670 1001.098450
-465.544495 1748.645020 1162.591675
-113.226532 1914.883057 1123.520630
-130.690201 2050.988281 1097.887817
-315.994141 1817.314331 1064.813354
-183.287750 1857.029053 1113.061646
-285.194122 2141.501953 1013.451416
-168.169159 1884.027344 1006.962463
-448.399933 1743.140991 1086.635620
-382.519501 1780.156738 1331.600220
-105.883965 1950.386841 1140.220459
-230.051895 1890.806519 959.856750
-273.201813 1745.335449 1290.677734
-248.079361 2078.835693 1004.017761
-270.280060 1751.070801 1202.261108
-164.269608 2044.118896 1094.686646
-173.569855 1857.764648 1117.305664
-374.343231 1843.399902 1006.998047
-515.825134 1708.300659 1123.220947
-118.876640 1963.130737 988.306030
-259.343719 1742.123047 1229.694824
-240.604477 2146.198242 1064.427368
-353.580383 2014.568604 875.325195
-216.712830 1957.470581 929.746643
-167.391907 1963.367920 1120.311890
-296.508575 1864.337402 961.255249
-309.955902 1947.522949 847.076294
-390.057465 1787.363770 1154.215332
-290.773254 1825.017456 1065.773193
-247.199692 1783.770264 1311.770996
-415.249786 1774.625610 1086.412964
-116.913063 1891.486084 1120.723633
-163.567078 2074.955322 1091.006958
-337.063324 1835.639160 1036.073242
-196.222794 1978.543091 966.118469
-398.083618 1792.274536 1084.783203
-180.441895 1893.406860 987.516479
-341.547028 2002.421631 858.540100
-190.187576 1926.255005 918.100342
-368.939880 1871.921631 924.661743
-257.288574 1998.937134 937.181274
-330.177216 1761.622314 1175.272461
-151.572662 1925.400024 954.434326
-414.682373 1722.091919 1157.882935
-212.081772 1807.336792 1170.999390
-263.403931 1799.905884 1137.383179
-153.089294 1898.589844 1023.154785
-450.234955 1774.449951 1018.532104
-139.156219 2026.832275 1034.291382
-241.496872 2086.031006 1014.217529
-217.389572 1889.616333 969.089233
-464.528137 1739.818726 1081.139038
-296.444885 1930.795410 850.485657
-439.912048 1739.453979 1093.454590
-212.233368 1791.941406 1203.146240
-286.201508 1956.734619 882.916077
-243.145050 1883.555054 953.143372
-144.642715 2003.953003 1101.360962
-220.050476 1817.575317 1111.837646
-164.170959 2082.400146 1098.517944
-215.373123 1791.134155 1203.876343
-159.165588 1900.200317 987.228943
-220.726242 2094.348633 1051.682007
-283.029266 1804.550293 1117.398926
-464.532196 1744.049805 1094.687256
-478.441498 1718.317139 1139.266602
-175.933334 1871.238770 1025.463257
-345.086670 2014.175293 870.757996
-254.217041 2034.692383 962.232422
-314.294769 2146.083984 995.883057
-88.361740 2045.964478 1132.758057
-322.056854 2067.230713 947.738525
-141.590271 1916.649658 1007.548950
-354.905945 1713.633667 1294.337891
-132.252548 1957.042358 1023.704041
-300.943420 1695.312744 1248.673096
-222.742828 1892.998901 945.925415
-225.389648 2116.266357 1039.276001
-331.839966 1958.111816 848.384888
-378.596222 2182.238770 980.426514
-475.114258 1735.951294 1127.186157
-341.687012 2097.543213 949.006531
-174.679535 1872.135132 1014.290527
-237.428940 1951.872070 891.282959
-230.327805 1890.156128 942.781677
-240.457855 1844.569702 1247.603516
-383.160889 1753.804199 1162.864258
-239.429535 1824.549561 1259.664551
-237.176514 1882.597412 954.875549
-187.886292 1847.982178 1096.230103
-312.920746 1895.560059 902.094055
-108.056633 1908.695068 1123.638794
-405.124176 1794.520386 1032.149658
-421.051727 1721.876831 1152.767334
-111.713684 2031.341919 1106.340332
-374.827057 1857.751709 944.481506
-273.920807 2040.566040 952.480225
-321.536743 1797.555542 1104.021729
-136.690018 2036.398193 1015.705627
-166.733871 1845.182129 1158.044678
-215.249191 1907.490234 915.424927
-270.891144 1737.821289 1209.711182
-135.670227 1901.256226 1099.820923
-338.251587 1865.940308 984.753601
-241.004150 1786.110962 1168.149292
-299.813416 1906.642212 911.089478
-375.269440 1761.220337 1138.548340
-134.224762 1967.604736 991.351563
-411.033661 1787.752930 1029.142090
-170.699280 1986.850098 986.692017
-277.448639 1897.782349 928.908142
-203.790497 1804.032471 1133.208374
-102.864792 2042.136841 1119.566650
-333.631226 1831.035889 1038.691040
-111.071877 1908.861694 1123.912964
-385.779785 1808.365845 1049.363892
-252.916946 1829.569824 1091.770386
-348.706818 1883.478394 999.443176
-141.175888 2011.151611 1042.255127
-123.211174 1931.956299 1119.165649
-101.506561 1936.481201 1170.858398
-317.159027 1999.997192 889.067078
-223.206116 1772.221558 1172.277222
-185.766708 1916.544556 955.311035
-281.561707 1909.102417 894.377930
-134.746780 1927.894043 1094.055542
-330.244781 1918.903931 864.526978
-106.354111 1921.225220 1106.110840
-226.996063 1893.160400 937.800598
-68.386383 1971.660156 1157.498657
-232.715607 2042.624390 974.907104
-194.266541 1845.120972 1075.159912
-376.315765 1762.082642 1116.393066
-129.256729 1999.448730 1067.052490
-363.233459 1772.883789 1106.736450
-160.212433 1953.100708 1103.237061
-45.758137 1902.901123 1173.158203
-318.323303 1920.513306 1004.391418
-296.184662 1821.345459 1069.028809
-335.276428 1719.497437 1226.882324
-207.954010 1914.401855 937.317871
-387.096924 1817.278320 1033.828491
-221.936417 1904.822510 959.287109
-112.151909 1950.621094 1136.164551
-157.352554 2075.195313 1081.041626
-224.996307 1903.049316 935.055847
-157.873779 1931.289795 957.847900
-152.817474 2048.907959 1051.429077
-126.278748 1907.567383 1113.945801
-227.346649 1789.273560 1225.949341
-395.821777 2169.415771 963.160095
-315.609253 1784.096802 1147.192017
-347.415955 1730.364136 1218.154907
-291.804047 1799.253540 1121.164917
-228.343765 1929.151001 908.154907
-443.394287 1784.594727 1033.319214
-158.326569 2013.693481 1092.168335
-123.036125 2000.174072 1005.044373
-323.521576 1806.912476 1092.433472
-393.424774 1787.115723 1063.898438
-246.671432 1903.753784 907.094055
-140.710754 1907.063721 1028.253906
-236.680786 1871.019409 984.359924
-447.110260 1742.772339 1111.370239
-184.615570 1947.411499 948.080627
-186.446930 1886.313843 980.154541
-119.006889 1907.017822 1103.347290
-69.479286 1893.045288 1168.155640
-247.154953 1945.846069 886.032104
-378.674225 1829.068604 1005.091858
-153.901169 1891.620605 994.399902
-183.366302 2003.248657 987.227905
-299.708771 2154.454346 1033.122314
-289.496063 2154.281250 1051.434692
-440.025848 1794.705078 1005.074402
-164.324371 1898.589355 1163.104492
-325.971832 1767.844604 1139.053711
-336.988708 1870.928467 926.296204
-217.801636 2008.670654 956.639954
-365.347748 2066.635498 901.663513
-187.384140 1837.652588 1086.143555
-248.587784 1868.327026 1024.431763
-91.347824 2018.333252 1133.026001
-296.230682 1869.881836 983.828979
-294.343628 1820.747192 1075.652100
-483.113831 1739.524780 1081.626099
-246.491547 1876.616333 951.354980
-132.876907 2058.952637 1030.089233
-233.935684 2081.325439 1014.234253
-357.104218 1855.673218 1014.546814
-248.035263 1865.934204 1075.256348
-205.554642 1778.218628 1181.667969
-340.803772 2005.936157 851.075623
-130.397934 1907.289185 999.444214
-278.421814 1842.573242 1039.513794
-98.835007 1901.515869 1130.395874
-376.300690 1804.127686 1059.520386
-377.776093 2118.042969 920.035278
-248.020081 2117.764404 1032.606567
-255.119156 1792.768677 1139.385620
-188.432358 2012.305542 992.392212
-290.674377 2018.065674 927.249329
-249.463867 2121.280518 1022.726807
-169.840988 2095.708008 1110.910767
-184.771484 1844.944092 1118.019897
-243.977753 1875.293213 966.368530
-374.441467 1732.630371 1297.882568
-280.879639 1759.441162 1209.279907
-448.805206 1750.214111 1074.822632
-82.841408 1895.653687 1156.864502
-303.352142 2148.500000 1041.703735
-333.562714 1706.564819 1231.632813
-233.991669 1960.780151 920.268860
-243.461700 1833.567871 1100.128174
-158.939636 1911.947876 1071.838745
-307.806305 1914.026733 1002.999878
-114.121300 2069.148438 1129.171753
-136.393112 1956.830566 1061.570557
-239.123108 2094.038086 1009.307434
-170.793518 2001.947754 1089.163330
-347.609589 1887.048462 910.189697
-372.795135 1877.495850 927.125488
-251.472839 1897.473633 917.415588
-234.987640 1761.542480 1279.014282
-291.425446 1731.181396 1199.564697
-362.474823 1834.181152 920.619446
-90.348152 1917.240112 1127.720825
-291.632233 2109.075684 994.789124
-350.583801 1738.393066 1189.750977
-368.094818 1845.868042 911.596985
-372.326447 2080.197021 917.288757
-153.232147 2086.312012 1039.982178
-249.949341 1768.802734 1172.349243
-351.023926 1696.116577 1260.797974
-366.249573 1806.625610 1087.602905
-148.093964 1903.824219 982.768005
-292.673981 1748.844238 1217.909790
-139.113174 1940.287964 1055.534790
-196.226471 1824.527710 1107.504028
-359.628235 2142.668457 973.645813
-263.440063 2045.255493 955.120544
-118.805588 1901.789307 1137.870361
-295.960266 1721.245605 1223.561279
-158.119446 1877.828979 1062.693359
-444.544983 1795.504395 1027.309326
-207.098190 1898.997192 928.964600
-179.238937 1998.607422 994.923950
-185.386856 1840.151855 1090.939941
-350.517059 1763.531738 1160.457764
-89.156494 2024.981201 1122.961670
-403.589569 1868.020630 943.225708
-210.286270 1935.258911 925.535522
-134.969070 1899.660400 1027.272827
-398.900879 1711.328247 1223.744019
-379.817841 1801.683228 1352.863159
-162.937149 1958.985229 1076.113037
-218.623245 1825.579956 1197.798706
-136.809647 2037.376587 1091.277222
-102.596855 1917.383179 1131.184082
-241.681396 1773.953247 1166.883057
-418.201294 1791.341675 1050.818115
-357.350983 2179.604492 991.494446
-446.937927 1750.413208 1127.916260
-106.130844 1952.183105 1153.189941
-436.258392 1733.791626 1197.190796
-217.871323 1963.800659 916.035156
-318.057861 1697.893066 1278.509033
-332.939301 1946.499756 840.001526
-156.229797 1920.558594 1089.024292
-249.692810 1829.110107 1082.382690
-220.919189 1810.917236 1222.518921
-249.901535 1884.532471 947.994385
-352.738464 1803.822754 1070.030640
-265.862274 1741.205322 1231.047363
-309.438751 1866.621094 970.155640
-244.323318 1767.905151 1249.356079
-366.739716 2153.653809 980.898376
-174.125229 1859.604736 1076.313232
-440.339661 1752.797607 1098.058716
-188.328018 1886.715942 989.794678
-264.053253 1753.375488 1218.954346
-422.443085 1772.852783 1121.829102
-336.186310 1692.513062 1254.158325
-480.473816 1708.634766 1124.430420
-192.283401 1870.151978 1004.604248
-78.209373 1928.734741 1125.420044
-129.736923 1958.958130 1026.385010
-168.899780 1920.407837 1085.342041
-307.371429 2103.444092 980.105225
-305.193146 1703.754150 1264.665405
-308.640015 1775.511108 1136.760010
-173.177032 1856.197144 1056.885620
-411.789032 1745.597412 1115.258789
-374.845062 1700.604370 1220.801270
-351.015015 2061.261963 920.655029
-149.043503 2013.885376 1001.118103
-290.500183 1862.435791 987.419189
-132.097549 2041.021362 1108.906494
-174.920624 1886.322510 1003.286560
-261.782990 2083.483887 985.371094
-468.592377 1760.611816 1040.064941
-146.678040 2007.673706 1107.930176
-291.752136 2010.634399 905.283936
-372.360840 1704.845703 1218.082031
-331.272980 1767.440918 1139.876709
-439.946594 1790.132202 1003.641357
-274.846405 1894.766235 916.832947
-273.309448 1783.448730 1144.349976
-168.358810 1877.305054 1035.968384
-189.383255 1842.021362 1094.545776
-395.499939 1786.671875 1125.274170
-253.447708 1853.236328 1028.257813
-300.335419 1981.117065 893.486389
-252.240738 1754.970093 1277.745972
-325.594147 1942.417725 837.545166
-161.336578 2060.318115 1025.226196
-290.069794 1810.675781 1098.892456
-340.997864 1791.456909 1364.582886
-186.578873 1816.113647 1169.840210
-353.751038 2061.833984 907.894775
-378.577179 1820.506714 1019.514221
-267.889648 1758.872070 1220.902588
-315.821869 1794.731445 1103.729370
-41.123619 1936.274658 1153.558472
-337.943359 2041.622925 911.326477
-333.580963 1835.149780 1038.741943
-212.765213 1783.915161 1223.315430
-178.523941 1893.660034 1140.371704
-267.706757 1866.710205 966.349182
-210.598160 1825.658203 1102.120850
-201.218994 1888.378662 960.544495
-161.783783 2121.895264 1059.709717
-237.987030 1790.130981 1173.166016
-166.909592 1874.677734 1077.477661
-114.619072 1901.631470 1116.202148
-173.241730 2121.682373 1098.177856
-361.131989 1904.629272 882.451172
-149.663773 1889.932861 1018.627686
-327.670288 1927.250977 863.870605
-174.640701 1843.367798 1133.410889
-356.434296 2038.376221 903.704346
-246.902863 1810.592651 1290.604614
-352.118408 2111.645508 953.387268
-234.025177 1901.383667 953.198975
-182.377625 2059.505127 1024.592041
-312.021088 2102.542236 979.311890
-451.109894 1686.676025 1193.112549
-344.866699 1899.213867 876.131592
-209.119675 1834.295776 1088.071045
-156.020309 2029.435547 1072.544556
-319.037628 1868.508179 951.443542
-145.571854 2091.714111 1038.876709
-195.551773 1851.502686 1070.318115
-320.720490 1827.689453 1040.698120
-379.379578 2130.398193 919.533142
-373.938477 1803.828979 1059.284302
-222.595596 1780.530884 1162.014404
-167.064392 1872.491333 1022.138916
-225.338638 1776.372314 1157.422852
-268.593536 2086.564453 997.843384
-302.417267 2019.440674 913.592651
-371.416077 2077.543213 918.564270
-225.449448 2030.728394 968.994263
-100.634415 1911.773560 1136.752686
-258.214661 1899.670410 912.970154
-164.390701 1889.847900 1130.894531
-127.910538 1932.324585 969.977112
-181.665390 1886.858032 1002.907288
-130.575363 1996.237183 990.542664
-203.308640 1826.071411 1203.451538
-428.364960 1700.161743 1187.019043
-356.223969 1860.264404 959.144836
-467.706451 1709.195313 1150.912720
-370.203125 2084.774658 908.360474
-126.582169 2011.548340 1014.934204
-290.638092 1919.454102 874.368164
-392.347534 1817.822388 1017.534668
-391.443176 2153.986572 949.536316
-505.695801 1688.994385 1105.477783
-302.973206 1781.986694 1129.622314
-470.624329 1741.163696 1081.227295
-362.993713 2059.305908 895.779419
-407.850616 1761.646606 1102.357422
-45.753361 1934.392334 1160.654907
-279.259399 1845.276001 1046.113525
-314.566864 1962.721680 838.100342
-394.629730 1834.593262 974.010071
-170.053665 1888.862915 1010.664307
-186.132919 1838.177002 1099.286865
-369.929474 1819.412720 1043.318359
-188.889877 1992.666138 984.544006
-340.894989 1860.650146 1020.869629
-461.369537 1689.654297 1193.241577
-423.189453 1771.506470 1073.067261
-136.268341 1969.626831 1028.342285
-237.918289 1893.215576 918.320496
-198.769409 1820.495972 1163.546631
-251.831680 1744.984375 1266.994263
-318.973755 1880.913574 920.844360
-218.787323 1786.345337 1178.651245
-470.230469 1763.988647 1052.791992
-123.780762 1894.506348 1142.490601
-336.169800 2149.071045 981.717346
-196.854416 2102.099121 1045.563599
-259.221222 1772.556519 1185.750732
-270.845612 1923.494263 885.735657
-211.854721 2065.060303 1028.574341
-286.818756 1918.030151 886.730469
-276.256622 1772.882568 1153.316162
-339.065643 1985.035889 860.193970
-342.715790 1871.687866 951.080566
-175.776657 1837.997192 1138.247559
-237.141922 1791.205933 1162.566772
-354.085449 1910.229980 898.361389
-109.058914 2030.896606 1092.558716
-162.453812 1950.566895 961.760010
-278.338043 1812.280762 1114.568481
-152.010864 1948.529907 972.826172
-211.776077 1867.067017 1045.894287
-117.470604 1988.187012 996.600769
-166.229050 1997.917114 999.219482
-268.406769 1753.502075 1195.282471
-425.783203 1737.064331 1189.569580
-340.456055 2116.430420 978.623657
-98.350685 2046.106567 1123.496460
-197.597473 1795.139404 1166.286987
-356.186584 2064.374023 916.851379
-344.724915 1884.474121 905.979553
-318.656799 2043.722778 924.159973
-328.651337 1832.955444 1063.789551
-164.002686 1943.682983 1074.353271
-293.127014 1790.057495 1147.505981
-257.410980 1916.535889 882.167847
-406.257568 1754.520020 1127.446655
-182.881439 1897.659546 1158.910156
-113.463684 2026.750122 1112.319824
-191.204834 1881.937622 1121.697388
-167.853394 1897.696777 968.732361
-342.965607 2158.229004 1000.383118
-244.323425 1764.326050 1198.409180
-222.184784 1875.503174 955.350220
-421.125885 1779.351929 1059.532471
-129.896027 2058.763184 1109.522339
-199.782990 1903.719849 944.320374
-118.322189 1994.348999 998.680481
-418.206635 1775.553589 1070.327271
-376.135895 2080.946045 922.924683
-260.344025 2052.998291 972.518372
-232.642090 1828.996460 1111.981201
-194.754974 1867.533447 1010.968933
-439.498688 1758.826904 1128.330322
-262.371918 1836.430664 1085.118896
-150.832520 2007.026001 1086.146240
-160.832199 1908.685913 957.935425
-247.332565 1788.716797 1157.316284
-176.336044 1967.220825 964.897278
-225.402512 1864.271851 997.407837
-469.132843 1742.414551 1089.204102
-398.515167 1853.754395 947.440369
-243.809723 2115.686279 1049.246094
-232.295395 1824.091797 1235.539185
-267.106079 1787.542114 1141.771851
-241.418518 1841.613281 1094.925537
-266.915039 1779.604736 1178.169678
-334.493347 1790.616211 1124.848267
-203.906891 1918.881348 923.591125
-190.524796 1957.959595 952.326904
-140.495316 2024.522583 1096.994873
-362.683075 1841.147339 987.526489
-345.182251 1721.829224 1221.214233
-177.650665 1887.822021 988.600952
-238.693146 1956.164917 916.671265
-264.021484 1806.759766 1322.572388
-153.441177 2033.611572 1062.796997
-180.356567 1848.764038 1073.607422
-197.526016 1790.527588 1155.543091
-121.574158 1973.615112 1029.836792
-136.231430 2013.489990 994.743896
-138.571243 1965.671997 982.396912
-243.336227 1784.130249 1269.482056
-126.203949 1908.901001 1011.697815
-435.624542 1734.077271 1157.035767
-351.816498 1727.023438 1208.765381
-304.961914 1901.105713 916.206238
-355.509766 1844.797241 1020.874695
-362.841217 2073.310059 918.526733
-446.829712 1757.251587 1074.451172
-241.655182 1816.485107 1127.671265
-450.872711 1764.212524 1059.203491
-326.139923 1717.919922 1219.217773
-265.482574 1789.406982 1150.156616
-211.932602 1792.813599 1197.372925
-131.057678 1974.907227 1022.290771
-216.822540 1875.411621 992.455994
-334.410553 2047.782593 915.369446
-105.438873 1933.719971 993.587341
-209.946640 2058.197998 1017.820435
-100.700653 2019.504639 1125.597778
-249.702713 1852.902710 975.395142
-310.896149 1798.412354 1119.802246
-258.760773 1884.931519 918.668213
-117.872215 2041.490234 1111.599365
-144.416367 1906.166504 1103.703613
-123.779152 1985.125000 1127.566895
-258.104340 1736.305786 1270.326904
-227.741455 2121.148193 1051.981201
-396.198059 1808.520752 1040.343872
-188.369995 2133.747803 1101.175171
-374.767151 2128.741943 943.034851
-157.363327 1902.637695 1091.720703
-294.023529 1734.149414 1249.270142
-315.184753 1897.484741 891.612976
-431.051147 1753.136841 1116.837158
-200.746185 1939.621460 910.418274
-353.366211 1871.932617 985.618408
-299.358917 1719.378296 1279.533813
-389.929535 2132.605469 923.464294
-418.609528 1706.760986 1202.297119
-263.578125 2130.427979 1035.737915
-296.140320 1929.094482 860.155029
-283.953461 1919.843628 879.011475
-179.086792 1905.429810 1152.565430
-362.262024 2066.122070 904.381531
-268.296844 2044.275146 977.581543
-251.287094 1791.984009 1144.923462
-301.974335 1846.250977 1015.961670
-247.642654 1773.059326 1170.832275
-152.101578 2054.723633 1071.473999
-351.959015 1859.099121 963.801819
-304.769257 2118.438965 993.026428
-264.639282 2122.664307 1026.558228
-174.220688 1897.200562 966.827759
-342.218567 2059.624023 920.432373
-254.246399 1782.942139 1156.899902
-310.323486 2040.151978 930.241882
-220.935104 1825.630493 1242.697266
-332.675140 1883.095703 914.421509
-202.640213 1865.742798 1025.540527
-219.775543 1873.996216 999.448608
-194.873428 1860.597412 1048.454102
-247.425110 2020.302002 959.828491
-327.579987 2094.589600 960.074158
-183.267868 1806.691895 1173.412598
-249.802353 1904.679199 912.729370
-341.056335 1885.767700 874.299988
-146.223984 1887.953003 1008.557922
-87.670418 1983.838745 1148.723877
-493.576172 1698.033325 1144.356689
-226.873596 1776.375122 1172.897217
-229.789185 1851.030518 1237.100220
-477.251587 1743.358887 1059.323853
-152.878784 1892.161865 1033.300415
-243.895416 1873.111938 961.822144
-426.581848 1771.853760 1072.134033
-284.849915 1837.037964 1057.537476
-353.017578 1841.263184 1013.776306
-336.954285 1942.700562 853.572021
-132.599396 2030.885864 1037.386230
-363.177582 1879.298828 913.788086
-237.371170 1833.318237 1089.310059
-453.258484 1739.465454 1129.514771
-112.273415 2061.288574 1124.708008
-175.715515 1852.434204 1063.801392
-294.669464 1786.217651 1154.783569
-390.740479 1840.946411 983.031006
-333.245148 1911.869995 886.019104
-161.848480 2019.656128 1007.445679
-247.421738 1741.187744 1260.938965
-344.729645 1859.570313 962.057068
-368.570282 2048.900146 903.756714
-156.776443 1921.559204 947.273621
-199.737778 2050.909668 1016.618103
-221.924210 1873.296143 970.332214
-201.376282 1824.107300 1102.159058
-228.944656 1812.970215 1242.038452
-185.283279 2050.576416 1015.535583
-312.274719 1920.696411 893.487366
-312.851410 1713.728760 1237.727173
-218.187119 1868.894043 974.987000
-121.200981 1910.172607 1104.776855
-331.496155 2013.543823 900.397217
-230.523788 1917.052734 895.588074
-255.048874 1750.825439 1247.085083
-260.271210 1900.592041 911.712769
-284.102997 1768.698730 1180.557251
-374.540009 1754.995483 1148.092041
-185.668335 1849.660645 1068.845093
-323.167480 1864.942017 936.887634
-183.063400 1844.742188 1086.852783
-201.614639 1792.472900 1200.635620
-388.155060 1821.470337 994.168396
-163.092285 1886.958008 1083.000977
-213.873993 2060.772705 1013.446838
-213.323593 1845.892456 1076.758423
-271.069794 2150.600342 1030.139160
-191.703735 1917.834473 1192.943359
-253.557053 1732.895264 1284.831299
-192.392380 1816.008545 1142.616821
-214.000168 1794.778687 1167.598755
-182.837814 2036.941040 1015.369873
-234.110718 1761.774902 1268.450195
-198.235413 1885.948364 970.985474
-481.274506 1732.107422 1058.198486
-204.512939 1868.165527 1030.360474
-257.021149 1914.609009 885.264160
-192.019943 1876.199829 1129.564087
-330.712372 1698.286865 1248.099976
-226.587006 1992.988403 941.742737
-164.447418 1950.542480 969.266418
-213.704269 1793.608276 1218.500000
-363.556030 2176.936279 985.015625
-119.201462 1977.408203 999.885132
-317.271576 2099.876953 972.947449
-161.172577 2116.940918 1082.035278
-161.027802 1888.161865 1124.273438
-252.598953 2064.021973 991.296204
-282.379089 1953.222046 879.434021
-138.193161 2028.890259 1024.893677
-469.858551 1752.966064 1039.426880
-349.285553 2057.731934 916.247986
-235.520050 1791.644531 1170.702759
-214.941803 1828.015015 1096.847168
-346.456329 1875.499268 984.529663
-278.540710 2142.120117 1048.684937
-166.298676 1867.412231 1049.936768
-71.975990 1888.873901 1165.198975
-234.450378 1865.983643 962.285583
-200.313751 1792.763794 1192.166504
-400.235016 1803.932007 956.203308
-209.438568 1788.333496 1159.939941
-202.606415 1808.134155 1128.673706
-107.743782 1957.300537 1137.770142
-147.043839 1886.628662 1051.121826
-304.577057 1699.481201 1268.306519
-282.763947 1712.177124 1295.002686
-44.924816 1917.449219 1166.404541
-215.140442 1889.254395 966.443298
-266.222473 1988.326660 1240.387451
-277.537109 1914.757690 876.639221
-167.632416 1939.611328 1073.449463
-148.722122 1917.744995 964.429565
-153.826782 1994.880737 1078.050171
-161.259460 2131.512695 1051.528076
-133.079529 2051.363525 1019.374817
-296.846222 1772.744629 1164.269653
-197.534332 1828.889160 1103.765869
-177.717148 2114.864014 1048.230347
-242.250290 1836.471191 1253.459351
-414.924622 1704.985596 1245.166748
-123.339836 1953.659058 1010.610107
-144.735229 1913.853638 961.198547
-194.236710 1862.875732 1043.131470
-194.180603 1798.775146 1158.207153
-156.282425 1898.934326 994.329895
-136.267883 1927.299316 995.994934
-329.931152 1958.188477 834.551086
-228.611572 1881.785645 962.801575
-156.867828 1891.598389 1054.992432
-302.290863 1898.199585 1013.628235
-499.124023 1686.559570 1095.545166
-142.028717 1923.163574 1043.469849
