ply
format ascii 1.0
element vertex 1378
property float x
property float y
property float z
end_header
879.805176 2108.665771 423.705231
1252.367554 1822.246216 400.830109
1283.354126 1909.714478 168.782562
1184.844116 1744.659912 327.937653
1100.912842 1810.152466 313.770325
1200.695923 1775.038574 442.466064
1219.348022 1766.223511 294.912537
1221.865356 1755.885254 187.724625
1163.693359 1771.411743 197.094299
1213.716064 1900.495239 454.439514
1049.019287 1935.038452 473.308716
1119.487671 1782.961548 205.127472
868.467041 1909.140259 168.846634
1001.737122 1842.552979 424.658142
1204.928711 1758.306519 390.160309
1105.521240 1808.469971 239.489014
1187.228516 1747.412964 378.488556
962.531616 1894.858276 280.086823
1156.668823 1831.063477 494.425232
1288.990356 1929.614014 229.817963
1146.856323 1771.292847 392.113525
1188.782715 1764.439575 409.967133
932.215271 1883.265869 173.783737
1094.353271 1783.098999 229.115448
815.448547 1926.919067 204.339783
1144.938110 1837.825806 478.153625
1127.496826 1795.353638 431.154541
805.930054 1931.820801 393.644226
874.465027 1907.690308 338.867523
1119.798950 1805.455811 170.800858
1093.510864 1808.069580 349.753540
1133.034302 1784.523193 264.665070
1221.898193 1797.535034 163.428696
1207.987427 1894.256714 502.293640
898.883423 2141.413574 272.021820
853.283936 1923.305176 423.525208
858.396912 1904.042847 406.629120
846.326477 1926.263672 419.223297
1075.704102 1805.340454 417.646027
1260.859497 1864.677124 267.583771
1131.396240 1839.623535 471.714813
1240.673706 1821.963745 216.662140
1005.977600 1861.291016 286.498779
1135.895386 1853.693848 530.927917
1222.329468 1783.875977 309.151001
1042.625000 1813.605835 165.819458
948.958435 1974.223877 488.028137
1010.704651 1839.133301 433.737579
1173.889160 1747.890991 278.438263
1117.251831 1843.234131 449.669037
1300.562134 1889.695801 427.150848
935.133667 1905.771240 459.920074
1351.064209 2001.390137 169.173187
1201.999634 1738.092163 297.097229
1265.684082 1872.399536 364.127289
1107.900146 1785.106445 364.963196
863.809753 2075.695557 431.733002
1217.499512 1770.310425 362.823181
940.974182 1960.143799 477.888000
1235.958496 1801.084717 287.501404
891.349426 1918.693115 479.854279
1264.638306 1809.394165 426.204498
1206.481201 1767.866699 243.810577
1127.041992 1827.154053 493.545471
1286.738647 1944.851074 448.007965
988.283691 1843.083374 443.279755
1036.660400 1853.429321 245.689697
836.785645 1915.446899 240.165451
1167.185303 1753.881470 304.418640
1120.742920 1845.260132 583.482727
1232.467651 1798.443848 287.342804
1128.689575 1772.144653 285.112122
1202.278076 1734.395508 183.863358
1294.433960 1908.172363 292.547760
872.427490 1912.879272 412.437958
1014.772949 1852.079590 318.065033
1158.959229 1764.979370 211.268036
917.538269 1909.687866 390.444611
1104.071777 1787.992188 291.477753
1164.989990 1748.481445 334.949768
1308.902710 2000.259644 233.855164
827.739319 1929.148071 414.394135
1195.374756 1738.703003 257.132721
1119.675415 1795.856689 192.235413
1264.252075 1923.045410 515.403076
1124.346069 1828.712891 485.934662
917.771301 1897.437134 439.261292
1014.356140 1851.459351 223.536118
961.657715 1879.011230 476.227020
911.667725 1883.654785 205.801865
1090.135742 1794.651123 327.462738
966.747864 1885.555542 215.317215
1113.742920 1773.990112 325.949738
1185.424927 1745.807739 360.879578
904.026306 1890.456177 190.694519
1074.580688 1926.762695 474.239349
1305.637451 1942.997559 428.342712
857.449951 1930.946777 252.632813
1071.074829 1810.961792 354.555450
1053.548096 1824.482422 169.091888
1279.628052 1905.184448 358.704010
1111.557861 1787.200439 395.176086
1198.266479 1912.791138 536.117188
979.468628 1883.964111 279.853302
1220.440430 1733.722168 198.044067
1165.798218 1757.319214 293.243164
1068.770996 1821.081177 316.600281
1267.439087 1931.306641 501.552277
825.298340 1930.880981 264.601715
1118.723511 1839.695313 534.184082
993.112488 1846.857666 430.984039
1302.992676 1937.826416 161.666504
1232.450317 1903.003906 529.419250
851.789368 1921.616333 429.960541
1221.794800 1753.474365 350.176514
1341.124390 2012.329590 174.012711
1255.418091 1804.993286 435.641541
940.875732 1860.449829 430.470367
1275.951172 1899.352661 165.660355
1126.157715 1841.023804 443.102692
977.356384 1871.367554 328.952576
1023.097961 1839.366943 405.705627
890.744507 1918.189819 485.978394
1051.927612 1838.779785 431.510956
1326.537476 1913.903442 435.594879
1191.994873 1742.950317 347.662567
1274.069946 1886.138306 336.011475
990.963440 1849.173340 445.405762
1309.644653 1955.912720 231.922592
1324.462158 1969.132813 202.665619
1048.044922 1856.074585 311.140930
1114.095093 1778.115112 324.367981
1169.016724 1774.245850 177.630997
1113.059814 1786.740234 404.115875
1255.332397 1847.515259 334.284943
1074.981812 1828.243896 340.222107
1160.233032 1879.681763 511.896454
1131.786133 1837.791016 521.804932
1129.649902 1834.539429 528.383179
1275.598511 1830.119141 416.185242
1289.477173 1917.242188 309.970398
1270.759277 1940.551758 463.907501
1128.208740 1771.210938 313.835754
950.583984 1878.387817 168.219772
1228.977295 1797.329346 194.564148
1007.476501 1853.441528 229.065918
961.561401 1869.296753 402.927429
1026.626831 1852.954956 334.064423
835.225098 2016.824951 361.806915
1208.822388 1770.734741 212.604843
894.225403 1934.992676 473.585327
1288.781128 1931.447388 379.891663
1205.268188 1767.383057 235.787613
850.728455 1917.390503 368.711060
873.136169 1908.925659 438.974701
1106.881104 1799.778198 312.627899
999.130188 1856.260620 282.685486
901.986206 1926.861450 493.987823
1069.973755 1822.582153 353.711792
1231.602051 1797.918335 303.349548
1164.562256 1769.827881 427.405273
1172.571777 1767.098999 336.172058
1227.564087 1784.191772 255.335831
1055.716675 1828.705200 289.317688
807.119568 1935.503540 396.029205
1090.815552 1798.859497 366.388611
1130.859985 1839.704468 488.408661
837.077576 2025.502930 308.354553
1244.574463 1878.297241 482.759979
1209.993042 1748.549561 388.267975
1272.615601 1880.078857 214.964432
1191.293945 1743.195923 392.346130
1302.020996 1953.763428 313.469971
1316.406372 1981.623047 373.969635
1081.526855 1904.405762 467.567657
1275.671021 1895.015503 372.058899
1314.687866 1971.018677 268.910309
1010.859802 1851.637085 467.992981
1124.773071 1791.106323 416.669220
1310.817505 1942.067749 265.025970
1247.024658 1811.261475 166.431747
1143.396240 1773.012573 208.968658
922.310486 1921.132446 262.386230
1270.118774 1944.254517 462.929108
887.746216 1902.036377 386.244690
1260.810425 1855.725708 251.937454
926.341980 1892.721313 226.173431
1284.965576 1905.901733 227.065048
1247.877075 1904.230347 486.378723
1303.522095 1953.513306 183.691589
1095.242065 1814.057129 359.050323
1257.712891 1856.295898 351.186310
1305.093628 1878.099487 440.119720
1281.772095 1901.990967 288.556152
1142.028198 1772.069214 222.843048
1249.639404 1843.578247 341.886688
1270.407837 1906.625122 325.848572
1306.590454 1976.054077 183.905167
1243.751343 1791.730347 426.263062
1135.963135 1767.921021 400.069519
1121.853638 1782.921265 392.783722
1188.800903 1759.673218 194.922913
1302.577026 1947.484985 237.763565
1177.495239 1759.607422 413.212738
1237.305542 1904.813965 518.351196
1242.937622 1815.254883 250.527588
1316.854126 1922.836792 421.467743
1308.908325 1956.616333 267.719757
1291.939453 1907.047119 354.064484
1044.201050 1832.606323 343.567963
1254.026489 1840.786865 254.449982
1120.911865 1889.169678 483.142761
1223.380615 1799.063965 435.898590
1045.354248 1828.666748 405.119843
987.040833 1894.334473 473.494690
1269.629883 1861.031006 354.310089
1226.927490 1794.996704 405.082916
1092.013672 1784.283325 172.321320
1283.655029 1890.120972 346.983582
1299.505615 1893.700806 435.269348
1316.228394 2016.710205 264.868866
1276.686523 1959.945068 436.575928
954.868347 1913.049927 458.139465
1086.437134 1832.348267 435.336029
1084.166016 1843.707886 282.674713
1263.958984 1871.858643 347.993530
1236.134644 1785.811401 329.148956
1143.092163 1776.494995 323.083344
1240.532104 1826.732056 329.190247
1313.863403 1971.987549 377.661896
1021.842285 1853.036133 470.234955
1158.288696 1868.661133 468.930786
1216.788696 1773.794312 334.851227
1261.385742 1810.822144 418.450684
1078.704224 1814.606201 177.775269
1172.290527 1781.324829 170.942505
824.699951 1929.641479 261.355408
1128.337769 1774.860352 319.405090
1299.197876 1900.013672 427.510498
1105.171509 1842.633545 455.866211
1260.436279 1920.597534 448.634521
1031.893555 1833.721802 422.734344
1236.068359 1802.407715 357.818817
1055.916626 1953.285034 476.578552
1321.565186 1984.950317 165.892670
1008.596924 1840.119995 464.889801
1136.773315 1776.438354 213.025894
1043.123047 1843.332153 168.509628
1241.980835 1902.246460 450.175964
1324.874512 1993.733765 212.692230
1163.684814 1868.257324 439.521667
1291.480713 1930.925537 176.112091
1155.689819 1879.835693 459.877228
1048.209839 1831.073975 377.928864
1004.641418 1851.848511 320.572937
1150.500122 1769.137573 422.070984
1051.293335 1828.637695 345.609070
1151.772949 1828.879883 459.513428
1281.765625 1890.702759 430.884705
999.321167 1863.810791 164.913712
1257.018799 1812.687256 436.887634
1072.570801 1820.421021 252.478851
1268.943115 1883.247070 329.160919
1236.341187 1836.197266 289.558624
1214.353760 1723.393677 177.552658
1195.752563 1754.609497 180.671967
1181.795166 1745.988892 368.360046
837.010193 2013.195923 446.420746
1314.162354 1946.565186 167.702881
1006.973877 1883.589111 461.586273
1318.045654 1937.549194 420.109192
999.147400 1846.295288 422.683075
1000.299500 1845.137451 418.777191
883.679016 1913.294800 326.891266
981.897339 1864.114502 284.927246
1150.400391 1778.988525 166.266464
1155.894531 1850.964111 456.367340
946.125671 1895.251343 442.663757
1117.718384 1857.272217 478.231506
1260.035767 1796.530640 419.133087
1103.554321 1844.882568 462.030273
1295.544922 1935.569214 168.330017
1279.545898 1879.961914 311.903381
910.694397 1892.520630 312.320587
873.151489 2088.414795 236.839767
1189.657471 1754.461182 437.145508
964.851929 1879.691895 239.134293
951.022461 1889.536255 384.379669
1017.754700 1837.446045 215.840607
1048.981079 1829.227539 220.835281
1150.240601 1774.038940 217.611053
936.108521 1882.724365 231.796677
1138.815430 1768.477173 359.051117
1240.356079 1815.640137 308.003052
819.122620 1970.272949 428.890625
1096.139893 1816.503784 248.916031
1167.354614 1754.131348 273.962402
993.922302 1851.183716 419.363892
1265.394775 1834.281982 430.506104
846.284302 1984.963257 462.023132
1292.482910 1918.406006 219.742966
998.288513 1864.423706 468.797089
1191.411499 1762.733398 314.969269
1249.390991 1899.377563 527.774414
896.244873 1913.085327 383.546936
1094.252197 1811.423584 384.034546
1161.592651 1759.453857 372.734009
976.917480 1867.511841 373.877930
1110.790283 1791.743896 272.129150
909.574463 1903.491333 228.621155
922.633911 1996.906494 490.811127
1177.676270 1764.748779 365.869385
1170.515625 1808.800415 428.002502
1322.682739 1990.863037 354.352203
1141.231445 1849.268799 518.181396
1051.645386 1839.190918 325.116150
912.194946 1912.257080 446.512421
1136.500122 1850.930176 460.825989
1258.238403 1841.177612 325.533691
855.369873 1914.456909 216.046326
863.408081 1906.364868 422.566437
1058.524170 1820.649536 415.314941
995.464722 1851.220703 202.797455
997.983826 1845.682495 207.754730
1228.513550 1804.865845 443.743225
987.977539 1860.915039 403.975037
1133.181763 1840.357788 501.290558
1116.081055 1847.307007 448.833008
976.492676 1913.195435 471.331421
1110.489014 1827.711426 431.329529
1166.564331 1760.992920 315.401764
1230.515015 1864.333130 456.661987
903.826233 1898.945435 183.758469
1283.570923 1909.580933 385.646545
1305.240112 1952.061768 346.552429
920.818665 1975.752930 491.687347
1320.833984 1962.875244 322.813141
1121.455444 1842.447632 534.322876
893.298096 1904.607544 297.071136
840.485229 1926.717163 304.207855
1210.797852 1780.236938 398.655060
1195.616577 1744.671997 280.397430
1021.805359 1865.216187 460.659729
1205.788940 1770.958496 349.060760
836.882202 1916.503174 248.216782
980.077454 1851.303467 446.749390
1031.713379 1845.750732 456.676727
1117.593506 1843.470459 487.075745
1039.785034 1835.162720 172.086914
1134.623657 1837.585449 536.657837
1218.767090 1762.401733 283.972321
1145.268433 1833.859253 548.954590
1193.007324 1760.332397 264.450836
929.083801 1884.496216 296.897491
1147.795532 1763.176880 373.622437
1161.286987 1755.376343 275.355072
909.115417 1886.391846 214.064728
1214.063721 1751.642578 328.830322
1017.687561 1854.327515 197.455017
1192.169800 1739.984619 256.670746
916.428650 1899.152710 344.070679
1129.740723 1758.439819 278.832245
1240.885864 1813.055786 427.120605
1231.213623 1772.306030 292.247772
978.169434 1859.240234 414.449982
1263.746704 1915.961304 437.521515
1198.353271 1750.494385 181.154175
1122.606079 1804.659546 163.741211
1324.550415 1997.641846 294.395813
994.830566 1864.419678 403.718048
935.261536 1907.192871 355.293762
1047.823364 1839.358765 452.419067
1056.032349 1857.596802 464.731445
1122.831055 1781.346802 418.906982
1211.141602 1780.192993 405.722900
1232.691162 1849.509033 439.180695
1134.561157 1761.618530 237.991745
1250.404785 1867.489258 440.770050
828.754272 1986.691284 440.860382
1269.065063 1883.310059 325.286133
1221.654175 1777.401367 353.788147
1262.513550 1870.216553 333.941925
1136.446899 1851.169678 535.708496
1224.966675 1792.461304 321.807587
1085.443115 1819.775513 263.048645
846.602112 1905.833252 412.185272
1146.036865 1765.369263 376.362793
1079.935059 1851.200684 330.486206
1191.879395 1759.015991 346.248413
1020.607178 1850.926758 335.672577
1024.395874 1841.891846 352.461243
1129.450195 1840.236328 544.015381
1255.052856 1875.862549 446.267517
1121.753662 1789.231445 407.081299
1217.128296 1778.102539 409.347107
1160.980591 1768.875244 434.713989
939.575439 1916.078491 452.518372
1155.425903 1865.278076 507.959106
848.665649 1929.147949 290.823273
1097.343994 1815.309937 284.831940
1040.485474 1838.122925 451.177399
1263.253906 1868.010010 247.047089
1005.136169 1856.716064 345.054077
1129.470947 1765.047852 292.103119
1254.408325 1847.719482 296.663574
1314.067139 1923.061279 410.385040
1128.925415 1842.323730 475.147980
1279.039063 1896.275146 190.242050
1179.413696 1755.718018 313.457367
1087.152954 1818.398315 316.730927
972.202515 1864.968506 365.028259
927.957825 1888.575806 299.783752
935.399841 1879.348877 203.533279
1196.087280 1744.689697 221.385666
1268.187378 1888.145752 305.618713
944.622009 1892.734131 379.422699
952.559570 1872.797119 395.414581
932.125061 1887.694092 269.668945
1192.311890 1756.735474 198.244873
1049.823364 1823.484009 406.260681
1137.030029 1818.111328 441.277740
1198.978394 1863.627441 435.369293
1292.128052 1929.934937 325.913361
1263.626709 1871.923584 386.726776
1045.082153 1847.049316 221.744858
1110.744873 1780.732788 350.097137
1323.526489 1968.162354 379.908875
964.162659 1875.576660 460.099304
842.467163 2037.680908 358.178772
1196.052612 1746.268677 400.873627
815.366638 1976.595215 383.563721
939.049561 1883.724121 180.683731
1169.190674 1750.998657 343.771027
1080.744995 1811.088989 403.948456
1307.335815 1952.658691 170.804871
876.664124 1916.139160 268.778351
988.035645 1871.703125 169.620132
1065.359253 1840.973389 220.751282
1170.798462 1756.599854 336.519135
1319.401123 1965.465210 427.297485
1119.984619 1847.499878 313.505249
1158.748657 1757.762939 280.335114
1292.776733 1930.682373 366.986969
944.778503 1963.310303 477.626251
1287.082031 1878.779175 406.695313
1070.433350 1822.521851 426.174042
832.921997 2013.889282 421.454010
1137.411255 1831.819702 540.715820
940.058594 1883.145874 339.855438
858.068054 1992.404785 496.197021
1304.531616 1953.402832 374.880402
842.587646 1915.211914 400.896606
1259.351685 1864.176880 322.709778
1076.518311 1858.605103 446.620178
1050.174927 1825.738159 186.836197
1074.740112 1809.095703 189.221649
1218.163574 1776.301392 248.977768
1095.925171 1813.667847 367.782715
1148.474976 1832.302124 470.261719
842.973083 2032.027710 377.206726
848.194641 1926.284668 333.124146
1119.394409 1766.393433 337.570190
1279.827637 1854.012207 410.971344
1194.412476 1748.891602 370.923004
891.446960 1891.905029 173.515686
1245.558228 1801.201538 410.644226
1300.431030 1887.702515 160.991440
1214.712891 1773.189941 357.799164
1017.319092 1849.435181 303.663849
1141.952881 1851.632202 553.983093
1146.562134 1759.084961 384.939545
1199.278198 1797.535034 436.659454
1075.718018 1875.342041 479.265503
1177.712158 1743.737305 268.650116
1156.974609 1757.285767 282.912109
919.760742 1905.604980 444.616730
1233.411499 1806.965088 205.466080
1338.539917 2022.201660 162.310593
864.080811 1959.445801 268.649963
1092.324097 1812.659424 226.356735
1196.427124 1735.104370 304.433990
1239.231567 1808.099365 372.877655
924.000854 1921.628906 461.508270
1082.408691 1804.582520 410.549408
1214.428589 1806.457520 431.061127
1221.735596 1783.687744 403.991760
1263.709595 1863.292847 394.139099
1312.038208 1976.770386 292.969940
1195.938477 1779.185791 448.699493
1327.871948 1976.497925 296.635895
1171.885986 1785.759277 432.279968
1232.696777 1809.041260 368.050903
1056.687256 1819.793945 237.380127
1008.391846 1847.219604 382.355164
1218.721924 1888.903931 491.540771
1098.608643 1794.429565 375.628998
1180.222168 1753.918335 411.977875
1274.099731 1896.312744 174.327850
984.652161 1868.311035 331.459503
1228.948975 1894.479980 477.957245
1094.600464 1814.832397 428.403595
1152.881470 1842.262573 584.340027
1264.159058 1923.769775 453.258148
949.937561 1871.807373 378.494232
1124.380127 1856.772461 482.313171
1025.558960 1839.848999 223.537643
1303.300781 1957.908203 317.010010
951.125916 1884.257813 228.771378
984.374756 1801.651855 184.531845
1167.682373 1781.717041 195.482910
1286.098511 1872.338013 429.198822
1229.458862 1805.772949 437.432709
1250.018066 1838.549927 201.353531
1091.979858 1829.647827 443.313171
1222.284302 1882.364136 525.270996
1272.168701 1883.059814 368.660126
935.405579 1887.448730 395.896271
1154.228882 1760.162598 339.956604
1130.471313 1793.098267 186.088028
1236.239258 1795.862549 442.715637
1126.788086 1886.215454 489.157349
1103.778076 1846.661133 269.975281
1128.994751 1832.013794 558.928589
1175.049072 1762.582520 220.646561
833.926208 1936.255005 400.448303
1050.868408 1830.829468 212.368286
1290.105103 1922.094116 170.796463
1161.791626 1758.717896 369.241028
1210.171021 1770.422607 402.626740
1155.274292 1848.372070 465.859924
950.158630 1880.744385 452.414276
1098.963379 1799.697632 312.609344
904.463867 1899.762085 451.268219
1264.434937 1863.502686 246.337936
1328.374023 2011.410645 247.650940
858.359741 1919.619019 290.762024
1136.251709 1798.375122 164.902924
903.821106 1912.417358 200.784027
1254.252563 1848.124878 393.590637
869.892761 1903.687866 395.893921
1128.359863 1796.457397 195.214645
1111.327271 1778.021118 379.235687
916.297485 1892.268677 395.188080
1283.453735 1931.679321 439.625305
1317.661255 1923.437500 421.849792
1201.183350 1742.171875 219.844208
1321.879883 1963.680786 262.176788
1259.960571 1915.916992 474.732513
980.636292 1858.305542 412.185211
1160.804932 1769.558716 214.643311
1123.876587 1854.960571 501.356049
1051.505859 1826.687012 388.070313
1058.861328 1828.651611 345.614258
1117.675659 1840.603271 497.432648
1177.024658 1896.853516 443.628571
1209.364502 1744.737061 176.059555
1165.325317 1767.055542 276.750977
1158.745605 1867.656616 533.322632
1230.600952 1788.891846 174.276764
1251.464478 1841.199097 289.209503
1283.751465 1905.921143 279.911041
1266.224243 1931.527466 494.062378
1203.228271 1764.338989 358.133179
1002.999512 1847.953125 408.098602
1133.946045 1853.734619 451.069031
1085.903931 1808.792236 397.262085
1168.117798 1751.192017 361.054474
1156.993408 1759.429443 271.648132
1237.862915 1798.873535 167.616623
1065.568115 1826.848877 393.210358
1260.310181 1842.139648 360.296082
1105.153809 1796.685913 258.085541
1152.255859 1884.065796 451.755768
933.580566 1896.434204 251.328415
1093.879761 1868.573120 459.549133
983.507324 1850.070068 450.182648
985.666870 1814.069702 184.411423
1159.531982 1754.922119 370.474030
1204.010742 1882.270630 440.255493
1077.578247 1822.437744 311.225189
913.679688 1891.406494 217.549881
1155.484985 1769.495483 235.455154
1141.343628 1779.214844 301.965088
1135.732544 1767.601074 357.072815
1249.821899 1906.282593 455.399048
829.108826 1927.075562 360.423096
875.278931 2096.551514 400.256378
915.272583 1892.393555 432.097137
899.268311 1945.033081 490.832886
1126.252808 1843.991455 502.515747
1265.576538 1870.547363 393.031372
1046.325684 1838.062622 270.495819
1005.556519 1900.861084 468.325470
1136.536133 1776.269165 232.438492
844.847046 1957.032471 484.011475
1076.145874 1824.977051 431.027771
866.281189 1908.609375 428.893494
1264.940430 1926.037720 496.627625
1182.916138 1758.655884 359.336029
1093.061279 1789.940063 340.378479
1091.533569 1795.902832 363.355042
931.154297 1871.995605 164.992737
1243.925415 1800.198730 211.639252
856.377075 1933.138916 225.009552
836.366699 1939.238770 341.545471
1128.113403 1779.284302 400.103119
1073.399902 1832.376953 228.524002
1201.692505 1825.605957 432.090546
905.479858 1891.723511 258.745728
1095.658936 1814.198242 249.111664
1016.408508 1842.941406 404.006073
1200.892578 1743.598633 392.981384
1246.484375 1896.180542 500.873291
839.252441 1918.658936 318.090210
1144.740845 1774.795898 408.518616
1004.515564 1836.865845 447.684570
970.860535 1869.926514 465.045624
1271.244995 1943.779297 455.859314
1127.777100 1782.832764 290.726715
1331.131348 1971.471436 410.312256
953.035339 1877.462891 294.447784
892.111694 1899.199097 177.170517
1148.529785 1767.509399 345.366913
892.678162 1892.715576 422.107544
953.296021 1865.375854 165.653107
1287.044312 1864.923462 426.428741
1243.724854 1895.092529 480.118927
860.196960 1937.235962 227.560196
1161.242798 1757.921753 380.372467
1026.191895 1844.471313 381.587585
945.923218 1880.304688 290.772461
1173.002075 1759.219360 180.985931
1329.392334 1996.135010 196.571548
1214.686157 1897.777832 528.713501
1298.514648 1932.611816 205.077621
891.073914 1902.218506 410.551819
1132.120361 1776.502930 374.295990
1155.893433 1777.203857 437.009949
965.578491 1880.131592 403.169556
1162.523682 1828.198730 456.300110
1132.004028 1842.703979 482.530060
979.042358 1837.395996 182.639679
1190.236572 1755.638062 240.948959
1158.871582 1828.411255 472.111053
1324.887207 1928.144897 422.314667
1070.285767 1811.470947 320.632385
1237.967285 1827.965820 434.057983
1147.921265 1832.915894 526.161804
1037.407471 1830.706665 407.485291
1042.096191 1852.641357 245.302979
1085.256104 1808.978149 242.743652
1268.648560 1830.264893 440.790863
1207.714600 1776.224609 194.027054
1015.799927 1845.796265 416.359100
1170.149536 1757.517822 263.987457
1052.961914 1827.885986 429.786011
1058.432129 1829.842041 315.583954
1165.725830 1779.897339 163.672409
1176.831909 1747.055420 379.539856
1021.038879 1854.767334 474.460083
1254.141479 1854.359009 350.034454
1127.881470 1784.443848 192.501236
1009.498474 1841.300659 420.735260
883.787537 1914.254395 428.190308
1183.402954 1743.871094 271.854614
832.752014 1931.545044 209.620667
1126.890747 1827.153809 462.403748
1123.221069 1844.382813 467.041290
1221.115112 1783.461304 271.674316
902.015137 1893.968384 262.436340
1111.218872 1845.216797 505.210968
1240.552002 1901.646973 450.341949
1207.194824 1766.117310 260.559601
1182.830688 1757.715088 165.221481
1058.995239 1934.241943 477.202576
1162.770264 1758.237793 391.110504
1253.046387 1899.184570 509.346283
818.605408 1946.870728 292.943878
867.751465 1919.918945 314.738129
1224.799316 1792.051514 264.714142
1262.291748 1919.031494 513.880432
1006.374634 1864.444702 304.836060
1156.050659 1820.551270 438.884918
1194.238403 1737.350952 324.936401
1284.812622 1874.680176 432.225647
917.062561 1954.661011 487.949738
1248.124146 1825.842041 392.887817
960.629211 1878.351929 354.707428
1245.445923 1805.289917 433.958923
1268.788696 1881.104004 337.737701
990.548828 1862.846558 300.936768
840.232727 1927.374390 314.808197
1172.262695 1758.343018 203.398010
1253.321655 1889.750610 439.833862
985.447266 1849.096313 424.088593
1012.897400 1857.335327 393.744843
1269.142090 1904.867188 184.640030
1224.520508 1789.559937 259.759857
1244.392212 1822.273560 200.603455
991.874756 1835.191772 166.169418
1100.290039 1837.891479 452.561981
1147.652466 1767.855103 426.117188
1089.818726 1826.908325 226.733887
1179.928467 1756.550293 416.477600
1029.587769 1829.231323 207.007828
1219.216064 1779.190308 277.158142
1038.302979 1837.170532 416.383087
1200.898193 1751.629517 429.676331
1142.146240 1771.891357 320.601227
1230.345215 1809.370239 352.213287
1107.141846 1804.305786 174.758163
1283.674194 1912.070190 276.715271
1237.429810 1819.894897 343.113220
1098.442993 1817.265259 261.068787
985.437256 1863.494995 399.166718
1029.054077 1851.741943 342.718719
888.253235 1900.556519 181.997482
927.994690 1893.326294 439.314392
829.625671 1925.030884 396.585236
1116.594604 1839.557495 572.252563
1319.028564 1980.422363 233.983307
1088.059937 1797.158569 389.816711
941.867493 1882.646118 307.254822
1022.615417 1841.192505 215.178864
949.722656 1968.780762 484.897278
1169.380493 1812.079712 442.156769
1202.661133 1746.925781 367.696075
1253.602661 1838.120972 225.054749
914.391785 1886.830566 411.982544
1150.467407 1763.494995 376.029297
918.509583 1904.179077 453.527069
1159.821167 1753.479736 356.323822
1015.684753 1838.225342 465.014374
1171.154541 1746.112305 301.064911
979.180908 1841.934692 165.461334
1222.461548 1769.337158 163.157166
989.218079 1851.620483 253.204163
1007.487305 1849.884766 461.624939
1248.158447 1842.185059 328.065735
1292.518066 1913.352661 436.103973
1257.365723 1822.831543 162.342575
922.387329 1883.170532 449.738495
908.940796 1898.077515 229.785965
1224.935425 1791.076660 289.055908
1310.632935 1904.533569 428.173584
1059.594360 1859.937744 362.161438
1101.691406 1848.635986 478.448669
1264.776978 1839.964355 167.307175
972.159607 1910.455200 472.022186
1100.784424 1784.858276 360.191589
1005.977051 1840.597412 213.922913
1104.626099 1839.426270 526.081909
1288.389771 1862.583374 430.073120
993.454285 1866.889648 354.752258
1183.734741 1759.567749 346.621124
979.927429 1867.447754 292.224915
1072.785522 1834.394653 256.762146
1139.535522 1838.814087 433.821411
1122.018555 1841.765503 491.632782
1243.068726 1826.228638 210.872101
1267.122437 1862.562256 438.845703
999.804199 1862.967041 278.935394
859.058044 1922.457153 380.840698
836.447327 1932.345093 413.610107
1098.272827 1803.955200 377.301636
1233.007935 1794.477539 245.498978
842.519470 2037.663818 366.445587
1279.584106 1925.400024 324.878693
1143.112305 1764.031860 301.178741
1208.376831 1735.602661 273.069275
959.350220 1875.187988 314.534698
1030.736938 1842.583984 439.391693
1144.597900 1793.724731 162.836166
888.535400 1909.731567 269.623535
1163.943481 1874.744019 439.773773
1300.744141 1901.953857 420.771576
1264.947510 1853.993164 332.817383
1150.802368 1762.241089 333.191833
1132.449463 1780.115112 172.139267
895.915710 1948.117310 504.589630
1260.513550 1862.796631 358.500885
897.624573 1897.578369 290.973267
1222.423584 1762.546997 162.873123
805.750000 1933.545288 370.851135
1250.032959 1845.308228 377.484863
1140.578003 1790.604980 194.709656
1165.130981 1768.724609 202.311890
970.775696 1871.184814 377.872223
930.734802 1872.519409 199.393280
1138.351440 1855.028809 475.179047
1237.270630 1804.106689 273.048004
981.178101 1915.792236 466.241760
975.955139 1875.513672 400.462494
1247.135132 1804.834351 409.356506
816.097473 1913.448853 170.936157
857.394653 1924.179077 174.003632
950.934570 1852.955688 173.807892
1030.419434 1837.710571 385.026245
1052.204834 1819.034790 210.102203
867.798523 1907.217529 185.945068
1042.200073 1835.891968 353.858551
1191.640015 1740.402100 260.649017
1258.022339 1858.183960 256.231384
838.487976 1921.873047 222.353302
963.912109 1876.291748 245.446045
924.078003 1877.224609 171.141312
902.952881 1883.203613 404.758301
1271.965210 1948.265259 451.841156
819.324341 1986.701050 387.839447
1323.728271 1930.205566 425.463470
989.244080 1882.333374 486.112213
819.698120 1930.607422 183.114502
1222.631348 1817.585327 448.312225
960.904602 1876.633057 370.719299
943.869995 1951.758179 471.551361
1218.812988 1759.692261 206.146378
836.247253 1924.288940 214.075287
1107.786255 1782.430176 278.863739
1187.802979 1751.499023 260.349640
978.160706 1852.851929 423.686584
849.192993 1912.838989 198.861694
1151.797607 1773.250000 265.108917
1294.457031 1892.012329 164.039963
1242.954712 1825.862671 215.491486
1225.416138 1873.170898 436.932190
1147.001099 1761.556152 356.192230
1204.587891 1764.033813 163.307281
1083.620605 1804.241943 335.456696
1044.153442 1848.607300 375.499969
1229.986450 1897.091064 445.730469
1219.720215 1788.903198 382.731049
891.212280 1900.291870 348.008087
988.523132 1857.992554 373.895142
1191.483521 1740.276489 259.625610
1027.854126 1835.109009 436.853699
1201.718262 1769.508179 348.046143
980.816162 1997.055054 481.993378
1013.564819 1853.897583 385.158783
1215.165649 1753.816528 188.820099
938.649841 1876.387207 190.354462
1093.838013 1835.097900 452.455139
1061.518188 1832.090820 344.670288
995.651489 1844.246460 443.940552
1266.581665 1890.549927 373.757813
1253.936401 1914.682373 487.473053
1248.713013 1832.847778 324.943817
1239.840820 1798.797363 414.982910
1148.267456 1758.147705 369.701019
1095.053345 1805.551880 226.788651
1198.201294 1740.026123 381.052185
1074.331055 1816.408447 196.460342
1319.521606 1925.547852 429.506622
1090.134888 1864.918457 473.700562
1253.543945 1844.976074 196.338562
921.927185 1882.675903 205.992218
1295.834595 1917.679199 372.977417
888.168274 2120.365234 304.919708
1090.773315 1813.191162 237.500595
1199.182129 1752.651489 260.880585
1186.645386 1749.966919 211.874680
1313.780518 1912.345703 431.340485
1147.729248 1846.785034 505.461212
1228.973511 1901.635010 451.233826
1139.324341 1784.664185 229.069916
1230.621582 1795.853149 241.149689
1278.031494 1927.220703 370.177948
1152.672607 1779.016479 437.002136
932.747314 1906.832886 256.138733
1313.495361 1959.359253 162.601776
1137.696777 1773.269165 221.921875
1223.228882 1880.322266 460.000610
1283.685181 1908.322021 242.545609
1160.035400 1875.457275 552.825684
1221.631592 1770.078735 257.990814
1269.750488 1938.665527 505.176575
888.925781 1886.691406 430.109833
954.065491 1882.292236 205.016296
1148.861938 1776.736206 199.839035
1100.944336 1812.313721 430.088593
980.886414 1868.925659 330.212891
1260.416260 1873.705444 450.864685
1027.058960 1859.286743 238.667938
880.049927 1913.458984 345.930878
1132.599976 1767.325195 286.170441
1207.108276 1740.614136 257.056427
1095.518433 1798.335815 426.904510
1312.961304 1963.315674 178.239777
1101.051636 1803.353394 249.372589
1285.168335 1912.040649 182.744843
1224.322021 1796.451416 275.839996
1219.461426 1781.130249 405.789917
1104.189941 1793.782227 272.362579
1337.872314 2000.988892 215.666931
1303.839478 1922.626709 435.213440
1053.556274 1825.895020 167.449310
829.008301 1976.031616 442.765106
1190.064331 1762.123535 432.808350
902.070190 1935.309692 483.909668
1077.797974 1897.525635 468.359161
1140.976074 1828.387939 529.604187
1145.386597 1841.238403 504.499664
962.821594 1875.946899 395.253876
1068.845703 1844.556030 228.400070
1255.332153 1847.716797 393.726685
835.302185 1922.995361 202.368301
991.895630 1859.845825 349.881531
951.650024 1878.181030 288.637848
925.903809 1951.106934 476.106049
1174.177002 1759.153809 331.743439
1067.234863 1872.282104 460.686737
1242.681885 1820.889038 338.850616
1182.951172 1743.560791 312.636108
986.142517 1866.297241 252.031891
1184.870972 1762.601563 325.741699
892.136047 1909.197754 166.564484
944.002563 1877.505371 331.031311
1260.425415 1817.839722 411.357697
1225.079346 1779.291748 162.694748
1274.956543 1889.360962 341.953247
1060.708984 1847.998657 343.875854
851.919556 1921.385620 372.711975
937.005676 1988.361938 486.625061
1273.376099 1839.747070 415.072327
1183.086670 1756.703247 171.604675
1281.309937 1906.023315 356.737885
1304.376221 1944.205566 216.308426
1137.714600 1794.866943 182.041626
1262.321411 1853.004395 375.126251
1208.501709 1741.980957 362.535919
852.412231 1937.690430 337.192841
1289.402954 1922.980957 292.361633
1268.957397 1938.841919 506.883698
989.221680 1889.091797 455.954041
1203.655518 1747.216064 380.483856
1072.300415 1846.191650 256.288330
984.195923 1855.221436 171.261597
833.201050 1922.978516 423.163361
1194.217041 1762.744385 194.438965
1160.422729 1763.863892 407.661469
856.975525 1918.716064 323.854614
1189.351440 1741.671509 343.907837
867.326538 1911.853027 413.323425
1093.401367 1800.291748 423.203003
1047.615723 1834.655029 394.805695
1152.070923 1862.438721 465.778931
1211.929688 1767.347900 320.338623
1218.554565 1897.879517 445.690491
1014.932922 1852.974121 295.962280
1062.346680 1823.968872 430.247833
1231.479004 1812.253784 164.256744
1137.795654 1848.675537 582.058838
1129.343994 1886.896973 534.822815
1186.355957 1876.637451 447.209167
1084.237915 1875.581787 479.081329
1146.207031 1846.338623 481.514038
1014.252563 1952.642700 468.678833
1141.762939 1764.334595 300.731323
978.000549 1863.256226 227.921127
1230.369263 1796.327148 168.964111
1220.134888 1781.796021 182.438965
1342.941284 2014.055664 188.423172
1168.481689 1767.137573 419.476349
1270.757690 1879.040649 257.234375
1211.635498 1783.907959 278.102081
1320.946045 1965.350708 437.010193
1075.219238 1828.505249 341.947083
1151.303345 1762.125488 399.221313
908.311218 1913.577271 456.394196
812.944336 1942.665039 370.669983
1097.820801 1786.188599 352.457855
921.036072 1872.646362 214.292130
1299.590088 1939.862549 168.392273
1126.046387 1843.185913 527.298950
1292.518066 1923.565552 183.276337
830.509338 1931.423706 429.949463
983.640198 1855.832397 194.246506
1104.225220 1850.724243 299.383911
1118.861328 1799.723999 437.067688
1178.971802 1759.170898 426.858795
995.680603 1855.311890 334.161163
1179.358398 1748.325684 393.137024
892.103027 1893.140381 199.892914
980.426025 1878.931152 381.248749
1072.946899 1828.958740 369.598236
821.667175 1936.944580 355.196960
900.773621 1905.355591 348.890442
1329.784424 1970.611084 387.143127
940.782227 1895.466675 341.516327
902.364990 1940.581177 495.562866
915.523438 1940.509521 480.725708
839.567078 1919.828735 422.570892
991.889221 1864.598755 459.203674
1127.720825 1783.289795 389.952484
1091.983887 1797.433838 425.172852
1066.557983 1824.838379 348.061737
1123.661987 1776.623169 417.091614
1164.135254 1755.200317 213.491058
1300.842041 1939.059692 256.018097
1064.026245 1821.669434 437.405426
1172.381470 1756.425781 388.667206
1242.445068 1904.236938 527.859253
1180.288086 1748.146973 361.591156
1052.342773 1822.066406 413.800781
1118.913208 1849.774536 565.534058
852.141663 1913.133667 416.200348
1290.440674 1888.446777 413.822540
1162.457275 1770.792969 190.109909
1084.480957 1832.368286 449.815979
1327.404663 1949.423828 406.007385
1231.885742 1791.466064 224.917252
1225.211426 1737.029175 170.370331
1285.543213 1918.592041 162.394958
1298.002075 1941.195801 366.581635
1138.439331 1810.210571 441.381134
942.984802 1871.693970 427.569824
998.292358 1857.371704 312.987732
1222.107788 1793.017578 167.541428
1316.784668 1975.756592 247.625671
1133.515991 1793.163208 168.963303
1127.275635 1831.074463 504.474762
1176.276489 1744.821411 294.825653
1245.190918 1809.622314 379.108795
1031.326172 1856.251465 226.536438
1219.913940 1763.794434 196.274841
987.753052 1851.478516 432.861664
1168.041992 1755.835693 328.447052
980.283936 1963.303711 474.091980
823.577087 1929.228638 290.345428
1120.750122 1773.722168 310.409393
875.770691 1899.521362 209.974655
818.820068 1939.146484 411.944000
898.379700 1914.413086 227.994659
1071.283447 1855.203125 450.164520
1241.480713 1825.126099 313.599884
1266.851196 1872.366699 162.681793
1077.564941 1813.985596 396.027191
1205.423584 1742.729248 385.979675
833.738159 1921.003296 207.944992
1222.170654 1750.002808 224.058350
1234.558960 1875.873047 523.214722
1010.540771 1843.558105 218.412476
908.608337 1928.468262 490.395752
1055.605469 1836.739502 275.568451
1073.764893 1820.552612 354.978699
1114.720825 1785.786865 248.223206
1277.001831 1897.662964 276.375549
1042.838989 1838.122314 332.486969
1185.175049 1768.764648 181.076126
945.432556 1884.372437 359.890198
915.777649 1883.536743 239.773682
932.597412 1879.475586 408.657990
1232.287354 1798.197876 314.735535
1248.156250 1838.553955 289.461029
957.419128 1869.642212 167.396957
1125.501221 1807.754395 426.371155
1303.261597 1945.515381 326.884918
1238.678345 1814.836914 303.348938
1104.651611 1788.708496 235.700867
1085.377197 1806.099854 204.374237
1142.313843 1853.680176 554.669983
1208.250244 1772.674561 209.685974
1103.879883 1836.927124 473.921539
1141.322998 1838.292725 552.356384
1197.082520 1743.682861 381.974518
904.530151 1888.179932 200.029999
1035.098389 1860.815674 465.331238
1033.831177 1830.804688 436.639984
1208.905518 1746.881470 181.721786
1180.571655 1765.116821 162.763992
1259.851563 1863.497559 192.983856
1165.039063 1772.775146 198.869949
979.873474 1864.563110 431.305725
1146.068970 1856.736450 513.348755
1232.527710 1814.888672 428.959198
1228.519409 1805.677979 165.505188
1277.456665 1891.035522 280.970856
999.256653 1849.029053 449.987244
1134.619141 1776.283203 381.919495
1211.571899 1752.910156 365.404907
1020.394043 1838.997681 208.872009
986.652222 1832.846802 174.210983
1121.130981 1776.890503 275.086639
1239.300903 1792.724609 278.710266
1001.346985 1848.847046 446.345428
1010.281921 1841.160522 405.391968
1210.267456 1856.218018 435.670471
1188.557251 1766.988281 369.109528
1177.322266 1743.324585 277.410553
959.721619 1877.365723 163.997726
1287.687988 1912.588135 195.508286
875.212402 1893.804077 214.927628
892.104919 1914.452881 442.613312
1131.831543 1770.485352 360.418365
1168.770996 1754.782715 233.275055
1229.920410 1824.798584 346.221252
1186.844727 1743.513062 313.634033
970.205566 1867.486816 413.830811
869.339722 1914.390137 378.916077
875.580566 1907.328369 314.417572
1198.353882 1748.441284 409.427887
868.700317 1933.712402 273.935974
1268.543213 1861.632813 437.428741
1116.520508 1838.451904 449.754059
854.758179 1915.106689 177.696976
1157.056885 1790.292847 431.008331
1192.354858 1748.003784 246.397278
971.343323 1861.281372 185.923508
857.075623 1914.186035 376.282654
832.870300 1934.604492 434.803833
1155.906860 1765.969849 418.704926
1129.150513 1881.451172 509.500702
1159.513184 1754.766846 298.573853
1123.562622 1847.133057 448.750916
1285.445557 1907.038452 246.368607
840.652466 1945.456299 435.688477
1222.303711 1773.595459 277.483551
1124.760986 1841.728027 580.872742
1222.298096 1895.936646 459.681702
1275.694580 1895.852783 376.189911
890.531921 1895.329956 183.212433
1246.445313 1811.958496 283.428589
842.547424 2037.819336 353.969330
1132.181152 1831.840454 444.139038
1161.344727 1786.245361 197.780975
1076.693481 1851.086060 452.260101
1101.026123 1815.520874 244.892319
1067.661743 1814.625977 190.341522
1053.428711 1880.638062 467.708771
1338.130981 1994.601074 260.927887
1269.246948 1891.833740 453.840027
1023.127808 1850.014404 453.009308
1168.541870 1752.193237 389.063721
1116.235474 1784.274658 378.771118
921.827820 1890.762939 352.679779
1247.424561 1811.172607 403.407837
1122.927490 1780.653442 241.334946
1140.025269 1784.635498 166.053162
1274.274902 1910.247070 439.703674
1022.688416 1847.685059 211.325882
989.192139 1857.654785 366.048798
1027.261963 1847.389648 240.368881
1012.593201 1844.020996 173.225281
1121.726196 1849.559082 464.457428
1212.416870 1894.222656 522.854187
1259.884155 1915.395752 519.199951
985.566406 1830.095947 169.772980
1122.016846 1785.046143 282.848083
1368.206909 1994.723267 162.249222
1095.216919 1797.412964 382.287018
1170.625854 1784.061279 444.814178
1040.484863 1833.789673 428.208618
1177.433960 1743.208496 303.553680
1047.358521 1820.913696 170.394547
983.168213 1851.708496 204.576401
1075.546631 1811.563232 202.466309
1114.054077 1786.316895 245.758484
1104.422363 1798.411987 420.810272
1062.597534 1817.324097 412.268890
1078.666260 1808.143188 422.886658
1011.116394 1931.963257 466.507202
1094.686035 1800.656006 222.032394
1121.601563 1786.599976 400.964752
1185.906982 1762.139771 166.206207
1293.548218 1925.092407 191.212250
1176.970337 1874.295898 437.784302
1254.845459 1854.110962 363.867737
855.898682 1924.005005 332.112030
1176.154297 1771.967041 435.163666
1224.527954 1788.210815 220.636459
1175.463989 1750.702026 323.653534
961.047485 1860.358521 231.598160
936.806702 1867.038330 417.670319
1097.069214 1818.094360 179.616409
1054.786255 1876.918579 486.734955
976.897217 1867.308350 229.679565
987.120361 1858.925659 364.216583
1251.421753 1821.864014 292.880341
1231.471191 1804.221436 238.349747
825.256592 1928.918335 219.700394
1093.242676 1957.192017 483.337067
1122.814087 1850.987061 510.838440
915.548340 1916.696289 464.194183
956.229248 1871.964111 374.780609
1261.355469 1847.206299 337.095001
1095.450928 1816.317993 279.196075
1097.648193 1805.947021 267.936981
1065.066650 1849.898682 259.368286
1330.724243 1982.374756 313.237762
986.548828 1868.633545 334.940247
1225.075317 1785.474976 403.075500
1330.032715 1962.821167 403.673157
1031.794312 1836.640137 456.901031
961.949097 1881.409668 472.361359
1126.447754 1794.671143 425.435944
1032.083618 1848.528931 271.055328
1279.614258 1893.341553 226.669647
901.943481 1900.102905 432.853485
1115.656738 1790.751953 166.609390
1331.619873 1963.462036 168.433807
1188.359985 1756.785522 405.266968
1193.208618 1758.359619 338.522858
906.827454 1901.437012 445.843781
1198.711914 1872.253540 462.307434
1189.334351 1755.622803 337.551727
1261.536743 1854.411743 396.791016
939.080566 1976.985474 485.508057
1253.398315 1846.255371 162.616928
1175.565918 1775.104004 413.053802
1175.641113 1750.683594 333.347717
981.675537 1867.137817 322.166809
1083.697632 1829.522461 435.133972
978.563538 1889.969727 471.418274
1227.356689 1797.559448 237.372757
1163.689575 1769.586548 286.076355
1039.312256 1876.635376 462.006256
1145.188477 1767.130737 395.771088
1232.502686 1810.005127 313.161652
1226.036499 1764.441406 328.963043
1296.599243 1931.162842 269.465027
1200.260620 1760.884521 422.262665
847.822388 1922.245117 393.667358
976.252625 1852.132202 415.396759
1116.164917 1789.609253 425.611694
1305.291016 1986.325317 170.202118
1020.996582 1836.821655 421.389343
1267.243652 1904.485352 444.061676
875.200623 1906.370361 216.450165
1216.882080 1774.671753 383.981995
1114.046997 1812.671509 440.341644
893.746460 1899.009399 364.185516
983.373596 1855.568848 420.624298
1092.305664 1795.437256 418.232513
1027.278320 1848.247437 404.356873
953.884277 1885.505859 352.178955
1137.655396 1832.492188 544.357178
1221.449097 1902.266479 442.038055
812.045654 1949.002930 443.003082
1238.557617 1776.453125 429.546967
1008.904053 1855.656616 251.047836
1096.820679 1790.393555 171.927841
1113.899902 1792.411865 261.318756
1166.527954 1771.597168 196.027496
855.145508 1924.784668 201.357178
883.229126 1913.300171 334.974609
1235.863525 1822.059082 354.899261
1163.058105 1764.458374 397.602966
1149.787231 1761.997681 247.201981
1242.457520 1826.468384 185.415970
1233.625977 1809.222900 389.491608
1241.887207 1876.350220 488.353394
1109.786987 1873.829956 321.806305
999.151001 1863.695190 363.913269
1160.132813 1868.906860 503.650604
1306.399536 1958.005493 377.965210
1003.660522 1852.019043 337.826202
1257.577271 1804.031860 430.863708
1263.511719 1864.389526 210.737167
1082.703247 1847.597900 459.926544
913.874207 1893.202515 360.476624
1247.449951 1900.363403 453.303497
1054.991211 1830.748901 344.298920
1051.692139 1805.817383 171.484436
1220.491333 1756.626343 237.419128
1249.369995 1831.939209 293.300293
938.070679 1886.825684 231.620209
1084.198608 1788.835693 337.033295
1291.012817 1904.515259 338.255798
1155.417114 1758.146362 329.091064
999.007507 1907.488159 479.413635
1278.769531 1882.696777 366.687134
1188.055908 1757.001465 348.941559
1319.465088 1975.958618 163.805008
1336.860474 2016.720459 164.591949
1202.244629 1775.874756 394.530762
1146.786743 1856.232300 499.066132
1178.127563 1752.366211 220.054474
1113.305054 1779.113159 332.195557
883.603760 1925.424316 478.317322
839.602783 1918.418213 305.836975
1240.990479 1894.517944 533.999207
1030.036621 1843.012817 451.776764
1290.535156 1898.056519 429.215820
1005.735657 1857.154419 220.540421
1234.397583 1906.117188 473.908569
1256.263428 1852.841431 251.245850
1212.665894 1884.914917 540.154968
1171.910522 1745.543213 332.573883
1169.953613 1767.415405 265.542450
1254.353271 1852.320557 174.654388
1142.373413 1768.138550 253.371826
1143.867554 1768.573486 256.628479
890.559509 1958.058594 507.711456
1213.386963 1824.028687 432.537628
1153.986084 1780.630981 174.383438
1201.810059 1741.154175 290.446686
1146.367554 1842.843140 439.414581
1281.075928 1898.631958 210.692978
1100.310181 1779.552490 346.161377
1141.026733 1852.862183 452.284119
980.544373 1862.506348 176.738632
906.328186 1887.172974 417.664948
929.606079 1891.777466 349.919525
1294.431274 1935.081421 361.015411
1130.500610 1867.546753 530.377869
825.050049 1999.126343 352.058502
1209.716064 1747.804077 236.289795
1208.236084 1887.114258 478.095398
1177.169434 1742.099365 320.166504
810.769897 1960.692261 406.990326
1321.378296 1981.972412 188.578079
897.164551 1909.009277 457.526062
922.152649 1946.570801 493.001373
1253.612915 1904.009155 500.211884
996.193848 1849.949341 261.533875
1305.364746 1928.873535 398.533173
1321.585815 1954.641357 167.353622
1217.675537 1858.151855 436.722565
945.943359 1891.540649 166.957672
1161.479370 1900.727173 443.899933
1251.531494 1846.215088 327.560455
1204.827148 1747.112549 234.251801
1117.218384 1845.090698 513.940186
1078.496338 1806.343750 429.023773
1185.927246 1755.217529 304.543884
925.486572 1883.134521 414.756805
1132.453613 1812.534302 431.428589
1234.327515 1792.208252 410.058716
833.251404 1937.511230 191.376297
1135.178711 1775.376831 309.570953
1130.250366 1830.127441 476.987061
1062.454468 1838.781006 461.488312
1224.152100 1767.181396 167.427826
857.856201 2031.437744 476.055206
1186.645874 1756.703369 369.046783
1314.668457 1949.405762 264.469299
1218.324219 1778.886841 205.863892
1144.326416 1853.390503 560.518188
1204.729126 1896.265625 526.808472
824.710999 1943.829102 434.037201
1161.566895 1871.966431 514.809143
1118.973877 1784.959351 228.749802
980.697449 1870.595947 286.126007
1253.017944 1841.781616 244.448517
875.031311 1923.641602 232.176697
961.968689 1948.694458 464.706482
1215.721069 1896.090698 476.498383
939.032227 1882.666992 308.715973
1316.160278 1976.030396 272.094025
1017.332825 1851.039185 305.274323
1281.929199 1882.586548 287.811584
1023.853027 1840.826660 384.475616
1037.665161 1855.166138 462.810181
1024.517334 1837.739990 172.589432
1025.456787 1834.893677 413.521881
840.440918 1917.467285 272.768646
831.043030 1962.898560 453.536133
1099.873535 1849.527222 445.299164
1275.543335 1917.030518 336.694336
960.915771 1868.971313 168.594376
881.003479 1916.089355 199.241272
1003.831360 1860.469238 314.115814
1249.690796 1847.881348 315.785004
1197.510010 1741.047363 234.073486
1214.247314 1903.930786 506.511261
1234.361694 1824.383057 211.393478
1226.021729 1792.677979 369.350616
1168.908325 1754.397705 359.301117
1132.240723 1788.686157 437.905273
1197.039185 1733.734741 185.143768
1074.886230 1824.062256 306.401825
1033.202026 1909.699097 494.188995
1056.628540 1828.143433 371.427277
1187.799072 1741.404419 258.409607
985.393188 1878.824097 467.537323
1250.216309 1845.575317 373.485229
1062.173950 1818.959717 383.544647
1316.405151 1917.641479 406.574066
1103.911255 1795.250854 238.341293
