ply
format ascii 1.0
element vertex 1353
property float x
property float y
property float z
end_header
1670.388306 971.502686 1071.621460
1626.036743 769.301636 1137.850952
1517.314575 1019.785156 1118.678589
1656.357544 988.354492 1081.776611
1629.469360 666.563477 1217.926636
1425.455200 1008.045166 1271.550293
1742.369019 1016.468872 973.257813
1589.625854 1083.915771 1376.723511
1422.462646 967.010559 1259.768555
1514.448364 709.530823 1215.712036
1685.989502 1114.117798 1242.041870
1442.997437 968.239746 1234.928955
1600.391113 638.887024 1211.632568
1545.003784 742.094604 1223.457031
1475.560791 988.364319 1172.852417
1711.155640 1033.526367 1003.679810
1595.935791 887.119568 1135.147339
1692.202271 727.983887 1069.794312
1630.142822 898.497620 1063.909058
1696.131714 757.269653 1089.337402
1547.520752 1048.251343 1178.471680
1540.906372 938.379456 1133.320190
1492.152954 909.178833 1202.404663
1507.115601 851.836914 1213.474731
1478.928467 1023.027283 1225.367310
1728.002075 737.178467 1064.041748
1679.450317 854.424377 1048.101440
1541.690063 870.100342 1202.617798
1682.373535 1146.958862 1175.856079
1714.504639 1113.275146 1094.836304
1527.544434 1056.280273 1320.954956
1697.125366 826.651855 1041.877686
1509.905518 981.237366 1133.663452
1636.684814 1119.512207 1140.519653
1706.155273 708.440491 1068.444580
1681.424561 1129.656006 1166.528198
1566.354614 1069.333130 1239.526855
1534.616699 747.632935 1238.778442
1605.975220 1090.541626 1101.271973
1675.958984 725.647705 1130.280151
1474.098755 963.798340 1187.351929
1537.108276 1048.829590 1245.281860
1537.918579 981.347473 1124.558716
1579.294678 985.710266 1069.609497
1546.201904 741.581421 1223.880737
1573.861084 1076.176392 1358.247559
1695.242065 852.816528 1031.436401
1560.925049 790.394409 1201.671753
1607.097900 797.116943 1153.455078
1527.659790 1046.166748 1176.326416
1475.792603 991.648193 1156.896973
1662.799194 833.390686 1061.905396
1683.337769 905.297363 1034.606079
1712.760254 752.411865 1054.772217
1546.945801 827.666260 1215.081543
1579.056885 1068.118164 1335.655518
1692.756714 797.421692 1046.167114
1626.071167 756.069092 1149.581177
1581.179565 954.376770 1078.161011
1522.831665 1037.810913 1226.160645
1567.553833 930.466797 1218.748291
1542.833130 991.518921 1098.138794
1674.480103 1044.448853 1115.849121
1690.932129 999.761597 1056.604248
1576.032349 806.107605 1182.610718
1474.822876 1024.828491 1233.242432
1708.056641 893.494690 1044.498901
1708.549561 1019.188904 1109.993164
1523.937866 1030.726807 1133.864624
1630.136719 837.283752 1111.077637
1671.203857 967.631836 1064.158081
1651.144897 1107.353027 1186.250000
1618.065918 705.099915 1169.248169
1498.855835 965.258057 1145.552368
1736.471802 745.749207 1040.437988
1537.430786 1048.536011 1205.326538
1449.552734 1000.500122 1231.211060
1653.201050 1097.445801 1277.930054
1582.151611 755.953186 1194.453003
1569.815430 644.870667 1254.093750
1534.954224 1042.812622 1215.894165
1598.738647 944.047302 1078.059204
1592.916748 783.859802 1169.144897
1738.829102 1008.764404 969.124756
1497.275024 800.085876 1260.021118
1529.568237 857.515930 1192.516602
1641.941650 1105.017090 1272.649170
1643.253784 823.213623 1101.616577
1513.619019 1036.009644 1342.276611
1543.513428 866.471191 1181.769043
1623.163940 903.560791 1092.790405
1630.171997 1098.825928 1229.114014
1696.892090 957.929932 1076.992065
1565.997925 942.732544 1105.969360
1676.789307 1100.885132 1258.559937
1447.952393 992.291138 1232.038818
1749.187744 653.305176 1058.022827
1589.101440 1072.197510 1340.005127
1687.270264 1116.795044 1299.318604
1481.734741 1025.410156 1265.514648
1587.910034 1079.675903 1156.705200
1672.745728 1106.715332 1231.171265
1500.009521 833.690491 1233.069702
1737.833984 822.710022 1041.657471
1464.582520 930.350220 1238.766602
1541.968140 800.396118 1213.832764
1645.924805 852.540283 1065.977661
1732.485107 1023.096252 998.793091
1577.337769 1065.164185 1295.480713
1596.054199 693.882813 1215.419800
1702.608276 1074.500732 1105.439209
1445.907959 908.353088 1245.225342
1720.548828 1044.674561 1094.857544
1709.804810 782.461670 1055.639038
1739.791382 760.256958 1046.128052
1598.702393 1026.449341 1063.870239
1454.267456 1021.868225 1195.432129
1732.703003 1135.959473 1201.779907
1471.117432 1015.868225 1264.012085
1687.179321 1111.906494 1317.694214
1640.104980 696.668823 1181.201782
1613.810547 1093.183228 1379.758789
1623.087524 899.244568 1149.341553
1643.242676 1109.554199 1127.252197
1600.028320 1071.840088 1061.215698
1551.229614 678.858765 1255.737183
1525.275269 1040.439575 1228.838379
1692.055664 911.055603 1051.982178
1562.680664 753.997192 1213.095459
1592.269409 666.646667 1210.736084
1514.135742 1039.397705 1199.964478
1615.086304 900.758362 1089.364014
1697.645386 1120.979248 1291.377075
1598.889282 823.075378 1161.020630
1591.328003 1073.249634 1193.605225
1676.950562 958.145142 1076.834717
1736.112915 1080.804199 1069.520508
1508.954956 1043.112793 1347.735352
1607.633789 1081.337158 1247.669800
1529.438965 980.818176 1132.088257
1671.911255 838.524780 1047.213135
1576.981201 1077.420532 1375.222534
1586.690674 808.794983 1168.919312
1683.937378 1041.807495 1096.226196
1619.565674 1083.189087 1307.047485
1604.401489 1089.818848 1360.835327
1552.400269 727.062378 1217.526245
1672.673462 910.086243 1049.785767
1525.146851 938.767822 1121.218872
1686.527466 622.161072 1175.769531
1590.899292 633.529907 1208.889282
1472.046631 1009.958984 1192.001343
1670.014526 826.652039 1042.827393
1673.741821 893.025574 1038.660767
1672.606079 740.532288 1106.728516
1590.968506 1077.241699 1085.555176
1711.799072 682.867004 1086.857666
1679.736084 883.209473 1061.778442
1471.844971 1022.815430 1155.221558
1581.201294 1023.249573 1072.588867
1548.606201 1056.176636 1201.411499
1429.046021 995.315674 1221.318848
1741.548950 1018.220703 1018.165222
1709.067139 1065.405884 1106.141235
1574.036011 853.758545 1156.575073
1751.387085 711.469971 1031.138062
1497.186279 789.453918 1249.062012
1584.725952 668.481140 1221.783203
1645.329224 1119.197632 1116.188843
1598.268921 1003.418823 1052.101563
1698.234985 772.505005 1067.534668
1698.923828 855.961182 1035.792847
1713.176270 1064.008545 1119.384399
1613.886475 928.351196 1065.790527
1721.790771 796.930786 1054.544189
1502.469116 874.422546 1223.766235
1667.995605 1067.637329 1119.150146
1519.013916 784.648254 1240.397461
1599.106934 1074.450195 1267.403076
1615.692627 611.039551 1208.264160
1704.257813 971.430847 1029.802856
1726.075073 1106.392334 1176.741577
1619.795898 897.053833 1103.459961
1590.051270 961.295288 1068.709106
1656.041260 861.642578 1048.431885
1562.920654 709.897156 1241.424194
1469.471680 884.912598 1244.569946
1542.478638 1053.049072 1281.812012
1542.684326 717.543030 1239.082886
1653.837891 706.055725 1158.502075
1491.416870 1022.318604 1141.585205
1723.177002 777.480957 1052.596558
1686.114990 1096.476563 1148.449951
1521.891235 758.397705 1252.699951
1800.333740 685.453247 1071.612671
1574.651855 1066.332886 1173.921753
1715.003784 1118.039917 1267.522095
1660.862915 988.410950 1067.526855
1555.894165 1059.665894 1315.232178
1540.867310 856.959412 1220.535889
1694.777954 989.141418 1032.813599
1619.371216 894.845947 1080.743774
1566.739380 1072.274414 1369.814331
1523.160889 1041.322144 1327.801880
1684.355835 974.911438 1049.927612
1760.943726 803.084473 1070.452148
1644.612915 1094.930542 1205.497437
1534.017700 804.673096 1221.917725
1604.957764 1048.396240 1077.349121
1531.335449 888.846497 1209.983398
1532.286377 999.844971 1099.729980
1663.495850 849.411377 1053.405029
1696.567383 990.742126 1041.679810
1702.303589 687.153870 1144.877808
1680.569824 798.317444 1055.725342
1755.491333 1032.315308 1015.131470
1576.704346 1071.671753 1090.302612
1643.237549 973.324524 1081.013062
1564.860596 1058.878052 1132.798340
1591.436523 1072.709229 1225.174438
1469.634155 976.453064 1187.386230
1712.423950 1131.784546 1261.385986
1687.706421 862.111633 1038.576904
1457.681030 985.531982 1186.914795
1576.613892 1066.887573 1164.621704
1642.618042 785.046448 1120.621704
1465.088135 838.906738 1241.603149
1595.952515 790.000549 1162.457153
1649.243530 1008.454407 1072.600464
1696.510864 726.774231 1066.540161
1644.090088 863.906677 1066.367065
1543.093384 894.928284 1222.380127
1653.269531 1046.927979 1106.012451
1720.589478 979.901855 992.439697
1792.223267 806.308716 1083.035278
1695.173462 863.628967 1044.693115
1740.361206 1035.540894 979.581055
1503.048218 978.819092 1127.545898
1675.640991 965.838867 1071.024292
1685.511475 1157.180786 1203.538330
1494.818970 970.868103 1158.795776
1678.040405 740.241394 1092.482910
1464.900269 1006.761902 1199.432373
1611.405762 963.868713 1054.144165
1579.562256 682.549805 1213.442139
1552.416016 1051.451050 1152.021851
1749.026367 698.913147 1038.810181
1561.839355 664.776733 1246.324585
1749.018677 1105.985107 1085.848999
1487.398926 1023.056458 1224.122681
1545.009644 750.757446 1223.431519
1492.244263 1027.577393 1291.323242
1630.568604 946.356873 1059.481079
1649.045654 778.767639 1107.192505
1435.500610 989.556213 1253.885986
1534.447754 1047.727173 1377.608032
1718.540161 820.513306 1042.208130
1672.954468 902.348877 1044.814453
1721.541016 1020.728638 1017.244751
1563.144043 1062.381348 1404.757202
1686.871338 1114.018433 1273.086792
1662.893188 989.584534 1070.155884
1530.121216 925.583008 1151.973022
1681.418701 890.355286 1035.900391
1726.566284 1076.514160 1104.989380
1563.979126 723.169250 1229.871948
1562.825806 1055.025269 1097.851685
1640.309570 752.907227 1132.770264
1560.714966 1071.110718 1301.626953
1484.516357 1010.544983 1146.247437
1488.939941 1030.058228 1256.244019
1647.953369 986.530823 1071.748535
1644.953979 653.051758 1148.102539
1702.550781 1026.387329 1012.410217
1658.640503 923.311035 1072.765503
1624.672119 1085.312134 1306.825317
1684.685791 785.519653 1054.350220
1540.086182 1053.472534 1303.670532
1545.850830 1055.694214 1327.121094
1580.196533 1061.767212 1127.442383
1575.764648 891.299805 1163.307007
1527.829956 979.235657 1118.304321
1605.822266 1059.499146 1082.286499
1656.287720 873.884644 1048.420776
1643.162598 1087.608887 1283.576172
1540.081665 704.637695 1251.641235
1460.124878 929.048828 1237.047363
1576.591919 667.817200 1223.062500
1512.521729 720.340576 1235.050293
1692.408569 811.579468 1045.606445
1550.960815 1053.233521 1125.098755
1599.069336 836.867859 1143.115601
1442.635010 957.941101 1243.940552
1586.072144 1009.687561 1060.831909
1715.099487 1018.796875 1006.391113
1715.288574 833.645935 1039.007935
1710.203125 879.273621 1029.936279
1628.647705 755.024841 1149.935181
1550.751343 1053.716064 1380.174927
1737.129639 773.547729 1054.232544
1541.141479 784.078003 1214.946655
1742.886230 1002.092590 970.109680
1736.046021 778.079468 1055.892578
1465.566528 1029.931396 1195.046631
1524.190186 1026.874512 1104.566772
1679.282104 865.477051 1046.159424
1598.385376 1061.888062 1071.913574
1510.705688 940.866455 1157.921631
1681.637817 878.220520 1026.204834
1586.351563 735.408447 1223.850830
1515.518677 947.873474 1144.529663
1449.465210 968.369568 1212.273926
1515.037842 753.919189 1249.779053
1709.031128 1076.563354 1131.351318
1772.605347 772.135681 1025.696289
1537.727661 1051.164429 1316.087646
1551.937988 956.824585 1100.450439
1558.551025 1068.754883 1083.412231
1489.224976 956.391541 1174.909302
1593.076416 805.150574 1168.844727
1454.986328 935.484497 1241.156982
1614.588623 951.647644 1056.324463
1670.609497 687.871094 1120.122681
1577.323486 1067.559204 1226.842896
1643.412354 982.106445 1073.795166
1603.808105 1101.125977 1102.932495
1673.831055 812.414490 1056.149292
1754.191284 765.688293 1040.935669
1701.931641 848.611572 1037.875977
1624.696167 918.089722 1065.028931
1479.632935 1009.882751 1153.444946
1540.484985 1050.134399 1171.723267
1611.154297 911.564636 1086.755371
1746.588379 728.754028 1029.266235
1481.455078 972.034790 1165.003296
1651.636963 843.828247 1070.364380
1636.282593 944.294128 1055.444824
1697.670166 757.882080 1084.691406
1650.248291 901.374207 1053.947754
1569.980957 801.880615 1205.508789
1647.754028 1095.968506 1202.885498
1532.905762 1060.571899 1374.400879
1605.353638 1101.852051 1118.932983
1516.262939 789.033203 1261.366943
1688.844727 751.955811 1057.613159
1802.109497 719.538879 1036.898682
1652.413574 720.422058 1139.905396
1621.174438 787.475342 1143.989380
1415.198242 1003.176514 1265.834839
1660.844238 652.613281 1168.640503
1686.952881 813.080933 1045.191040
1713.760010 1109.363281 1093.101196
1807.238159 744.997925 1051.738159
1594.984253 1082.869873 1242.068604
1519.816895 937.661560 1150.179321
1572.644775 907.408142 1139.137085
1498.557007 849.205505 1222.940308
1737.362549 1114.734619 1093.122192
1548.847778 879.269653 1183.524902
1712.385742 1104.577759 1117.052979
1670.639404 995.617981 1088.661011
1764.599365 732.912476 1041.403564
1573.236328 596.383667 1237.416748
1612.568115 877.447693 1115.239746
1615.187378 915.843262 1091.773682
1751.930664 1032.751953 1020.961365
1444.541992 979.467163 1218.977417
1610.782104 1040.055786 1082.200073
1486.819824 951.696045 1170.477539
1529.438965 757.220520 1234.304810
1598.862183 1080.942627 1103.213135
1692.181519 833.872742 1038.785889
1482.298584 1011.582581 1153.182617
1652.434814 1094.771118 1131.100586
1607.154541 596.742981 1233.094238
1481.722168 897.670715 1221.683472
1615.121460 964.899841 1058.165894
1593.323486 711.999695 1201.680176
1562.753418 1046.265015 1193.587402
1704.741821 1068.219360 1111.394897
1566.005127 1057.365601 1264.675293
1522.737427 746.707031 1253.815308
1517.890137 948.965515 1123.915283
1690.395630 876.391846 1047.946655
1679.303467 1128.397217 1165.578735
1640.397339 726.861023 1143.547363
1688.150635 1025.526855 1105.908447
1655.813110 962.957825 1083.059937
1567.006348 1062.416626 1362.102783
1791.346436 755.504822 1028.804443
1584.158203 1021.452942 1058.911621
1533.304810 1021.789124 1088.314941
1605.202637 1072.014893 1351.665894
1661.953857 874.529114 1054.258179
1699.550781 1082.958374 1141.247070
1753.303711 683.403992 1038.076538
1629.506470 918.638245 1054.345825
1505.633179 924.445923 1170.563354
1614.547852 729.810120 1177.598145
1622.796997 645.431030 1180.741211
1652.487671 894.899841 1045.192627
1661.190796 753.158508 1114.199097
1472.745605 936.405701 1206.120239
1476.608521 952.038025 1190.934937
1495.248779 972.370361 1155.275146
1775.916382 801.472900 1064.022583
1582.936768 866.011475 1164.479126
1708.925537 1090.183228 1117.572388
1539.619995 1046.733887 1362.764526
1521.861938 841.914734 1214.482910
1625.765747 778.530396 1137.080444
1716.971680 663.407532 1099.788574
1467.207764 908.746277 1208.605713
1438.103271 972.970825 1222.329590
1713.941406 1074.594604 1107.453369
1608.806274 1088.721436 1228.725830
1723.744873 995.336670 993.903748
1635.258179 1090.385254 1422.135132
1708.415405 759.649841 1055.289795
1576.895630 1015.571472 1062.494507
1656.397827 830.682617 1064.138916
1480.024536 916.131653 1209.842041
1700.674072 1120.551147 1298.996216
1739.130737 775.476501 1040.114990
1613.742798 614.375061 1208.391846
1657.212769 792.512512 1110.293091
1421.624390 957.916016 1252.441895
1576.128540 1067.895386 1074.603394
1689.995483 707.036377 1088.059448
1560.399780 982.148926 1098.114258
1623.963013 690.090393 1181.671143
1568.168335 753.443848 1205.492432
1507.806519 922.616394 1181.989624
1459.987915 1007.311340 1188.946411
1657.900757 936.713013 1054.057251
1471.876831 1009.976807 1155.911255
1538.183594 1049.836426 1322.483276
1508.385010 821.995178 1231.195557
1682.003052 674.019348 1114.934448
1698.291748 979.797974 1001.739441
1494.573730 1026.772827 1206.261108
1484.644043 976.930908 1188.664795
1501.276367 912.218018 1183.628174
1655.810913 909.969727 1049.205322
1692.218872 665.190186 1087.092163
1660.107544 1109.944702 1140.953003
1627.947388 842.180237 1100.655884
1607.038574 874.769958 1127.898315
1649.594116 1128.762695 1140.759033
1639.055176 671.293640 1225.846558
1712.492676 997.837524 1026.042358
1457.398071 896.672546 1258.839111
1536.938354 934.056152 1128.796143
1608.139893 1005.255859 1059.417725
1599.469849 931.694031 1096.547241
1675.427734 759.182007 1087.972534
1601.257324 708.022400 1194.205322
1605.551147 1090.625610 1323.680542
1578.319702 1009.807678 1061.706177
1486.296021 864.461853 1234.419189
1682.209106 1009.366333 1059.071289
1806.508301 716.288879 1053.773071
1662.597290 674.737610 1167.215454
1676.858765 707.018311 1187.911255
1667.735352 871.122253 1060.979370
1564.248779 1068.868042 1254.657104
1439.329102 950.557007 1248.598022
1657.730225 1011.182129 1099.754028
1444.860229 908.728760 1244.966919
1573.632202 678.491455 1222.365479
1698.659180 1150.877808 1187.047974
1663.758179 876.490540 1040.535889
1585.034546 734.432556 1199.319824
1453.125732 986.064148 1230.124634
1548.947021 1045.627808 1132.004150
1721.396851 972.270142 996.921753
1571.096069 1074.941895 1284.486206
1609.549072 792.786865 1154.585449
1456.386719 1009.114502 1253.832642
1619.951660 1095.601807 1310.734741
1460.157593 1019.227356 1239.920532
1539.286011 948.311462 1112.612305
1685.301025 994.486938 1043.109619
1620.321655 1028.557007 1067.127686
1521.196411 1018.949524 1105.308472
1589.692505 1076.065918 1144.373901
1621.859009 1070.135620 1101.259277
1559.290283 1060.166748 1354.836914
1485.388428 871.487000 1229.122559
1447.434326 972.198792 1212.398438
1516.636719 895.033752 1208.647217
1734.340698 1132.140747 1208.934937
1704.882568 1001.661255 1095.898926
1480.415405 838.710266 1254.191406
1528.901489 1040.921997 1251.255737
1692.495117 686.143372 1096.367432
1507.574707 1025.212769 1112.417603
1625.359375 818.380798 1131.341919
1524.438477 1043.906006 1187.125854
1715.121338 1117.442627 1281.701782
1582.217896 733.168762 1201.852295
1478.168213 860.140198 1252.708374
1614.926025 909.990112 1079.659790
1603.440918 768.700989 1171.329468
1547.681763 952.519531 1107.627319
1677.225342 1148.640015 1185.592896
1510.468018 1038.403320 1213.134766
1652.304688 830.953918 1109.462769
1707.939819 849.895447 1043.886841
1744.037598 1031.891968 994.109619
1578.860474 1063.590210 1137.403198
1495.642578 917.300293 1201.108032
1583.760620 1065.465942 1076.821655
1432.699219 975.269165 1230.788940
1540.154663 806.464539 1216.325684
1695.889404 990.742432 1023.760925
1620.834839 996.116394 1066.072144
1517.326538 741.732605 1250.606812
1755.021118 789.382690 1060.341064
1718.944092 768.158630 1041.917603
1502.819702 958.837891 1149.927612
1748.559814 817.785522 1053.692017
1749.919922 742.009583 1023.236694
1758.506226 734.742920 1023.667542
1586.385010 977.663452 1076.855957
1447.227295 1004.195862 1208.239746
1478.101318 978.129639 1173.334473
1559.406372 675.599487 1240.024292
1700.640869 604.976440 1155.677124
1629.406494 1067.245117 1100.896606
1720.374146 1167.319580 1218.590088
1475.660278 1022.639648 1161.142212
1613.799805 925.652527 1071.309326
1599.718018 1012.144104 1052.231079
1731.590576 687.383667 1061.101563
1668.391479 806.541321 1066.314941
1585.940308 1069.350464 1181.113281
1783.664429 1071.528931 1223.668823
1639.408325 1114.394653 1149.568848
1688.605591 1009.570435 1034.708374
1618.470459 1002.571655 1071.277344
1506.267456 863.393982 1213.989746
1696.168335 1142.666382 1203.298828
1610.961548 862.768799 1116.676636
1660.146606 723.940918 1116.675903
1728.059692 1082.496582 1101.911987
1450.311401 963.049316 1229.197754
1700.776611 671.989319 1165.906250
1626.979248 1074.276001 1092.329956
1692.477905 1118.161011 1291.235474
1674.706787 1071.047852 1122.693726
1550.423462 1026.645508 1070.422241
1559.619263 1061.926025 1289.170532
1555.894409 1053.422119 1137.552612
1461.940796 1014.545776 1212.139404
1561.606323 1044.690063 1091.001099
1687.125122 996.832581 1023.377808
1661.964111 1114.782471 1138.231323
1600.581543 1035.836426 1069.676636
1590.819702 1052.816406 1051.428467
1532.330200 782.013672 1225.490723
1564.366089 1059.984131 1154.793457
1551.623779 927.897217 1125.645264
1532.082031 731.246765 1256.285278
1599.076416 1076.321533 1345.700928
1440.301147 950.749207 1245.818970
1496.698730 1027.187866 1240.053833
1570.104980 833.983948 1166.049316
1583.610596 961.929688 1072.198242
1646.482544 736.117310 1138.584595
1596.079468 1078.039429 1356.161133
1653.382446 1123.772827 1160.305786
1672.296997 990.828552 1057.315674
1503.413330 1031.888428 1255.667969
1417.825684 994.260864 1249.071045
1618.070313 753.510986 1150.253906
1583.495361 710.392395 1213.225220
1733.746704 725.797668 1057.784546
1668.192871 700.679626 1131.251221
1594.326294 1093.424072 1112.512939
1694.443848 1013.225647 1081.492065
1697.796387 725.932495 1080.673828
1701.733398 940.984192 1057.294312
1562.857422 961.971741 1086.510376
1671.729248 1005.762939 1037.439941
1477.114868 999.348633 1153.672974
1567.758301 1027.220947 1067.012817
1404.971313 993.773865 1234.366821
1689.879883 1132.735229 1218.588501
1572.144775 773.307556 1196.781738
1631.473022 644.454407 1221.493530
1644.473145 650.064331 1218.650635
1519.685547 1003.940369 1115.858398
1633.332642 857.702637 1102.911987
1648.437866 1012.348633 1094.136963
1463.170654 961.637024 1183.682861
1696.237793 1117.302612 1303.462769
1549.766113 995.787415 1107.891357
1679.778076 644.961487 1148.815552
1637.210815 866.397400 1093.442871
1494.301514 1039.706299 1318.414795
1652.482422 818.552673 1077.358643
1541.549194 963.175659 1112.347046
1614.601685 810.635193 1131.353394
1587.618530 1094.238281 1114.408691
1569.892334 812.245483 1182.332275
1456.909180 925.918640 1249.734985
1489.253906 917.036011 1196.123169
1694.433716 1138.940918 1208.434570
1465.560791 971.306030 1191.493774
1528.914185 1046.868896 1321.651855
1733.889526 1070.508301 1087.880981
1740.081665 1030.965454 972.349854
1648.851074 916.819641 1051.864746
1658.658691 1113.538330 1337.589355
1630.106934 685.279236 1233.595337
1530.147583 932.783997 1126.753296
1684.531250 982.949829 1061.125366
1548.713745 1055.394165 1294.619141
1713.894531 857.492920 1064.828613
1598.983643 978.572632 1061.513306
1712.644897 1023.133911 1069.990356
1775.446411 798.380676 1062.772461
1505.396118 1038.012817 1273.678589
1581.111206 980.679321 1069.406250
1825.103149 724.995361 1065.010376
1517.472900 1039.076660 1282.928589
1465.697510 971.239441 1187.999878
1714.245728 695.477051 1063.795776
1616.134399 928.722961 1064.504272
1564.600952 1069.498413 1185.459106
1711.821777 983.915039 1130.388916
1530.171143 1009.871704 1099.927002
1718.323120 807.168335 1048.823120
1570.059570 804.343384 1189.599976
1587.051636 1078.324585 1216.602905
1497.024414 1023.533386 1161.469482
1753.582764 1106.828735 1211.401855
1526.204590 975.493164 1119.259155
1543.854614 1052.263794 1149.761475
1639.704468 1081.557739 1196.992310
1671.076294 1134.205688 1195.113892
1597.758545 810.155090 1152.640137
1630.215576 1121.116943 1133.821777
1639.360718 1078.023315 1112.107544
1582.916626 830.954834 1179.351807
1475.524536 950.185791 1194.796753
1512.758667 1035.537720 1187.552734
1598.894043 853.938904 1136.018066
1735.616577 787.182373 1043.878296
1633.461792 878.009583 1088.521729
1725.874634 803.032471 1048.748413
1617.549438 639.563599 1203.622070
1716.751831 647.738464 1099.142578
1702.282227 777.343933 1055.032349
1749.364136 1119.955811 1144.393555
1700.445557 1086.844604 1104.995728
1751.383301 724.305359 1034.561279
1657.728760 780.954468 1125.773682
1522.185669 1004.600769 1108.330200
1612.453247 949.068420 1062.805054
1583.113403 1063.044434 1127.919922
1671.012085 832.450684 1039.064209
1560.047241 1060.053711 1284.582397
1558.947144 1056.292847 1251.099976
1474.111572 1026.907837 1320.665649
1713.886108 1155.349731 1209.624756
1659.579834 885.332703 1050.149536
1741.401489 1024.561279 978.940247
1677.779907 941.556458 1073.610107
1634.361816 1014.039246 1074.301758
1480.626343 1011.327148 1292.106812
1499.891479 1027.569580 1169.971680
1681.714111 669.254639 1147.294922
1713.788330 1089.333252 1122.912354
1546.855103 1035.736328 1115.455078
1556.947144 1055.708984 1084.310669
1731.821167 744.735718 1038.324951
1668.818604 637.558594 1186.362671
1501.612793 952.214844 1149.765259
1515.662231 813.791748 1221.978516
1541.660645 1035.662598 1075.721436
1535.526001 1017.290344 1109.417603
1678.483154 649.716125 1166.142944
1720.497681 1103.092529 1141.448730
1620.250854 1087.690063 1371.519775
1770.384888 752.050842 1043.700317
1565.730713 992.219482 1075.538818
1524.782593 780.598450 1226.003174
1700.832520 804.170654 1053.542969
1690.670166 709.278015 1114.452026
1421.116577 986.114441 1244.886353
1590.536377 1073.605713 1299.887573
1443.952759 1004.208862 1291.667114
1789.018921 804.204102 1079.098145
1513.157715 1035.616699 1244.708008
1672.372681 1010.877319 1033.597534
1490.458862 995.338501 1151.352173
1499.107666 1031.043701 1293.437378
1622.205688 740.801453 1163.173462
1783.850098 760.404663 1057.785278
1536.756348 1051.401611 1204.958496
1610.534790 1079.942261 1153.012695
1498.067261 1029.529175 1318.333496
1598.422363 979.832642 1066.745605
1454.543701 1012.361328 1183.544434
1604.993042 1078.177124 1201.186035
1614.062988 1083.047729 1219.983276
1727.046631 1086.971680 1087.153198
1601.579712 723.183289 1190.922729
1683.111938 1113.770386 1272.213013
1553.402222 1045.629395 1086.491943
1567.593262 1053.466919 1070.844727
1532.045166 1047.143188 1352.881836
1626.515869 962.242615 1058.001343
1686.767334 1028.725952 1046.669922
1570.567993 1061.217773 1094.195801
1792.198730 672.660339 1380.135864
1661.834229 873.687561 1043.873291
1471.558350 970.628479 1182.763672
1583.351563 904.735046 1174.758301
1649.720093 1124.702026 1140.136963
1586.569824 769.608704 1186.357544
1654.965454 1099.205444 1204.961670
1555.499390 1056.192627 1137.993530
1676.377197 1110.831543 1234.680908
1425.578735 1009.980530 1238.510742
1670.568726 829.365723 1063.920044
1749.833130 764.464844 1039.900757
1638.774414 826.057129 1096.890503
1704.204712 1063.821899 1119.817627
1750.125000 794.193726 1047.415894
1461.841187 1007.161743 1170.393921
1552.154053 831.588623 1198.858765
1710.898071 1037.188599 1123.540405
1669.559448 829.090576 1050.799194
1717.384644 977.710449 1074.013794
1439.015381 1011.544373 1234.689331
1729.467529 756.422729 1043.020020
1638.054077 1101.366577 1116.281738
1671.275513 1118.536011 1266.830200
1568.198120 1026.124390 1068.517822
1607.630493 1059.131226 1076.272583
1708.220703 876.795593 1035.270142
1565.007446 888.813354 1154.349976
1542.010254 752.731384 1243.503662
1692.043823 743.643738 1090.557007
1497.009277 1033.955200 1130.444824
1806.477417 675.515137 1112.772827
1641.893921 927.649475 1058.402222
1611.672485 900.955200 1116.390381
1730.512939 1028.170288 986.410950
1649.316528 700.096985 1138.734253
1535.010132 973.089355 1108.507813
1582.959839 1088.192017 1088.771240
1531.289063 712.971069 1250.849121
1587.931885 951.337524 1078.664673
1707.525635 1014.195862 1003.129639
1669.193848 699.345886 1116.962524
1632.012451 1089.675659 1400.498535
1492.854980 871.392639 1221.960571
1679.551392 1150.156494 1187.908081
1585.682739 963.483704 1070.790894
1755.454468 1113.464966 1137.133301
1653.390991 842.901917 1058.346680
1774.096680 694.375488 1053.013672
1517.750977 986.750732 1118.218506
1589.847412 1072.395996 1152.241577
1475.902832 1013.093689 1200.656616
1708.157593 787.216614 1053.986206
1643.567993 860.920715 1090.912476
1446.977783 991.992065 1249.403687
1517.823242 1000.342407 1118.588135
1705.268799 611.243042 1136.772827
1621.605957 769.391418 1150.467041
1616.523560 671.033813 1219.470337
1411.257813 988.592163 1252.011475
1689.083008 625.179749 1141.051270
1496.328247 1007.192627 1151.165283
1606.065430 1080.292725 1189.915039
1693.895508 1021.213013 1018.914795
1613.273682 1106.163818 1119.229858
1588.492554 1057.349976 1066.821045
1470.493530 1015.745911 1233.180176
1655.636719 805.401428 1079.171387
1606.891479 639.518799 1224.401001
1650.240234 656.092346 1231.287720
1620.094971 1109.754639 1114.209595
1531.219360 966.620178 1130.848999
1556.811401 897.488892 1156.953125
1725.560181 991.337341 987.851563
1727.954590 749.952271 1058.879639
1566.339722 891.473328 1135.935791
1533.489258 992.588074 1111.727295
1591.554443 1081.896484 1279.156982
1667.872559 829.654541 1049.485840
1701.286255 1014.129395 1087.392822
1559.362671 734.288086 1216.700928
1527.932495 1036.970459 1099.527344
1687.042480 966.845276 1063.160522
1642.223389 989.217163 1058.814575
1727.435913 1145.275269 1201.327393
1563.741333 918.844299 1148.452515
1686.313110 1033.092163 1113.108765
1481.497070 979.081299 1161.124268
1679.398071 1072.881470 1122.914917
1454.306519 948.174133 1239.344360
1498.975464 835.278931 1239.363647
1743.275635 1119.414917 1088.656006
1494.368652 1019.246826 1138.377319
1751.830322 682.409180 1048.521606
1631.924316 617.878052 1202.879639
1728.055054 730.152039 1050.957153
1573.267944 1076.503906 1307.896362
1609.036255 1077.995850 1168.402710
1430.332520 1004.800110 1268.309937
1728.730347 1106.936523 1142.713257
1564.730225 1032.984863 1063.309692
1825.056763 729.703064 1044.155151
1705.599854 673.855103 1079.338135
1603.093018 716.131775 1219.243042
1693.981567 1056.910156 1133.555908
1483.525513 906.503540 1210.364868
1688.534912 1025.216064 1028.913574
1714.181885 1151.354126 1232.399170
1542.646118 1044.855469 1340.813232
1618.561279 928.767212 1058.079956
1521.079956 762.362183 1245.059937
1428.210205 1003.094666 1265.719238
1537.404419 729.127075 1244.780518
1693.269531 821.055298 1043.022461
1622.498047 1085.906006 1247.836304
1694.789307 984.602356 1033.484619
1623.509399 673.399902 1185.446533
1549.481201 766.843262 1203.764648
1737.110474 1076.195313 1077.982666
1714.819336 762.315735 1049.171387
1494.413208 907.659851 1204.968384
1719.728516 1097.066040 1103.119995
1524.448608 949.932373 1130.258301
1736.509155 648.340088 1074.201294
1734.958252 1129.011353 1071.612549
1557.953247 913.799194 1128.064087
1663.811768 806.099915 1097.583984
1687.677368 1112.821533 1245.753540
1688.857178 1002.461853 1057.080933
1738.628174 708.844116 1046.748047
1649.582153 1109.433228 1303.385498
1602.082520 966.999817 1055.443237
1692.405151 1017.945618 1102.167969
1672.756104 1119.561157 1308.061279
1713.683594 1094.443359 1111.966919
1653.863525 954.710938 1080.565063
1695.131348 1043.779541 1102.516602
1569.912964 923.318359 1114.142578
1616.952271 1087.063354 1096.792480
1519.115967 1042.952759 1167.119995
1603.571411 1078.510986 1202.023071
1488.789185 931.094116 1204.392700
1585.037109 947.646240 1087.065063
1752.476563 981.020447 972.932373
1689.200806 667.374634 1100.361572
1412.928345 999.742493 1259.696655
1529.268799 1046.792358 1290.418457
1553.169678 782.921875 1207.837158
1561.401001 1058.121826 1111.657593
1664.607178 730.810913 1131.671631
1596.573730 965.174683 1055.572998
1647.645630 1072.274170 1105.901489
1536.501587 722.496460 1247.118286
1726.658569 807.398376 1046.226807
1699.066284 704.018311 1076.837769
1569.501709 641.016541 1248.919189
1636.520874 1090.318604 1375.005859
1526.931274 887.801697 1204.208374
1564.170410 960.236450 1100.394165
1551.741577 707.817749 1228.575928
1566.550049 1057.169922 1235.587158
1594.516968 767.345398 1173.230469
1523.545532 980.853394 1136.706665
1657.370117 940.899475 1055.406372
1668.071655 979.144165 1055.605347
1526.953491 779.188477 1220.839111
1568.039795 1008.891724 1064.553467
1762.537109 704.707642 1039.725708
1653.998901 884.639832 1056.780518
1662.569092 1124.670044 1185.850830
1553.988159 1067.413452 1128.373169
1587.849854 1015.848022 1067.956177
1606.535767 984.113281 1052.714600
1554.699341 934.169556 1119.229248
1588.321289 1071.340332 1300.662842
1669.236938 842.723572 1035.439697
1588.331177 1010.017029 1051.462891
1515.065186 1041.826660 1252.790649
1593.898560 729.490540 1204.349854
1615.867432 763.675537 1164.918823
1602.460205 991.450256 1052.177490
1483.178833 864.249146 1229.993408
1614.116943 645.924500 1211.796265
1638.932861 986.933899 1084.659668
1607.745361 1081.618042 1301.054810
1525.014648 956.502747 1142.013672
1648.152710 757.066406 1127.492188
1634.148926 1104.510620 1119.556152
1735.536621 1128.038696 1197.404053
1738.557495 1069.549316 1090.193237
1639.604248 1082.303711 1116.334351
1588.759277 701.909790 1209.799561
1666.903687 992.088562 1051.145508
1555.113647 998.381897 1081.144775
1474.065186 911.377686 1215.407959
1722.885254 1139.627441 1210.258423
1587.103149 1079.276367 1170.390869
1492.660522 824.945068 1248.080078
1624.225708 1085.745972 1171.533203
1724.841064 1107.282959 1118.817383
1472.835327 952.514465 1185.885254
1632.026733 1139.003296 1145.374390
1582.705200 670.328491 1214.459839
1567.544678 930.970215 1092.036011
1583.396606 1069.850952 1237.562866
1602.750366 965.695190 1054.736938
1639.619751 952.838257 1068.297485
1675.067139 1083.051880 1125.569946
1441.515869 958.684570 1259.022461
1691.369507 1013.032166 1023.960938
1591.233643 897.301208 1135.486816
1601.809570 983.399170 1058.577515
1659.541748 911.530090 1057.968750
1746.154785 855.259216 1079.804199
1523.298706 730.364197 1250.432861
1680.979248 887.832092 1034.002563
1507.005615 946.098328 1144.909912
1699.059692 1072.437744 1108.859741
1654.582275 1007.837036 1096.244873
1706.080688 1001.580322 1003.239502
1573.808350 1053.423096 1054.629761
1707.415161 1147.828857 1229.651611
1621.478760 1081.670776 1428.000732
1474.699097 948.497253 1184.508423
1813.276489 688.153137 1082.495483
1661.486572 1043.695923 1113.050537
1516.862793 1010.982544 1112.007324
1432.781372 990.056335 1263.824219
1574.114258 761.425171 1221.612061
1668.654053 686.083069 1146.327271
1765.062744 767.286865 1031.236450
1590.084106 621.846863 1227.125732
1567.060303 1074.359985 1417.679443
1582.253296 1049.769531 1073.089478
1534.168579 1041.057861 1334.728271
1620.745239 1049.448853 1089.354248
1486.437622 1023.072754 1235.393677
1539.911987 1048.546387 1258.420410
1684.744751 1066.814087 1132.614624
1545.564209 692.925903 1257.054199
1598.663818 1098.495361 1447.741211
1733.577637 1076.775513 1074.544556
1519.381836 729.727295 1238.175781
1650.543579 1093.496826 1133.352173
1600.233643 781.003723 1169.603271
1618.161743 722.699219 1177.180054
1549.045288 803.083435 1192.148193
1534.389526 1043.033203 1132.732056
1666.176025 829.603455 1058.762817
1564.537354 1059.391968 1245.868408
1594.830444 1082.136597 1096.131714
1689.751343 1115.414307 1256.910645
1666.325684 993.571289 1062.613403
1700.522827 790.126343 1054.728638
1536.612061 1044.482178 1142.318970
1580.100952 840.886780 1161.583618
1760.781982 788.931335 1054.530762
1648.988770 670.421570 1215.954102
1707.222046 1012.380127 1027.149292
1671.126831 745.674927 1089.297852
1561.030518 1022.971558 1072.600464
1700.665283 813.908936 1045.125488
1745.455444 870.151123 1078.025391
1615.758667 1065.901978 1071.904053
1562.867065 686.551025 1227.873901
1671.210449 949.722107 1056.264404
1456.170166 1006.096741 1177.297363
1696.171143 709.415039 1070.561279
1657.870361 997.097046 1064.918213
1626.245483 1068.367310 1098.238037
1689.197510 1082.583130 1119.580078
1709.128784 758.903564 1054.688110
1679.027832 1024.034668 1048.000854
1702.163574 834.527771 1028.872803
1630.187012 639.871277 1197.690063
1605.989502 1072.844727 1229.682129
1638.436401 897.732117 1052.218018
1649.591431 607.295471 1207.100342
1529.651001 1040.988281 1371.347778
1681.398926 746.937561 1082.875610
1568.864990 816.198242 1181.582520
1576.865112 798.381409 1177.544067
1602.930420 1099.672852 1118.180420
1742.052979 1053.953247 1095.538574
1598.724487 1095.717041 1116.908691
1565.636963 843.699097 1191.452881
1713.464722 1148.219849 1235.838501
1496.974854 1027.817017 1202.946411
1566.119019 826.825134 1186.777832
1689.286499 777.690186 1069.823608
1545.748901 1054.055908 1216.188721
1537.831543 910.532837 1177.213989
1728.619263 1076.352661 1079.707886
1600.995972 877.247314 1134.632446
1677.696411 832.215210 1048.206177
1702.083008 1032.445435 1107.142700
1475.453003 941.460266 1222.702148
1698.479370 928.961243 1079.241455
1452.216309 1001.497314 1218.015869
1684.339844 1011.476440 1061.296875
1556.229004 704.654419 1261.991577
1513.581055 1047.915283 1127.026001
1462.039917 993.576904 1194.591919
1678.743896 998.297974 1080.481445
1693.075439 1007.091064 1070.574463
1534.803101 696.479370 1249.939209
1703.875488 791.347473 1055.380859
1816.557007 766.241577 1048.208252
1663.829346 819.330627 1084.727905
1609.599365 801.778503 1145.052979
1727.230835 1106.172119 1153.871704
1518.861328 1045.999634 1356.807739
1665.239868 1107.289185 1199.446167
1680.375732 757.542969 1066.099609
1714.725342 771.813538 1048.545654
1730.632202 764.705505 1030.314087
1532.451294 1009.605103 1111.871948
1740.729248 913.577026 1081.737061
1562.932129 983.428345 1086.106201
1516.267212 1057.107422 1365.905029
1603.421387 877.728271 1131.064575
1691.369385 1046.408569 1128.351196
1658.681519 764.756287 1112.265015
1579.906372 1041.901245 1066.310303
1557.919434 1020.005981 1092.857788
1535.344360 977.533142 1126.896118
1583.573120 1068.374634 1150.477539
1658.101807 612.411926 1182.527588
1538.104858 1005.766663 1086.524780
1512.369263 1035.517334 1179.796021
1523.568237 854.183350 1212.401367
1567.530762 1073.647217 1115.546509
1627.140381 1130.558105 1143.575928
1515.735596 965.238098 1142.243042
1493.041748 1022.095825 1132.437134
1558.638672 977.782227 1092.869263
1574.744263 961.139465 1081.192139
1708.078613 1111.661133 1106.365112
1610.616821 845.214783 1135.060547
1708.314819 1078.288818 1115.097778
1741.135376 760.632080 1041.955078
1630.303589 1102.701782 1371.925415
1732.071289 1085.041748 1092.786133
1739.025635 685.815369 1060.113281
1718.481689 1088.528564 1085.545898
1680.731689 959.232300 1055.394897
1504.096313 824.889709 1243.520020
1548.287109 994.068298 1089.163452
1519.503174 901.238770 1202.281372
1578.975464 696.396790 1243.702393
1635.584106 866.400696 1077.106079
1661.223633 1100.377686 1281.237427
1747.043213 1087.654297 1052.516602
1554.905640 815.952515 1199.645630
1551.336426 917.074402 1224.412720
1729.519653 700.654236 1061.308228
1598.028320 927.992065 1091.599243
1527.134033 852.511475 1209.711304
1501.197998 1013.697998 1137.880615
1549.062866 1010.737000 1081.193726
1722.862061 1150.914917 1230.779175
1524.880493 1030.207886 1232.558228
1522.062134 992.468872 1116.865723
1534.138916 977.239136 1107.509155
1661.685425 884.206299 1038.264648
1749.672607 1101.326538 1178.968140
1657.447876 906.856934 1051.603516
1658.822021 1125.063599 1179.130005
1583.609253 822.152832 1157.607544
1466.521362 989.505798 1175.012329
1525.000488 774.174622 1230.648193
1521.475586 729.246094 1251.319092
1689.719238 1011.662476 1081.640015
1601.612427 1081.024170 1084.899414
1579.025757 968.029907 1077.801147
1637.274658 1118.715088 1135.974487
1701.222412 1120.414551 1264.910400
1597.321777 602.114258 1229.385132
1591.216431 1076.246948 1319.865967
1672.365845 736.086365 1098.668701
1624.349121 741.952759 1158.801270
1672.674316 1002.862915 1101.062134
1589.126465 676.022156 1220.437988
1693.803467 1026.575317 1023.965515
1497.747681 970.135742 1147.301880
1511.495605 745.894287 1249.113403
1594.044678 1072.588379 1290.896606
1494.232544 1026.102905 1243.543579
1477.579712 1019.448303 1211.131470
1536.289185 1048.357910 1307.633301
1718.791138 707.915710 1067.382446
1564.237061 1073.958984 1399.475952
1532.829956 1038.328247 1131.047729
1470.216553 914.039307 1217.297729
1676.267822 937.211853 1080.344238
1596.456177 1086.390137 1352.343994
1501.011963 837.603333 1248.958984
1682.585327 1098.429199 1124.315430
1527.556641 885.162231 1220.609009
1496.792236 809.017578 1250.227539
1658.422974 965.313110 1081.602295
1671.253540 929.539734 1075.726807
1657.684814 892.173462 1047.055786
1528.087158 994.148804 1104.681152
1585.041504 1086.975342 1357.208130
1669.031982 873.431946 1047.394531
1641.020264 1015.525146 1092.422485
1699.145874 663.011902 1099.373901
1551.084229 822.444031 1202.966797
1619.327637 1090.813232 1148.292603
1679.425049 1006.943176 1114.625000
1741.723633 710.690308 1056.155396
1661.336670 890.772156 1054.245361
1416.873413 999.519409 1260.755493
1473.278320 961.402527 1169.560791
1640.191772 1115.943970 1164.085938
1487.564819 867.001282 1230.109985
1725.247437 1127.167236 1197.692017
1647.783569 998.441711 1095.942627
1584.065308 1061.069946 1395.195923
1497.487427 836.695679 1225.978027
1558.478027 633.084656 1241.612549
1618.891968 784.925476 1138.804565
1648.069092 904.509155 1057.474487
1505.460083 820.961304 1229.634644
1719.120483 1051.174927 1127.278320
1582.676514 1072.284790 1351.567749
1483.065430 1037.312622 1211.033691
1620.534180 1078.664307 1096.600220
1531.487793 875.484802 1213.493896
1487.059692 844.748047 1252.666382
1673.404907 845.207336 1054.891235
1676.544067 860.608459 1044.104004
1530.468140 1007.375916 1109.208984
1474.820313 988.284912 1166.468262
1468.194092 1033.322632 1319.942993
1746.176270 761.699707 1030.317749
1564.616821 680.731323 1229.310791
1681.070313 726.534546 1106.229004
1637.863403 640.134644 1191.672729
1534.349487 1023.463562 1107.316284
1583.458374 1067.188965 1072.643311
1607.957520 913.471985 1098.205444
1626.804688 1117.584717 1138.848755
1739.951416 1008.717712 983.560364
1543.593384 1053.293579 1226.196167
1607.641602 1077.274170 1226.371704
1428.319580 1000.101929 1236.682373
1492.327637 856.647888 1235.695923
1511.363037 1033.641968 1190.678223
1593.118896 813.181213 1164.155273
1424.943726 1003.399170 1224.567017
1578.324097 1064.542603 1089.031372
1498.739014 978.198364 1167.930176
1631.027466 1098.799194 1106.717285
1741.504517 645.274902 1166.081909
1425.208740 996.875916 1249.842773
1581.062500 1061.228027 1125.900146
1482.735962 954.588989 1178.336426
1559.550171 870.242798 1172.374390
1753.041382 752.435913 1034.260620
1573.811279 989.687866 1065.113770
1503.548584 1005.661865 1129.953369
1665.104736 639.294922 1154.987305
1554.885864 973.146606 1089.700439
1611.200562 624.637939 1219.107422
1516.653076 960.987488 1149.529419
1699.221191 777.807190 1061.807617
1548.164063 845.802246 1213.343384
1640.192505 960.154114 1071.037109
1643.082886 869.781982 1073.885376
1722.288208 1023.800415 1025.494141
1586.202026 1046.066284 1052.848511
1539.457031 1046.349854 1308.962402
1720.735840 729.932983 1055.756470
1567.467651 910.719116 1217.711548
1528.890503 936.647949 1135.074219
1663.564331 857.316528 1049.219849
1798.220337 795.796936 1078.231079
1506.264038 1060.047119 1350.022827
1626.788940 965.523315 1065.837158
1601.787231 1077.939697 1259.147461
1604.708862 607.625916 1215.110718
1665.481934 701.975281 1120.063477
1566.566772 674.239197 1217.493896
1579.000732 1026.098511 1055.689087
1678.309326 643.329224 1164.326660
1608.153076 649.505310 1228.780884
1614.818481 1080.604004 1239.724731
1744.475830 1105.376709 1098.250244
1560.659180 1045.071167 1371.839600
1509.132202 810.060181 1238.975220
1518.051636 999.054504 1115.050049
1601.439453 1076.056885 1364.951172
1568.433838 860.611450 1171.073853
1580.624512 681.283752 1214.369873
1507.220215 903.473328 1201.939575
1519.133057 781.555786 1236.864136
1698.137207 1117.543091 1162.653687
1481.248047 959.895691 1202.060791
1451.562988 942.523254 1238.009033
1625.116211 923.003418 1055.839844
1692.870728 1010.143494 1025.719360
1663.920532 1147.191895 1185.548828
1609.957397 785.953979 1148.645142
1697.515259 724.403381 1087.336060
1723.313354 1067.130859 1088.535889
1711.957642 1100.755493 1122.879028
1622.589966 895.619568 1077.783813
1726.897339 1108.034912 1142.714722
1653.662598 779.653870 1121.346924
1546.252808 1054.514038 1236.480103
1424.535767 983.649475 1241.007813
1619.989380 796.011414 1141.944458
1677.942749 687.850464 1127.312622
1718.916870 1129.671265 1267.595215
1578.278809 1047.539307 1053.462646
1621.066650 865.574707 1096.802124
1811.149170 673.311401 1184.442139
1721.178955 780.338196 1047.432861
1612.697998 707.759888 1179.129150
1655.957397 811.515991 1102.249756
1612.359009 1080.830811 1178.193359
1710.623779 1100.966309 1172.123901
1509.026733 934.077087 1170.593018
1515.328369 805.848755 1225.162231
1497.572510 931.531189 1166.164063
1646.223877 703.280396 1169.227539
1480.100708 893.846741 1223.981201
1645.481445 800.752930 1117.692627
1721.404663 1051.138550 1097.979492
1667.974976 655.555115 1141.543945
1476.911133 1017.912476 1268.937500
1575.526001 887.332336 1145.959106
1549.533447 824.852722 1210.726318
1710.801392 1045.771118 1103.708008
1519.737671 1039.768677 1367.257080
1624.749878 1087.058105 1438.236450
1734.532593 642.096191 1152.320679
1511.587524 1034.360840 1139.526855
1576.630493 1036.547363 1057.514282
1515.506958 999.739563 1121.713745
1755.225708 1064.508545 1047.583740
1695.815796 1142.717896 1190.631714
1479.210205 937.335693 1191.480225
1589.853882 1069.112183 1133.399536
1717.390381 769.448792 1046.373657
1675.749268 818.306274 1047.454468
1561.915649 948.437927 1093.804199
1605.027344 863.366455 1127.791626
1827.700806 740.450989 1041.399658
1564.844604 904.331726 1146.924927
1422.638062 987.415527 1251.495728
1651.471313 724.886536 1125.959717
1481.811035 999.559570 1154.389648
1514.763672 974.889709 1118.126099
1745.648682 715.484497 1051.528320
1668.802612 914.869690 1059.149292
1625.175781 1097.230103 1269.081421
1643.528687 1097.710938 1117.996216
1571.840576 1056.166260 1058.612183
1651.525391 985.033203 1081.109619
1608.356934 1089.849976 1135.058105
1676.538818 831.131042 1060.309326
1499.876343 1027.649292 1290.810913
1670.229492 1118.068848 1254.487549
1632.104858 1086.026245 1178.659668
1516.365112 1041.661743 1107.990967
1620.293823 1001.595520 1060.817139
1694.969604 1008.737610 1080.582642
1618.571899 712.812744 1208.770508
1703.193604 715.381165 1069.328857
1645.091187 795.741272 1115.787354
1558.210205 903.454773 1138.216675
1502.888184 974.361511 1146.980469
1776.892090 726.084351 1044.949097
1474.403076 992.250244 1188.676758
1609.551636 1095.023438 1390.970215
1608.555664 1080.718018 1243.651489
1692.068970 1026.774658 1029.995605
1620.489990 907.951294 1083.246704
1514.558838 952.377808 1137.895874
1749.641968 1021.070435 986.442200
1702.896484 629.725708 1136.959839
1486.874634 913.513672 1221.198242
1584.876343 990.633606 1060.673462
1711.121216 990.824341 1011.856018
1691.359009 1133.187134 1223.619141
1710.011841 729.666077 1066.990967
1612.168091 916.593811 1088.509033
1615.717651 831.392761 1123.136963
1606.573730 628.914795 1202.810181
1529.032837 903.404968 1180.653809
1594.121216 662.572449 1208.703979
1516.532837 989.334595 1126.632080
1627.885986 755.390076 1172.104126
1600.745361 1087.857300 1332.016113
1551.995850 1053.285889 1233.531494
1627.540039 661.827148 1202.651123
1557.473755 1066.638062 1282.840698
1450.255005 1000.097900 1196.956055
1710.592285 1019.499573 1045.986450
1559.241577 1052.217285 1101.124146
1515.614624 833.050415 1211.266602
1733.765747 1023.939270 967.737000
1589.888306 1052.385498 1073.904419
1547.655151 905.143799 1195.667847
1654.783936 921.798157 1066.165527
1704.276611 1113.847778 1122.483398
1600.587524 763.494995 1196.228638
1418.948120 960.140137 1243.423340
1744.482666 809.079529 1058.242310
1649.825073 928.167297 1056.021729
1716.000732 990.801514 1045.656250
1612.775024 925.134338 1124.640991
1572.176392 887.224609 1158.469116
1573.978882 769.549133 1196.348877
1666.704102 748.487305 1102.878906
1719.874390 897.576599 1059.519897
1592.011475 843.017029 1148.732300
1691.561157 751.560486 1101.719238
1560.100830 1024.881714 1066.555298
1467.151978 1014.268799 1280.838379
1689.824219 722.625427 1082.290649
1437.801514 997.872009 1271.271973
1476.969604 887.444397 1229.250610
1693.447754 1141.738892 1206.062378
1474.369995 870.793152 1248.970459
1521.347778 772.945435 1252.205200
1487.363770 882.144226 1220.551392
1466.581543 1018.213501 1284.254883
1759.889526 756.162048 1023.516479
1544.853027 1035.373657 1083.382324
1589.578735 859.122375 1135.789429
1532.370850 691.565125 1248.316040
1480.946899 923.901978 1224.611572
