ply
format ascii 1.0
element vertex 1380
property float x
property float y
property float z
end_header
1007.225952 1843.863892 418.244995
1237.479248 1831.510498 315.059479
970.946899 1890.978760 466.518188
1078.598267 1809.653809 416.595612
1102.509155 1806.055786 423.751129
930.374573 1881.907715 408.873505
842.510132 1933.437866 399.242157
1118.387085 1845.903809 481.315613
1000.613281 1864.248901 267.125183
984.280823 1860.434570 389.390564
1126.040405 1782.643433 421.756683
1061.072998 1852.704346 315.307434
887.039246 1912.188599 380.871124
987.544617 1872.531494 454.439911
1265.523438 1856.372314 185.263214
1217.546021 1802.918335 369.797180
1106.015381 1782.755981 307.747925
905.160278 1888.107910 381.217896
826.479797 1926.981934 399.073212
1273.546143 1902.951416 292.791534
1248.477783 1865.647339 347.068848
896.096558 1925.069702 439.218994
957.749634 1907.643433 459.427979
1218.901245 1900.830322 517.666748
1034.537720 1832.493042 204.392883
1248.449707 1852.620972 273.054413
880.781799 1916.130005 261.741913
965.152222 1862.569702 405.561005
1018.148560 1890.681030 459.348938
1215.029175 1799.429199 313.244598
1116.813110 1855.163940 508.446564
1184.294067 1776.497925 409.152557
1244.127686 1854.243896 325.032928
935.761963 1953.103882 455.768311
1105.716431 1846.598145 486.506653
1157.363281 1759.846313 401.916565
810.933350 1937.074341 241.659714
1209.813354 1749.218872 268.764008
1285.996460 1940.404175 373.381256
1321.040894 1932.536865 419.366455
1253.392944 1890.755005 300.077301
1122.362183 1850.641724 449.165802
960.853760 1886.654053 326.636292
1090.064575 1857.312622 564.450623
1192.583740 1901.620850 474.252777
1193.845581 1885.302124 437.231049
1113.354248 1786.647949 404.158478
1093.090210 1801.269165 207.700897
1282.086670 1942.145874 179.139633
1303.424072 1990.127441 383.622528
1193.330688 1748.477051 242.322647
1280.637451 1870.389282 453.637543
1326.802246 1987.784302 166.912079
1211.427124 1794.089111 324.851074
1134.119507 1784.059204 184.723511
1240.067993 1805.849609 421.451599
1040.865479 1847.792603 277.092255
871.399292 1938.133545 448.038849
1183.702148 1765.504272 305.421631
1311.811157 1982.509399 264.299164
913.729370 1900.495728 244.054825
896.324829 1890.022827 388.107849
984.075073 1865.227539 420.354767
887.548523 1909.032837 166.078934
1197.479248 1891.719238 461.093964
997.267456 1855.156250 168.053513
1258.192383 1873.444946 296.757538
923.290405 1889.284180 305.624359
1104.253052 1783.864136 319.811737
1128.190918 1760.894897 275.455017
964.580261 1868.496094 400.249481
1240.588135 1830.178833 339.403870
1143.409546 1767.278564 314.465515
969.873718 1871.314697 433.433960
1138.878418 1881.727051 549.137512
970.275513 1865.919312 440.405853
1202.519043 1771.970459 289.275452
1232.660767 1832.780029 388.697998
998.328796 1859.765503 156.731918
1103.700562 1786.319092 290.219910
862.619507 1931.928101 366.924469
1248.303467 1858.823853 303.111359
1089.130005 1804.480225 274.225647
1126.341675 1791.359497 421.525696
1117.687500 1785.084351 399.405701
1297.247559 1957.263672 283.394165
1138.039795 1876.486450 545.982361
1248.396606 1854.927734 236.361618
931.997070 1888.101563 227.575226
876.003723 1918.879639 347.755432
927.680603 1905.639893 264.809418
980.782410 1854.172852 227.900452
1287.591187 1926.798218 180.207352
1263.270020 1961.605957 442.576447
1187.870605 1900.420776 456.571960
966.552917 1874.296997 370.295624
1123.114868 1857.752563 543.471008
1170.759399 1771.094849 429.256134
1060.233765 1821.050293 188.227127
1086.952515 1797.389526 221.489853
885.776184 2142.888672 360.211639
1092.679688 1814.368774 426.165253
912.767029 1928.682983 443.782135
1294.211792 1958.101807 362.311157
991.747742 1906.058594 460.337097
915.891235 1907.708496 434.070587
980.133057 1858.286865 430.602051
812.681396 1924.800781 364.055695
995.720764 1848.906250 404.425964
1160.841553 1776.812866 163.301300
1164.661255 1776.265259 363.334229
1139.800781 1798.428467 428.133423
1334.844604 2006.598267 159.479263
1158.544922 1771.041748 190.013062
1306.609253 1934.046265 422.488983
933.830078 1892.329712 349.049408
1282.204346 1913.095337 358.680145
922.019409 1990.619629 471.080109
1224.775757 1788.428223 357.199768
1024.344604 1858.694946 444.104462
1082.572144 1815.410156 320.236267
841.142090 1890.982422 157.046066
1283.918579 1919.087646 176.948792
1127.558960 1775.384277 298.985535
1211.589722 1773.569946 299.415192
1018.422791 1849.990601 336.978821
961.051880 1887.801758 286.281311
902.311768 1907.860596 175.440628
1268.388794 1884.221558 191.494705
1132.867798 1774.963257 264.502045
1319.514282 1980.356323 309.728973
1070.850830 1826.854980 313.178589
1181.016724 1759.638306 292.859222
1117.928223 1845.833496 527.640198
875.072021 1914.138550 335.684357
820.245483 1943.914307 306.504547
1200.497070 1900.563354 475.619354
893.773865 1919.726929 448.443207
1017.350342 1850.624390 185.202545
871.974976 1904.935547 392.967010
927.770752 1894.451904 177.474594
880.697266 1901.833130 202.179443
1162.030029 1752.971680 186.216339
1081.987671 1855.664307 549.034607
1106.872681 1846.612061 453.026276
1217.190186 1801.857910 301.746185
1230.809448 1829.249878 389.153687
910.234314 1890.564331 392.818970
964.816528 1875.472656 315.735382
1263.316406 1876.063599 352.520416
819.149292 1996.801392 243.710190
942.185913 1883.469238 202.212540
919.332275 1892.007690 200.077301
1216.096680 1797.008789 365.314240
1172.984741 1813.017456 439.772675
852.774719 1952.694580 240.807159
1297.542114 1936.461060 161.737366
1124.931030 1864.899048 280.341827
1182.878174 1908.730469 535.591187
1232.335083 1889.468994 507.548218
1008.498718 1844.383301 436.364197
1166.578979 1757.046021 262.133881
895.269836 1926.055664 320.631622
886.697327 1895.601196 208.125961
901.373840 1909.092163 440.203278
1086.623901 1855.891357 567.728699
858.226990 1909.604492 194.260025
1028.898804 1826.405273 177.898773
987.635071 1869.852051 428.979034
1068.935547 1824.777222 393.144653
1067.065308 1829.022949 435.101410
1031.034302 1840.588867 426.242279
889.552917 1901.644287 163.262054
989.718628 1868.620361 235.597443
956.131592 1880.500732 226.905579
1062.556763 1858.903442 251.862503
1318.497314 1995.420898 237.950577
1123.652344 1786.689697 417.553925
1045.719482 1859.976074 451.672089
1218.031738 1788.899780 304.956116
974.284485 1974.338745 476.675659
1222.062622 1795.401245 290.447571
1072.016235 1861.370239 433.953857
1299.780762 1945.085327 345.167999
1245.803955 1853.079590 259.517670
1116.197144 1852.610107 479.356873
1090.504517 1805.765381 226.849594
999.963257 1864.317139 462.347412
1211.472168 1832.208862 438.076477
992.104492 1851.031738 421.670990
1225.027832 1805.367432 223.843567
1276.948853 1908.023315 278.910004
794.490356 1948.482544 339.363251
848.012146 1962.647827 451.174408
863.985657 1903.441895 183.569183
1248.147583 1866.908081 223.500610
1018.168274 1851.735474 456.310181
1251.151611 1944.588135 493.345520
1333.667236 1991.426392 160.496262
1073.140747 1843.193359 435.502716
1168.552002 1760.301270 338.534119
906.098755 1900.442383 335.895874
1019.273682 1840.488647 418.113220
1208.512451 1787.093140 413.050293
983.446655 1874.234741 203.303802
1287.163696 1939.894165 353.352875
828.678650 1931.527466 217.464035
814.569275 1939.907593 384.988922
1091.642456 1803.754517 397.856628
1276.530884 1897.904419 229.013489
1062.566650 1825.375488 293.518036
1257.573730 1872.633789 287.620544
1326.029419 1943.009521 421.060730
810.773743 1983.172363 268.019623
1086.218750 1781.511108 315.782990
1107.173218 1794.653931 225.932541
785.943420 1962.146362 284.451752
898.950378 1901.430420 212.982864
1247.200806 1807.249390 163.707733
804.997437 1946.643921 259.758636
1148.907104 1767.634644 415.149506
1219.790405 1791.477295 299.384979
1112.852417 1784.604614 258.227020
1300.195923 1940.875244 295.715881
1102.983643 1799.692627 174.778961
1023.668945 1844.956055 183.871521
931.541199 1893.734741 304.833893
1158.851196 1759.839722 226.981598
1217.579346 1801.675781 255.348740
855.399414 1929.609985 301.226288
1061.588501 1822.818604 263.212341
1034.128906 1853.135254 299.259644
1096.814331 1802.312378 224.743668
1277.369263 1904.134399 233.656174
901.532593 1904.297607 210.992508
1200.030518 1738.614624 324.990631
1236.946899 1843.824707 188.807465
1218.031738 1804.148682 179.690445
1099.561279 1857.594971 243.133087
909.983643 1899.049438 291.366302
1258.454468 1856.506958 432.889221
1125.667847 1863.649780 566.801636
1171.905151 1875.546753 435.248077
974.904724 1869.623169 456.338928
1232.010254 1913.314087 465.603088
848.331360 1929.776978 368.900970
1239.702148 1871.997925 369.193542
1186.855225 1767.186890 287.709320
921.791992 1882.151978 415.042908
1162.446167 1764.894775 220.937195
886.612732 1914.167603 351.036591
1185.970947 1751.184326 253.718445
1224.612183 1894.520264 535.319397
1270.668457 1886.678345 328.271912
1219.153809 1774.590942 337.361176
1210.277954 1773.510498 301.173462
954.685303 1919.162842 458.791901
951.128540 1870.908936 431.786835
923.675232 1918.281250 442.864990
1091.134644 1799.929688 367.337524
1125.217041 1782.882813 323.964478
1129.141479 1772.481079 314.130188
821.346069 1938.374634 327.273163
1003.564514 1857.097290 274.991913
1006.018555 1861.259888 229.763046
952.016785 1883.317139 229.617523
1067.078491 1878.153198 452.923676
1115.221191 1792.464233 203.965179
1272.469727 1911.140015 303.906403
1082.782593 1807.536255 428.251556
1292.794556 1929.276611 325.661499
1111.758667 1790.495728 287.830200
1260.949219 1888.861572 358.139862
1052.338135 1823.302002 177.510910
1012.790466 1852.442261 353.000641
1105.400635 1795.783203 412.103516
1238.472290 1851.641235 342.004333
1180.982056 1748.313110 249.739243
1202.013184 1843.164795 437.568542
1094.257202 1865.778687 544.608826
1116.054565 1783.011963 410.211578
947.647644 1888.799561 264.446533
974.069580 1873.647949 358.488678
1002.737244 1860.845337 342.047760
1063.111816 1899.023560 461.992401
1211.814941 1806.529541 275.478668
1322.830078 2003.321899 302.628265
1119.195679 1839.650146 506.249237
1270.556030 1898.496948 252.601028
1295.955933 1896.105591 429.417297
847.195923 1927.934570 190.428238
1191.392578 1890.774902 438.136505
1278.293457 1926.087402 385.630646
1130.400513 1813.809692 433.765442
878.717224 1955.955200 486.195007
991.362244 1861.741699 352.853790
1127.087891 1863.205078 521.279785
1184.263550 1756.134277 351.134094
919.350220 1894.669800 423.098541
1256.226074 1829.867676 428.949890
1015.976135 1850.259399 441.700012
1119.956665 1783.938599 408.035828
1123.773682 1775.607178 170.707550
1130.390625 1770.417969 341.203949
1268.839966 1912.702148 437.138092
917.789490 1903.148804 428.945404
1095.331909 1853.182373 544.173523
1214.645630 1782.182739 309.930359
1076.648193 1810.437866 196.816513
1112.628174 1858.132324 479.348145
972.083740 1867.937378 157.941208
1098.905396 1857.536499 513.942261
848.480957 1928.761108 404.499878
866.900879 1918.653931 311.396271
1201.973999 1759.192749 396.377747
1199.750854 1749.660522 194.275177
1095.498413 1790.035767 315.506592
1228.623779 1818.466675 277.568939
838.834473 1923.577393 305.595734
1317.022461 2002.453125 276.934540
1130.463379 1777.251709 353.717682
1294.414185 1918.812622 216.278351
1070.024780 1804.437988 327.294037
968.378662 1870.371704 392.099060
866.025513 1941.192627 270.180817
1207.024292 1783.374634 354.137817
840.788696 1922.241943 276.945251
1065.872803 1820.330933 395.588226
1097.977051 1860.547241 528.122192
1192.442017 1773.366455 389.431335
864.456421 1931.914307 451.798553
1012.250061 1847.657471 200.634232
1198.747192 1748.424438 185.756653
837.147278 1933.757080 417.982269
1232.468384 1800.245728 451.586334
1186.862793 1759.969604 338.826477
823.241394 2009.970703 437.598663
1096.753784 1796.341919 322.149323
1101.074585 1807.946899 220.620972
1013.569092 1866.516968 275.270050
990.163330 1860.680420 433.052887
1136.989014 1862.353882 462.797546
827.219788 1949.739502 315.278076
1170.042603 1760.651978 393.617554
1225.759766 1796.079224 245.330582
890.938416 1891.850098 404.118317
858.530884 1936.346436 425.558960
1134.433594 1873.603760 560.480225
850.802185 1938.830444 449.593079
1223.893799 1858.549927 441.938263
1237.902832 1844.642944 309.976135
1268.701294 1881.125122 400.562317
1038.281860 1835.656250 372.532562
989.883667 1862.685913 336.748566
943.018494 1877.818970 184.865570
1163.087158 1894.320313 470.214294
1315.784180 1995.080933 273.006287
1103.196533 1792.548340 231.804489
1210.804688 1893.665039 535.050171
1095.922729 1790.855103 167.655106
947.770630 1879.047363 246.675400
1027.396118 1854.363403 352.977112
1102.718140 1803.314087 190.973404
1138.434326 1892.988892 518.657776
959.438843 1851.032104 155.216415
861.326416 1891.901611 166.338760
1127.618530 1784.968262 425.981262
1195.741455 1767.831421 313.782745
1039.366089 1828.803711 188.466797
1128.713501 1792.331787 407.345032
908.808167 1910.741333 437.119049
1125.018433 1868.390991 301.883575
1050.176758 1828.133911 398.569641
1210.242554 1818.404541 438.772034
1140.613525 1777.884033 210.783005
1306.673340 1962.091675 197.476379
1059.608765 1941.787842 465.563141
1012.618530 1865.058716 329.513245
943.433655 1891.005127 377.299774
1196.564209 1764.289185 432.487976
1212.571777 1824.374268 448.972534
1052.190796 1825.321899 192.536133
1034.602295 1847.249878 257.253052
1134.839966 1794.350830 167.552979
1229.976563 1816.088745 217.111450
1101.129517 1857.485718 461.172363
998.657654 1844.942383 420.750397
1162.389160 1817.424927 437.426971
1097.341675 1862.319702 471.751923
1204.363281 1791.690063 374.984222
981.758301 1887.326538 345.529633
926.609558 1901.469849 416.751373
1126.447388 1785.762329 276.509033
1148.574951 1785.330444 181.863647
1123.941772 1855.439209 540.827698
1246.427368 1849.295532 391.836761
874.349060 1909.740723 262.757843
868.907898 1927.622681 429.199005
1002.235291 1862.274292 229.405212
1231.714355 1890.737305 509.680084
1194.403076 1780.883057 436.973541
1036.263184 1857.685425 440.542847
1182.193604 1752.143311 383.183533
975.285522 1878.437988 387.944122
936.673401 1876.163940 416.542267
1019.154053 1861.208374 264.490021
891.695313 1906.737427 448.556366
1060.828979 1824.736206 158.755402
974.231873 1857.098267 437.046173
1138.726807 1772.655518 417.268433
1018.252869 1852.938965 285.824524
1184.287231 1750.692627 277.371094
1283.468994 1941.388428 376.331909
1131.299683 1800.222534 431.515045
1265.590820 1886.362915 269.931610
1025.069946 1845.881836 382.230286
962.269775 1868.444580 257.078705
884.614319 2158.475830 407.779602
1215.867432 1800.147949 321.873871
1117.400269 1787.115112 314.433258
1129.419678 1842.530640 474.493469
1135.449829 1878.378296 565.816284
830.528931 1946.894775 441.612213
859.786682 1953.300171 453.476471
1185.046143 1756.036133 177.545532
1242.934692 1889.862549 451.067169
1308.298950 1942.453003 189.881042
817.876282 1928.660767 341.353790
1099.045166 1786.751709 406.924500
1323.563843 1969.706909 167.838104
1188.140991 1910.181641 534.604736
951.230774 1892.819946 314.156281
824.055176 1943.052734 355.624146
864.502075 1914.760498 299.145447
1179.411621 1766.182739 295.215912
1295.751709 1942.766113 389.082794
1193.957886 1770.597290 355.261658
1259.784180 1835.787720 426.704102
824.010681 1938.313354 285.539001
1150.294800 1768.690552 200.054245
1276.731079 1929.727539 232.188843
1216.501221 1820.022339 306.150574
1228.194092 1742.793213 166.109375
1029.547485 1856.324341 227.650436
1073.605957 1837.538696 238.944580
1114.009888 1855.798462 453.663879
1122.928345 1844.180542 520.722900
798.450195 1942.844849 400.190704
1217.871704 1900.666016 528.280396
851.750671 1920.130859 370.019348
1055.929199 1831.269409 353.582733
1124.397705 1786.956299 255.613907
946.238953 1859.192993 154.316696
1260.776611 1867.043335 180.958450
1170.328979 1757.321411 383.811340
1326.326294 1967.927124 430.793579
964.948486 1879.320313 196.709229
952.229248 1866.195068 427.484436
1247.596191 1881.769165 389.252502
1140.682617 1767.205933 334.292114
868.268433 1932.901367 290.682037
1258.626709 1873.023438 260.451111
876.887939 1915.344360 417.396667
1111.200562 1788.592163 249.669586
841.669739 1912.959229 177.574005
1208.268066 1776.516968 356.752563
823.405701 1950.104126 441.651581
1177.913330 1747.818359 321.373413
1249.259033 1803.712280 416.681793
1242.458618 1809.637329 417.557068
1120.296631 1784.990967 277.282806
926.527771 1850.728394 170.633911
1207.614624 1775.462524 216.905914
1140.880005 1768.159546 353.473694
1109.800659 1779.869385 256.350861
1172.043823 1762.135010 211.715729
1252.267090 1960.629395 478.289551
1025.364990 1844.666992 211.957321
1205.334229 1866.683716 440.743195
1151.510010 1761.229858 290.986420
977.229004 1869.259033 237.408234
1196.335205 1762.769165 165.192764
1237.925781 1840.973633 306.410095
1212.409912 1783.654297 278.321228
1203.475586 1773.267578 225.415100
886.303040 1894.573364 393.235901
1096.172119 1798.538818 425.154663
1241.348389 1812.946167 245.537521
1118.960327 1784.726807 217.407104
1058.483521 1832.502319 300.734283
1103.845581 1848.873657 519.144287
1104.544434 1791.786743 173.400589
1103.091187 1800.420776 410.796173
1132.022583 1867.887451 479.799805
1213.571045 1768.897827 409.922821
924.288330 1889.510132 383.858765
841.216919 1940.484863 343.524139
1147.763184 1768.295898 239.448486
1097.459473 1862.423950 463.767334
836.038269 1941.779907 247.189026
1208.549561 1893.582031 547.123047
870.506287 2105.431396 284.067169
1104.952148 1853.493042 492.023010
896.575867 1933.746704 455.796631
1141.086426 1763.354614 369.692535
1213.622070 1799.420410 370.749268
997.295898 1859.142090 332.867249
902.667603 1901.083130 241.801498
1150.510742 1777.063965 431.431305
1302.033936 1954.338013 163.013382
1199.354004 1772.792236 222.404831
978.182617 1868.948608 213.211960
1145.350464 1769.268555 370.861725
852.984680 1930.174683 329.312195
990.741821 1853.296021 401.645447
1183.081909 1818.191895 435.882843
1084.157593 1783.171509 336.639740
969.036438 1877.845459 221.861267
1038.224365 1894.421021 445.345428
1218.145508 1778.334595 228.892883
1057.552856 1886.171143 441.751434
1091.640137 1793.687134 399.571930
933.916260 1891.007568 376.330078
1210.365356 1776.682983 430.252472
1063.591919 1823.351440 164.518860
1129.896606 1866.911377 517.359680
920.946167 1898.047729 368.917175
1243.417480 1828.308838 174.831406
1234.600708 1843.135254 242.936737
1078.979614 1830.883179 268.288300
1181.687012 1901.976196 468.369904
1136.267944 1835.680908 444.681274
1244.678589 1827.155518 442.827576
874.726685 1904.845215 366.239319
1146.746582 1786.187378 172.608658
1311.798218 1939.494385 432.726074
1142.872437 1779.788696 390.623840
1232.456055 1797.192017 280.285980
953.282654 1935.568848 460.525330
1012.429077 1865.632324 216.020996
1318.724365 1989.585205 192.568359
1154.946899 1758.031738 315.965302
912.585693 1978.100830 456.361633
933.399780 1894.500122 439.988129
1025.440063 1837.756714 430.595764
1027.588257 1849.409302 403.026978
1123.358765 1775.817139 284.924805
1293.046875 1931.551514 230.046936
927.486572 1902.616577 449.457764
1179.434692 1767.253540 179.770920
1269.244629 1913.742065 309.360565
1277.674316 1886.656372 215.311859
857.143799 1939.832275 437.406647
966.377563 1872.055786 384.832306
1195.300903 1744.718384 188.770584
1213.823120 1908.866943 451.516937
1229.095947 1918.321045 489.959961
1028.200073 1876.412720 446.712341
926.384216 1889.851318 313.787994
1228.538940 1809.582886 265.532928
1112.250122 1851.753296 551.870789
1228.874268 1778.300171 217.216461
1240.549316 1826.874878 442.664246
931.944214 1877.148682 401.474152
830.575684 1942.138550 216.662018
1330.512695 1973.023926 406.700439
1201.635864 1906.554565 447.258911
1296.079346 1942.876587 247.825714
1083.827637 1867.280396 467.527313
1127.866089 1777.501709 389.814331
962.700989 1980.663086 460.573090
1120.602417 1850.105347 453.513428
952.994324 1884.353271 319.197998
985.053162 1867.844849 248.993958
1200.362793 1898.988892 480.960968
1142.739868 1757.223145 321.263611
1133.511841 1786.314819 249.812683
1280.226196 1905.074829 203.944122
1130.057373 1888.823364 465.812134
911.109741 1894.025024 405.685699
1223.636841 1802.135010 184.872086
815.798096 2009.218628 390.799103
1295.734741 1972.756226 288.993500
1320.905396 1978.862183 275.695526
918.397034 2000.511475 470.802216
1276.510864 1900.462524 250.638428
950.608887 1881.426636 383.150208
1100.821411 1870.811401 486.047699
1240.698120 1822.191650 415.052826
986.095276 1855.073975 447.330444
1058.158569 1877.926392 447.096710
975.961487 1867.807983 204.197968
1108.447510 1779.143677 319.442535
964.272034 1865.289307 438.498291
929.830261 1892.961060 435.072876
1026.418213 1851.088501 248.731461
1230.068726 1841.280762 439.789368
922.094360 1886.259399 170.213181
1133.172974 1785.231812 413.281891
1269.658081 1896.798462 280.459351
1127.007202 1851.950073 442.202148
1226.004883 1820.897217 189.960556
831.768555 1923.282104 384.520233
1256.480103 1875.555176 341.454346
1244.873413 1831.538818 196.507431
1253.241699 1935.140625 456.371002
1294.840088 1883.603271 426.768311
1084.661377 1805.353760 203.818909
1114.349854 1778.895142 253.365921
1103.095581 1860.492920 491.213745
1174.841309 1768.555786 422.794067
1033.548706 1847.437256 298.459137
936.241394 1877.647217 427.345245
1272.616821 1865.953125 427.685699
1210.957275 1802.522339 394.409485
831.375244 1936.132324 402.199554
1051.047485 1833.263428 336.374695
1163.795044 1763.891846 303.878937
1247.111694 1863.545166 335.168518
1103.491089 1846.510742 461.514648
1017.969177 1826.330933 158.920349
1179.269897 1756.787842 378.768219
1003.064514 1848.951050 434.096130
1228.666260 1822.967285 312.125092
1118.392090 1777.241943 250.134872
1126.156494 1779.463623 395.018188
926.591492 1885.609619 184.136414
1340.428955 2020.578613 165.198959
1124.390381 1847.648193 510.140320
1242.030396 1800.697388 412.636108
1010.019104 1865.783936 346.184448
1185.340942 1753.437866 392.922028
1215.639771 1914.317749 479.531738
1083.380737 1809.561157 202.324020
1196.267212 1754.647827 316.491608
873.434204 1935.228149 480.207611
1114.808716 1851.377197 504.213013
960.354919 1870.088501 373.657623
937.802185 1885.340210 213.795441
1202.000732 1771.135132 248.338196
1002.957520 1845.268433 422.035767
1111.832642 1794.179321 390.113373
804.909119 1936.462036 251.078323
1198.758423 1912.716431 501.727478
1179.741821 1754.704224 382.935883
1167.118774 1775.325317 384.599976
1301.913452 1961.437866 249.391006
1226.372070 1913.026245 482.003174
1236.140869 1808.798950 292.789276
1017.746155 1833.310303 160.236511
913.717651 1896.370728 163.150909
1062.220703 1818.032471 228.832870
1155.177856 1893.273315 459.139740
1232.415527 1918.392578 527.105408
1125.421387 1915.944336 492.504333
1243.540039 1885.715210 434.411438
1170.578491 1755.750366 379.613373
1019.389404 1839.907593 413.429596
1209.924438 1799.315796 390.655151
1143.468506 1817.105469 440.696472
1154.854614 1757.858765 326.736694
1287.375977 1965.108032 373.401215
1055.635742 1825.307129 178.085938
896.390259 1897.140137 205.720154
1235.852051 1818.341431 232.220673
1041.121582 1835.795288 210.437897
1256.947876 1860.690186 246.579803
1282.730347 1908.005737 310.662567
1020.695251 1834.923950 215.980316
1237.177002 1825.452515 221.188660
1310.127808 1992.040894 304.708710
932.346802 1891.388672 309.341644
1093.539673 1848.619385 451.562927
909.599792 1895.954224 212.684982
920.954468 1903.828613 429.411224
1288.489746 1929.859985 180.305405
1271.090942 1910.658569 362.426422
943.679077 1878.921509 397.027832
909.577454 1871.392334 151.331253
1100.495972 1789.809937 297.613800
1083.836426 1810.023926 208.230164
1136.535156 1885.713379 550.684387
1137.574097 1856.676758 432.240112
1244.780762 1860.555420 350.566681
956.343994 1975.570313 457.708160
836.179504 2037.533569 454.604492
901.583984 1898.587402 348.044098
1188.777954 1755.620483 272.146088
1155.630737 1767.305908 199.958313
1000.017700 1853.087891 175.998428
1221.217651 1805.027466 404.588989
868.298279 1926.468628 448.362000
829.618164 1951.834473 425.998627
986.972351 1882.580322 229.871384
1324.939819 2012.031006 250.936050
1023.457336 1848.430176 224.524872
1001.957336 1847.289429 206.689056
886.711365 1949.478638 247.927368
1088.739868 1821.577515 158.205765
1001.028015 1857.485474 437.359039
1273.397705 1912.897095 340.840698
884.730286 1911.150269 307.263306
1037.119751 1841.933350 298.586212
891.302856 1912.741699 302.919403
1084.664673 1813.457642 166.464951
880.149841 1920.357422 447.377350
1138.179199 1872.713379 496.589325
1226.795532 1786.405396 166.058029
1116.042969 1837.033325 523.970154
1203.123169 1910.622925 510.616791
1123.504150 1847.308838 507.705170
1250.839722 1831.419678 236.809509
1214.448853 1747.998657 222.083618
1228.861694 1807.250244 422.318268
1208.985596 1752.818604 325.484711
914.434753 1910.772949 438.963989
1041.472046 1837.358276 375.403290
877.828735 1989.795166 475.260468
1236.593628 1856.451904 298.109985
1134.607544 1874.447998 517.116943
1265.803589 1879.197021 229.087402
871.740417 1953.913574 474.052429
1084.648926 1834.433838 429.391052
1120.328247 1842.700928 430.384796
1142.413574 1769.222290 321.726288
1235.456787 1840.852783 356.660248
934.889648 1883.725220 166.977158
1098.163208 1867.469971 474.864075
1184.134399 1913.024170 533.403992
1213.703369 1797.898315 171.257568
882.357361 1891.840454 152.671005
1127.761108 1880.140869 476.022705
966.435242 1881.959961 350.120605
1205.699829 1786.265259 365.734619
1245.412109 1850.751099 332.488647
1315.431641 1959.408813 216.383942
1181.224731 1762.239136 412.192871
904.476379 1943.153076 461.396515
1279.691162 1911.520630 230.592667
1180.653442 1774.485596 167.534988
969.456482 1868.263550 217.008743
1170.772827 1760.388062 347.093353
1286.803955 1922.289673 215.145691
1269.527222 1902.262573 337.958130
1101.655884 1794.644531 161.724686
1074.222656 1815.043823 411.182495
1176.747803 1764.484009 405.705200
1085.063232 1798.232422 298.540619
1316.601074 2001.992676 281.492523
859.073059 1915.455688 411.821289
1131.367432 1868.140503 562.757874
925.533752 1906.839111 297.235321
1247.234131 1848.511963 241.250015
1235.251465 1836.421997 352.592743
1308.213135 1938.815918 433.470581
1262.176758 1869.832642 325.311188
1042.671631 1864.859863 315.200256
975.185242 1875.279663 233.195923
1214.317993 1789.944214 351.129944
1118.633667 1786.157104 203.462372
1239.655640 1819.124512 217.566177
898.093628 1981.023438 471.406952
812.530762 1946.457031 269.104645
873.482605 1905.829956 154.574051
881.833801 1956.717041 456.864716
1316.838135 1983.011597 207.093018
1256.935669 1859.699097 438.510468
1102.971802 1832.912476 429.792816
811.581055 1934.517212 208.844681
1150.307007 1759.109497 334.782013
944.281677 1956.264160 451.523071
1006.114685 1853.863037 292.131989
959.575867 1891.438110 472.061188
1236.041992 1818.313965 228.031708
1131.788574 1926.865479 530.468628
1198.300415 1912.820435 505.479797
1213.962769 1735.874146 223.870926
956.667297 1881.545776 304.298065
1199.557373 1851.125122 437.850342
1027.010010 1856.585815 377.092712
1172.974854 1754.890137 273.545746
1092.598267 1854.576172 544.230408
899.843628 1893.339966 200.073471
1291.718628 1966.723755 205.729782
879.532471 1902.680908 200.500183
821.254028 1934.612427 359.695435
1295.555176 1877.495972 440.790314
1004.075073 1857.371948 205.000717
1137.683716 1880.898438 515.531067
1168.695679 1749.557373 267.897888
1024.901245 1844.008789 329.335114
1144.661621 1766.644287 306.410217
1278.108276 1900.459961 204.973709
1194.445190 1765.195679 387.426331
876.334595 1914.924805 278.635284
1086.550537 1810.425293 415.041626
1258.805664 1856.190308 406.720886
966.931519 1876.173584 234.677429
1206.624878 1913.281372 485.779785
1224.457031 1811.202637 276.467133
866.137695 1917.368530 233.520432
1176.227539 1763.474854 390.951416
1002.391724 1856.746826 349.015320
927.584717 1890.002686 295.743713
1133.423096 1848.409302 482.497131
1065.679688 1815.554199 190.550858
1300.514893 1947.456299 182.714554
1126.911255 1850.976929 506.481293
1128.487549 1850.414307 556.288086
887.708923 1913.768555 339.207672
851.881958 1943.439331 453.209106
857.963318 1970.587158 471.887909
845.173950 2007.167603 459.137726
868.193542 1920.539673 401.435455
1164.338013 1754.085938 374.371094
938.335144 1877.067749 242.394318
913.980530 1902.317749 297.307556
1321.828125 1939.763428 163.364761
1172.914185 1845.769775 436.563538
1134.504028 1771.760620 338.514191
1192.622314 1761.385132 366.296600
1289.881348 1937.083374 177.171860
801.980286 1946.444458 418.052368
1257.608398 1897.810059 365.359161
1097.534546 1878.911133 469.208435
1194.263550 1835.770508 437.118958
981.457947 1891.920532 447.876862
1325.449341 1967.826416 421.566315
842.253052 1935.391479 333.770966
1191.588745 1799.765503 437.551208
861.977539 1906.185913 409.227356
1276.806763 1880.315308 423.682190
1251.974365 1852.078369 249.831451
950.032288 1880.791016 393.500641
1233.900269 1914.072144 481.453827
842.606567 1921.515259 163.298279
1082.453125 1855.329102 545.464844
1251.059204 1862.431396 312.692444
1091.291992 1812.067993 183.458130
969.595459 1867.265869 169.929672
1028.899536 1845.305176 222.407227
904.719666 1900.937500 351.706512
1235.208984 1827.572021 377.217072
1119.634766 1836.235718 470.149384
981.626526 1866.434814 283.409882
906.988953 1892.333618 242.312927
1124.072144 1789.563477 261.480255
1131.989136 1777.261963 221.002167
1094.608765 1840.268677 448.797485
1001.109924 1864.786743 322.634094
978.534180 1990.005737 457.434814
1100.768799 1863.437988 470.340668
1287.486206 1917.275146 315.489136
1138.952148 1773.973511 376.430206
1112.666992 1777.027710 336.342072
951.203979 1879.274902 439.005524
1139.442993 1892.571045 482.003601
999.107361 1868.610962 239.306076
1088.550537 1804.223877 172.691940
1017.124634 1855.933105 264.839996
1313.784424 1983.357056 239.406021
1238.679077 1913.168579 461.132935
1045.710938 1837.483276 288.521149
1070.002808 1848.096191 242.425156
1116.761963 1764.110107 297.243439
1182.657593 1894.494629 454.733643
1065.648315 1824.314941 261.509460
1302.194702 1967.008545 305.893494
1322.800537 1947.225464 169.305954
993.297241 1861.857544 291.480621
979.663696 1877.455811 461.380890
1105.267212 1804.619751 427.718781
1189.956787 1747.706299 224.704117
1166.766113 1771.465332 381.123535
1241.881958 1850.968384 386.246338
972.893677 1852.055786 410.062714
1220.758789 1798.817139 254.649277
1214.883789 1788.366211 430.107391
877.481750 1912.671875 157.442047
1136.956787 1777.324463 365.957611
822.766968 1939.378662 366.950714
1056.068604 1833.216919 249.720840
911.687500 1895.798706 358.455566
1251.967896 1875.116089 440.093872
1142.375977 1775.948120 382.238464
1265.183105 1884.860107 394.686401
1293.318970 1955.437744 340.648682
1206.354126 1841.473877 437.873413
1166.001953 1780.489014 164.735733
1216.894043 1867.722534 438.411377
1095.073242 1818.414429 236.839722
1182.043823 1774.899292 401.238159
1217.126709 1773.470581 239.155121
972.313782 1885.829712 321.271088
934.589417 1881.018921 186.071747
1208.918823 1766.536377 405.602509
1167.389404 1771.963379 428.938354
1109.915527 1849.656250 434.305023
873.560364 1915.497559 437.918823
1109.487671 1790.845947 212.640335
1034.239380 1844.211548 325.556854
1016.798584 1943.026367 486.788849
991.439209 1860.441528 432.418060
1079.139771 1838.789917 265.282379
1277.429077 1894.973022 286.833557
1106.691772 1798.387451 198.390411
850.052551 1922.201172 434.687439
925.310913 1924.583984 439.298645
971.198120 1863.124268 419.473267
1248.881470 1830.006714 166.935928
1220.416382 1914.150269 457.487488
892.479065 1928.527954 438.755585
845.977661 2082.149902 402.128723
1184.731323 1764.056519 429.823425
1135.909668 1839.634399 456.506500
888.779663 1979.880127 486.944244
1141.540161 1839.224731 448.993347
1232.498413 1890.251343 497.821869
892.555664 1907.023315 291.258972
828.504578 1958.324097 225.032349
841.871582 1924.434204 413.857666
1063.431030 1848.399902 428.815887
1143.670410 1753.577148 318.361389
1129.992310 1864.732910 456.257019
947.557739 1883.024902 240.286255
1100.032227 1794.036133 271.662323
1222.357788 1791.421143 418.118500
833.714661 1934.480225 168.328033
1218.337280 1805.021484 380.041412
835.791687 2044.556396 291.977783
848.969971 1923.831909 185.351349
1325.074341 2000.631348 228.013168
930.921997 1893.083862 432.282990
1252.687744 1873.551758 386.952698
956.510681 1884.015747 380.169037
1211.211304 1783.658203 170.949677
1138.724121 1853.167236 534.493286
960.102417 1862.771973 427.734222
1193.127441 1767.174316 344.327942
877.199463 1920.146362 404.121124
1275.494263 1897.620728 194.105637
1095.832642 1792.921875 167.366928
1122.920532 1842.014893 484.373993
921.468323 1915.997681 252.672699
1265.346802 1863.796021 190.553452
1320.048096 1973.911499 233.935822
985.588501 1854.109009 413.313049
943.511658 1875.455200 163.675308
1279.937866 1884.662109 407.513489
936.267029 1882.195313 397.341492
893.106750 1906.109863 279.200409
1252.158936 1859.236572 268.372131
907.825684 1883.879272 158.168625
951.616760 1865.174438 426.974121
1145.410645 1856.350708 434.435822
1232.949829 1842.500366 257.218231
943.251892 1885.366577 243.050247
1082.182251 1870.105103 482.409607
1094.492432 1807.787231 376.683655
1115.777832 1788.715942 326.020691
1224.965820 1840.048584 356.845428
1142.726196 1849.058350 447.595459
1251.657227 1944.518433 455.232910
1195.715698 1776.464233 360.359772
1031.170898 1848.281006 241.174469
1129.471436 1788.111206 253.328049
1285.723999 1914.647217 318.432312
855.582825 1940.172119 482.105774
1028.741455 1889.390869 453.799011
1166.688232 1759.289673 247.441208
1089.623657 1818.364990 339.831512
1031.808350 1849.718262 375.168365
1162.684692 1762.226196 419.761475
1112.746338 1775.586792 220.179398
1174.339600 1755.478027 390.092377
1120.826538 1783.583008 410.356354
1018.410767 1835.719971 199.894028
1318.186157 1949.266724 408.800812
1116.465576 1906.339111 473.971802
896.460327 1931.930908 452.496582
847.169861 1960.057251 455.002441
1124.804565 1852.528809 439.951874
1189.458008 1754.655884 381.132233
1160.166870 1757.034058 335.857361
1137.410522 1869.142822 515.015503
1105.858643 1854.801392 551.166626
943.751221 1881.555298 345.274994
1015.336426 1833.845947 411.091339
1039.317993 1838.300537 383.251862
1024.173096 1847.476563 415.412170
1277.600952 1932.697021 429.454681
1103.673950 1786.494995 229.662781
963.191162 1914.304688 461.442047
847.456360 1924.014404 156.245438
1239.801758 1842.736084 341.615082
1217.520874 1805.300171 387.325012
1236.709595 1815.486328 235.424408
849.331604 1920.264160 264.386963
1001.278015 1849.602905 444.776764
1171.339111 1750.597412 342.549988
1023.168640 1873.513062 466.526184
888.040039 1950.902100 480.693420
1183.101196 1912.328857 442.824677
858.345947 1917.319214 331.266327
1032.710815 1825.489258 178.177902
808.136719 1939.859253 186.346024
1225.924561 1911.030640 449.928711
954.075134 1879.700928 348.021240
983.215637 1862.845215 299.991791
1302.826782 1960.653564 267.846405
1177.988647 1755.179199 377.503632
1133.787598 1842.805176 511.649078
808.049561 1942.016479 395.270721
998.852905 1858.331909 348.976685
1133.364502 1851.884155 562.510681
1101.724731 1855.603882 457.655884
892.706299 1912.090820 286.565857
1271.802979 1892.771240 355.654083
1120.684326 1783.481079 299.920563
1250.444580 1937.457886 450.908478
856.120544 1968.318481 478.818298
1161.054443 1758.179688 390.113159
1131.750000 1786.706543 183.106812
1240.065430 1846.503784 390.888855
1027.060181 1899.656494 462.449829
960.531189 1881.295166 444.656921
1213.479980 1769.437622 363.544983
1315.929199 1988.567139 238.045410
910.937988 1890.169800 440.601685
1228.536865 1826.544312 334.074188
1038.371460 1830.540649 410.103882
1085.410034 1789.849487 360.953186
1075.877197 1811.819946 327.162750
869.197693 1929.142212 432.570892
1100.495972 1797.177490 408.011658
1046.777344 1839.883545 428.990906
1305.565674 1969.028564 274.302155
1083.247070 1809.906494 382.880402
913.962280 1901.176147 216.935638
1296.541992 1964.281372 198.336121
1224.706665 1815.465576 309.878662
1188.853271 1907.477173 456.837128
1222.634033 1808.655640 387.556976
1054.156738 1960.628540 468.153473
810.903503 1961.793945 381.935455
985.888489 1861.104980 395.043243
1038.521729 1925.633911 465.341156
1137.179077 1853.661133 437.877625
1254.112549 1868.909790 276.231262
1114.872314 1781.981934 257.717316
1137.854858 1785.653564 406.791443
1173.939209 1746.767700 300.300385
1269.307495 1865.690063 407.765381
925.854553 1888.144897 314.170380
987.856079 1859.403076 449.389374
1025.354492 1908.091431 447.530304
1078.289429 1829.911499 273.441467
1249.856201 1913.366211 468.497711
1231.879517 1817.308472 440.299713
947.963501 1886.189697 287.852386
1219.010376 1805.100952 385.989655
1234.934204 1811.995972 236.016022
1253.743286 1869.795044 392.176117
975.792236 1938.789673 469.708313
1293.450317 1924.171387 267.493286
1288.351563 1946.718018 376.813263
1199.452881 1778.838989 339.461792
973.786011 1876.037476 246.222916
1309.753174 1956.644653 273.269501
983.039001 1854.159790 410.212097
919.049805 1891.373169 423.748535
1239.397827 1819.238770 419.878845
1144.953735 1842.208618 464.676392
875.583496 1972.866699 481.226898
982.910706 1873.827393 353.399719
819.581482 1923.110840 393.798004
1098.742798 1833.804199 291.946289
858.280823 2073.326904 227.109940
935.294250 1874.802856 154.046326
995.144836 1851.133057 206.357925
966.235779 1864.454468 203.525452
1089.834961 1807.835327 218.974686
1082.029663 1800.118530 319.422058
936.941833 1890.623169 224.449539
1303.192871 1945.722778 397.368988
843.598633 1935.621338 253.996262
1256.991943 1838.943237 179.231064
948.463013 1885.384521 312.686096
1290.279175 1936.293091 244.074585
1288.628174 1939.378174 392.523956
817.406799 2005.985352 312.658051
1219.740723 1811.236572 347.038544
882.394653 2125.993652 265.795990
1081.313721 1803.457397 410.348297
841.399902 1929.866821 448.024689
1009.141479 1840.728638 418.011536
1198.352051 1778.332764 330.665436
1250.641602 1946.462280 472.645599
976.262512 1871.928101 366.496155
1230.056396 1821.812256 259.940460
1178.958130 1768.206543 437.506042
893.686768 1897.967529 399.878387
824.258484 1928.374023 393.128082
1072.218750 1913.701294 460.977692
1251.572388 1866.784302 313.712006
1215.459351 1796.155640 392.126617
963.619263 1927.598511 453.705994
1241.581055 1829.807861 258.160065
1073.235840 1808.881104 419.223816
1178.502319 1769.353882 350.389008
1272.915039 1908.544556 292.398987
1259.882080 1863.457642 309.689026
1210.732422 1771.517700 311.987732
1275.840088 1894.215942 307.528473
1206.275391 1894.924805 470.042419
877.793091 1909.686035 368.002655
1287.496094 1913.231567 272.672180
1244.012207 1922.157715 509.546967
1320.726563 1995.339966 255.223953
1123.252319 1777.727661 366.953308
1258.822876 1909.355225 434.378845
852.733276 1922.978149 431.141998
1106.506226 1793.713989 200.069153
1123.856934 1783.654419 351.415253
1059.423584 1811.665161 160.192612
1103.198120 1833.223877 427.689117
1169.168579 1757.952271 211.264526
1296.657593 1943.689087 183.780045
1106.546875 1804.075317 175.378632
911.804993 1890.255493 419.554657
1129.759766 1765.987671 284.499451
889.034302 1912.257202 248.877594
1120.098511 1864.413818 481.528839
1001.195129 1852.344604 397.861206
1257.938843 1851.189697 240.604233
1247.207520 1927.192993 440.502045
868.833618 1961.410400 249.840103
1098.396606 1864.588867 452.264069
1110.293823 1794.499023 400.503387
1055.223633 1834.396484 363.842957
1268.093140 1892.094116 162.883377
1250.539307 1882.885498 393.991089
1015.838562 1852.910645 295.617157
1157.000366 1753.914673 330.930664
904.556335 1906.546875 318.189880
1109.948242 1803.278687 427.439575
1139.052979 1792.023682 428.037109
1113.757202 1777.498291 347.611664
1085.801392 1831.564453 255.857651
1208.534790 1780.042114 297.085236
840.239746 1934.858032 450.579498
849.278931 1932.066895 333.386963
969.267517 1884.524658 243.434570
1010.656006 1838.929932 205.198547
856.897705 1921.553955 448.762054
1215.558838 1730.888672 252.235489
1271.770752 1905.008789 282.024689
1050.600708 1841.000854 429.196442
1240.339600 1916.082764 490.435791
1163.610718 1897.706055 440.599915
827.301880 1926.217041 380.583710
1214.031128 1797.929199 422.980713
992.368347 1862.383789 300.352753
892.511597 1871.804932 168.168152
1076.277588 1865.329102 576.186279
887.573608 1907.068359 427.866852
1229.285522 1904.431152 462.017792
886.995422 1910.098877 186.861710
1137.199219 1836.596680 454.247284
1174.420044 1781.593384 421.799042
1313.371216 1982.229736 202.966431
952.024780 1884.688843 246.519119
1145.724976 1843.533691 454.283356
979.730103 1869.254028 456.755493
1316.958374 1986.650391 210.399841
1201.835449 1900.096558 499.378082
870.813599 1921.022583 298.874847
1237.531006 1830.457642 168.026764
849.334106 2088.191650 437.309540
1027.201904 1850.006348 288.153839
1261.593994 1834.310181 166.787140
986.098511 1877.034546 316.825134
1095.300537 1811.200806 244.057877
1192.200806 1791.690552 441.529938
897.834778 1925.463745 441.941559
1099.275146 1799.260986 388.124847
1029.759155 1882.006348 460.184723
1137.645020 1790.902222 424.439606
918.609680 1896.914917 153.355331
1164.053345 1767.044800 195.274796
1134.586060 1771.165894 378.777832
1024.484375 1836.194214 187.649536
1193.500488 1778.550903 414.353302
1074.542236 1840.871826 441.070740
1154.203735 1763.172607 292.400726
1177.378906 1873.389648 443.252838
1223.104004 1809.909302 285.956543
1120.421021 1854.162720 514.055054
1235.480591 1842.099487 347.947021
1069.488403 1820.529907 365.152771
1077.516357 1812.808350 431.940186
1207.839600 1735.936646 238.743683
1082.547119 1826.750366 209.524002
927.847107 1883.556763 157.230255
1246.329224 1853.416748 254.943207
1284.500122 1924.350464 284.220459
1119.123047 1862.814087 562.002991
1303.602051 1982.149780 202.226746
1128.523193 1845.166870 545.733765
938.868896 1930.448242 449.615448
1330.781616 1987.677856 224.559845
1284.459839 1930.088257 321.508148
958.897095 1869.156128 252.796112
855.314087 1924.440674 151.093292
926.231628 1890.118530 170.713852
1290.536377 1886.800171 163.703598
937.551147 1888.856201 226.075546
1076.369019 1815.479858 397.166565
1248.390747 1859.381592 358.011902
861.769836 1909.914185 220.920227
1097.928345 1790.226440 372.894409
976.359924 1867.091797 323.600311
1148.591675 1770.536987 421.496613
1295.239624 1913.616089 420.540771
1051.399048 1805.522827 162.706100
1183.816284 1775.349487 181.930450
1077.796509 1841.933350 259.082245
946.498047 1896.344238 219.333267
863.072571 1925.066528 332.782593
1175.942505 1763.642578 388.820953
1045.124390 1830.301025 192.899323
1209.687500 1757.105103 203.187271
1013.562866 1859.177368 460.455353
974.677612 1851.423340 164.976135
1269.836426 1900.654541 391.948975
1130.968140 1782.108521 348.259674
1110.936157 1792.343506 372.004791
1095.717896 1814.308716 435.093689
1271.988647 1879.441040 428.292938
1287.295654 1894.356812 423.548431
1204.267212 1802.466309 367.711639
915.543152 1866.842163 169.456009
1196.770386 1756.183960 183.648682
897.734558 1903.839844 351.703400
1149.585938 1763.778564 374.196594
1097.649536 1799.829468 243.534836
989.003723 1866.121826 278.513855
1208.688110 1899.893311 530.140320
1216.032593 1810.994141 367.283447
1246.019653 1844.857544 231.993881
1185.250732 1766.831787 337.807312
943.772583 1874.135620 422.412598
1067.729980 1834.402588 328.294128
1187.843140 1764.957397 315.376556
1004.445862 1850.953003 435.415344
845.238403 1919.502686 385.271271
1225.509888 1786.678467 324.130920
815.411499 1939.715942 346.233032
1197.766479 1908.246216 441.586395
1143.668335 1891.144775 526.053162
1008.075073 1857.630859 411.507202
1261.570679 1857.160278 272.643921
1278.728638 1907.002563 243.079605
1234.561035 1838.754639 336.962799
1273.294556 1893.089111 339.916901
896.990967 1943.515869 197.599945
995.405457 1852.849243 441.001434
1157.024414 1758.205811 343.685120
1253.800903 1853.027954 239.826645
1132.638062 1773.185181 242.098633
1252.542603 1941.802124 473.072235
1105.449341 1863.108887 492.977509
1303.610840 1978.757813 366.996857
1269.720703 1899.433838 309.970978
1271.405029 1902.430908 258.089294
1077.621460 1814.061646 428.848846
1062.265015 1824.860596 225.683365
1229.404663 1913.324341 498.335052
1089.194946 1815.222412 256.753693
1153.252319 1761.601074 253.092941
878.168823 1981.641235 497.494049
1213.835693 1898.168945 449.869415
1141.516235 1785.749878 164.529678
1196.471191 1745.859497 256.285034
1261.031494 1892.019287 348.680054
1004.470459 1843.320313 429.855438
1207.415771 1805.635864 350.193878
1107.032227 1790.303711 403.798279
1135.825195 1853.992432 572.079224
855.417175 1998.951904 466.704559
1105.391602 1843.150391 437.677734
1048.175903 1847.652344 361.721436
960.076782 1881.274658 256.316162
1146.264771 1761.686035 358.769897
1185.656494 1742.789307 288.005951
1240.316040 1825.533691 404.827942
1338.509888 1994.460571 166.598969
911.344910 1893.916138 154.421188
1349.412476 2012.573120 159.204926
1145.458252 1854.293457 433.705627
1290.796631 1941.636597 304.127808
1162.828857 1756.266968 384.058838
1182.180298 1837.284546 448.063721
1143.567749 1774.299561 385.672943
984.895569 1873.954712 315.778564
1214.488525 1781.092651 256.199005
1060.428467 1835.330078 384.864594
872.388916 1904.028564 173.897430
1210.022339 1760.139648 317.185120
836.034058 1930.817871 416.324829
1307.703979 1975.152466 269.271240
1087.567993 1806.177856 384.624939
1166.343872 1775.988647 388.097626
1015.198547 1846.874756 448.785828
824.069641 1954.085327 447.070618
1130.022461 1853.919067 494.372711
1308.646973 1984.769043 318.092682
974.342529 1863.619263 213.711044
965.837646 1888.749756 455.172638
795.301208 1939.888062 384.027527
1239.833374 1851.446899 351.024414
826.523010 1947.176514 412.878082
1099.749512 1846.351685 454.482147
1195.758057 1768.203125 315.994537
907.527161 1854.717896 169.663879
1225.203735 1828.219971 363.609619
1201.942139 1748.767212 343.704681
1036.851563 1857.719360 263.071045
1192.722900 1745.951660 238.117706
1244.273682 1830.473633 219.523010
1189.415161 1777.969360 369.267426
1214.504395 1750.086426 177.209839
1098.815063 1797.199341 199.895447
1014.222595 1862.517944 305.052002
832.188843 1934.156494 440.520264
1314.424316 1965.322998 273.715424
1171.560303 1759.697266 252.321167
1266.452026 1879.707397 336.630676
864.099182 1924.009888 360.076630
887.411133 1899.631226 149.792313
1290.959351 1951.276245 372.125305
1064.875977 1829.254395 421.819122
1324.151855 2006.987793 183.010666
893.327454 1898.125122 403.610840
1246.528687 1834.660889 213.985306
1191.466431 1741.236938 321.541718
1208.630615 1784.533936 340.518311
1018.491638 1845.386475 179.243179
1119.845459 1859.047119 526.851990
1267.944458 1882.633789 224.471237
860.325134 1932.168457 331.295074
907.309448 1904.312012 426.368713
1151.777466 1784.514038 410.962891
1131.424927 1787.668335 189.775696
1327.755737 2008.706055 174.100311
1055.874512 1854.660278 438.271393
1141.271973 1779.668823 325.583557
1159.668579 1759.186768 262.196747
833.881592 1935.512573 252.255814
864.342834 1918.048096 212.595200
960.682007 1868.153320 412.798859
1204.014282 1776.432495 205.533279
1261.286621 1888.745605 317.950378
969.034912 1871.328247 401.218933
1114.127930 1868.056763 524.716492
1219.198608 1784.204712 269.187622
1341.395020 1978.363281 160.549728
875.516663 1914.217651 388.078186
1172.077637 1753.694214 364.459503
1211.570557 1771.589600 263.189880
1175.847168 1885.649780 450.745087
994.917114 1878.438721 222.779312
1239.713623 1886.288696 453.365356
1225.351929 1792.556152 229.526245
1170.066650 1768.171875 401.892273
1301.309692 1935.293945 400.535400
1130.134644 1774.233765 407.066010
1035.559937 1850.487793 443.098816
843.547791 1934.645874 390.835144
1110.125366 1863.973999 487.133209
