ply
format ascii 1.0
element vertex 1359
property float x
property float y
property float z
end_header
1470.683350 910.831909 1270.466919
1659.906372 688.910828 1205.154175
1525.228760 1053.143799 1541.891846
1525.919800 1061.107300 1379.564331
1387.686523 740.165344 1415.684082
1573.330566 808.276123 1223.268066
1531.071045 847.664490 1242.998291
1553.593018 814.377808 1220.863525
1438.372314 1009.360352 1480.490967
1514.081299 664.600037 1323.636597
1507.333252 1048.378784 1484.134277
1536.391113 751.964600 1280.300903
1617.493896 599.608215 1423.323242
1582.134033 1095.671265 1293.292847
1556.266602 990.350891 1334.108887
1717.057251 678.695496 1278.687744
1441.787476 972.694458 1264.988037
1524.799194 746.801758 1295.643555
1575.046997 784.991577 1244.976318
1650.804810 660.180908 1228.380737
1457.412598 1013.627563 1628.133301
1512.239868 770.482178 1307.143677
1480.320923 771.770020 1326.871216
1505.968384 1045.033569 1510.934937
1551.671631 730.799866 1271.892090
1390.204102 992.097717 1344.056763
1470.753540 905.608276 1265.044678
1475.790771 736.542969 1344.349731
1568.111450 748.857788 1244.026245
1324.974731 912.408264 1384.996216
1487.460327 916.114563 1260.264038
1434.554565 736.662537 1363.275146
1449.606567 638.585815 1380.714844
1642.025757 678.580933 1209.292847
1388.104614 759.957642 1400.793091
1410.800659 749.178528 1396.547363
1458.483521 805.072632 1329.614014
1600.487549 824.588562 1221.029541
1364.888428 983.018250 1398.169189
1665.239136 671.553833 1214.066895
1323.121216 900.838379 1388.968384
1465.899170 590.921082 1390.403564
1546.668945 699.169861 1283.011597
1600.416748 1026.563965 1225.308228
1373.978027 829.167236 1407.857788
1489.722778 647.116455 1357.083374
1414.758545 1008.236633 1339.327148
1446.311890 1031.315674 1358.220581
1359.031372 969.092896 1466.532471
1393.188843 892.367371 1331.393066
1394.953979 979.224182 1506.239258
1396.570557 793.661438 1401.219238
1446.245972 951.652832 1267.674072
1487.686279 1051.500122 1335.739502
1468.509888 761.356201 1337.313965
1577.869263 1088.768066 1290.915161
1561.345703 776.442932 1239.163940
1527.529297 687.688904 1310.768311
1494.671509 1078.977051 1374.488281
1455.743896 1035.050537 1365.656250
1418.687134 1011.593628 1363.261353
1360.084351 967.733276 1438.638672
1704.933105 665.082031 1299.077026
1495.861084 1076.313232 1372.287476
1478.443970 979.595154 1279.672852
1517.702515 789.280090 1280.244507
1585.706665 714.462219 1244.181152
1581.317505 1009.649292 1225.212402
1517.838135 1049.775757 1526.279419
1325.410522 984.007141 1353.717163
1389.858765 978.448486 1574.190308
1407.547241 685.929626 1419.373535
1612.104980 708.451965 1221.221191
1445.223511 673.724487 1375.410278
1536.892822 746.355225 1286.446777
1581.578003 634.573486 1332.331421
1491.624023 1012.914612 1310.819580
1453.222778 631.689575 1382.276733
1596.410645 1003.319397 1188.982666
1552.082153 778.140015 1244.681519
1445.341919 1015.269531 1466.376343
1403.698975 886.247742 1332.339478
1399.460327 971.315369 1308.701660
1567.386230 739.404968 1242.732910
1397.270386 861.754639 1351.032715
1528.047241 882.517456 1248.032715
1423.707397 782.501221 1373.425049
1587.593994 1006.094055 1200.102295
1387.253174 759.666992 1396.056030
1537.193604 841.309082 1227.307861
1537.227295 1061.886719 1499.581055
1509.592529 1085.095459 1392.193970
1539.340942 895.101685 1235.646240
1390.554199 1015.978027 1337.609009
1343.823364 928.214417 1361.424683
1436.970703 1029.355469 1292.006348
1532.545410 973.011536 1296.223999
1477.876343 1027.512573 1293.103149
1449.283936 787.960938 1363.146973
1400.434448 746.670654 1388.978516
1292.780151 931.063232 1416.160767
1393.764771 836.374329 1375.524292
1689.603394 796.420166 1269.211670
1628.435059 746.281006 1212.941772
1527.281372 766.170166 1295.394653
1444.372681 979.961365 1268.572754
1476.098511 777.973633 1326.390015
1432.956787 612.815125 1398.524414
1261.102173 924.408325 1434.281372
1504.536011 726.502563 1323.641846
1579.871826 734.918518 1267.426270
1432.943237 762.074951 1359.042358
1490.192505 557.172974 1376.840332
1370.631470 910.415039 1344.089233
1525.456909 859.593201 1239.490723
1528.094604 582.474060 1346.968506
1460.692017 902.128235 1295.078003
1668.281860 641.319885 1331.897095
1590.148071 1030.233765 1192.483643
1385.839966 993.054565 1319.061768
1581.352417 974.479919 1211.278198
1472.923462 1032.277832 1485.410889
1491.481567 1044.533813 1456.985962
1306.696411 866.714539 1432.034546
1397.072021 994.316589 1322.175293
1582.224854 648.128967 1269.908081
1423.219482 840.370300 1408.122681
1436.977295 1020.110535 1287.595703
1561.993530 1043.250244 1341.290527
1410.516724 824.672974 1382.807495
1652.317993 648.925537 1239.795044
1448.454102 1025.932251 1286.891113
1564.905640 1056.447754 1330.033325
1501.815186 1062.062744 1451.491577
1563.447998 783.678406 1219.592163
1672.863281 734.919434 1207.720093
1460.414063 906.214539 1279.275513
1418.442871 997.995667 1477.318604
1726.287720 700.421753 1259.977295
1493.060913 1060.492920 1343.111450
1538.323242 823.901672 1237.110962
1611.030029 735.166016 1235.948853
1563.326660 1093.814453 1441.527466
1436.163330 829.470642 1344.443604
1599.561401 657.230042 1239.550171
1522.150879 788.754456 1275.269043
1437.871826 943.034424 1280.094360
1321.398682 949.504639 1413.380615
1608.816406 697.618347 1222.649170
1346.707031 951.141296 1434.733032
1570.696411 1002.103088 1231.097412
1342.401733 964.031738 1455.172485
1595.774780 1004.495178 1194.047485
1530.030518 580.859863 1351.578491
1470.546143 1033.109985 1464.909058
1438.660522 1026.610596 1433.959595
1349.572266 967.650513 1358.504517
1476.508545 1049.760498 1425.546875
1468.064697 654.147766 1371.440430
1287.595703 918.790222 1421.733765
1576.592041 687.698181 1285.937256
1460.619019 664.419861 1371.399780
1528.845337 832.134949 1244.814575
1347.193481 820.675659 1418.443726
1395.004150 937.583740 1328.324341
1496.928101 924.596497 1255.861694
1313.077637 938.426453 1390.598633
1358.633789 826.809998 1400.666626
1617.613647 806.832092 1239.478027
1574.551270 728.857788 1256.161133
1409.541992 993.070801 1478.517578
1584.307617 1087.539551 1311.692017
1530.847534 881.408630 1242.382202
1346.523560 950.558899 1352.679443
1333.584229 957.797913 1352.588623
1433.059692 717.406189 1378.771606
1393.792847 796.780396 1379.017578
1423.397583 948.521362 1291.591187
1445.608276 641.454346 1385.313477
1458.641968 1041.865967 1392.252563
1382.986816 767.020752 1402.569214
1451.588257 775.218445 1355.933960
1563.716675 807.130127 1220.854004
1453.632446 1041.210693 1359.115845
1404.784668 1001.707947 1422.720093
1428.116943 824.792969 1350.038574
1576.302002 1077.697998 1315.216553
1513.772339 1087.113403 1422.805176
1524.025146 990.193909 1258.183960
1523.764282 1081.755249 1443.256348
1315.683960 922.153442 1402.192749
1533.577759 1099.312988 1404.009033
1399.821045 718.692200 1406.881226
1267.833496 962.035583 1415.298828
1325.190796 856.815308 1423.324585
1465.008789 1030.250000 1448.277588
1469.050171 1021.876831 1480.674438
1549.897827 990.204834 1310.950195
1419.516479 1031.881226 1342.986938
1489.713623 937.872742 1257.082397
1536.061279 769.525146 1275.058472
1548.841309 1013.882385 1345.262817
1549.261353 812.366211 1238.014526
1474.177979 928.988647 1258.912354
1611.753906 756.724731 1231.997192
1497.445679 698.870544 1340.664063
1625.140259 847.436218 1275.797607
1544.150024 736.745911 1273.663086
1480.507813 1033.150024 1592.858521
1420.360474 915.364380 1292.375000
1588.098267 786.589172 1243.013916
1378.540771 990.941895 1431.071411
1301.437988 930.526489 1399.822876
1588.274658 1005.546753 1194.287842
1578.503784 1082.980591 1374.014282
1361.956421 791.396301 1417.446045
1645.517700 613.407532 1445.937744
1540.302856 780.610352 1268.354126
1496.372070 594.271973 1363.390991
1390.332764 990.149719 1329.871826
1498.368164 1082.755005 1372.202881
1462.526123 914.764038 1274.456543
1394.972046 951.510193 1320.390381
1435.213989 974.929565 1273.187256
1478.605835 1052.016846 1411.597534
1340.028564 896.209961 1401.207031
1442.108032 1021.403137 1431.979492
1488.334717 677.992737 1365.494019
1461.933716 821.775879 1325.144165
1523.805298 837.244324 1250.439819
1357.150513 969.406738 1446.222290
1587.992065 1006.562134 1199.007202
1445.343506 957.779785 1269.787842
1440.788818 960.013245 1275.673584
1490.803833 1074.359497 1349.975586
1571.956299 940.843201 1258.183105
1532.550171 609.756897 1350.187256
1472.460938 838.892517 1314.160034
1502.619385 1050.923584 1471.049072
1384.973633 986.193481 1408.599121
1471.205078 1023.405518 1602.860352
1546.836304 1023.176208 1337.108643
1640.710571 568.388794 1287.317505
1581.947510 608.528503 1287.216309
1552.173218 733.167236 1267.126221
1528.399536 1069.958130 1463.362061
1534.462646 729.214478 1292.375977
1477.128174 659.565369 1352.748169
1521.212646 955.070496 1276.872314
1380.739624 724.719177 1421.733887
1365.920776 976.517090 1455.136475
1562.928711 947.444580 1242.768066
1416.997070 970.652710 1275.942383
1486.227295 1051.759521 1465.974243
1289.174805 917.709229 1459.524170
1383.930664 952.726501 1567.069946
1525.484131 888.861145 1244.142090
1586.442505 1013.626282 1265.592407
1403.721558 882.010193 1313.404785
1598.665894 1032.697388 1200.470337
1586.425049 997.005371 1201.661499
1411.360107 1003.395996 1493.253906
1575.145386 1007.351685 1229.232422
1473.985229 1043.388794 1408.089355
1591.456909 1017.466431 1202.743042
1592.144775 778.973877 1232.755737
1505.238159 1123.532471 1408.575928
1569.395630 728.715637 1277.441895
1513.057617 1055.014526 1461.808594
1551.282471 949.399170 1248.255737
1512.473511 595.516724 1363.304565
1549.991577 692.519592 1282.136841
1651.089722 707.400513 1210.716797
1527.980957 834.500488 1263.931519
1410.254395 996.707031 1281.752319
1369.300415 979.605713 1321.938232
1477.726807 675.578979 1360.340942
1442.809448 928.921692 1277.718140
1616.330566 1010.305115 1238.249756
1404.493164 1010.153381 1357.088501
1339.519043 866.111633 1393.337402
1334.246338 902.872314 1373.551270
1405.820679 1001.897278 1327.604370
1557.102417 1075.704346 1363.714111
1388.501343 987.002014 1300.097656
1385.402588 964.493347 1317.087891
1571.085693 1066.878296 1347.359863
1745.206299 673.058289 1451.002563
1599.517944 1063.539429 1274.825073
1324.132935 943.246338 1369.227417
1570.514038 734.268738 1256.995850
1627.011963 731.775024 1210.932129
1445.506348 1035.629883 1375.940552
1665.893799 765.045593 1221.374146
1354.213013 952.650818 1335.647705
1428.118774 749.927551 1381.206055
1494.385376 1043.930420 1566.476440
1469.525269 711.840515 1364.158813
1574.935303 1000.726013 1201.727905
1317.771118 894.155762 1412.086426
1508.882690 648.188049 1392.355469
1424.114868 1024.952637 1328.045288
1325.833740 966.614807 1382.637695
1539.009644 1072.692505 1465.541748
1455.781738 932.279785 1274.513062
1363.841064 996.897217 1359.669922
1374.530396 868.978577 1347.380493
1507.413574 916.963684 1267.329712
1438.872192 1015.244324 1446.118164
1455.645020 703.980286 1365.831299
1590.716797 700.173889 1233.577881
1543.052124 632.242249 1321.528320
1592.782349 749.991821 1230.725098
1493.337036 599.821716 1361.807373
1454.028320 828.598328 1334.548584
1386.268921 935.287415 1335.104736
1451.878418 1060.791016 1319.716064
1480.232788 644.150085 1370.365112
1291.642700 888.337891 1439.229126
1602.638428 1028.871338 1246.183472
1661.071411 724.921448 1222.785034
1449.747803 952.848450 1274.883423
1552.215332 769.125427 1246.114258
1321.259033 860.167480 1414.177002
1624.476074 703.887268 1212.166504
1537.247070 758.914856 1272.318481
1310.675903 978.133911 1369.161133
1558.281860 652.657654 1302.299194
1429.546875 1021.732971 1293.333252
1603.333130 859.802429 1240.435059
1584.433472 836.943726 1224.928101
1438.446167 652.383972 1389.023315
1443.941528 1005.036804 1277.286011
1546.885010 999.352234 1239.971436
1417.106201 699.661133 1388.898682
1400.869873 858.244812 1352.619629
1288.003052 922.692322 1425.315796
1442.243530 1036.829102 1292.289673
1523.576904 819.265198 1270.815674
1540.509644 808.857727 1246.409546
1451.085083 1004.747009 1591.032959
1552.627808 892.693726 1231.277466
1420.332397 966.380737 1280.999390
1706.122192 757.193909 1215.294189
1469.277954 714.296997 1354.972900
1525.297363 1041.408203 1535.297852
1427.641113 1013.305298 1269.407593
1300.872925 942.895752 1505.701782
1419.162109 995.734131 1272.676392
1550.764526 980.600098 1301.240479
1513.461548 734.852661 1310.194946
1475.594116 892.855286 1318.867310
1472.843384 625.830383 1367.608765
1467.132813 715.972717 1346.484985
1483.717773 574.407410 1376.607788
1491.273071 773.528931 1316.589722
1444.022705 845.506348 1343.446533
1267.745850 929.162537 1440.765259
1477.030151 909.312561 1267.089722
1466.790039 1015.803589 1562.238647
1419.551880 995.502869 1526.295776
1547.433472 976.957947 1235.035645
1508.478271 586.790405 1359.117310
1426.036499 1003.729980 1504.760498
1405.296753 933.581665 1303.058594
1448.735718 822.472534 1337.218994
1508.248413 967.565186 1270.365845
1542.351929 878.231079 1229.177612
1435.655884 1032.494141 1337.851196
1381.497314 979.159668 1491.924805
1493.074097 783.289001 1314.778931
1522.869385 985.762146 1257.468018
1471.868774 1054.846802 1326.950317
1472.650879 894.317444 1297.812866
1447.450195 1055.556519 1331.015991
1594.119629 1077.817017 1303.697388
1403.831299 908.709900 1311.264404
1596.452515 1088.558350 1364.929932
1288.876587 936.242615 1443.348633
1682.904663 800.566895 1276.824219
1310.780029 946.834167 1383.497437
1458.424561 959.572327 1266.669189
1460.208740 1048.096680 1361.688965
1492.913574 751.284485 1321.256836
1561.979736 751.500183 1257.148804
1507.974365 981.740295 1307.903076
1439.959595 915.247070 1290.960571
1527.193726 880.557068 1243.853271
1434.017212 1016.565247 1401.291016
1298.793823 907.639587 1415.884277
1388.901001 747.916748 1401.270142
1469.798218 1033.630493 1436.250977
1543.311646 1006.857483 1242.207153
1484.143066 706.708862 1370.005127
1595.557251 1049.666138 1293.150757
1387.925171 987.379578 1511.719116
1596.816284 652.063904 1257.540161
1361.949219 855.328247 1383.688721
1504.399292 694.025024 1336.615234
1348.723511 811.624878 1409.205933
1329.603516 950.899353 1469.418457
1451.134277 968.816833 1262.579468
1609.092407 815.000061 1244.410034
1376.537720 971.728027 1524.532227
1590.320313 996.735901 1206.039673
1502.765015 1036.720703 1337.736084
1433.501465 767.276855 1386.604858
1546.024414 991.333008 1253.873901
1607.948730 637.649292 1263.557861
1572.044922 673.406738 1277.588989
1388.319580 975.913391 1299.160767
1333.646118 954.497925 1434.906982
1494.844849 881.566406 1259.978394
1533.995117 859.363770 1236.991943
1688.755615 775.712769 1237.106323
1396.734863 845.473206 1391.618530
1566.732056 968.019226 1255.281128
1432.412231 662.462585 1400.014404
1461.358398 663.899902 1373.216187
1498.717773 850.057739 1300.360352
1457.137695 989.737732 1263.286133
1638.285034 728.512512 1208.007568
1482.161743 887.744812 1295.341064
1434.477661 998.885071 1550.583008
1552.998413 1067.568726 1496.687988
1589.533813 623.252991 1289.225586
1588.040771 768.599060 1225.455078
1424.447266 1013.990234 1346.556641
1654.672485 738.829529 1197.327881
1550.691040 977.253296 1251.518188
1448.990845 931.060425 1273.863525
1489.639526 1010.074402 1300.341064
1444.491943 771.269653 1355.776978
1453.831543 1017.788635 1589.408569
1390.665527 984.656006 1478.941772
1411.134277 984.909729 1469.470459
1619.974243 747.948303 1229.669922
1380.435303 961.430603 1328.959106
1348.464111 810.471252 1420.553955
1420.040161 969.178589 1279.714600
1672.384521 715.067627 1222.816406
1500.299927 614.920349 1369.712524
1509.653564 1061.609497 1483.438354
1627.554810 847.101135 1267.129761
1409.301758 979.842163 1294.936157
1712.049683 697.342041 1252.891113
1395.398438 875.733887 1332.029419
1379.093018 947.997131 1317.189819
1544.859497 814.482178 1233.520996
1545.664429 791.298523 1251.388184
1440.215820 1030.736450 1332.754761
1381.463379 970.985779 1543.111084
1486.950317 1032.136108 1441.065918
1433.855225 866.651123 1333.412231
1561.727173 775.343323 1237.913208
1453.033691 893.259583 1315.625488
1413.238647 1001.037231 1436.938110
1418.896851 1016.522461 1304.422241
1320.104126 953.371033 1380.325928
1519.661011 893.761475 1255.755859
1375.428955 859.047546 1370.108154
1586.001831 697.159180 1231.266602
1461.004639 1038.994019 1445.416992
1478.997192 883.750977 1281.393677
1307.824707 893.537842 1412.901733
1524.370361 657.763184 1316.886230
1487.635010 897.965149 1263.000244
1502.236328 1052.643677 1346.105103
1549.758057 1080.797729 1488.721436
1422.921021 1020.495422 1420.601318
1510.451660 900.125244 1247.271484
1509.819580 859.830261 1253.728394
1428.245728 880.445801 1300.357666
1347.499878 896.759949 1390.829834
1473.393433 1029.097290 1308.086670
1501.093506 676.220398 1341.416748
1413.842407 990.790161 1511.163696
1536.460938 741.444885 1288.197998
1396.487183 984.962097 1468.134399
1394.380493 698.300781 1417.377930
1584.299561 655.951172 1261.865723
1400.364746 1020.581970 1350.439453
1406.872314 703.382263 1404.025391
1542.918823 751.689514 1273.723633
1510.792114 853.559265 1275.448608
1550.205200 1062.385620 1373.633545
1403.367065 902.278503 1310.235596
1427.545898 673.839539 1393.884888
1413.992676 711.414795 1383.783569
1573.504517 817.748230 1211.117310
1562.624756 873.407593 1227.086914
1618.855713 727.937622 1227.681519
1477.294556 883.805298 1287.974854
1405.466064 901.071594 1313.919189
1339.099854 939.539429 1536.663452
1434.491211 974.823181 1272.903809
1578.569580 926.847656 1283.148071
1446.298828 1020.417603 1521.428223
1363.128662 785.176941 1404.983765
1508.171875 1046.768188 1507.978516
1384.406128 992.239868 1302.152344
1436.585571 630.031067 1405.355713
1463.504517 912.282532 1277.489380
1629.279663 666.522461 1226.110962
1442.235596 1026.257690 1370.292847
1552.699097 955.892944 1262.655029
1381.071777 944.784973 1313.446167
1455.168213 715.272522 1371.133423
1502.042969 577.188782 1368.771484
1517.699463 822.946594 1281.855835
1394.478516 998.883240 1288.982544
1628.279053 761.898560 1220.987549
1398.397217 915.496887 1311.923584
1309.462769 917.948853 1396.130737
1466.383423 962.770264 1258.580322
1457.264282 627.353882 1379.212158
1471.246826 590.183411 1382.390869
1379.668457 998.220337 1348.997437
1421.823486 1014.980225 1386.571777
1493.588623 821.309814 1294.304077
1540.131226 1007.690430 1350.235352
1427.904907 902.846802 1302.546753
1453.633911 918.047485 1281.941284
1331.776978 847.729431 1421.247314
1284.958618 893.832214 1453.399902
1529.322754 953.208557 1264.942871
1323.137207 963.838867 1391.197266
1509.956787 912.013123 1253.625977
1529.149048 1053.157104 1361.257813
1507.916748 961.669983 1274.831177
1680.284180 653.745483 1294.736694
1675.906128 656.786804 1258.544312
1445.654053 588.585388 1389.272217
1430.036255 1001.232117 1421.166504
1486.049683 928.138367 1265.250244
1463.531494 1018.605408 1518.354126
1675.029785 767.095154 1241.337646
1489.594727 1089.638184 1345.199585
1359.928955 842.942810 1391.285156
1373.761963 944.157043 1348.472412
1487.511719 1083.237061 1370.417480
1445.240601 1044.196045 1312.405151
1369.424316 937.658875 1329.294189
1453.018921 736.578857 1363.102905
1431.337280 1004.769531 1461.216675
1460.455933 589.425537 1382.511353
1530.514038 805.465759 1270.063965
1470.378784 1034.608887 1453.302856
1612.938965 781.785522 1241.147217
1364.986450 761.174744 1427.315796
1431.471313 605.617432 1388.637939
1437.015747 1038.974487 1297.581421
1390.824341 944.055115 1314.057617
1455.187256 633.590637 1367.047119
1505.042725 1052.734863 1456.947510
1341.535522 865.996399 1386.481934
1534.801147 876.398804 1226.474365
1447.920776 1021.940125 1447.497559
1441.881592 1042.025879 1342.449341
1366.644653 978.647949 1587.855103
1414.215820 1001.400452 1464.508789
1641.984253 750.839966 1209.455811
1645.482178 681.226563 1202.928345
1589.769165 1021.261475 1241.240601
1422.025269 1017.682800 1275.803711
1483.395630 588.148987 1381.162720
1598.502686 1047.898438 1283.561523
1425.302368 964.190063 1284.527466
1342.851929 959.105591 1432.805908
1311.312500 876.363220 1419.496582
1535.655518 813.109802 1248.505981
1352.433350 890.564453 1364.558228
1541.330566 968.201660 1255.698486
1592.067261 681.641479 1260.674316
1737.754150 710.555969 1263.192139
1420.737061 1013.904785 1451.348511
1570.104736 1015.033936 1225.411987
1458.633545 1046.739868 1311.328125
1511.762939 978.336609 1306.144653
1552.361450 1085.856689 1495.846924
1560.910034 755.745605 1247.922729
1520.329834 745.226074 1301.613525
1330.051880 824.746277 1431.179443
1538.503052 863.058838 1229.551880
1514.226807 947.269775 1278.105103
1536.480835 999.845642 1343.544189
1561.147949 842.522095 1220.417114
1386.717163 990.104553 1433.629639
1472.335815 689.855774 1366.663818
1456.876831 1027.286377 1447.526978
1561.617798 610.761414 1308.990356
1470.730957 954.278687 1257.886841
1579.797119 877.188171 1225.465942
1480.911621 972.172302 1281.380249
1415.744385 1012.624329 1353.673584
1329.488281 953.306763 1463.715576
1579.191040 1069.247559 1331.410645
1478.362793 597.732300 1372.598022
1509.607788 632.194397 1359.189453
1438.309204 647.650513 1402.697876
1568.917236 826.115112 1216.368530
1398.430176 991.299500 1470.347168
1461.716431 622.100647 1375.312622
1337.001587 958.508362 1418.071533
1339.513550 902.748291 1368.630737
1369.650757 977.483887 1327.635742
1623.191284 684.350525 1222.257568
1412.591309 1031.473022 1314.870117
1527.415771 816.806335 1265.852539
1388.618042 996.766174 1293.391968
1381.528931 984.809753 1398.271240
1574.846069 879.451782 1267.591064
1558.728149 891.392639 1263.336304
1414.859253 1023.158081 1304.755005
1415.456299 985.123779 1577.725952
1553.412231 992.267090 1274.657593
1645.897705 763.219849 1205.299316
1592.589478 1025.216309 1241.054077
1487.006470 818.300110 1298.356079
1699.094727 757.938171 1226.596436
1668.746216 805.254883 1263.930054
1436.576050 898.212769 1295.868042
1534.570557 974.394653 1278.213013
1597.325928 698.520996 1256.632446
1556.773926 887.096069 1254.803467
1474.823486 627.642944 1371.394653
1502.857544 873.606445 1266.418945
1512.961304 1087.500610 1416.983032
1270.028931 959.637268 1416.593628
1623.611328 642.812561 1248.416870
1469.413940 613.030457 1382.129761
1379.075562 980.674133 1433.439209
1306.786133 908.612183 1406.935425
1540.756958 835.865845 1252.311890
1406.204102 683.249817 1418.714844
1398.769409 1003.505127 1355.682983
1414.392944 1013.307556 1419.816162
1547.479858 1075.260742 1330.466919
1405.527466 721.203247 1402.047241
1470.891602 766.349060 1337.812622
1483.385498 1065.765747 1338.152954
1554.842651 1078.368652 1321.046387
1511.930298 588.332336 1357.982178
1592.041626 1029.297241 1292.075928
1408.170166 1013.778931 1383.684570
1459.658691 1034.628662 1304.963989
1401.330566 975.991699 1584.305420
1352.851318 901.890625 1363.000366
1500.194336 539.406982 1400.890503
1310.619751 933.555237 1421.685181
1556.622437 808.029175 1225.166138
1440.034058 665.744812 1390.465210
1385.007568 975.791199 1511.114868
1475.526123 1072.067017 1362.915771
1572.083008 1061.716431 1336.677490
1606.079712 677.722534 1253.262451
1378.046753 961.682190 1580.176514
1486.260986 866.185059 1298.868042
1561.806396 790.551086 1246.730225
1530.303711 1096.152222 1422.644165
1395.867554 787.016663 1386.029785
1308.980591 947.123230 1510.216431
1541.695679 1073.056519 1473.894409
1463.645630 970.111694 1271.032471
1442.743408 890.293091 1389.280151
1485.748047 880.020691 1282.787476
1471.541504 968.651672 1268.368286
1397.208862 1020.465088 1336.197510
1552.882568 1053.735840 1371.013794
1499.107056 1046.881714 1338.196533
1474.832520 1051.599121 1380.858398
1600.820679 664.017822 1237.691895
1589.455200 1007.791626 1201.058350
1269.544556 952.447449 1429.837280
1430.377930 904.268127 1286.404785
1418.853394 971.376404 1285.679565
1496.954712 907.979248 1247.973267
1518.269409 746.415649 1303.917236
1422.996948 1017.064392 1436.780518
1401.654175 905.883179 1330.751709
1474.514893 1019.483459 1300.567139
1497.473511 841.620544 1278.838989
1401.793335 974.252991 1516.041992
1565.675049 786.957214 1232.140137
1494.390625 1035.093750 1542.456177
1430.736572 935.421936 1280.775391
1508.057007 889.035828 1248.086914
1303.049072 861.452087 1447.281494
1554.330933 808.901611 1227.927612
1521.289307 1068.924072 1384.615112
1482.457397 886.509155 1303.280884
1395.869019 1020.208496 1297.169556
1552.894043 1077.078003 1485.196777
1342.645752 980.289551 1353.771118
1450.071045 793.700806 1347.203857
1572.167725 678.230774 1268.621948
1377.817627 958.944397 1320.150757
1456.635498 741.971375 1363.349976
1606.044067 676.225342 1220.825195
1561.840820 609.741211 1349.067383
1271.638184 912.186584 1458.181274
1443.816528 1005.730347 1536.820068
1457.214478 996.586853 1649.535645
1391.921753 965.028137 1592.872192
1633.696045 761.668518 1207.805176
1414.202271 1018.202698 1315.683105
1601.753662 1087.831543 1345.923706
1413.343872 669.015564 1417.349976
1587.371582 714.186768 1233.974854
1502.130127 794.473877 1314.702148
1638.040161 763.554749 1213.185181
1540.562378 880.439697 1241.255737
1300.060913 902.293640 1416.104370
1542.444336 837.785278 1231.483154
1430.033936 1002.624451 1271.355225
1439.621460 649.270874 1390.372681
1544.028687 788.282654 1241.698242
1377.947998 960.711975 1554.584595
1581.208618 1006.384460 1332.433105
1524.489258 1063.999390 1456.141357
1394.783447 912.764465 1318.854858
1664.993896 733.415527 1223.084229
1509.468628 851.915161 1260.377563
1284.119873 896.065613 1450.132813
1324.429199 943.129639 1372.209229
1657.156494 628.105713 1354.567749
1461.588867 1009.324280 1594.030396
1547.068115 773.176453 1276.991211
1611.304688 710.726257 1209.310181
1364.634521 781.654663 1405.106079
1477.284424 1041.955322 1411.756592
1498.644653 702.527954 1346.743286
1442.208618 1058.688843 1319.884521
1610.820557 997.410095 1247.919067
1402.034302 782.131531 1401.859741
1463.331055 965.411011 1260.919312
1526.036865 927.134277 1260.009277
1506.328247 948.513733 1282.425415
1328.150269 874.431702 1403.554932
1407.868652 940.935303 1301.451660
1283.232178 931.140198 1474.130859
1516.819824 902.366882 1251.090942
1340.188354 754.333618 1382.016479
1464.295288 932.664185 1265.950317
1586.994507 1030.427856 1300.464111
1476.609253 866.758667 1293.166992
1572.210815 985.138367 1302.124390
1304.917236 938.059326 1499.138306
1614.676758 704.051514 1223.935913
1596.090088 689.610596 1238.773926
1549.160522 1044.855835 1357.071777
1445.327881 889.334229 1404.307617
1369.801758 856.146545 1375.371094
1437.026245 706.289246 1397.784546
1384.696289 968.207764 1486.330688
1568.887573 1077.817383 1400.487549
1546.302979 1041.425293 1331.664307
1432.144043 765.734985 1376.715576
1447.423950 794.180115 1366.682129
1426.716187 745.576294 1382.609985
1327.311523 927.970886 1373.851563
1609.389160 997.455261 1270.328125
1445.574951 649.880493 1382.392212
1435.684570 1014.164429 1410.235596
1564.531128 994.186035 1226.501465
1454.717651 1037.363647 1277.930664
1459.015381 650.122131 1381.050781
1586.956177 835.052795 1250.637573
1409.200562 1002.008118 1333.965942
1565.315063 739.148926 1245.393188
1550.251221 907.257141 1259.464722
1572.464355 891.455505 1268.189453
1450.425049 920.253296 1281.786743
1497.609863 1065.309570 1341.500488
1448.835205 1010.916870 1549.417969
1402.808350 986.607849 1285.476807
1576.858398 1040.470825 1324.401123
1592.409790 1025.854980 1241.380493
1532.675415 1049.495117 1361.911011
1441.797974 890.804932 1331.530640
1291.092285 911.763916 1456.191406
1555.584961 767.262512 1242.284180
1491.703125 681.800659 1337.832886
1413.737061 940.514160 1298.833008
1295.003174 934.087097 1490.621704
1492.456421 1053.189941 1410.472534
1511.123291 829.544617 1279.166382
1402.264160 703.658081 1414.268066
1379.514160 984.494385 1449.209473
1581.562012 1032.654175 1232.461426
1549.635254 982.922180 1260.065308
1524.389160 724.449402 1295.475708
1479.411743 1018.724792 1587.987671
1532.188354 973.554321 1262.733765
1425.440063 986.608459 1292.723877
1543.188721 1073.774170 1343.562134
1553.193604 637.588623 1300.893921
1544.484375 905.828674 1260.142578
1520.381226 995.611572 1277.191040
1459.678589 603.533203 1390.026123
1494.056519 747.703125 1324.443848
1518.881836 652.615723 1358.268677
1529.082886 944.170471 1264.824951
1547.497437 702.345276 1302.052490
1560.672974 654.307251 1299.498901
1583.307495 867.234436 1222.676880
1452.788208 1033.940063 1366.054932
1324.812622 943.002502 1481.324341
1568.953125 1058.173218 1315.926270
1442.590576 890.570007 1400.854858
1462.701050 1016.840881 1298.022583
1611.473999 736.900330 1228.066895
1368.636719 904.591675 1346.194336
1467.640015 1032.717529 1433.502808
1387.568359 948.390503 1310.379761
1366.816650 795.847717 1408.267334
1501.993286 724.952759 1326.601318
1529.796509 640.905823 1357.002197
1463.072144 1063.231079 1322.791382
1486.006470 892.232605 1265.136108
1346.329468 968.475342 1432.369995
1370.518311 972.417542 1565.173340
1570.568970 1010.968689 1257.020508
1472.178467 809.059875 1321.653320
1498.095703 674.528259 1371.381348
1386.007080 996.217041 1340.329956
1721.744263 718.391296 1230.495728
1263.497314 919.554504 1440.440796
1423.041260 985.204651 1279.819824
1569.031250 992.402161 1236.800049
1455.558594 1033.644897 1275.985352
1425.941528 966.915649 1272.112915
1471.783569 742.607178 1345.693970
1383.384521 994.237549 1398.317993
1411.927490 982.945496 1489.986450
1421.249268 1004.047607 1475.849365
1570.103516 833.383362 1218.091187
1570.515381 613.773193 1296.318848
1347.802612 969.524963 1397.042725
1311.246582 945.400085 1509.721558
1555.233765 820.423462 1224.009521
1563.777832 945.645752 1276.994263
1427.971191 1016.741333 1356.884399
1328.158813 834.996887 1419.253784
1531.046387 1060.965576 1502.629517
1583.622559 1000.816345 1207.270752
1592.668823 1093.304565 1345.226196
1409.536987 1011.465027 1340.636230
1440.816284 731.485474 1360.141724
1502.641479 696.536316 1336.214600
1374.768188 988.640015 1332.650024
1661.205200 757.736450 1212.203003
1423.362183 860.309265 1346.088013
1458.812012 740.784973 1367.663818
1578.985352 1083.677002 1362.450439
1558.896118 827.709900 1231.533813
1530.080688 886.767212 1237.018555
1417.681641 983.060486 1281.096802
1398.147217 962.276245 1301.845703
1474.385254 720.465393 1354.593628
1349.697144 953.527588 1335.283691
1438.440308 725.331360 1372.468628
1387.310791 994.612549 1362.823730
1424.914673 876.587036 1322.603638
1472.246338 593.623962 1368.260620
1477.952148 940.638428 1261.039795
1591.460571 1021.556458 1216.341797
1367.504761 901.039978 1364.197266
1433.051270 1001.530273 1549.468994
1297.289917 833.224976 1394.637817
1616.665161 918.697327 1296.279907
1525.908325 846.526794 1245.929932
1415.582764 998.092896 1448.550659
1531.401367 808.154663 1260.306030
1378.212891 858.028198 1347.058594
1587.518677 894.292175 1265.296875
1411.911621 1018.260803 1317.124634
1340.154053 978.694092 1372.238525
1636.424561 679.112000 1228.568115
1522.935791 761.655212 1293.696899
1457.375244 799.410034 1332.857422
1523.313110 855.099243 1241.825562
1461.559082 783.750488 1340.970703
1322.429565 925.204773 1403.023682
1324.216797 920.571289 1378.280029
1440.929077 980.422119 1270.818115
1460.996338 1025.282593 1458.268188
1608.928345 681.416565 1236.500366
1528.691895 715.613159 1297.048218
1480.421631 582.345459 1372.915039
1536.235596 795.995178 1252.238525
1490.198975 1026.848999 1588.113281
1421.249390 656.143860 1410.647217
1641.668213 724.437317 1226.085571
1473.721436 756.757324 1345.506592
1344.254272 771.751770 1419.529297
1493.457153 1045.263794 1476.725586
1466.900879 1055.559692 1368.249023
1392.248535 908.825012 1323.836914
1377.651001 985.330444 1432.369385
1502.524170 611.417725 1354.015869
1332.334229 948.154846 1387.728394
1401.116699 1011.769836 1293.178101
1510.367554 680.478333 1326.952881
1533.708740 974.848999 1244.098145
1511.198975 904.874878 1265.865112
1613.237549 656.316711 1238.641968
1555.218994 972.655151 1246.391968
1589.271362 1072.885498 1292.465088
1507.404053 1092.573486 1377.775635
1461.642456 1001.826294 1641.835815
1438.557007 1029.165405 1411.246094
1297.729736 921.025818 1413.078003
1447.008667 994.100220 1546.977417
1383.522461 992.367737 1469.284424
1535.408325 829.617371 1238.402100
1332.676270 856.827271 1405.543335
1677.192749 759.657837 1233.242554
1570.302002 1013.299744 1335.892090
1486.299927 957.781006 1273.972290
1463.247070 664.718628 1360.239014
1333.604614 897.960083 1387.461304
1302.553223 918.797913 1403.812378
1693.691406 663.687439 1272.910889
1590.546021 1081.832031 1268.842041
1435.639038 1016.396179 1270.643433
1389.296509 904.822998 1332.639404
1441.029175 845.073792 1363.192139
1353.329468 878.660706 1373.526001
1592.041626 626.579529 1257.959717
1524.149292 834.197937 1245.180908
1475.607910 813.488281 1320.822998
1450.551880 944.147766 1260.896973
1384.639038 984.424194 1305.970703
1642.120972 740.534546 1221.411865
1399.596436 861.038452 1354.915527
1537.923584 723.766663 1294.044556
1588.692749 1003.845093 1240.878540
1380.176758 802.403137 1388.281128
1515.925903 665.973572 1327.886597
1584.401245 961.508789 1216.332397
1437.771240 629.469727 1406.948242
1539.089844 655.861023 1315.796631
1450.812012 1002.495667 1269.724731
1504.237793 833.840881 1290.673218
1412.092896 705.427734 1398.704224
1308.728760 945.930054 1448.468140
1339.038696 950.359680 1533.833008
1577.919434 907.826294 1275.275269
1412.162598 986.521118 1562.557983
1460.963867 856.342834 1311.600586
1341.086304 882.459961 1402.796753
1463.598755 658.419250 1383.946411
1314.207764 947.661987 1418.342651
1444.485352 940.235718 1272.313354
1584.016602 1092.314941 1286.878784
1472.550537 901.994873 1265.804077
1565.238281 1000.805847 1247.691162
1582.792480 627.911804 1281.012085
1353.962646 968.920959 1463.798584
1681.520752 738.087769 1208.035522
1491.059204 912.221069 1257.883301
1552.966187 1002.244629 1225.185669
1568.783081 899.486267 1259.465820
1482.036255 873.893372 1286.243042
1430.002686 740.808777 1387.018433
1583.183105 871.737000 1268.756958
1516.582642 1043.551392 1555.175903
1591.514648 723.850708 1227.910522
1449.833618 667.035278 1375.539917
1387.164795 762.793945 1412.843750
1446.111694 745.701965 1376.466797
1441.421265 1019.961426 1502.605591
1434.283936 1001.055908 1562.767578
1559.976074 1075.372803 1488.870605
1354.668335 944.515503 1515.595581
1368.826294 714.497925 1381.239868
1470.212402 591.778992 1375.390503
1485.478760 841.447876 1306.425781
1497.863403 908.451721 1261.077515
1362.555298 859.111389 1379.127930
1324.542725 849.963867 1417.256958
1432.151733 989.120667 1614.319214
1353.316895 789.414856 1430.564941
1546.373047 809.711670 1237.450562
1519.003052 796.557373 1275.193481
1517.012695 739.107178 1307.523682
1553.340576 1010.807556 1358.603882
1542.229492 1094.399414 1410.158936
1601.460571 791.510925 1229.646851
1503.937744 1040.794189 1537.988037
1369.275391 748.698242 1427.323120
1373.528564 782.024048 1400.878052
1291.910767 933.447937 1422.634033
1419.823730 935.388550 1293.909302
1385.212158 749.370178 1398.649414
1530.921753 759.243591 1278.645386
1436.599487 855.605652 1336.566650
1446.528442 1042.508911 1310.054443
1598.344116 723.200989 1233.572144
1445.123413 1063.501343 1298.302246
1375.204102 1000.909058 1311.973389
1329.026489 953.509338 1537.247925
1372.878540 807.291565 1399.262329
1317.349243 880.827148 1418.029297
1590.652466 1020.225708 1322.867065
1391.688599 981.791687 1511.757202
1306.691040 906.409424 1407.525269
1349.431885 962.257080 1437.971436
1612.386719 994.836853 1177.995605
1502.969971 624.323120 1394.917969
1427.840576 802.735352 1365.058350
1512.453003 621.310974 1367.411499
1537.573608 957.724060 1258.942139
1479.484985 1009.600708 1285.109497
1469.185425 712.695801 1365.664917
1333.982178 952.158142 1372.732300
1415.384888 966.859802 1289.375732
1444.713013 862.882629 1325.109009
1510.036133 843.041931 1262.115601
1593.727295 745.805969 1227.452271
1583.021240 762.413879 1228.143188
1514.174805 862.576538 1249.801514
1588.067139 1040.130859 1318.751465
1345.431763 809.047852 1424.095947
1606.069580 699.244812 1224.158081
1577.488403 812.479736 1223.854492
1558.550171 713.534424 1278.815308
1566.484009 824.366516 1218.345459
1400.404297 922.392883 1325.308472
1358.410645 950.480286 1557.828125
1653.960449 720.689270 1224.188232
1554.819336 801.782959 1233.481323
1632.378906 713.052979 1221.089600
1409.022949 975.785095 1606.599731
1470.284546 1078.375122 1347.645386
1442.443481 682.281433 1377.279175
1330.392944 910.250122 1383.945679
1292.173828 919.885925 1423.580078
1514.315674 778.030762 1291.853882
1541.602295 762.747070 1265.496094
1463.789307 1017.558960 1525.306519
1637.992676 703.388245 1220.953125
1579.149902 697.062866 1238.625366
1438.150513 716.262878 1376.663330
1393.211792 965.036621 1329.427979
1344.992798 915.697205 1364.005981
1484.417969 1039.678467 1553.314575
1457.147583 910.424805 1281.472168
1289.120239 902.686096 1430.988770
1567.108032 910.316895 1265.979248
1589.698120 658.928589 1249.060791
1473.136963 637.896851 1371.145020
1422.724121 799.050415 1372.359375
1429.283936 964.412537 1270.656006
1473.169556 893.782166 1284.433105
1506.830811 1044.087769 1320.781860
1360.808594 965.668213 1478.810913
1329.836060 946.779175 1402.425903
1480.712402 817.606201 1309.974487
1547.759644 935.256531 1259.545410
1485.701782 765.653137 1324.517700
1355.628052 961.934998 1532.291382
1352.527588 954.205200 1521.932861
1344.024414 950.670349 1344.168823
1579.940063 665.014648 1271.118530
1616.484009 1006.432983 1241.649292
1400.081543 970.089478 1290.425049
1533.090210 869.668518 1239.427734
1391.407959 734.977112 1399.179688
1446.612305 955.618469 1274.468262
1524.489380 745.977966 1296.650391
1562.447510 1004.538391 1262.354004
1265.319214 918.522522 1451.682983
1362.271973 947.741821 1346.438843
1553.375244 1048.311646 1345.323853
1357.866577 902.954712 1360.214111
1648.958130 670.587830 1226.274170
1581.741943 975.157959 1210.167236
1450.860107 909.816040 1288.062988
1415.541626 657.150391 1410.014038
1265.451050 926.965271 1450.053467
1389.297119 999.734497 1346.415527
1367.277344 965.207886 1408.096924
1261.448364 929.986206 1452.009399
1538.527588 1058.929932 1482.916138
1388.192993 780.070251 1391.193726
1521.302246 646.703064 1332.343750
1626.934692 595.682007 1511.165039
1324.486328 906.890198 1387.535278
1595.172119 690.548645 1248.332520
1571.123535 1073.549805 1291.252319
1668.416626 685.936829 1226.743408
1445.607300 1005.594238 1461.162231
1549.888184 813.640137 1239.675415
1571.030273 817.993408 1217.745728
1653.606201 704.981384 1211.670654
1580.111816 1089.644043 1287.625854
1558.210815 989.730957 1248.095581
1680.512451 728.451294 1216.769409
1356.891235 793.145874 1413.776978
1544.011963 781.811340 1265.298218
1526.233521 678.316711 1334.940918
1593.218628 1086.986206 1358.353149
1325.301514 942.508484 1470.741211
1329.435547 936.859863 1515.162354
1606.242554 674.051575 1236.479614
1557.691406 790.599182 1260.261597
1300.182373 919.390381 1445.525269
1481.329590 662.488098 1363.099609
1588.847656 1095.598389 1312.370972
1456.055298 727.414917 1357.864380
1568.509644 684.690125 1277.566772
1557.300293 752.819153 1277.216309
1424.228271 1023.946045 1324.712769
1405.975586 1020.550659 1292.253418
1599.640503 898.400879 1277.050171
1391.100220 967.608459 1578.362915
1536.334229 684.656433 1304.061523
1356.804443 975.822754 1324.094482
1555.917969 691.499207 1305.809692
1413.191772 927.071716 1295.934082
1418.534546 1012.829956 1448.455322
1516.445068 826.211853 1277.083496
1473.434448 1016.113770 1302.834351
1467.312622 913.487183 1274.155273
1692.412476 763.701660 1242.119507
1547.550049 985.838989 1282.702515
1413.256592 992.588257 1586.726074
1426.300781 1015.169250 1348.952881
1462.362549 800.924744 1332.304077
1481.978271 1048.227661 1472.040771
1378.524414 847.330444 1371.415894
1551.264893 1026.861450 1355.196533
1597.774170 757.366943 1223.434326
1539.173096 996.097961 1301.830200
1606.654297 656.719543 1231.025146
1387.888672 989.882385 1427.215454
1615.971924 776.527405 1220.446777
1467.800171 759.804626 1342.756104
1437.352661 1009.890564 1599.487915
1549.334473 823.790833 1226.782227
1431.105103 996.225220 1564.026001
1485.721069 1048.159546 1337.683228
1563.323853 873.101685 1225.359863
1436.266357 1031.701538 1314.690063
1493.669067 1079.661743 1364.878296
1534.651733 1060.859253 1496.149414
1576.333862 1081.931519 1322.998291
1362.271240 978.715027 1358.745605
1436.663574 665.066223 1393.102295
1437.317749 1013.932983 1546.911011
1276.787842 940.015686 1446.915527
1585.145752 695.867798 1236.708862
1537.267456 818.681580 1239.491455
1366.221436 933.156799 1324.762939
1526.655151 1066.999512 1372.833740
1524.140991 841.747375 1248.265991
1377.131714 718.817261 1417.233643
1439.495728 927.992615 1279.291992
1439.592407 906.236633 1292.891235
1530.550293 1059.397339 1368.937988
1403.817017 844.145203 1384.114624
1653.292603 766.264038 1210.168823
1506.174927 992.203247 1277.034668
1393.102051 854.870239 1379.200073
1340.036377 920.425171 1362.331421
1534.597412 803.350098 1248.568970
1418.461426 1024.858032 1293.995361
1417.855835 1003.580627 1299.156006
1470.805908 572.990723 1395.916260
1556.380249 860.927063 1233.839966
1406.955688 989.007751 1306.146606
1569.619751 630.109070 1286.119141
1375.830078 971.048706 1510.736328
1500.673096 606.599426 1359.053101
1463.083740 1030.686279 1448.684448
1469.857300 1068.412231 1349.845703
1389.615845 989.109619 1441.266846
1425.535889 998.985413 1292.527832
1403.214478 997.915649 1445.147583
1398.052368 981.701599 1307.231689
1507.858398 1040.829590 1579.648071
1404.053345 780.059875 1389.612549
1415.371216 959.070313 1285.766113
1370.933960 983.671021 1478.200928
1402.671631 857.524414 1392.425537
1471.457886 570.374634 1392.135498
1439.743896 1029.149292 1352.573242
1556.268799 1064.829590 1393.535889
1642.033569 714.819397 1200.285522
1379.953613 987.393799 1302.318481
1532.619385 758.443542 1281.752319
1383.362183 971.668701 1317.333984
1470.816040 922.214966 1261.896973
1458.152832 1011.405273 1636.154907
1361.424072 830.200378 1386.592407
1440.730103 802.138062 1350.576294
1459.495972 1002.768433 1619.454834
1517.599121 719.345703 1327.120361
1429.739868 1019.150574 1323.379639
1574.790894 1019.457703 1316.165894
1455.969727 713.956665 1365.861572
1332.710693 862.190430 1401.833252
1434.974609 1033.989014 1284.903198
1497.347046 662.197327 1373.821289
1580.412842 790.960083 1229.299316
1345.622803 905.296204 1359.552002
1591.418945 1106.930908 1334.031738
1408.685425 891.094360 1317.239624
1562.135986 876.378113 1226.233765
1529.844482 1037.402100 1342.572998
1350.026489 934.261108 1350.760742
1556.875610 1084.162231 1341.764648
1426.230713 984.003662 1635.973511
1545.841919 691.097778 1298.427490
1689.654297 777.405579 1240.742432
1553.067627 942.777649 1259.070313
1344.863770 939.411926 1341.884888
1394.307007 776.144897 1387.935303
1625.762207 682.510193 1229.983398
1436.265137 1029.816162 1323.946655
1559.337158 818.201904 1221.526123
1408.240845 790.715515 1386.842773
1448.304321 980.232788 1259.997437
1525.868652 629.168762 1334.698853
1380.994629 990.584534 1337.785767
1316.957153 936.544556 1497.171143
1415.868042 928.413391 1293.304565
1448.577759 965.499390 1267.539063
1485.399048 860.034668 1288.091431
1320.923828 941.490295 1475.539551
1570.535767 769.457764 1234.710327
1354.678955 952.274109 1362.198486
1357.614868 816.198486 1402.305298
1426.014893 736.408081 1384.134888
1412.842651 670.971008 1413.759033
1390.040161 879.808044 1331.949341
1590.442505 1010.518982 1210.022095
1294.321411 898.426392 1439.162231
1327.130127 941.575073 1480.834106
1495.226563 1108.584961 1375.762451
1582.850952 853.467468 1243.213745
1445.606812 684.966736 1384.130249
1430.904297 742.393982 1382.861816
1497.088379 796.396606 1315.337158
1417.536865 1017.785583 1417.715210
1441.341797 1051.709839 1307.890991
1420.436035 1004.510193 1296.845459
1393.316895 999.572266 1355.596313
1512.153442 1003.054443 1319.806641
1525.337402 812.571777 1276.239014
1578.934692 994.239075 1363.986816
1440.986206 934.622986 1285.838257
1361.835938 972.699341 1365.873901
1259.494141 922.342529 1437.060059
1356.334473 969.670105 1493.567871
1291.942871 918.879700 1429.500244
1363.880859 953.133301 1330.268921
1348.848877 966.401367 1334.649780
1290.873169 946.481262 1429.728149
1389.719482 998.016479 1360.599121
1487.341309 919.548096 1259.648682
1397.883789 974.211914 1573.336670
1549.808350 988.964966 1244.890381
1298.063843 907.779175 1415.562012
1492.554077 1074.509033 1398.333374
1463.543579 591.470154 1399.032471
1516.277710 1059.694824 1454.132446
1508.782227 973.735840 1269.388184
1510.821045 969.558350 1267.882935
1293.040771 894.205261 1445.544922
1605.607422 734.887695 1230.576294
1527.837036 1021.028137 1338.410767
1485.705078 832.125061 1300.073853
1513.105591 809.494507 1290.942383
1334.292358 945.121399 1502.065918
1397.488770 772.630249 1402.041382
1558.977905 1010.300476 1249.823486
1436.333740 881.663086 1409.158569
1398.827271 989.722595 1318.845825
1373.340454 942.535828 1324.122681
1417.972412 717.036621 1403.562622
1583.777954 574.906250 1477.187744
1487.504028 857.693237 1299.498779
1546.649048 846.586304 1217.659546
1531.547241 1070.262573 1375.318115
1412.769409 1010.891174 1278.228760
1530.521606 564.795654 1354.272827
1417.850220 1005.427063 1423.518555
1479.228271 1023.586731 1573.365112
1292.990723 863.108582 1429.476807
1422.223389 958.669373 1288.817505
1452.392944 1024.068481 1270.556885
1414.061523 1002.148071 1408.927856
1562.366455 840.063782 1229.955322
1365.023315 869.395630 1368.599487
1582.655029 1016.738464 1268.102173
1482.005127 1021.133179 1609.840942
1520.462158 987.053711 1269.406250
1388.113647 813.423279 1404.733521
1515.526489 1054.491821 1434.223511
1405.684570 871.832336 1342.211060
1480.571655 843.707764 1305.869141
1325.612671 939.148193 1511.685303
1590.277222 1079.811523 1386.066528
1382.923584 970.294128 1516.776611
1316.993286 918.353516 1388.515747
1518.696533 908.694824 1267.070435
1421.667480 991.040100 1563.704346
1601.328003 895.962585 1278.142944
1458.894409 654.014038 1385.591309
1463.680664 900.541504 1288.983398
1510.089722 807.405518 1305.834961
1520.410156 982.855225 1260.828247
1610.662720 689.759583 1227.471558
1334.366455 958.452454 1377.298462
1372.630615 968.846558 1332.836060
1479.254517 747.939270 1336.962524
1470.950684 1029.092773 1494.773560
1618.287354 765.760498 1218.224609
1388.867188 976.661560 1523.099121
1337.363037 942.617004 1502.542725
1269.317627 946.555298 1431.262695
1507.111084 1033.300537 1511.572144
1620.240234 817.747559 1231.368774
1586.398682 831.644226 1229.499756
1418.861694 851.746704 1382.024414
1561.709961 977.141907 1234.069336
1384.158936 813.200317 1406.811768
1507.240723 841.498657 1276.624878
1515.682373 658.725464 1335.899658
1508.893311 612.318298 1357.641846
1337.482544 948.368530 1364.617798
1520.951294 1063.826660 1450.684326
1597.624146 1091.172119 1357.150879
1610.249634 733.836609 1217.123047
1609.822632 832.255005 1219.981812
1454.971680 1059.603638 1337.581299
1479.698730 1023.309875 1506.197998
1594.310181 1065.467407 1412.334106
1554.149658 1062.115234 1346.159790
1434.626099 719.993469 1378.696777
1396.978882 739.877563 1393.937866
1507.591431 861.569580 1251.940918
1439.079590 926.206360 1290.535400
1499.924561 831.409668 1295.390381
1378.306152 976.403198 1380.816284
1405.524170 1011.578491 1335.757690
1537.283203 832.550964 1241.149292
1364.670532 877.211060 1362.156494
1299.050049 944.475220 1502.122437
1432.725830 663.312805 1392.401001
1486.192749 580.832764 1380.840088
1614.601318 849.218933 1259.027710
1303.554443 922.990356 1405.589600
1534.828613 1001.462646 1340.972046
1363.827881 959.204712 1456.613037
1546.692139 970.396301 1230.965820
