ply
format ascii 1.0
element vertex 1367
property float x
property float y
property float z
end_header
-847.364868 521.521118 2002.645752
-823.102356 422.926270 1911.904297
-690.651184 374.163361 1996.979126
-682.689270 95.054794 2064.239014
-628.140869 177.029068 2032.657959
-902.863037 500.321228 2057.282471
-1074.796753 396.734283 2052.050781
-701.655579 505.481934 2101.548584
-890.804016 504.993927 2072.284912
-818.746033 386.945587 1913.331299
-825.381531 454.072876 1911.226440
-871.363098 179.208847 1918.212769
-734.812195 491.324738 2035.559204
-781.551636 565.678040 2147.830078
-611.722412 163.802582 2029.155029
-866.249329 366.686920 1898.237427
-851.984741 257.008881 1924.374023
-644.279541 213.274719 2020.433716
-793.600403 503.917572 1939.397339
-854.490356 536.791260 2118.059814
-1063.602295 411.959656 2037.097046
-756.063904 209.254135 1970.664063
-936.095215 322.463989 1862.847534
-768.012939 500.405884 1979.870972
-819.435852 516.418518 2085.511475
-736.072449 124.882431 1977.291016
-955.336243 368.000824 1852.509399
-599.986511 173.290268 2163.236816
-905.486694 492.523499 2071.392578
-657.674866 518.201721 2089.387695
-798.850708 480.455444 1928.821777
-940.377869 314.176270 1888.601563
-906.610962 421.791016 1881.645264
-703.737793 410.323578 2046.059204
-785.978577 431.797882 1941.398438
-872.223999 448.691223 1907.324097
-885.365662 523.249939 2069.766846
-821.577026 421.737518 1916.439575
-815.190735 232.855408 1950.147095
-984.858215 405.004700 1861.805054
-1018.053711 408.595062 1952.143799
-816.006714 404.563629 1928.560181
-878.309021 530.435303 2150.450195
-921.021667 407.399536 1884.212524
-681.361572 125.276550 2015.195313
-798.201050 299.796967 1969.213257
-874.782898 246.059113 1906.959595
-861.562439 520.078979 2035.070190
-689.778320 229.062958 2007.214478
-817.303650 553.320801 2017.149414
-689.243286 140.445221 2001.475464
-780.587219 237.528366 1980.515747
-796.597168 145.729477 1959.931030
-982.031616 484.183807 2138.743896
-896.427063 488.222168 1993.005249
-991.457886 443.293610 1995.484741
-783.829956 484.118805 1933.335205
-961.375977 426.531921 1903.313477
-702.631104 264.579193 2001.996094
-1090.756470 413.578552 2052.569824
-914.307190 302.809418 1865.485962
-656.841431 193.824554 2024.132202
-690.092407 509.578674 2053.838623
-885.356323 486.444427 1979.570435
-901.053589 489.552887 1982.637329
-760.215393 571.696838 2113.149658
-654.053284 336.180359 2055.417969
-688.357727 127.350914 1997.941895
-738.056824 437.498962 1970.055298
-842.051819 396.693512 1911.113281
-802.065063 513.058899 2079.662842
-619.346619 237.822784 2052.103271
-1036.824829 463.929932 2118.022461
-690.640381 386.467133 2011.486206
-845.903198 499.137207 1923.451050
-866.134277 520.549133 2042.150024
-681.983276 487.128174 2083.374756
-905.965759 478.808899 1995.547363
-843.706665 252.935287 1939.969971
-630.539368 214.360504 2031.829956
-799.914978 211.192993 1949.952881
-631.111816 144.248428 2035.149536
-976.757874 423.282166 1918.896729
-728.940552 193.148239 1991.709595
-1103.504028 405.703674 2086.583008
-725.726624 503.359558 2053.023926
-876.362915 244.367691 1918.685913
-948.975159 441.708893 1939.173096
-1076.274902 418.492462 2074.035156
-905.219727 450.385040 1875.350220
-963.670959 449.799988 1977.827881
-914.532104 280.106506 1872.050781
-1081.583374 420.546204 2094.295654
-688.260742 388.786957 2059.224365
-753.619263 471.719147 1976.976929
-715.574219 489.273560 2094.293701
-785.633179 72.438095 1957.063110
-640.370605 127.901253 2101.998779
-815.218384 501.301025 1934.760010
-722.256958 418.660431 2047.562012
-851.604065 517.629700 1980.818726
-890.974792 502.730133 2034.669556
-868.206299 492.725708 1953.493530
-946.368591 459.543243 1852.459229
-866.383606 266.821075 1929.316162
-809.534912 277.941010 1962.760620
-868.921692 401.380585 1896.490356
-888.495178 531.415649 2089.188965
-824.356384 551.268555 1984.829712
-990.497253 433.490723 1958.245850
-775.040100 519.463806 1981.848633
-870.858459 437.296875 1884.624512
-793.904053 497.541107 2084.087891
-910.716858 316.195465 1899.397095
-866.568787 194.772797 1914.833496
-988.266479 435.336426 1962.770630
-839.729187 532.832764 2120.513672
-625.022400 155.241150 2046.634277
-823.677124 478.598145 1917.418823
-720.660889 420.075104 1992.646484
-790.909973 501.951874 2073.426758
-744.060974 213.648438 1996.038574
-903.366211 393.964172 1893.297607
-931.091614 339.603729 1883.858154
-822.421448 555.453186 1993.713989
-773.328430 291.050476 1969.063599
-917.367981 488.034302 2003.509888
-793.923157 434.079803 1933.804932
-699.606262 497.439514 2069.910889
-942.856140 497.637146 2107.726807
-595.969727 241.966644 2132.426025
-692.505127 104.490921 2112.714844
-854.151184 379.979858 1901.575195
-973.303223 460.308838 2026.432495
-599.376221 183.257263 2048.154541
-705.266846 351.205750 1992.945801
-786.589050 154.886368 1989.424438
-627.640686 520.797424 2084.051514
-876.236816 520.683777 2172.229248
-737.699036 483.354034 2068.002930
-725.671570 487.569885 2069.528809
-689.418152 326.393921 1997.097046
-601.583557 254.269135 2068.261963
-1030.953491 434.667725 2036.487061
-819.326477 552.263000 2025.392456
-626.170837 169.638336 2026.880737
-1015.764709 445.051697 2020.595825
-670.739563 525.705688 2098.519043
-967.400146 367.478119 1861.817749
-920.939636 280.662231 1897.957153
-863.735229 265.121521 1914.154907
-592.772766 189.846588 2054.129883
-883.114136 314.752106 1907.062256
-837.774658 464.884125 1908.537964
-728.895508 98.896667 1997.373901
-765.043945 294.560425 1976.110352
-700.643066 273.654205 1999.343994
-688.496399 120.789406 2025.782349
-842.405762 521.320801 1997.529419
-662.942200 337.304932 2004.147583
-861.464661 338.044495 1908.818481
-842.592407 432.142456 1902.473022
-864.638916 399.975342 1895.986694
-810.569336 118.506630 1968.064087
-824.327393 438.172180 1915.553711
-872.826660 319.050659 1900.738281
-961.588867 442.777130 1857.801392
-914.527588 394.163208 1874.630493
-777.479187 332.745483 1967.413574
-996.523865 404.023926 1861.953857
-758.726440 234.024307 1977.610352
-780.789246 425.253998 1943.984131
-878.130432 210.198288 1919.314819
-862.112854 488.356323 1938.664063
-661.344849 260.494415 2017.335938
-748.448242 453.213745 2006.454956
-816.481995 512.496155 2070.395020
-805.505310 296.995453 1947.223877
-778.155396 510.271362 1968.681885
-1000.127686 413.313965 1914.640137
-671.529175 454.302399 2059.602783
-678.126770 134.780350 2211.949951
-780.530029 111.968231 1951.168945
-788.291321 234.564148 1961.062988
-1093.452393 412.640137 2054.108398
-824.344482 118.172134 1938.634766
-645.067810 241.130127 2018.123047
-815.306152 164.912735 1936.235107
-948.933960 459.487366 2002.439941
-689.838501 523.698059 2080.400146
-781.950012 553.930786 2099.355469
-903.746338 491.971344 2016.336792
-661.867188 510.472290 2095.824951
-645.032471 288.088623 2056.378174
-707.596313 141.657013 2004.228149
-1064.005371 419.280182 2051.094727
-769.015991 453.866211 1959.357666
-846.295349 534.122620 2084.426025
-695.915955 503.170319 2083.470703
-700.203247 500.887512 2045.475220
-753.432739 136.218216 1980.870483
-918.198547 499.559265 2104.482178
-695.683594 393.531372 2005.207275
-777.973694 453.870361 1947.215576
-841.086670 370.042419 1912.309204
-749.551819 366.662354 1977.790405
-829.576294 333.258789 1924.309326
-636.194702 285.934753 2122.739258
-1015.618042 420.564056 1877.209229
-940.145081 427.924713 1862.911865
-639.898315 178.449600 2037.379761
-716.354797 338.161102 1988.143555
-680.203125 222.723465 2008.269531
-901.138611 250.901825 1899.602661
-649.663269 522.709595 2094.419189
-765.706482 435.110657 1956.788330
-946.399658 420.169891 1865.018433
-888.638733 452.910400 1880.199341
-698.123230 490.551453 2139.471924
-862.989258 416.962830 1895.383911
-845.273926 482.920807 1936.161621
-997.892517 431.014496 1976.204956
-852.521179 509.087921 2154.428467
-694.628601 366.943573 1999.388672
-653.735901 324.386292 2121.318604
-813.691467 109.739700 1939.395630
-783.208557 180.649048 1962.557739
-820.391907 512.361511 1955.376099
-643.091614 271.483917 2018.107544
-708.272217 426.289459 2042.430176
-841.156494 367.325439 1913.906738
-786.644287 497.866455 1936.403809
-832.155151 119.516739 1932.668579
-928.403076 505.293945 2076.694336
-675.002197 509.012909 2078.061035
-743.133240 204.608826 1996.882568
-939.206421 347.378143 1871.617554
-680.861023 496.852600 2058.398926
-800.250854 151.575836 1947.108032
-877.286865 215.528000 1885.145630
-644.473999 308.427521 2079.906494
-676.822510 244.492310 2012.169067
-739.467834 283.635010 1988.409180
-746.472046 406.350891 1969.844604
-755.127441 488.212402 1997.829590
-930.930908 518.044006 2144.141357
-816.852783 549.221741 2091.063965
-862.997437 497.585571 1967.114624
-772.002197 441.399475 1942.702393
-798.249084 445.636139 1927.919189
-734.497803 482.472900 2081.413086
-799.802246 273.713470 1967.343872
-745.489685 463.445374 1978.273193
-778.373718 487.768188 1937.388672
-990.377991 469.673309 2144.933105
-886.284973 495.290009 1977.379028
-824.372437 498.193359 1934.857544
-761.602600 549.119263 2106.697266
-847.846375 313.693909 1923.768799
-682.966980 366.415314 2012.317505
-884.628662 474.513153 1943.989258
-591.698975 261.166199 2060.572266
-651.883667 522.865540 2071.302246
-695.689575 498.659729 2050.076660
-767.074951 503.613525 1980.579224
-711.071655 483.096436 2032.725952
-878.476501 273.154755 1897.853271
-775.519897 70.182861 2137.267090
-918.008667 339.454987 1851.718872
-848.609192 424.847015 1903.514038
-624.290588 310.972717 2045.990601
-843.756775 478.171082 1898.894531
-602.624512 202.152252 2056.615723
-746.684570 294.397247 1976.955322
-802.199158 503.489685 2050.140381
-853.412659 352.834320 1946.373291
-941.340332 370.876648 1860.662354
-768.405945 507.046356 1948.029785
-984.341736 445.215668 1997.375000
-733.750183 473.505280 2056.626709
-809.309387 443.505035 1920.216919
-809.585144 453.842377 1923.451416
-682.067078 479.962280 2050.241211
-761.709290 290.811981 1969.898071
-801.028687 499.326477 1929.630371
-767.924622 492.504761 1946.627441
-761.337646 193.766525 1984.483032
-842.924316 553.303345 2080.648682
-642.688477 240.400406 2028.021851
-695.463379 466.766022 2061.170898
-897.424866 231.582016 1904.350952
-704.650940 79.197075 1994.073364
-705.923767 440.030792 2028.898560
-736.095581 480.140961 2030.026489
-679.028442 307.587921 2011.564819
-692.977478 382.779572 2003.696289
-935.002441 433.756989 1888.373901
-837.386414 237.310043 1941.842773
-873.868103 196.779816 1910.687134
-806.727539 468.837921 1929.275635
-805.968506 71.178421 1942.530029
-791.828430 371.659515 1945.589233
-953.310059 429.371368 1862.631958
-660.543945 302.208466 2013.991455
-920.360657 491.368591 2095.812500
-961.679199 351.372101 1874.531494
-738.804993 272.600677 2002.021606
-741.681458 146.904800 1985.250854
-1115.710083 408.921814 2118.770996
-660.494080 507.370209 2064.015137
-721.692017 464.928009 2031.028687
-802.666382 266.119019 1956.140015
-767.185181 466.319916 2042.100830
-940.510498 458.118317 1925.197388
-698.736450 391.160187 2089.862061
-899.570679 488.833710 1965.973022
-785.525940 535.990112 1961.074219
-744.419373 567.088318 2120.233398
-798.352051 267.213379 1967.569214
-627.526123 199.685516 2025.960938
-749.152222 231.584717 1988.789551
-1017.876038 463.940613 2128.547363
-951.247131 495.505219 2157.948486
-710.856750 414.696289 2003.503662
-753.992737 517.612183 2104.721436
-938.515503 427.645630 1892.149292
-776.174500 532.577209 2118.044678
-836.543030 212.145309 1928.163208
-723.734558 281.773895 1988.414307
-752.419373 210.349533 1976.268433
-898.894653 558.004944 2110.003418
-679.449280 405.940948 2060.388428
-751.750244 448.211578 1957.806152
-1050.657471 404.885712 1999.077759
-886.763794 251.327866 1906.193604
-646.275391 283.114288 2027.103760
-700.160217 505.501556 2091.105957
-822.680664 544.616821 2029.151489
-809.501465 498.643433 2091.018066
-741.101196 201.538849 2001.908569
-989.136597 418.422607 1905.990601
-746.600342 188.870056 1975.180908
-795.964111 269.465607 1960.246216
-697.655457 376.533112 2064.791016
-824.859680 401.535980 1918.264526
-801.998535 523.957092 2012.468140
-584.802551 161.776642 2064.853027
-869.240906 493.934265 2010.097290
-1007.222900 480.870758 2127.793701
-770.984619 182.804703 1959.895752
-698.187317 441.656860 2044.864258
-823.043091 485.527924 1915.967529
-798.313477 397.841278 1922.464722
-632.909424 301.803162 2038.195435
-985.943604 426.524231 1952.904175
-665.033081 361.492767 2030.373291
-930.232178 305.814423 1871.041382
-608.287415 217.566864 2056.443115
-774.935974 513.463562 1943.406616
-683.714661 124.159370 2008.017578
-714.888733 470.692932 2038.065674
-833.616272 109.993828 1951.971802
-816.435303 488.246490 1918.990601
-745.302429 421.273102 1960.981201
-592.387085 194.246124 2146.908203
-820.829346 521.076172 2061.389404
-858.373718 510.166656 1956.839355
-948.800476 471.292816 1990.359253
-773.232117 500.644989 1953.792969
-809.977905 429.986023 1922.818237
-693.085938 328.993561 1999.532227
-894.136414 458.400970 1874.533691
-744.296448 470.429016 1964.927612
-954.437439 451.396362 1959.128540
-779.314697 175.757843 1964.990479
-670.811646 363.084259 2011.406250
-814.390259 431.660400 1920.613770
-839.617737 442.581329 1898.702515
-813.328979 438.746948 1929.411987
-876.232117 182.043045 1917.681030
-711.224487 392.986725 1991.647827
-723.601685 77.789688 1998.073242
-871.176636 239.194717 1920.386475
-951.320129 410.030914 1857.747803
-612.337769 254.563873 2051.465088
-1048.343628 408.269470 1968.497559
-596.848511 147.846024 2070.258789
-818.032104 155.363647 1937.182251
-764.527710 362.809235 1984.792725
-679.381775 166.956299 2023.303345
-737.246704 432.041382 1978.956787
-893.530273 507.764252 2029.871826
-811.606628 521.873779 2054.052490
-723.780334 193.470673 1986.769531
-783.046326 476.498077 1944.623535
-630.660522 246.565048 2035.578369
-804.731079 326.565369 1986.456909
-818.103394 388.860809 1920.155029
-726.752747 340.526611 1992.769165
-981.671265 388.976715 1859.180542
-799.095459 194.917465 1952.856689
-1046.525391 412.992676 1950.610107
-650.446350 501.304779 2071.796875
-822.541382 534.082825 2120.883057
-946.464478 428.953369 1892.349609
-922.626648 495.878754 2034.166260
-647.523682 249.403549 2016.436401
-688.137268 358.346558 1996.853516
-650.964111 205.924805 2013.658081
-913.963989 325.571625 1888.191406
-824.182068 539.029846 2048.124023
-997.571106 463.173370 2081.066406
-672.540527 388.111145 2024.703613
-836.854919 122.892853 1926.795288
-654.035034 303.841797 2131.802002
-760.762573 495.012604 1953.168945
-810.138611 545.343567 2163.078857
-1098.051147 396.750214 2067.825439
-752.192566 437.283600 2028.835083
-842.184753 496.838867 1918.127075
-845.175476 556.663940 2003.887207
-874.970459 246.739334 1883.814697
-637.887817 303.770538 2046.468140
-912.564453 341.774902 1878.476685
-792.720459 520.489685 1933.791748
-693.758179 393.525757 2014.421143
-826.944092 533.890015 2139.855713
-656.651611 341.923431 2099.842041
-877.936584 423.959778 1883.407715
-800.482178 505.323151 1943.133179
-960.315308 496.609039 2143.055176
-735.181519 156.226120 1989.684814
-816.697021 296.111664 1946.013550
-894.678467 293.336151 1893.465820
-920.419312 316.006500 1884.160156
-717.137329 414.990692 2005.546875
-726.463806 417.145844 1985.403809
-630.163452 272.775970 2058.928711
-819.654846 508.774689 1964.072388
-721.630615 324.919830 1996.565552
-911.305115 477.248840 1970.333130
-810.698914 552.842834 1988.615356
-848.147766 449.677704 1917.466553
-624.290039 294.982666 2046.873779
-859.519287 487.972351 1935.473877
-843.216064 537.772522 1991.798584
-692.792175 337.831238 2008.691284
-702.032410 102.163620 1995.470947
-857.723694 443.353058 1891.797852
-765.859375 311.294098 1986.263672
-878.918823 490.537354 1984.178101
-583.848572 215.421524 2129.143799
-741.683350 280.963715 1982.655518
-738.477661 392.773865 1976.580811
-1030.211426 451.592468 2098.980713
-840.673889 436.975769 1902.885376
-941.911255 447.188751 1919.619995
-696.002441 306.718079 2006.125366
-823.465027 178.955704 1936.530273
-1041.951904 446.216492 2103.692627
-794.141541 535.766357 1980.080322
-776.787292 262.483093 1969.116089
-802.897278 471.254211 1930.055054
-1085.822388 408.816620 2025.328857
-985.542236 475.042480 2106.700439
-681.408447 202.604736 2015.121948
-909.417175 490.278931 2070.165283
-936.065979 395.220184 1865.080688
-833.161438 570.549133 2051.025146
-995.141663 402.468292 1860.974121
-1118.489502 411.158173 2101.128906
-829.452209 516.997375 1932.012207
-798.393860 482.841827 1930.974243
-635.473572 272.839996 2042.248657
-664.162292 122.090515 2019.952881
-752.555969 425.454102 1952.239014
-837.982361 566.705994 2038.199097
-830.060425 531.110962 2066.332275
-853.114685 501.043549 1958.207397
-718.113403 157.644485 1998.569580
-985.179504 408.518311 1887.203613
-716.940491 107.203102 2025.219849
-768.011414 489.948944 1967.829712
-791.789734 148.685257 1952.765503
-611.438171 226.349167 2049.515625
-773.974548 430.673767 1938.646484
-868.707581 483.134918 1948.724243
-832.507813 482.112152 1931.078491
-928.571411 398.926453 1867.642090
-1015.882202 426.390137 1965.512695
-874.435303 422.397766 1887.962158
-793.809143 541.646606 1965.972778
-826.688965 507.542877 1929.687866
-803.925293 516.620911 1958.999268
-910.964172 315.025177 1891.370239
-696.860535 333.993713 2002.431030
-864.030884 524.020874 2143.526855
-787.924683 483.404114 1932.183594
-977.321106 424.973114 1902.374268
-808.027161 514.573730 2046.874634
-772.705627 92.546173 1979.660889
-922.089478 546.145264 2142.537842
-596.208923 223.269302 2056.516113
-777.361389 543.425476 1958.416382
-730.878723 287.321930 1995.553589
-639.766846 304.288055 2032.191406
-674.998230 518.339050 2070.662598
-780.395752 212.026062 1955.685669
-793.137512 391.019745 1940.905396
-799.704041 140.389526 1950.913208
-814.913208 549.022156 2058.685303
-767.826843 443.796448 1937.697876
-774.701721 276.831482 1971.530029
-691.155273 524.395081 2061.850098
-822.143005 532.420593 2067.790039
-741.803284 446.412567 1960.840820
-753.143860 467.265778 2056.072754
-1006.862854 400.309998 1912.400024
-742.074036 441.105133 1956.149536
-585.115479 261.319305 2073.603271
-991.490417 480.590973 2098.094971
-957.312073 430.143219 1865.022827
-867.660889 302.151550 1950.524414
-884.103394 494.252899 1949.247437
-765.637451 481.653076 1954.461060
-804.386841 455.147766 1922.569824
-1087.370728 423.895081 2120.367676
-689.642761 191.889801 2002.971191
-674.225891 512.923340 2081.513428
-879.866089 551.681702 2103.214600
-733.779358 418.420074 1978.638306
-672.067688 256.289124 2012.319092
-719.178650 296.451141 1990.225830
-869.114075 287.738556 1905.854248
-718.968323 349.103027 1999.336304
-933.711304 476.065796 2063.219971
-850.316833 410.853119 1903.785156
-830.125977 204.090683 1926.631592
-904.409485 442.377991 1872.023438
-822.855774 517.445618 2083.084717
-926.248413 437.282257 1873.903687
-807.134766 413.807861 1928.062988
-828.987610 358.432739 1929.728394
-784.132141 483.502747 1942.878784
-806.868408 95.666023 1942.279785
-710.893005 442.624725 2054.211182
-705.496338 484.820129 2061.092529
-794.650330 488.304962 1937.567749
-823.913818 473.443176 1914.709351
-824.953064 537.402283 2055.976807
-643.676880 309.863983 2108.678467
-831.624634 498.855804 1920.370239
-786.716125 96.576591 1948.569824
-804.933777 537.636658 1987.054688
-838.218201 428.401825 1912.562500
-702.157532 321.677032 1998.918945
-959.574524 403.631226 1856.905273
-745.161194 238.334625 1985.037476
-1041.162354 431.800262 2045.473755
-744.911865 335.700500 1976.978638
-668.972534 272.312927 2016.863892
-640.669312 159.457535 2024.762695
-665.928467 112.111046 2014.625854
-857.650208 257.089569 1933.232788
-880.104736 551.251465 2084.116455
-760.473999 511.670013 2104.086670
-787.772217 533.185730 2102.747559
-1015.870850 451.888367 2147.555420
-1037.573120 398.288666 1946.668091
-837.513000 240.291641 1934.827515
-759.899719 433.509003 1954.357300
-660.073364 283.051514 2011.474121
-981.010620 473.249695 2089.526855
-705.027222 485.454712 2062.613770
-677.402466 451.518036 2056.360840
-626.863586 270.784027 2057.821045
-1067.553955 411.812958 2007.432739
-844.509521 495.256958 1912.503784
-670.292603 515.256653 2082.308105
-778.065308 224.450562 1964.317017
-858.590393 380.238647 1898.848267
-863.603333 372.867371 1892.758789
-682.956482 346.804291 2107.006592
-673.668518 366.181152 2008.535034
-764.067078 556.362793 2102.164551
-726.225891 411.616821 1976.361938
-856.249390 166.276718 1914.978638
-580.480713 162.640244 2064.728760
-779.174683 192.126755 1972.493530
-624.282104 168.269562 2021.304810
-741.182373 202.383591 1981.167358
-826.009888 374.359863 1914.982910
-964.659485 497.208313 2155.178467
-785.465759 201.748474 1967.665649
-696.642456 382.553558 1993.854492
-957.136902 448.981140 1941.348389
-868.084351 474.751404 1898.318359
-770.161926 499.594269 2094.269043
-702.404663 266.194427 1998.249512
-663.612122 362.537537 2046.542603
-911.769775 560.323914 2132.566895
-911.624390 370.209656 1883.947632
-685.888611 376.135803 2036.752808
-917.839478 523.395935 2124.809082
-936.140259 315.943207 1872.353760
-673.283813 150.243301 2017.479370
-709.532288 491.700684 2072.600342
-960.659424 449.078613 1977.237671
-748.429199 488.508575 2026.778931
-897.772705 268.356903 1898.279297
-918.934265 542.666931 2164.664307
-1068.317871 415.535400 2000.276733
-823.820313 538.318848 1980.973633
-931.592712 326.558105 1885.313232
-836.034058 440.115570 1909.174438
-963.868896 386.270081 1854.754028
-875.486328 429.876801 1886.729736
-777.967346 558.472412 2134.651123
-748.655273 247.187225 1979.873413
-829.046082 376.161102 1909.413696
-875.538025 543.675293 2075.996094
-867.387207 388.283112 1895.670898
-999.041870 437.333496 2014.873535
-860.041504 446.221436 1902.261963
-730.439758 154.920074 2003.750244
-786.514648 423.288544 1931.847412
-829.756592 505.880127 1933.058472
-798.089783 549.614075 2002.041504
-725.822876 455.490021 2024.281616
-875.771912 469.171844 1887.789185
-850.701721 494.580536 1961.994751
-769.811218 494.298187 1999.319946
-802.590881 509.073029 2089.293213
-1027.119873 426.121338 2007.853516
-740.513184 467.705505 1990.609619
-1024.720459 433.745300 1999.907593
-693.426819 325.146210 2000.339722
-928.711182 494.842712 2075.885986
-822.604126 113.847275 1935.651733
-849.562012 478.525055 1898.235962
-936.163208 398.827332 1869.605835
-1012.071716 446.236145 2040.904419
-692.867249 499.269775 2060.848877
-663.670898 361.967499 2039.379028
-662.615356 378.129059 2025.725830
-783.930176 385.753082 1948.102905
-826.445374 549.626099 1995.535400
-734.731384 465.855377 1978.994385
-718.169983 298.506287 1994.729004
-642.221008 285.418182 2043.195435
-811.678833 424.784149 1930.123047
-951.423706 447.280243 1900.632202
-833.627075 498.079926 1940.032837
-706.002075 406.029816 2000.397339
-1050.206787 426.872437 2058.449463
-888.128784 334.403900 1893.395264
-926.821655 406.783081 1867.597046
-811.345947 504.985840 2070.032959
-914.195374 474.503296 1976.736816
-990.759705 408.527527 1882.795410
-994.268066 423.773315 1948.493652
-629.892578 269.204620 2152.956787
-1014.975403 413.705963 1884.001221
-850.358948 508.259491 1994.198242
-623.159973 218.478088 2029.132202
-775.376587 509.861206 1954.280273
-645.473083 286.032745 2015.543457
-639.670837 221.118240 2025.526978
-759.118225 79.913795 1980.474487
-948.202454 464.845520 1998.447998
-629.328308 313.463287 2038.158447
-1060.603516 433.141541 2055.701660
-728.302124 127.322815 1994.082275
-799.563171 205.249878 1968.589722
-640.331848 520.766052 2080.877930
-761.605286 486.059418 1993.731445
-763.804993 545.368530 2109.780029
-803.083496 278.292206 1956.383911
-606.471252 137.438095 2043.846069
-970.993408 426.275818 1949.709839
-732.041687 475.561615 2046.184326
-902.142212 291.939575 1890.356079
-891.721558 553.596863 2150.898193
-894.395020 550.959595 2122.708984
-732.347778 453.520996 2025.788818
-990.965271 426.183777 1940.259399
-816.003784 551.523376 2004.932739
-643.434814 146.172409 2026.302002
-633.008911 301.219940 2069.528564
-884.373291 222.545593 1901.647583
-721.701416 223.790436 1996.466309
-678.590088 470.770844 2045.742554
-682.890625 258.834351 2015.532104
-742.024231 315.034088 1993.127808
-695.419434 391.698303 2001.048096
-881.552612 358.418884 1902.999268
-846.494873 141.470795 1921.475708
-653.200928 322.861298 2020.144531
-876.443970 550.797485 2142.103760
-804.398743 129.082321 1937.441650
-1012.228943 420.226288 1957.519165
-708.628052 500.572083 2084.777100
-832.745728 196.370331 1924.905518
-827.948608 288.334320 1932.031006
-778.365173 122.805611 1989.461914
-958.714600 347.582611 1872.409790
-863.118286 494.639923 1966.204468
-670.265320 358.094391 2008.027100
-889.092468 368.252258 1888.206421
-859.951416 501.681274 1990.703003
-951.453186 498.530884 2165.270020
-643.691589 279.075378 2142.149170
-765.918640 280.254364 1977.137329
-699.917542 361.932983 2141.934082
-839.585083 527.472595 1998.094116
-904.650757 500.144135 2050.396973
-801.147583 551.302124 2097.593506
-930.726074 468.011444 1974.630127
-758.807800 319.485870 1978.006836
-893.116455 300.854034 1852.864380
-827.812195 555.082153 2024.641357
-883.356628 556.564392 2082.932861
-945.958618 402.888702 1859.755005
-754.455322 474.304565 2032.489624
-944.525391 463.137939 1999.763916
-808.243774 529.676453 1980.180908
-855.959351 459.213440 1899.990356
-723.279114 457.168762 2023.786133
-716.970337 476.486725 2058.240723
-788.086487 418.575531 1933.624390
-670.881958 302.417786 2002.560303
-743.114136 252.125885 1991.993774
-785.470947 502.415833 1939.198853
-858.539551 203.087418 1884.755005
-923.438538 513.204285 2131.248047
-967.258850 395.931244 1851.533081
-662.166992 508.328827 2098.829346
-841.643921 487.999023 1906.737915
-824.885193 164.459625 1934.981812
-614.896606 272.322693 2068.645264
-616.315796 270.604492 2082.635254
-745.503418 91.014450 2023.267700
-848.111938 413.547577 1902.009155
-861.166565 242.908569 1909.727417
-667.067627 367.165680 2077.654053
-848.655090 513.961792 2006.619263
-759.001282 84.582466 2005.407104
-682.032532 464.019348 2052.827393
-857.426758 502.063110 2012.186157
-841.352661 522.735413 2117.195068
-912.465881 312.473755 1888.307617
-1029.850342 416.964142 1983.350220
-781.486023 533.411194 2120.007324
-893.101013 497.880859 2068.116211
-951.863770 347.278046 1880.380615
-718.378479 211.956772 1991.309692
-807.029358 135.917679 1937.368286
-911.551270 346.962036 1879.626953
-577.417480 235.526825 2093.123779
-806.968262 261.320404 1942.317993
-839.685425 422.835480 1913.447388
-1015.582825 417.081482 1880.351318
-683.673035 518.546265 2104.230469
-902.285278 509.012054 2089.583252
-754.846436 390.868561 1971.182007
-912.979248 470.663513 1913.561157
-853.664429 156.125412 1912.947632
-860.692749 407.269409 1889.766479
-745.709351 578.552429 2117.738525
-846.651550 515.904785 1988.039673
-821.645813 283.285706 1935.489746
-619.589294 236.733597 2039.373047
-747.830872 80.905754 1963.201416
-648.673157 274.274719 2019.266968
-763.787354 360.532898 1978.207275
-803.698853 506.127594 1942.456665
-695.424744 492.972168 2053.633057
-792.783264 155.519623 1960.654907
-794.799927 499.745453 1929.720093
-780.694946 463.062622 1946.860352
-617.267578 255.245468 2063.681641
-574.393555 243.269165 2114.040039
-662.587891 309.048553 2131.614258
-1029.434082 429.379791 2023.906250
-808.613770 533.603760 1979.820068
-876.149231 297.267303 1935.936401
-650.541504 295.797913 2026.162231
-649.118713 313.772247 2012.326294
-849.538330 444.118896 1914.464600
-908.879150 516.105652 2117.779785
-591.330627 211.625534 2091.639648
-900.221985 400.061462 1876.814209
-638.710144 256.220306 2041.760864
-977.449402 474.955048 2088.662842
-849.033813 491.439880 1970.049194
-822.284973 521.475281 2104.833496
-725.320374 492.344116 2036.246582
-909.820801 394.733582 1876.061646
-880.303894 407.730133 1899.453491
-902.884644 256.058441 1878.747681
-814.864319 470.273163 1921.557983
-909.322815 486.150604 2004.225586
-796.382935 518.183289 1941.772705
-689.155090 361.563416 2099.230469
-944.121094 457.322510 1947.233276
-891.247437 232.726883 1889.487671
-910.670044 462.854767 1921.954834
-774.538818 471.464844 2034.980347
-786.767273 521.722046 2096.705078
-736.385803 435.244507 1976.688477
-717.735535 444.197845 2058.462646
-651.236206 276.824280 2019.042847
-645.443787 344.511566 2035.399536
-779.218018 479.559814 1958.364014
-595.691650 258.273621 2103.289063
-930.415588 444.134003 1875.082886
-833.887207 134.431244 1932.517212
-680.577759 157.159515 2009.923462
-695.858582 211.495087 2009.339233
-935.382568 322.000275 1873.196045
-706.512390 247.887711 2003.401001
-854.897949 339.488983 1983.437866
-775.946350 558.951843 2137.695313
-873.632080 275.815125 1915.123413
-767.446777 227.150192 1986.165771
-760.789429 405.186859 1973.610718
-701.598450 420.543945 2033.328003
-761.136597 461.993164 2060.567871
-924.432312 341.071228 1876.158936
-720.450439 430.529480 1987.152710
-780.153503 250.346283 1962.684448
-815.007568 457.157867 1919.186157
-871.169250 437.617706 1909.809570
-800.750183 368.462891 1950.785767
-846.071045 366.008820 1906.792603
-1021.807617 438.916016 2036.059570
-841.164490 473.920715 1912.310303
-908.733704 280.610352 1897.561523
-696.110168 281.363708 2005.915894
-923.807373 496.614563 2041.465210
-609.944458 207.804291 2053.356445
-722.284302 291.694214 1992.179688
-912.343140 302.695862 1893.190674
-879.517761 298.189575 1900.654297
-859.120239 538.253052 2110.818359
-824.604614 406.772247 1914.430542
-1066.950439 417.507294 1977.443604
-750.928528 530.643555 2125.744141
-713.919006 352.367188 1991.921387
-614.572144 272.214569 2056.541992
-926.657776 408.556885 1885.386841
-764.519348 359.285828 1980.338257
-818.025635 445.314850 1913.540771
-659.247559 488.205170 2062.278320
-800.425720 478.463501 2082.792969
-896.237305 297.793793 1892.218994
-1094.740479 405.435486 2072.893311
-916.836304 501.085846 2070.008789
-755.882141 191.646744 1980.555420
-802.131531 544.625366 1994.287476
-1004.109619 423.625824 1999.114380
-709.130920 308.828064 2000.593140
-648.323486 193.761932 2030.691406
-815.101685 534.107727 2069.330078
-830.266479 190.817093 1930.204468
-709.775574 412.083954 2006.692627
-692.394653 378.231964 1993.977661
-589.305786 170.235001 2118.868408
-908.514465 350.927460 1884.983154
-760.401611 129.434265 2012.714844
-828.022400 513.530396 1961.166748
-890.940979 466.233398 1916.212280
-759.507996 506.299500 2123.703613
-939.911438 390.577209 1865.175293
-873.702576 299.488831 1944.230713
-1025.931274 432.126801 2024.036865
-771.766541 442.638824 1943.097778
-931.003540 437.801575 1865.681396
-812.984375 374.567383 1935.631470
-808.258240 363.155975 1918.397583
-655.975159 139.067825 2184.243408
-801.240967 412.968903 1932.577026
-599.848877 240.456711 2059.204102
-733.831299 316.901459 1985.046509
-801.781372 83.890305 1950.364136
-615.283325 185.204117 2049.429688
-654.121033 363.808624 2023.548096
-1004.421997 441.579224 2019.115356
-673.335999 263.395813 2019.096680
-698.116394 95.107407 2100.216553
-883.939392 392.385803 1885.245361
-937.071777 444.826111 1927.826294
-871.054382 499.603638 1984.450928
-898.670471 509.807648 2040.786743
-951.394104 447.161041 1964.712524
-871.326782 565.276245 2093.500732
-686.470337 251.891663 2012.524658
-738.344177 492.937073 2039.078735
-1017.665710 434.962341 2018.283325
-768.798035 412.467224 1950.560181
-809.174438 516.266113 2066.665527
-759.324646 61.710354 2082.526123
-1076.095703 411.018829 2003.100342
-742.163574 381.433258 1980.860229
-851.246033 238.701477 1921.704590
-893.612610 232.241440 1908.796631
-803.358948 501.349762 1938.325073
-789.876770 325.728546 1955.628784
-844.590088 524.795471 2148.157471
-709.751038 334.656158 1994.893677
-590.743958 258.688263 2101.073975
-767.705444 415.041107 1948.615601
-854.811890 419.759460 1898.586548
-834.073120 535.800842 2153.638184
-750.016296 393.320465 1963.665161
-729.117981 123.461510 1989.285522
-768.272583 508.299927 1991.287231
-1058.893555 428.159119 2038.839478
-651.989929 326.646729 2025.085938
-697.438049 164.729919 2017.660156
-697.584167 392.157043 2002.490356
-929.035095 293.891052 1881.605225
-609.203491 257.965210 2051.381348
-633.229004 118.420242 2027.644165
-734.677002 214.300018 1999.030151
-831.526306 513.906006 1972.516479
-865.214905 553.207825 2102.830811
-832.575745 555.261719 2033.567993
-873.006470 257.893921 1904.411499
-699.933289 258.053497 1999.651855
-761.752625 494.526459 1975.837280
-989.134888 424.269196 1862.954590
-792.456116 234.147751 1971.990356
-897.824158 405.926453 1880.992065
-602.352173 227.753754 2059.900635
-692.906799 384.078186 2035.244019
-855.103699 514.663452 2020.582153
-791.924561 108.817146 2014.177734
-828.184937 529.326538 2110.434082
-809.540161 185.253418 1947.114746
-890.298950 212.841080 1910.365601
-588.770630 196.382843 2055.961182
-849.303467 274.754211 1931.955322
-718.852661 493.890900 2076.877197
-715.973511 313.201599 2004.156982
-680.598206 379.773865 2003.743530
-778.801025 128.499542 1958.913940
-785.266785 173.666580 1982.036621
-885.912476 539.765076 2090.330566
-739.669617 396.699646 1976.890015
-798.539978 477.731659 1933.151611
-734.567993 417.473480 2034.370483
-568.334717 197.890793 2074.723145
-778.797974 476.004059 2047.983643
-721.810486 445.151642 2027.493530
-697.507751 340.755341 1995.944092
-816.780029 408.961151 1924.269409
-603.032898 243.329956 2077.141602
-814.385376 413.519196 1923.096558
-823.713989 437.590088 1904.087524
-872.011169 553.238831 2062.858643
-807.139465 512.820923 2065.879639
-841.217834 267.937592 1946.730347
-612.035767 283.073761 2070.349854
-694.331177 218.782715 2001.154907
-730.111206 479.771667 2070.352783
-611.195007 249.473724 2055.144287
-913.249084 496.213104 2051.163818
-1040.577393 398.862000 1959.277832
-779.782349 446.512756 1937.840332
-953.011841 488.902008 2061.952881
-714.477966 457.111633 2038.648682
-912.734314 443.674072 1899.426880
-753.346924 148.019409 2026.578369
-792.043640 452.715240 1935.831665
-851.213501 445.068909 1897.650757
-836.210815 368.784210 1969.084839
-709.316406 169.292801 2002.546631
-794.692505 315.123108 1958.381714
-748.298035 484.575867 2029.513306
-957.189026 439.903046 1974.101074
-773.866638 495.811066 1947.787720
-884.885559 207.487579 1910.786133
-787.057739 187.607407 1969.733887
-716.231995 396.857269 1983.526611
-895.604065 335.948273 1892.621948
-760.750244 498.640869 2118.675781
-867.010315 364.842834 1898.658813
-767.376831 68.852798 2119.420166
-795.226074 512.311646 2032.368286
-769.828186 545.134888 2128.277100
-827.481873 494.670593 1914.957275
-745.373230 93.531319 1983.614136
-978.456421 403.282684 1864.430542
-764.121887 533.985840 2115.014160
-898.173340 415.088867 1890.311646
-638.352844 523.569092 2085.716553
-854.502197 522.170776 2023.661133
-882.448059 278.679565 1859.411621
-653.532043 215.739487 2012.005005
-821.156250 552.113220 1988.422974
-841.727905 540.177917 2085.721680
-776.506409 487.077606 2015.968994
-807.500549 120.090073 1938.642700
-1012.627930 462.300629 2113.103516
-681.956177 371.157806 2032.363892
-751.999268 469.523010 1957.443604
-953.710205 396.163147 1853.791260
-657.151855 518.271851 2064.031250
-916.902405 504.057220 2095.000244
-699.524109 510.313324 2099.415283
-741.946838 53.409687 1974.796631
-973.385437 403.708435 1878.354248
-725.015686 232.612595 1988.394531
-675.214478 368.332092 2051.085205
-654.540649 523.903137 2084.782715
-605.190918 212.320358 2045.474976
-819.293945 258.965149 1945.538818
-841.960510 367.514313 1908.398926
-722.050842 254.015778 1995.353882
-699.554504 263.041382 2013.998779
-834.659485 544.317749 2071.015625
-792.050293 193.577988 1965.594971
-932.523499 324.838684 1876.959717
-755.952026 120.615875 1972.421997
-899.535400 283.503571 1899.931885
-799.091003 490.418884 1936.041870
-846.142395 213.088486 1924.787720
-801.152527 276.723602 1967.301636
-661.686768 364.007721 2034.335938
-1088.911133 402.093811 2040.715942
-977.554382 445.020508 1977.431519
-741.392883 430.379974 2024.172241
-772.293274 508.989685 1972.230225
-828.504700 294.705322 1942.801880
-811.893250 240.747116 1936.527588
-1073.576172 421.847992 2047.175171
-793.441772 487.527649 1927.111206
-1006.375732 459.165771 2103.933105
-883.603271 443.568451 1887.114136
-693.124573 155.588638 2000.894165
-711.795776 412.872009 1986.196411
-953.039978 397.703278 1878.625244
-770.658081 254.699158 1967.261108
-813.198730 275.930481 1952.367920
-743.317505 482.535217 1971.909180
-829.363525 441.136139 1911.000610
-975.678467 399.197906 1865.286865
-973.454956 385.513306 1865.185791
-784.960999 511.641571 1997.002686
-899.221313 481.293121 1992.714355
-816.586609 442.429352 1929.961182
-599.210449 242.765488 2076.566162
-961.722412 480.333496 2079.019287
-638.594604 305.120087 2022.666016
-606.077881 207.746613 2030.645386
-871.589966 503.363403 1996.862427
-762.008789 77.377922 1973.335449
-830.487732 494.798401 1921.039917
-916.995667 547.590332 2158.458740
-921.063232 494.996765 2068.793213
-673.756409 521.358765 2103.293945
-871.490112 493.784821 1984.250122
-1005.486755 454.956299 2063.661133
-792.419189 505.100891 2028.466919
-698.894775 372.924164 1992.325439
-802.062927 521.837402 1963.721924
-966.400696 447.324036 1949.325195
-717.688232 191.643967 1993.514160
-809.612244 508.853790 2064.036621
-812.478088 533.899841 2043.911255
-847.971863 207.308701 1921.562744
-639.356018 530.386108 2084.718750
-1017.331543 457.880310 2106.942383
-911.582092 495.581024 2046.227783
-694.300415 337.946045 1999.177612
-912.004211 312.160919 1890.550415
-761.191772 308.505341 1972.099976
-716.832642 106.579224 2004.165771
-750.735657 416.185883 1964.287231
-768.643860 503.891510 1951.833618
-807.214172 78.013603 1946.012085
-700.031677 191.048874 2007.384521
-722.813416 291.745392 1988.740967
-801.511108 161.541534 1949.773682
-749.537170 189.793442 1983.308960
-906.088257 385.803131 1882.459229
-764.258911 476.828125 1957.643433
-627.331848 237.572693 2036.844360
-1049.379150 425.136017 2005.080078
-839.974121 381.165161 1918.543335
-655.227234 279.934448 2017.053589
-768.931030 575.927551 2115.366211
-806.075989 434.545929 1919.681396
-736.628174 227.687241 1984.971069
-1018.957092 415.138062 1890.069580
-982.410950 485.721802 2100.216064
-808.568176 438.699493 1924.058594
-789.196960 425.647369 1938.991943
-911.076904 274.315277 1896.272217
-756.655762 414.175232 1953.359497
-849.470276 549.075378 2091.872314
-905.359985 499.268097 2049.026611
-722.941467 442.934723 2023.934570
-922.526794 498.909241 2046.010498
-669.159180 113.784615 2017.539795
-921.619446 474.097809 1989.245483
-749.198608 389.141357 2127.854004
-908.533630 487.747742 2009.116333
-637.905029 127.815262 2040.140381
-811.674744 437.730316 1921.694458
-806.781616 543.889954 1988.645996
-611.556763 195.612732 2046.508667
-775.130981 445.042938 1948.672363
-736.310791 368.187103 1985.863647
-837.567871 531.896545 2117.416992
-608.336243 223.740952 2068.786621
-725.758850 484.217712 2097.022461
-752.164063 120.746880 1985.192261
-1016.774841 408.319153 1907.660522
-975.918396 428.401459 1837.442993
-653.332214 356.235748 2051.300049
-1028.236816 404.773407 1941.823975
-754.169617 430.699219 1957.096436
-749.839172 66.300980 1967.108521
-659.331177 144.105621 2187.426514
-921.110596 406.682709 1868.680908
-853.289307 261.662659 1938.191528
-765.217712 137.619125 1959.878906
-928.588196 484.461243 2036.288696
-767.272766 496.671326 2029.798584
-599.468323 261.765656 2071.616211
-953.334290 362.806458 1849.607910
-839.827454 558.283569 2030.747314
-811.730469 290.530701 1952.080811
-847.774353 423.128113 1909.572754
-963.450562 453.751617 2001.065186
-733.793274 346.339630 1991.791260
-784.939453 434.758575 1938.949463
-710.637878 418.668121 2042.201538
-941.355103 483.429962 2020.876709
-677.758850 284.731720 2009.504639
-698.188843 362.691223 1985.920898
-1111.339966 403.808655 2120.130371
-928.571472 507.960632 2117.752441
-808.238159 256.183502 1940.904053
-816.653259 421.013336 1930.504761
-740.341492 290.664948 1991.073975
-969.021667 402.396149 1847.642090
-999.129822 450.643005 2041.725342
-852.615784 432.203705 1913.012329
-922.735535 312.119080 1862.167603
-865.466187 527.278564 2045.104126
-856.287720 404.753143 1905.993774
-641.165649 275.997833 2135.605225
-895.369446 452.228516 1904.562378
-629.931274 320.087463 2053.473145
-676.391296 393.048187 2037.861938
-625.012146 498.150238 2078.433594
-758.094238 473.502930 1957.741577
-779.610046 469.610443 1938.881836
-812.593384 542.712769 2136.307373
-804.990845 517.091064 1963.197266
-794.802490 495.068359 2091.443359
-777.628235 423.985596 1938.929932
-804.665833 536.697754 1980.321289
-870.638306 507.957703 2033.966431
-925.989807 493.150604 2070.581543
-921.400391 337.142853 1881.398193
-588.312622 278.739990 2093.748535
-714.174255 425.995026 2020.857300
-867.856079 222.146576 1916.182007
-627.984924 275.026306 2064.983154
-661.528137 291.379211 2006.571289
-829.188049 166.552216 1927.530762
-756.060547 319.408813 1983.758667
-817.759094 398.927673 1916.826782
-788.256348 509.832092 2018.826416
-989.320801 493.708038 2138.791016
-736.938049 140.403397 1987.327271
-691.592224 231.850235 2011.219604
-586.256348 212.237778 2104.669922
-756.484558 149.026260 1993.943237
-751.345642 348.553070 1973.287476
-1026.046875 457.638367 2120.895264
-842.355530 416.884125 1908.744995
-700.301941 375.840332 2119.672607
-628.745911 139.698486 2036.426147
-594.863464 186.502960 2035.125000
-709.467529 233.389908 2019.152466
-827.059998 518.094604 2108.583008
-1022.840332 419.364319 1980.949097
-740.260254 151.271530 1982.892700
-773.612061 396.348206 1980.690796
-598.089905 161.021301 2043.149414
-974.962158 412.683807 1884.838257
-766.069458 537.964539 2110.211426
-649.547119 271.836700 2019.954956
-841.625061 468.567413 1917.226318
-786.073792 311.481354 1966.935547
-801.355713 161.370163 1946.752319
-938.173035 433.682739 1860.588623
-788.606201 382.473358 1955.029175
-907.066223 278.585419 1867.948608
-686.068359 466.233398 2061.286377
-668.450073 518.358643 2050.234131
-871.374512 381.639709 1905.685059
-700.146484 475.530029 2102.608154
-800.099670 211.738480 1967.237427
-808.583618 198.419754 1951.868652
-715.915283 386.507813 1983.429443
-881.340027 327.029663 1898.331909
-858.406982 269.925201 1924.277344
-840.160278 503.475525 1974.839478
-630.998596 199.674835 2043.007446
-683.398499 119.095413 2006.395630
-793.963257 273.391785 1952.036011
-717.726746 162.303070 2005.327393
-842.933777 393.237152 1905.161133
-896.446350 478.871094 2008.568359
-818.901367 514.648682 1941.223145
-935.732910 478.122345 2032.246094
-773.537415 496.734589 1986.076904
-962.203979 480.574005 2091.823486
-847.335022 530.019165 2005.339966
-724.719910 420.101959 2041.778564
-805.102539 530.900146 2102.397705
-837.829224 439.978699 1900.757446
-745.030579 533.100342 2120.499268
-838.246704 378.273743 1909.019653
-748.620422 469.573273 2056.485596
-883.405396 257.902039 1910.860474
-1026.725220 426.261688 1982.212402
-802.373596 143.470901 1944.815918
-739.967773 287.055939 1984.979248
-798.303589 472.307159 1931.341431
-796.775391 315.118378 1977.603882
-912.459290 395.448761 1881.957642
-724.676453 453.640686 2033.871338
-811.466492 220.470642 1947.288208
-693.006470 133.526825 1997.914551
-759.818115 448.067932 1950.051514
-606.387634 264.118622 2048.049561
-723.055359 417.375153 2005.644897
-1055.804321 425.485413 2026.987549
-820.715210 514.582153 1944.211182
-768.476013 487.480713 2016.346924
-834.076599 574.736816 2007.694580
-890.455139 466.688416 1922.249023
-813.981873 228.215286 1950.498413
-982.471680 497.784760 2141.896240
-781.550110 79.905594 1956.649048
-981.348145 458.694366 2001.132690
-613.141296 267.696472 2047.819458
-1044.794556 428.367279 2047.148682
-630.477722 487.283295 2074.205811
-741.655823 440.639435 1988.646606
-852.867615 413.314514 1894.978516
-793.966614 206.428009 1960.964233
-702.029297 516.968811 2059.534668
-618.045532 258.328400 2108.888672
-1048.781128 396.630402 1997.071777
-1087.978149 423.768799 2104.092041
-734.165894 137.256546 2005.934204
-695.246826 395.310852 2013.479614
-801.621460 401.672668 1924.819702
-607.846069 158.870605 2033.802734
-596.154053 255.085709 2101.289795
-751.442078 387.970978 1973.413574
-679.965210 279.347168 2011.605225
-923.785889 331.742188 1849.063477
-815.075745 363.514801 2007.744507
-957.368408 346.437561 1861.560425
-945.906555 496.963654 2134.835205
-826.341614 544.280396 2008.823242
-715.604004 276.575714 1998.207153
-759.885498 198.643478 2009.008423
-918.335144 480.928253 2018.638672
-649.369141 481.776764 2067.093994
-1058.693726 440.103516 2074.112305
-797.273254 483.097717 2066.294434
-842.656738 172.255447 1923.826172
-684.775024 85.264839 2002.281494
-852.116211 337.603516 1951.551758
-809.332458 411.082520 1912.252441
-784.474976 127.405655 1958.517822
-624.030518 232.286377 2042.307251
-1053.209595 437.938538 2058.390625
-946.880859 315.279205 1887.786987
-878.054321 493.945831 2026.370972
-844.385681 441.717896 1895.998535
-686.005249 124.288269 1997.920044
-786.611023 448.204224 2102.859619
-755.729614 320.447937 1975.540527
-1003.431885 410.082153 1898.472534
-790.874390 178.948883 1945.117310
-756.739319 469.269440 1996.818726
-799.141113 536.434998 1966.278198
-663.106750 222.514175 2017.333862
-916.630920 409.308411 1873.289551
-748.064148 109.938225 2219.956787
-864.739380 346.517365 1921.555786
-730.492249 527.297974 2118.357422
-675.158508 91.228142 2006.639893
-755.326111 444.135468 1951.609131
-915.342285 414.562439 1871.274780
-701.379517 393.878296 1999.743042
-999.794800 467.901825 2107.384521
-884.964172 553.471985 2151.510010
-895.282898 225.559219 1898.070313
-874.672974 288.439941 1908.135620
-710.823303 263.335022 1995.397217
-803.032166 349.643250 1983.762695
-916.871826 471.173920 1978.340576
-885.050598 331.654633 1896.731689
-783.334473 116.568260 1949.945679
-876.492004 303.774658 1916.284180
-653.763367 156.475037 2024.321533
-931.285828 354.093170 1873.318237
-871.288025 254.123871 1908.016968
-723.686584 426.230988 2031.757080
-1077.501709 406.643707 2062.007080
-868.683472 482.715637 1904.374756
-1030.168213 411.298767 1969.200439
-770.111145 248.320435 1964.179199
-772.896667 194.863708 1959.777832
-1068.511353 417.126831 1997.490601
-781.434326 415.192078 1934.592773
-889.615112 437.861603 1882.614502
-761.523376 446.379791 1950.998779
-745.219788 460.796936 1988.138184
-703.557678 373.289185 1997.032349
-750.132568 464.695496 2012.738159
-580.863647 179.661835 2099.696777
-614.968811 226.185501 2052.501953
-627.685974 248.013580 2038.413208
-660.509094 324.507446 2043.904297
-774.976501 258.424652 1962.063965
-903.966553 387.249512 1891.206787
-579.011353 260.635529 2115.615234
-850.021790 506.147217 1977.144653
-764.940613 106.178734 1956.120972
-587.823486 171.094757 2111.800781
-853.496399 320.072357 1916.051270
-1037.426392 438.132599 2033.694336
-814.184753 285.144409 1949.019531
-894.894104 538.698242 2169.069336
-737.312988 469.868256 2004.851685
-870.681946 212.749619 1917.402466
-875.687439 241.316788 1909.518433
-780.124634 176.868500 1987.335815
-703.508118 300.037933 2002.481934
-873.592224 450.446442 1911.439697
-778.866028 486.580078 2029.526978
-643.365417 189.926544 2030.346924
-900.718567 306.461365 1894.477173
-636.636353 508.281128 2080.687988
-685.419067 236.437347 2005.138794
-758.129822 481.285187 1954.444092
-626.769470 200.421570 2021.874023
-1093.163208 415.978790 2099.318115
-834.293762 362.644409 1923.794678
-794.542419 90.337128 1944.384033
-861.251587 418.092987 1899.022827
-677.814697 328.911041 2001.241455
-822.274658 127.304688 1935.835571
-845.720459 553.567566 2023.963501
