ply
format ascii 1.0
element vertex 1362
property float x
property float y
property float z
end_header
-723.625916 1866.467529 954.448242
-853.220276 1912.256836 718.551331
-865.127686 1719.056763 918.888184
-795.845093 1725.892090 977.075378
-858.067627 1703.442871 967.143860
-719.029053 1842.697876 811.582275
-827.169373 1714.476685 971.085205
-826.815918 1778.170654 854.943848
-709.976379 1826.499390 872.212219
-793.452881 1799.579834 851.005066
-950.039368 1732.696533 1172.609985
-733.923157 1914.933716 887.095947
-721.996033 1865.831421 772.275269
-957.623901 1993.006592 705.737732
-754.907471 1740.554688 991.023132
-887.758179 1785.666260 697.590759
-788.170593 1995.488770 831.239380
-836.137085 2023.920410 823.436584
-766.431641 1735.864746 999.587646
-695.081482 1853.902954 839.155762
-824.508850 1786.947510 868.132080
-747.914673 1877.205078 758.092590
-672.837036 1934.064697 839.532104
-897.476929 1611.140625 1064.469360
-752.665039 2023.058716 919.880859
-801.138916 1781.481567 787.205139
-835.978943 1791.218994 781.488281
-685.961975 1890.826538 965.216187
-956.720459 1984.133179 698.017517
-1005.546570 1603.856934 920.945313
-739.634033 1792.447876 942.787415
-782.974976 2088.867676 895.019653
-922.731750 2006.323242 750.859924
-756.775391 1956.088501 812.972290
-794.549866 1953.966553 782.618896
-829.814880 1669.492554 1107.798218
-934.293335 1736.972656 752.050110
-941.608032 1641.099243 1004.371765
-749.245972 1913.171631 788.286499
-921.541504 2072.021240 807.655396
-719.217957 1837.233765 809.576111
-838.003906 1665.728882 1037.872925
-893.249573 1710.487061 1172.234131
-873.551758 1738.207397 852.375061
-798.159607 1900.991821 727.673279
-902.054077 1783.339844 728.536255
-901.127502 1698.637695 969.641968
-667.271179 1912.757202 988.095032
-810.140869 1804.780151 749.106628
-837.221802 2043.058716 840.604370
-746.290100 1768.086670 966.016235
-707.304443 1939.349365 823.520081
-678.019592 1877.265259 836.318787
-861.827271 1761.095581 869.645935
-754.010498 1812.968018 869.776611
-871.021912 1972.597534 743.249756
-714.259888 1916.719238 889.236023
-870.526794 1880.132202 645.916199
-701.752502 2035.898315 948.795227
-710.155151 1891.679810 800.868042
-813.416321 1726.345337 1089.938965
-687.494263 1985.540771 956.484863
-711.852051 1904.539429 800.598267
-800.794922 1948.578979 765.116882
-846.469788 2014.437012 790.803955
-881.631226 1974.131714 728.360168
-932.473206 1696.672607 772.152588
-784.064453 1937.979370 774.896240
-720.612366 1971.243408 930.072388
-878.044983 1805.679199 720.971069
-804.733093 1746.654541 937.701111
-970.054504 2058.503174 758.948853
-698.838806 1857.307617 819.955505
-699.705505 1930.162720 851.731567
-777.914185 1813.255981 876.248291
-878.757019 1780.116211 734.971558
-770.443604 1842.596313 747.009949
-873.732056 1706.026733 939.741821
-631.098633 1909.319824 1002.170288
-732.949219 1812.630249 942.784424
-949.729675 1714.005859 798.492065
-740.866028 1829.878784 938.730347
-955.688354 1669.843994 879.010193
-718.317932 1966.346680 873.582336
-732.507568 1805.135254 953.233215
-792.372375 1726.744629 1020.697937
-767.652344 1805.313965 821.950256
-1002.997009 2079.239258 734.183044
-704.293030 1867.986572 926.551086
-693.126221 1886.606445 844.492249
-849.459961 1743.400635 883.993591
-701.966736 1844.253662 852.358032
-768.512695 1834.725464 998.507629
-850.257324 1794.168213 759.003052
-839.082581 1801.028076 712.283813
-770.463501 1849.192139 728.031128
-774.144775 1826.838257 759.096863
-812.344360 1784.594604 782.171326
-829.756409 1732.790649 1087.858521
-842.937073 1824.552124 839.527100
-870.917847 1870.836304 641.804260
-812.498474 1712.890137 1055.704346
-797.692139 1826.481323 866.624756
-715.919006 1958.163696 818.651855
-835.827942 1877.469482 685.787109
-808.364746 1929.741943 755.957092
-787.625916 1803.356689 843.408203
-758.110168 1803.145630 839.633972
-995.804688 2086.921631 720.326355
-969.849792 1623.423096 841.898010
-757.249939 1809.008301 972.844360
-867.886719 1743.524780 870.683350
-853.093811 1712.392944 975.247131
-668.909790 1904.810669 983.885559
-849.194153 1766.562500 839.031860
-733.524414 1852.127563 908.044800
-750.198669 1796.356934 946.509644
-850.466919 1982.671387 772.400269
-896.167847 1712.011719 884.280151
-804.615845 1836.463745 701.228760
-769.645691 1809.514404 854.261536
-717.753296 1823.912476 876.025330
-829.586975 1931.884888 733.859192
-804.280090 1720.200562 1033.150024
-930.755249 1967.854492 706.883606
-740.583069 1848.529297 978.454834
-914.604309 1628.823730 1048.549072
-746.660583 1868.255249 747.423462
-838.459534 1800.951050 739.203918
-840.474060 1790.294678 770.037659
-834.028503 1866.427734 678.625916
-906.302368 1723.423706 852.409912
-863.126282 1922.195801 710.556458
-840.870239 1711.607422 1141.333862
-751.346069 1817.833252 818.917358
-771.979614 1826.080566 796.710327
-905.325439 1611.789063 1052.947876
-886.302979 2056.495850 817.351563
-853.625916 1956.449219 728.889648
-891.195862 1748.067139 833.481628
-743.447571 1786.394775 945.891541
-984.698120 1625.602905 903.664490
-711.082825 1952.179443 823.713806
-727.386780 1843.102783 800.339050
-806.275208 1702.203613 1107.514038
-695.866089 1889.660034 850.871216
-902.421875 1697.183105 929.783386
-973.338013 1656.256592 865.311646
-873.660706 1667.037720 1038.068481
-875.767029 1738.194214 891.380127
-969.897156 1661.806152 849.724731
-861.207520 1826.719849 664.418457
-863.088745 1717.020020 931.122803
-751.594116 1827.191406 800.754578
-850.619446 2078.949463 848.279236
-882.683350 1806.150513 678.041565
-863.744690 1872.007080 640.815796
-671.940735 1903.275757 840.598999
-775.830139 2072.593262 894.729797
-981.249023 2071.809326 758.953064
-925.736816 2063.081543 780.146240
-817.578613 1715.018677 1071.687744
-754.651306 2034.913940 880.303711
-826.494263 1766.785400 911.366272
-826.099426 1762.118896 886.995728
-941.900269 1613.994629 1034.088745
-659.221680 1891.633911 978.644470
-903.939148 1701.598633 877.834961
-750.695557 1939.859497 805.378723
-697.424500 1891.531738 952.656799
-905.724426 1644.051025 1014.421326
-732.301208 1826.186523 902.101868
-834.667847 1724.868042 1125.230957
-686.653137 1921.136963 823.425903
-807.457947 1803.871582 765.285767
-802.852966 1967.049194 789.608826
-700.790405 2016.409302 958.692993
-883.457947 1817.728394 691.540405
-961.370239 1614.429565 836.244873
-734.517578 1993.610474 894.230652
-977.090088 1688.817505 819.781738
-786.407776 1800.898682 788.908997
-756.532959 1977.088501 831.755310
-785.944702 1728.862061 1021.668518
-879.648315 1755.367798 852.294861
-670.923218 1909.654785 1013.809204
-980.156494 1643.945068 971.577515
-849.378662 1797.726318 730.360779
-891.009094 2006.025269 766.755188
-714.748352 1852.903076 960.137146
-881.623962 1633.620728 1046.630615
-809.794739 2089.315674 873.841614
-815.986572 1796.969604 776.748657
-888.724915 1812.165771 696.713074
-720.104797 1869.580811 938.032593
-837.384216 1965.836426 782.453186
-1035.981079 1612.290039 985.830933
-743.206055 1834.648438 824.179871
-800.447632 1800.085693 820.110474
-850.810303 1819.974365 688.276367
-902.348389 1745.420288 771.860413
-941.644165 1650.074951 945.140564
-837.170593 1755.777954 892.097656
-750.074951 1799.557373 900.921936
-730.356689 1807.911621 887.825195
-890.282288 1720.000244 876.574768
-934.999573 1695.106079 868.532043
-775.444275 1830.638550 745.139160
-856.756287 1792.109741 788.711853
-837.387329 1797.689453 750.299133
-870.777161 1726.174805 929.577820
-763.783386 1784.284058 963.913330
-726.952515 1966.313110 867.393311
-760.023987 1883.215088 748.235596
-807.167664 1704.531860 1076.304810
-692.999207 1926.716064 982.996094
-846.438049 1739.563843 952.901062
-844.435181 1796.365112 767.365723
-855.666870 1813.140747 663.208984
-938.252441 1732.513428 759.321045
-676.950134 1911.518555 821.253113
-695.758789 1929.844238 819.433167
-831.654480 1742.796021 1114.794922
-821.433899 1978.547119 790.745117
-787.380554 1822.888184 872.836853
-895.327759 1965.570190 719.019897
-857.869385 2074.569580 853.986206
-774.349426 1750.773804 954.521912
-857.105713 1654.884277 1037.495239
-886.942444 2032.293457 790.212402
-1014.248474 1624.073608 890.330750
-868.569824 1702.524292 935.109802
-935.296753 1975.169067 688.336975
-737.775330 1815.952271 911.488220
-743.199402 1951.230469 889.106506
-771.001953 1794.897461 808.013733
-782.142456 1918.232422 765.271973
-818.876770 1868.460938 693.430115
-827.286926 1695.282715 1059.101929
-841.090271 1966.913208 770.122070
-809.129456 1747.510254 944.754578
-740.404541 1841.218994 787.966187
-992.088867 1612.158081 867.709778
-880.565308 1796.698608 735.700500
-976.617004 1649.120483 842.269897
-727.779358 1875.839478 886.546753
-685.020935 1874.913208 945.766418
-694.755737 1883.996826 810.332764
-769.295532 1805.397095 825.867188
-926.210205 1961.351074 695.635803
-748.846619 1944.074219 933.341248
-968.672974 1626.482788 839.813904
-824.922607 1934.684692 973.485840
-825.233093 1803.120850 720.758972
-905.942200 1970.822876 717.922668
-730.822205 1950.493164 880.718262
-770.505615 1733.177612 994.420959
-783.414429 1762.467285 932.887817
-845.933533 1879.849609 674.342285
-716.993347 1853.697998 785.348572
-927.236694 1996.066284 727.842407
-826.211670 1827.869629 701.900757
-806.637024 1682.586792 1128.949829
-912.926086 1718.857056 883.849426
-731.169678 1822.494019 912.591431
-771.640442 1747.579712 972.062927
-763.129700 1746.167969 984.142334
-909.183594 1650.611206 979.082947
-811.993713 2024.476929 843.225220
-860.600220 1632.039551 1086.799805
-1013.380859 2072.196045 749.702820
-751.182922 1824.817261 787.649109
-726.228943 1877.919067 771.852905
-724.165527 1898.681152 889.352234
-744.034180 1821.031738 814.387939
-731.223633 1997.975952 889.613647
-747.574890 1975.016357 901.833923
-848.557983 2043.978149 831.374695
-757.993042 1855.868164 717.333557
-722.789246 1825.771851 859.007263
-756.090576 1854.842041 775.778015
-761.326477 2041.800049 943.167725
-799.366577 1906.694946 737.364319
-814.573547 1943.509155 763.040222
-1006.672119 1639.272949 863.147705
-693.124268 1894.348877 947.181824
-819.475159 1943.878784 753.976135
-853.037903 1707.515869 947.507202
-700.449951 1969.538452 830.315186
-955.293335 1708.128052 796.305603
-685.172424 1898.314087 952.664063
-800.002380 1721.887573 977.153442
-885.778198 1910.413818 681.297424
-1027.479248 1667.190186 1045.381226
-709.253662 1886.470215 880.434387
-904.102966 1747.749146 774.709473
-649.057983 1879.768311 1007.620117
-802.155396 1719.883423 1099.147461
-801.799805 1746.724609 940.552063
-739.787659 1913.130493 785.247314
-694.803711 1902.558838 853.111389
-837.204895 1790.895752 821.366882
-770.140747 1976.852295 815.351135
-909.058472 2026.414429 767.482239
-798.445313 1907.761719 735.168945
-751.352966 1970.372437 894.881348
-782.679199 1767.508911 945.612183
-734.446167 1817.003174 873.354858
-846.396912 1757.889526 887.333618
-708.553833 1847.336304 848.694336
-810.982361 1738.544434 1041.097656
-743.279968 1909.378296 926.936340
-882.838745 1706.642212 957.740540
-737.561340 1782.271362 965.714233
-835.979858 1666.957886 1060.668213
-1029.312744 1604.189575 900.506653
-922.869019 1718.515869 797.633057
-838.402100 1783.518555 830.449951
-796.811462 1745.561035 1056.172119
-1043.506714 1637.038208 1004.293335
-751.041931 1995.952759 907.462463
-938.020813 2004.298950 728.078491
-897.601379 1700.363037 967.261169
-809.663696 1710.754028 1042.381836
-770.497253 1781.799561 906.997131
-828.857117 1779.292725 852.859619
-814.959351 1876.936523 699.609863
-710.513550 1906.092285 950.879578
-812.991028 1686.289063 1088.776489
-753.745605 1749.428223 994.808594
-767.403687 1784.046387 1021.909058
-842.052490 1983.810059 776.817993
-957.287476 2007.321777 718.643066
-790.406006 1805.500488 781.327576
-809.730103 1712.457397 1074.742188
-896.530273 1758.504639 755.900696
-822.878662 1821.254272 717.160950
-922.053955 1725.011230 800.858887
-888.040649 1803.359253 691.976990
-772.591980 1735.363037 1020.546997
-822.802124 1702.162964 1051.295288
-762.436523 1798.537720 890.460754
-782.889954 1948.679932 785.747498
-703.398682 1857.341187 815.076477
-814.597412 1851.648071 704.366760
-735.351257 1901.451538 779.830811
-862.216431 1789.589722 768.807861
-809.030579 1763.900269 909.747070
-780.390564 1770.732300 936.429993
-890.443665 1733.275635 866.426758
-811.139954 1698.398315 1104.889526
-1007.066528 1635.759644 855.170837
-850.658752 1763.722534 841.322021
-723.906799 1831.624512 908.330322
-993.384766 1663.791016 836.512756
-747.870056 1837.046265 778.312561
-912.150330 1759.235840 745.879822
-766.280640 1831.843018 997.841614
-858.683472 1728.952393 949.960327
-798.511536 1803.689697 775.912231
-795.595276 1770.747314 921.885315
-843.012939 1652.909058 1070.762329
-864.661194 1769.133667 829.215271
-778.673584 1830.279419 766.792603
-761.598450 1847.582764 729.452026
-837.038696 1849.104980 659.507935
-692.985352 1863.483521 828.115845
-936.718567 1961.814087 697.825073
-811.075256 1700.890137 1021.478210
-752.802612 1864.909058 771.695801
-869.305725 1804.577148 697.366638
-787.002075 1734.234863 1051.279907
-777.079834 1814.061768 785.817749
-827.293091 1690.972046 1094.234863
-763.298035 1804.800781 834.986206
-813.565857 1850.787231 680.585205
-753.674744 1998.475098 909.055176
-657.778687 1893.851685 995.759705
-759.257324 1934.984375 933.094910
-767.704163 1851.020996 733.633179
-764.336243 1961.953369 812.351563
-938.914368 1662.363647 944.468201
-951.287598 1688.409180 982.414978
-777.010742 1756.452393 952.111023
-693.269531 1871.195923 949.616882
-824.288208 1761.054443 937.050232
-825.790405 1705.547485 1131.052612
-983.400635 1635.656128 916.838623
-735.083374 1863.537109 747.333374
-812.627808 1994.901367 808.936584
-729.381775 1924.407959 786.112366
-1014.734741 1600.840088 910.020447
-689.542847 1891.812622 931.130737
-726.267578 1986.809570 837.576843
-847.382324 1938.860596 728.132019
-825.929993 1723.832886 1105.811646
-713.339539 1968.967041 945.407837
-736.835632 1858.315063 753.211975
-749.334351 1819.631226 944.172546
-787.728577 1921.006958 763.195984
-754.800781 1782.151123 1005.515808
-744.688843 1813.237793 965.862061
-782.041809 1776.479004 918.937622
-862.041626 2070.509277 832.522461
-738.850647 1900.933716 896.596313
-959.162292 1670.099121 898.537537
-796.005615 1837.658325 708.748291
-909.432617 1694.755493 763.335144
-845.467590 1901.708130 701.112976
-996.952087 1607.795410 856.499390
-773.837952 2031.151123 908.617432
-705.537476 1862.406982 860.873535
-778.294067 1965.531372 808.819397
-988.323120 1609.871338 966.112000
-833.786926 1771.195068 1088.400146
-817.275208 1700.235840 1056.218872
-848.407166 1749.800659 883.158875
-933.639954 1730.836060 757.843567
-821.589844 1686.898193 1059.560059
-874.961914 2029.233765 801.312805
-823.118591 1736.229614 934.923767
-944.368042 2031.187500 735.225342
-819.739868 2008.855957 819.765625
-713.274231 1866.739746 953.134644
-677.648254 1889.645264 810.869019
-980.371155 1616.720581 993.463684
-837.013550 1740.250000 918.476746
-716.278259 1828.224487 857.558838
-743.400757 1823.755127 953.623840
-680.102112 1893.249512 810.925720
-698.869690 1894.577515 814.363647
-983.934753 1643.281006 929.949097
-889.666687 1669.929443 991.936279
-681.811951 1883.963135 948.677429
-997.537903 1649.561035 870.987793
-787.223022 1761.417236 952.594666
-884.433594 1903.748779 680.171204
-813.557190 1710.958740 983.130005
-903.003723 1701.361450 1158.938843
-890.121277 1647.252197 1036.743652
-750.079224 1946.681396 809.921204
-813.390503 1691.320679 1062.180298
-812.774292 1700.701904 1035.842285
-850.949890 1945.924561 721.697937
-737.429932 1971.881226 919.449524
-754.759949 1885.016357 749.501526
-713.937805 1830.197876 880.860840
-747.922913 1797.229492 996.510925
-791.448059 2070.274658 863.783142
-849.303894 1825.119995 695.015320
-792.187317 1790.447021 868.902039
-723.813538 1842.837646 845.980530
-804.992188 1989.425293 828.660950
-780.171997 2013.772339 845.369141
-945.311462 1998.800415 684.959167
-708.165222 1892.524048 783.948303
-793.944702 1735.638062 969.477783
-776.151978 1839.000854 732.790955
-854.879089 1771.246460 824.908569
-701.792297 1855.539795 825.780029
-839.295837 1733.357910 945.263916
-940.550171 2045.840332 745.866760
-842.078491 2014.837891 795.472229
-821.440308 2032.386963 840.167542
-658.553711 1915.214478 999.829834
-888.540100 1789.157959 723.801636
-778.526123 2038.182007 911.413086
-792.354675 1796.316284 847.520081
-711.128235 1976.658813 829.850769
-734.570374 1852.764282 784.317566
-710.598328 1957.695190 839.090942
-870.759277 1658.541504 1049.334595
-723.765503 1895.176514 885.092163
-746.195801 1825.225952 816.118164
-743.593079 1826.912964 837.431702
-844.912964 1814.218628 733.103943
-1040.071289 1591.397217 933.866211
-843.250183 2013.787476 805.017029
-831.178711 1993.609619 797.318970
-818.512024 1827.553223 708.825562
-947.533997 1695.208374 826.948059
-915.702332 2060.493164 816.348999
-755.615784 1765.773071 1001.756775
-770.265442 1795.501587 982.158264
-855.373718 2066.945557 850.716431
-746.256165 1805.907715 905.057617
-813.876892 1718.884521 1022.113831
-825.859375 1679.120117 1085.201538
-881.229553 1801.528809 694.574646
-699.455688 1868.420166 803.873108
-759.249207 1774.212646 950.799194
-850.520630 1759.937256 879.084961
-905.219116 2064.360840 808.387390
-661.377441 1887.558105 980.118958
-912.390808 1639.361694 1043.440308
-837.263306 1697.446777 1023.409729
-968.637268 1593.444214 1036.968506
-743.501953 1895.214233 924.169006
-778.172668 1822.039307 764.388123
-899.442749 1755.141357 760.244141
-841.077271 1896.784668 692.278748
-843.909546 1765.318237 878.123169
-730.776978 1854.302246 924.286499
-700.824402 1962.286743 835.530457
-737.531982 1942.792114 818.064087
-820.118164 1921.496582 753.833069
-847.269897 1930.084351 726.088013
-888.100647 1686.426147 949.248718
-922.722290 1706.767212 930.424622
-743.336548 1785.223145 957.430237
-807.939941 1712.000854 1032.150024
-1019.503845 1595.147583 914.794800
-909.472229 1689.101074 909.842407
-836.099976 1805.849365 726.440674
-826.452698 1804.897461 743.482361
-817.373840 1914.054565 724.857178
-937.600586 2043.077759 750.264099
-912.985291 1958.460571 703.314148
-941.874878 1712.104492 797.183472
-670.123474 1909.658203 973.084412
-947.771118 1708.189697 805.017090
-956.040466 1698.773560 815.426270
-731.802368 1846.680664 790.666382
-704.929688 1962.640625 822.120483
-862.503479 1702.741699 958.217957
-951.610352 1677.798218 866.702698
-865.620361 1746.605835 866.964172
-956.920837 1705.563232 799.320984
-825.538391 1688.014404 1012.287476
-855.458984 2070.910400 854.922363
-711.214966 1830.105713 887.580200
-724.383728 1864.347412 930.193298
-725.613586 1955.037476 821.184204
-739.273010 1806.976074 871.316345
-728.752808 1855.701538 910.553711
-732.535400 1916.197266 805.743652
-981.631104 1636.605225 901.133972
-796.557495 1716.840576 1014.792664
-789.675964 1781.548340 893.387512
-766.243774 1960.713379 923.221924
-835.139709 1714.292236 960.639771
-693.997559 1879.914795 791.935425
-869.016418 1653.041992 1030.298828
-700.071960 1936.683960 828.873413
-846.765747 1827.788574 868.950867
-727.711975 1917.052856 942.542419
-698.054565 1881.058228 954.080688
-704.078308 1972.882080 833.451965
-1004.776733 1662.282715 905.820435
-802.406006 1690.771118 1058.554688
-737.079346 1992.558105 927.498413
-904.828064 1659.855469 967.223083
-713.924133 1852.895752 813.567444
-809.931885 1708.486572 1054.761108
-802.521423 1714.439819 1096.221191
-829.108276 1745.006104 934.943237
-707.263184 1972.960083 945.503174
-814.548767 1693.638672 1016.932739
-926.730408 1742.058960 741.770020
-702.336975 1866.519531 842.081848
-797.567627 1794.779419 902.968018
-908.153931 1648.771851 984.204224
-843.913330 1808.758911 713.752563
-806.671387 1781.294434 1073.737427
-748.499756 1866.055542 734.953430
-760.707520 1832.771973 772.521423
-720.517029 1991.449707 946.765137
-741.821167 1873.893799 964.072998
-841.420166 2020.385742 826.205139
-699.244629 1868.786377 949.179504
-810.511047 1799.512939 779.699768
-963.231445 1665.829346 824.516907
-923.765747 1733.339722 809.998535
-748.845276 1819.935913 808.446350
-822.240723 1689.975830 1072.140991
-681.457642 1921.302612 820.745911
-852.172302 2077.046631 858.605347
-763.308655 1864.612183 726.048706
-819.256042 1702.282471 1098.741943
-719.818848 1838.081421 830.126648
-731.749878 1857.063354 911.894287
-783.823242 1784.708984 895.019958
-754.519104 1858.030884 754.275696
-784.748901 1766.475586 939.404297
-834.496521 2030.285522 830.736816
-1028.204834 1588.103638 919.298706
-857.909973 1717.492798 1152.468140
-980.549255 1641.216919 887.002625
-772.349121 2027.874756 889.883362
-735.852112 1798.782593 914.680603
-787.266968 2012.573486 845.470032
-748.743958 1980.680298 832.919006
-867.019897 1880.066284 664.677734
-880.524780 1676.587280 980.875549
-871.666199 1750.063354 854.697205
-727.438538 1865.889526 920.533447
-874.620605 1788.159424 760.942017
-856.949097 2015.876465 785.857971
-720.235474 1858.519653 778.753540
-919.766968 2060.373779 813.256897
-847.513123 1650.903198 1105.807983
-777.630981 1811.844849 818.701721
-863.523560 1680.772217 985.457275
-724.883484 1981.188843 866.951965
-775.916809 1820.015381 796.470581
-719.065552 1987.759399 949.277954
-733.061096 1862.335571 948.884766
-727.810730 1920.313599 811.666687
-815.131042 1692.326538 1044.440063
-896.356689 2030.847046 770.614929
-780.551086 1802.803101 806.381714
-716.035767 1914.169800 868.275391
-896.631531 1684.654175 940.583740
-897.022644 1774.607300 809.304993
-861.090942 1985.179077 763.687500
-868.015564 1637.917603 1085.379395
-970.595581 1632.757080 904.810486
-985.106995 1676.806641 820.717102
-743.011108 1901.301025 932.714600
-863.015320 1984.006958 747.995667
-758.352478 1840.705933 747.048584
-887.540649 1894.471069 670.585022
-1024.697388 1617.132202 910.084473
-737.625610 2017.005615 859.991577
-858.957947 1766.978638 865.520874
-693.821594 1925.975830 845.333374
-821.208618 1793.776611 787.349731
-788.899414 1725.504150 997.215271
-815.461182 1897.672974 735.544983
-737.315552 1853.530396 766.250732
-1044.777832 1789.205444 1145.018311
-758.938049 1760.369873 1009.337341
-855.752258 1672.953857 1012.288818
-796.585144 1827.807007 718.090149
-983.301758 2077.004150 769.730774
-728.655212 1849.958374 948.846008
-862.893127 1833.438599 676.146790
-746.233582 1994.678833 916.981689
-952.596313 1608.758667 1008.089539
-741.064453 1817.607666 948.805847
-731.866089 1864.428833 948.452698
-889.295593 1721.284790 878.372498
-777.268066 1867.980591 671.720886
-662.962830 1899.155151 987.810974
-967.394104 1605.120361 957.315002
-893.737976 1797.704956 705.850159
-842.123291 1956.799561 756.160828
-878.779236 1634.103271 1049.221436
-693.327515 1883.025879 956.768860
-824.553650 1888.360474 703.956482
-735.632874 1897.678589 776.383484
-976.575073 1683.786499 871.248047
-750.192810 1836.889404 765.388977
-839.207153 1650.301636 1098.022827
-721.154419 2007.661377 871.076050
-717.697083 2000.004395 908.731262
-887.225464 1960.706665 724.549622
-879.226929 1889.968750 662.043945
-738.706238 1806.140137 843.600159
-809.113831 2022.122681 851.583801
-783.960388 1824.971191 740.382202
-798.564514 1991.537476 817.764343
-732.259460 1962.414551 874.923767
-756.916748 1763.934570 952.090637
-998.998535 1668.793945 895.727417
-884.487244 1811.302002 813.147766
-751.620178 1763.823975 977.664856
-832.819763 1923.889526 731.573853
-839.842407 1812.820679 704.280701
-867.173157 1707.624390 937.558655
-753.448425 1784.632324 1024.318604
-887.014587 2022.611084 795.094360
-811.008118 1852.179565 706.005188
-752.938416 1924.002197 804.930298
-715.273254 1914.580933 863.416748
-990.696533 1615.605103 995.290100
-953.620972 1647.154297 907.955994
-778.957764 1734.732178 983.550781
-775.148865 1748.809082 1038.693970
-964.407837 1630.732544 927.031006
-942.681641 1970.637817 701.333069
-830.136780 1795.653564 790.749939
-721.504272 1906.723633 892.511780
-983.575378 1681.248291 893.505859
-840.468933 1857.493286 646.060120
-693.614014 1990.096313 940.074646
-849.797974 1765.344238 843.098999
-734.019287 1862.643799 897.058289
-709.164063 1859.499023 810.046387
-897.392456 1612.856812 1078.850220
-807.821594 1966.256592 785.409302
-821.482483 1686.096802 1032.193481
-742.522949 1828.559326 811.498108
-792.693237 1836.825928 712.859192
-884.146973 1740.125610 856.434570
-936.815857 2056.471680 780.776978
-858.741211 1714.706421 943.927429
-843.501282 1844.304199 670.664734
-784.421509 1796.602051 801.976929
-891.758118 1907.995483 670.815247
-754.241028 1820.842773 803.030334
-908.586304 1613.318115 1046.203613
-937.479187 1712.917603 800.175232
-698.072876 1940.043457 838.988220
-683.606384 1877.903809 831.924622
-749.443359 1815.438477 857.246887
-690.843567 1919.897095 845.934753
-768.639587 1806.760498 834.032776
-832.533508 2007.329102 819.179871
-800.535889 2060.097656 919.583740
-763.484619 1755.657104 988.102173
-786.332886 1736.372559 1005.325745
-666.069214 1888.842529 966.137146
-828.985840 1859.845215 676.566162
-727.133606 1890.286255 895.889160
-930.654846 1982.160400 713.642883
-855.651245 1835.227173 659.371887
-851.384216 2002.275757 793.745361
-837.040405 1927.891968 732.248169
-791.144043 1898.376953 715.400940
-928.158447 1720.281738 1171.287598
-801.084717 1737.621094 951.880188
-791.134338 1785.767944 1037.197876
-777.382141 1834.349976 759.953796
-903.992493 1731.771606 798.747986
-770.023987 1835.562500 731.990540
-746.976501 1822.135376 842.375488
-888.929565 2013.066772 783.258118
-811.359314 1733.174316 1028.852661
-882.017151 1901.767578 650.039612
-677.012817 1891.756348 832.990173
-762.651672 1950.925659 804.251526
-827.581238 1736.857910 938.633423
-924.026917 1722.810425 1171.037476
-790.146973 1808.304932 808.446960
-760.997681 1741.778198 1005.291870
-923.100220 1686.425903 907.931091
-741.837463 1823.630981 918.308105
-947.471558 1639.099854 942.975647
-852.343933 1693.690918 977.327576
-823.822144 1686.865723 1019.522278
-879.798584 1785.213501 777.683228
-782.700928 1816.781128 743.180725
-1048.304688 1573.734497 922.956360
-730.441101 1896.711182 789.508179
-834.020203 1664.526611 1063.303589
-722.544128 1913.268555 957.843262
-776.245056 1876.667480 1006.539490
-1041.243164 1589.858521 958.638245
-729.464172 1853.107178 779.066284
-814.193359 1871.973389 671.025085
-867.558655 1780.447144 745.244995
-819.776245 1687.630493 1103.827759
-836.339111 1823.614990 652.678650
-714.979004 1981.504517 944.111755
-744.126953 1799.120483 973.343201
-793.976135 1930.422241 753.192932
-736.127136 1879.494751 915.932068
-709.713013 1840.885254 836.613220
-726.231689 1827.136230 881.419983
-698.996277 1864.438965 797.503296
-868.043030 1844.405640 647.391052
-775.370850 1981.639893 826.615417
-696.613220 1892.546509 817.926270
-730.618103 1818.976929 886.749695
-741.220154 1779.688110 980.865784
-899.663513 1700.017212 914.868958
-822.545776 1779.730469 852.077698
-965.144165 1667.520874 896.955017
-759.608582 1744.521606 997.450745
-774.575012 1801.523438 824.546326
-823.310913 2032.308350 841.266724
-851.541504 1796.641235 753.660583
-878.449524 1935.956055 707.200439
-810.076843 2045.139526 860.707703
-692.565430 1939.076050 832.680481
-739.259460 1808.867554 892.113953
-690.444580 1920.848633 966.051025
-997.935120 1634.337524 849.884216
-680.096863 1928.566528 990.170532
-704.367737 1866.341187 790.742188
-867.003174 1712.173950 929.522339
-816.412231 1798.244385 773.393188
-820.370483 1850.894775 673.264526
-681.143799 1881.279785 826.360168
-792.902466 1801.363159 824.787109
-935.061768 1706.958618 842.960083
-856.506775 1790.715088 752.042053
-872.557068 1779.021851 763.467529
-777.486877 1730.076782 1001.093079
-793.271729 1725.204956 987.404358
-885.279907 1754.670410 825.335449
-721.360840 2002.161499 913.502747
-794.311218 1723.302856 982.240417
-981.866333 1649.397217 870.898499
-947.967224 1670.023315 893.067688
-892.444092 1673.449463 968.666626
-841.694580 1671.036133 1041.362183
-921.504822 1693.745483 890.877258
-916.947388 1628.057373 1014.801941
-881.607666 1800.571045 694.340881
-700.763184 1838.152100 863.074524
-852.419189 1641.924194 1079.103027
-721.461365 1857.074463 944.776978
-879.509033 1931.294312 700.030334
-679.622864 1912.655273 1015.699341
-919.503662 2021.381836 754.403137
-806.132751 1831.091309 724.150024
-713.606812 2030.939087 954.986877
-795.714294 1879.224731 696.872253
-812.310974 1855.957031 699.792603
-1010.799500 1585.290405 955.281555
-774.512024 1907.435791 774.346252
-718.585388 1863.862671 917.913147
-765.993530 1807.258057 867.919250
-844.689697 1757.688477 1126.642456
-903.521606 1691.507568 949.123230
-727.451233 1920.313110 947.371582
-1050.801392 1636.430542 998.029785
-923.412659 1701.679321 867.710815
-803.597290 1797.501099 784.785339
-715.850647 1853.904907 792.995300
-708.040283 1868.159180 919.181396
-697.347229 1993.612915 938.031677
-799.340027 1999.398315 812.064026
-673.147522 1898.500122 822.890686
-1015.449158 2074.212891 736.205200
-675.248535 1922.590454 985.743958
-781.222595 1847.676147 743.685364
-1011.437683 1630.732300 863.131653
-831.159302 1803.117188 802.290527
-965.403992 2059.350586 766.653931
-818.204346 2028.701904 825.677490
-907.215576 1677.334595 952.280945
-870.733826 1800.336182 779.555359
-713.234619 1976.353760 840.904846
-866.947876 1736.374023 879.976929
-948.780334 1598.590576 1029.772949
-639.475281 1903.596802 1009.139771
-799.287720 1984.678223 809.943909
-1117.379517 1662.507446 970.414795
-883.483337 1750.952393 856.212036
-697.157043 1943.468140 818.579956
-862.529480 1714.399292 956.176331
-1060.662964 1788.246460 1132.109131
-725.172363 1810.768555 896.915161
-957.369812 2035.782104 744.832886
-815.478027 1819.250854 718.504150
-919.225586 2068.092773 809.709106
-712.739380 1832.579712 859.916138
-904.287048 1926.592773 670.669678
-887.947266 1966.834961 745.006226
-823.403503 1673.506226 1112.756714
-725.006714 1879.064697 921.309692
-842.084229 1849.490479 677.677185
-832.723999 1725.926147 969.907349
-817.839539 1835.648682 705.080139
-924.672668 2011.744629 746.455261
-736.175232 1794.447510 948.896667
-688.551208 1879.846191 810.498047
-711.397827 1956.074341 972.244751
-816.293213 2012.810791 826.397278
-864.508911 1660.842407 1018.986145
-730.147461 1898.927979 892.755066
-703.239563 1841.528687 865.722046
-935.702087 1953.086914 701.466553
-913.504944 1788.582642 714.762817
-913.934875 1623.532227 1035.344604
-823.759827 1798.136108 758.315552
-802.289917 1790.116455 803.106812
-840.213623 1650.188965 1050.322388
-825.124329 1782.943359 846.404175
-1003.184387 1600.946411 964.904602
-700.155945 1866.876587 958.922058
-905.022461 1624.977051 1043.285156
-855.973145 1643.246582 1092.604004
-693.656738 1872.504883 942.036499
-761.277588 1841.742432 734.866943
-921.292725 1713.138672 838.442871
-841.667358 1868.360962 668.592834
-705.777649 1872.493774 952.885254
-741.841980 1834.838135 956.996277
-947.463806 1722.962646 784.826355
-768.178772 1751.700806 1010.499695
-695.687744 1909.061401 817.751160
-742.841736 1951.582520 928.677185
-758.260681 1846.259521 960.042053
-759.864136 1764.291260 962.019226
-865.923218 1791.919434 787.041992
-743.365417 2007.940674 865.735657
-844.256958 1680.437744 1018.412903
-752.382385 1829.932983 778.882446
-773.763489 1747.021362 1026.523926
-782.538879 2055.702393 858.531189
-675.236877 1907.703247 848.489685
-922.997742 1612.365356 1038.089844
-859.923218 1841.460449 845.551636
-745.778931 1791.041504 932.788269
-761.626038 1777.275635 922.263794
-866.182129 1725.286377 925.417786
-774.379883 1747.659790 1020.007446
-961.066467 1648.161499 1077.531372
-777.988220 1843.830322 723.265259
-870.620544 1779.548706 844.903992
-871.694702 1682.602417 1129.851318
-762.325439 1998.678711 839.864075
-813.179138 1881.679565 695.276245
-776.696716 1902.699341 750.317993
-926.639221 2075.277832 824.006775
-768.061340 1746.514038 1001.409546
-722.114929 1834.480347 862.934753
-908.601563 1750.144531 806.130188
-876.379761 1746.550415 716.320129
-856.120667 1834.529541 689.202881
-767.406494 2036.979126 847.467590
-775.540955 1920.369629 765.653320
-827.635071 1842.662109 688.954712
-766.669800 1804.680664 814.280273
-759.168945 1784.613159 918.332458
-763.217957 1740.662842 1002.700806
-826.330872 2028.769775 835.471252
-786.939331 1818.731567 779.030823
-804.502808 1710.665405 1002.050232
-957.732300 1673.432007 794.360779
-753.833130 1977.098267 896.396301
-893.226563 1648.573364 1011.237183
-771.616516 1842.470215 728.011353
-718.013306 1838.028442 832.884949
-786.911011 1926.861328 759.909851
-843.846252 1682.152466 1110.276367
-862.437134 1800.133545 806.158386
-868.638306 1720.839844 919.899292
-682.585327 1936.686279 823.333435
-762.815552 1833.566040 746.398499
-818.694885 1710.221069 1053.323853
-821.406555 1964.456543 773.343628
-839.414551 1850.233765 658.801880
-917.084167 1766.907959 744.930115
-812.150146 1823.362671 730.903503
-702.297607 1865.351440 788.636536
-894.291626 1909.593262 659.720703
-835.603760 1807.809326 717.237061
-828.935913 1664.927979 1102.772339
-826.253418 1805.845825 737.403442
-893.702148 1913.508423 653.915161
-806.809204 1934.359863 747.243530
-932.732361 1601.472778 1082.309937
-746.934998 1830.775635 964.716187
-718.263245 1906.789917 909.229675
-755.969971 1966.244263 932.070496
-925.482971 1717.847290 844.747986
-876.919983 1748.260620 841.697571
-675.964661 2008.694702 951.941772
-806.229248 1737.776733 952.085876
-902.904236 2015.671875 762.861023
-793.085083 1808.223999 839.803467
-756.317566 1769.469604 943.477905
-775.845032 1800.555176 806.382935
-752.763245 2030.961182 879.649475
-718.657288 1856.879272 947.603149
-829.262512 1810.848511 734.636963
-838.586182 1652.897461 1105.848633
-840.164551 1826.451294 693.285706
-835.515259 1653.284424 1103.248169
-650.613708 1917.246094 995.294800
-805.638062 1728.201660 1004.069397
-790.498779 1819.024170 1047.511963
-743.316162 1857.833496 942.656921
-912.454407 1968.192993 713.128662
-701.193237 1936.385742 808.663330
-733.120911 2025.810791 922.250793
-687.088928 1899.342163 812.364319
-808.420288 1812.343994 748.213501
-872.535278 1762.492432 823.908875
-925.087402 1702.655762 873.690979
-919.853760 1736.241699 802.798218
-911.583496 1613.641479 1073.689453
-967.325684 1676.126343 950.643677
-842.236328 2054.882568 851.774414
-730.875549 1839.041870 948.991760
-826.262573 1955.615845 763.508728
-749.646545 1881.537842 738.155273
-961.306885 1660.167725 864.499512
-692.909485 1860.920166 849.107422
-857.312622 1639.396118 1061.497314
-843.612122 2015.799316 810.145325
-935.005432 1965.944702 701.650208
-644.243408 1909.974121 1006.974976
-850.289734 1966.159058 757.366333
-874.437439 2073.650391 843.781250
-787.427612 1827.835815 738.749573
-695.067383 1887.181274 828.151855
-958.135498 2042.091431 748.413025
-878.588562 1722.018799 896.084412
-698.605347 1874.407471 814.236023
-935.265991 1614.381470 1018.792419
-798.228027 1815.400879 746.305969
-875.038940 1916.769775 693.390259
-724.951233 1908.986572 937.672241
-948.602783 1638.857056 1003.882263
-853.946167 1838.312500 665.746643
-810.394775 1702.229492 1035.917603
-857.689941 1804.961670 703.812927
-887.626404 2050.969727 811.962830
-743.980469 1761.750000 997.398193
-844.563477 1972.342407 769.602478
-946.179504 1665.375854 1022.812744
-780.990784 1964.997925 806.185242
-785.511475 1753.697510 945.206726
-755.644897 1814.075317 937.067566
-983.058289 1644.437744 863.988342
-847.448975 1935.221680 724.324890
-910.383789 1709.947998 860.038635
-788.152039 1835.052490 742.219666
-899.166748 1901.018555 664.180298
-818.691528 1736.230957 1098.241821
-909.807678 1745.350342 796.887146
-689.141846 1873.893066 805.331909
-991.253052 1630.631958 881.247559
-753.446533 1773.800781 944.651550
-975.909912 1613.370239 980.031250
-849.027039 1972.996948 751.532166
-787.724426 1835.424316 714.164734
-768.829956 1741.050049 978.844543
-878.884888 1821.945068 672.745728
-712.900024 1851.483521 844.116882
-833.241333 1744.846802 925.687683
-896.206909 1744.863525 843.394775
-702.893127 1996.709717 948.023193
-703.723755 1992.638428 959.009033
-801.516663 1967.351929 792.509705
-1008.043823 1597.604126 932.139282
-833.670654 1702.644775 995.981018
-988.716492 1640.016479 844.754883
-819.869324 1696.544556 1058.531250
-684.510681 1914.824707 967.033691
-680.386719 1879.750244 948.221863
-766.411804 1833.265137 777.504456
-821.938721 1691.969727 1009.474854
-908.176147 1633.917358 1015.331238
-829.289673 1835.364136 686.945862
-778.937012 1772.084961 941.618347
-869.230957 1804.876099 702.842468
-722.875732 1962.080444 900.253357
-771.299805 1809.913818 795.772400
-911.557129 1674.241699 952.270081
-755.539673 1784.751709 988.630920
-991.294312 1758.829590 1156.250000
-754.429565 1948.383667 795.330872
-713.213867 1885.559937 912.428711
-812.080017 1679.101196 1120.106323
-902.785522 1784.815552 712.549500
-772.785278 1782.053345 910.972046
-807.450989 1765.907715 912.022522
-754.108093 1779.624390 987.979736
-825.297119 1701.260864 1122.196777
-676.024109 1915.692749 987.950928
-858.523254 1708.456421 954.464844
-742.292542 1805.319458 958.843140
-736.911499 1801.609009 912.163696
-972.504944 1630.766602 887.994324
-759.372681 1875.986084 748.506470
-842.000610 1681.407349 1057.044800
-976.929199 1627.087524 930.812561
-848.403320 1697.989502 980.963867
-798.877014 1929.488525 757.812012
-763.561279 1881.022217 742.827820
-704.702881 1834.122314 863.358398
-740.745544 1850.036255 792.337646
-763.527527 1941.001343 912.500305
-816.653992 1732.168335 1079.649414
-805.522522 1814.157593 734.512817
-950.884949 1698.616211 781.113159
-687.684021 1860.898804 835.834778
-709.943542 1940.110718 847.096252
-785.595520 2072.791748 861.409424
-834.633118 1776.575928 873.108887
-754.659851 1916.611450 781.367676
-923.827271 1612.830811 1037.749023
-833.134521 1837.458252 634.302002
-757.898132 2024.465454 923.622070
-839.525208 1657.222900 1061.060059
-852.651794 2047.751709 846.704834
-689.681580 1881.149658 934.589050
-789.968018 1721.664795 1008.162415
-708.527161 1856.224243 845.414856
-875.285339 1709.707275 911.312561
-868.436218 1685.515015 1018.025513
-775.110901 1750.873169 1026.908691
-744.731750 1778.971069 950.053345
-741.219910 1971.664429 885.148071
-781.973328 1891.503906 735.892822
-739.283813 1851.149170 765.174622
-928.587341 1942.704834 697.145142
-933.795471 1700.517944 838.221985
-911.279846 1736.562744 782.611938
-975.821350 1651.378174 859.668091
-775.293457 1784.569946 1008.729614
-892.470947 2073.730225 813.231628
-763.644226 1749.128174 1025.626465
-807.952332 1847.669434 711.886780
-886.620911 1917.022949 685.813110
-937.408081 1983.689819 712.024780
-827.623047 1978.122925 786.631897
-683.315918 1900.117676 827.353516
-860.390076 1709.533813 937.207336
-814.139221 1710.054810 991.415710
-793.122559 1783.536621 908.532043
-976.075378 1610.392578 986.983826
-696.939270 1926.603027 808.624878
-765.012878 1801.467407 887.833557
-881.421265 1858.904663 674.554199
-807.360901 1771.539307 885.112976
-940.135376 1602.881958 1021.825928
-867.929443 1654.470703 1041.927124
-825.348389 2009.125366 820.351440
-846.782349 1825.929932 829.927979
-925.938904 1709.947021 806.658447
-772.915344 1807.421265 797.936890
-696.734619 1887.859009 983.577209
-756.884033 1772.434570 951.995056
-906.661377 1969.976807 716.462952
-928.130493 1703.866455 918.399414
-693.497070 1868.122681 961.384766
-842.286377 1819.561157 1077.021484
-990.949402 1635.370483 918.625427
-895.587463 1774.511475 715.110291
-705.985107 1854.515259 805.065430
-771.068970 1968.079834 802.363953
-645.854431 1876.708862 1013.866394
-734.567200 1857.641479 902.930969
-886.628662 1694.920044 930.587830
-891.539124 2077.399658 817.225525
-730.962708 2016.717285 841.840515
-816.504272 1784.719849 809.113281
-850.218750 1814.946777 704.764832
-756.398254 1853.158447 759.200928
-733.192932 1889.088135 917.075745
-795.597229 1863.600464 695.982666
-699.287354 1861.464600 822.252075
-868.888550 1650.193359 1108.381836
-742.311035 1864.672363 955.687622
-754.087341 1832.785645 812.664307
-734.902161 1834.019775 819.396484
-769.228088 1742.631958 1005.549133
-780.406982 1759.839722 966.859497
-802.011475 1841.267212 711.587891
-1053.375122 1678.965820 1037.049805
-836.321899 1673.064819 1079.461548
-1081.396118 1660.459717 998.222290
-810.656494 2024.823120 839.784424
-867.136536 1881.109985 661.605469
-957.518921 1637.698608 960.271362
-702.046204 1996.769165 947.351746
-709.036133 1855.793213 823.046326
-832.265930 1667.075806 1123.262939
-753.731079 1953.242065 904.480469
-833.989441 1795.004395 759.907776
-941.676453 1708.744873 804.856262
-686.358582 1867.717529 855.300110
-771.047180 2031.621582 911.162476
-766.341064 1880.445313 740.094543
-685.424988 1990.153809 940.969910
-862.439209 1813.469116 820.784363
-712.938721 1957.924072 859.975891
-692.468079 1873.279175 944.489868
-897.630798 1917.520386 673.553040
-1000.653748 1646.001343 862.697876
-884.315491 1674.733276 1012.565857
-761.172424 1765.147949 969.736816
-885.398010 2081.471436 838.200317
-657.322327 1882.058105 999.364929
-858.445557 1714.519897 930.003540
-1003.269775 2084.045410 744.529846
-796.203369 1938.741089 772.611389
-822.508850 1764.738770 1087.644287
-847.713928 2003.726318 781.087280
-743.539124 1911.613525 932.249939
-715.038940 2006.518555 918.433716
-708.901367 1990.198975 959.170715
-919.834351 1603.107300 1041.451294
-747.504517 1825.758667 921.315735
-864.810059 1823.350342 693.991333
-718.464355 1859.731812 937.620178
-676.401306 1918.784546 982.483521
-747.909912 1851.964355 966.157654
-886.296265 1750.125610 849.569275
-822.044067 2072.301270 862.571655
-742.479492 1884.434937 909.969238
-738.492676 1905.130737 934.569519
-848.122681 1736.611084 1144.993286
-712.177673 1858.844238 838.870117
-771.874695 1742.352539 973.633789
-678.898682 1869.715332 835.263428
-860.112305 1850.340454 637.437805
-852.794434 1788.338623 776.161621
-864.472656 1732.144409 928.496399
-715.103455 2017.128540 931.973083
-880.677734 1964.306641 729.431213
-912.571838 1945.178955 669.089844
-844.914978 1679.013428 998.254150
-756.014465 1933.783081 793.590088
-812.687622 1705.342651 1096.237061
-697.802368 1866.625366 955.636108
-804.884521 1832.064087 732.378540
-919.734985 1719.958374 835.968994
-866.040344 1788.620850 762.582275
-695.553162 1861.517944 846.236023
-702.460754 1853.408203 828.945068
-776.994690 1934.997803 932.867737
-765.350769 1789.676880 1007.149231
-739.285400 1799.813843 929.723145
-994.332336 1649.174438 912.543335
-991.904846 1653.102051 933.400391
-780.699829 1726.035156 1006.550476
-817.589966 1948.621582 752.723938
-861.085449 1698.617554 972.851440
-709.819946 1837.703613 864.425781
-730.730652 1936.246704 809.026428
-868.541687 1624.909180 1061.391968
-689.866211 1866.519775 851.206177
-825.056885 1884.976074 678.850403
-907.409607 1763.060181 753.448425
-857.128784 1898.593994 689.970581
-815.788940 1883.143433 704.425415
-877.898560 1916.101074 690.503845
-839.756531 1807.633301 714.067383
-872.051453 1627.600708 1084.716064
-994.905090 1642.892700 867.169250
-760.515320 1853.553711 749.265198
-700.314392 1890.521973 950.515564
-740.816528 1858.703857 739.028259
-891.943604 1664.665527 998.132996
-859.226563 1655.228149 1033.029785
-832.651306 1963.559570 751.562317
-747.992981 1798.634888 927.690552
-851.452637 1793.750488 742.012939
-988.596863 1616.691895 917.977844
-768.921387 1957.835449 797.976440
-726.925598 1916.047485 886.543579
-843.838623 1764.180298 871.419983
-754.682983 2035.183594 859.178894
-783.866699 2075.596436 866.424622
-793.124268 1898.759521 734.241394
-793.548889 1863.402832 690.454041
-830.020813 1789.175415 792.129761
-902.055603 1773.839478 730.142212
-808.884460 1892.215698 720.504578
-862.568970 1667.992310 1009.757324
-708.378479 1877.339478 793.363281
-872.370361 2066.843506 837.485535
-749.893555 1827.948242 928.160034
-806.375488 1708.166748 1004.175171
-857.652405 1892.329102 677.320190
-893.573853 1975.476807 734.359802
-717.227478 1865.550903 937.606628
-794.062683 1752.520020 962.663208
-834.756958 1805.250244 732.268433
-779.661194 1864.268555 736.651062
-915.463318 1729.088989 783.603271
-749.351868 1816.438354 873.238464
-710.260315 1978.318848 854.177124
-711.438782 1862.423096 947.354492
-841.448425 1717.490967 1144.373169
-832.754761 1737.089355 1118.997070
-927.315063 1738.395508 763.626404
-866.310608 1734.514160 874.514038
-664.617615 1859.837891 1014.810669
-713.780029 1847.450562 849.043579
-946.900879 1652.476318 931.238220
-979.583252 2023.629150 714.334290
-938.445740 1715.435303 763.033875
-975.724487 1641.987183 884.723083
-966.443420 1990.283813 711.546631
-1004.933594 1613.210205 959.102661
-679.158142 1889.446411 943.681030
-791.999268 1988.523071 806.755676
-724.927734 2037.823242 954.950989
-742.982361 1855.830933 938.941895
-757.125000 1847.450439 769.816772
-861.827881 1642.757080 1097.530884
-754.494751 1816.482788 819.019531
-722.645691 1827.796143 868.798035
-699.499084 1888.401978 940.382385
-702.201233 1873.169067 945.572144
-715.857910 1873.960327 917.623840
-727.466187 1982.465454 853.455261
-817.488586 1782.515747 862.108826
-759.113037 2040.040405 937.089783
-847.398376 2038.541992 840.649353
-765.228577 1845.943237 729.091858
-670.243347 1884.252319 970.445435
-976.423279 1649.426270 867.429199
-919.386169 1730.981445 826.031738
-1004.540222 1619.831665 891.766418
-795.647339 2056.016602 917.249878
-688.211487 1875.578613 813.925415
-922.299988 1997.452393 732.634766
-941.178284 1683.918335 839.922058
-777.297668 1729.960083 1024.489014
-828.917908 1675.392334 1082.052490
-932.285645 1713.702881 817.297668
-749.107788 1880.526611 923.033203
-955.966431 2012.150635 704.758972
-734.048279 1912.929321 945.148071
-739.953552 1820.609131 848.595764
-952.229858 2049.486572 779.270569
-888.935303 1762.494263 817.840271
-912.496155 1719.517700 849.811157
-849.596680 1695.452148 978.541504
-814.195801 1713.618042 1081.102661
-830.343994 1683.410645 1063.621948
-1016.848145 1588.518555 952.812012
-704.500916 1914.354492 814.310791
-826.450439 1895.243408 700.289978
-746.311890 1829.299561 921.480469
-946.987305 1703.399170 785.613220
-981.958740 1638.822632 874.952576
-851.763367 1790.441895 748.323242
-809.106567 1708.863770 1080.119751
-849.969177 1707.113403 956.305908
-849.806335 1834.629028 651.118286
-955.209351 1718.552979 779.803284
-753.814331 1897.180298 913.260376
-731.937378 1869.126221 773.488525
-910.537415 1719.887085 757.357361
-735.146667 2011.690796 880.169861
-738.966003 1956.396362 819.948975
-694.449097 1855.741821 990.517883
-809.041443 1694.409302 1018.061707
-895.902710 1760.863037 780.737671
-870.115112 1772.872437 833.254272
-735.464050 2001.866089 829.834351
-839.380249 1941.088501 729.624329
-892.375977 1754.318359 770.904175
-701.591858 1883.336304 819.430786
-816.290344 1718.427734 982.570435
-747.818054 1968.284180 823.208862
-903.533752 1782.088135 719.252869
-827.947632 1698.352173 1042.187866
-721.074402 1957.724731 816.373413
-717.266235 1875.593140 934.789490
-738.485779 1836.632446 922.016479
-927.697083 1732.149902 774.880432
-740.454590 2001.643066 835.851746
-858.475586 2066.552246 861.507019
-872.231018 1831.643188 655.607971
-692.881775 1988.068237 824.796021
-881.894104 1724.060913 868.986389
-972.920410 1659.956055 917.359680
-870.756348 1917.196045 700.875916
-851.466064 2028.840210 818.012634
-795.823364 1807.218628 1057.155029
-835.160400 2067.168701 848.312317
-764.333130 1835.160034 746.834351
-852.136963 1839.273071 669.058105
-849.878723 1795.680054 738.150330
-785.713013 1980.036865 817.217712
-914.981750 2031.198608 768.689453
-817.932251 1743.033447 949.667053
-1067.456787 1676.596313 1024.435303
-743.459473 1787.061523 952.535034
