ply
format ascii 1.0
element vertex 1415
property float x
property float y
property float z
end_header
110.971001 146.774185 2113.155518
195.672302 233.579529 2110.239258
218.396912 472.194672 2323.247070
388.533844 162.641998 2117.050293
190.840439 413.429901 2071.690918
331.496124 427.033875 2311.298828
354.984222 138.983246 2103.435303
111.300415 150.911682 2096.396973
114.932854 41.323254 2117.194580
291.632629 445.157776 2226.238037
393.091949 358.087646 2075.203857
413.458282 178.998947 2115.498047
253.639114 64.013466 2112.543213
436.783905 427.684662 2283.840332
303.117157 419.075775 2117.214355
271.163452 355.729980 2070.819580
344.651794 306.186157 2079.567627
207.304749 220.899307 2095.782227
437.414551 386.495789 2153.522949
190.389969 502.484314 2369.494873
112.629707 60.050327 2096.853760
144.643372 140.081100 2107.626709
247.582977 -2.666218 2122.222656
258.968048 244.100159 2108.818604
174.752045 293.907349 2100.274170
221.491837 451.012817 2138.405273
105.421822 85.635826 2109.613770
156.220764 186.065292 2101.888184
385.071625 326.807343 2080.892578
395.827026 325.991455 2093.157715
442.600525 355.168732 2129.849609
287.569458 430.788086 2188.774658
186.734482 210.700439 2112.096436
445.493774 255.930664 2146.252197
433.962738 392.792419 2299.713867
253.453445 441.677490 2077.213867
112.602676 220.075912 2092.113037
357.576477 403.074951 2153.169678
432.308014 363.757965 2082.607910
166.084793 205.584183 2090.409424
193.274933 482.104309 2256.383789
253.954559 420.501282 2072.895020
396.147247 194.860962 2159.284912
368.310730 227.944443 2099.952881
192.007614 496.054230 2262.924561
440.245087 356.214508 2232.278076
272.317932 -28.190010 2122.858887
172.297852 382.921783 2088.048340
147.165436 91.349716 2110.202393
261.748932 217.862076 2107.209961
237.267548 295.832520 2117.224609
347.546204 259.636688 2107.760254
224.745117 313.963135 2095.902588
227.575470 299.256073 2090.332031
370.783417 68.752174 2206.990967
173.669296 335.497620 2059.427734
375.729279 137.920990 2106.849854
144.064590 308.403473 2080.105225
490.959564 200.946838 2146.904297
237.983032 26.085493 2112.997070
341.223419 304.108521 2087.086670
287.715179 -10.242712 2126.514648
246.480713 183.474991 2109.641113
85.482094 129.484512 2071.191162
397.025146 338.793060 2096.480469
299.611847 407.123474 2070.055664
210.234161 477.295837 2349.291748
299.848389 442.719391 2357.066162
155.016052 175.710953 2104.086182
405.997070 367.424988 2082.205811
323.337982 42.090897 2116.765625
400.527435 181.062576 2110.174316
298.040619 158.487122 2112.252930
353.689545 163.034058 2113.450439
285.684448 210.546387 2107.687744
335.214233 408.893982 2157.283447
355.271759 109.602135 2109.186279
241.855972 327.002808 2080.673096
206.359146 183.697571 2106.954346
474.811371 263.761047 2147.595703
244.512939 -22.620893 2111.029297
282.229034 -35.625076 2128.069824
166.909973 283.593292 2089.460693
163.046387 140.981552 2115.636963
425.333588 362.869354 2094.527344
353.838318 314.085876 2088.690674
452.225037 270.090729 2185.349121
204.576248 180.556183 2110.700928
322.911011 420.552765 2329.464355
328.659271 413.844360 2151.618896
227.989883 448.052216 2148.018555
443.739014 394.027832 2246.749756
459.521423 244.308655 2157.178223
355.417786 430.409363 2334.892578
170.668625 87.067940 2129.080566
446.073120 256.648163 2163.760498
254.852127 451.279846 2115.605469
326.018829 414.886566 2206.183838
462.429688 267.526184 2194.146973
261.280975 434.474335 2218.978516
428.975861 269.224030 2182.820313
363.825531 411.240570 2282.655762
427.572388 237.988235 2160.572266
295.555603 336.417450 2068.192139
367.810303 152.747925 2111.935059
188.361069 481.607208 2223.525391
359.019867 320.794800 2075.379639
354.233978 -26.546072 2168.489502
193.135727 107.027657 2110.183838
164.017868 207.403687 2097.424072
347.954407 393.636230 2093.134033
293.931702 319.090698 2082.418701
488.725891 299.697723 2234.663818
318.898071 425.677002 2165.049561
370.031921 7.899857 2138.588379
277.741028 453.077972 2355.621582
336.312622 354.082886 2074.350586
445.595398 390.566772 2292.865723
468.323273 264.744720 2165.511475
435.609558 355.456085 2146.586914
434.363098 295.473785 2156.694092
231.325394 458.677246 2079.635498
422.350739 281.326019 2101.367676
329.519104 192.404785 2110.979736
186.429718 488.313690 2270.270020
269.764587 442.305054 2239.197266
210.728165 248.673233 2106.575195
219.726089 411.799713 2080.322510
442.148590 240.837494 2140.550049
227.539490 357.494141 2087.778320
485.604797 330.905426 2259.422852
76.825172 127.842789 2084.006592
348.042786 29.382626 2144.701660
236.464066 200.731964 2119.591309
105.566689 193.019913 2095.064941
326.238190 23.627720 2132.384521
296.466187 287.684113 2123.125000
220.685745 177.109192 2107.299805
401.035767 110.911087 2171.356934
386.204529 87.563896 2133.979248
263.345093 375.936798 2069.122070
326.628448 -6.822771 2148.592529
392.643463 326.431488 2082.971436
416.652039 359.719177 2080.719482
276.860931 284.985779 2077.345215
247.492584 373.580994 2075.105713
451.883820 253.168320 2141.028809
325.120026 415.582489 2140.418457
245.669601 437.716949 2102.751709
293.867432 246.354340 2099.602051
359.479279 412.566833 2288.068115
334.603516 232.841003 2125.849365
329.926514 419.969818 2220.509766
195.740356 315.669952 2094.361084
257.611328 -40.932831 2170.964355
446.039917 398.392303 2172.899658
323.671967 422.429352 2217.950195
405.855042 359.704346 2082.112549
220.786041 316.485535 2094.330811
335.139984 115.384926 2121.519531
290.606750 429.118805 2085.279053
217.873840 316.016388 2076.549561
372.042236 353.085541 2089.035156
351.907593 408.535248 2159.234863
230.657898 349.350983 2085.013184
305.082489 100.301247 2118.235107
336.735596 418.046814 2228.160889
181.762329 180.442993 2115.560303
427.409241 330.666016 2109.813232
320.799927 38.951138 2117.528320
455.107086 263.469940 2159.239746
186.966568 218.385468 2107.529541
440.758362 386.668915 2167.179932
449.753784 390.530792 2175.559814
195.636337 496.743713 2277.417236
318.981171 10.223007 2120.193848
445.624420 323.013153 2119.090088
246.556091 432.505646 2139.169678
320.477692 -47.147633 2218.258545
104.386971 69.634003 2101.910889
401.397644 306.823242 2083.326904
217.937347 236.151627 2111.328125
115.961052 180.408340 2046.873413
311.436340 421.502991 2314.492188
62.364700 37.893063 2110.677734
411.472687 247.251434 2142.269287
281.516876 -10.816503 2107.042480
407.070251 384.541931 2144.294434
438.188385 408.188934 2224.793213
429.572357 418.677948 2305.084961
392.673157 149.590607 2121.490723
444.196472 361.165283 2137.955322
130.850739 276.409760 2089.780518
511.555817 234.095886 2155.095947
299.929810 12.843973 2105.990723
497.477081 236.577316 2161.851563
276.636292 442.807556 2278.175049
354.822052 103.290565 2112.979492
222.876587 462.883911 2233.123291
306.178986 351.498352 2077.346436
392.485504 200.235062 2126.482178
305.134521 342.796326 2074.029053
179.778091 99.339684 2106.603516
475.449158 262.914215 2198.992920
210.522751 243.034683 2106.235840
224.047653 453.852661 2122.878662
273.547607 366.861389 2073.404297
391.163574 251.931107 2102.178223
237.463058 232.588943 2100.544922
385.389984 106.267311 2121.836426
207.461700 224.793732 2103.010742
244.038406 64.967392 2128.630371
198.470093 475.814789 2320.732910
230.693420 454.297028 2212.821045
400.490906 262.857819 2096.467529
413.599243 363.089447 2087.815430
434.068207 365.087036 2103.891846
325.354370 427.800018 2277.514160
190.462814 476.048767 2195.922852
412.505890 348.391907 2082.597168
535.067383 201.053726 2140.547852
246.109512 452.067657 2155.611084
191.199677 501.783081 2280.182861
263.869507 432.276947 2067.685303
310.416290 106.743240 2109.295654
361.974396 266.737793 2101.623535
158.263199 314.684479 2089.694580
308.530579 426.649231 2233.269775
411.740967 324.347015 2089.355957
114.877411 190.034805 2097.900146
330.265015 -8.093850 2130.066650
350.830414 242.863419 2107.323730
250.942123 447.643158 2340.533447
225.198898 332.255310 2082.678955
300.364807 437.020020 2309.167725
308.078247 369.839447 2074.034424
205.531982 452.980011 2212.715576
187.284317 231.997406 2104.733398
273.237946 339.288788 2076.004395
211.572067 283.181580 2111.969727
499.759491 237.702225 2150.152100
366.539246 149.209854 2108.135742
364.640808 333.397308 2091.017822
502.078979 263.843292 2165.530518
523.649292 236.281296 2172.764160
272.936951 456.032471 2364.146973
310.149261 428.456787 2255.473877
444.042877 389.533142 2217.819336
82.559219 82.644516 2099.653076
387.834198 276.017365 2096.391846
438.058899 371.591492 2116.013184
377.324677 300.604858 2090.480957
279.154755 218.402847 2107.908447
332.819275 412.235962 2124.177002
216.552734 408.644287 2081.017578
424.387970 413.563904 2289.588135
355.179749 359.582642 2085.121094
202.467270 303.910248 2093.369385
279.046753 442.181305 2286.985840
341.703430 420.730194 2182.072266
381.680023 136.694901 2115.944336
229.346512 37.650066 2112.997803
395.261292 386.577606 2080.464600
191.050049 351.199829 2079.308838
417.345551 379.472809 2110.897705
391.564301 348.615204 2076.274658
368.795868 98.864388 2115.539795
108.861404 198.154053 2111.901123
165.093979 227.536819 2102.570068
255.227097 148.576660 2120.520996
391.545380 263.017548 2095.621338
476.639618 353.505249 2247.299072
435.610840 253.849426 2140.790527
274.542450 14.046056 2105.544678
398.686096 279.142761 2087.482178
231.780731 452.719238 2181.635742
113.607132 28.180452 2113.962646
193.770966 150.537521 2114.760498
462.153137 344.699188 2261.556396
189.218063 457.357269 2117.338623
203.043213 294.192139 2119.503174
293.757874 206.394806 2109.770020
434.673218 334.612152 2212.381348
425.988037 290.425934 2186.308105
288.389496 334.754883 2076.973877
302.523438 381.854858 2073.108887
280.565002 147.987701 2115.556885
286.273651 414.241577 2065.211670
305.829773 348.368805 2064.575684
527.413025 327.575653 2238.660889
175.078110 281.829437 2089.221680
373.546112 414.991730 2337.911133
352.497864 405.729919 2192.631348
243.033539 163.088089 2106.419922
203.218216 432.814575 2080.640137
438.902832 283.716309 2194.626465
333.229553 422.350616 2302.537842
272.680267 230.818649 2127.682373
93.465317 126.815521 2105.505127
318.703918 401.431335 2092.101318
198.829315 438.723846 2094.094971
319.215271 440.494110 2299.545898
431.154114 307.773804 2106.639893
81.776794 96.038681 2110.407471
221.643372 455.606476 2079.962891
445.967010 385.075928 2300.389404
432.434753 305.742615 2179.043457
429.382202 348.572479 2092.424072
198.302811 435.433411 2078.564209
211.713089 312.118073 2095.292480
427.199005 213.729523 2184.569336
327.894714 404.229736 2177.400635
281.596039 -36.319199 2336.980713
198.703003 437.141998 2059.439941
348.392273 391.529846 2084.015381
336.238922 -25.698336 2137.275879
231.522125 377.946136 2079.226563
438.617737 375.390137 2211.404785
290.945160 31.554815 2114.792480
313.597900 429.415436 2299.070801
337.455444 235.256485 2113.964355
287.479919 414.586700 2084.791748
361.618195 204.538773 2103.272705
341.039276 27.742069 2134.313232
338.360779 25.364616 2127.996582
353.080688 139.782288 2106.381592
357.459259 8.605264 2187.014893
274.007904 384.521484 2070.814941
259.014801 456.885956 2331.193115
279.917236 369.237793 2074.079834
303.573364 436.747620 2317.005859
320.545502 80.299118 2109.525391
395.833984 390.943848 2253.582275
350.886871 113.157028 2107.550537
535.039246 231.107925 2159.854248
382.127594 122.452782 2127.029785
292.616547 -26.388214 2126.620117
422.667053 322.472412 2106.136230
189.856796 345.730316 2094.580811
169.128784 240.957764 2090.602295
386.540741 253.165848 2096.492676
327.191864 197.979996 2123.146729
448.827728 387.840240 2199.868164
382.447418 399.179901 2196.316895
222.514435 45.543652 2132.949463
267.620667 437.019562 2169.720947
294.572723 318.237122 2075.044434
123.044167 118.419312 2097.883301
165.565659 50.930943 2120.122314
235.461044 478.357208 2357.374268
373.333679 177.429688 2105.165527
438.067719 327.090088 2227.892578
233.004761 405.771179 2073.680908
343.679138 34.986046 2126.270508
333.495636 422.922455 2324.860840
174.699280 90.991028 2115.397461
453.102020 238.924332 2238.785156
306.609863 418.174622 2145.120361
393.268982 178.099594 2102.876953
506.979523 248.125351 2213.478027
424.303406 313.364777 2137.398438
401.846405 209.437363 2159.487061
513.826843 240.740173 2202.831055
172.256927 253.655136 2094.863770
145.763870 166.844925 2099.921143
138.448334 172.125565 2096.789307
431.594727 336.906036 2193.591797
133.746841 112.227470 2107.337402
176.528915 14.283299 2136.175781
372.001862 158.944839 2112.334961
244.806564 460.984833 2337.452637
213.574844 9.967422 2117.278320
383.882904 390.516357 2177.894287
422.663269 357.607727 2097.012451
401.660431 391.197266 2206.063721
259.621094 420.058472 2074.833252
385.980682 409.745667 2259.312744
274.631836 19.233768 2112.298828
363.367767 116.132996 2110.302734
255.629379 415.828827 2090.994873
214.039719 142.356857 2109.683838
381.200317 200.337265 2109.364014
236.536499 455.495239 2230.041260
194.109299 253.015930 2114.664551
273.167145 437.691315 2203.986816
400.402161 369.541656 2075.932861
296.003235 183.618179 2107.402344
367.645355 411.908813 2192.458740
307.110748 -0.962008 2118.016602
115.639954 58.666927 2101.077393
206.209396 456.865417 2302.583984
352.344391 123.179565 2107.178955
377.107391 -2.545466 2164.760498
395.396851 364.112701 2078.803711
332.980530 307.422791 2078.160889
293.296051 -39.860306 2122.464600
317.542786 179.700989 2112.038330
313.722748 261.168884 2090.288818
172.763443 10.720388 2116.364746
350.814484 159.784470 2105.669922
194.705963 503.840210 2270.425049
190.445572 457.632599 2133.407715
326.376617 -50.476761 2238.225830
312.729675 -19.839962 2110.687500
462.869537 359.144806 2245.141602
302.921448 394.676300 2067.364258
275.665466 431.509674 2123.774902
334.904053 -4.000052 2130.877686
319.186340 0.683461 2120.353027
276.923401 431.390533 2173.440674
281.444061 -19.788315 2113.990234
361.833588 418.068817 2337.384521
403.913513 130.769348 2133.364746
268.657684 129.842010 2116.157959
388.054626 141.331207 2119.020752
228.967224 462.152313 2193.552979
381.003784 280.675049 2084.513428
413.681213 353.292206 2083.843994
350.641754 423.516449 2346.223145
293.715759 273.379852 2103.332520
262.062439 468.352264 2351.409912
265.299011 456.624451 2235.721924
397.226990 391.003357 2168.170654
493.832184 327.748260 2221.092285
344.170227 275.604309 2099.565430
413.022614 362.775635 2086.688965
169.815903 220.014877 2100.343262
266.272491 227.090164 2103.127686
245.526382 55.280254 2112.802734
305.365265 428.798004 2209.880615
426.802429 292.329773 2153.914795
207.513870 181.183472 2105.625488
286.543854 437.259491 2230.888672
445.541748 345.216125 2249.606934
89.374809 155.498169 2116.327393
359.138031 197.589172 2104.087891
327.237854 105.334290 2110.483154
473.598236 245.803680 2158.050293
473.014465 300.885071 2224.996338
433.707275 237.540878 2151.748291
101.734970 149.525406 2100.396484
446.475861 373.402740 2221.510254
528.676147 231.570038 2173.423828
192.004089 441.520264 2114.562988
216.289307 358.096649 2076.289307
340.387573 313.078918 2087.288086
151.623383 220.339035 2087.848145
321.395691 12.895992 2123.855225
378.290985 73.108406 2167.587158
198.205246 488.775238 2345.567139
191.946243 103.388550 2110.481201
388.422974 394.965240 2207.973389
322.871246 36.818882 2120.664063
263.077942 128.066696 2113.068604
338.200836 356.680908 2081.148438
261.877594 434.037628 2105.463379
243.150955 202.757874 2120.698242
287.061920 322.432251 2074.891602
477.921387 347.796051 2300.546875
266.960114 452.567413 2344.559814
360.789886 25.746338 2141.174805
332.583954 62.127068 2116.344971
175.348801 144.122101 2109.919678
149.550949 128.704620 2097.610352
327.141754 336.430298 2074.375977
308.977203 129.784012 2119.381592
174.831589 262.142365 2105.217285
196.599518 360.516479 2077.123535
195.099884 463.671051 2183.525879
302.835663 428.001617 2176.940186
382.185608 271.180786 2093.213623
367.315582 176.269104 2102.070557
491.655670 254.087112 2182.429443
298.574768 240.211075 2103.722656
335.448914 72.809471 2129.949707
148.480057 234.067123 2089.914063
84.472534 117.200256 2102.374512
444.122253 365.326416 2276.466309
301.402313 96.052795 2122.000732
337.633514 138.387634 2120.351318
271.057312 447.553802 2080.004883
299.361816 436.663269 2335.603760
194.974274 484.752472 2206.386719
300.342773 43.887447 2105.418945
370.037872 403.890839 2210.124512
490.824005 322.414307 2243.292480
76.769310 129.857758 2108.342529
290.949951 100.533028 2109.274170
161.124283 65.237106 2115.233887
351.163208 414.959534 2266.993896
293.285187 438.795593 2260.984375
450.286255 346.157593 2258.522949
355.263184 79.188385 2130.207031
214.434158 374.687195 2076.309326
431.504211 404.191620 2220.461182
340.231567 422.341553 2281.500000
478.074677 248.412842 2166.427246
446.104614 406.546265 2246.958496
395.628052 157.847519 2110.294434
331.106110 287.063660 2097.050537
242.839401 389.557953 2082.608154
370.314880 374.615265 2077.889648
338.910980 224.131226 2107.223877
374.933197 399.297302 2218.277832
504.236847 250.053467 2193.778564
445.071136 353.945709 2270.529053
444.289001 364.622437 2216.971924
377.652466 88.535561 2135.999512
305.591492 255.554749 2110.715332
431.722443 393.446350 2158.904297
196.795715 455.244904 2074.524902
408.183533 260.481232 2113.319824
189.968552 117.864548 2130.285156
417.084717 236.959106 2155.797363
136.852310 121.678665 2105.368896
256.684753 454.951385 2188.323975
186.189621 354.808502 2080.740967
298.805481 -19.973804 2129.448486
403.380005 191.538376 2149.453125
435.417725 410.277740 2223.995361
81.797882 122.276596 2087.928955
377.010101 166.089966 2108.979736
377.696564 20.899530 2154.519531
347.311890 3.708307 2131.744141
307.521759 15.403387 2131.729248
449.812164 394.240662 2227.998291
423.483307 334.943207 2103.020020
57.674622 63.875053 2103.492920
242.063339 450.826843 2219.852295
427.316681 409.974457 2240.515381
200.625336 483.199280 2286.393311
382.774170 330.391022 2079.092285
334.138458 160.803299 2108.268066
455.882111 265.311310 2162.497314
222.440445 443.664001 2075.741943
435.610931 391.211700 2152.431152
318.289154 74.402534 2126.317627
176.684189 97.234314 2110.760010
370.718079 129.813904 2104.704102
361.805206 110.272285 2109.308838
400.491974 383.918427 2118.424561
256.079498 7.892753 2118.346191
411.781006 327.690094 2090.730225
343.824066 423.006165 2336.805664
255.156631 444.678772 2232.983887
231.712860 176.903351 2110.337158
253.137131 472.217590 2356.163574
242.317612 464.288116 2073.125488
497.996796 245.827393 2198.101563
408.911957 265.758728 2104.173828
323.668427 420.443542 2230.247314
369.261383 24.030645 2174.848877
349.553223 104.897736 2106.931641
386.517212 116.037186 2130.343262
233.401855 438.752045 2070.198486
360.681152 40.963589 2146.876953
232.024246 188.256668 2107.219482
167.477875 251.413910 2087.472412
311.977692 420.643127 2298.777588
335.122162 333.775696 2080.147705
215.451752 362.234772 2075.562988
210.814087 212.977539 2106.547852
68.015442 58.286003 2098.689697
248.054108 387.793396 2085.908691
274.526184 408.998840 2070.828613
177.495056 473.325226 2351.846924
259.092712 96.822075 2118.682129
397.136566 167.538147 2109.072266
493.241852 268.363464 2225.012207
251.445740 -17.270750 2129.556152
229.430222 413.027069 2069.319580
297.567657 165.829559 2118.333252
460.270172 370.678833 2196.341309
331.066254 94.052170 2108.966553
182.387970 399.376099 2085.622314
86.469803 59.683247 2098.394043
299.516846 340.929077 2074.113525
255.365402 381.714874 2086.735352
340.714844 418.490631 2240.861572
373.281891 327.708740 2078.911133
318.567200 424.200928 2220.235107
428.966431 322.472473 2088.977051
461.963593 391.278564 2153.474854
324.517731 73.006554 2111.281982
423.791687 251.557724 2139.664307
242.849457 449.223358 2172.585449
225.470856 481.762360 2362.693604
413.198578 237.223114 2138.916016
179.094711 367.281189 2085.526855
354.022980 406.675934 2144.276855
410.808136 279.994171 2153.551025
225.413422 375.874512 2071.359131
253.178055 445.298096 2193.841797
151.983246 52.599270 2147.871094
203.934738 312.013794 2101.028320
204.381958 127.261330 2110.455322
305.986603 34.975655 2110.725342
382.887909 399.655396 2237.072998
313.031311 428.165375 2238.988281
322.956390 -24.691587 2130.617920
240.837326 417.957428 2086.112549
254.800308 -29.316725 2115.813232
379.401947 411.893402 2262.633057
225.045441 11.288141 2109.131836
115.137482 106.552391 2106.111816
300.614990 222.462372 2110.991699
255.539902 284.268250 2084.568604
372.421844 30.622580 2142.643799
524.995605 237.380600 2153.619141
413.853485 326.561890 2099.608643
487.432373 339.428223 2255.175537
324.870056 414.875916 2169.991211
477.446411 264.358368 2166.424316
430.902008 377.279358 2134.873535
373.055023 215.651901 2298.327393
356.923431 56.840076 2134.821533
312.128906 359.867493 2073.584473
385.957367 113.642395 2155.313721
371.601105 223.793396 2100.851074
77.328918 86.449654 2091.441162
95.873055 19.412319 2152.543457
189.682800 51.048672 2120.455811
104.414795 179.080322 2067.557861
367.588196 320.580811 2080.958252
161.296814 189.596970 2122.137695
212.183472 465.206268 2237.532959
162.371124 230.780319 2102.474365
312.511688 300.580536 2085.772705
321.676178 2.808164 2126.002686
396.816650 366.398010 2078.583984
425.032318 278.810852 2183.017822
355.706268 399.102234 2149.647461
242.829834 117.032547 2119.967285
363.330414 109.259804 2108.114502
339.411224 352.323608 2075.185547
309.151215 288.583344 2081.694336
193.836212 503.507233 2253.725342
281.528961 443.315247 2301.201660
115.585129 113.286423 2088.436279
435.275330 356.627655 2212.384521
206.629410 399.094116 2083.468750
399.589447 399.363129 2210.632080
264.978607 25.075947 2114.825684
145.566345 83.010376 2110.302490
295.534851 429.002197 2075.692871
393.959656 390.870697 2160.990234
208.392593 468.095337 2252.810791
291.990540 438.066162 2247.321289
392.127441 386.659424 2110.552979
188.906982 402.947876 2081.707764
541.013916 221.806671 2170.714600
410.118744 397.417267 2222.083496
448.524597 392.803619 2178.255859
249.458450 443.968292 2077.332764
220.299103 422.350464 2075.046387
274.109100 43.659966 2132.277832
438.857788 382.081696 2182.333008
406.178497 191.699890 2159.792236
436.523468 344.403351 2212.155029
458.380157 380.763092 2148.114014
316.550812 414.662994 2241.444580
317.955841 17.395798 2128.778076
363.781433 28.586264 2165.036377
205.282776 459.554230 2144.856201
415.625519 380.479828 2138.278564
177.478561 62.896439 2109.362061
531.027405 236.655045 2184.866699
480.179718 315.619965 2231.042969
77.603058 105.856201 2108.134277
200.514633 231.498856 2105.587891
304.990082 100.884842 2119.773193
438.324219 357.609497 2225.133545
383.146332 179.010529 2114.279785
407.388214 399.014221 2242.060059
357.934875 205.766663 2100.157471
398.348145 402.145660 2232.827148
309.030701 313.138184 2074.005615
523.730652 211.889328 2155.054932
384.364227 397.361328 2183.974121
336.292603 346.993347 2089.155029
175.946899 318.797424 2086.397949
246.234146 -12.649221 2117.773438
419.693390 275.851532 2146.544922
257.538940 438.486511 2118.962158
362.359406 136.853699 2108.700195
397.233032 327.742798 2084.161133
286.237457 377.525238 2072.225342
197.584595 465.785431 2122.913330
223.612701 346.653595 2078.306396
338.525940 12.206022 2120.037354
348.203369 328.253937 2086.470215
236.591614 114.826195 2124.646973
180.576584 140.945068 2109.491455
389.975494 224.710114 2115.658691
409.844940 170.767532 2190.821045
367.102905 323.111542 2078.992188
182.619064 389.774353 2085.552246
347.223511 385.949493 2095.182861
478.147644 258.467133 2158.971680
150.600189 227.475067 2088.864014
177.754608 231.995529 2103.693604
384.192932 118.403343 2111.985840
108.716217 153.724655 2098.374268
341.811340 -26.651154 2143.427979
206.598633 281.011292 2125.570068
188.934540 175.921829 2103.896484
339.058746 406.026520 2114.278076
199.895645 465.348938 2070.945068
503.393219 244.687836 2161.856689
351.692993 202.149979 2103.227051
504.304291 234.154999 2149.053467
321.749146 181.726624 2112.651611
260.822174 -19.259254 2116.473633
233.688171 115.677780 2112.856934
297.260986 409.997650 2127.833008
98.816002 148.729431 2100.556641
440.660461 353.519348 2304.806885
163.317581 306.493317 2083.774414
426.122925 269.571838 2168.180664
292.374420 11.232808 2121.732178
238.955917 354.079224 2075.609131
293.962433 80.631729 2112.617676
342.006744 413.711151 2355.279297
220.101547 293.766479 2105.711426
152.448990 144.206467 2095.426514
197.985748 467.414551 2105.696045
221.380341 468.916870 2309.880127
193.262131 257.991394 2101.720215
379.604492 362.693848 2085.357178
454.522552 266.885162 2152.174561
447.200714 254.025864 2142.182617
153.620377 7.929396 2111.496338
256.492493 58.076149 2121.761475
122.179810 104.520027 2108.629395
445.560242 384.807373 2152.605469
395.800354 355.765533 2095.371094
422.209045 134.553146 2204.096436
222.322311 213.090073 2105.776367
289.266571 429.489838 2123.249023
337.546448 404.983551 2073.093506
180.084946 267.598633 2100.299316
440.006409 225.348907 2143.256104
284.718475 425.893707 2107.024902
421.568054 309.865509 2093.102295
83.428398 150.817047 2084.915283
262.758636 464.932709 2351.594238
433.336670 404.977295 2244.445313
413.136688 272.119019 2121.587402
435.618469 339.400848 2179.990723
370.078979 301.456421 2080.976563
333.505249 422.804565 2259.149902
321.393616 425.767426 2254.011963
204.684509 274.447968 2118.916992
288.644104 166.607758 2108.274414
268.400909 -44.520893 2131.243164
77.896339 116.750679 2105.629150
333.798828 106.178284 2125.319092
358.210693 37.995293 2168.303223
123.502754 262.412689 2091.943359
445.145111 401.735413 2252.793457
418.960724 281.963684 2189.556396
408.150513 271.844971 2146.375488
533.214600 234.201370 2153.548828
259.329895 424.359009 2087.099609
121.491974 131.514191 2103.955811
433.356476 329.860168 2221.242676
382.585266 151.386261 2108.162598
344.949127 35.959705 2138.818359
328.262329 423.917389 2245.720947
183.718475 467.023651 2320.711670
280.699493 295.032806 2093.810547
342.980011 431.022217 2294.857422
392.318939 244.182404 2098.624512
360.748474 346.439148 2075.095459
197.357834 465.495422 2227.583008
198.680328 467.079590 2094.453857
312.646851 37.767815 2110.562744
513.948975 330.669373 2264.813232
279.830536 364.994141 2065.847656
325.154236 422.586609 2219.512939
212.611618 116.005356 2111.531006
216.718689 471.723328 2342.055420
458.576385 379.942932 2223.807373
116.851646 119.171562 2099.236572
495.371735 279.855255 2238.735107
366.755341 365.800171 2094.776855
452.885803 391.388611 2125.253418
222.389725 288.182281 2106.795898
94.264824 53.934605 2107.327881
354.068542 248.951004 2105.687500
323.622620 381.439301 2069.036133
265.603729 426.997009 2075.754883
455.263702 353.447266 2277.930908
120.820160 96.183861 2148.662842
259.442383 112.481026 2117.214844
390.034576 278.897827 2095.355469
398.540955 248.214890 2121.228271
194.765640 111.358643 2116.958252
334.188843 430.589661 2259.500244
145.925888 230.693497 2112.545410
156.196915 262.030701 2089.242188
417.541748 179.013214 2222.613037
406.094879 159.552658 2118.590332
310.261292 120.671631 2120.207031
460.735626 266.982513 2159.390137
354.570618 338.377258 2078.619873
356.090424 368.927429 2090.513428
309.543640 306.641693 2084.184082
380.232727 392.493988 2133.648682
291.812286 442.432709 2307.035400
282.242950 161.399551 2111.518311
125.604095 172.849716 2096.455078
351.234619 153.148666 2113.007813
411.539856 316.855499 2086.507324
165.794312 374.870056 2079.633545
170.785126 8.882345 2151.741943
344.767242 104.190575 2108.682861
412.304474 274.142731 2159.947998
209.641739 168.033295 2111.680176
448.643707 386.385681 2166.218506
348.010223 -8.662917 2144.943604
376.531006 404.835510 2234.542236
461.804169 262.189301 2183.049316
347.382416 391.330231 2075.532959
441.726929 381.984100 2130.301758
127.959946 93.066116 2105.999268
288.049377 312.339081 2076.044922
428.665161 323.954529 2106.594482
388.462494 402.479553 2290.527832
366.389496 374.491180 2076.590088
274.172363 434.218719 2348.557617
348.338379 13.454826 2133.036621
96.348198 184.770645 2085.327148
448.231506 357.934296 2269.981201
376.045715 -5.381065 2198.795654
292.884979 454.873962 2352.930420
193.724640 190.949509 2102.794434
172.858246 201.930923 2122.126709
300.537384 217.469620 2107.539551
244.002960 462.430450 2345.612793
250.690353 459.110138 2305.810303
373.267212 272.529388 2096.716309
155.154953 289.130341 2082.987549
349.665375 90.080658 2127.096436
237.448685 459.141815 2249.078369
314.297882 412.675110 2112.332031
257.037018 168.670654 2117.631348
348.732422 337.943634 2086.141113
531.529297 226.706985 2168.972168
352.884186 413.405212 2110.177002
213.391159 80.088036 2119.025879
198.232513 150.994873 2107.137939
270.015900 363.524139 2072.906006
159.040558 217.329254 2098.423828
215.007706 324.521027 2068.333496
255.424210 438.721619 2144.457520
379.871368 16.691778 2197.971680
239.839859 -12.795440 2129.220703
269.503113 -46.114239 2148.616699
357.519958 22.466639 2131.164063
422.968658 312.319824 2204.249268
496.109009 255.191147 2153.736816
170.889847 139.433670 2128.517578
293.519409 -23.760233 2118.460205
251.420029 -28.184290 2115.252441
252.513931 430.212555 2145.457764
331.364563 412.917358 2115.970215
331.905884 203.799088 2114.474609
186.230316 145.203781 2117.283691
336.667511 -48.213482 2199.094727
442.734863 363.387360 2257.817871
196.784058 340.483673 2082.265381
351.157227 260.750488 2094.634521
329.138123 424.180817 2290.033203
427.260895 364.439636 2101.288574
402.489105 384.162384 2145.803467
344.268066 -12.088328 2165.311035
374.890045 198.360489 2108.158203
392.563263 171.399658 2110.602295
205.814255 320.857269 2095.197510
124.030647 152.463135 2107.988770
267.389465 453.790222 2330.987061
222.281021 226.892075 2098.469238
254.540268 124.283180 2117.275146
368.155090 333.817780 2083.107422
441.794678 373.159027 2234.377686
391.202148 401.649902 2170.167480
234.607483 463.680634 2317.713867
346.626801 71.026108 2128.460205
202.636169 181.248627 2100.325439
164.735901 250.861496 2094.190186
339.341309 -19.161783 2150.649170
236.666794 469.675507 2276.916992
318.746002 282.819733 2098.386230
319.890198 342.961853 2074.060059
197.483688 479.895844 2245.089355
93.250656 129.039719 2101.554199
85.630882 156.362457 2096.392090
369.694000 345.579193 2078.254883
442.612793 421.585022 2287.869385
479.135284 248.021912 2167.651123
218.384659 454.347839 2097.243652
316.609894 320.993164 2067.245850
321.366302 96.346031 2109.884277
373.450409 357.042053 2077.782471
271.908417 372.834259 2073.784424
309.448303 357.793304 2071.425293
525.834778 227.339859 2177.570557
267.026154 361.538269 2070.241699
216.144592 88.973747 2114.778320
339.011444 97.889481 2108.154541
218.389984 306.190399 2105.717041
178.009521 285.685150 2089.548828
165.395172 368.845520 2077.617432
128.498169 135.628906 2136.057861
331.568512 380.985870 2089.371338
532.266724 312.082947 2229.392822
264.330750 87.413246 2126.250244
507.263885 337.373077 2276.709717
454.240234 232.351227 2175.549805
212.228607 31.220961 2131.078369
127.772652 240.584579 2098.273926
392.794006 257.940247 2096.114502
370.947449 144.524933 2105.368652
398.083801 153.018692 2128.092041
211.644485 219.814163 2109.182861
441.231842 346.345123 2211.127197
64.632278 90.704628 2103.996338
167.171906 133.581161 2118.736328
143.733963 137.661636 2108.914551
323.587585 -8.279993 2126.253906
169.876587 235.055527 2103.670898
126.075867 267.910645 2084.023926
237.459015 444.737732 2161.130615
357.269775 120.867851 2116.373291
363.301544 17.025555 2142.516846
73.577339 123.178574 2095.106689
237.263168 75.249329 2118.691895
240.135529 209.948776 2109.684570
271.123962 -32.600941 2114.081543
201.247574 -3.280467 2148.692871
89.463402 119.282845 2103.363037
514.365173 280.953918 2242.137451
286.533325 448.527985 2347.104492
325.324219 291.983917 2078.586670
448.416199 400.920624 2121.076660
435.631500 360.690826 2147.846924
338.603668 400.861511 2072.056641
343.344452 422.610809 2293.114990
420.602264 297.862335 2126.803955
194.297440 275.505798 2105.113037
536.456909 238.241440 2160.949707
392.993134 233.399460 2102.985596
484.899353 338.226288 2225.294922
350.185242 357.591248 2072.153076
362.398224 429.127136 2346.833252
370.065735 140.054825 2101.541748
382.294556 397.173859 2195.057373
524.776306 225.644287 2180.828857
422.656158 186.360001 2236.001709
438.304688 393.503265 2280.544922
389.395813 398.354034 2221.454102
325.214722 341.431366 2073.547607
447.763580 272.942047 2201.541260
370.156982 66.454201 2150.497803
364.333954 205.601440 2104.253662
151.845810 256.637146 2088.371582
185.533249 278.486450 2087.252441
122.859383 177.355637 2115.736572
396.994934 398.351563 2192.409424
414.814392 274.290344 2254.575684
474.687958 272.230042 2156.706543
290.255798 321.019104 2082.285889
287.035706 37.851860 2111.042480
375.732208 65.112297 2211.514893
156.877060 229.993332 2089.906250
423.908813 358.241699 2087.776611
531.439209 253.007675 2186.248779
292.235229 445.145935 2353.117920
305.725372 418.972412 2118.883057
313.021332 397.604919 2066.431885
340.189575 356.924866 2075.673828
451.168976 350.867035 2256.921143
387.782928 401.993408 2278.376221
553.094910 233.125275 2165.063721
106.395325 139.637863 2094.947266
199.638763 232.677780 2092.815186
179.929214 241.953888 2098.142090
452.081543 248.783661 2139.697998
338.439392 18.180677 2128.394043
119.205940 99.246582 2103.584961
434.924408 266.331573 2155.989014
304.216125 140.212128 2117.728027
419.116791 370.556244 2097.947021
379.946503 399.467163 2243.398193
388.718903 140.640686 2104.751465
186.677139 271.842743 2093.770264
329.945923 96.400116 2118.607422
336.137390 432.319153 2283.101563
397.184235 345.201630 2084.024170
252.407639 107.801979 2124.635010
253.281097 329.429779 2078.334717
371.314575 273.566711 2093.127686
258.708679 159.112656 2114.995361
325.924042 416.821472 2327.897705
356.256134 235.867371 2099.140869
195.848846 438.663147 2091.991211
380.974396 288.556854 2087.020508
249.490128 428.719147 2072.635254
338.104797 46.877705 2136.134766
374.784637 404.368073 2251.778809
352.263275 126.580582 2101.642090
290.559723 103.871880 2119.184082
245.748459 -0.849849 2110.476563
284.627289 383.704987 2068.583252
195.089111 458.035126 2159.600830
437.508606 339.881226 2126.816406
326.095215 -31.064859 2137.402344
326.409515 33.241261 2119.688477
267.411041 110.114662 2116.169434
169.753937 125.013245 2111.994873
279.276001 308.645966 2089.882568
444.181732 377.907898 2143.107178
225.867538 345.000671 2078.624023
211.214584 461.268921 2355.125488
461.435120 365.417450 2252.978271
352.823730 405.621643 2088.922607
179.854935 195.289047 2110.472656
457.028473 257.727142 2167.784668
283.057434 20.013489 2115.626465
385.348236 115.848480 2125.499756
132.816528 129.916534 2101.340576
371.775848 276.670563 2092.575684
385.062958 314.803162 2083.994629
340.405060 123.895393 2114.969727
382.156525 401.000732 2265.080078
382.617249 163.586273 2113.277832
252.952393 52.177860 2113.124756
350.668457 352.243256 2075.232910
392.505524 311.606934 2096.544678
497.543549 346.042816 2268.905273
365.604401 116.478104 2131.253662
370.177185 377.570953 2078.004639
297.356354 249.626755 2104.698242
291.974182 379.894165 2062.725342
345.828979 53.602104 2123.913086
477.618561 345.722321 2290.284668
401.914246 286.387665 2089.467773
342.629211 211.863037 2107.933838
521.360779 334.898773 2241.336670
393.904907 178.247345 2160.637207
170.567322 215.464264 2099.261475
274.642242 431.230042 2245.223389
345.855438 369.908325 2074.666016
394.394562 124.390541 2122.997070
402.783142 209.049698 2146.368164
395.183685 368.476288 2082.691650
387.678131 150.953506 2113.416992
190.367249 434.265167 2090.277832
98.772636 163.809280 2099.448242
401.134155 386.209259 2088.034424
448.310425 395.816925 2266.385254
326.942535 423.715820 2274.736572
367.832703 225.540009 2101.402344
390.437927 223.848083 2112.293945
469.654480 229.805939 2196.942871
280.918091 -43.226055 2137.005371
286.912048 51.663300 2113.538818
438.505798 391.864960 2136.569336
211.339462 356.263580 2076.698975
125.506721 142.328400 2102.223877
434.263367 405.424744 2202.276855
195.231567 435.705414 2063.277344
185.399292 362.023193 2079.670898
171.040726 -8.590485 2167.515381
444.677490 364.885223 2183.144531
345.353027 397.274933 2095.552490
237.564041 456.580170 2236.533447
168.274811 7.478801 2120.002686
350.981567 160.416397 2105.048096
281.616669 438.575104 2230.725098
291.377106 45.273994 2119.062500
350.774902 329.060181 2073.852295
433.279419 263.510193 2140.131348
512.716309 241.742065 2173.184326
223.913040 372.413086 2074.033691
157.592194 354.495026 2093.336426
194.274048 390.157959 2073.319580
311.173370 57.742683 2111.612305
527.968018 206.414642 2152.772705
362.490753 123.427132 2100.751465
507.716888 242.112976 2147.093506
138.931503 176.572708 2104.429688
108.537140 216.290024 2106.942139
198.082275 467.983154 2341.179443
264.613831 27.288822 2113.200439
409.389160 284.635925 2098.727783
311.753296 368.090637 2074.402100
350.020599 -7.504656 2136.307861
400.803558 383.142456 2114.868408
210.193207 452.364319 2144.725098
161.700058 233.847458 2103.534912
106.917923 71.491165 2167.409424
317.785492 128.478409 2116.956787
409.099487 402.675079 2247.282471
309.395416 -48.788918 2288.565918
371.310638 364.941559 2074.426758
315.132141 317.366638 2081.236572
399.504120 179.514221 2115.319092
182.706726 40.196369 2108.622314
151.854523 30.481573 2147.580811
435.088531 266.127563 2190.787109
366.018585 69.902184 2268.081055
285.374878 437.489990 2156.739258
365.540771 348.115906 2076.748779
300.257568 434.077576 2119.244873
270.842865 363.895691 2070.358154
302.402008 168.252335 2108.595947
309.365784 115.758354 2116.967773
315.150574 268.976227 2097.903809
335.869324 360.131348 2075.464600
493.200775 303.121216 2240.642334
452.918182 260.056213 2145.729248
376.966003 221.546188 2110.146240
325.864319 350.892487 2074.854492
317.406250 438.536499 2267.591553
362.810944 377.180969 2092.344482
246.074234 444.332275 2318.811523
333.568848 210.051392 2106.387695
530.396057 237.069794 2181.880859
371.584595 405.981659 2268.282471
277.237152 436.880585 2089.245117
494.993011 302.035645 2242.068359
240.167297 252.036713 2107.069336
159.030594 329.517059 2089.275879
204.629120 440.386871 2070.205322
354.694092 404.843719 2236.637451
326.819824 279.625275 2122.784180
346.009552 269.828094 2111.992676
442.151764 358.308105 2098.849121
507.838959 229.947281 2152.865479
222.179398 445.805908 2082.156982
342.743225 340.707916 2074.139893
439.162445 402.562195 2184.908203
512.898254 301.610229 2245.456787
317.412292 325.114594 2085.734619
371.407837 -15.304161 2197.636230
272.636444 325.871429 2075.135254
405.683777 373.284882 2079.421387
347.197601 282.848755 2086.939453
366.950806 407.747284 2247.296875
228.383270 122.100357 2115.948730
390.208893 120.077324 2115.849121
291.210754 -35.042114 2122.347168
319.711487 -24.714834 2129.271973
367.419006 415.381256 2233.483398
385.964722 139.141388 2107.401367
329.379486 88.525475 2110.419189
297.575500 92.403778 2115.234375
496.915680 224.042542 2186.889160
257.638245 44.311634 2122.422852
441.746887 394.976471 2178.262207
219.286331 446.432953 2163.232178
428.501770 372.085205 2119.424072
293.097382 397.207184 2090.072021
228.269699 301.534546 2109.905762
183.470459 492.803619 2337.103516
395.996613 287.634460 2083.247559
321.072296 140.233307 2116.859375
533.159912 231.485245 2165.043945
399.798615 372.843109 2102.273193
275.831207 341.460754 2078.494141
418.485535 179.460739 2127.434570
364.182739 342.482635 2073.018311
341.507294 177.224121 2106.737061
75.553864 109.849060 2102.937744
370.164551 39.436329 2206.159424
317.136749 377.240021 2068.551758
346.222473 316.118408 2081.041016
398.456696 146.143143 2117.103516
402.690765 142.270950 2123.710938
210.459457 -11.304095 2127.018066
298.027344 34.172180 2110.105713
426.557037 411.997833 2318.555908
395.534027 144.864944 2113.882324
68.867889 35.374866 2202.811523
327.039368 179.576675 2118.754150
330.303009 424.114655 2262.121338
321.001251 106.204498 2106.757568
336.188660 -9.476852 2132.088135
354.864075 325.324646 2077.211182
232.219070 449.758148 2165.342041
256.484406 130.968704 2115.629150
389.778229 356.445618 2078.195068
313.355103 20.717325 2134.218994
118.325363 65.797928 2132.076660
242.582184 6.377575 2115.578857
199.875778 463.676788 2075.708496
383.999542 144.298157 2152.643799
533.354919 226.070145 2176.790283
182.804398 18.109531 2121.026855
432.824310 234.735504 2196.308838
293.592316 315.507568 2076.422852
542.160950 238.229538 2159.612305
490.517090 305.681122 2230.013916
310.304352 422.132233 2331.375000
253.947266 304.711548 2097.005859
190.538239 453.427582 2176.846680
377.253143 213.529388 2110.696533
351.555084 -22.825605 2182.120361
171.822159 54.631271 2128.845459
435.467560 378.539215 2143.584229
362.964478 331.830139 2091.112793
372.286865 224.836945 2100.021729
491.494598 324.101013 2241.968262
393.580505 141.624786 2114.203613
252.136642 452.893494 2260.456787
353.860443 418.136780 2297.304443
275.675446 -22.066513 2123.175781
159.342957 362.078003 2074.376953
407.319977 396.688751 2206.844482
431.508118 345.167145 2144.912842
196.087860 475.447845 2256.633301
275.406067 390.762848 2083.416992
351.765076 415.696198 2310.477295
286.628601 401.151581 2065.034912
357.097565 398.468536 2144.617432
385.209076 329.106903 2093.020508
285.606079 447.148224 2359.818359
274.286865 439.553833 2181.454834
278.228943 217.044769 2104.428467
370.630707 413.529327 2336.301025
218.040894 455.759430 2127.338135
277.677002 441.755188 2069.530273
187.970703 397.312042 2088.513184
344.831543 373.411469 2083.460449
150.209702 325.633484 2070.689941
437.246613 353.958771 2262.658936
101.396561 95.688637 2099.288818
493.003998 248.721527 2193.383301
77.821281 72.621933 2098.735596
296.357666 427.165131 2127.282959
393.516693 397.713013 2181.761230
235.124924 359.921997 2074.131104
345.675598 180.573761 2103.692139
447.894531 414.010773 2305.889648
460.343933 226.808182 2149.273682
435.791748 411.845184 2242.352295
169.448669 191.581863 2105.736328
255.563278 -37.197720 2212.881348
276.554718 -34.823517 2307.023926
217.241318 418.994141 2071.918701
251.059082 318.885345 2075.372314
455.065247 373.394196 2201.446777
228.295578 56.534805 2120.937744
353.197052 396.571991 2126.029297
351.673492 267.860748 2091.859863
491.010468 235.882416 2162.900879
135.481201 282.563995 2072.221436
255.226196 454.431427 2366.704346
322.322662 121.944458 2108.773926
402.187561 165.980530 2119.229980
347.419189 193.469360 2109.687012
384.698303 213.894699 2099.426025
423.997864 289.572266 2175.150879
308.544006 19.058586 2114.716797
266.229980 448.900208 2297.058105
407.711182 380.917542 2122.175049
284.111572 429.130402 2177.957031
380.756714 120.632126 2117.339600
280.783173 56.519524 2113.341797
144.352188 259.826874 2091.640381
297.281036 430.183655 2142.798340
472.783569 241.518173 2156.705811
409.519684 348.826538 2091.412109
128.401154 167.512405 2097.093994
389.803436 136.793045 2129.484375
435.238617 368.035736 2289.458740
361.092438 329.057892 2090.390869
238.527206 1.999812 2109.796875
491.811859 335.647552 2303.737305
143.949738 114.570724 2107.895264
371.597443 260.457245 2098.859375
247.368835 427.733337 2094.439697
434.451599 278.625061 2145.617432
402.670380 179.375549 2112.269287
437.611969 401.579742 2181.705078
323.449615 240.961884 2108.018311
383.640594 108.668770 2117.054688
201.809738 217.905472 2101.647461
223.200424 443.803894 2082.576172
176.386093 400.669830 2080.061279
201.706039 468.449371 2267.713379
345.671051 325.049988 2077.421387
248.848846 330.724457 2079.019775
395.757050 133.872009 2119.166504
423.796051 385.677307 2131.443359
438.875427 209.049500 2164.016846
378.866486 97.459572 2217.187500
523.026184 248.001175 2182.553711
301.143036 227.566910 2119.921631
298.948151 225.764740 2103.925049
214.975174 13.253170 2116.404785
496.304871 325.681366 2250.570801
315.835175 315.466431 2073.317871
170.281006 11.368606 2142.508301
162.893127 322.620880 2090.985596
397.216248 310.203217 2094.156250
277.837952 382.421997 2070.753174
319.098297 395.086273 2065.411865
433.217651 351.936218 2123.593994
201.323563 482.283722 2259.659424
426.128662 356.319244 2090.560059
415.976837 178.899780 2119.950439
237.730164 375.245758 2072.397705
219.224930 468.465118 2334.595215
354.444153 319.991425 2086.870605
314.649475 147.198090 2114.420654
187.307129 409.603760 2071.674316
263.181213 272.542725 2125.611572
100.796944 195.191071 2082.887451
475.299042 338.697845 2245.755615
322.521332 422.078033 2201.743896
486.734009 249.072037 2168.649414
146.519882 196.078476 2094.241699
183.927750 207.305618 2108.159180
358.313416 398.274628 2154.434814
203.324280 439.004059 2085.056396
321.711212 291.402283 2085.917236
266.515350 449.714172 2273.418457
386.018036 403.140594 2270.561768
304.604370 434.699585 2265.067627
262.430939 160.397064 2118.278809
62.522697 64.788826 2102.606689
197.367691 432.647003 2085.412842
504.812866 291.208618 2238.187256
429.908905 328.672882 2172.304443
316.044830 435.619934 2244.152588
138.206924 211.119247 2095.066895
233.549225 374.181885 2071.028320
257.934662 25.485960 2122.201172
329.662811 97.749619 2110.538330
394.523407 181.573822 2103.326904
128.342728 220.397797 2067.615967
149.052032 192.021881 2104.842285
328.644073 428.823395 2327.365234
431.206818 318.614075 2091.670410
417.374573 375.261444 2119.883301
376.338715 184.023911 2107.452881
443.383789 390.403839 2184.672607
183.580460 429.406219 2074.759766
504.988953 231.859253 2177.350098
162.264420 319.269989 2087.941650
358.535156 123.294754 2121.995605
139.638977 243.786407 2050.852051
309.812927 86.513634 2117.906738
407.157898 171.053619 2137.018555
429.314392 391.996887 2155.189209
340.203522 28.920984 2142.057617
441.826324 374.096710 2250.689453
316.272919 435.527710 2231.426025
140.161591 139.971130 2102.270752
236.787842 302.434631 2132.387207
522.890076 233.415222 2165.434082
219.743088 233.648758 2117.506592
447.489655 259.621429 2203.158447
341.358948 76.502335 2125.641602
365.428772 42.631424 2167.399170
445.890656 372.703461 2185.047119
410.145935 264.495483 2097.607666
209.147369 173.907867 2109.842285
292.758575 429.858276 2174.923584
181.014832 28.213770 2119.973633
346.744690 392.444672 2130.405762
354.398407 78.467171 2131.075684
313.029480 416.921143 2152.713135
470.763916 341.983490 2218.572510
194.012985 396.096436 2081.081543
473.606140 321.450073 2230.140137
374.770782 394.288330 2109.845947
444.782166 375.833557 2286.877686
409.812775 180.627060 2168.429443
382.913300 -11.013039 2145.416016
109.693504 215.948013 2077.979004
309.198364 383.351593 2062.988525
364.976715 279.583252 2091.125244
237.077469 452.649536 2200.160400
194.991333 46.866287 2119.772217
364.306549 116.218529 2130.686279
305.312592 383.639221 2069.027344
448.624054 253.185196 2146.206055
237.236023 449.480225 2172.058594
141.533173 320.792389 2102.170410
423.649445 416.682159 2311.054199
298.512115 454.272308 2354.110596
342.776337 351.483246 2079.839355
312.237854 164.527679 2112.766357
397.740143 260.623962 2092.179199
526.881470 239.466751 2152.947021
203.812912 112.001564 2127.816162
387.924774 336.069946 2085.053467
419.170837 256.085876 2137.789795
259.818176 219.016617 2110.143799
326.937958 391.726746 2080.797852
268.138519 2.140138 2111.210449
393.751801 396.836609 2231.381592
471.366333 263.889801 2169.657471
385.694733 333.212372 2080.912109
363.671478 399.313843 2198.662842
346.330353 412.074280 2188.962402
301.127014 91.926697 2111.084961
262.494720 -43.641510 2147.887451
428.123291 242.838257 2144.295166
126.739662 212.661331 2059.062744
422.355621 417.842102 2281.544922
