ply
format ascii 1.0
element vertex 1382
property float x
property float y
property float z
end_header
-178.801636 665.656311 2038.225708
-392.167969 463.681885 2096.730225
-328.453766 624.624023 2024.252808
-392.508575 578.873047 2280.050049
-355.516205 696.648743 2029.697144
52.295166 592.926392 2061.413818
-340.841980 566.157288 2019.774170
-196.888840 579.321716 2054.118652
-385.546173 569.880127 2126.019043
-308.545868 646.211731 2017.474609
-331.868286 599.489624 2027.792358
-372.943542 667.768372 2054.009766
-356.943573 676.343933 2081.156738
-369.551361 689.964111 2213.425293
-324.772247 679.500549 2015.549805
-366.779602 640.384094 2101.107422
-162.690231 708.513428 2055.292480
66.306892 694.716003 2055.093994
21.246094 718.217834 2049.507324
-135.475998 687.446289 2027.130493
-6.716486 547.981506 2059.000244
-301.154633 660.707886 2004.264526
-31.171669 467.315552 2098.747070
-397.643341 595.510132 2259.609619
-110.471733 516.499390 2056.651123
-368.954773 632.377502 2141.666504
-280.043823 733.319336 2105.876709
-390.701935 588.943848 2257.403320
-391.918427 526.113831 2092.822266
-53.940376 704.270081 2048.901123
-232.814896 774.716064 2056.546143
-380.330750 573.742798 2093.862061
-365.439575 692.092651 2173.609375
-281.615143 804.013000 2144.299805
-369.896454 631.112671 2291.068359
-358.081543 634.321594 2019.516602
25.847776 534.894775 2054.572021
-198.602142 434.517517 2055.913818
-330.116913 639.770142 2009.363403
-119.754410 613.678223 2051.348389
-57.883755 429.476318 2056.642090
21.881157 670.984680 2036.599487
-28.406414 515.904053 2057.629883
-268.926086 523.451965 2038.922974
-353.762207 662.895996 2009.673218
54.480072 575.387634 2046.246948
-386.535767 748.760986 2231.546875
-285.904755 828.008972 2146.284424
-175.938110 480.501129 2057.355469
72.521759 678.817444 2077.089600
-266.109222 664.180603 2013.931885
19.918398 717.426819 2059.518066
-277.972778 455.977478 2060.988037
-208.052460 810.338379 2039.215210
-303.750580 668.521423 2017.348511
-157.413086 642.862671 2047.003296
-254.090439 631.024902 2016.812500
44.223919 546.478760 2071.178467
-375.398560 530.303223 2043.187256
-368.349945 532.692871 2026.896606
-118.347763 462.883820 2048.295898
-65.090668 691.416443 2035.745972
-217.611969 739.131409 2072.786621
-204.891968 645.667542 2039.976074
-358.171967 682.732239 2056.906494
-168.166275 496.821533 2057.611572
-374.009094 612.246826 2068.358398
-35.812317 403.185638 2062.707764
-267.234222 735.606567 2146.697998
-319.401520 546.064880 2025.179810
-357.302124 749.489258 2077.864502
-226.726669 469.060059 2048.661133
-291.461060 702.736877 2009.493774
-429.563965 483.870941 2244.171143
-131.084702 730.316711 2038.526733
-302.236755 612.928589 2008.926147
-74.184563 705.405396 2047.245117
-195.820786 502.271454 2052.135010
-2.486944 687.640015 2053.163330
-70.402512 418.306824 2068.664307
-355.868378 731.947083 2081.870850
-254.266022 537.349487 2024.440918
-87.263069 682.002747 2028.442383
-321.545319 802.718750 2170.233398
-131.051300 602.267883 2042.549561
-376.577057 510.349701 2048.583008
-387.561951 648.425293 2244.224365
-253.437256 707.213013 2027.407349
-190.791641 687.736694 2020.336060
-239.480087 635.241150 2021.845215
-388.270142 544.993958 2155.271729
-34.056881 660.996704 2031.662476
-309.475800 515.671631 2044.753418
-229.356995 617.968201 2030.615112
-196.384369 550.676147 2050.613037
-199.231598 539.097473 2065.509521
-319.876251 577.674377 2018.733154
-55.466320 664.467407 2041.868042
-324.289948 792.538208 2139.460693
-305.530762 732.846252 2115.028809
-300.655304 616.359192 2009.303101
-135.493835 540.826782 2048.374512
-204.162460 758.228699 2061.813965
-411.547211 515.327515 2323.196533
-22.434978 440.104370 2058.201904
-274.203125 534.430725 2031.110474
-361.207489 755.716736 2225.912842
-190.590179 706.040894 2033.510986
-216.335892 812.654053 2098.947998
-183.769791 606.106628 2040.466431
-371.596130 674.339539 2268.454346
-180.397766 504.313995 2069.574463
-214.926376 822.469788 2096.308838
83.708000 507.497620 2074.562500
-261.339233 656.579956 2019.948975
-32.105076 725.953857 2067.163818
-429.902740 485.780670 2229.436279
-277.091095 527.415771 2040.038696
-12.885104 537.274658 2104.914063
-136.979935 467.464020 2045.021362
-380.212372 575.194458 2054.375488
-391.204590 557.245850 2194.122070
-285.314453 729.065308 2142.322754
-364.345673 697.428040 2151.658447
-86.562515 580.099915 2045.342163
-375.363647 603.559143 2078.270264
-163.973694 448.968384 2059.850586
-370.929871 633.951294 2029.229004
-307.969574 573.360535 2020.696411
-318.667572 752.925354 2171.925293
-305.359161 526.130981 2026.593262
-362.617889 664.588135 2115.969971
-96.300522 428.596252 2062.240967
-383.479706 469.115295 2077.857178
23.064716 665.560120 2040.965088
-253.695801 781.698975 2061.670166
-214.100082 620.565735 2045.002686
-147.088516 531.569763 2053.926270
-207.091415 594.216187 2043.292603
-383.226868 518.938599 2136.132324
-331.791382 757.408630 2122.662598
-67.239426 623.135132 2048.087646
-81.000641 614.060547 2062.888428
-379.600861 700.971863 2249.217285
-338.959167 756.944458 2203.989990
-245.072769 490.379028 2048.052979
91.109306 662.528870 2117.875732
-254.333878 742.901123 2107.260742
-75.979446 686.154358 2023.952881
-365.219543 690.440247 2176.733643
-240.719131 485.055176 2044.928223
-161.090195 640.245972 2050.020264
-366.237000 555.553223 2020.376343
-339.042969 769.481567 2202.468994
-393.678406 511.199158 2067.490234
-387.986389 551.457581 2140.958496
-70.836243 585.118286 2049.978027
30.351097 631.917114 2034.623535
-276.839081 684.472900 2013.258179
-332.502045 691.234558 2012.856445
-73.170860 546.056335 2053.135254
-193.952148 685.298645 2023.328979
-226.472580 853.237366 2065.222900
-237.199371 681.916016 2019.803711
-255.882996 484.514923 2046.292358
-108.013939 584.936768 2061.610840
-111.194786 422.064240 2073.799072
-390.711304 570.500977 2219.911133
-388.407196 742.498291 2210.325684
-373.254700 532.390503 2032.885254
-386.274078 742.330261 2106.293457
-370.196686 599.431396 2075.759277
-395.345947 492.865845 2111.407227
-334.821625 604.703369 2009.818115
-263.200439 529.637756 2040.234741
-214.284454 827.431030 2055.584961
33.630260 452.007721 2066.525635
-382.180939 634.173889 2159.610352
-370.775604 624.073486 2143.563965
-275.082062 634.367981 2012.019897
-242.305527 713.681702 2028.818604
-227.736801 441.100739 2060.740479
-392.770050 601.485840 2217.044434
-170.555038 642.195862 2051.590332
-225.492981 722.319763 2076.616699
-255.550873 590.083191 2026.890137
-247.255020 609.270996 2035.086060
-233.372162 833.284912 2070.454834
-259.941528 828.935120 2104.429688
-95.336761 417.843536 2061.348145
-20.284714 621.259583 2059.633789
-356.328857 559.532654 2019.012695
-317.765198 617.629333 2016.082764
-301.681427 592.580688 2018.113403
-316.813538 654.493591 2009.138428
-17.243584 461.049713 2065.239990
-368.071747 682.509888 2190.640869
-364.385223 692.158569 2091.395264
-411.060181 515.233337 2245.740234
-396.050659 542.279114 2239.971924
-379.074524 640.238037 2259.729980
-270.269165 445.939636 2050.856201
-362.649719 707.331238 2065.095947
-144.634674 486.980164 2063.151611
-109.618279 450.622925 2050.557129
-356.570892 675.381897 2064.702881
-392.638702 525.253845 2157.651123
-226.723053 760.544189 2065.419922
-370.419189 669.389343 2194.686768
-230.156204 742.201233 2058.265381
-394.959534 530.129395 2052.475830
-228.531967 821.874817 2069.174561
-279.238556 751.997925 2100.975830
-431.434387 496.755920 2339.100098
69.855721 560.692932 2169.008545
-241.472534 596.623413 2036.202393
-362.762665 663.344482 2101.566895
-86.213539 685.514893 2028.596558
38.860180 482.148529 2063.618652
-361.023987 667.539246 2044.538574
-287.420929 517.864319 2028.537109
-149.139786 727.523682 2037.892212
-294.692261 675.627075 2012.332031
-374.657593 732.353699 2118.575439
-185.702637 571.528748 2046.187866
-365.891998 647.978516 2104.092773
-59.207947 540.481445 2071.138428
-274.275269 815.747620 2139.033691
-18.848026 736.729309 2114.421387
-256.893372 692.935913 2012.038452
-388.503479 524.668640 2121.295410
-220.892899 759.328186 2074.654541
-379.636688 727.157410 2089.170898
-289.989044 638.036438 2017.109253
-14.315855 485.048187 2084.396973
-236.602463 764.265503 2077.478271
15.182446 715.343323 2085.948486
-262.083771 738.035400 2073.319824
-344.361237 679.409729 2008.369263
-120.194878 618.529663 2040.989868
-392.308929 539.802185 2155.664551
-326.543854 802.406250 2194.216553
-381.451782 531.407898 2053.372314
-358.056335 477.486237 2052.933594
-376.187653 538.253113 2108.380859
-378.133514 741.278137 2127.253906
17.465338 656.086914 2045.082764
-252.231613 533.059814 2046.514648
-371.474945 571.786987 2040.357788
-42.076214 738.192322 2153.102051
-329.246765 735.662354 2076.020264
30.021908 611.060303 2045.283203
-263.580536 495.390472 2058.457031
-337.127655 750.041992 2265.488770
43.826828 448.272614 2056.295410
-294.097961 805.194336 2152.925293
-349.828888 576.151855 2016.544312
-44.538979 688.867920 2025.723145
-211.229156 606.502136 2050.343994
-328.907166 777.684082 2183.680176
-331.661865 574.617126 2010.426147
-106.651329 722.416138 2103.371826
-374.655731 711.945129 2086.986816
-215.232712 812.299194 2051.947510
-229.644012 764.824158 2061.967285
-368.112274 490.893799 2041.594238
-355.771484 637.138123 2056.816406
-229.495880 722.857178 2042.449341
-295.987152 581.904419 2027.848267
-400.985565 496.876190 2251.779541
-356.072357 509.030334 2039.428345
-0.197218 717.742249 2073.419189
-114.366493 591.035767 2061.111572
76.797142 569.893677 2126.169434
-170.015533 692.333618 2024.784912
-366.291046 700.978699 2174.848389
-330.660767 759.359619 2190.577148
-361.318848 586.576965 2018.694824
-319.120789 585.930969 2014.342041
-207.782593 451.862457 2054.864014
-390.623322 558.236145 2167.410156
-121.309189 675.339111 2026.288818
-244.757660 774.876099 2057.809814
-251.028702 717.458618 2075.035156
-249.536133 441.892914 2035.076538
-215.585220 581.398804 2049.583252
-364.931335 537.325317 2026.514404
-322.333282 728.491272 2052.552490
-34.321430 591.121582 2068.679443
68.274551 556.303284 2044.344360
-372.420013 654.471436 2186.977295
-228.377228 634.139526 2029.085815
46.104168 738.953796 2085.372559
-398.629913 735.902466 2238.419922
-199.633865 718.507751 2075.428955
-99.782784 714.815674 2040.570068
-141.272690 709.475586 2037.312866
-312.364380 664.036682 2025.303223
46.965740 513.259399 2104.014893
-356.848846 671.399902 2061.789063
-231.470978 825.446350 2070.304688
-279.174225 535.107117 2039.065308
-374.890869 661.504395 2067.601318
-412.308838 478.804413 2062.616943
-380.403168 597.086243 2129.138672
18.786634 550.164307 2102.437256
-362.659454 474.154755 2052.335205
36.696377 482.068024 2068.128418
-407.786346 477.467072 2206.666260
-74.320374 614.087708 2041.671021
-370.917145 458.716858 2055.447266
-67.078934 542.212341 2057.749512
-332.095856 592.834167 2009.580322
-279.365784 829.070740 2139.912354
-285.720215 625.396423 2021.450684
-404.807983 504.977753 2319.040527
-231.384933 794.497986 2060.694336
-73.049843 556.121521 2048.561523
-152.728806 736.107239 2094.483643
-309.337128 683.863098 2012.411621
-224.153778 849.098755 2063.396973
80.367157 598.708435 2047.803833
12.294291 411.662781 2063.852051
8.848636 612.248108 2040.647583
-387.422150 592.313049 2216.027344
64.731804 651.572266 2038.770020
-381.682434 721.721069 2099.250488
-400.897247 583.498840 2270.533203
-86.609459 661.567627 2036.380005
-377.300140 571.936584 2058.837402
-226.342728 829.537170 2055.634766
-300.323364 662.447205 2017.803711
-25.845470 512.744385 2061.582764
-220.113464 813.229858 2131.582520
-280.564484 583.597290 2018.806030
-32.091785 472.775391 2075.656494
-295.649841 651.742126 2012.766602
-30.737638 686.461792 2050.007080
-56.402359 661.094849 2040.823486
-396.338379 564.012573 2279.136475
-61.748913 634.442261 2047.783447
-39.059845 457.217560 2100.508789
-381.918518 604.818420 2192.237305
-387.679718 560.459595 2136.065674
-152.160690 740.021667 2063.808350
-152.771896 483.986359 2059.334717
-228.475952 582.612732 2050.043945
-352.227692 705.588867 2043.135986
-232.602982 750.211548 2058.115234
-390.905884 496.192627 2089.214355
-241.299713 615.281067 2024.274902
44.032513 570.532837 2061.398438
-389.463379 606.916199 2287.664795
60.335186 524.473450 2212.471436
-146.879395 492.007019 2074.699707
-388.215698 550.923767 2238.521240
-351.871155 645.174988 2008.153687
-359.235931 665.224304 2078.510010
-213.198349 570.034119 2053.069092
38.999886 606.261414 2056.979248
-389.615326 563.286072 2198.425049
57.104126 459.420471 2104.820801
-13.998709 719.870544 2076.507568
-109.304489 513.787170 2058.138916
-319.677429 697.570068 2008.187134
62.717686 547.420410 2228.837158
-218.893784 577.547729 2042.315796
-376.434387 607.252991 2216.840088
-59.814503 589.062195 2048.303711
-385.830414 470.106476 2028.516235
-362.856476 648.535461 2092.164307
-225.607681 581.893921 2077.523926
-59.701298 699.609131 2064.957275
-294.772400 767.651733 2154.977539
-369.682343 649.612427 2156.103271
-312.485413 664.450684 2019.702515
-341.053619 507.196442 2034.798584
-276.584229 559.904846 2032.276245
-300.664429 618.408264 2027.891479
-401.767426 513.029297 2274.605469
-10.736075 717.311096 2071.752441
-219.227661 735.677917 2054.058105
-32.238327 637.002136 2057.650391
-142.035843 480.485474 2046.611938
-375.010040 713.317383 2079.827637
-280.169312 735.951599 2076.702393
60.769112 575.926086 2048.453613
-237.203186 792.492310 2113.184570
-370.956085 734.139526 2119.890625
-56.144665 737.538696 2104.556641
-246.119064 731.211914 2060.840088
-66.024536 697.433960 2035.563843
-359.342499 743.382874 2210.656250
-355.930023 729.315063 2100.601074
-333.345825 491.807159 2033.790527
-132.373642 595.956421 2053.827637
36.102448 733.375793 2049.128906
-54.914169 691.961609 2061.952881
-104.991249 567.075256 2048.862305
-360.335144 731.093933 2054.385986
-141.096497 682.987671 2026.565674
-22.973515 432.390045 2072.058838
1.959794 577.634094 2054.161133
-76.514427 742.825684 2113.635986
-285.703552 705.216858 2015.686646
-327.469604 727.057739 2049.553955
-339.422546 539.450073 2030.101318
-350.116333 630.622803 2013.706909
-317.582184 524.003113 2041.330811
-372.600159 612.223328 2238.109131
-102.343880 434.210602 2065.066895
-245.673569 476.963501 2045.869507
-241.045914 821.142395 2059.595459
-90.573441 446.712494 2058.281738
-367.457245 737.118835 2094.360596
-298.535339 709.953918 2015.270874
-108.036201 530.617493 2059.535156
-210.328964 454.824707 2053.554443
50.818295 556.340637 2048.616211
-313.297058 782.137146 2140.068359
-116.806732 699.556641 2024.607788
63.879498 670.604858 2056.794678
-162.355591 556.926025 2052.116455
-87.575821 671.676941 2032.948730
56.580166 514.102112 2049.587646
-348.930176 730.694458 2053.700195
-363.726990 750.132263 2162.190674
-320.967468 816.119873 2188.099365
-16.397326 660.196350 2030.613403
-334.105042 705.606750 2016.895752
-310.139130 808.616211 2146.750488
-391.859650 515.180420 2245.799072
31.828093 480.392517 2059.954590
-136.597641 525.280151 2055.872314
-260.031006 672.023926 2018.895386
-13.123602 668.732971 2037.035156
-131.896729 700.567139 2025.507202
-391.343292 586.816833 2171.773926
-322.098602 693.088501 2011.079956
-294.786255 843.252258 2135.266846
-392.012726 553.126831 2194.776123
-90.194450 593.944885 2050.401855
-235.466339 515.209229 2059.782227
-214.048248 446.130585 2060.345215
-373.630554 635.573059 2085.340332
-239.144135 804.922546 2056.760498
-263.893982 759.028015 2060.372314
-352.450836 496.236481 2039.189087
-369.786591 652.451782 2116.782959
-89.533798 660.712708 2033.011230
-296.856018 569.050415 2030.049316
76.152016 602.633911 2048.570068
-240.667343 849.426147 2076.125488
-177.997208 727.731812 2074.344238
-81.204872 726.096313 2039.779907
8.710937 651.819275 2031.763062
-101.991501 718.613953 2057.380127
-175.474472 726.065247 2047.498413
-358.310791 664.732910 2067.751465
-14.913116 501.037292 2053.671875
-345.497894 649.648315 2032.230225
-131.181488 713.449036 2066.876709
-375.269287 619.570923 2167.570557
32.453037 719.224548 2059.896973
-211.113571 854.473145 2042.567749
-148.321365 424.345062 2054.154297
-37.386314 511.062683 2075.442871
-396.747375 495.878662 2136.610596
-273.085205 712.440002 2024.995483
-401.129364 560.389343 2229.064697
-26.701075 446.934052 2061.677490
42.899441 499.770294 2086.006592
-104.588417 523.876709 2055.578857
-389.389038 470.638885 2046.003784
-406.671295 535.120972 2242.389404
-391.490631 576.414429 2131.524414
-377.877747 598.948669 2213.127930
-275.716125 594.001038 2015.904419
-393.202026 514.144592 2328.178467
-298.847565 740.786011 2144.056641
-232.275070 632.044495 2026.804443
-376.814728 637.297668 2227.489746
-184.284607 516.318726 2059.017822
56.289814 620.900085 2038.979004
-218.778259 766.419556 2081.102783
-308.636810 664.857483 2011.112549
-406.612885 502.207977 2283.949219
-240.848251 817.494263 2064.956299
-400.191620 529.984009 2287.378418
-364.360260 537.826965 2031.345947
-300.148376 684.643188 2012.975830
-229.337540 809.317566 2057.518066
-154.337311 582.262329 2049.691162
-396.350037 537.087585 2205.155029
-102.190903 465.575928 2059.110596
-77.239944 499.621948 2076.814209
-363.127441 681.971558 2120.304688
-238.977158 647.850098 2031.005493
-98.615768 652.774475 2030.361084
-384.679291 459.874573 2043.365967
-122.527451 468.089111 2058.885986
-392.184296 530.852722 2167.689697
-366.299072 699.844055 2151.459229
-84.947411 706.779175 2038.480103
-138.392532 708.030396 2025.575562
-248.195969 683.552307 2022.473999
-218.605560 466.386841 2047.280029
-243.723465 783.136780 2081.622314
-94.356201 433.472595 2061.687988
-363.465790 669.822754 2136.026611
-165.689514 550.523438 2056.593262
-145.554169 592.890930 2048.625732
-158.385696 495.502594 2060.899170
-365.685150 666.879211 2099.307129
-334.973358 647.283386 2013.367188
-230.467514 711.861938 2033.107056
-363.900604 674.087158 2098.348877
-36.327911 712.444336 2055.849854
-161.785782 712.908142 2063.701172
-325.054108 803.312866 2206.269287
-408.862457 475.151123 2132.207764
-174.135910 427.514343 2036.971680
-363.209045 707.623108 2158.231445
-196.960999 748.110535 2066.787109
-241.624329 702.192505 2029.534546
-250.911865 458.723175 2053.255615
-386.710388 549.204224 2323.713867
-43.780193 569.304749 2055.024170
54.561535 460.691833 2070.555420
14.653460 741.009827 2098.306641
-376.608002 621.905334 2198.636230
-229.413834 864.573364 2058.664307
-364.179138 660.807739 2090.142090
-265.811859 615.854675 2020.597900
-157.776779 436.878906 2058.274902
-255.741928 562.809937 2074.093262
-51.663261 481.688232 2061.072754
-125.856888 496.775665 2060.472412
-374.112244 727.546753 2081.107178
70.591934 684.603088 2065.527588
-377.524933 561.658447 2057.367920
-21.293379 420.695801 2059.693115
-245.425369 728.314880 2059.952148
-301.043884 692.480347 2013.348755
-326.143982 703.230835 2022.099121
-373.370758 648.316650 2167.984863
-235.659393 599.478271 2032.207886
-205.121872 748.006592 2090.160645
-85.785698 723.566467 2067.730225
-317.904602 662.682434 2007.452148
-206.923599 721.130310 2049.596191
-186.420837 657.213562 2031.228271
-365.469360 687.828125 2166.448975
-137.054337 593.061401 2054.028809
-0.630694 484.683685 2060.845215
-150.976196 660.927979 2032.409546
-216.819824 504.447235 2055.166260
-342.593933 508.762726 2038.463867
-240.437973 818.439148 2079.717041
-94.124908 739.317871 2105.385010
-382.274597 615.502197 2248.206543
-188.669968 575.533386 2048.410645
-177.607758 663.165039 2028.052490
61.290436 481.082977 2089.397705
-332.693146 649.218506 2020.959717
-319.569733 577.260681 2018.954346
-280.558990 596.285278 2007.986816
-80.666748 433.504547 2058.004883
-250.196381 803.971497 2087.564697
-133.655960 606.924133 2042.022827
-281.784485 540.051086 2023.444946
-385.986176 583.652344 2212.136719
-262.069702 730.480591 2165.668457
-335.866760 568.931152 2020.850342
-136.531174 715.492188 2060.217773
-414.331848 474.369965 2133.199951
-301.539612 654.818420 2011.494141
-16.816868 700.461548 2054.265625
-73.023712 436.363525 2063.070801
-284.574463 556.875366 2033.276489
-366.096436 699.963135 2114.730225
-306.554321 825.569336 2155.657959
-381.458374 599.483765 2155.016602
58.491951 578.550415 2047.095825
-86.281860 688.735718 2034.571411
-177.178207 463.769379 2048.650635
-361.961578 462.962402 2058.035889
-105.584473 550.803223 2048.578369
-384.214691 484.137115 2044.548950
-274.546539 471.932587 2051.409912
-124.192810 434.618561 2057.956299
-121.850548 578.238586 2053.456787
-378.395630 598.540710 2103.493408
-287.651550 698.620422 2009.372803
-376.810699 619.834961 2153.645752
-75.969650 439.100220 2071.045166
-323.886383 733.832092 2106.211182
-382.938843 578.799133 2158.445557
-373.099518 664.784790 2048.859131
-47.815029 678.809509 2037.381226
5.613453 653.251282 2047.241089
-403.927917 469.638428 2082.022217
23.303995 680.176331 2049.489746
-350.505127 728.888733 2072.408936
-242.508560 807.849243 2062.949951
-394.772308 480.562317 2145.640625
-379.157013 631.849121 2217.162598
-299.928436 564.615967 2022.406860
-99.088432 447.031494 2068.586914
-45.733109 658.110535 2041.276001
-60.618797 654.627991 2034.177124
-369.425751 703.200562 2182.587402
-358.289551 677.144653 2221.040039
-352.909882 521.411804 2041.591553
-267.359192 536.048401 2038.776733
-391.092010 730.873596 2218.289307
-194.724060 678.060425 2024.857178
-106.061852 592.732544 2061.432373
-295.667542 501.449036 2032.278442
-189.204300 645.209717 2033.492188
-386.529083 721.499573 2244.144043
-194.290222 573.157593 2071.592773
-113.983086 680.512451 2018.521606
-200.611954 811.897949 2048.605469
-30.677559 445.577759 2090.716064
-224.816711 436.928070 2041.464111
-327.380829 536.150635 2030.688232
-376.127991 610.245850 2121.683350
-391.738129 553.018860 2190.840332
-94.370453 497.813477 2071.685303
-245.077133 779.803650 2059.167236
13.310976 586.271484 2054.611816
-51.569862 555.653564 2052.790771
-114.348923 501.429352 2054.817627
-33.503082 557.312500 2057.498291
-275.819275 715.375488 2018.755249
-382.491943 616.416626 2132.212158
22.412708 604.275940 2058.934570
-192.196060 709.792236 2032.974609
-72.893478 572.831665 2046.577393
-253.239487 757.567688 2097.855957
-214.683990 808.603088 2059.274414
-326.182007 748.115784 2166.184082
-158.753220 541.929565 2047.545776
-113.793343 548.456055 2067.232178
-51.903824 412.837250 2064.740723
-16.570587 696.243652 2058.788330
-373.237640 648.574341 2200.249512
-320.169891 682.625610 2005.095581
-189.043533 587.659424 2050.069092
3.791724 732.880310 2101.184570
-185.548401 682.643921 2035.460571
-370.757843 673.885803 2232.610596
-298.368683 719.392029 2050.137695
-376.143890 572.779297 2072.776123
-408.650726 486.596893 2269.527344
-200.669754 689.813904 2021.842041
-370.824341 608.942627 2028.144653
-390.099670 530.510132 2080.598877
-236.820038 765.224365 2054.569092
-65.655457 599.674133 2048.874756
-299.977509 621.185059 2013.021851
-387.617798 613.492188 2162.762207
-163.581268 474.684113 2051.211182
35.650333 693.763123 2045.986938
87.787148 646.467773 2076.353027
46.229988 584.442078 2047.862183
-367.298615 577.226257 2039.042725
-394.328522 635.637939 2297.577393
-411.269409 487.190063 2280.088379
-296.016510 604.691772 2014.804932
86.220596 672.174316 2203.129883
-137.071274 459.764801 2065.135010
-313.799866 743.155029 2145.951904
56.088036 476.633789 2164.864258
-94.467598 722.729370 2098.517578
-381.625885 584.782837 2089.218994
-81.131805 679.125183 2025.470093
-361.079346 651.454102 2030.765991
-333.910400 704.078491 2016.631226
2.099812 482.546692 2073.744385
-88.814484 669.819641 2029.109375
-33.745693 706.500122 2068.258057
-347.757019 579.408386 2017.338135
30.396696 468.178955 2090.297363
70.834816 611.249390 2052.071533
-261.328857 717.866821 2105.020996
-176.373383 700.682556 2035.213745
-24.925106 507.063232 2062.098145
-112.639374 425.692291 2077.333740
-403.521759 594.607788 2248.250977
-123.430847 524.293823 2056.813721
-345.004700 696.783325 2033.218140
12.592927 730.351624 2072.881592
-202.998367 522.844421 2046.137817
-394.687439 577.117920 2293.844482
-276.134155 654.243896 2013.102051
-338.676666 740.676697 2130.052734
83.356888 658.895752 2066.445068
-84.390129 604.439697 2049.441406
-259.648560 704.919189 2023.843018
-77.357758 591.801941 2049.857422
-340.073273 643.169128 2010.215210
-232.540848 829.820679 2059.469727
-356.827911 667.080078 2055.537842
-193.054855 486.433228 2062.309326
45.565598 668.732971 2038.078979
-176.808502 509.074890 2069.251953
-157.362640 563.931641 2051.776123
-130.596924 679.189148 2032.938721
-114.481842 663.644958 2028.823242
-108.123016 505.688660 2058.278564
-198.244812 839.418884 2049.857910
-15.190123 702.505676 2061.785156
-3.752762 692.161865 2051.954102
-354.428192 679.170837 2038.330566
-250.528854 477.756042 2043.367676
-351.166626 751.140259 2144.981445
-132.486267 523.394775 2067.635254
-46.546722 698.652039 2038.535400
-106.063507 541.563782 2053.286621
-293.135925 596.690369 2014.057495
14.844836 665.309814 2040.646118
-265.846008 540.323547 2037.642212
-27.139893 405.595093 2052.326416
-285.250000 742.354919 2145.726074
-111.883377 631.668579 2059.581543
-390.629974 584.134033 2291.551514
-124.716133 431.911774 2012.108154
-321.825562 817.095398 2192.215576
-234.431564 815.075195 2057.374023
-57.964397 480.403870 2065.487305
-408.707458 526.472168 2224.330566
-337.758881 769.970581 2160.783203
-29.137648 649.597778 2032.374512
25.009987 678.192932 2037.231445
-293.202728 776.928955 2156.230225
-389.398682 569.786865 2204.071777
-206.974686 601.844971 2044.097778
-307.761353 562.298157 2016.457031
-22.105106 728.076904 2127.750000
-59.054432 456.029785 2053.203125
-154.945236 598.276123 2053.020752
-149.382980 540.355286 2052.754395
20.032383 495.266022 2085.959473
-173.125839 590.856750 2046.720825
-347.397156 738.753967 2179.061035
-358.241241 499.366730 2032.698853
-243.020508 793.453003 2061.473877
-110.888741 454.450806 2049.804443
-412.489319 531.847534 2317.471680
-285.725769 476.756073 2041.011230
-162.454605 696.775940 2029.990723
-289.055603 645.155884 2022.213013
-70.080688 578.028259 2062.827148
-158.759583 714.746399 2027.437744
-170.849731 687.488525 2023.894287
-373.743988 644.225159 2091.065674
-334.329132 802.450684 2149.908203
-385.194702 622.404846 2259.259033
-283.972626 508.241211 2035.753418
-385.059540 562.776672 2151.934814
-324.034088 674.021118 2012.776489
-248.086914 729.462341 2071.098877
-396.649933 533.966187 2225.293213
-381.560028 543.740234 2300.977295
35.723064 735.083252 2102.580078
-343.768250 594.868835 2034.795410
-274.030945 779.002991 2149.078857
-366.235657 624.082825 2064.993164
-381.036743 605.195068 2174.869385
-369.817657 619.928406 2103.920410
17.495983 531.607300 2055.412842
49.921085 734.929321 2084.370850
-398.452850 554.526672 2189.425781
-253.360809 466.832214 2049.579102
-392.243469 512.164856 2214.729980
-22.321461 694.796814 2055.539307
-368.128021 618.734375 2087.169434
-2.404951 427.830139 2063.795410
4.381764 544.905884 2054.973389
-258.582977 604.913391 2027.283447
-120.713852 659.905762 2037.858032
28.431761 488.136505 2061.574219
-328.861633 687.120544 2005.353638
-82.594749 684.215271 2028.825195
-375.257751 577.523621 2084.621094
-238.501236 439.616913 2068.505371
-341.041199 750.719971 2171.926025
-16.540108 484.472046 2096.609619
-28.983738 685.971802 2040.595337
-19.404638 454.169647 2094.718994
-243.830597 730.812317 2122.131836
-71.569473 604.767456 2043.880371
-367.721252 684.745117 2200.693848
12.039449 741.776123 2109.776367
60.686783 659.513977 2058.160400
-343.900818 663.887695 2022.315186
-232.684799 619.717590 2028.833984
-172.707474 525.926453 2059.888916
-229.814087 713.532288 2036.077637
-422.128418 496.184784 2273.583008
-149.340042 462.256866 2077.995605
-371.679138 725.587158 2072.739990
-388.990906 585.385559 2308.481934
-332.312500 765.950684 2204.395508
-402.567017 565.777344 2252.971191
12.596463 462.886932 2051.030029
11.018270 711.617493 2079.384277
-180.787384 459.093903 2049.635986
-401.836304 485.534943 2183.625977
-387.333069 588.689392 2132.882813
-263.677887 645.666016 2024.163696
-342.460205 467.493073 2054.015869
-322.084045 787.479614 2159.212891
-395.898804 550.546814 2215.322998
-223.165878 654.961365 2035.558838
-100.617584 465.020660 2056.387939
-136.166122 713.355835 2038.922363
-247.479019 709.187988 2020.849243
-200.235535 487.188568 2055.510498
-309.056000 578.507813 2029.588989
-338.488770 747.437805 2232.207275
-319.048370 739.593689 2098.206787
-177.954163 713.705994 2060.624512
20.638102 601.354492 2052.250000
-357.370239 689.998779 2037.525146
-6.535159 630.225586 2057.729004
16.488117 647.840637 2026.419556
-404.836609 539.051941 2229.050049
-10.667275 558.775269 2066.182129
-18.014668 593.669312 2044.138550
-382.371613 568.212158 2137.891357
-334.260223 458.838867 2026.117920
-181.392487 656.203735 2041.017334
-128.890839 729.490967 2038.425049
-400.600159 503.708466 2218.894775
-306.658966 804.544739 2149.112061
-241.858749 502.056152 2068.899902
-285.004089 590.565796 2019.236694
-343.693329 533.863586 2036.754150
-265.005127 539.563965 2029.539063
-362.203827 688.124146 2229.251953
-170.704544 489.319000 2055.938232
-303.330994 829.198853 2138.716309
-25.237667 655.515015 2026.287964
-283.431366 706.597595 2021.872681
-304.528595 720.536377 2071.770996
-300.875854 785.093567 2143.001953
-132.185043 657.749695 2036.856934
-262.739319 713.889709 2066.659424
-247.730545 715.967346 2078.027100
-359.296417 740.820801 2126.136230
-343.209106 599.394165 2016.452759
-348.053314 583.446350 2013.433472
-13.462505 725.013123 2089.361328
-333.234894 764.179138 2210.740723
-332.860718 570.356079 2011.588379
-227.056122 648.390259 2054.937012
-100.378510 508.580200 2062.505371
-130.353531 433.323761 2059.742676
-359.511078 720.180176 2066.448975
-233.599350 606.689026 2029.634033
23.823320 719.618286 2048.559326
-367.166290 663.522949 2115.195801
-148.594238 733.509949 2048.435059
-173.191055 428.181885 2069.298828
-404.447693 519.782532 2301.323486
-130.937149 561.349792 2052.218750
-219.692215 520.111816 2066.133057
-138.341705 529.127625 2048.228516
-309.980164 585.386658 2031.684448
-397.269257 508.553772 2165.755127
-369.205292 611.562744 2042.697266
-288.475159 531.075256 2030.117065
-53.468632 502.196960 2061.418457
-111.496880 448.529022 2052.624512
80.529472 605.193420 2166.692139
-66.985054 690.921570 2047.757324
20.937105 560.680298 2047.563843
-44.942654 499.223419 2085.363037
-354.203857 510.372040 2047.057617
-286.240326 537.068604 2039.201416
-410.112915 473.198334 2151.111084
-385.359802 590.904419 2246.644043
-331.048889 540.662109 2040.467041
-391.460785 521.419495 2034.832520
-365.602936 501.607178 2048.753662
15.286871 538.658081 2061.431885
-358.024292 460.179443 2058.307617
-82.421181 544.431091 2060.822021
-413.282318 466.985596 2093.751953
-111.959496 725.966248 2040.263062
2.178219 581.055359 2045.792725
-224.699814 604.518066 2043.160400
-359.324493 671.325134 2055.075928
-369.417450 614.570984 2054.529785
-244.689194 659.165955 2012.679077
18.886068 564.431763 2055.654541
-59.857285 689.433838 2055.731934
-234.581116 563.170044 2050.138428
31.859581 647.674500 2034.259033
-353.156647 680.558655 2064.792236
-277.852142 828.832275 2138.959473
-256.584625 848.018494 2108.779785
-228.592590 474.512817 2046.217407
-389.786224 480.192169 2075.527100
-75.587440 577.617676 2045.872314
-245.968597 799.973145 2089.340088
78.550491 587.703857 2048.687012
-377.198914 572.192200 2045.172852
-227.927643 846.304993 2066.104736
-298.393494 564.953064 2031.076782
-322.329620 604.254028 2021.722168
-322.657501 815.014282 2174.717773
-310.944061 793.164490 2165.529785
-378.221283 561.414368 2069.985596
-343.881500 587.768616 2014.899658
-382.769287 527.556702 2062.270996
-363.516235 674.103821 2120.387695
-377.326355 653.052246 2240.588379
-379.518188 668.193604 2192.147217
88.764702 690.155396 2136.317627
-377.214813 602.228638 2115.448975
-62.628494 478.372253 2065.329834
-245.489868 770.364380 2116.900879
-396.622467 516.276428 2158.354004
-251.602020 640.131165 2030.382446
-367.780243 695.838440 2123.101074
-264.981415 669.592285 2012.591431
-294.561676 647.524780 2013.701782
-319.160614 731.159302 2082.100342
-378.645111 630.855408 2233.757568
-33.886005 516.074768 2066.916260
60.715126 520.504944 2058.834961
-353.305664 454.926666 2058.235352
-138.515549 549.969910 2057.509277
50.835148 547.329041 2058.759521
-361.893066 677.224487 2046.198853
-305.450165 827.887207 2160.482178
-404.907928 489.496582 2257.343018
-366.881409 619.186218 2015.516846
-294.249512 513.568848 2041.171143
-241.477081 850.020996 2087.512695
-282.929901 622.359009 2017.099609
-358.294739 640.242065 2035.276978
-229.243088 738.289246 2080.111084
-314.236481 602.873352 2013.780396
-400.305084 497.775391 2246.088135
-231.428284 836.853943 2048.415283
-362.274414 664.951050 2062.820801
-289.572723 504.234009 2035.602661
-323.004974 783.339172 2206.265869
-383.488922 509.497742 2048.739258
-381.188599 724.625000 2102.203613
-364.383148 628.434326 2072.970215
-80.225891 439.129364 2056.950439
-378.511353 612.130066 2143.598145
-65.968475 653.803772 2033.112305
-125.190170 617.213318 2046.707031
-382.744873 572.418335 2155.558838
-306.923950 516.384644 2036.266113
-290.812378 745.419617 2127.177246
-307.173187 470.004272 2040.167603
-214.566574 838.181641 2055.025146
-291.396545 609.880005 2016.522705
-343.475677 578.816772 2012.573975
-114.930389 415.107391 2049.120361
-225.151672 461.019470 2050.588867
-371.258301 655.522888 2187.978271
32.512054 517.880432 2087.906738
-365.512054 630.477173 2047.057495
-34.224060 596.751892 2058.369385
2.689740 720.228577 2045.272217
-356.615631 596.784790 2010.576782
-384.472076 556.693604 2134.061279
-358.216309 654.211426 2037.537231
-306.497437 630.212158 2015.270264
-385.576721 459.469452 2047.869385
-372.158875 679.178711 2280.418457
-0.148176 549.829285 2058.079590
26.415848 724.592651 2048.455322
-193.802048 712.652283 2044.569458
-404.529236 491.831055 2177.325684
-330.273499 477.556885 2049.983643
-372.173615 678.140808 2062.855225
-321.894135 626.846375 2015.382202
-156.029785 518.437073 2059.528809
-338.988556 548.330994 2018.674805
58.787312 685.467529 2067.845459
-323.452606 740.846252 2148.474854
-24.869776 549.525452 2067.336426
-177.439713 692.118103 2023.470337
73.335670 662.611572 2065.740234
22.737209 674.645264 2061.105469
-82.611938 481.186066 2061.935547
-324.673462 775.742554 2218.574707
-166.337082 704.970886 2050.988770
43.985901 476.267059 2069.677246
-345.697144 752.725098 2149.075195
-216.095474 643.489685 2038.595093
-386.122894 550.901245 2107.481201
-384.376160 472.942902 2043.058350
-256.633636 728.050049 2057.750000
-154.518127 494.905426 2060.293213
32.076157 721.612671 2068.372314
-376.346985 641.097351 2249.224121
-276.712219 505.440979 2040.926514
-320.405212 630.332947 2018.071289
-335.473846 753.115601 2182.600586
-97.438629 716.388794 2042.015015
-283.459900 800.280640 2134.397461
-348.671051 677.347717 2006.918579
-309.631104 720.465332 2023.491333
-184.704056 649.081848 2050.768555
-226.873901 691.313904 2016.499146
-239.084961 843.166870 2059.787598
-3.045944 565.975281 2052.305664
-45.341312 465.865112 2062.516602
-374.829590 723.899658 2071.474365
-391.284515 575.622192 2219.447754
-231.629074 597.045166 2042.954346
-315.510864 472.795410 2039.528809
-105.686913 711.421448 2033.570190
-259.249725 671.660706 2022.646973
-306.356659 754.667664 2161.826904
-85.771339 613.200317 2048.877197
-303.272095 686.023315 2015.539551
-195.032089 669.003479 2031.556885
-97.440216 449.101868 2060.077881
-370.648132 505.062622 2033.446411
-382.302979 730.074890 2190.518799
-280.993500 533.936340 2034.715332
-186.956421 692.117615 2021.467407
-159.097961 718.018188 2027.796997
45.356861 663.582886 2041.357056
-238.870193 700.770081 2027.716797
33.354965 691.997437 2058.618408
-255.053970 657.150879 2013.763306
-309.178986 527.383789 2030.613037
-390.777466 546.244690 2101.898438
-146.015900 691.790161 2022.614868
-238.764526 678.508301 2023.501953
-173.448029 456.036194 2048.418945
-369.009308 723.904663 2063.149658
-196.577744 683.543823 2026.533813
-379.069733 653.888123 2159.929932
-230.957916 491.895386 2069.123535
10.204230 722.126648 2053.223877
-85.601990 535.980957 2077.558594
-254.426025 755.229797 2100.821777
-370.209503 655.992004 2125.827148
-270.545319 443.151581 2035.978271
-68.672813 510.129211 2061.365967
-262.861023 808.643799 2065.747314
-241.163300 706.398865 2023.437988
-313.311920 620.290710 2015.950806
-321.082642 671.287231 2007.731079
-182.469589 465.919067 2050.557373
-368.365479 629.109436 2218.187500
-95.187874 453.781494 2059.393799
-20.536804 615.190552 2047.534302
-274.785187 708.400269 2014.497192
-246.877228 775.365967 2088.965332
-334.494934 747.830872 2206.823242
-374.059082 649.313171 2211.424072
-308.673126 586.528931 2025.358154
-72.064079 535.981628 2063.929199
-365.820984 635.419128 2105.268799
-77.458183 699.604126 2035.780518
-344.790100 619.371338 2013.566772
-23.734383 687.108521 2044.711304
-44.283337 455.644653 2097.291260
-25.597965 611.632996 2048.712158
-400.405518 514.171753 2287.102539
16.151758 590.933228 2060.343506
-384.192200 731.853333 2165.921631
-401.462616 508.444366 2270.725098
-263.592560 645.844727 2022.474731
-18.748384 657.872864 2044.492065
-400.396210 496.573792 2201.342773
-73.090500 677.272583 2018.152466
-10.497445 648.774109 2050.951172
-131.755402 710.274719 2030.761841
-19.266186 668.557922 2049.616455
-103.625992 658.446350 2033.902222
-29.152687 627.915344 2047.228271
-358.285858 626.897949 2089.525635
-313.257782 741.493896 2143.881592
-375.826538 588.149048 2078.005371
71.466125 654.161743 2041.645508
-348.247162 669.117004 2007.676025
-47.939701 727.248596 2055.586182
-390.642609 579.626831 2238.589600
-372.211761 725.964844 2076.114990
-337.358612 459.268280 2034.507690
13.873934 711.330139 2037.777832
-225.770447 714.210083 2057.952637
-366.008301 644.274536 2100.458252
-307.789825 520.103027 2043.446899
-365.298401 563.070557 2025.553101
-77.062202 653.625854 2027.134277
-109.591377 659.084351 2034.583008
-16.681952 696.780579 2052.566406
-261.397614 641.357483 2022.587036
-329.866882 544.257202 2028.859009
-269.788330 577.914795 2020.821655
-121.696510 458.096863 2051.857422
-191.317566 543.454407 2069.491211
-248.752090 840.486816 2123.940186
-307.384125 687.251343 2018.708984
-351.598846 661.697876 2012.499878
-369.213287 633.926453 2073.286621
-12.720111 492.725647 2066.572754
29.555532 474.496368 2090.023926
-227.265289 652.220398 2031.950562
-250.817719 631.297180 2032.654053
-382.287140 550.356873 2125.265869
-372.949585 654.176331 2191.982910
25.039682 530.800110 2055.407227
-286.926239 705.540283 2019.289307
-371.982391 664.837769 2113.467773
-322.716095 605.126221 2015.073364
-219.230530 674.611389 2026.619629
-368.236084 669.788391 2087.482422
-6.435460 706.564087 2053.364502
-342.994232 574.617676 2011.086548
-232.732529 853.390686 2086.351318
-177.135315 704.217285 2029.307007
-204.498352 495.799255 2049.703125
-10.639156 718.763306 2077.120850
-322.205658 749.359680 2103.905762
-394.095337 567.680969 2253.057861
-298.507477 835.635376 2143.005127
-374.598846 676.352783 2285.592285
-305.734436 542.608582 2023.995361
-251.776794 723.806396 2083.832275
-171.858643 719.971558 2044.808960
-96.414864 670.669678 2028.713745
-380.996643 731.208191 2127.253662
-271.710602 580.820801 2021.973145
-267.424896 728.964783 2042.265503
-397.021698 559.529846 2284.473633
-112.679558 692.969849 2026.343506
-307.841095 720.700195 2024.738647
-359.074829 691.512756 2069.135498
-392.623260 555.710754 2268.093994
-8.968690 414.603455 2063.655029
-391.206635 478.254852 2084.315430
-229.763840 706.260986 2022.738647
-256.410126 566.524292 2026.446533
-381.354248 487.519653 2063.199219
-292.358490 637.194092 2013.008789
-410.494263 473.954590 2150.778809
-232.583740 847.978577 2089.655518
79.246231 657.681030 2265.593018
-257.013855 776.566467 2156.141357
59.282742 635.382813 2035.026123
-308.264954 803.280518 2157.724365
-277.524261 733.519531 2126.538086
-396.123932 536.839905 2225.410156
-247.378418 826.286560 2059.967529
-407.281189 474.064545 2180.613281
-378.784912 732.741150 2072.025879
26.123707 604.674683 2040.788696
-72.416862 490.556549 2060.175781
-267.508087 587.081177 2019.492188
-332.617706 514.095398 2028.765747
82.544952 613.155396 2047.197998
-113.287422 701.744019 2027.683472
-118.900124 498.040070 2066.951904
-43.691799 644.525757 2031.755737
-408.359711 563.953308 2313.822266
-288.595612 612.911377 2014.151123
-386.500183 574.076660 2042.898560
-133.389801 445.375336 2054.646240
-348.043518 589.136414 2013.165527
-132.115891 644.809143 2046.635864
-108.246902 486.975555 2058.551270
-359.552521 639.002136 2121.765381
-324.535736 532.240967 2025.717407
-337.136047 609.179565 2009.546143
-315.864685 549.132935 2020.028076
-274.086823 517.320068 2032.387329
-368.044708 574.086304 2051.422363
-386.243652 609.140442 2241.201904
-360.876892 684.590576 2141.201172
62.661919 566.102173 2060.045654
-367.478271 660.102356 2100.261230
-25.213308 563.776611 2056.631836
-358.634186 726.043091 2057.070313
-336.962433 531.662659 2037.255249
60.478767 689.076050 2050.823975
-222.200455 526.504639 2047.082764
-389.837708 590.260620 2293.865967
-217.344269 666.352356 2023.029419
6.044569 719.827576 2046.289185
-99.313217 619.072083 2063.027832
-203.949112 618.156433 2040.968628
59.192123 675.133362 2045.937134
-364.384460 478.178314 2060.786133
-378.678619 660.976685 2280.943359
-71.897896 426.745300 2066.221680
-340.914551 598.614990 2012.345215
-303.824768 682.090454 2009.811768
-379.111725 644.997314 2230.633545
-31.771441 468.525024 2067.708252
-286.405823 610.934082 2017.923462
-361.411865 696.522278 2060.452393
-251.577774 614.925354 2023.701172
-145.693054 446.401825 2054.782227
-423.162964 486.020233 2023.944580
-381.463226 486.060181 2043.513428
-356.576019 666.127869 2139.565918
-386.689758 657.007629 2250.643799
-311.009033 701.771179 2011.674683
-19.084562 605.969055 2042.904541
-319.759918 584.039856 2016.497314
-66.296265 451.805725 2055.262207
1.014815 418.082611 2063.000488
-316.346222 450.338928 2048.537354
-369.353546 481.240204 2049.667969
-389.477264 472.977020 2082.480957
-229.706039 461.188782 2050.694824
-175.202484 716.945251 2062.153076
-122.085861 703.181458 2025.171387
-271.015839 535.549805 2023.887817
-387.280304 575.491638 2204.950439
-117.507225 686.906677 2033.543701
-370.644501 575.671143 2039.881592
-269.392731 759.673950 2064.971924
-368.772400 592.981262 2011.831665
-212.936539 742.421753 2065.222412
39.322086 527.287964 2057.857422
-272.653229 592.139282 2021.901855
-363.375854 593.104919 2035.697021
-342.304413 751.945374 2187.775391
-159.729660 488.900085 2045.516479
-391.441406 518.091187 2231.817139
-239.923508 809.060913 2077.141357
-255.217712 466.240662 2052.675537
-15.617827 471.728241 2091.000977
-395.418335 556.604797 2292.855469
-112.835419 728.442932 2092.775146
-278.446045 644.357422 2005.120239
-191.351273 601.615479 2040.704590
-304.656036 745.702881 2150.789795
-396.454224 502.377106 2124.977295
-261.730774 570.025330 2028.869385
-360.979187 504.839386 2039.544189
-204.308167 827.651917 2061.765381
-58.368462 715.778503 2079.199707
-194.396866 655.304626 2044.369507
-142.287521 623.325134 2050.295898
-217.119339 760.256714 2116.634766
-230.091232 629.763245 2042.927368
-238.121826 738.761047 2064.207764
-167.680252 496.701935 2061.917725
9.801581 702.146545 2049.136230
-121.436104 545.303528 2057.341553
38.245663 662.251465 2046.808716
-335.687469 616.155884 2009.104736
-332.232635 756.101868 2142.830078
-394.721527 522.818970 2150.354004
-197.805649 625.160278 2039.477173
-50.849693 710.987671 2066.419434
-228.854462 856.980164 2064.600586
-236.169037 768.556152 2059.402344
-288.606018 573.725220 2007.709595
-227.206177 808.939819 2067.813965
-393.027069 558.395874 2253.810059
-351.595032 734.783752 2092.583008
-374.996918 663.737183 2251.368896
-311.238434 699.639587 2008.796387
-269.540527 567.277161 2028.625122
-97.980659 731.543701 2067.716553
-117.673897 658.198608 2030.267700
-137.735931 519.879761 2057.513672
-402.017822 593.640381 2302.791748
-287.293823 731.156860 2038.541016
-397.771851 512.680481 2197.301025
-329.321838 696.422424 2010.683472
-289.406677 719.656982 2037.446777
-355.224976 674.098083 2054.786621
-395.492645 540.219604 2238.544189
-153.607101 743.952209 2097.373291
-403.528290 494.717651 2225.199707
-259.612854 764.364624 2101.822021
35.666569 670.190063 2050.297363
-314.592896 765.099304 2169.175537
-342.002045 455.136200 2048.147461
-293.560028 674.611694 2006.797485
-372.816528 697.360107 2272.151123
-254.025970 801.401672 2066.191162
23.952921 449.566895 2058.605225
-384.306427 539.427795 2032.340942
-39.707317 597.243469 2057.126465
-251.423096 648.753540 2019.045166
-422.574127 497.656860 2323.308350
-304.292999 819.395264 2147.940186
-59.705250 410.655396 2061.269043
-362.648254 714.679565 2062.616211
-340.711700 641.344055 2014.119751
-328.110352 468.333221 2047.639160
-281.430145 754.413086 2154.413818
-320.707520 759.755554 2193.929932
-304.782532 729.714417 2093.720947
-181.061691 447.592529 2056.952393
-341.115021 462.537170 2053.505859
-393.119263 521.491272 2101.435059
-188.791641 709.215149 2049.036377
-298.117065 776.075562 2140.820068
-375.464508 712.721497 2247.339600
-322.723480 820.023987 2178.360107
-307.239014 679.577209 2015.689209
-118.919762 516.827820 2057.177734
-290.925751 848.669189 2119.984131
-149.261612 664.549866 2035.162476
64.475349 567.258850 2059.778564
-384.852051 547.380005 2038.271484
-47.029465 544.194946 2053.479492
-370.521942 648.757202 2110.440674
-50.569176 450.722961 2092.187256
-183.711227 714.117615 2041.851440
62.846901 489.369568 2076.839844
-381.778076 583.303040 2140.333984
-260.510559 736.665955 2082.371826
-294.366333 614.568542 2016.812988
-367.268463 628.031433 2071.002930
-311.647919 814.608276 2157.782715
22.894981 564.222473 2055.262939
-304.646423 541.071472 2039.139648
-169.099670 445.185059 2051.082520
62.085224 485.250610 2077.424561
-301.733490 660.174133 2012.011963
-297.284882 695.012146 2017.238892
-86.453110 592.302185 2047.749023
-246.753906 755.598816 2059.312256
-369.613922 741.506592 2098.837158
-409.480011 512.240845 2247.533691
-224.408051 636.308167 2042.314087
-353.335114 694.658264 2041.494507
-184.680481 585.867798 2068.167236
-222.732437 846.387451 2051.754395
-329.709869 765.783875 2182.354248
-125.019012 698.216370 2025.070557
-301.539948 748.233215 2157.844482
-238.379837 702.247925 2042.108521
31.971321 715.541931 2049.411377
-81.780121 478.002106 2060.570313
-88.584457 568.777222 2062.087402
37.416096 394.716644 2056.557861
-233.009888 491.022064 2057.247314
-351.221741 621.942505 2013.399658
-278.394440 585.975342 2007.863037
-372.889862 529.810547 2023.872559
-91.586327 608.913879 2048.530029
-348.973938 654.030090 2039.095337
-287.835266 721.636902 2017.567505
-209.911026 634.506165 2036.773315
-265.174133 735.035889 2148.793945
-244.679382 769.768066 2068.068115
-397.177673 573.805176 2311.640137
4.520749 563.274109 2057.415039
37.320614 454.298248 2059.342041
-237.082245 693.678894 2023.165405
-385.472107 474.792999 2067.827148
-82.256798 560.762085 2055.209473
-224.900940 534.245117 2049.987305
-7.300669 402.604553 2076.777832
-397.000061 475.726501 2131.318848
-316.855042 641.452515 2017.380615
28.827547 510.928162 2068.818604
-365.809143 622.405334 2044.929565
19.812115 742.185181 2073.934814
-265.826477 495.153748 2051.677979
-231.516174 652.570435 2028.957031
-14.931453 463.669312 2052.907471
-273.138763 554.970581 2024.701416
-72.087311 676.619507 2027.149780
-106.180084 521.230835 2053.965576
-211.042480 761.565247 2065.615479
