ply
format ascii 1.0
element vertex 1423
property float x
property float y
property float z
end_header
207.332336 2111.659180 103.898636
171.812607 2124.457275 105.290504
193.455017 2111.571777 125.763939
-11.282603 2112.831055 388.276184
281.020020 2201.569824 32.040489
295.340424 2287.417725 75.748055
315.509857 2376.228760 179.587830
358.560730 2161.471680 234.823013
148.671066 2112.378906 347.119507
260.988739 2290.443604 -6.897563
333.055634 2203.848145 176.395004
257.775543 2184.319092 293.055481
26.173847 2120.281006 118.109161
233.636887 2105.094727 112.890640
350.181366 2319.648926 312.747437
324.524506 2388.421143 177.276443
338.023346 2286.952881 201.615524
173.201431 2109.977783 76.057747
102.337341 2126.631836 162.237579
343.772583 2294.295654 293.932465
199.513794 2093.515137 100.338493
248.040909 2386.939697 16.322624
291.354370 2402.422363 96.917908
-26.003868 2103.877197 143.606323
-57.506317 2106.550537 163.368866
4.553793 2125.932129 173.124420
98.565475 2115.368652 282.253052
-91.819099 2112.381836 235.636627
1.048617 2110.561523 412.137360
300.708038 2110.485840 121.218712
348.215759 2265.531738 346.472198
68.465340 2108.991943 100.011185
145.759995 2130.775391 368.787445
-85.232674 2106.028564 266.356049
296.139160 2369.324463 97.033638
265.008575 2385.636230 -16.600235
86.689560 2119.638672 143.498825
125.881050 2141.511719 377.279968
321.174042 2239.264160 158.745270
269.943176 2103.321289 125.255524
305.939728 2105.584473 99.952049
275.650940 2137.513428 -4.407892
11.749956 2123.914307 171.001190
329.911896 2271.017578 280.978394
371.914612 2213.569824 219.726334
-55.133186 2187.768311 418.138824
-6.327847 2104.494629 376.794891
290.190735 2297.544434 73.923874
319.654297 2190.848389 117.461609
261.377075 2181.736084 -2.983894
214.751007 2117.987061 27.464520
329.017426 2273.479736 311.110779
284.716431 2103.468262 114.119003
197.928558 2122.500977 325.466461
-45.967735 2157.743896 246.866669
133.299850 2110.852295 327.605042
290.619385 2172.591064 292.972412
324.327667 2145.447754 142.357269
310.449829 2125.638184 243.781647
238.874741 2106.140869 203.156357
120.046623 2109.001221 353.705872
59.999664 2119.575684 242.312851
292.435455 2121.128662 218.867096
300.317505 2150.888428 90.820045
292.266785 2112.853760 154.304047
192.277832 2137.955322 312.318604
-42.454353 2102.366211 118.305244
213.618607 2105.215820 105.971603
169.572449 2094.366455 42.194332
-56.152584 2103.900146 123.501785
321.141327 2140.188477 107.928703
197.017197 2125.984131 232.348267
-110.656158 2099.103516 207.203232
287.126404 2213.306641 275.693665
266.935883 2173.000000 326.005829
327.999878 2216.697021 163.324005
282.673492 2329.013672 49.504597
361.476135 2189.166748 218.092209
325.844543 2151.154541 159.636261
337.967346 2327.110107 289.359833
276.633423 2237.606689 -0.444276
304.440063 2356.437744 116.242165
176.859085 2115.713867 324.912415
266.964600 2103.853027 176.617203
272.072296 2294.376953 19.804106
339.974670 2267.598389 309.580475
304.411835 2127.106689 146.974030
42.505138 2131.043457 397.515564
221.788269 2106.651367 194.454437
200.940765 2113.037109 145.094406
2.927665 2114.911133 396.892120
288.173553 2198.729248 66.706261
275.096497 2186.340088 319.072693
254.282089 2158.348389 292.003601
166.169769 2141.201172 147.748138
383.700317 2250.269531 234.134354
138.840378 2129.108643 269.581177
146.117706 2151.751465 137.630615
327.304779 2155.816895 126.388359
348.385773 2168.349365 222.986725
-96.643333 2143.386963 256.709503
92.098480 2116.471680 193.159637
291.626373 2115.030029 253.296204
-5.808780 2108.381592 389.054077
294.136261 2105.663086 137.202927
-56.290318 2097.446777 294.763519
301.665009 2259.116943 316.899933
56.144283 2119.805176 391.434753
346.811523 2132.064697 254.916702
174.795181 2134.750977 358.579376
81.695953 2145.860840 367.180115
279.035065 2146.001709 277.066162
233.609985 2108.253662 227.282455
312.080017 2186.001465 384.672699
309.213654 2127.496826 274.513184
270.914856 2178.427734 -4.783033
307.774719 2117.374023 136.784531
201.086517 2113.381836 117.167801
351.436249 2304.238525 308.674957
67.115501 2126.317139 171.035629
301.421997 2115.105713 271.998566
205.018036 2117.479736 277.904388
273.099609 2143.780518 -7.796322
337.311188 2292.979736 279.059448
371.107544 2247.190918 229.799789
-48.790188 2121.763916 189.626480
245.031723 2114.617676 259.821747
337.027893 2172.823486 191.711517
298.320007 2135.347168 269.095490
372.768768 2291.491455 226.942734
306.362030 2102.900146 12.087066
-21.229578 2059.197510 124.798042
287.417206 2269.951660 346.911591
204.489609 2119.388672 285.341766
176.683609 2120.826660 262.562256
320.897522 2135.669922 143.669891
269.973450 2181.490723 282.762878
263.458130 2159.380615 296.369812
6.151043 2173.649902 433.043488
346.358795 2314.445801 271.195862
203.893326 2122.485352 268.405914
267.515076 2108.009521 43.278091
-60.906864 2093.376221 147.256088
301.730469 2244.772217 304.188416
330.989929 2239.875244 157.493744
380.773315 2250.513184 224.642212
329.510773 2192.157715 162.840347
-48.860149 2107.617676 304.125000
319.895142 2209.440918 119.242043
214.895813 2093.076416 28.722519
-132.029312 2099.661865 182.273758
287.649902 2183.955322 62.667038
270.014801 2387.629150 25.410938
297.578369 2169.681641 333.019318
-42.421448 2099.112061 122.335556
355.265076 2162.870361 232.352493
297.357269 2119.881348 242.510391
289.485901 2339.830322 80.432823
161.138565 2178.414307 361.234039
250.068909 2117.850098 105.765968
310.504761 2163.869385 117.000679
3.432026 2116.239502 224.577850
267.275208 2151.673828 280.512573
276.648438 2168.965820 15.884341
246.896698 2192.832520 334.477966
332.944366 2185.199463 201.582764
338.076477 2154.726563 212.664459
274.267029 2305.447510 24.736244
305.719788 2244.407959 121.725716
55.338520 2111.686279 144.463150
108.269371 2166.658447 375.080658
20.536257 2106.589844 134.952728
301.741608 2202.788574 382.531708
277.857605 2266.993164 284.024628
336.891174 2105.388916 177.715317
341.019165 2315.183350 285.612396
291.515350 2181.759277 370.277161
268.622772 2150.356934 10.828304
175.980881 2148.918457 353.047607
295.344513 2229.967773 274.182281
-122.254486 2128.437988 235.765930
318.484131 2308.277100 153.360352
-71.425812 2104.184326 311.049469
317.957428 2175.832764 172.417328
161.910995 2118.433105 206.944733
298.928558 2204.066162 91.995422
270.986755 2224.528564 316.523560
-74.913628 2100.551270 191.709198
281.271698 2108.174561 204.545670
284.931000 2229.414307 52.755405
-48.718430 2098.982666 369.390076
337.517792 2142.308350 189.165344
-102.920769 2096.597412 222.246582
-109.003433 2106.962402 212.485886
288.706451 2265.405273 73.850189
-29.587444 2100.903076 108.905472
259.356445 2103.040039 206.716476
302.208923 2124.496338 196.854111
24.220791 2131.377686 225.824310
143.881607 2139.381104 117.099777
318.235748 2193.440186 401.273376
-12.289780 2114.727539 321.788116
17.519281 2112.449219 238.792068
194.975525 2116.421143 42.544979
230.581039 2112.577881 61.414585
280.106506 2369.384521 49.545635
29.865862 2155.143799 411.777710
304.085052 2180.985840 390.921967
57.855808 2189.997070 396.719086
317.342957 2309.905029 144.451202
31.131115 2112.407715 307.291656
298.530975 2110.339600 114.399086
304.711945 2233.447510 75.475693
127.377518 2112.569092 361.614777
211.979431 2112.164063 220.568192
276.404327 2382.628906 42.966309
341.413116 2121.055420 257.248688
-44.099174 2103.557373 125.015488
-65.588783 2095.458252 192.870438
297.117981 2220.728027 81.076370
149.824966 2126.766357 120.208755
83.194511 2109.702393 332.749908
194.734848 2112.750000 172.835938
29.187969 2144.157715 429.611328
37.055630 2105.191895 135.548874
345.653442 2278.976807 335.868317
325.070587 2178.454590 170.489899
55.465290 2145.633057 422.171448
195.244324 2116.729492 191.646637
364.277008 2333.645020 215.171585
239.201187 2106.744385 103.574089
267.171295 2112.220459 15.574197
151.065384 2141.198486 142.642822
206.678314 2105.074219 99.708168
274.292297 2168.867676 4.142781
-53.927273 2120.680664 317.363892
297.769470 2187.158691 368.759644
120.003326 2120.941406 250.486420
83.086250 2116.711670 219.635666
309.016174 2166.721680 146.833496
-8.084399 2114.924561 368.728912
-34.649746 2138.479004 178.414093
310.671143 2215.001709 114.157318
-19.273100 2136.509277 200.129105
372.904846 2181.433838 238.993912
265.726501 2126.016602 -3.677871
85.999275 2118.711914 319.815582
338.675812 2180.137695 208.115372
94.168610 2121.633789 257.232574
316.616302 2109.590332 174.379425
224.409027 2182.290527 333.022949
181.673752 2190.451172 355.507721
104.448082 2121.185303 216.569061
283.953857 2102.376953 113.912071
80.456367 2122.496338 191.599030
339.165344 2139.736328 203.356064
35.689892 2099.879639 351.153168
156.703217 2125.543457 275.498505
211.014679 2164.981445 319.811523
-96.406647 2222.117432 328.928162
51.813076 2117.481445 279.741058
192.526093 2156.701172 349.057709
290.159546 2108.754883 117.000084
275.160889 2161.366943 329.327637
255.801453 2115.603271 259.445038
-32.753174 2110.791260 406.772095
335.004883 2322.060547 257.396423
93.882881 2128.720703 354.699219
99.180054 2157.133057 374.601868
343.369263 2268.883789 196.004578
281.351990 2167.088135 377.477417
51.548397 2119.150391 181.064117
67.878456 2113.416992 295.653442
262.444244 2113.556396 260.142334
281.793762 2126.385986 269.976196
343.561218 2259.017822 323.506317
89.570816 2120.664307 273.074432
222.752716 2171.247314 332.191376
-2.256252 2108.675293 203.214096
280.710968 2205.295654 31.550213
342.620758 2164.750000 206.942429
287.488983 2163.851318 315.644043
129.751801 2126.761475 262.565002
100.930717 2123.922607 382.076324
-8.471043 2113.912354 396.762512
306.897644 2134.768799 264.706604
278.808136 2396.010254 84.647507
325.102722 2175.026611 165.639359
342.635834 2254.296387 273.016357
293.110870 2101.632813 104.299934
30.924969 2118.578857 364.346283
295.829681 2130.272461 17.881893
270.319702 2219.820313 -3.859288
299.323395 2394.390869 99.910416
165.223862 2117.736572 202.675232
253.952744 2106.599365 85.930511
341.899933 2303.691406 261.893921
332.079803 2132.038330 252.709045
207.946854 2111.144531 134.471451
67.717407 2128.298096 221.416641
376.238953 2188.752686 240.449692
38.788414 2122.317139 375.579407
323.570740 2108.935303 182.529434
323.067627 2128.729980 126.887535
67.186897 2119.396240 141.928894
74.441147 2112.864990 89.106560
327.864807 2177.018311 162.282730
304.017242 2187.250000 404.822845
267.508240 2135.600342 1.643219
31.528435 2117.880859 247.290176
321.707855 2122.852783 259.595490
131.292343 2120.336426 254.139236
302.452576 2320.734863 80.875122
194.031464 2127.510254 347.096313
303.431305 2217.638184 400.305817
-62.756737 2117.742188 144.623123
43.733635 2118.016846 246.632156
326.808807 2377.463867 151.565216
99.432251 2114.275635 319.205566
75.027519 2117.396240 315.535004
189.867233 2122.210205 232.289307
265.862793 2101.327148 85.182556
159.065994 2107.916992 84.428864
284.212463 2298.083984 21.483452
348.775330 2188.908936 210.945114
307.078857 2114.697510 246.016266
-13.800699 2114.766846 406.052704
219.566132 2127.063721 217.577042
361.971222 2296.635986 248.354095
279.572906 2185.554443 369.673920
285.859467 2162.154541 282.067810
-140.651840 2224.335205 192.952377
137.779510 2124.406250 372.846741
-22.654499 2099.555664 136.842773
281.861053 2209.335449 279.830963
307.182068 2161.903076 278.210327
-72.579140 2101.753662 132.235855
30.369020 2105.197510 355.771637
281.583038 2110.016602 59.322800
7.901260 2097.062500 342.399750
283.134460 2153.764404 297.985626
143.143265 2125.743164 277.732361
109.827858 2107.826172 86.506134
344.312347 2279.710938 316.591431
289.114594 2306.313965 41.537411
396.574371 2181.910645 237.924698
57.495201 2104.947021 355.573944
245.816910 2108.900146 220.544708
-15.332357 2103.163330 111.998032
18.211426 2118.601563 360.114258
287.466858 2145.839600 54.746136
342.084686 2295.493408 252.599274
308.548737 2127.928711 240.578217
285.474579 2208.035889 337.941589
330.933136 2120.258057 234.497391
161.674881 2117.604248 190.238647
-106.688629 2102.634277 204.100815
263.464874 2225.692871 2.753360
338.261658 2117.408447 216.452560
342.099304 2254.912842 366.137848
88.372665 2113.599121 318.451111
316.888550 2106.500000 209.714905
143.217590 2143.802002 182.546677
-113.910828 2167.396240 267.436798
319.767914 2142.031982 263.792419
-51.810165 2092.963379 115.366966
301.142639 2108.901611 111.711922
239.310028 2102.889160 161.704941
305.373932 2175.093994 375.346497
-26.904247 2117.159424 325.319733
373.912018 2207.611084 227.736450
257.870880 2095.143311 102.107063
291.197418 2168.768799 381.460175
-26.105761 2064.941162 125.984810
261.419952 2103.281006 170.241348
190.920761 2116.853271 35.217987
59.114727 2122.559814 371.583710
191.755432 2127.495850 230.787918
251.152756 2117.609619 284.433380
263.576019 2134.568359 12.245603
167.123978 2162.409180 121.917328
187.934021 2121.077637 173.738434
264.769775 2363.298828 11.592747
-14.472730 2117.299805 324.130005
214.172775 2120.484619 218.956131
269.506683 2221.898438 12.101473
59.821262 2124.463623 288.436462
79.564857 2115.926025 206.803467
301.455383 2375.487549 112.878860
267.251221 2111.655273 240.636246
68.809082 2181.084473 398.803894
260.665771 2161.915527 309.882263
177.018311 2121.936279 86.717606
301.727081 2166.584717 90.589706
274.663330 2175.314697 383.960419
224.568863 2102.914063 173.266464
337.859161 2282.980713 281.635864
271.805023 2103.575195 136.920425
175.667313 2132.218018 361.361359
83.032578 2144.535889 382.654999
328.644012 2113.034912 243.624649
348.864532 2238.771729 208.384338
297.277802 2294.586914 89.044449
329.280975 2323.615479 156.708160
322.586487 2244.691895 263.689819
264.941437 2166.821777 359.944977
296.030914 2251.487793 74.972794
367.794434 2230.822266 224.107468
104.459297 2120.312744 135.912308
-33.703609 2106.407715 361.093384
292.622528 2237.673584 81.406288
37.443237 2109.935303 216.083145
176.176392 2119.790283 46.895733
-40.527351 2129.856445 207.144180
276.278687 2386.430908 4.328691
248.545746 2107.916992 88.758095
259.302612 2116.519043 269.259460
-98.963669 2106.407227 188.069321
-108.068481 2299.505127 289.130859
-9.200817 2101.357666 351.813782
40.218414 2111.038574 137.778198
319.646057 2106.894287 204.778305
-23.061411 2101.887939 376.907837
293.457733 2215.372070 51.881458
71.708275 2118.818604 362.537445
31.879482 2170.514404 424.272247
296.806335 2114.981201 131.821426
64.421906 2117.231201 173.636276
308.634216 2320.289551 146.634445
303.497864 2171.626709 387.080963
330.330475 2122.313477 191.718994
342.303650 2338.015381 192.185471
143.002701 2116.153320 294.098053
184.088959 2142.670898 129.450562
286.684448 2239.293457 63.784481
-56.454559 2084.280518 117.192490
187.009232 2145.838379 347.950989
289.196198 2236.155762 296.183746
-47.320545 2104.280029 306.904022
320.959442 2191.498291 180.054398
319.182129 2266.430664 340.355591
303.713379 2209.718018 404.454529
51.074627 2118.703125 300.061829
317.021729 2299.592285 143.280365
210.818741 2107.114258 158.878159
91.752777 2104.062744 113.251076
151.863327 2158.068359 375.238770
64.129501 2134.460938 417.618591
210.861420 2120.163330 57.366192
300.537048 2158.170898 76.290443
254.668808 2101.122803 197.629288
271.515656 2141.333008 289.741791
202.489349 2112.846436 282.624542
321.590881 2287.821777 155.494659
89.185501 2095.903076 70.313583
313.166107 2107.807617 226.123016
302.009888 2169.695068 437.232178
291.844910 2151.313232 283.215393
302.847717 2111.823242 116.847244
-30.393932 2101.264160 109.603348
208.962067 2128.511230 244.619141
271.158173 2189.412598 308.589539
242.865662 2110.236816 58.931019
358.975403 2295.056152 306.783051
155.767624 2127.966553 148.911484
358.290497 2306.432861 271.040405
185.703064 2116.480469 242.876968
300.148529 2176.721680 285.997498
337.374084 2261.574707 257.712769
96.897423 2118.816895 134.460114
337.917877 2221.615479 199.669052
304.023346 2238.396973 137.313400
330.775787 2121.900391 201.854507
226.381577 2103.421875 123.387306
319.105560 2357.674561 160.639481
-15.585765 2115.293213 365.047913
-85.291748 2109.778809 302.593201
149.361023 2106.738037 69.597954
368.886322 2359.774170 238.603180
70.816582 2221.463867 396.509338
209.967270 2100.880615 100.739166
-61.332458 2108.480957 126.895760
319.642059 2185.085449 151.607132
-16.533857 2108.695801 349.311462
311.042297 2182.231445 112.750641
24.780180 2110.381348 146.031982
108.184837 2119.556152 172.775040
332.412964 2288.154053 273.443848
332.617706 2115.020996 225.626373
91.186401 2118.185303 243.150497
225.739380 2120.306152 226.702011
243.109985 2093.822998 205.874817
324.599731 2232.810791 139.370071
280.549164 2238.614990 40.465996
156.743851 2119.561523 326.666016
325.915039 2106.098633 155.172760
304.849854 2395.041016 90.081429
-55.528240 2089.590576 171.084381
-6.396804 2121.245605 415.039368
-24.312519 2111.871338 104.336563
289.743317 2165.090088 304.594666
171.793335 2112.627197 290.610565
344.801666 2123.835205 174.065491
35.512272 2118.233887 302.966248
304.348175 2108.896240 213.662476
301.430603 2172.275879 392.932648
284.364716 2115.457031 268.609680
371.042084 2207.131348 257.353455
100.887077 2123.677979 230.574890
-47.643364 2098.371338 357.734894
325.268585 2288.731934 168.090668
72.245239 2112.841797 311.053680
299.729980 2367.532471 105.807236
300.392609 2114.586426 28.180092
6.025899 2155.073730 437.646484
269.216217 2219.937744 297.437408
314.113861 2115.005371 217.205261
256.010406 2100.957275 145.981155
375.134277 2185.539795 234.465042
259.160065 2091.817871 131.491608
-57.535515 2093.535400 156.770233
-7.077875 2114.701904 122.789490
129.161606 2121.981201 226.446945
110.966423 2134.372070 369.837189
374.888031 2290.303711 228.239334
344.405212 2227.260498 261.016876
312.085938 2337.210449 133.552277
25.867825 2109.454346 283.893677
330.359039 2107.626709 200.757080
108.226021 2123.425781 116.404137
335.066711 2211.253906 186.278961
186.004639 2125.769531 33.986275
100.311340 2133.878662 383.959778
290.980774 2240.007568 307.464172
293.903595 2172.930908 369.214172
-51.370647 2101.634277 381.689270
38.581635 2110.135010 220.067352
49.679832 2121.345703 398.248657
318.328888 2210.605713 153.857361
59.489475 2126.109863 219.731018
297.247772 2169.091553 422.906128
66.823532 2097.068604 75.408524
290.423004 2114.092773 249.878418
195.011734 2106.214355 29.090792
248.280258 2150.622314 11.997033
304.898956 2316.049316 134.721954
228.388077 2099.942383 162.413422
-66.290138 2109.425049 307.417297
357.426117 2174.899170 226.277679
292.051727 2119.490967 82.126656
69.904953 2114.119629 275.215637
256.057373 2120.426514 26.206301
268.551392 2103.680176 179.238647
47.422050 2125.605957 288.943420
302.916290 2165.320557 104.168175
57.826973 2206.644043 415.396118
156.531143 2110.846191 68.777382
-31.336271 2112.197998 224.791275
219.827835 2117.978027 268.339386
242.510757 2100.198975 141.495911
311.620575 2238.251953 274.522034
277.671356 2197.605225 20.474018
267.858032 2232.682373 15.412060
304.245514 2224.270020 97.617096
-50.973625 2114.497803 385.451691
240.994156 2111.325439 221.037308
259.511719 2159.876221 312.768005
31.101076 2131.427490 411.963654
288.933868 2117.312012 276.433838
10.915128 2112.205078 212.238708
238.091019 2118.117920 270.523590
302.256622 2395.669189 116.280327
312.404114 2107.297363 222.574631
287.298950 2392.361816 67.004494
38.532352 2112.083740 275.794098
235.784210 2114.504150 29.064682
250.014938 2113.532959 219.685715
309.222534 2288.981934 124.272583
138.397369 2116.622559 120.517876
284.021179 2232.927246 -16.324923
344.944458 2166.074951 245.077759
168.561020 2149.524902 341.135345
-28.268902 2108.548096 293.330505
-44.048565 2132.597900 200.948395
222.415375 2112.409668 237.455566
358.968231 2144.400391 222.738708
-76.067314 2109.512451 269.374756
299.737793 2270.144775 307.124268
289.720093 2220.239502 367.485199
224.311600 2114.601563 183.285889
62.078789 2125.027100 216.535782
219.873856 2104.608643 211.560883
28.990017 2123.966797 293.597565
132.871536 2181.160889 371.676758
205.862244 2107.345459 111.578247
273.033661 2107.880859 230.145874
171.687408 2121.944336 338.747040
-83.813164 2141.081299 347.394623
-18.453415 2125.742920 189.021866
63.971809 2110.625732 85.043159
23.705509 2154.861816 421.989807
325.995392 2116.448486 248.515518
266.698334 2405.236816 2.481044
62.585049 2113.716553 133.877472
279.910400 2229.507324 35.516750
218.406067 2109.533691 77.300247
23.586620 2106.770752 363.501740
-34.805450 2109.002930 273.895660
120.403397 2125.240967 150.770172
389.691254 2264.526611 253.447784
279.522766 2110.714111 207.108139
75.711494 2117.093506 171.878082
282.217407 2109.372070 64.111832
-32.428154 2114.348389 296.553009
332.801666 2172.884521 177.424774
-50.078278 2102.630127 243.038986
-75.761398 2134.519043 224.056931
322.694702 2108.736328 155.264999
68.271835 2117.796875 171.629974
361.403473 2284.109863 324.525879
299.107574 2102.514893 219.418304
-15.006158 2110.179443 184.936951
171.742462 2172.112793 347.070068
305.109985 2148.718018 106.136047
340.638123 2203.382568 201.718399
47.975021 2108.460449 141.748901
291.323914 2185.189941 337.129608
213.158844 2108.293457 165.128387
288.661255 2192.750488 347.727081
275.136261 2300.559570 -8.891835
286.077301 2194.221436 322.229706
344.667572 2293.419922 288.181122
25.611792 2147.854492 431.199524
204.631241 2107.494141 89.859634
349.447601 2212.068359 211.325851
153.686142 2157.556152 135.993362
275.686157 2160.903076 17.164585
92.622261 2119.119385 302.774414
353.400574 2291.726074 250.062454
66.142433 2119.888184 194.860748
309.412292 2124.720947 248.098267
-20.019592 2114.164307 232.227921
270.985138 2311.292480 17.438183
275.743805 2187.178711 366.723785
347.438751 2282.324463 209.633148
191.592499 2107.434814 67.208382
307.972534 2292.281982 118.887787
315.591003 2179.085205 266.931244
312.033844 2125.345459 211.772583
251.422775 2102.925049 161.073563
306.712830 2261.950928 111.872765
261.155609 2218.331787 358.097229
305.874542 2102.047119 155.006317
278.036346 2228.519531 -9.313990
-88.505539 2048.834229 151.540237
63.546104 2129.672119 194.440323
203.364502 2113.940674 39.562126
16.556524 2110.416016 367.705170
112.791046 2167.736084 374.250824
79.231560 2122.891846 278.361084
313.247345 2252.547363 351.152344
296.186310 2261.586182 295.538300
221.550125 2141.331787 323.806549
269.370605 2117.884277 98.782806
356.798553 2366.089844 220.020630
5.986059 2104.254395 367.412048
278.859863 2214.942871 33.499752
63.335213 2116.464355 132.922470
297.752106 2185.998779 347.020447
231.389114 2098.310303 177.738831
-54.625065 2122.457031 256.112976
272.199951 2117.542725 56.350193
51.476154 2111.250732 149.468719
322.049835 2129.099365 270.998169
367.741028 2350.200439 231.887741
349.218689 2277.739990 306.604523
108.008369 2127.417236 183.259460
57.174297 2102.381348 127.051826
349.632965 2365.234863 236.494644
259.539307 2115.233643 249.972839
142.805771 2123.161621 200.576828
243.094772 2110.890625 164.857147
96.788673 2131.896240 376.443726
366.418030 2233.632324 242.027847
34.532784 2116.809326 172.532028
346.280853 2138.343994 207.554520
342.966217 2124.618652 178.396164
334.491791 2203.142822 167.377457
-29.953220 2131.792236 418.719818
369.201080 2346.652832 214.117722
352.920563 2255.745361 341.816315
311.424835 2187.948730 392.300934
315.803925 2118.743408 258.227448
281.499420 2158.571777 37.717640
160.356598 2122.914795 209.938263
-27.468195 2106.237305 393.845306
334.795319 2252.006592 349.910950
344.229279 2255.502686 207.509186
284.963226 2102.075195 192.594910
304.449554 2217.763672 403.620819
138.262161 2170.017334 376.737457
138.862808 2126.764404 206.438766
32.796642 2119.783691 374.682190
286.622803 2130.002197 27.057381
333.122314 2149.479248 193.155960
279.040527 2240.548340 33.940281
107.444595 2183.685059 373.648773
369.432251 2209.359375 239.046356
52.750004 2116.033203 362.745178
257.555206 2096.272949 181.694214
287.167694 2188.449707 44.227448
280.375580 2118.181396 212.181168
224.359833 2117.946045 42.011208
271.507538 2326.397705 -9.838132
310.838257 2111.549072 117.824593
125.311501 2142.919189 372.591003
110.150093 2227.725586 399.255188
179.977921 2095.374512 43.188198
342.516571 2301.394287 302.940796
299.013275 2286.843018 88.147903
-51.548336 2108.483887 339.322876
53.220169 2134.411621 394.301300
60.112560 2128.190430 303.833588
308.876648 2312.190674 122.534187
76.378517 2113.548340 284.984772
304.121033 2105.076416 208.999832
-15.139822 2172.929199 450.471405
117.841606 2124.717529 107.475243
-84.497742 2103.844238 188.042007
319.153595 2256.890625 153.721161
305.912933 2234.940918 115.289528
339.705597 2154.903809 215.938980
-25.553616 2102.768311 329.917175
265.898285 2328.537598 1.296208
120.616219 2122.932861 179.378143
191.342072 2222.659424 352.548645
329.632965 2250.448730 359.888367
264.085541 2114.818604 135.512848
315.365234 2224.861328 138.626266
379.596710 2258.593018 238.166824
16.389921 2126.579346 408.395477
270.885712 2111.334229 240.351959
41.888668 2112.531494 363.583740
356.140930 2159.286133 207.417038
7.114197 2116.336914 222.773300
174.339203 2123.887207 340.540192
153.431396 2107.422607 352.893219
-38.579594 2129.770508 421.753601
343.041931 2163.589844 218.547836
326.259613 2356.428711 151.912323
141.956177 2110.455566 331.284271
233.131775 2175.549805 309.899963
374.052612 2192.189453 233.840759
334.557007 2268.150391 289.573120
207.131592 2118.569336 281.225006
-0.269522 2065.203613 117.315048
111.615601 2111.965088 362.828186
182.207443 2129.614014 241.254028
263.172882 2117.190430 101.892036
290.385498 2285.912842 43.910217
199.770599 2105.522461 107.721489
288.862305 2340.395020 93.939850
329.557190 2259.980469 333.821625
42.955841 2122.734375 112.647293
338.133789 2273.790527 279.898651
26.299887 2120.906006 215.393784
81.894966 2117.944092 100.068123
203.930313 2128.103516 262.975525
331.458130 2122.427734 153.093216
272.536499 2167.887207 380.327789
-8.756131 2114.971191 320.083252
-71.612915 2089.664307 129.957993
-21.734921 2105.634521 161.433136
305.427979 2235.354492 309.534454
250.946121 2156.656982 297.514313
-96.084145 2094.971436 278.928650
305.736755 2201.785645 140.025879
378.561249 2192.902832 235.806137
156.488632 2122.102539 119.684242
119.059593 2118.917236 258.316772
114.437828 2122.418945 156.668182
64.149078 2116.098633 177.955612
295.218994 2260.262939 81.165413
359.208954 2249.585449 243.351837
303.557465 2131.089355 277.572388
309.269470 2241.266846 96.574898
25.229624 2123.838623 294.456818
68.106499 2110.026123 99.604370
32.223949 2136.019287 212.859451
302.310425 2130.336914 258.682007
46.976719 2118.331787 392.304474
79.667465 2214.071777 392.632965
309.530914 2381.336182 103.531837
286.601685 2173.214600 54.763626
180.280609 2127.626465 287.852478
238.407608 2107.612305 226.650162
299.831787 2203.827881 69.062172
298.132568 2116.010010 73.317680
-47.095482 2112.472168 206.375717
291.567108 2274.775146 76.607224
62.444870 2119.028320 269.257782
296.432129 2228.195068 80.255928
340.593689 2341.573486 245.235458
323.748596 2181.274658 150.539017
335.388275 2307.813477 265.009125
29.947210 2125.515381 102.283012
272.624084 2107.548340 235.375778
330.272217 2168.912354 259.069855
276.360809 2102.822754 73.420357
165.601471 2122.008057 321.117767
-68.402687 2109.382080 350.348938
124.670692 2111.564209 322.712677
308.677277 2163.925537 391.286835
369.812256 2180.907471 237.838303
232.931885 2106.827393 157.163345
264.515900 2140.395508 19.203247
315.402588 2131.033203 138.110840
346.206665 2126.696777 232.532593
82.241547 2112.620361 117.263649
363.531708 2284.494629 336.733124
98.599442 2110.100342 74.209579
333.581390 2259.322754 263.967041
346.530304 2294.049316 309.930573
-11.076690 2118.690186 411.637634
273.198059 2216.130859 311.282898
297.746521 2131.098633 57.686935
-101.331383 2151.115234 302.882538
312.354980 2137.366699 135.543777
77.771179 2125.437500 367.722534
260.841705 2327.087158 -8.176817
253.554733 2111.939453 256.873657
350.592285 2223.782227 246.725067
380.656555 2360.394043 216.128769
32.597488 2114.338867 129.202728
103.764526 2125.771240 365.665436
42.263721 2109.941406 360.383881
239.091888 2110.740967 188.831955
142.139893 2108.707275 96.343323
87.544212 2129.156250 234.589478
293.520203 2309.000732 84.414513
334.388153 2111.701172 175.218506
-23.364594 2119.694092 357.547516
231.943985 2101.447021 198.393158
253.792023 2108.638428 208.640106
320.268158 2125.688232 263.511505
296.862061 2179.244141 70.552422
152.094803 2111.992188 323.654907
267.318512 2192.018555 305.099640
23.102587 2106.617676 97.728722
334.735779 2113.497070 186.733582
214.225494 2107.326172 175.015442
262.562469 2095.827637 130.385818
249.375671 2116.356445 48.103798
-67.859566 2124.582031 278.825287
-67.434830 2115.400391 322.235046
265.017029 2112.186279 226.787354
335.109406 2197.954834 160.532059
324.589691 2328.265381 269.339874
118.180099 2110.715820 150.139694
266.963623 2153.481689 5.012695
302.474304 2139.114746 75.693611
317.527832 2195.929932 136.454803
-104.397293 2100.902100 189.032425
-32.310135 2107.241455 379.259674
309.753235 2352.150146 102.123878
315.939575 2310.709717 143.424698
289.014740 2378.710449 118.661781
180.003036 2108.413818 302.312225
330.245026 2202.362549 186.062500
-21.224564 2110.021240 380.346893
322.488220 2246.298584 161.789688
259.222748 2162.238770 334.859711
293.826202 2341.410645 80.534248
-115.720100 2110.175781 150.070175
-122.296310 2096.483154 189.281754
284.890961 2200.447998 29.334734
64.160439 2224.864014 411.949158
-63.422039 2099.536621 226.034317
199.456650 2115.744873 179.303146
108.285957 2118.904541 218.551483
216.048248 2117.812256 42.616718
-93.832825 2168.037842 323.252472
-78.448242 2112.866455 312.773926
322.538147 2182.222900 152.094742
284.873108 2167.964844 363.550415
51.287010 2186.880859 421.158966
130.469452 2121.988525 164.521423
43.174412 2129.104736 419.843903
328.911987 2232.183838 173.984512
314.079376 2144.584717 126.590836
325.343292 2186.804199 158.695541
313.273285 2137.578613 139.016678
4.406104 2102.010254 358.523407
321.569519 2204.699951 157.965958
283.475891 2271.838867 41.322548
355.591003 2272.736328 269.356476
231.251404 2094.497803 34.539703
214.143311 2124.992432 295.950958
159.061508 2123.898926 74.425308
373.297211 2178.178955 260.476166
-54.182320 2095.120605 156.572586
279.928894 2118.610840 107.598717
325.317780 2247.755615 141.961899
274.043732 2178.824707 21.984150
38.709625 2114.755859 412.351837
273.074982 2273.467529 48.929363
289.305176 2335.037842 42.468365
251.678314 2112.632324 13.877506
266.651733 2196.872559 290.581909
126.790367 2105.713867 334.088562
183.096558 2126.210449 336.438171
328.441650 2232.777832 180.509033
152.189148 2115.190186 325.971130
169.638428 2104.364990 36.726139
273.203186 2118.724365 279.859772
265.665466 2207.225342 5.828975
67.490303 2128.322998 234.499237
261.350281 2219.899902 1.497393
223.672363 2107.759277 25.801443
333.348297 2275.500244 314.368896
56.426071 2117.234863 360.858215
331.174713 2232.238525 181.211655
142.906967 2121.235107 100.923851
57.933338 2115.799072 252.599442
293.453583 2138.536865 48.308243
-52.503910 2088.806396 121.182915
94.979965 2118.895508 120.515907
291.264862 2205.766602 336.054474
-55.285282 2118.810547 381.632813
308.434814 2308.014893 119.473274
296.159790 2321.037354 95.620941
160.997391 2123.905029 214.934998
323.470978 2214.711670 130.110977
269.063812 2271.459717 10.491086
-10.079825 2112.787109 411.748749
-62.790035 2266.840576 418.273285
271.695923 2335.774658 18.715588
-41.233349 2103.125488 122.725235
348.452393 2304.773193 256.285675
296.360413 2396.979736 65.059486
197.345123 2106.066162 93.718552
260.013306 2117.466797 280.852692
-79.581001 2094.137695 224.332840
261.195282 2338.233643 -9.610704
312.742981 2140.216309 277.233704
-103.812042 2124.632568 217.375763
348.327728 2260.684814 207.995987
19.227434 2116.056641 301.705627
252.069580 2117.426514 110.073975
317.903656 2357.160889 154.229935
271.511322 2319.037109 -7.755236
264.905701 2106.064453 212.846420
315.237610 2334.859863 169.172531
325.570221 2129.891113 182.070267
359.088898 2175.527588 232.600159
33.755432 2099.979492 358.492676
280.173584 2115.310303 69.290825
109.014000 2119.112061 371.253021
258.067566 2106.592285 47.705688
-5.473803 2108.472656 171.573654
230.091537 2101.005127 190.373154
310.733826 2229.980713 125.563713
9.545425 2120.754395 379.839752
142.100403 2128.280029 102.265099
311.106964 2250.915771 300.545563
348.907623 2272.493896 245.701752
142.604095 2126.198975 112.347641
253.109482 2359.337891 21.466358
45.870361 2117.896729 311.342987
-63.580727 2110.652100 290.808716
99.500404 2126.328125 366.186707
236.811340 2100.466797 96.969421
163.290512 2136.010010 364.182404
189.023743 2108.204834 61.338367
325.468903 2192.780518 158.592453
327.634033 2149.164307 152.608383
228.268890 2104.986572 63.373753
-68.510284 2108.412842 337.535980
139.371246 2115.953613 155.072388
266.075897 2164.580322 401.253632
198.662903 2106.912354 67.453896
288.466431 2112.770508 51.235802
289.331421 2238.847412 278.719391
301.076447 2390.560547 113.052811
350.364624 2252.309570 210.215698
261.077728 2124.135254 13.097016
304.316620 2374.039063 87.939133
244.737701 2179.619873 333.340118
-91.927589 2106.383789 247.705063
315.757050 2170.758545 165.864639
157.337402 2110.205078 326.173798
266.357086 2149.728760 303.298950
1.178736 2100.020996 173.019531
271.378326 2176.081787 287.852509
337.187103 2139.349121 201.739655
11.656932 2109.343262 169.506302
147.373688 2132.341064 116.123070
229.557999 2111.931885 68.332619
77.541100 2109.434570 100.266441
-16.605907 2130.673828 413.275421
315.447052 2297.056885 146.725067
267.957184 2296.564209 28.495241
287.163055 2119.244141 215.923050
280.659271 2196.591064 40.379810
284.285797 2296.398193 -16.557178
307.069031 2253.806885 115.783882
36.110485 2112.633301 110.992020
277.231781 2190.606201 327.390259
303.869263 2198.424316 419.335236
334.065948 2313.334717 257.816284
67.216911 2112.474609 122.331291
166.101898 2135.167969 352.319305
244.086517 2172.256104 308.336731
36.973934 2167.978271 428.069122
277.988342 2181.568848 278.624695
200.759186 2103.539795 150.243149
233.364243 2111.955566 114.812119
312.748169 2369.988770 143.220215
-122.906258 2093.692871 167.776428
-94.714729 2075.460938 138.136642
314.367432 2129.477051 261.800690
315.896332 2114.540039 228.669525
305.567902 2121.126709 241.682495
83.673950 2119.001465 197.117523
365.833344 2185.058350 244.145660
231.629074 2106.351807 278.866577
263.525177 2346.522461 -3.847182
-44.606812 2123.346680 256.900024
333.806335 2135.985107 195.284393
287.398956 2169.714600 390.778625
-51.073399 2121.376221 325.402985
-48.712769 2105.407959 317.894867
220.120880 2109.520752 159.009384
-82.700348 2081.943359 146.106964
34.436775 2121.253906 131.969482
179.484802 2124.055176 34.586716
171.568649 2155.688232 356.103973
314.244812 2252.327881 148.706345
211.512527 2177.440918 323.284424
333.507141 2112.448975 198.819916
274.735474 2167.930908 441.351715
354.431976 2281.783447 336.467163
-9.427711 2096.229736 101.213913
1.799419 2124.810059 311.791443
319.589203 2125.667480 207.558426
159.624008 2115.907471 298.964691
5.499141 2110.904297 163.802460
90.536926 2150.442139 386.116272
305.858917 2165.027100 441.230682
285.227142 2163.303955 302.398163
-9.418657 2109.582764 302.780640
28.825985 2106.845459 144.241165
164.390366 2123.076416 197.860947
143.195267 2121.327393 288.025177
-13.746998 2105.688721 123.675827
271.273651 2124.420654 47.820454
232.901886 2114.706543 254.031433
324.708527 2120.165527 199.800217
-17.331301 2137.054932 158.317123
192.964203 2110.919434 25.951591
310.696960 2277.107910 126.517380
-4.346387 2125.928467 425.343262
296.100098 2104.257080 123.808708
34.793434 2110.063232 125.471962
177.997665 2110.718994 57.684021
288.283508 2375.875977 83.641205
328.280151 2361.329346 184.778076
326.104767 2321.173096 170.236481
91.063744 2119.249268 63.275833
255.339401 2110.560791 212.198990
153.296234 2139.028320 189.687347
275.747528 2108.222412 66.716995
322.160187 2255.861084 318.988129
264.540771 2199.665527 360.356537
343.191498 2233.080078 186.649216
351.212097 2215.483398 255.505569
265.999390 2164.171631 305.673615
171.374481 2112.195313 320.243469
84.593170 2221.762451 390.514832
-16.616230 2114.596436 402.151672
173.062378 2114.024414 326.704041
302.100037 2179.292969 292.867981
353.712158 2311.679199 314.084229
272.346222 2204.903809 292.091095
338.346863 2177.068604 253.217239
339.379608 2163.643799 198.103043
336.662628 2292.835205 200.502045
285.896637 2121.595459 63.965340
137.808792 2117.856689 328.669891
357.908966 2293.938965 274.436035
189.280731 2221.597656 355.017578
0.815088 2116.203369 172.731247
344.309387 2124.690186 205.363785
150.828812 2115.580322 332.628143
212.499908 2129.869385 313.321411
113.910301 2126.536621 245.030731
272.796417 2099.019775 160.917526
186.789780 2121.489258 139.613663
237.072449 2101.536133 111.693886
283.420563 2111.668945 61.588932
350.216888 2271.326172 328.683014
71.672997 2120.259521 157.135544
300.352692 2248.600830 274.595673
289.883270 2181.767090 47.339287
297.074585 2263.377441 54.629341
-67.126129 2106.636475 126.857491
94.682014 2157.787109 391.279602
-71.639618 2101.385254 286.591919
304.400879 2110.467773 229.823547
316.577576 2177.141113 417.018463
266.811920 2297.715332 -2.425210
40.587048 2124.915771 377.896759
238.043839 2119.556396 74.185493
86.487930 2135.730957 383.769501
38.706944 2120.985107 270.003296
309.902863 2206.230225 90.352600
228.276382 2114.325195 286.774933
109.371094 2112.365234 308.951202
79.054756 2115.917725 194.690720
70.288193 2101.405029 334.007690
314.695953 2124.822021 189.756348
41.806370 2128.245605 372.836365
8.824796 2103.414551 340.429291
295.500702 2113.011719 270.934570
340.446594 2123.261230 251.678070
329.282532 2109.402588 190.949615
186.241882 2116.861328 317.651093
95.601463 2104.597900 327.601563
268.808472 2102.355957 107.888802
68.560707 2101.005859 75.695663
286.205963 2116.135254 18.475454
360.385162 2368.466553 221.307510
19.118704 2097.922363 359.408905
161.766205 2121.643799 230.184174
281.956421 2216.646973 277.056976
25.765654 2109.389160 296.497589
272.724762 2302.965576 22.645552
-89.122047 2105.121094 220.013931
342.189331 2186.375977 207.384140
272.065277 2331.583252 19.262178
288.472473 2341.973145 64.169785
-33.700855 2096.446045 145.525269
127.907990 2107.262695 345.591400
335.830170 2276.108887 200.435303
315.918213 2119.226563 150.274887
224.185867 2124.782471 247.316040
12.807932 2131.498779 286.735321
337.940002 2254.049072 205.139420
203.101501 2105.565918 104.194130
303.626587 2111.966797 209.178589
-5.089619 2106.615479 233.457184
256.741119 2177.013184 343.961395
310.260040 2141.946045 138.783783
210.409668 2111.463135 41.458820
206.464188 2116.651611 50.406441
284.874237 2183.237061 327.317078
281.005249 2102.154785 138.159103
69.507759 2110.275146 89.549599
-87.822197 2106.886719 281.891663
-17.174147 2105.218018 232.987244
313.042084 2254.518799 333.896515
287.320801 2113.576416 117.521324
-13.291707 2110.087646 399.432892
154.279877 2119.848145 303.640076
245.367310 2110.789551 277.424500
283.977173 2113.000732 88.761307
369.120270 2262.491699 336.979492
9.945614 2104.828857 99.536369
20.595173 2146.008057 427.779144
194.502563 2122.741211 60.445179
294.984039 2180.627686 398.815948
66.845299 2118.094971 357.500641
312.231750 2113.722168 180.601669
273.749115 2265.632813 20.806494
303.094940 2180.959473 387.226501
7.249260 2125.081055 184.816010
265.073273 2166.587158 301.617737
-95.046349 2109.334961 158.390106
326.145325 2112.510254 137.110870
197.672333 2109.692871 152.770172
319.885803 2345.057861 265.492676
265.873810 2116.256836 273.031036
-84.127144 2101.619873 200.353378
-71.108337 2104.486084 127.579422
274.780823 2216.239746 290.898010
36.809528 2105.697021 133.577209
9.101669 2117.378174 225.527603
2.867298 2111.931152 279.834930
248.737122 2103.196533 237.121750
306.468140 2118.636719 72.743256
212.113846 2115.549561 299.503571
-99.021751 2094.071777 160.589630
305.479736 2154.973633 271.599487
324.300171 2369.798096 144.295944
175.894867 2208.291504 357.534363
373.152618 2225.431152 230.825867
44.096653 2123.035645 179.743912
262.681000 2108.237305 115.471939
266.104736 2260.335938 -0.192270
350.516907 2156.549561 238.883133
313.834442 2176.060059 402.543091
297.209961 2142.985840 67.066322
287.023407 2106.474854 164.428635
328.705658 2227.756348 266.807343
356.262329 2162.357910 245.592865
265.260498 2118.711182 -2.876569
258.574188 2113.677734 242.540543
147.921021 2118.336670 246.660172
247.200180 2102.076416 229.906403
264.644653 2251.249756 2.196042
350.435364 2270.410889 359.320435
39.745728 2119.408936 188.898026
-34.611412 2112.853027 183.950562
85.403511 2186.316162 389.953186
361.747681 2241.832764 250.331390
180.649307 2115.391602 323.210419
252.666489 2104.561523 183.766846
299.887024 2230.700928 354.013123
-28.171606 2110.870850 374.035034
116.551491 2126.039307 254.120010
55.096905 2088.957764 96.490768
268.130005 2144.498291 22.722328
-42.592422 2100.546387 114.688408
288.428864 2192.788086 38.399876
105.973793 2125.226074 317.447937
-27.618031 2169.656250 440.216980
-54.496452 2097.836670 142.627563
333.631378 2239.165771 267.056366
300.904388 2135.132080 68.678604
-32.866730 2102.622559 319.617279
28.798014 2117.711426 266.676514
256.419891 2103.568848 163.369415
273.622467 2225.602295 19.925140
198.624054 2125.678467 302.090302
324.440399 2315.585449 171.884109
279.851013 2349.239014 47.416393
308.566498 2104.196533 122.047935
135.479828 2211.555420 374.138275
128.071808 2197.746826 364.715271
250.376633 2110.009277 84.929672
368.977417 2295.650391 329.836609
267.653503 2179.007080 1.925851
281.589691 2230.506836 314.247406
337.866119 2293.051270 203.169800
331.760834 2203.327148 262.381714
166.850510 2141.331055 349.553223
330.164001 2278.206055 181.913223
297.860016 2304.516357 90.781166
366.441925 2320.864746 216.192368
109.703346 2115.104736 295.676422
309.489136 2134.113281 135.629730
195.723282 2170.160400 326.811890
100.626106 2141.100098 381.055023
25.458899 2097.533447 145.566284
19.868774 2127.457031 319.371613
262.504486 2139.333740 9.549199
277.950104 2212.368408 15.143684
124.662621 2112.810791 55.980999
311.775360 2108.101074 187.042145
193.640091 2115.248047 43.823246
312.431732 2280.733887 129.467453
256.271698 2167.370850 403.273834
58.813942 2102.473633 126.561722
355.101166 2255.163574 316.938110
314.327545 2185.381348 136.228409
288.064789 2266.253418 37.892216
68.526855 2101.281250 127.711571
64.999893 2110.928955 352.740021
319.652832 2113.777344 253.458008
279.056427 2099.396484 106.322250
312.259125 2120.429688 179.271729
353.349792 2262.607422 260.302185
275.977081 2130.872559 59.669849
278.453796 2189.735840 23.009241
20.415646 2168.929199 452.528595
254.642212 2218.058350 358.685425
19.200922 2107.448486 97.432022
-24.206779 2104.521484 162.866943
228.005722 2102.851074 166.552353
333.082306 2302.417969 261.926453
269.249054 2185.900391 328.210846
66.117195 2118.059814 148.872192
169.318100 2125.111084 303.197388
78.549606 2214.518555 391.583466
326.667267 2256.247803 356.870331
18.413307 2140.692871 432.603973
310.863678 2156.782959 266.159943
289.700287 2125.418457 25.504631
166.272949 2126.739502 359.226715
246.530670 2116.618408 282.424286
315.086395 2120.126709 254.713882
72.273430 2100.885742 74.326157
181.341370 2162.530273 353.388702
35.117287 2120.301758 83.110748
259.474640 2317.747559 -3.695910
40.632637 2112.363525 373.224792
311.831604 2117.768555 237.300980
307.665100 2192.154785 403.351257
-103.876266 2090.810303 182.488083
318.450897 2253.049805 264.700775
-20.359976 2149.063721 414.556061
356.258453 2160.270996 246.927094
139.746429 2120.764648 172.201462
332.205627 2143.095459 139.045822
-17.284607 2114.241211 274.459229
168.667831 2119.742676 316.230560
307.046722 2181.230469 397.342651
269.409943 2251.285889 24.276148
331.376770 2257.795898 181.582916
62.681885 2119.639648 311.948517
252.605331 2166.959717 314.736877
15.965336 2111.835205 296.366821
111.030006 2155.135986 370.831482
-92.459579 2192.291016 334.632507
288.152832 2183.105225 90.753006
15.985453 2107.636475 103.227516
276.367371 2396.901855 47.839081
190.873642 2116.247803 287.068665
114.444206 2121.524170 287.791504
317.263031 2131.320068 158.123917
272.093109 2118.441162 185.241180
-58.535763 2094.576660 356.027893
280.586029 2112.364990 162.381332
158.247360 2121.737549 338.708405
184.341415 2112.571289 315.460846
16.312624 2108.480713 303.635956
137.392944 2116.554199 341.784058
108.885658 2124.057861 383.930634
321.678009 2132.502197 126.246780
279.709412 2318.850586 39.075863
340.346069 2240.769287 261.762115
292.044434 2118.473389 -12.704598
124.260872 2115.575195 368.838898
193.735184 2117.417236 96.292557
338.452179 2151.764404 216.153976
-95.583176 2343.207275 325.243805
320.133728 2178.574219 145.114090
92.860008 2124.482178 163.459915
-91.290237 2095.081299 160.222778
278.256378 2182.017334 298.987976
314.637604 2108.608643 233.301636
-76.108627 2080.970459 128.831100
263.872925 2130.823730 286.436035
255.224899 2165.953613 329.831818
150.990738 2115.406250 315.823059
-51.348389 2102.411621 239.076904
323.579163 2286.795898 163.468384
314.578247 2122.097168 257.819427
335.488068 2260.908447 341.038940
266.113922 2176.654053 327.432770
276.716125 2325.208252 32.671360
240.931046 2102.904785 140.118530
270.013000 2399.418701 78.254219
-21.909115 2115.329834 398.582336
170.259003 2105.132324 58.285877
3.363714 2109.530273 181.985321
58.039356 2130.150879 404.364685
204.909714 2114.173340 287.057892
280.991913 2161.206299 29.321835
-75.762428 2102.187988 125.497704
285.151215 2244.568359 43.408543
349.684479 2160.366455 255.565735
50.101246 2161.393311 397.047577
28.229645 2125.185791 411.709137
353.832794 2254.640625 253.970322
279.576141 2103.143799 95.311867
327.831635 2323.154541 200.408340
289.597504 2381.460449 -25.828291
367.531250 2331.246826 237.069916
176.833923 2127.479980 288.676392
286.854279 2399.176514 84.557259
191.268478 2096.092285 147.936691
26.540831 2108.280029 340.662201
49.451202 2118.560059 265.692566
338.543152 2300.290283 203.542938
292.269653 2104.692627 102.276299
105.262726 2105.240234 100.177391
78.605682 2114.363770 319.958923
293.582794 2185.924805 373.191742
26.318487 2111.490723 330.165710
-108.244377 2096.973145 143.048996
257.977356 2173.875488 308.761658
287.842529 2206.699219 27.689770
163.566528 2133.541016 214.601654
265.758423 2334.154297 7.686788
164.497421 2114.720947 306.152100
274.559265 2108.840576 254.880112
198.693832 2121.627686 255.710571
325.931519 2267.135010 284.176453
213.906570 2101.094971 100.389099
138.016022 2120.601563 101.071892
370.861938 2191.059326 237.013016
-11.373309 2097.066895 138.954391
254.126511 2101.974365 58.295925
260.348816 2104.052002 114.903793
259.036072 2133.419434 12.167601
351.166290 2134.406982 232.961044
158.410492 2125.290771 360.290863
89.905624 2112.964600 191.841888
86.296455 2121.666260 279.914154
297.678986 2180.812012 396.962189
255.896698 2102.432129 207.932404
220.965744 2102.579346 138.903946
25.348059 2116.838379 281.494995
4.260320 2138.006836 410.800323
334.857056 2130.816650 267.447083
90.773651 2121.046387 87.366394
248.244095 2103.812744 89.713516
-85.137421 2140.943115 343.795654
339.221863 2297.540039 286.228760
278.735474 2226.273926 41.351212
234.765717 2097.960449 131.026688
281.237671 2377.884766 56.058914
15.946185 2121.604736 410.839539
60.756355 2126.814941 376.928802
192.305847 2108.827637 93.736519
188.144119 2163.032959 196.671234
326.145874 2262.586182 268.599182
367.419983 2227.610596 224.283325
347.021851 2282.078125 331.571075
348.442688 2140.760254 190.164642
317.895416 2251.108398 140.784714
360.463348 2362.109131 246.107132
