ply
format ascii 1.0
element vertex 1310
property float x
property float y
property float z
end_header
1696.483521 1161.350098 -1107.681763
1419.055908 1123.485229 -1227.267212
1468.511230 875.301758 -1239.659302
1523.912598 1100.923584 -1084.843506
1546.067383 902.768127 -1167.553345
1730.744873 1184.497559 -1157.199463
1763.717651 987.697083 -1100.421753
1403.772461 1099.024048 -1248.305420
1780.322876 906.151672 -1114.710571
1842.252563 936.959595 -1183.252075
1539.559814 858.806091 -1179.905518
1399.858521 1082.651245 -1228.100586
1561.700195 1150.098999 -1107.971313
1487.983276 893.575745 -1218.518799
1757.474487 1091.927368 -1123.499268
1575.391479 884.009827 -1104.711182
1378.398926 965.209167 -1295.423584
1483.717163 1106.164185 -1130.322998
1349.447632 975.488037 -1312.577148
1691.355957 956.205139 -1045.443726
1534.262695 917.257690 -1165.235352
1546.770630 853.958374 -1167.267700
1636.346680 858.580444 -1074.827637
1486.435791 1079.472168 -1100.211304
1504.082397 1216.463989 -1089.871948
1431.499634 957.255737 -1325.888916
1470.654663 1086.571655 -1144.065308
1602.855835 950.039490 -1029.918457
1499.745117 1157.012939 -1251.554443
1547.040771 969.688782 -1159.547974
1415.199707 877.926819 -1324.129883
1721.854614 1094.767700 -1093.175659
1505.644165 1037.258667 -1122.183716
1504.787842 1075.078613 -1088.838013
1537.038452 1026.098755 -1063.968262
1550.979004 957.989990 -1079.343750
1441.719971 824.033325 -1302.109253
1598.480591 929.944214 -1042.232666
1609.811401 926.703491 -1033.105469
1588.528198 847.352600 -1101.723145
1627.708618 1204.323853 -1117.567993
1522.970215 1087.963745 -1053.384766
1522.281250 1198.027466 -1089.064697
1808.908569 1097.415894 -1164.258057
1414.432739 1109.822144 -1233.108032
1749.386230 1048.395996 -1123.236572
1569.037964 990.878052 -1031.354126
1600.983765 992.981995 -994.671021
1545.145020 980.066467 -1094.110107
1563.913696 1112.821777 -1062.108521
1754.654053 1099.202393 -1122.314453
1429.101074 958.351624 -1252.998901
1425.073608 815.843384 -1323.597656
1558.882568 1013.514526 -1039.149902
1740.165527 1044.282959 -1101.692505
1611.908936 1193.546387 -1111.914185
1687.745361 903.740173 -1051.482056
1425.853149 977.590881 -1260.895142
1724.579590 888.034729 -1069.932373
1435.734985 892.459656 -1260.852661
1715.654175 926.727173 -1061.100830
1449.782959 927.095215 -1293.013428
1582.755127 1015.463196 -1008.848206
1516.933716 1090.409668 -1074.772583
1619.252563 1123.444580 -1014.751282
1638.778687 893.688965 -1032.492920
1626.611572 1194.573608 -1127.530396
1520.837402 1206.622925 -1087.033569
1480.917114 902.686707 -1234.594238
1658.278442 901.234619 -1020.865906
1320.702393 1065.014648 -1317.074341
1744.351318 1108.712646 -1117.179443
1536.976318 1019.751526 -1062.183472
1548.261719 1016.131470 -1053.194580
1419.284302 1103.833130 -1194.485718
1650.258545 903.174805 -1012.120667
1474.759399 1104.112671 -1477.685791
1668.932861 896.396118 -1017.015442
1567.987305 1165.681152 -1106.307251
1557.068726 1079.176880 -1011.900940
1600.931396 884.622009 -1078.830444
1549.440918 933.604248 -1144.535767
1646.809204 1144.934448 -1002.266724
1610.244629 1196.389282 -1142.551758
1601.018799 1001.078613 -1009.261230
1626.585449 919.710754 -1010.513000
1559.326782 894.428772 -1118.624390
1379.026855 1099.273682 -1242.038574
1532.441528 1082.827881 -1056.087769
1502.373657 1057.965332 -1113.864868
1527.275391 989.344482 -1128.392944
1529.103760 1205.892090 -1085.187622
1602.905518 895.250305 -1054.712402
1510.995361 1243.012451 -1081.513916
1473.613525 871.250732 -1229.618286
1334.366211 1027.563110 -1299.758301
1325.976318 1046.378906 -1322.890015
1402.109009 1009.564209 -1252.977295
1418.012451 1116.367432 -1191.214478
1753.017334 921.441589 -1069.952759
1494.072632 1247.653687 -1089.095703
1659.024048 869.276978 -1014.502747
1643.589478 905.949219 -1022.847717
1514.538330 963.092529 -1158.808228
1660.578369 1219.451660 -1094.935425
1503.708618 1082.516968 -1079.053833
1444.186035 1120.615723 -1182.359863
1570.824219 989.705505 -1029.170044
1539.835571 1084.096069 -1040.600952
1525.006470 844.825256 -1189.531250
1758.552490 980.281067 -1118.992920
1811.196289 1032.953857 -1156.026611
1443.949585 1058.599121 -1168.783813
1528.611084 934.300354 -1174.265381
1540.123535 1137.557983 -1107.046997
1464.164185 849.483398 -1250.066772
1456.571899 1066.424561 -1148.497437
1592.207031 957.796570 -1040.112549
1433.989868 842.546204 -1297.556396
1680.501953 1219.651001 -1112.185303
1588.579834 933.245117 -1055.992920
1695.867432 919.738647 -1046.542480
1455.344604 871.936279 -1256.375244
1517.034668 1053.294922 -1083.751099
1562.598022 1103.300781 -1029.689819
1506.926758 912.152649 -1195.624268
1601.015747 979.343872 -1000.738770
1554.117554 983.973755 -1076.395874
1840.756104 973.003601 -1169.573853
1519.504761 1226.617065 -1088.733643
1556.008545 885.839539 -1124.261353
1543.144531 1214.222900 -1096.084961
1738.919678 1057.248657 -1101.683960
1782.151245 1053.875244 -1137.479736
1564.238770 937.925781 -1076.094238
1652.692383 973.694092 -1022.660522
1324.177124 1072.002075 -1306.778198
1497.284424 836.010315 -1231.934326
1764.877075 997.125793 -1115.006836
1471.566772 1104.534424 -1134.421631
1628.964478 1216.041382 -1077.859131
1441.182007 853.736450 -1268.355347
1641.333130 904.492432 -1022.438354
1502.010620 861.395752 -1201.487915
1367.300049 1050.598145 -1261.079712
1770.978760 1109.283447 -1135.041504
1711.007813 919.098694 -1058.672119
1468.036621 1139.523315 -1165.289795
1358.169800 1007.992371 -1295.174805
1422.318481 957.026245 -1258.097412
1616.664795 961.474548 -1004.779968
1688.551025 1117.806152 -1062.319092
1709.391113 991.879822 -1069.240601
1415.731812 866.428894 -1308.178833
1448.836548 972.473145 -1215.848755
1369.003174 1032.436035 -1271.998657
1656.749756 917.911316 -1027.746338
1550.160767 1110.858521 -1031.227051
1530.835083 918.907349 -1162.996948
1593.387695 939.811401 -1025.435425
1380.443359 926.380615 -1321.735840
1397.687988 880.751099 -1383.959839
1547.466675 1109.922241 -1098.361694
1653.698730 971.575500 -1038.858643
1517.386230 1159.603516 -1106.899170
1562.253906 909.305542 -1089.908691
1661.212524 870.047852 -1029.577271
1607.014282 951.187500 -1017.340393
1536.460327 834.358704 -1148.224121
1804.718262 1038.614624 -1155.455322
1809.407471 983.606262 -1143.404907
1439.906738 1092.902466 -1166.461670
1573.519775 1042.154419 -1007.346619
1540.428711 1112.713745 -1048.975586
1647.114868 1132.128052 -1016.795227
1411.825073 1083.232910 -1189.599487
1590.496948 934.154785 -1048.173706
1616.576172 931.101807 -1044.760254
1434.352783 908.728699 -1258.437378
1411.072388 1121.057251 -1238.462280
1408.984985 1080.886230 -1190.282837
1741.063721 1050.795654 -1106.795288
1366.990234 929.468628 -1318.174561
1495.652100 868.383240 -1198.229858
1557.656982 922.116516 -1106.287231
1443.596802 1018.950195 -1204.469116
1550.778809 913.424561 -1165.238281
1823.076050 961.712402 -1174.069580
1635.983643 1011.184570 -1001.814270
1426.476807 1124.805054 -1203.009033
1502.588379 1129.963989 -1165.698730
1461.826782 1001.372375 -1215.804077
1586.287231 904.673340 -1072.900269
1650.585815 868.464661 -1032.960205
1595.971924 955.239929 -1023.766724
1404.781860 912.852783 -1290.823730
1390.850708 1102.303589 -1223.259521
1537.462402 973.025452 -1066.032837
1682.086426 924.384888 -1036.720825
1748.773193 959.464783 -1095.487915
1454.483521 894.362854 -1328.898804
1509.626709 1030.272461 -1105.192505
1782.438354 1151.889038 -1132.905640
1627.288086 1110.484497 -1000.747070
1545.018066 846.070801 -1172.700806
1714.053101 1151.016602 -1062.885620
1463.038452 841.844604 -1257.232544
1428.281860 838.047546 -1296.037231
1398.779541 1027.369751 -1235.175537
1647.156860 987.073242 -1021.454285
1433.586060 1118.142334 -1184.326538
1638.861328 1029.078857 -1026.926514
1582.839966 1243.008301 -1115.120117
1688.628418 1018.647827 -1049.087036
1646.278809 1096.158447 -1030.033203
1430.251709 1064.583008 -1182.318726
1534.449097 1090.376953 -1055.282349
1477.857178 948.263733 -1202.930786
1421.069946 989.843079 -1237.239502
1569.551025 845.168152 -1093.586670
1577.382813 860.587524 -1117.655151
1452.055298 881.441650 -1262.180542
1522.258545 1032.244507 -1066.627197
1556.215454 916.326599 -1145.082153
1654.444946 895.717224 -996.769470
1695.816162 910.994934 -1045.376343
1600.072021 995.246887 -996.670288
1794.270142 1044.672852 -1148.548950
1446.064331 1098.757324 -1149.188965
1499.916260 902.369141 -1199.654297
1542.115234 1099.431152 -1029.158081
1500.710815 868.296875 -1211.228760
1734.519287 1175.425049 -1087.649170
1460.671631 938.005859 -1244.961426
1368.467651 1128.886719 -1300.580688
1674.020630 1050.925171 -1048.499512
1625.514038 1065.853882 -1024.802979
1632.059692 1146.557495 -1128.338623
1788.044189 1038.933838 -1148.466919
1497.511475 979.239868 -1165.397583
1683.668579 997.427917 -1055.448975
1532.427979 897.196411 -1155.372192
1606.347900 943.012573 -1019.967773
1565.687744 929.841309 -1121.341309
1596.248657 1033.276245 -1011.153137
1566.535889 980.656921 -1031.395264
1482.066040 1011.341431 -1160.158447
1581.456787 929.985474 -1061.684814
1547.574829 922.968811 -1124.011963
1452.682495 828.665344 -1278.453979
1420.145386 1088.760376 -1213.314575
1535.968872 1242.842529 -1119.881470
1350.357788 1041.462524 -1280.790405
1403.558228 862.639099 -1334.548950
1574.441650 944.035095 -1061.358643
1359.780884 921.316956 -1335.815918
1465.643799 1100.967041 -1131.986328
1483.710327 842.725769 -1237.593994
1701.911499 924.887268 -1050.432129
1560.942627 932.968933 -1093.753052
1757.157837 1095.227539 -1121.308716
1510.524658 1080.763794 -1081.800293
1532.200562 1071.062500 -1055.804321
1584.176147 1077.923584 -994.948303
1532.994385 1011.516052 -1064.138916
1355.804321 1041.901978 -1272.342163
1615.724976 982.230896 -1011.023621
1420.168457 1011.210571 -1249.455322
1362.627686 942.827209 -1335.399658
1519.939575 1141.340454 -1164.149658
1408.345215 1077.577148 -1198.714111
1628.429443 1220.822876 -1085.150757
1405.847412 964.065857 -1279.942383
1657.812256 886.444397 -1015.839111
1345.126465 970.750793 -1332.148926
1736.422119 996.239868 -1090.733521
1530.999146 1081.630737 -1059.392212
1409.589233 944.334839 -1271.602539
1809.144287 924.490601 -1138.864990
1671.365112 1170.650391 -1052.347290
1363.852295 1067.504761 -1264.864990
1393.506592 946.171997 -1317.541992
1377.988281 922.527405 -1324.460327
1605.916138 1004.678101 -1021.740723
1626.393555 1143.933960 -1037.844238
1587.059326 1047.176636 -997.045837
1404.383423 1059.651611 -1218.879028
1668.301147 1041.563599 -1043.054932
1428.732300 1137.526245 -1290.797974
1434.749268 925.684204 -1252.650757
1576.825928 1107.088745 -1002.843750
1472.033203 1121.944580 -1141.105225
1458.048584 1136.859497 -1226.598389
1514.352905 1111.188843 -1103.182983
1558.028564 951.464905 -1133.007202
1611.358521 1159.517822 -1114.754517
1801.395630 948.979431 -1152.179688
1563.746338 1212.532471 -1108.379517
1576.424683 1111.436035 -1003.798462
1378.951050 984.173767 -1305.455322
1487.250488 1057.206787 -1127.686401
1523.453613 859.011841 -1178.247070
1539.482178 886.036255 -1151.393433
1602.004639 891.089783 -1060.486572
1578.716919 1114.675659 -1039.517090
1428.570190 1066.530762 -1184.338013
1446.770996 816.549866 -1262.576416
1607.432739 1166.724854 -1098.036011
1666.171753 921.814148 -1012.137573
1413.042480 952.662842 -1277.969727
1542.825928 890.379822 -1169.611938
1423.150146 1066.149414 -1190.438232
1605.281372 868.145996 -1073.416016
1588.469360 858.142700 -1121.161011
1498.477783 1093.990356 -1089.908813
1526.157471 1132.217896 -1104.004883
1681.267456 937.156860 -1043.058960
1743.812012 1110.347656 -1131.566650
1671.907104 1053.960449 -1041.960815
1591.379272 1040.131958 -984.458679
1486.795044 1051.752319 -1145.906006
1846.199097 1025.978027 -1181.256958
1851.547607 995.552185 -1198.416626
1646.655640 1202.102051 -1104.813721
1522.882813 896.125305 -1185.772583
1737.859863 951.252625 -1086.092529
1679.098755 1191.407837 -1105.112061
1561.183594 1129.575439 -1104.397949
1640.302979 894.167236 -1015.242859
1516.799316 1136.715332 -1130.904785
1548.240112 1104.757568 -1021.571777
1363.681519 1080.125244 -1277.298096
1383.615845 1001.934570 -1298.815918
1764.816650 895.238953 -1086.498901
1487.082275 1136.121582 -1159.478882
1413.942505 913.861633 -1319.403442
1788.839111 986.996948 -1131.052856
1336.908081 1046.051758 -1293.645996
1413.862183 834.651978 -1326.826660
1601.972168 967.127197 -1018.378967
1654.427246 872.770874 -1035.605347
1604.521118 1244.436523 -1079.972656
1527.302734 857.211365 -1182.379639
1586.673096 900.540283 -1078.561890
1538.494995 992.064331 -1068.474487
1404.651367 864.233398 -1312.351074
1433.922363 995.652039 -1231.226318
1644.840820 1166.633423 -1117.609375
1773.218018 1101.738403 -1137.182617
1651.893188 859.692688 -1024.167114
1619.236572 882.163330 -1058.796387
1391.555298 1050.615601 -1231.622559
1533.446533 1117.484619 -1100.989624
1685.495728 1129.501587 -1035.576904
1788.227661 1029.873291 -1138.810059
1714.879395 1173.935181 -1148.384888
1373.766113 971.395203 -1380.340698
1551.857178 1127.493530 -1083.819458
1613.895020 1102.240845 -997.883057
1580.016113 876.876587 -1127.241089
1592.442505 990.282471 -1007.628601
1376.136841 1095.402710 -1267.874146
1470.396851 948.385620 -1223.860962
1557.117065 1074.751221 -1018.699463
1409.472656 1117.791504 -1248.486694
1701.111450 989.310120 -1062.197144
1727.360107 1170.322266 -1092.339478
1680.024048 1083.205200 -1065.225098
1576.401367 925.426270 -1073.943359
1391.435791 954.041626 -1299.871582
1699.717285 1053.697632 -1086.165405
1772.289185 990.386841 -1116.224609
1603.205444 991.847351 -1015.352722
1676.991577 882.693909 -1041.195801
1832.035400 1045.933594 -1160.398315
1677.748291 891.900757 -1041.787964
1483.079712 1115.099121 -1158.599609
1354.332153 1048.462158 -1271.828003
1470.151611 1138.228271 -1210.885254
1650.407959 1081.313965 -1036.523682
1562.086060 942.734009 -1067.541260
1625.312744 1019.376953 -1011.745911
1494.509521 837.414673 -1226.404907
1658.732666 971.416931 -1042.927368
1637.859863 974.682007 -1014.383362
1697.717773 916.103577 -1060.726318
1530.496704 1101.352173 -1049.614502
1616.489868 1148.213989 -1224.681030
1528.566040 1032.158569 -1072.267456
1651.022095 1120.970337 -1022.925903
1399.201782 841.603271 -1325.093628
1579.964600 1064.029297 -999.984863
1410.745117 1106.789429 -1204.988281
1409.616455 810.176697 -1305.060669
1759.463989 1158.969604 -1105.072876
1335.731934 1111.115356 -1312.667358
1613.338623 1209.700806 -1119.130127
1383.996216 1124.678833 -1272.330444
1613.021606 866.688354 -1090.802856
1588.260620 1059.032715 -1015.382385
1439.675415 1059.184204 -1186.392944
1664.818970 873.819946 -1003.422852
1438.942749 813.519409 -1294.759277
1606.117554 964.939331 -1010.610535
1561.294312 1085.546509 -1031.465210
1539.110840 1046.322998 -1049.233521
1672.572144 942.666260 -1032.515991
1749.640381 1181.599487 -1091.243286
1542.093140 1129.928101 -1083.230225
1434.000732 1021.074341 -1228.309570
1501.319946 1066.307251 -1118.850830
1585.434082 898.226624 -1083.085938
1627.311523 1142.828857 -1091.241333
1623.285645 1150.658325 -1057.461060
1521.821655 1132.064819 -1139.493774
1659.962891 1009.088440 -1038.796265
1436.281982 1122.186157 -1168.451294
1673.819946 894.848694 -1016.958801
1650.635376 999.820618 -1009.669128
1376.877197 1078.652222 -1246.073730
1680.085327 1157.812866 -1099.615601
1679.054565 1172.089722 -1080.600830
1438.757446 892.104431 -1299.493408
1490.707764 1084.036499 -1112.935791
1625.649170 977.591431 -1007.212036
1681.009155 968.418091 -1039.545044
1659.282959 1241.880981 -1092.974121
1423.392944 891.812012 -1329.513062
1702.118530 871.360718 -1058.421997
1651.184937 901.972107 -1013.602783
1718.933350 1021.823242 -1069.683228
1583.405273 918.675110 -1068.057129
1495.840210 1017.815247 -1140.310059
1758.773193 1121.217529 -1129.238892
1565.816650 1181.315552 -1104.378662
1374.298828 1098.766602 -1258.765869
1391.144409 951.877625 -1288.127930
1550.075439 1030.275757 -1038.918823
1558.317871 1086.251099 -1020.918030
1747.416992 1067.436768 -1112.905640
1570.054810 899.551270 -1105.953369
1498.284790 826.607483 -1190.290771
1568.880737 1116.557373 -1088.501465
1539.524292 1065.786621 -1041.885376
1575.740356 1048.586914 -1016.898804
1760.235107 986.542053 -1106.694458
1409.872314 977.991577 -1261.347534
1595.068604 999.779175 -996.675781
1530.823242 1170.478516 -1080.195801
1728.087158 1077.197266 -1099.159912
1346.459961 1080.254883 -1268.537964
1519.329712 1045.898071 -1087.291260
1575.683105 1031.590332 -1026.188110
1619.267700 1131.822632 -1028.255737
1681.848389 1073.521362 -1061.285278
1528.199341 1042.671265 -1061.107178
1644.439087 1131.086426 -1022.383484
1520.370239 1156.862671 -1140.814087
1394.451538 916.795959 -1311.946533
1773.418701 974.770142 -1122.708740
1417.117188 1097.814087 -1223.936401
1351.461060 1118.823364 -1283.678345
1592.918457 879.256958 -1108.487915
1604.034790 931.779419 -1031.623657
1389.177979 959.785583 -1301.570557
1414.301758 902.558777 -1310.505005
1432.213623 853.290466 -1288.535767
1572.896729 905.853271 -1125.799438
1677.687134 1203.870850 -1123.197754
1546.079956 1059.406616 -1034.314575
1610.053101 852.227295 -1063.414307
1374.457886 1006.922241 -1302.203003
1544.964355 1036.562134 -1054.155518
1538.219727 1006.458923 -1062.368896
1437.891235 890.103760 -1306.925537
1650.833374 1208.483398 -1093.187744
1512.414551 1159.200073 -1219.897705
1527.938354 873.459595 -1186.493530
1543.055176 1070.605591 -1032.113037
1897.738525 948.505127 -1190.335571
1471.853271 1003.457703 -1181.935913
1507.609619 827.758240 -1188.903564
1526.885986 1121.389526 -1113.263916
1409.208862 852.629822 -1296.178711
1521.595215 1168.654175 -1101.298706
1620.651978 974.184937 -997.966980
1497.726074 833.138794 -1231.685303
1388.274292 969.342834 -1295.466309
1313.003418 1043.717896 -1331.413574
1593.534790 1202.198364 -1102.183105
1691.119141 881.269043 -1045.893555
1764.615479 898.636169 -1083.450806
1428.539185 1134.445068 -1204.820801
1626.557373 964.156311 -1022.877014
1541.745483 1007.215393 -1098.599243
1480.052002 1098.111816 -1131.072021
1409.436523 834.380066 -1341.351807
1498.848267 1082.778809 -1089.775269
1768.508911 973.343262 -1108.746216
1411.414551 847.067810 -1310.439209
1526.119507 1240.488647 -1104.288696
1536.366455 995.717041 -1084.055176
1513.269043 1219.792236 -1076.675903
1429.848511 1037.492188 -1203.195557
1608.761841 1021.006470 -1010.183899
1825.627686 921.254822 -1146.827759
1534.991699 977.134949 -1074.804321
1678.926392 1011.099854 -1040.726318
1454.764160 1135.505371 -1228.846191
1460.373291 1111.415771 -1142.626709
1597.886719 879.964417 -1075.410400
1700.288940 928.977356 -1049.644531
1738.080933 984.598022 -1090.834106
1667.241089 1162.398193 -1110.585571
1519.764160 846.606140 -1172.528809
1560.795532 836.786804 -1128.465820
1494.313354 917.330444 -1205.030762
1455.915405 1072.129272 -1149.926636
1454.564087 1078.129395 -1156.203491
1625.015137 881.934326 -1036.786621
1470.358398 1124.362427 -1136.625732
1378.524902 1093.103027 -1250.578003
1806.408936 1035.752808 -1164.856812
1375.843506 913.644775 -1338.854980
1785.734131 976.760193 -1115.087891
1440.363037 974.228149 -1233.609375
1546.886719 1121.204590 -1113.798706
1608.900269 904.552368 -1041.966675
1331.478638 1102.476440 -1297.248169
1534.476563 1031.263062 -1070.751343
1447.305908 852.841064 -1279.979980
1543.687378 1016.215942 -1051.248657
1547.787109 1060.229614 -1032.000977
1362.740845 1093.193481 -1269.352905
1508.463135 1007.376282 -1145.200317
1373.054810 1138.281128 -1283.383179
1636.020142 1196.808350 -1088.178345
1437.337158 1013.910828 -1220.695801
1483.516235 923.443359 -1208.341309
1349.351685 1112.845459 -1287.809448
1778.935913 1054.111084 -1136.972046
1374.984985 1112.972534 -1257.793945
1372.819824 1084.905029 -1250.728394
1654.656006 1196.646118 -1108.208740
1634.124023 882.272522 -1030.521484
1646.957886 1045.730591 -1027.114990
1793.129028 1115.393677 -1157.660889
1527.020508 1201.406982 -1081.959961
1513.420288 1211.549805 -1079.182251
1402.690308 855.989441 -1327.401978
1749.716919 998.436890 -1115.360596
1478.870850 1108.198975 -1133.214722
1503.530396 1139.179077 -1167.369507
1570.177246 943.874817 -1063.197021
1766.851685 914.919128 -1077.974731
1457.089111 960.669617 -1241.458496
1599.244995 955.292542 -1020.221130
1643.938110 907.093262 -1019.125122
1757.189087 977.732971 -1107.160156
1507.294800 1249.904297 -1082.480103
1531.966064 1034.389038 -1062.259399
1354.752563 966.662903 -1306.093506
1683.387695 1132.573242 -1031.303345
1618.737671 1019.852478 -1009.720581
1456.095459 901.232666 -1260.817871
1329.876221 1095.339355 -1309.913330
1438.160889 1057.093140 -1182.457764
1517.792114 1072.640503 -1062.137085
1562.432495 1055.630981 -1026.860474
1455.038940 873.323120 -1241.697632
1546.733887 956.494019 -1087.634277
1618.029053 1181.703003 -1115.062988
1530.373657 1087.565308 -1045.958252
1649.579102 854.793457 -1057.730713
1594.035522 988.494873 -1007.237915
1564.104614 1118.641357 -1014.840820
1437.652710 1090.014038 -1161.912720
1603.150269 919.508667 -1061.033813
1422.144653 1085.935547 -1179.049316
1462.022339 917.543274 -1245.313843
1542.937988 1052.908447 -1050.426270
1434.196655 966.521790 -1242.376587
1367.743896 989.284973 -1310.391602
1700.949951 875.419312 -1039.191162
1494.168945 857.874634 -1232.937866
1501.545654 1121.546021 -1116.413330
1412.812866 848.883240 -1327.806885
1343.543091 1079.629761 -1277.350830
1463.351440 899.743469 -1267.368164
1654.900635 968.364746 -1019.023010
1549.430298 1110.393921 -1033.165161
1513.154663 1160.411743 -1226.534912
1805.990967 1085.506714 -1157.396362
1588.761719 1084.228271 -995.721497
1637.549927 1232.114624 -1102.480347
1439.412598 855.179321 -1276.986206
1372.906006 1087.901245 -1253.916260
1475.092041 998.456909 -1190.832520
1665.821045 858.990112 -1035.416260
1515.599121 1238.873535 -1091.100464
1370.649902 974.418213 -1314.902832
1493.979126 1095.405762 -1124.109253
1649.690918 934.627258 -1023.809326
1722.423096 1099.155762 -1099.420288
1512.810425 986.036255 -1145.567383
1424.532471 875.878479 -1293.313599
1704.876709 980.335083 -1060.992310
1420.122070 941.135010 -1275.916992
1337.837036 1000.807434 -1312.807739
1448.107300 961.253052 -1233.808228
1660.987183 1148.738647 -1076.150024
1523.993652 1152.446411 -1101.445313
1630.100098 1171.146851 -1097.331665
1721.557861 1022.411560 -1082.507202
1339.291138 1090.224365 -1340.919189
1510.583740 1175.107910 -1115.026855
1560.718628 1045.834717 -1027.179077
1511.036133 1092.693481 -1074.107056
1528.004150 932.046143 -1159.844604
1675.454468 869.813843 -1008.472046
1415.041992 1087.226685 -1189.325439
1674.740479 1022.085815 -1039.291382
1357.473877 1088.768921 -1263.273071
1392.341431 1107.345825 -1236.147339
1361.103638 1046.350342 -1269.747070
1772.355835 986.513977 -1118.651978
1549.423828 1221.098022 -1068.395996
1335.522339 1041.147705 -1310.868164
1438.532349 1109.109253 -1149.908569
1579.977783 1034.429932 -1000.856812
1420.895874 842.104553 -1301.478638
1470.502075 1063.889526 -1141.609375
1532.783691 952.662659 -1137.615479
1711.410889 1030.469116 -1079.949219
1654.235352 953.330444 -1018.839417
1380.900757 927.885742 -1318.073486
1546.038940 1002.661011 -1103.651489
1455.770630 833.583313 -1273.509033
1450.953369 922.084473 -1234.792969
1460.709595 1085.904541 -1137.230957
1544.700562 1099.718506 -1050.437134
1543.980835 1212.282837 -1070.303101
1646.160278 1119.374634 -1015.969482
1386.521362 1134.963257 -1267.914795
1568.921875 878.174988 -1096.281006
1524.677490 975.815125 -1140.913574
1508.474976 1088.850464 -1092.995605
1358.640625 1128.406006 -1286.877808
1420.164551 979.782776 -1245.974243
1509.339111 1057.395264 -1111.775635
1619.616089 1067.403076 -1020.575195
1748.897949 1088.203247 -1114.619019
1736.290527 1176.733521 -1099.137451
1567.441406 888.899841 -1128.103394
1573.041992 1095.618774 -996.068481
1581.117065 914.478516 -1074.175781
1369.233398 1124.808594 -1370.808960
1485.834351 1111.300415 -1131.063965
1441.168701 1027.063477 -1230.959473
1578.712036 967.290833 -1038.966675
1776.057373 974.532654 -1114.735229
1449.368896 871.524841 -1268.564575
1592.535278 1054.713013 -986.994568
1639.640137 873.487854 -1050.316528
1461.905762 997.948059 -1194.173706
1314.133179 1058.664307 -1337.492065
1629.227539 976.664734 -1000.090210
1612.281250 1029.422974 -994.114685
1721.876953 974.214478 -1067.538086
1553.047607 896.728577 -1140.049438
1444.572998 984.477661 -1225.920410
1434.245850 884.273254 -1305.172241
1590.347290 900.700867 -1077.318970
1410.938599 830.470215 -1333.782715
1411.736206 1098.780396 -1183.005371
1585.193848 1104.864380 -1004.761108
1520.711548 955.727905 -1149.080444
1699.160522 1038.350952 -1057.722900
1535.917358 990.968628 -1129.412476
1642.250610 1186.549683 -1096.792236
1378.761841 1147.948608 -1300.062500
1664.048706 881.342346 -1032.362427
1768.066406 901.716919 -1089.230225
1478.061523 829.553589 -1264.531128
1371.112671 1090.379761 -1249.766357
1505.333496 1038.228271 -1139.153687
1562.225952 1126.938354 -1099.971680
1555.254150 1097.127930 -1023.796082
1627.577148 1063.895630 -1022.512451
1824.892212 918.778137 -1125.435059
1646.242188 1016.235046 -1029.813843
1395.107544 963.795593 -1292.008057
1472.546021 1032.755371 -1174.637573
1620.449951 1024.177246 -992.191772
1852.535889 944.013062 -1174.971191
1457.220825 1128.627319 -1165.589966
1715.798828 1169.359253 -1093.218262
1424.674927 1051.689697 -1193.731567
1704.575684 1063.359741 -1078.696045
1360.128540 1014.379944 -1283.385620
1526.257446 1228.494019 -1101.060913
1831.197388 992.035156 -1165.719971
1351.157227 1096.475342 -1285.016357
1427.621826 992.046753 -1250.642334
1403.970581 853.531677 -1311.046509
1587.671387 886.466553 -1078.775146
1667.578491 872.533508 -978.601440
1520.858643 1054.683350 -1095.329346
1525.154541 1120.129517 -1105.685425
1653.692017 1050.369995 -1021.932861
1512.642944 856.853516 -1196.125610
1458.444458 905.968933 -1257.158569
1693.031738 1156.009399 -1076.726196
1525.008057 856.145508 -1189.447266
1804.825562 968.265686 -1157.857910
1598.230591 1101.186157 -996.684143
1465.933350 1131.372559 -1172.293823
1364.610107 1060.397705 -1259.553345
1499.743652 847.190002 -1219.810547
1550.378662 914.766907 -1157.316284
1691.764404 1140.334717 -1051.693970
1481.774902 829.693237 -1272.835205
1674.524536 1168.920288 -1117.724121
1494.986572 1229.402954 -1095.195313
1357.926392 949.264709 -1324.872803
1523.118164 1136.464355 -1107.014038
1492.586060 1026.937744 -1139.536987
1504.729492 861.509644 -1198.292969
1649.981812 1021.238098 -1029.342896
1535.956909 1166.618530 -1078.126221
1617.229492 934.822388 -1012.618591
1477.332520 826.789978 -1211.408936
1526.362549 928.626343 -1179.285767
1404.868042 1030.413696 -1234.155029
1517.375732 1135.207153 -1133.129883
1614.145264 1123.264038 -1026.937134
1488.541382 1032.604736 -1152.435669
1728.635376 1088.300171 -1097.285278
1798.018677 928.402710 -1133.803467
1627.344971 1163.625488 -1108.828857
1483.567505 1093.615723 -1134.471680
1766.792480 1143.158447 -1132.255005
1371.233032 1100.029541 -1399.538574
1650.252197 1040.464600 -1029.162354
1410.707764 918.845215 -1281.849731
1395.351929 961.520447 -1305.756470
1326.374878 1009.573181 -1345.036743
1430.052002 1116.235229 -1174.553833
1520.900024 1014.299744 -1074.593750
1603.857300 977.882324 -999.008423
1600.281250 1244.826538 -1112.653931
1614.527466 1067.468262 -1006.971130
1726.172241 998.513611 -1085.657471
1499.024414 1121.930054 -1140.439087
1500.046997 911.991272 -1196.963013
1396.710205 952.345642 -1296.114868
1340.506470 1061.232178 -1285.960205
1587.576294 1007.268677 -1005.512329
1544.672607 1122.299194 -1096.605957
1397.657593 992.672119 -1287.859131
1374.951172 1094.413086 -1247.615967
1591.403442 920.728516 -1054.739258
1437.967163 837.923218 -1298.681885
1475.738281 1039.875488 -1150.145142
1525.889282 1177.503662 -1086.910767
1699.488159 866.778320 -1023.210510
1688.133667 906.899109 -1036.098877
1560.314941 1175.607544 -1105.488159
1581.865845 1158.682007 -1114.232422
1504.117310 1093.894653 -1078.902466
1386.135010 1076.351074 -1255.427368
1469.839966 1066.464233 -1138.829712
1691.588989 990.588806 -1054.652100
1453.335815 1109.838623 -1139.761475
1477.275513 1076.186646 -1116.146606
1513.568359 1258.346069 -1081.847778
1753.916870 943.015869 -1094.560303
1403.269897 1119.945068 -1230.084839
1517.340698 1015.060425 -1082.712280
1378.225464 1019.025879 -1267.791138
1506.771973 1084.041016 -1088.320313
1361.967651 1078.624634 -1260.663208
1488.375977 865.212158 -1214.486328
1347.780029 1139.107544 -1345.621338
1652.118042 1187.000977 -1102.937134
1430.046265 1048.270752 -1202.066406
1456.370605 1156.759033 -1322.888550
1605.033813 964.612976 -1142.276855
1461.165039 1161.180298 -1255.671875
1711.119873 930.378601 -1056.852661
1637.917603 959.372986 -1018.322754
1680.934937 981.317017 -1033.005005
1343.964722 1074.884888 -1313.645142
1492.363647 831.818359 -1243.282471
1530.079224 1189.679077 -1126.318848
1650.057983 1195.765625 -1087.911987
1572.256836 1038.457520 -1027.531006
1608.239990 1128.723511 -1040.431030
1621.705933 955.697876 -995.144958
1700.023438 938.547241 -1056.838013
1553.168579 1023.215576 -1043.955078
1398.496216 1038.963013 -1245.735596
1772.104614 1069.826294 -1133.719849
1752.302490 895.327698 -1095.182983
1465.239868 954.668518 -1210.700562
1582.272583 917.303162 -1069.298218
1786.899048 1109.106079 -1137.104614
1541.222046 1116.397095 -1095.478638
1685.962891 1203.006226 -1113.500488
1764.471680 1073.761353 -1124.596313
1686.604126 1091.452881 -1080.409058
1397.584595 919.314758 -1296.435303
1397.326172 993.410034 -1404.549683
1662.812622 1156.941650 -1087.456543
1355.464722 1021.949341 -1303.117554
1656.155884 1196.043579 -1101.736206
1413.699951 907.877075 -1298.266357
1606.525635 859.856995 -1027.149170
1713.923706 963.363953 -1080.759277
1605.221924 871.138184 -1089.466064
1646.155518 1086.212769 -1035.267456
1614.000488 1138.811279 -1102.912720
1520.916382 1100.586182 -1075.213501
1427.996582 1031.408081 -1231.213745
1351.143188 1010.953857 -1299.680176
1556.914673 1098.185669 -1015.752197
1512.774536 1175.041870 -1091.797974
1517.400513 851.352600 -1192.267090
1520.830322 1174.068115 -1091.673584
1364.378296 1138.165161 -1322.974731
1854.997925 987.119263 -1182.878296
1559.151733 1133.615234 -1103.377319
1666.092773 865.291870 -1014.243530
1640.934937 1239.307739 -1089.641357
1642.349121 852.503601 -1049.674683
1530.593872 1229.809204 -1106.116455
1636.975708 1138.156006 -1018.273865
1421.686646 896.022827 -1319.506348
1368.119263 1090.026245 -1252.391357
1787.096191 1084.705444 -1145.084473
1494.614502 1067.755615 -1106.759888
1494.707031 1241.346802 -1084.639771
1435.787354 815.809570 -1294.435425
1419.464355 940.088867 -1277.498535
1480.326416 923.734497 -1206.966675
1551.576660 860.726624 -1150.494141
1489.722412 860.989136 -1214.143555
1381.183105 966.620117 -1363.451660
1606.956665 1222.636963 -1101.922729
1531.153320 1201.967773 -1126.509644
1503.152954 991.194824 -1153.714600
1573.236084 1104.690308 -1009.664978
1456.374268 1093.489380 -1150.271118
1392.729492 1097.756348 -1228.749756
1337.237549 1064.680664 -1313.906860
1435.872803 1115.375000 -1190.195801
1586.718018 972.216858 -1025.429688
1541.058594 1238.482666 -1100.672363
1651.062256 1133.249023 -1017.701721
1606.260376 1005.373169 -1016.181213
1552.246338 1121.079712 -1082.404785
1517.943970 1233.063599 -1084.747681
1664.801636 947.079407 -1030.910034
1644.275146 1198.199829 -1088.978027
1363.168335 1131.043823 -1274.672485
1482.955322 1086.595337 -1111.057983
1559.260620 1205.048462 -1114.408569
1845.773560 1032.422241 -1168.068359
1641.863647 1197.081543 -1099.457031
1794.003052 1095.937134 -1139.986572
1601.655640 883.629578 -1066.559814
1446.906738 1061.416016 -1448.014160
1747.359253 1160.283325 -1073.315796
1576.072998 1104.240112 -1014.457825
1339.419067 1071.728516 -1294.725342
1633.443726 1052.765991 -1018.317505
1483.671875 896.201111 -1217.794922
1509.908569 1202.633423 -1090.090210
1418.522827 942.435791 -1263.449707
1744.965210 1028.141846 -1102.539307
1696.401123 930.371460 -1048.368042
1799.601563 940.032593 -1131.641724
1563.452026 983.000916 -1034.612427
1438.007935 951.231934 -1426.328125
1559.875366 979.882935 -1051.086426
1684.128784 931.948792 -1043.296509
1564.493286 1005.946655 -1051.287354
1701.021484 1083.375000 -1084.536133
1543.843750 1151.584473 -1096.827026
1517.867676 996.200500 -1130.004272
1394.778931 965.957642 -1289.969360
1612.208008 981.055969 -1000.665039
1676.160645 1103.279297 -1063.113159
1552.022583 900.919495 -1124.731689
1732.518188 1113.924683 -1104.840942
1640.572021 1136.398315 -1027.955444
1357.851440 1109.930420 -1272.480347
1582.016113 849.490173 -1128.451660
1812.811279 1029.097046 -1156.527222
1600.471191 947.177673 -1029.539307
1535.212769 1020.480957 -1062.106079
1624.822510 935.341614 -1011.253784
1777.227173 901.294861 -1088.849854
1447.479980 1062.341187 -1167.461548
1465.445557 1111.419800 -1136.997803
1762.348999 936.945679 -1109.497437
1366.479980 946.263489 -1311.161255
1451.341553 1107.421631 -1139.421265
1563.236450 954.327576 -1065.619873
1507.934937 982.062439 -1169.833130
1527.257935 1184.981445 -1076.964966
1603.248413 1055.495117 -1007.146179
1638.502197 997.930542 -1016.987122
1581.605103 886.812012 -1092.505615
1428.051147 828.655090 -1297.046875
1345.448486 1002.721680 -1305.025635
1573.286011 1126.914551 -1110.014038
1764.461304 1071.233765 -1112.931396
1636.415527 1146.149902 -1104.062012
1441.864868 1112.945801 -1160.626465
1552.978271 1119.776245 -1093.351563
1540.495605 843.162170 -1186.788818
1417.991211 1001.888062 -1255.297241
1733.384033 1029.771973 -1093.163574
1427.457397 924.535828 -1276.291138
1483.514893 881.777832 -1228.702393
1662.702393 1004.690918 -1033.387329
1535.557861 1020.039917 -1104.682617
1468.567871 1133.297363 -1200.181030
1640.340454 1242.100586 -1095.026001
1672.497925 1049.748413 -1055.363159
1495.166504 1040.546021 -1131.125122
1414.494629 812.940308 -1320.092773
1546.660034 1187.619873 -1098.208252
1728.695313 1113.590454 -1102.850830
1755.347656 902.881958 -1100.199097
1510.415405 1065.646484 -1091.673340
1604.781616 940.367676 -1033.844360
1353.971191 1102.914673 -1281.239868
1401.267090 861.187378 -1321.336304
1552.524170 1065.402222 -1026.685059
1609.911743 1236.176758 -1105.340332
1395.885864 903.338440 -1324.884521
1892.888672 943.256165 -1159.166016
1612.051636 967.828430 -999.106628
1407.696289 1057.569214 -1211.923950
1681.717041 995.244202 -1040.648682
1547.524170 1131.026733 -1087.606689
1520.708496 1167.185425 -1095.028931
1505.391235 1219.836792 -1095.722778
1632.668335 1122.763794 -1018.873657
1448.535889 1124.033203 -1143.221436
1380.369385 971.660583 -1296.100098
1395.377075 961.580994 -1278.799927
1545.198486 1114.376709 -1098.108398
1768.402344 1136.106689 -1146.659790
1651.323120 1066.087769 -1029.971191
1567.085083 1081.496826 -1010.287231
1519.595947 1038.628784 -1085.665039
1583.818481 1032.166382 -1006.685181
1488.164429 1073.725708 -1129.473999
1486.569336 1024.792480 -1154.953369
1741.485229 1058.653198 -1093.985718
1566.587646 980.288574 -1047.398560
1525.038818 1103.775757 -1102.555176
1553.047729 1066.281494 -1044.801392
1438.706055 963.657837 -1240.472900
1483.014526 1107.259399 -1122.378662
1540.664307 992.845093 -1081.673584
1649.876221 1148.050903 -1081.972900
1724.129639 972.400208 -1079.875244
1529.912598 1083.011841 -1048.222412
1357.331665 1035.390381 -1265.958496
1492.599121 1076.965088 -1102.159668
1605.615967 862.910889 -1098.113647
1346.697510 982.969727 -1311.765991
1426.984863 1004.970215 -1229.852051
1513.043213 1091.157227 -1091.513794
1527.060425 1242.812622 -1093.002808
1425.792236 1121.873779 -1257.336914
1519.839355 1094.287598 -1078.466431
1477.493164 1093.071167 -1117.215698
1391.329346 1078.037476 -1203.313721
1536.831665 1153.964966 -1086.051514
1556.478760 899.304443 -1133.610352
1616.789063 1085.952271 -1012.076599
1379.225220 1119.329224 -1294.450684
1523.427002 1171.230103 -1107.671021
1601.873413 972.648071 -1014.823730
1623.754883 888.607056 -1043.337036
1506.526367 1221.918945 -1086.815674
1524.634277 1189.132690 -1094.182373
1756.452148 909.472473 -1082.254028
1729.484375 954.736633 -1070.330688
1429.304932 1103.887085 -1175.633911
1381.992188 1072.299805 -1250.323608
1568.650513 1072.557983 -1003.859863
1806.000000 1079.070313 -1159.602051
1534.283936 1022.171570 -1162.383667
1585.643799 1105.599487 -1011.972168
1478.309570 879.515747 -1230.677490
1547.828003 1150.061646 -1088.502197
1544.826904 1032.154297 -1050.748291
1587.011230 939.864319 -1050.820923
1353.479614 1124.083252 -1303.135864
1759.578613 1023.270569 -1114.384155
1704.936401 937.669128 -1053.346802
1465.991943 1050.292969 -1163.601563
1565.201904 887.888733 -1131.018433
1565.587769 948.173523 -1088.068848
1713.292603 1163.703857 -1102.771118
1564.729614 1107.308472 -1028.435791
1812.050659 1089.878052 -1165.554077
1646.197144 1119.560303 -1022.048035
1532.750488 1214.756470 -1075.138062
1606.981201 995.554932 -999.327942
1554.056274 1076.642090 -1022.832947
1668.582275 964.755005 -1040.306885
1736.762329 1061.102905 -1115.300293
1694.393433 1174.267700 -1046.089233
1711.111328 871.352539 -1033.950928
1575.407471 849.601624 -1115.912109
1580.497925 1127.845581 -1021.166809
1346.270142 964.278870 -1332.718994
1650.808960 1220.609741 -1098.885498
1569.677979 1126.015991 -1097.256592
1404.401367 849.654785 -1333.834595
1504.589966 1014.096497 -1130.185181
1652.197021 1000.019470 -1023.214172
1378.718506 974.648132 -1306.135986
1793.525269 1040.608643 -1159.227661
1538.546875 1074.445190 -1043.114136
1575.713257 1076.290039 -1005.614685
1746.085693 1167.451294 -1078.077637
1586.978638 879.727417 -1098.119141
1372.220337 943.067993 -1318.647339
1404.059326 826.692566 -1340.260010
1502.590576 1170.402588 -1098.201050
1412.141479 824.966064 -1308.765625
1401.585083 1124.683350 -1210.823975
1316.116455 1091.200195 -1313.858276
1561.445801 1094.328613 -1003.282166
1691.654297 891.894165 -1043.189453
1339.412354 1050.046753 -1288.397583
1552.811401 907.992920 -1130.806763
1577.602051 879.760315 -1099.437744
1661.012817 1188.340698 -1105.582520
1416.951416 1134.528198 -1274.923096
1538.753662 1076.914185 -1039.155029
1504.369263 1175.758301 -1093.760986
1567.141602 1095.214844 -998.303955
1667.038330 855.984314 -1024.156982
1823.550903 960.964844 -1167.006348
1389.602051 976.811157 -1277.448853
1762.858398 912.904419 -1103.928833
1393.474243 965.639038 -1304.804443
1396.889526 1094.979248 -1215.854004
1422.811401 1046.961670 -1210.063599
1562.684814 931.877319 -1144.636475
1401.611572 989.634094 -1270.360352
1408.794922 824.304382 -1310.917236
1815.403931 913.570862 -1105.314575
1532.599365 1038.358521 -1059.210571
1563.480469 978.270874 -1051.771484
1536.997559 1098.341919 -1051.820923
1579.202637 1052.644165 -999.655212
1583.740112 945.917908 -1136.493286
1751.156616 1107.992432 -1120.432495
1496.569946 825.076172 -1193.331299
1641.804443 1019.430786 -1006.226929
1515.119263 1035.591431 -1077.340454
1644.399048 964.623230 -1019.660217
1650.306274 1138.582886 -1040.347534
1364.461914 1078.908691 -1257.879395
1677.724121 966.616577 -1038.818359
1347.031372 967.366882 -1328.842163
1360.620117 930.057861 -1333.064209
1521.022583 945.183472 -1175.044556
1344.880493 1063.700073 -1303.118286
1710.272705 912.832275 -1055.688721
1741.438721 1127.521729 -1113.105591
1662.668335 1196.488647 -1096.343628
1671.153931 1058.074707 -1047.708862
1438.161133 1068.860596 -1174.167603
1400.964722 1068.193970 -1214.430786
1551.831299 1068.706543 -1027.453003
1455.581177 882.483643 -1259.023926
1433.800171 976.407166 -1242.079712
1606.672241 1041.662109 -990.908325
1602.243286 888.007507 -1070.720581
1571.448853 938.300781 -1078.122192
1483.569824 1132.587158 -1211.064087
1398.199463 1111.833862 -1425.709961
1526.523804 1097.001831 -1089.263794
1442.660034 1125.820923 -1234.221924
1674.661255 1017.182312 -1051.533569
1747.513428 1034.189209 -1107.518677
1672.559448 1144.433594 -1049.133911
1794.526978 1007.958923 -1136.899414
1714.009277 982.364502 -1069.031372
1530.364136 1124.953369 -1104.193115
1536.472778 1112.236572 -1100.186768
1816.860840 1078.607422 -1167.165039
1368.895508 1066.317749 -1257.210571
1623.594604 1124.612915 -1013.254578
1455.451782 934.429688 -1238.820313
1741.433350 912.157837 -1076.510864
1526.539429 1126.182007 -1136.439453
1715.348633 1071.206909 -1085.336182
1382.492676 856.897034 -1339.917236
1468.955933 1105.426514 -1132.285400
1388.613037 887.235596 -1327.052002
1450.031738 1015.728577 -1193.884888
1648.345825 872.068665 -1046.350708
1555.735474 967.860046 -1105.668579
1495.118896 905.536560 -1212.106934
1660.323364 1075.510498 -1047.062866
1572.608276 895.599548 -1132.100220
1773.608032 1053.716553 -1128.095093
1747.905640 946.590210 -1096.973999
1541.559082 1037.885254 -1046.220215
1332.280640 1092.890137 -1309.986572
1447.379150 952.380188 -1240.731445
1660.410522 867.035095 -1046.282471
1397.697021 831.525635 -1374.093628
1554.901123 1220.135376 -1112.655273
1605.450928 1128.423706 -1045.563232
1720.810547 1028.230957 -1082.257690
1393.519165 880.717102 -1334.852051
1531.821289 1133.452759 -1106.830444
1650.070801 1071.397827 -1033.831299
1515.814087 911.608643 -1184.317139
1490.156860 917.790649 -1211.360718
1584.874390 966.664490 -1028.148438
1568.400269 1049.337036 -1010.774780
1663.653320 1113.951782 -1029.897705
1793.042480 954.294128 -1133.892944
1451.657227 945.586670 -1238.128906
1778.111572 1006.497559 -1133.110962
1483.619629 899.549744 -1238.743408
1779.043823 1156.448853 -1121.947998
1695.312134 1188.004150 -1120.081421
1501.844360 1054.583008 -1113.608276
1508.647583 1246.467651 -1082.523315
1636.716431 907.858582 -1037.253174
1551.536743 926.464294 -1146.546997
1330.454468 1050.684204 -1292.456787
1333.819458 1071.023804 -1300.418335
1518.663818 1030.368530 -1120.205811
1447.419189 1111.238037 -1181.396851
1805.621338 1009.933350 -1144.880493
1471.666016 871.775696 -1236.651001
1525.327515 1227.474609 -1081.900513
1750.632080 967.526428 -1098.684326
1439.310669 812.368591 -1274.107788
1828.615234 994.436646 -1166.364624
1415.717896 1105.140137 -1179.285889
1403.846802 933.677307 -1346.160034
1362.458618 1158.565186 -1316.434692
1764.116577 1062.778809 -1121.697021
1708.219116 890.498962 -1052.018921
1751.557373 1081.186157 -1114.695435
1414.443604 819.881958 -1325.189331
1492.648315 934.021667 -1200.637329
1457.562378 815.798584 -1245.081177
1571.720337 930.745422 -1087.570313
1648.768188 967.184753 -1002.013062
1769.609741 972.004028 -1110.741089
1573.189087 1055.578491 -1001.268250
1588.348022 989.907471 -1152.708984
1530.490601 840.565552 -1186.252075
1502.032837 1212.242432 -1086.042847
1539.994995 1176.233521 -1138.161377
1481.296021 868.594482 -1223.587280
1429.152466 1014.455811 -1226.788940
1328.045532 1074.717773 -1303.115234
1694.723267 1122.341309 -1076.511230
1552.673462 1009.045959 -1048.764038
1734.929077 953.592041 -1085.181641
1386.798462 1100.257690 -1254.942871
1565.386963 1114.526855 -1087.534302
1635.932129 1196.052368 -1115.016968
1490.966187 871.461548 -1199.502319
1351.142334 1005.691895 -1367.422852
1525.015869 921.422180 -1179.011353
1809.556763 1001.588257 -1146.679443
1576.360596 985.943420 -1029.469482
1570.532471 836.729736 -1123.110596
1662.619873 1175.604492 -1082.296143
1476.539917 1147.155273 -1245.506592
1585.597046 905.207214 -1074.950684
1330.806885 1086.118408 -1303.793335
1556.612183 1113.067261 -1023.845886
1422.720215 974.396729 -1251.212158
1704.849487 1050.985474 -1064.470093
1703.198730 962.364502 -1062.021240
1583.692993 982.242981 -1038.581299
1562.197021 1084.150391 -1009.641663
1483.008789 991.502441 -1184.669434
1535.895996 1171.484741 -1227.136108
1760.981812 1161.946899 -1085.054443
1397.009399 1043.406128 -1246.695801
1852.726685 979.078430 -1181.905273
1533.640137 870.576721 -1157.187012
1804.412476 962.044312 -1139.735229
1521.310913 870.357910 -1195.730469
1703.301025 1000.940613 -1063.731445
1559.593140 1017.947632 -1042.984863
1530.440430 1213.253052 -1119.244385
1586.586914 987.615479 -1010.522461
1716.786011 982.826111 -1076.005371
1542.178467 875.273621 -1148.280762
1394.902954 1109.058960 -1256.983643
1662.370117 886.551025 -1029.878662
1742.372070 1087.598633 -1098.766479
1380.420288 879.482178 -1339.454590
1501.057007 893.193176 -1201.414673
1836.976074 1001.308533 -1172.897949
1382.295898 1059.701294 -1238.482788
1559.506714 879.977417 -1105.520386
1538.857422 1244.985596 -1099.916138
1425.400513 1130.784180 -1193.412720
1799.832275 921.590698 -1136.367554
1607.130371 1022.570679 -993.701660
1519.868286 1110.730835 -1122.951660
1514.518433 1090.026001 -1067.196899
1580.844116 869.342102 -1112.703125
1674.093628 1157.600342 -1070.893555
1431.822144 1045.979736 -1217.586792
1529.109131 981.214722 -1151.381226
1646.360229 1161.303711 -1080.426025
1510.957031 1175.297485 -1094.863770
1717.820557 924.366516 -1058.107544
1707.442017 1157.850220 -1062.438232
1493.760132 1064.265869 -1114.923340
1583.415894 911.595520 -1073.653931
1635.887329 1153.764771 -1108.039185
1715.429077 1114.790161 -1094.859741
1478.964722 886.425903 -1253.276733
1691.684692 1065.258179 -1069.146973
1654.241089 1053.133057 -1033.027466
1782.464233 1010.917725 -1130.961548
1509.086182 1236.332764 -1079.596802
1514.171997 991.142883 -1135.489868
1469.279419 951.637024 -1212.716309
1461.890869 871.150391 -1249.411499
1468.061279 1103.062500 -1145.110718
1478.317749 871.822388 -1214.623535
1411.215942 1087.728027 -1229.300537
1546.015015 1001.592163 -1059.138306
1678.321167 1119.687500 -1046.000610
1639.900024 1139.910889 -1036.328735
1448.593506 1102.602783 -1148.180664
1542.240601 897.765991 -1154.048828
1820.065186 1064.408569 -1154.149536
1796.176880 1096.330933 -1153.283691
1324.071411 1098.078125 -1316.160156
1526.213989 1115.525391 -1123.131104
1531.074951 1242.192627 -1081.668335
1791.480713 1036.501343 -1137.974365
1639.661011 1123.366577 -1023.492432
1381.982910 1122.464111 -1272.643188
1538.398071 1116.336060 -1113.186768
1583.374023 983.475891 -1017.394287
1830.857056 924.944275 -1122.614502
1529.084839 846.454956 -1184.169556
1577.994507 1110.906738 -1003.384338
1603.200684 922.675537 -1035.065430
1417.295044 949.845276 -1289.031128
1532.326416 1017.884949 -1085.074219
1500.330811 1082.845947 -1090.432007
1522.379150 1249.455566 -1082.086914
1373.676880 1098.662842 -1236.024658
1796.510620 1065.326904 -1149.185303
1636.786499 977.669739 -1017.203857
1412.136963 944.989380 -1268.834229
1489.744629 1100.578735 -1125.666382
1555.348877 1170.789063 -1116.404785
1544.470703 1106.565552 -1090.594727
1654.305176 874.828796 -1017.671204
1399.622803 1083.230469 -1216.354126
1511.689087 942.550659 -1183.116699
1499.263062 1008.539856 -1153.456909
1510.587646 1257.444092 -1080.740845
1454.912109 1107.939087 -1136.960815
1501.304321 1223.344727 -1089.950073
1506.268555 901.338318 -1202.542358
1531.080322 1107.024780 -1058.108032
1789.059204 958.383850 -1124.789429
1561.402344 1147.824097 -1105.759521
1663.106201 876.778442 -1014.333313
1577.514648 903.492920 -1094.936890
1528.792358 1030.166504 -1107.261108
1524.075195 1257.089600 -1090.975952
1838.218628 989.855835 -1194.243042
1546.099365 841.102905 -1188.923462
1524.117676 1235.603271 -1096.518433
1805.061157 1098.023804 -1160.031372
1559.702271 951.119629 -1096.122681
1336.869751 1064.145020 -1292.346558
1601.352539 1112.593018 -1002.971008
1508.295166 1102.250854 -1103.907104
1410.297974 830.093506 -1321.875977
1448.659424 938.280762 -1231.866455
1528.765015 1181.454224 -1076.968140
1452.759521 1127.129761 -1231.263550
1430.868408 1018.903442 -1224.200073
1572.038574 872.739319 -1120.323486
1795.328491 985.655884 -1134.073975
1613.331421 855.427429 -1087.300171
