ply
format ascii 1.0
element vertex 1332
property float x
property float y
property float z
end_header
1702.048218 -1277.206909 172.943146
1720.097656 -1234.682495 -213.306030
1715.024536 -1251.702026 -206.675644
1739.001953 -1388.294434 -260.130127
1687.064575 -1275.053345 -235.977295
1696.073608 -1420.138306 201.094528
1650.368286 -1350.332397 168.389160
1655.571655 -1476.624023 191.844543
1872.414551 -1465.179932 179.655869
1673.630737 -1321.155762 7.615961
1853.488770 -1309.424438 66.934990
1786.068604 -1460.608521 188.373795
1893.733276 -1476.828247 189.142868
1816.990723 -1338.612793 186.793182
1863.568481 -1289.446777 110.806641
1722.592163 -1266.951660 178.940720
1773.698975 -1236.212524 -107.853897
1826.815674 -1292.215698 207.054855
1681.514893 -1304.151611 126.723671
1678.791382 -1297.134766 -218.568756
1909.718384 -1361.693237 173.421539
1663.535400 -1324.411011 100.800415
1795.261963 -1240.539917 -7.932492
1827.630127 -1242.037109 64.104988
1672.642334 -1323.654175 -27.771540
1598.460083 -1359.956665 -162.060349
1717.570435 -1267.295532 100.473175
1750.754517 -1225.675537 -195.726135
1781.279175 -1228.656494 -137.374878
1812.772949 -1585.788208 184.894562
1575.202393 -1420.229126 7.189421
1916.957275 -1286.780640 114.861893
1591.081543 -1381.758301 -81.112854
1706.638062 -1286.918213 2.682305
1712.859253 -1271.406006 -147.009247
1622.838013 -1354.724976 -9.709271
1681.028442 -1286.015747 160.812744
1804.366333 -1213.494263 -21.856510
1822.831665 -1248.385620 -35.645885
1847.460571 -1499.548462 178.510040
1780.935059 -1237.012451 177.785614
1627.188965 -1356.122559 137.613647
1672.242554 -1300.708130 175.452316
1656.843018 -1336.277344 -34.630703
1728.296753 -1296.179565 179.316299
1741.173096 -1259.506348 -112.264755
1637.739502 -1348.357178 174.809601
1754.744019 -1255.752686 180.315811
1720.951660 -1265.176147 -209.157059
1732.335693 -1577.694092 201.714996
1819.425171 -1225.544678 -4.455273
1740.138550 -1291.534302 188.384460
1735.249146 -1258.023193 180.270782
1847.836548 -1303.979858 187.847198
1907.798950 -1221.623047 82.209702
1556.300049 -1397.079346 -20.000368
1717.120728 -1549.121948 179.267441
1646.573730 -1342.634277 13.721015
1791.102783 -1553.960449 177.500427
1802.012695 -1253.052856 45.695084
1566.229126 -1407.397461 -22.390303
1608.504639 -1371.306152 -84.562424
1653.853394 -1434.625488 207.759262
1761.918335 -1228.547485 132.115524
1707.310669 -1251.136108 -222.920700
1688.782715 -1341.532104 199.169174
1753.749634 -1218.040771 -226.092636
1661.175049 -1341.478882 14.552014
1595.278076 -1380.002808 -11.409339
1689.479980 -1307.431030 -41.826984
1671.631592 -1408.847046 196.223862
1889.890381 -1167.152344 72.478928
1763.529419 -1583.191040 187.246277
1676.471680 -1380.294556 199.198166
1876.791748 -1332.472656 181.912537
1706.059570 -1253.045898 -229.871796
1666.980957 -1360.517212 16.773256
1759.367310 -1239.092529 52.497074
1752.346802 -1252.996948 136.579010
1874.959961 -1373.312134 -270.787659
1698.898071 -1282.640381 -92.200523
1806.354492 -1266.398315 147.775192
1650.984619 -1304.513916 87.664673
1811.004272 -1249.064209 140.633926
1731.739990 -1236.492432 -175.842850
1600.746704 -1390.414063 171.956848
1720.018311 -1259.173828 -134.632614
1727.102783 -1305.386108 193.540100
1534.654663 -1360.380127 -178.684219
1768.966187 -1562.460815 189.162155
1687.340332 -1294.285278 185.668945
1565.424194 -1380.460571 -1.945910
1794.408447 -1224.261963 -147.114120
1685.633667 -1293.073608 134.101578
1821.915771 -1291.606079 207.186630
1659.644653 -1481.013916 194.278320
1743.750366 -1248.679443 12.232291
1728.549683 -1553.953247 200.435562
1610.891602 -1367.555054 91.799103
1715.543701 -1284.746338 46.871883
1638.196899 -1347.584106 -119.911613
1621.395752 -1370.633179 -61.913078
1771.032227 -1225.128052 64.822563
1862.103638 -1312.124878 110.640030
1597.489136 -1386.821045 172.868546
1877.375122 -1310.916260 181.193466
1870.799561 -1205.168823 69.916115
1764.547852 -1234.004028 136.654663
1865.047729 -1243.840576 46.999096
1930.692627 -1403.395508 197.563553
1845.739136 -1265.811768 -68.659882
1659.490356 -1338.368896 -17.162144
1687.141846 -1297.027710 174.524597
1710.186401 -1274.385742 -146.533997
1740.172485 -1248.440186 -43.510628
1652.803833 -1368.226929 12.416640
1636.557373 -1376.932983 205.412918
1759.025024 -1320.266235 190.461868
1863.963745 -1448.092285 182.086288
1786.578979 -1217.431274 -71.807724
1627.423584 -1375.610229 189.278030
1915.243164 -1292.857910 157.587967
1689.114990 -1265.828369 -246.717102
1803.832153 -1256.543823 96.411346
1857.520508 -1308.254639 109.184372
1905.001953 -1154.180908 46.498802
1754.014160 -1230.349609 -238.080521
1612.598511 -1355.004761 -224.837753
1660.875244 -1315.601318 147.689285
1570.909912 -1378.794312 -228.241699
1903.106812 -1381.281738 205.371155
1830.259399 -1245.658447 -139.261780
1645.245605 -1328.352661 130.433411
1684.385986 -1356.469604 198.742401
1805.589233 -1225.320190 -0.013753
1718.530029 -1269.725342 77.028229
1734.222534 -1253.650757 162.279327
1707.074951 -1294.161743 -106.366364
1804.716187 -1323.608765 191.797684
1601.612183 -1389.154541 200.154037
1797.806885 -1440.348145 194.923111
1672.166016 -1318.364258 -96.591797
1590.849854 -1402.369751 46.759159
1856.564941 -1526.748657 179.409805
1901.351196 -1216.579834 99.881462
1853.868774 -1412.825317 191.131058
1618.667847 -1355.247070 -161.788742
1943.504639 -1330.050537 154.821457
1854.045410 -1262.336670 -4.097486
1685.631470 -1433.108032 196.644073
1855.270020 -1407.864990 169.634827
1813.585571 -1213.733276 -35.639870
1678.132446 -1313.681641 -8.037750
1714.611694 -1278.731567 -38.485004
1671.415649 -1281.221680 -209.528809
1772.388062 -1227.033813 103.309204
1616.121948 -1373.633789 178.222778
1741.006104 -1226.482300 -134.774933
1676.404663 -1322.896606 201.959717
1730.159912 -1358.253296 188.504288
1790.199829 -1218.127319 -37.110657
1647.801880 -1336.933350 -21.591354
1759.087646 -1285.365112 181.521774
1865.718506 -1206.411011 84.746109
1722.088867 -1277.310547 36.934109
1789.448730 -1246.781738 72.252663
1765.936523 -1208.851807 -70.211670
1713.633423 -1286.659790 72.683624
1615.853882 -1362.657104 -105.643692
1769.636597 -1213.913818 -89.771576
1762.538818 -1214.173950 -57.457314
1635.874146 -1367.676147 19.817341
1710.715698 -1548.817383 217.778305
1787.137451 -1536.284180 189.526947
1910.254517 -1306.323486 162.691177
1748.095825 -1276.716187 198.360855
1658.341064 -1324.066162 178.628510
1852.378174 -1488.137695 184.279007
1681.981689 -1295.911011 -224.438644
1627.097778 -1356.383057 142.162674
1636.106445 -1363.063965 -28.920246
1827.988892 -1415.908691 185.140762
1869.778687 -1451.657471 178.125412
1726.578369 -1244.725586 -139.643265
1785.622070 -1216.918457 -108.780769
1765.318359 -1220.914429 -17.029779
1790.936646 -1220.150391 -121.091316
1908.025146 -1298.175293 155.533112
1897.437622 -1224.436768 56.674362
1754.396729 -1262.118530 181.155472
1685.546021 -1309.111328 -16.791437
1851.695068 -1420.524658 183.818970
1690.497070 -1286.767944 115.054497
1600.952271 -1375.538818 -73.149261
1769.410156 -1223.959473 -135.576691
1874.824707 -1467.347534 190.566116
1686.158813 -1280.845825 -216.641281
1609.190308 -1367.802979 -124.996300
1689.769287 -1274.420288 -251.990921
1651.993774 -1342.119873 24.803995
1780.268433 -1214.528320 -49.806091
1719.556030 -1254.620483 -147.980026
1887.734131 -1489.557373 178.614822
1799.973022 -1222.822266 -191.431229
1803.213013 -1365.226685 186.726913
1618.679199 -1356.788574 116.419373
1672.805176 -1314.719727 -60.048744
1705.437256 -1290.165894 -148.868179
1666.247314 -1447.002563 198.834808
1673.218384 -1311.037231 -64.726250
1838.521240 -1229.029541 -195.057343
1615.991089 -1353.276489 -82.509766
1727.665649 -1244.648438 115.961510
1793.718628 -1234.736450 42.177761
1770.369385 -1359.220581 195.081970
1755.544556 -1239.670166 181.566727
1778.728027 -1439.485596 188.390991
1743.789795 -1244.387817 140.119247
1676.562012 -1292.916016 -233.014999
1949.607300 -1284.539429 152.867188
1740.389282 -1225.994385 -230.874191
1754.784302 -1215.007690 -65.411903
1719.968506 -1261.282593 184.358902
1622.968994 -1384.514648 46.181286
1589.362061 -1410.190918 127.440964
1719.340576 -1346.348389 184.024155
1597.528442 -1398.349854 96.281326
1953.037842 -1402.233521 165.321945
1637.802246 -1339.101563 -179.094589
1728.981812 -1274.879150 -3.539325
1557.629150 -1408.563354 -136.846039
1669.124512 -1294.864136 87.589752
1822.077271 -1276.567261 152.746704
1732.122681 -1256.344360 183.039398
1858.581665 -1209.970093 56.530373
1799.817993 -1445.208862 196.007614
1682.132568 -1520.323486 197.351425
1752.391968 -1289.713379 189.961136
1855.339966 -1211.580322 79.804893
1718.644531 -1502.895874 -256.642212
1760.671387 -1540.777588 190.339981
1715.137451 -1288.942627 45.902260
1771.587158 -1241.223755 180.276398
1825.057617 -1251.852051 -87.080444
1863.427246 -1322.353516 96.316002
1875.140381 -1216.480957 78.373505
1696.901733 -1290.992310 143.343140
1875.055176 -1299.887817 200.401550
1828.993164 -1396.308228 182.296600
1738.631226 -1259.336182 33.844345
1835.649902 -1430.360107 179.879318
1657.976318 -1329.416504 177.422165
1759.468506 -1359.805054 189.844604
1857.085449 -1219.055542 60.967495
1748.696899 -1240.455444 69.187416
1810.891235 -1431.017822 -263.576294
1587.110718 -1403.378174 126.943382
1780.533569 -1221.216309 -17.547003
1681.245972 -1315.944946 -47.308456
1788.177246 -1635.906128 194.573380
1651.746338 -1328.155762 192.921265
1867.273682 -1461.492065 181.320419
1779.117188 -1617.899902 185.852234
1639.816895 -1344.029785 -100.775108
1665.011963 -1410.260132 198.465225
1763.827759 -1313.884644 177.192886
1718.797119 -1239.948853 -201.736618
1691.250366 -1298.458008 -72.467072
1774.265259 -1222.293945 -16.300270
1778.992188 -1244.403320 154.036728
1796.338013 -1231.181885 -14.373419
1652.321777 -1353.789185 66.524750
1611.135864 -1389.764282 -83.972740
1881.286621 -1413.787964 180.570816
1768.355713 -1227.808228 44.026779
1711.316650 -1476.144897 194.859390
1570.451416 -1385.598389 -192.796143
1697.555420 -1290.488281 -129.082397
1645.891113 -1334.092529 165.389313
1736.634888 -1246.604736 95.806061
1732.515503 -1294.787598 187.836868
1887.413452 -1183.779663 82.296486
1720.313477 -1265.913452 129.967194
1763.495728 -1230.121582 95.048523
1837.862549 -1241.428833 -162.121277
1724.584473 -1471.375488 189.125427
1847.842041 -1212.455322 54.169296
1799.801636 -1257.806885 100.565453
1753.450439 -1229.039307 -90.831390
1604.691895 -1378.210815 -50.405273
1716.578857 -1379.596802 194.675903
1672.147705 -1298.125244 99.354889
1728.074097 -1365.423462 192.140305
1634.467773 -1341.931396 -69.781990
1761.157471 -1235.068970 -233.511108
1832.505127 -1392.423828 183.775162
1736.222046 -1254.356934 153.243011
1791.158203 -1348.145142 193.187744
1669.415405 -1326.797485 188.068802
1792.455078 -1215.575317 -8.968901
1740.364136 -1242.572754 157.072632
1581.783081 -1416.430664 151.560120
1755.103882 -1547.742554 190.651337
1716.276245 -1374.343384 189.728317
1909.999756 -1153.974976 51.770206
1792.759888 -1253.284424 28.349730
1784.404175 -1213.988892 -182.665619
1610.988647 -1371.413696 140.861526
1641.755493 -1411.910645 201.437103
1741.760010 -1245.408447 38.660618
1793.995239 -1208.263672 0.317908
1902.163452 -1179.428833 71.455116
1602.116699 -1381.828369 31.294407
1627.196045 -1354.082520 182.257828
1770.512817 -1213.975098 -175.527298
1717.377441 -1481.909668 193.982880
1855.099731 -1326.923218 204.071274
1574.215210 -1406.424072 -50.194366
1717.866211 -1268.732544 -99.783081
1794.435303 -1218.454224 -20.147388
1573.357544 -1413.827271 -105.028938
1732.131836 -1285.476074 -37.695812
1606.695435 -1348.693970 -194.325546
1712.014648 -1296.103882 -95.652954
1933.472778 -1418.639282 193.992264
1754.386475 -1262.588623 173.104309
1901.715088 -1340.007446 151.319763
1819.937622 -1410.119751 193.310638
1732.921143 -1243.931274 -127.643143
1916.398193 -1163.097534 85.300087
1772.948120 -1234.876831 -112.357628
1554.140381 -1393.879395 -56.973534
1793.327759 -1244.360840 129.471771
1781.736206 -1404.491333 188.324402
1740.833862 -1227.332397 -170.592651
1872.213989 -1516.869385 169.092361
1608.074829 -1388.506348 36.005856
1747.043335 -1241.845703 128.494644
1688.471802 -1295.828857 -117.003998
1839.354492 -1349.688110 179.993942
1632.219727 -1347.639648 137.859940
1769.539917 -1333.247192 185.178375
1891.099243 -1425.275146 178.001007
1777.961426 -1226.752075 -132.113678
1621.238159 -1397.887573 198.908096
1902.549683 -1175.432983 62.625927
1708.442383 -1274.382813 -86.316696
1642.187012 -1338.239746 162.746735
1939.135498 -1286.302856 140.552979
1799.986084 -1226.634766 5.155188
1794.405151 -1216.325806 9.911465
1904.605103 -1222.659424 83.837517
1698.341797 -1318.622070 186.465698
1603.276123 -1376.082886 -86.005066
1605.151245 -1368.797363 -145.731461
1675.838501 -1323.320313 -128.710861
1801.631836 -1248.116089 204.734283
1808.653198 -1253.555176 107.347626
1766.689941 -1231.192017 158.108170
1738.447632 -1246.800781 133.505997
1647.878174 -1364.968506 0.930261
1707.376587 -1295.804321 -157.982224
1625.324219 -1346.717773 -87.796501
1716.145020 -1266.765381 -118.752998
1809.619751 -1248.394531 80.817818
1879.374268 -1333.276855 174.615631
1858.325806 -1272.932373 -73.845261
1710.098267 -1288.067139 -5.287663
1739.039063 -1255.155396 -42.189198
1590.916870 -1389.766968 71.198723
1685.480469 -1290.200928 175.284317
1566.609497 -1405.728149 -38.283394
1588.717407 -1392.357544 94.932625
1799.312866 -1257.840698 69.677040
1648.386841 -1329.987305 93.988426
1741.536133 -1238.445679 119.839897
1919.668457 -1286.817261 126.248573
1732.863159 -1237.601074 -89.262802
1779.758179 -1241.561890 74.631165
1735.307617 -1272.677612 -2.441874
1663.581421 -1336.052246 -59.809917
1684.120728 -1520.293213 220.198807
1855.544312 -1309.384033 181.903763
1748.496338 -1232.866455 92.279221
1723.260986 -1256.964355 130.127625
1814.481445 -1270.001221 200.691788
1942.225708 -1341.895142 152.816086
1590.836426 -1379.612305 -48.849464
1733.046387 -1270.998901 -138.023224
1587.427734 -1395.069580 34.315929
1749.609253 -1224.500488 -81.949524
1689.078613 -1311.180054 19.941946
1680.087402 -1386.692993 183.696701
1746.860962 -1245.826294 98.870705
1632.303223 -1463.083984 205.398804
1734.172607 -1258.838379 75.211578
1680.368164 -1310.607300 -58.954620
1785.517334 -1219.496460 -4.962903
1682.682861 -1298.944824 -190.923080
1737.336426 -1431.746582 198.693634
1802.419922 -1589.766479 182.139343
1804.960449 -1269.302856 193.103882
1733.667847 -1246.600220 -117.803459
1771.015747 -1295.528198 184.692963
1564.297974 -1391.850220 64.936768
1829.135010 -1281.798950 195.909851
1596.336304 -1386.967041 74.617516
1727.828613 -1262.977173 75.801781
1852.661255 -1310.674805 210.948883
1776.867920 -1217.934937 -161.619812
1781.323975 -1242.272095 156.877838
1714.492920 -1273.416870 -139.461777
1941.326172 -1242.599731 102.265617
1724.101440 -1414.780762 190.570343
1705.374268 -1256.838135 -231.744324
1600.450806 -1394.421509 197.805511
1846.900391 -1322.272949 201.893051
1780.213013 -1221.754028 5.316823
1705.573486 -1262.517822 -225.378876
1761.082275 -1232.760254 153.496384
1704.091187 -1291.859863 -58.960381
1649.798218 -1382.644409 194.852264
1737.765015 -1241.537354 102.134598
1804.054321 -1455.945068 186.703903
1812.194946 -1242.706909 103.060387
1590.786743 -1401.785767 155.046005
1892.068481 -1237.307983 87.576996
1570.372070 -1405.061890 -83.930901
1756.700928 -1229.898438 -232.003799
1755.060425 -1240.582886 48.130543
1673.789185 -1425.848022 198.795410
1851.588257 -1291.275879 206.249496
1779.318115 -1214.687866 -114.663132
1776.896851 -1217.932251 -117.764885
1638.190552 -1450.546265 192.824921
1630.067383 -1370.429565 -30.887533
1893.264404 -1400.877808 190.920380
1916.034424 -1380.574829 167.641632
1847.675049 -1323.335083 214.508331
1686.126953 -1520.781250 190.754791
1657.783691 -1347.511475 170.846436
1817.590576 -1246.721069 56.356411
1652.802979 -1359.938354 33.995995
1852.141479 -1369.782104 176.864365
1897.983887 -1387.096436 202.614777
1737.716675 -1228.453125 -250.729309
1741.197144 -1244.845459 -63.204033
1801.111450 -1254.278809 35.307411
1791.919556 -1251.363159 149.573883
1764.332764 -1506.726685 191.468384
1684.436035 -1524.222290 210.364990
1597.148560 -1388.836060 28.272556
1624.335083 -1355.259521 96.753235
1744.203125 -1319.377319 179.055374
1688.153809 -1283.095947 -190.797791
1578.126831 -1405.163696 90.734390
1856.988525 -1375.288818 183.914780
1700.026489 -1295.541626 -22.714104
1870.868408 -1240.141846 83.480064
1598.545166 -1385.944458 45.395046
1830.062256 -1282.170654 209.924774
1705.754395 -1274.074219 -177.018127
1769.813232 -1237.495361 56.492775
1748.543945 -1238.164673 90.449600
1755.831421 -1467.028442 200.304916
1556.958252 -1406.174194 -191.592728
1714.663208 -1272.822876 189.580368
1867.116089 -1325.176514 168.240707
1749.162109 -1237.344116 112.449417
1866.020142 -1276.512329 -126.316689
1941.416748 -1393.946411 182.282211
1626.122437 -1363.421875 62.425835
1615.606323 -1351.737427 -206.394379
1670.923706 -1304.778931 184.029053
1609.130493 -1371.447632 -44.700916
1595.173584 -1400.286987 209.937256
1780.715454 -1549.690308 189.901917
1876.634033 -1456.998047 188.857162
1672.760376 -1276.087524 -212.763733
1593.899414 -1370.676147 -132.243698
1729.445801 -1280.528564 187.727859
1802.832397 -1337.517090 195.900818
1585.319580 -1392.654541 -70.630409
1658.902222 -1315.316895 135.279709
1579.127075 -1384.404175 -162.570129
1802.234741 -1493.134888 196.228500
1738.061279 -1247.904541 141.344269
1771.251587 -1221.832397 -111.887962
1676.094604 -1295.886963 159.636353
1602.576050 -1426.985962 198.769608
1603.019653 -1427.596069 190.067215
1842.807983 -1294.741455 187.966339
1618.505493 -1358.402466 -218.138123
1737.747070 -1238.738525 -119.644257
1722.695068 -1234.034180 -228.193939
1863.364746 -1329.508667 207.398743
1683.798584 -1407.135620 192.793762
1588.123291 -1409.872803 99.514648
1738.353638 -1240.220947 -99.967522
1838.572510 -1234.111816 55.625462
1615.844604 -1357.172852 160.608154
1673.572388 -1383.180786 199.522247
1657.448486 -1322.153687 -182.263046
1608.312744 -1357.737671 -89.161552
1786.215576 -1457.063477 181.828125
1729.110107 -1262.417603 -125.111557
1891.070557 -1183.927979 79.121880
1763.136597 -1217.629395 -173.405045
1735.863281 -1268.541260 -32.314411
1623.545166 -1363.545654 -7.062193
1807.347412 -1249.798096 110.103737
1599.929199 -1418.292236 164.645996
1585.388672 -1410.689697 126.688087
1577.521851 -1410.500000 64.153465
1599.189575 -1364.250732 -189.981873
1689.904053 -1296.207153 138.241272
1619.895386 -1341.359619 105.664078
1741.832275 -1240.689697 -158.523956
1566.463135 -1391.854248 -168.729309
1844.926514 -1258.831421 103.071266
1793.744751 -1516.808228 188.720734
1735.647217 -1260.296143 84.589790
1765.642456 -1234.808228 -191.362656
1685.820435 -1328.555176 201.854660
1931.312012 -1329.525635 153.495972
1617.787842 -1364.619385 126.560493
1628.945313 -1359.968506 -85.527313
1699.921143 -1277.122681 129.108307
1628.143066 -1358.821533 74.811493
1848.249390 -1287.344971 168.161682
1706.093018 -1299.070068 199.159332
1659.207886 -1333.990723 -20.932035
1685.951660 -1287.075317 105.209160
1826.139038 -1233.600098 53.138634
1659.894897 -1320.386841 137.061218
1823.033447 -1250.325562 48.674248
1574.306519 -1383.324463 -172.930252
1717.643799 -1258.716919 158.737640
1560.282104 -1408.528687 -173.716400
1876.660156 -1504.090210 182.460129
1777.138916 -1226.630615 134.078888
1798.991821 -1254.050537 173.495377
1791.197632 -1199.704346 -191.675705
1701.313354 -1285.645630 -54.759338
1697.855835 -1278.605225 154.645096
1781.344727 -1342.633301 193.926468
1781.761353 -1253.885498 189.009689
1728.586060 -1255.022339 -69.759933
1773.199829 -1228.313354 8.994823
1679.088013 -1321.082886 -40.787701
1712.067749 -1254.573364 -150.634872
1746.002197 -1231.222534 -191.410126
1771.433838 -1225.338257 -128.589813
1745.474243 -1236.040527 137.148849
1813.480591 -1269.461548 129.478699
1706.052490 -1396.266357 191.321777
1556.220459 -1405.419800 -181.624985
1599.618530 -1360.405273 -221.595245
1887.265747 -1225.674683 88.369110
1729.633301 -1242.872437 -196.706955
1584.518066 -1402.201782 -101.120613
1770.209717 -1435.206909 186.748169
1829.807983 -1232.262939 -185.320084
1743.277832 -1233.684448 -239.983475
1894.010620 -1442.323120 176.713318
1785.883545 -1353.602417 193.863312
1692.159546 -1290.353027 129.122635
1701.794312 -1275.271851 151.351761
1708.236328 -1522.661011 193.370300
1848.885498 -1388.041260 182.576004
1711.169800 -1252.560303 -235.651596
1729.878296 -1297.572021 188.305283
1720.825195 -1292.667236 27.410599
1773.187744 -1525.268921 188.369034
1738.023315 -1235.831421 -254.119308
1811.833618 -1206.679932 -80.846344
1799.581665 -1216.938599 -140.023056
1939.091064 -1385.473877 162.607224
1701.615967 -1288.198730 58.212273
1772.961914 -1227.564941 -181.708282
1864.433350 -1326.562622 211.774200
1859.203369 -1293.422729 78.060226
1650.882202 -1346.303955 -113.761040
1694.125122 -1342.162476 33.488178
1765.622925 -1377.572388 187.446671
1762.929932 -1227.047607 -228.280716
1755.427124 -1429.319580 187.918793
1613.262329 -1374.211060 9.971586
1902.733276 -1353.024902 201.247314
1626.093750 -1368.366089 -28.046263
1762.437012 -1229.614380 -28.374023
1861.270264 -1483.197632 180.514603
1728.080811 -1280.834717 48.532776
1711.281860 -1286.486816 165.177185
1870.202881 -1352.580688 206.658875
1777.503784 -1214.744141 -57.594341
1597.279785 -1421.824951 204.445267
1704.057495 -1302.539551 -13.857119
1661.531128 -1333.398071 -37.725437
1825.964844 -1247.387695 79.788803
1866.948608 -1253.974976 84.549942
1583.895020 -1380.764893 -74.817596
1621.547607 -1373.813354 3.386101
1576.754883 -1417.800049 -98.702484
1766.616089 -1475.414185 -260.959747
1862.737183 -1255.583252 -88.192833
1590.217773 -1396.670654 51.530842
1791.645264 -1241.175537 187.277054
1779.887817 -1216.444214 -171.307068
1876.329346 -1200.642700 67.881012
1643.117920 -1350.296265 118.683945
1807.290649 -1247.969482 68.394447
1601.993164 -1382.073975 35.697720
1801.798828 -1368.198242 186.107132
1683.632324 -1317.080933 163.171097
1847.234253 -1243.936890 -163.609726
1662.332886 -1486.838989 183.401505
1609.254517 -1360.363525 -207.677734
1695.486816 -1289.954712 160.276688
1897.132935 -1164.993530 55.410976
1624.544922 -1387.024048 27.117975
1618.618896 -1343.462036 -184.245621
1920.079468 -1291.886108 149.058640
1744.200684 -1228.199585 -158.413177
1734.377808 -1321.138184 185.958984
1685.813110 -1295.154663 179.545822
1666.932129 -1314.127197 -127.408676
1820.625854 -1530.372314 186.066040
1580.155151 -1405.647461 -26.265553
1571.680664 -1418.376099 -25.286940
1726.297485 -1289.171143 60.472916
1740.135620 -1477.404907 181.062057
1625.000244 -1348.640015 -174.525574
1652.591309 -1322.243164 98.791122
1820.540405 -1249.466553 -10.358240
1875.151978 -1202.083862 92.369858
1652.650635 -1315.071167 117.937935
1616.959473 -1375.176392 96.282295
1907.544067 -1296.731567 140.415802
1669.742310 -1343.210815 -3.724626
1919.420288 -1383.936157 206.523712
1766.600342 -1228.967651 -126.912315
1646.148193 -1348.666260 122.284447
1697.326050 -1289.028809 -145.193985
1921.028931 -1196.437134 82.136772
1607.825195 -1393.358765 39.007500
1695.467163 -1281.915161 129.538300
1695.057373 -1316.251953 176.763794
1760.666138 -1236.962280 -159.230881
1748.946045 -1538.857300 190.553406
1627.892700 -1370.014404 -32.232468
1611.863892 -1370.648560 104.578629
1691.966187 -1316.646118 171.696136
1792.215942 -1224.034790 -175.547867
1635.568115 -1361.621460 9.400222
1619.794434 -1361.296387 100.197021
1728.164307 -1262.336426 167.032028
1708.074097 -1272.104736 145.359863
1806.584839 -1232.156006 -221.073380
1795.454102 -1240.918457 88.969070
1774.285645 -1361.491821 186.513611
1790.629639 -1227.973999 -177.689011
1721.889771 -1564.804688 222.741638
1608.057617 -1375.705078 -63.369209
1647.178589 -1358.961548 -79.995453
1777.172363 -1214.716553 -143.482300
1737.694946 -1245.847290 164.318390
1905.122314 -1165.759644 88.713341
1679.815552 -1301.981812 -186.700897
1858.384033 -1535.430542 177.984421
1757.375977 -1229.197021 -14.722211
1716.919922 -1269.754883 187.122925
1912.461060 -1375.417236 199.617203
1698.137695 -1273.332397 106.183517
1612.268188 -1360.718506 -247.318451
1708.519287 -1340.477783 190.072357
1707.712524 -1285.205566 -32.906590
1773.404663 -1203.881104 -187.825455
1703.683594 -1295.246582 62.931339
1624.790527 -1378.824219 62.324329
1893.968384 -1298.146118 154.470825
1819.375610 -1241.794800 -26.359037
1645.520752 -1400.987915 195.968765
1633.227539 -1457.890747 201.495239
1741.788818 -1251.775879 93.102493
1636.719360 -1461.399536 191.880890
1911.327881 -1352.962524 154.080353
1752.514771 -1358.687988 187.068741
1572.577759 -1396.771118 -108.501938
1603.112793 -1384.305298 159.562897
1759.286743 -1238.655029 129.917892
1682.130371 -1335.471680 195.491302
1800.785034 -1246.929688 17.461264
1676.948242 -1280.882080 -248.565521
1687.811401 -1282.444824 110.091377
1747.373413 -1245.382202 42.263344
1884.499023 -1411.468140 182.332977
1587.721802 -1397.501587 45.268486
1688.645996 -1290.549561 133.482513
1793.787964 -1396.162476 184.706726
1682.420166 -1293.589844 185.194870
1685.179077 -1283.928223 95.732445
1761.515381 -1232.225830 -24.239294
1767.638184 -1464.268555 187.342941
1716.744019 -1267.302002 74.249825
1645.620972 -1325.343140 131.016800
1618.835571 -1361.844604 113.491409
1876.895752 -1316.928833 100.737488
1609.567749 -1356.046143 -104.932831
1787.877930 -1214.753052 -110.583458
1811.662842 -1245.473511 94.321388
1869.788696 -1438.078857 178.732208
1848.777344 -1449.940430 171.244141
1837.532959 -1442.767334 182.206833
1668.969604 -1308.772339 -117.699448
1799.746582 -1209.100464 -226.642105
1780.974609 -1608.956177 183.290665
1648.032227 -1348.222534 -187.645752
1627.081421 -1457.466431 213.595505
1657.605957 -1331.451172 41.070183
1591.677124 -1361.602295 -184.674698
1799.384521 -1575.568115 185.604767
1711.557861 -1274.402466 97.002991
1749.491943 -1386.169556 192.038208
1575.117188 -1396.615845 135.378891
1835.249878 -1358.570068 184.715164
1860.714844 -1224.207275 90.077065
1779.099731 -1217.806396 12.455716
1791.870728 -1228.999390 -63.722557
1694.223389 -1411.351440 200.922241
1683.214722 -1318.833496 -114.676758
1750.567261 -1282.119629 186.814758
1784.095337 -1248.947632 176.666580
1704.253540 -1284.775757 181.855865
1827.332153 -1274.217041 175.325607
1659.495728 -1322.146118 145.218964
1653.357666 -1345.281128 79.824898
1625.743530 -1368.019653 -39.961952
1764.702637 -1232.009399 14.281071
1923.224365 -1225.081909 85.385788
1829.713013 -1340.317383 188.702576
1751.265747 -1231.139526 6.133694
1840.431030 -1259.849365 97.387848
1756.095825 -1228.402344 96.045280
1730.190552 -1256.624268 133.071426
1734.666016 -1404.787598 189.983047
1845.285400 -1211.946411 78.833374
1685.004883 -1499.795166 199.677200
1748.642578 -1427.886963 190.569397
1647.016724 -1330.390015 97.343216
1573.273804 -1388.008179 161.645935
1782.075806 -1616.274780 191.998199
1914.068359 -1356.560791 152.955719
1736.537109 -1323.577637 186.010101
1704.416016 -1313.185913 -8.972075
1840.499390 -1294.130005 103.079834
1838.934937 -1255.966919 81.895050
1749.280762 -1227.403931 -243.722580
1766.335693 -1297.821411 188.952347
1615.104736 -1367.114502 -74.591148
1721.316162 -1270.122803 -11.636513
1599.782837 -1383.654175 66.338783
1868.701660 -1327.158203 92.139168
1747.433105 -1361.918945 193.354034
1584.098633 -1374.651245 -138.831482
1914.745850 -1269.990723 125.154083
1847.850830 -1471.304321 179.365082
1721.417114 -1324.480713 195.181564
1741.960083 -1569.802002 201.400589
1897.982056 -1306.043945 110.045082
1763.347900 -1245.886108 129.937439
1855.494873 -1477.000122 182.131287
1587.566895 -1409.913452 95.615608
1692.093872 -1281.935669 -179.854080
1749.344971 -1244.866577 49.386234
1608.996216 -1371.709229 -96.096588
1913.582764 -1177.694458 77.937935
1822.761963 -1246.404297 55.046314
1667.838623 -1387.064087 194.312286
1765.617554 -1227.444458 65.304237
1646.479980 -1436.359375 200.229721
1873.008423 -1203.674194 73.017250
1781.822754 -1331.856323 193.419739
1754.247192 -1249.728271 129.240021
1768.208496 -1431.248779 178.286728
1868.979980 -1236.535889 105.817436
1819.390991 -1224.123657 -55.133976
1798.146851 -1223.519043 -52.681675
1540.651123 -1362.942505 -101.450081
1820.858643 -1492.479980 185.798538
1749.458374 -1536.409668 199.492523
1890.631348 -1182.982178 74.953613
1841.889404 -1350.687012 191.101547
1591.637085 -1423.548584 180.837448
1628.447876 -1354.690430 59.913799
1674.042236 -1309.042603 -166.294495
1843.441162 -1303.743530 199.131088
1805.724976 -1373.946533 184.602783
1933.411499 -1320.012207 155.136383
1824.033081 -1445.388428 183.496841
1913.159180 -1392.268799 204.691040
1734.757446 -1274.879150 -4.161991
1955.768799 -1324.893188 151.238037
1761.455200 -1228.384033 -168.608795
1593.853394 -1415.147583 179.279709
1642.263550 -1347.261597 -52.514652
1709.617310 -1280.210205 -192.430878
1852.573608 -1216.981079 98.940956
1884.814697 -1198.251343 74.514481
1599.592651 -1383.474243 68.102295
1678.941162 -1286.536377 89.325935
1756.851074 -1222.687866 -158.372086
1748.132690 -1225.153320 -73.060516
1858.503906 -1486.228760 180.724365
1645.872559 -1436.199097 199.342606
1712.348511 -1287.811768 -87.966919
1586.704712 -1398.259155 -1.177264
1905.456055 -1190.679077 79.879997
1865.964844 -1318.322876 202.091934
1757.455322 -1232.654175 78.470467
1723.161377 -1263.397827 129.230621
1619.165405 -1399.680298 192.173874
1671.450928 -1303.606689 151.814392
1741.285400 -1359.083252 178.780563
1837.936768 -1258.366577 -128.154861
1710.197998 -1324.572876 -169.317169
1750.568115 -1227.786743 -119.616539
1725.785156 -1232.506592 -220.384598
1919.692871 -1204.846924 67.797073
1750.188110 -1224.183228 -23.597589
1831.743286 -1254.388428 37.401722
1765.116577 -1219.585693 -165.534225
1742.087769 -1237.909180 -74.657394
1755.610229 -1229.398315 -153.961929
1605.775269 -1383.399902 63.446621
1712.201294 -1277.308350 185.382401
1749.857788 -1300.566650 -262.338379
1880.503052 -1292.071045 106.817795
1751.898193 -1385.817627 188.617325
1730.665771 -1250.833374 145.757767
1824.387939 -1250.287109 -103.911430
1611.623291 -1370.583984 -69.162598
1712.675659 -1280.499512 -77.868408
1633.935425 -1371.893066 -12.254553
1797.968994 -1393.020020 187.208344
1675.428833 -1434.772705 191.960083
1759.276123 -1214.200806 -183.262619
1711.518555 -1273.817993 167.903564
1627.764526 -1349.921875 164.568283
1858.552368 -1308.265015 149.555038
1774.035156 -1421.010986 186.375671
1696.272827 -1275.985718 87.683449
1593.662231 -1385.347046 -130.975677
1745.204956 -1318.731567 52.089417
1773.451172 -1221.617188 -41.798878
1764.896118 -1217.791260 -56.803596
1722.668579 -1258.952026 151.575272
1791.335815 -1292.113037 185.564987
1714.810059 -1278.743896 182.368835
1799.091675 -1213.105713 -10.161996
1767.270142 -1531.273438 191.152939
1859.654175 -1335.086792 201.373703
1776.076050 -1489.524414 185.459259
1845.171143 -1295.917236 226.849335
1886.227051 -1181.768311 87.632553
1737.957764 -1226.593628 -121.790993
1773.306030 -1609.198730 186.934174
1651.703491 -1317.740356 120.986374
1770.090698 -1310.558594 185.796112
1787.451904 -1209.917847 -98.085052
1713.181641 -1301.955688 198.812042
1801.471436 -1218.637085 -5.945876
1670.984741 -1304.442383 189.317154
1646.472046 -1471.083496 191.770340
1621.526855 -1362.577393 141.973160
1870.421509 -1319.607788 196.182938
1669.725342 -1454.259277 197.420135
1800.391113 -1279.870239 192.282578
1867.243896 -1338.536865 220.711380
1630.230103 -1435.025635 188.294983
1751.314941 -1234.819580 -25.437775
1689.041992 -1275.702393 -200.075912
1736.066284 -1291.874634 183.017258
1618.259888 -1405.053833 187.353271
1787.690063 -1210.345947 -214.875610
1790.504150 -1341.127197 183.215561
1765.296875 -1359.215454 195.498917
1634.193481 -1365.956909 -112.390091
1642.983887 -1350.491089 -22.118469
1833.355957 -1287.898560 108.301170
1900.925537 -1211.701172 85.665230
1622.916626 -1361.478760 102.776329
1598.092285 -1411.865112 163.036209
1865.948120 -1213.722534 89.124390
1680.300049 -1323.062012 58.895580
1734.853149 -1269.747437 201.134125
1838.874878 -1247.286987 71.971100
1824.491577 -1258.756348 65.348450
1777.900391 -1222.525024 16.845329
1868.824829 -1339.461304 205.796417
1759.575684 -1237.254150 78.131622
1637.123535 -1359.519897 -114.232857
1916.752075 -1262.950684 116.630638
1863.835938 -1197.349609 46.528339
1673.083130 -1294.723145 98.586388
1657.306274 -1310.813843 -214.757050
1575.070557 -1407.102295 132.820770
1718.714600 -1250.679565 -170.120178
1594.570068 -1385.149658 24.186794
1738.545654 -1332.322021 30.908312
1720.084106 -1275.867554 151.562805
1663.459839 -1323.469604 179.655914
1831.191162 -1256.046997 -104.435440
1785.629883 -1343.807617 187.199051
1738.263794 -1237.780640 -192.648819
1714.036865 -1263.568359 145.485809
1659.336060 -1311.403076 -195.548492
1644.648682 -1386.730225 54.633602
1627.000610 -1375.083252 -21.068640
1632.586304 -1335.918213 -224.802399
1731.060059 -1250.468018 111.446869
1878.100098 -1188.908325 79.488426
1772.329346 -1246.423828 -255.067688
1821.041504 -1241.473633 63.375748
1757.002075 -1241.241211 146.812241
1865.369263 -1260.689331 -193.377167
1817.221680 -1359.778809 186.606857
1787.530151 -1250.177734 42.500015
1728.556396 -1235.693481 -134.815567
1758.178711 -1311.744141 177.763092
1621.825073 -1370.958984 108.710297
1872.959229 -1325.231323 172.863342
1649.965576 -1332.598999 118.787186
1759.606934 -1228.194458 0.418203
1618.754639 -1378.379639 75.958961
1850.148926 -1502.789673 192.288040
1714.569824 -1273.762207 -135.465469
1728.155640 -1263.085938 -65.523247
1921.061890 -1351.536865 151.330841
1789.698975 -1235.860352 95.615631
1620.653320 -1377.292603 -21.071075
1744.222168 -1255.005981 22.175259
1606.135864 -1384.622803 125.481750
1694.318115 -1304.438110 134.766174
1651.211792 -1487.603516 220.679276
1895.338623 -1320.588135 167.054276
1651.224487 -1341.418945 20.896614
1716.202148 -1455.330933 195.748856
1661.317871 -1344.513672 -197.560272
1618.647339 -1380.606567 227.999542
1799.990479 -1427.469604 184.080078
1630.190308 -1350.457275 180.896805
1736.643677 -1265.431641 -150.114487
1590.078003 -1386.923218 -8.910991
1901.089722 -1475.731201 167.942627
1667.544556 -1343.864380 -59.936218
1910.633667 -1153.322144 56.428078
1773.831787 -1366.647705 185.603989
1617.795898 -1369.753540 -26.310434
1789.469360 -1232.207886 81.125671
1797.147461 -1237.523438 -232.203033
1652.199707 -1352.041260 -2.944975
1690.309937 -1422.761841 193.527405
1863.319580 -1482.144409 182.977097
1538.556396 -1364.642090 -164.281921
1795.856812 -1254.357056 48.080940
1827.084473 -1229.178833 -55.808506
1791.281738 -1205.840698 -98.884018
1813.407471 -1529.432373 184.590927
1662.282227 -1324.491577 -142.772903
1575.265381 -1389.342529 -176.127151
1784.403564 -1210.231689 -10.453196
1779.594116 -1415.445923 185.891556
1711.185547 -1300.312134 70.977386
1693.572144 -1289.842529 -229.928238
1654.520752 -1389.798462 50.093334
1786.864990 -1609.307495 182.712692
1872.941528 -1360.960815 200.774887
1939.050781 -1268.854004 130.348877
1680.122192 -1319.403809 -121.438965
1794.513550 -1256.460938 198.950607
1717.055542 -1387.801025 196.111877
1639.785034 -1339.832764 -168.514542
1922.437134 -1406.648560 192.206375
1739.328857 -1330.868530 186.140152
1598.775024 -1377.102051 27.957767
1726.303955 -1271.021851 18.771585
1717.312256 -1257.059204 133.239243
1759.040771 -1365.244751 189.948715
1683.103882 -1292.294067 88.014450
1687.520508 -1449.586060 193.759552
1770.854492 -1393.969116 190.083603
1824.371704 -1226.455078 -87.239471
1731.887085 -1279.604248 13.531597
1904.369385 -1305.466187 122.531631
1911.127197 -1404.274170 199.318756
1701.818726 -1281.311157 105.849884
1696.862793 -1296.201294 -183.245773
1703.956543 -1414.594116 192.151001
1777.605835 -1229.681519 46.433895
1813.137207 -1211.706421 -190.776642
1786.237793 -1208.136719 -42.408123
1837.242676 -1290.272339 173.481308
1722.984741 -1300.994019 179.885162
1657.477661 -1286.788574 -214.723373
1757.088501 -1227.366333 -126.443680
1730.378906 -1251.753296 -127.567162
1690.127930 -1299.189087 -40.768837
1825.505005 -1247.417725 93.473015
1905.525024 -1178.130981 79.002029
1753.717407 -1244.028442 78.264153
1550.546753 -1362.548584 10.705608
1749.028931 -1284.207886 182.220657
1558.586670 -1388.270752 -201.810593
1576.164185 -1400.455200 -170.158356
1833.039185 -1379.262939 177.192505
1781.741211 -1242.643555 89.800354
1563.020996 -1402.211304 35.041473
1826.998169 -1336.581055 191.494507
1733.220703 -1262.598022 65.894661
1864.198853 -1253.152222 93.256821
1702.846924 -1292.528320 -34.163483
1589.867065 -1402.994507 39.053429
1586.066650 -1424.498901 123.417824
1757.558472 -1232.517944 82.128860
1630.261963 -1350.875000 198.060547
1740.131958 -1226.949463 -138.946289
1718.034790 -1275.032227 -75.555862
1598.706909 -1385.069458 36.323631
1738.744263 -1240.064819 135.263123
1813.182251 -1338.727661 -268.994476
1641.372559 -1352.736572 -214.076080
1811.667236 -1268.248169 176.621399
1756.343994 -1214.841431 -216.962067
1909.951172 -1323.289063 148.421982
1744.124390 -1237.229370 -27.703936
1792.094971 -1208.330933 -9.124616
1663.958984 -1350.834351 -8.055638
1788.234375 -1213.610107 -0.298883
1763.459229 -1571.780884 188.164886
1794.758545 -1237.761841 5.754679
1686.536499 -1289.389771 180.044220
1795.296875 -1211.151245 -49.480923
1610.020996 -1379.139648 172.384888
1831.771851 -1239.599609 -142.417770
1787.135254 -1439.275146 176.734161
1801.326416 -1234.791016 94.398895
1855.915649 -1212.223022 73.230499
1831.799561 -1247.458740 60.035545
1642.970581 -1337.822144 -127.959587
1709.131714 -1310.339966 187.568161
1659.068115 -1326.338989 186.227615
1714.665649 -1282.703735 -150.376465
1914.089600 -1314.739746 149.100739
1749.416138 -1251.332275 173.204300
1669.957153 -1310.401367 -239.426453
1721.462891 -1278.751587 -36.157200
1721.178833 -1263.920532 101.970787
1896.953735 -1208.137451 90.484268
1587.988770 -1389.642456 -17.257933
1737.518677 -1294.344116 188.813797
1582.878174 -1394.721069 -4.051049
1763.898438 -1231.990356 -233.471512
1649.419189 -1364.642334 -117.244301
1729.965698 -1259.055420 -82.355721
1756.549805 -1246.471436 -0.764008
1858.665039 -1309.892212 201.533051
1757.677124 -1234.760620 77.325569
1921.765747 -1181.398193 86.577637
1594.169678 -1367.516724 -224.765457
1744.102173 -1286.151367 179.612335
1703.257446 -1456.651733 203.857498
1596.359131 -1384.921021 -3.008395
1744.631226 -1236.350464 133.734589
1792.237671 -1217.114380 -218.409058
1626.317261 -1361.238892 203.287872
1735.761230 -1256.131470 172.626343
1794.144409 -1223.014038 0.928568
1858.295166 -1257.133545 87.561394
1688.333496 -1302.667725 -21.644522
1868.659302 -1231.629639 89.366051
1833.493896 -1502.229858 179.979965
1718.214722 -1279.001831 -21.318943
1666.149414 -1336.900513 24.981266
1612.961182 -1398.616943 214.692337
1567.398193 -1409.481567 -184.725784
1698.227905 -1271.153198 -178.711060
1582.894653 -1380.488159 -85.055672
1612.031006 -1385.402832 -161.127304
1768.895874 -1211.406738 -15.590715
1710.633179 -1296.652954 164.923233
1778.157349 -1206.664063 -72.522110
1743.639648 -1420.637085 188.940063
1722.043579 -1286.814941 27.951054
1822.726807 -1372.389648 181.582794
1581.396729 -1366.810303 -202.254211
1796.758545 -1220.460083 -2.403770
1806.386475 -1224.035278 -25.364952
1758.677856 -1272.898315 174.697952
1604.973633 -1383.305664 186.901260
1910.086670 -1212.521118 85.330666
1592.771484 -1420.229736 209.517731
1746.413940 -1232.450195 -82.523422
1717.733765 -1295.964966 70.350967
1890.810425 -1320.200928 178.173386
1825.755981 -1303.440186 202.300583
1559.401611 -1407.121338 -105.063782
1801.490967 -1253.267334 134.801895
1718.411011 -1554.753906 189.132706
1682.877075 -1310.476807 -173.658356
1725.435059 -1264.966064 86.535309
1691.265747 -1287.478516 128.727997
1653.407715 -1377.318848 198.963684
1670.282349 -1483.025513 196.345245
1891.044556 -1238.943970 47.544357
1832.385864 -1212.795898 -206.170593
1787.045166 -1563.207520 186.561264
1839.887085 -1507.288696 173.180862
1653.102051 -1373.004639 -216.054184
1811.858154 -1296.787598 -267.870728
1889.280884 -1208.899902 80.168098
1825.762207 -1261.860840 78.062408
1718.968994 -1314.966675 191.130905
1918.527954 -1165.145264 80.036613
1838.312256 -1429.993774 184.622910
1697.402710 -1288.153442 87.041664
1762.103516 -1230.261597 78.174469
1898.524658 -1339.760986 157.375397
1756.635254 -1553.897461 198.373184
1743.162720 -1237.274170 -34.820793
1626.695190 -1367.439819 -46.400425
1665.457886 -1373.338379 71.360695
1819.486938 -1230.180664 -203.181030
1587.369141 -1412.203857 108.303627
1743.934448 -1247.603271 129.835480
1697.039551 -1492.051025 194.222687
1663.585815 -1349.184570 -87.102386
1592.803101 -1366.243042 -206.050308
1754.499146 -1500.851685 193.176758
1911.532471 -1229.362305 75.939316
1761.942383 -1215.311768 -81.973534
1817.190674 -1234.945068 -113.721100
1786.572754 -1232.871582 -241.680923
1774.805054 -1203.514526 -161.342712
1789.759766 -1244.567993 53.872929
1836.748779 -1237.723267 -70.753746
1816.107544 -1500.969849 194.991852
1760.129150 -1245.738892 134.638809
1670.086182 -1305.989990 125.724579
1773.177124 -1621.266846 199.369888
1770.715698 -1230.552979 112.623764
1901.748169 -1200.141968 82.167770
1795.621948 -1215.992920 -21.872444
1689.039063 -1280.850342 128.867599
1626.899414 -1352.335327 113.214302
1618.533081 -1387.517578 75.504776
1731.494751 -1230.244629 -139.487381
1628.358643 -1356.657837 166.877731
1931.149902 -1273.023071 84.874947
1798.138916 -1220.335815 19.336210
1731.462646 -1244.411255 -236.276031
1691.482544 -1319.576416 202.066895
1766.913574 -1335.729004 185.501266
1701.606689 -1274.556763 151.671158
1887.408936 -1173.307739 80.737511
1831.004272 -1504.397095 183.004700
1829.113159 -1232.876953 -154.844543
1757.420288 -1228.461182 63.141335
1594.224609 -1359.943970 -200.849518
1794.251953 -1302.523560 199.427628
1719.087769 -1462.401733 200.464859
1743.625000 -1246.652954 -18.160290
1660.873901 -1308.369019 -174.056610
1608.481567 -1388.943970 -58.658703
1944.122437 -1270.329102 137.427063
1699.875122 -1284.923462 -157.650772
1591.448242 -1409.755005 209.166367
1825.452881 -1268.586548 -255.910294
1754.833862 -1225.914673 -75.996124
1749.676270 -1258.435547 19.457272
1665.944214 -1503.913818 213.474213
1706.916992 -1382.758301 198.573456
1718.950928 -1280.299927 -6.733040
1731.679932 -1261.062622 23.420382
1802.017456 -1395.370605 187.198029
1761.603760 -1459.645996 189.582397
1556.869141 -1393.493652 -0.997007
1714.762451 -1251.959717 -239.095169
1643.406616 -1364.149048 193.645981
1600.936523 -1366.919067 -181.070236
1694.705566 -1301.622681 -32.441479
1826.998535 -1265.620605 185.099960
1636.856567 -1362.923950 134.453110
1791.025513 -1233.776489 117.042397
1717.068848 -1279.648926 69.560722
1740.797607 -1259.086792 48.795670
1922.723633 -1181.886597 67.806305
1716.576050 -1281.391846 -45.083797
1746.485596 -1224.015747 -79.733589
1827.336426 -1270.795776 169.548019
1753.511475 -1232.313232 -196.298279
1718.537842 -1299.011963 11.303731
1808.682373 -1356.678467 184.350830
1740.327759 -1247.901855 170.735596
1660.070679 -1406.656128 194.125107
1631.214233 -1377.765747 -1.634548
1776.909912 -1239.510132 161.032761
1727.219727 -1285.213623 -21.532240
1767.608398 -1410.623535 196.496460
1635.785278 -1359.147583 -59.537075
1698.759521 -1277.422852 -165.570465
1882.347168 -1207.719971 66.532379
1645.258667 -1343.498657 176.327637
1684.021362 -1261.922241 -216.969925
1605.492310 -1378.526001 26.242933
1590.562378 -1373.527344 -89.233047
1903.442383 -1366.304199 167.748047
1885.487793 -1306.317993 99.379211
1911.971191 -1464.070679 170.800415
1711.177612 -1285.965088 7.790395
1661.765015 -1322.402588 199.316925
1724.314697 -1258.973389 -165.297974
1618.386230 -1366.554199 98.590179
1744.808838 -1237.560181 -38.755096
1902.357910 -1174.802734 69.196487
1643.738403 -1349.152344 -86.879250
1891.188477 -1432.125244 177.403656
1719.819580 -1261.640259 156.402359
1676.206543 -1352.525879 197.511566
1666.610718 -1325.031738 -67.732216
1717.344727 -1275.014526 145.213409
1879.878296 -1322.757813 145.522156
1892.719971 -1327.691895 151.880157
1794.352173 -1246.731201 110.205231
1824.171387 -1405.411499 182.179016
1637.375122 -1378.479004 9.496457
1784.970215 -1246.331421 22.446499
1937.790771 -1321.700195 154.225204
1592.754883 -1405.325928 161.723175
1762.496094 -1482.668823 199.815277
1656.682617 -1322.733765 146.470581
1758.321411 -1312.076172 189.590256
1756.647705 -1566.789917 187.718613
1886.725098 -1333.182861 156.619781
1920.517456 -1429.002197 193.038834
1815.120728 -1252.720947 82.046860
1813.633057 -1572.045288 185.015182
1774.387573 -1216.279907 -31.717505
1877.367065 -1501.963501 180.176163
1908.123779 -1295.669922 120.264381
1822.570801 -1246.552368 69.329330
1644.292114 -1337.603149 -154.842697
1725.735840 -1265.083496 104.101631
1732.224731 -1263.500000 73.222794
1760.847168 -1238.115601 -182.808197
1571.307007 -1384.642212 -208.071808
1803.137695 -1375.822998 175.565094
1792.124756 -1252.959351 30.175493
1598.092651 -1401.196411 191.622116
1889.915405 -1332.355957 141.723267
1846.573608 -1428.913696 183.242172
1611.583252 -1439.301270 195.801682
1645.344238 -1342.160889 6.078237
1584.179688 -1377.770752 -141.903961
1785.122070 -1228.140747 131.439270
1825.841675 -1229.089844 -45.204933
1905.529175 -1209.458984 59.466698
1600.457397 -1382.902222 -0.619243
1724.286255 -1239.994263 -172.563766
1620.458496 -1372.013550 69.149422
1601.946533 -1373.316284 -211.201141
1884.791748 -1333.273315 188.138275
1695.058838 -1277.857910 115.448303
1860.942261 -1283.903687 -94.592445
1793.091797 -1220.869507 19.438213
1694.067017 -1284.178833 89.864006
1566.906250 -1408.548218 -30.455275
1891.474121 -1235.726318 84.514214
1613.849609 -1367.504150 121.902695
1772.891479 -1274.352417 188.068298
1710.079590 -1285.497559 -33.864101
1729.268188 -1257.840088 48.878075
1745.124390 -1249.789917 18.456514
1592.542236 -1403.960571 152.184387
1583.478638 -1405.035645 187.646088
1669.743652 -1333.409546 -12.086324
1684.870239 -1311.486206 73.538116
1557.573242 -1391.233276 18.695440
1900.725586 -1343.887451 168.387024
1929.394897 -1269.863525 127.298241
1753.990723 -1460.653442 190.645523
1921.724243 -1177.520752 88.719353
1732.219360 -1245.491333 76.950691
1737.367798 -1253.861450 -47.529625
1658.660645 -1317.311401 166.861343
1584.234985 -1385.931885 -233.983109
1642.979858 -1347.518188 -60.002953
1593.130249 -1382.524902 -0.581042
1631.241821 -1350.123901 126.374588
1712.765991 -1285.605957 25.454388
1758.115967 -1226.229736 -8.275570
1713.574097 -1266.379150 145.462875
1768.937866 -1288.228271 183.935623
1809.943359 -1211.673462 -198.663101
1835.903931 -1532.436279 193.721985
1641.571899 -1365.138794 -48.521996
1660.301758 -1349.766968 179.876114
1701.066040 -1301.699707 -47.476494
1663.108521 -1300.587646 139.049789
1628.920044 -1357.089600 -77.288895
1603.660645 -1377.301392 135.638474
1713.652588 -1267.018311 143.790588
1723.977783 -1246.114136 105.981819
1832.837524 -1227.646240 62.017097
1732.834839 -1320.773560 194.544220
1680.832642 -1301.919189 95.294731
1847.344360 -1469.619751 192.254242
1758.897095 -1229.592163 53.780529
1904.680542 -1337.727051 154.837433
1639.064941 -1339.167480 101.949249
1722.068970 -1259.273926 -184.974945
1561.608032 -1399.015381 1.920736
1820.013794 -1245.723999 37.972366
1703.038574 -1292.208984 -23.069981
1605.306274 -1382.173828 104.095757
1778.757446 -1216.529053 -187.696030
1750.935547 -1226.200928 -156.924133
1682.575806 -1309.958740 -218.077621
1772.797119 -1210.576904 -78.916306
1797.849121 -1402.050903 195.050705
1634.875122 -1353.271606 77.141121
1733.959473 -1275.027954 -68.235886
