ply
format ascii 1.0
element vertex 1381
property float x
property float y
property float z
end_header
994.407593 1864.048706 439.209442
1056.998901 1841.332886 198.584641
1107.344482 1793.850342 235.153946
1216.322998 1854.758423 421.039093
1227.619019 1882.640137 330.301331
1170.225342 1776.854004 188.468796
922.277832 1890.015015 306.143890
1265.048706 1918.380981 393.353760
815.171204 1935.792603 330.280487
1269.029175 1899.933716 407.600433
1107.281006 1863.410645 560.775757
1177.824341 1786.353882 296.655304
862.100098 1914.896729 324.293945
1156.866943 1784.119629 391.463226
804.793213 1924.796753 401.637787
1191.948730 1815.441162 204.540955
1114.063477 1870.692261 531.087341
788.700134 1936.278931 399.808105
1152.759277 1772.471313 405.582703
948.768799 1868.925293 451.121948
972.560303 1864.379517 255.855103
1196.487061 1830.711670 184.324463
1176.387817 1762.504639 386.959198
1309.938110 1989.558838 147.601196
1102.592651 1867.095825 561.144836
1016.720581 1848.633179 437.413025
1130.664795 1862.921875 436.186310
976.329102 1932.252563 463.482330
1040.708984 1835.915161 393.233856
850.262451 1929.260254 299.181183
1287.039673 1995.005249 147.775848
1177.560425 1789.886230 161.567764
958.818726 1860.850098 433.333893
1068.299683 1864.942139 492.942322
1261.810547 1869.648438 416.082733
1131.932129 1781.127808 255.390350
1216.278931 1867.279053 202.816208
800.587952 1976.341919 266.384094
1124.246338 1898.727905 495.328430
1203.454224 1826.062500 325.322937
871.863159 1956.640869 268.927917
1225.741699 1937.191895 456.339172
1189.876709 1814.159302 289.951050
985.695923 1950.635376 467.660278
1178.468872 1786.651245 277.219666
1268.576538 2020.640747 208.477127
1089.126953 1852.626953 485.510193
895.165894 1919.540527 305.144928
1209.872070 1853.422363 259.733124
964.540833 1872.583252 352.379608
881.692078 1897.320557 160.831223
1206.639160 1836.820801 210.342773
794.630188 1945.546631 224.082077
1274.061523 1928.830322 415.857910
1209.123535 1839.513672 238.783585
1165.543945 1772.196533 405.625397
1018.411072 1844.298340 180.024200
840.550720 1910.259399 178.138321
977.712585 1872.938721 461.232605
829.819641 1941.559326 445.063873
1227.789063 1840.367554 422.296448
1230.341797 1904.624390 317.524017
1149.192261 1769.512939 249.030502
1112.670654 1795.406616 201.307648
1103.709106 1865.836426 487.188263
971.447571 1843.403076 160.226700
1248.804077 1932.573486 259.536438
1030.622070 1837.353882 423.018494
1235.848999 1843.660278 400.106750
971.137451 1891.428223 360.062378
936.528442 1898.260132 461.507538
872.289429 1927.424072 458.262604
857.307556 1940.314209 478.121185
1017.972107 1872.021484 433.484711
1020.298767 1839.255127 204.373352
1196.825806 1834.204346 159.714569
1148.930786 1839.968140 423.035004
834.173157 1931.055054 434.465546
1220.215454 1870.411011 207.117706
1063.409424 1825.972046 273.109741
1112.935669 1846.145752 463.875549
833.666382 1930.852295 386.146851
1145.690918 1918.161865 433.928711
987.000671 1855.721191 411.494904
1098.313721 1884.516113 301.782806
954.486755 1899.966309 353.451508
905.679688 1894.027954 425.670013
1170.339355 1757.184326 296.245819
1208.125122 1864.491211 424.914093
922.753418 1888.636230 188.748917
1066.324097 1824.380371 416.319153
849.962891 1950.173950 200.629333
1288.948364 1969.820190 418.460205
1134.454102 1780.269409 366.192444
926.275330 1891.253540 272.533752
835.105957 1910.241089 203.837524
1155.479370 1868.455688 430.739410
1012.152100 1862.573853 192.450775
1174.550293 1771.289307 291.926544
813.001343 1938.473877 245.468338
1192.188110 1812.546631 386.158600
1238.705811 1967.370117 482.486847
1060.574097 1856.824829 262.069275
1067.945190 1815.053711 330.189484
836.333191 1943.632690 320.425232
797.590027 1965.535522 247.079330
886.214722 1909.475708 216.779251
843.463928 1914.864868 415.048248
1154.440918 1771.423584 376.311401
964.528687 1957.702759 481.489807
973.525757 1856.874756 425.868164
1008.569580 1925.009644 459.046692
840.768127 1923.318237 335.795624
1253.390625 1961.357422 429.416412
1231.155762 1952.408447 489.560577
1124.192261 1855.097168 438.732208
1252.599121 1871.120605 406.974945
846.277832 1907.444458 212.077759
816.422852 1936.602783 240.860077
1041.765747 1892.276733 439.907043
947.649353 1977.987061 480.300110
1129.186035 1879.212280 510.288361
982.934753 1858.418823 425.253571
960.914246 1879.648560 351.720490
812.193420 1959.818115 434.460114
952.391296 1879.241943 314.242706
925.719849 1904.724976 324.362244
867.604431 1922.911133 278.668549
971.300964 1875.101440 451.793671
1106.492432 1799.109985 312.134857
1103.448975 1864.566650 503.203918
861.192505 1955.423462 473.412994
1236.976563 1910.810669 313.293335
1115.237183 1845.855713 433.894531
937.852478 1905.553955 273.372894
1285.995850 1992.279419 238.682083
1089.088013 1808.130249 167.623840
1198.008911 1823.235352 257.115326
914.423706 1900.388306 439.918060
1018.183777 1842.796753 164.755829
1157.899658 1771.785278 392.752533
1212.804443 1879.601807 243.535126
1095.315063 1858.780151 525.320129
815.292786 1936.328735 175.976761
1265.002441 1965.457397 347.069763
1097.807251 1793.146973 369.426361
1189.526733 1776.493530 370.765472
1132.470825 1774.419067 336.345123
853.249573 1938.183105 476.751709
821.992615 1936.287354 183.032608
1280.721558 1983.372314 162.321854
1201.615356 1829.131958 219.985657
1199.654053 1881.201782 431.467438
961.619202 1868.191650 456.850311
1177.107910 1841.611572 434.075806
908.208435 1894.668213 427.169189
1150.802124 1799.455078 426.613007
1234.369263 1930.713135 489.395416
1038.061035 1849.574097 377.886505
1033.362915 1834.213989 393.529480
1102.119385 1896.217041 520.583679
1291.986084 1975.251831 413.663849
1196.328613 1772.229248 155.903580
1260.028442 1960.803711 312.575623
1098.266724 1793.119141 285.415619
1277.939209 1972.679077 295.589935
984.184387 1869.861938 440.772217
851.948120 1925.258179 366.188385
1232.774170 1853.750366 418.857513
1171.091187 1770.879272 219.374222
1194.931030 1867.707031 423.953613
1200.354492 1915.892090 446.611359
1206.824219 1915.821411 445.595886
989.238953 1856.391113 433.763367
1254.459961 1948.686401 294.500427
1137.639893 1789.024170 423.504456
1186.757446 1805.427856 175.967270
1112.033813 1873.018921 559.526917
1064.572998 1819.856812 366.970642
1184.798828 1928.857422 444.816711
1106.494385 1794.216919 399.309937
1059.473022 1840.978882 218.380371
1204.193604 1834.703613 188.479034
1193.294556 1839.215088 324.594574
1175.340210 1773.685181 166.224182
1001.206482 1845.531128 208.848358
863.459290 1949.745361 219.957779
1257.565552 1954.079590 322.082825
1087.863892 1866.016479 524.474731
1068.093628 1812.920410 335.630829
1223.293213 1858.332031 387.680939
1000.621216 1861.645752 326.742584
1161.289673 1772.205322 225.693054
1221.986938 1815.647583 418.743103
1068.642456 1843.437744 294.991364
1281.412598 2013.028564 208.263931
1274.944702 1964.470215 368.506409
1156.736206 1767.814819 327.990875
800.734375 1938.322021 420.250397
867.843933 1924.075928 241.032806
991.146606 1958.311646 464.811218
885.559143 1902.835938 161.927567
822.309509 1918.097656 395.073151
1125.302246 1771.879395 274.121887
1167.816162 1771.252075 167.526260
1220.619751 1876.007935 241.381897
989.109680 1867.479126 412.952454
887.125793 1922.147217 234.045090
1095.639526 1862.514160 455.552185
1135.282837 1764.683960 303.238281
1217.476318 1847.969360 326.449310
1083.553345 1864.818237 462.925873
1225.295532 1864.203247 333.328156
933.556519 1886.673828 204.356049
998.921326 1853.934082 160.597549
987.951843 1868.148193 337.017517
1038.716187 1834.012939 403.112518
950.618347 1861.218506 168.442184
833.392944 1940.648682 436.025055
1161.145264 1766.718262 176.282654
1102.823730 1867.135498 550.357422
1203.266235 1833.062744 215.820358
905.784241 1904.834717 221.481949
1113.504150 1890.332397 541.459473
1032.430664 1834.826538 196.978333
1005.732910 1847.194580 433.186371
1122.474854 1887.456909 526.675903
1168.380493 1767.263550 251.990524
839.140198 1919.791504 210.477493
928.640381 1930.471069 453.889099
1284.427490 1986.911255 285.522705
883.304443 1912.994995 382.769714
1080.691162 1851.617798 582.322144
1053.416138 1829.935181 304.984802
1107.360596 1789.144775 282.415741
1167.114380 1770.322144 368.146454
1095.393433 1798.653320 204.507202
1262.593506 1957.650879 225.716980
987.656067 1894.516602 461.003693
856.427124 1914.011719 422.108734
790.681946 1941.224976 389.874390
1093.465820 1814.158325 411.852570
1267.563965 1877.420288 409.853851
770.438660 1962.845215 299.141479
1142.344727 1780.023804 378.668823
1022.562927 1943.299561 487.591095
890.669556 1914.246460 456.864197
1265.938110 1947.031738 280.271606
999.084900 1859.103149 389.802124
1264.225098 1963.773682 298.335999
919.109924 1902.254272 279.292236
784.242798 1936.195435 377.235748
939.530762 1890.020264 357.360138
1249.940063 1880.245239 412.070221
1067.610718 1820.519775 296.220276
813.725159 1965.384277 228.326004
897.010864 1902.255737 329.394409
1112.417114 1854.665649 486.458374
901.399963 1896.960327 413.295715
1108.169800 1799.966797 273.269623
976.166443 1876.830200 231.863068
1285.319336 1956.686157 403.623474
1097.385132 1814.759277 419.569214
1111.204468 1877.100708 555.559753
974.266663 1876.596436 447.561493
1085.403320 1863.777344 469.165558
1191.226929 1801.033691 404.241882
1273.316650 2019.271362 191.300323
1187.903564 1770.357178 162.197845
1279.651245 1975.935303 323.664124
858.047424 1930.234009 437.161377
1130.671631 1776.792969 252.800140
1168.426636 1776.088745 204.950516
838.909973 1997.504272 486.793091
1187.023193 1797.353516 365.087708
1170.487061 1785.530273 278.634583
993.445374 1855.872070 400.820007
1026.486572 1861.724731 444.517639
1177.886719 1887.736816 449.272095
1041.405762 1832.253906 397.411774
1002.786926 1872.273560 247.471863
813.393677 1928.507813 422.462494
961.119446 1877.668823 315.268555
1089.381836 1852.253540 481.812286
1240.721313 1926.818237 222.095612
1279.663818 1995.402344 427.316162
913.376404 1921.810669 443.285400
961.313965 1874.060181 299.337585
1122.825684 1784.248169 376.006866
1047.179077 1839.513062 285.784027
1079.236206 1807.567871 412.778595
1202.605957 1921.405273 485.292023
1015.570129 1846.159546 200.496368
1120.398193 1785.010132 349.718445
1103.478516 1800.679443 269.849915
866.002625 1924.194336 453.945099
934.198181 1900.990601 461.277649
866.830811 1955.493408 338.659546
816.695190 1930.783691 261.250092
1101.170410 1835.138306 440.885895
1035.400757 1854.769043 379.079803
816.846558 1936.488281 215.567459
1026.993042 1856.963867 258.725647
1221.397705 1873.015869 240.179871
1237.302246 1911.724976 327.540741
903.620422 1897.656128 329.994598
811.261475 2042.465942 453.021332
1067.258545 1821.277954 223.606049
1196.756592 1910.905762 434.827393
1056.988892 1825.123901 397.938171
1154.777954 1899.711914 525.890991
1097.422241 1806.270386 402.816895
1201.754883 1829.749878 216.214890
1138.144409 1785.331299 253.784729
1177.519165 1771.054443 233.275116
1223.198608 1882.078491 288.269958
970.450623 1868.390381 184.695053
1017.524780 1840.095825 197.771423
1206.110352 1927.213135 497.547180
1159.857178 1909.570068 426.587921
1112.384155 1787.502930 342.408051
1124.576904 1889.778931 538.228699
1085.009888 1868.136719 429.974762
985.275635 1880.448608 285.927765
1055.129150 1821.479736 317.224792
963.600952 1867.867432 405.015320
988.472473 1856.462402 442.166077
1221.588013 1878.599121 307.906677
1032.380127 1864.795166 228.469238
887.246033 1913.050049 318.163513
834.112793 1963.608276 262.836487
1188.977905 1810.734375 192.042130
1092.326050 1813.971802 417.640747
1233.750122 1898.612915 287.012909
797.638428 1944.035522 277.834259
863.857971 1932.329224 463.524445
1068.764404 1824.706299 419.424866
1185.275391 1789.421387 391.886078
1214.602417 1845.839233 384.730896
1090.955811 1800.257202 335.720398
929.451843 1895.233398 295.921082
930.463135 2002.436646 479.261169
1128.347778 1789.394897 413.666473
1213.680786 1833.624146 324.964783
1181.135254 1810.596924 216.427490
1147.564819 1799.975830 413.247009
1230.025146 1909.567261 468.863403
1096.031616 1854.804932 500.335938
814.046265 1945.802490 211.872925
844.003296 1915.874878 412.155914
1155.598755 1766.323364 281.963593
857.002747 2013.833374 491.247253
973.559937 1878.456177 454.329315
1019.930542 1844.612671 174.238251
905.440491 1900.133911 371.046783
870.210999 1926.232666 449.034027
1091.573730 1803.498779 261.805023
1275.736572 1997.053833 184.392487
867.448120 1985.026123 485.669312
1116.622314 1791.702148 345.916412
1019.659058 1865.451904 255.300491
895.587952 1907.505981 251.485733
882.781372 1902.943481 203.963196
1067.741943 1801.611328 265.119446
1116.384766 1869.658081 516.117249
1260.007568 1963.246704 247.768646
1090.304688 1871.041382 455.981537
1254.098389 1904.789917 148.294632
855.451782 1927.103149 305.119171
802.809998 1929.200928 372.101959
1228.685913 1887.239624 319.668671
1121.732056 1787.421021 332.218506
1149.980469 1916.076172 530.187256
1294.684937 1997.682251 401.366669
1224.447144 1882.178711 289.680176
1106.904663 1868.537964 515.540588
1031.289063 1837.800293 400.165161
1232.421509 1889.959595 425.266846
956.238098 1877.366211 315.167053
1178.061768 1775.137939 401.844543
1129.017212 1798.994873 158.002182
835.781311 1921.289307 193.007538
875.550842 1913.589478 333.126221
1214.822144 1857.066284 367.369232
1045.887451 1830.474731 169.036224
1254.593750 1942.105957 316.454407
1095.352173 1811.229248 230.409912
1141.088623 1811.542847 425.579926
1094.204590 1775.030518 176.087311
1152.649536 1818.920776 422.339966
867.248535 1912.182129 372.686371
1302.581543 2036.349731 147.798950
828.918945 1946.652466 323.941467
1229.702026 1936.461426 424.814514
1087.992432 1796.264282 284.236298
848.352783 1928.979736 363.554108
914.203064 1900.465210 359.267517
988.543701 1855.570679 431.031830
1106.027100 1864.157715 462.871490
1222.708740 1901.947144 258.594910
1184.715698 1777.973633 316.722748
863.331482 1909.005981 210.951660
851.731934 1963.110840 234.979553
902.911072 1903.672485 316.039551
1013.654907 1841.589478 198.172531
1149.280029 1948.457642 515.400085
1188.224487 1807.047485 377.588379
1110.664307 1788.784668 357.385254
1190.978638 1905.472534 501.945068
1215.776245 1859.475220 225.354477
1233.653198 1898.492920 291.033630
1125.166016 1894.955200 498.878082
989.880676 1859.913696 435.378693
1168.377441 1768.054565 211.673599
1240.026123 1854.068115 417.587067
794.015259 1939.851074 411.765961
1189.923828 1833.046631 224.702850
1279.626343 2002.791382 362.186554
1172.571533 1788.290039 213.250717
845.234497 1921.953247 380.897827
1161.147339 1916.246948 531.964172
1145.607544 1780.100586 189.529968
1032.503784 1872.741943 430.658844
1214.797363 1857.131592 336.888245
1087.138062 1808.899292 375.492859
1160.377930 1777.208740 229.710052
999.384521 1910.958984 463.602173
1228.150879 1866.526245 207.817902
1228.191528 1884.602417 297.838470
1224.295288 1881.932739 293.924042
897.282410 1951.509644 477.928192
1241.631226 1915.106201 301.987061
1155.661499 1876.807373 425.090973
1127.925049 1893.471069 436.168854
1155.007935 1786.799927 416.917267
1139.847290 1772.425171 331.648743
829.591309 1922.833008 197.100143
1000.597656 1854.191650 168.033829
1047.811279 1850.360352 206.983566
905.036682 1899.077271 322.143036
1020.550720 1845.486450 164.019836
1129.122681 1787.238770 224.527176
848.417908 1921.261475 435.483063
907.162781 1908.906860 435.717865
1184.831299 1768.460327 295.786072
900.219116 1907.913208 271.143250
1127.327148 1770.059082 272.604187
1030.164429 1906.079224 464.636749
1217.577759 1872.108521 371.481537
905.624390 1884.908569 403.962311
1127.110596 1778.547729 256.295898
1015.726196 1849.664063 429.045563
994.404053 1845.510376 161.869858
1286.939209 2021.396729 179.699417
897.153564 1900.605957 321.495636
1299.176514 2040.931274 149.112473
820.838440 1996.253174 466.735443
823.694763 1926.609131 245.030334
1131.519409 1798.113647 423.894501
940.819763 1993.272827 469.649841
1250.205688 1916.934082 248.759140
1211.708740 1864.541138 152.606766
967.221985 1866.693848 418.212006
966.325989 1868.864502 162.480042
910.409851 1894.446655 180.540482
844.668579 1964.778442 467.505524
991.157837 1854.894897 407.638794
1158.132202 1760.339478 292.418518
1187.199707 1894.987183 450.961487
1255.859985 1924.912720 245.249191
945.750427 1871.820313 163.121490
1068.379272 1824.978516 185.463470
926.321472 1888.329224 222.530533
1130.830566 1777.492676 333.445923
1199.571655 1835.000244 204.049316
1149.650757 1796.276001 409.363251
1116.090942 1798.710693 395.971222
1109.585571 1784.681885 326.831482
1084.316162 1874.997803 462.058075
1114.470215 1871.116089 514.548950
982.542908 1876.999268 320.403290
993.881836 1861.141357 393.665344
835.230591 1982.081787 300.394348
947.468506 1891.099365 395.366852
1062.366089 1869.984253 432.426514
931.331848 1899.239136 257.889404
862.350525 1939.543823 470.595581
1105.035522 1855.120117 524.969360
984.677856 1863.234619 202.215729
1028.416626 1840.173584 411.232666
1184.864380 1776.082520 189.290298
1122.786499 1789.723999 330.626953
1109.443481 1874.695923 473.764771
1043.433594 1834.576416 181.874893
1123.818848 1870.578491 475.540192
1173.659058 1786.225098 287.562164
1199.902954 1804.628906 155.162231
875.302368 1914.921875 437.584229
1187.978027 1794.033447 157.982422
1254.346802 1916.680908 383.642059
1112.449707 1865.500732 563.565369
869.343872 1921.318115 283.906769
1235.276123 1883.831421 336.394409
1256.369141 1928.957764 281.254181
1167.237671 1919.262207 477.151825
1221.787720 1921.647339 469.094299
1215.058716 1868.615112 292.090424
901.388794 1906.604492 320.885651
1140.758789 1843.770264 425.244354
1248.184326 1867.512207 411.058868
1182.291992 1776.590088 216.890656
1254.393066 1972.720947 343.881012
1302.691284 1987.507446 411.136200
1094.117920 1822.173340 166.672836
1256.931274 1952.028198 362.616364
892.920776 1889.298828 405.744843
1232.004883 1927.771118 179.503647
1148.478516 1773.395630 342.084900
1196.467896 1910.013428 494.024231
870.574768 1920.460571 461.946869
951.055237 1885.380859 183.311813
789.283630 1950.591919 243.488342
1153.351929 1776.311768 162.285858
1220.581543 1857.117065 363.869263
1063.490967 1822.522461 378.394409
1269.237793 1934.409424 411.234009
1211.514771 1852.854004 187.896332
1110.923706 1799.325928 333.524780
1074.515381 1856.111084 469.409088
970.744080 1864.722534 170.743118
1209.731201 1895.536621 435.944122
1209.816040 1835.430908 226.737259
1107.607788 1786.884277 389.280823
1229.391724 1887.094360 317.766479
989.052002 1869.405518 275.872833
1102.892212 1793.180298 399.780762
1173.531738 1777.574951 272.607452
983.195679 1869.849854 385.338196
845.417908 1922.270386 371.699768
1179.898804 1809.796753 304.552734
1128.879761 1771.882813 287.189270
1064.536499 1837.127930 279.971771
1282.564941 2009.886841 230.090759
918.862854 1894.075562 273.210114
1259.354858 1970.990234 155.802979
945.481750 1873.935303 202.992340
1037.654419 1851.956787 211.866379
1028.948608 1855.557983 437.013763
1201.559937 1839.421875 269.851654
924.124146 1887.817017 176.823425
1168.398193 1763.469116 222.918137
1194.201416 1822.473389 210.065704
1277.387085 1997.886841 291.636902
1009.958008 1858.420532 208.841080
1205.594604 1828.381958 255.686890
993.831543 1850.037842 220.840332
913.533447 1914.985107 433.694611
1122.137207 1860.545654 535.478577
1220.865479 1933.140015 458.834198
1137.368408 1784.181030 233.319443
1241.323120 1912.176636 374.575134
842.876953 1940.628418 346.526398
816.391724 1941.726563 162.543793
1015.662048 1874.351807 251.107376
815.158264 1953.797974 225.194565
1204.062988 1797.556396 152.134476
1088.646973 1807.227295 153.792725
856.333679 1918.840820 428.539032
916.323425 1898.619629 378.894226
1185.525269 1804.038696 398.568573
798.894531 1962.352661 243.269333
1223.351318 1903.507446 295.175842
1226.308838 1941.009644 437.117554
920.878784 1895.083130 244.822342
1120.250366 1797.162354 193.181839
933.188660 1884.929321 226.552765
951.392456 1885.015137 246.236557
971.447327 1861.470337 200.198959
989.726257 1858.203003 452.883728
970.938660 1860.046997 207.497635
1112.566650 1876.161011 460.316833
1203.275879 1896.139893 492.875305
960.986389 1888.047241 378.270813
879.474182 1916.510132 222.526459
1292.873291 1981.901245 149.791763
931.577576 1889.055664 235.518677
1212.587280 1853.577881 192.363251
1294.000488 1970.638184 406.556610
1277.435791 2004.791138 250.139282
1223.471436 1890.976196 423.552155
1107.940552 1863.205933 546.327148
1008.799744 1859.517090 463.349518
1287.193115 2020.348022 244.651291
1196.239258 1821.618652 253.727188
1229.052124 1892.087524 166.194672
1134.911865 1782.947632 390.381104
1074.808472 1872.886963 486.294525
1040.974976 1829.913330 191.866974
1132.222656 1874.246704 560.268188
1126.727173 1785.704712 378.324402
1051.246094 1839.826782 308.135986
869.119995 1926.983032 471.422180
871.802124 1942.126343 465.672058
986.907898 1863.458374 433.449188
820.405945 1931.518066 298.231781
1193.303589 1819.479492 388.542633
1237.019409 1887.957886 324.341003
993.538757 1920.842773 473.416779
1237.562256 1907.357788 355.034149
1096.761963 1808.008545 400.581879
1257.151733 1968.817505 208.665924
1083.976196 1851.330933 499.367706
1061.588013 1827.312866 321.640289
1121.076538 1841.454712 423.465240
1254.938843 1942.401489 308.437592
1215.829224 1918.224731 487.596985
832.153442 1931.388672 440.025024
1242.591187 1916.972168 337.615875
1115.055298 1858.522827 527.220581
923.453430 1881.952515 422.046112
984.008850 1854.117554 427.339478
1200.472046 1823.020630 255.363190
1260.252319 1958.967285 360.713165
1160.526367 1776.161133 245.275955
1017.542114 1842.152710 425.693726
1145.658569 1790.412476 279.760590
1240.588379 1919.907959 257.412445
1245.415039 1922.026367 214.491257
1213.739380 1850.404785 330.120636
1154.072510 1779.359131 323.704834
1054.782104 1951.451904 466.230347
874.169006 1912.677734 365.311951
1265.903687 1976.049316 191.965134
1134.383667 1771.012695 257.538971
1125.554077 1890.794189 475.541565
1183.876587 1817.161011 204.262482
1231.421875 1914.550293 426.145599
825.933350 1924.388062 197.607468
817.651550 1952.952515 442.267761
1233.195801 1874.546387 363.049530
1131.522949 1788.304688 407.104584
1166.220947 1801.707031 420.782043
1186.156372 1864.979980 422.661316
898.764587 1898.483276 198.743347
1086.826294 1861.345459 477.159363
873.159363 1902.538086 187.073975
1126.844849 1779.994995 269.917480
1222.181519 1868.580200 350.702301
1104.466797 1785.402710 381.227325
1211.966919 1809.869507 427.411377
1110.468018 1870.846558 502.899841
1073.059814 1821.083008 363.684387
874.982361 1909.969238 183.451431
828.972717 1926.767334 395.941406
917.606873 1900.214355 301.805115
1121.030762 1791.942383 204.401398
1102.022095 1792.564819 307.306335
1189.558838 1862.015869 427.221497
1258.054321 1957.067871 265.212341
1207.416748 1903.375854 427.719543
1196.900391 1863.357788 429.018250
1294.659546 1992.609985 402.075012
1118.353271 1785.241211 222.222427
984.946411 1867.502075 371.974670
1109.111206 1857.737671 550.128296
1260.145508 1935.368408 312.570496
1276.409668 1973.497803 186.284027
783.661804 1959.403442 338.818939
1187.438721 1800.727173 326.335907
1276.612183 2003.740234 263.434021
1211.631592 1850.611328 344.779327
1127.054199 1885.592529 524.257874
863.961487 1938.585571 447.707520
947.581726 1891.733887 316.992737
979.894287 1879.070679 344.436035
1075.799683 1803.919922 316.833282
927.376892 1881.447144 397.591736
954.174011 1862.086426 448.006256
1188.729858 1797.989990 254.555588
1296.902954 2009.258179 146.677246
1186.464966 1804.596802 283.679199
1099.062988 1896.809814 505.151855
1281.977539 2013.235962 371.363831
1092.793213 1804.763062 349.730103
1273.468872 2026.691162 152.965439
971.874390 1874.402344 346.835785
1098.655640 1827.776123 421.629517
1217.484619 1919.584473 509.246094
1223.921143 1887.651733 206.738312
1273.276001 1905.881714 415.244781
1113.470337 1790.759277 224.853027
808.839783 1932.240723 278.683807
1197.021362 1840.976074 425.718658
1037.785889 1873.879028 462.259277
953.230835 1880.935669 210.444427
1071.756836 1814.341675 199.040970
838.048279 1924.967041 457.956787
853.471924 1978.488281 499.763123
1205.633911 1843.493774 327.488373
1197.654663 1828.688232 155.706863
1219.353638 1869.938721 373.681366
848.181458 1925.033691 424.147736
889.052856 1898.036865 405.158813
1130.870239 1769.344604 320.907318
1069.309448 1817.820801 198.012314
1247.966919 1934.407959 307.609467
962.203796 1876.211548 351.866089
952.659607 1867.170654 427.343597
1169.676758 1779.462158 387.700470
1147.306519 1775.489868 209.075790
1218.017090 1869.445801 217.992126
929.405762 2029.850830 474.395111
1046.872925 1825.707031 160.880066
823.018738 1913.590576 165.036011
1183.250732 1799.406006 435.023773
1090.336792 1887.756104 479.544556
994.748047 1848.946411 200.248840
1222.527466 1880.093750 422.385498
1137.339600 1783.808716 227.972885
914.716553 1852.827393 169.042572
1009.163574 1866.677856 453.789581
1192.112305 1864.533569 427.305908
1064.226929 1818.477417 199.483841
972.072449 1886.462402 275.480377
1208.310791 1847.167114 224.479126
1039.719482 1846.271851 330.568817
1120.929810 1770.217896 312.411041
956.578308 1879.555542 228.082443
1218.772705 1866.743042 211.867371
956.010620 1894.870972 286.172577
1208.136353 1850.487305 191.293808
1204.927124 1835.846558 244.263000
1204.349487 1897.348145 516.694641
1099.381470 1787.489990 320.543671
946.719238 1875.618042 210.582962
1220.672852 1870.288330 336.111084
1051.193726 1826.345215 334.814026
1190.089355 1849.149048 422.654602
974.686157 1860.444580 191.427643
843.488342 1931.044556 330.962189
1023.063660 1872.067017 463.068451
961.529480 1880.026367 340.481842
1101.189209 1792.994751 327.595184
1029.942261 1847.018066 358.289124
853.594849 1926.278931 342.000824
828.802429 1947.290527 466.149536
1206.104126 1841.576660 164.435516
862.115540 1924.323975 433.807434
1181.875366 1903.880127 439.721313
1105.172119 1797.097778 329.358215
1217.931519 1860.993652 336.584534
1191.276855 1800.599487 273.260284
1015.259583 1872.292603 248.342865
1060.187988 1817.561279 350.517487
1207.065674 1852.221802 235.601212
1289.136597 1985.042847 379.353333
972.037964 1877.678711 278.724152
813.328064 1940.720459 342.964264
1193.114136 1926.623657 469.770020
1215.277222 1883.840820 199.070389
941.314026 1869.853516 437.362488
1200.056763 1838.103516 199.860260
1239.676270 1894.626221 267.342804
1018.037659 1838.437256 416.055878
1095.790771 1802.522339 414.079468
1187.987061 1751.440918 220.254318
1158.555176 1769.244019 336.825623
773.270447 1947.746338 307.979309
1111.057861 1868.873047 424.646912
1109.459961 1800.897827 292.094238
1128.602905 1773.882690 303.549561
872.903748 1910.624268 316.462524
1082.519775 1878.635986 444.663086
1114.136963 1872.650269 536.975464
1034.754761 1848.190430 384.814819
1194.009644 1913.447754 456.436737
780.472961 1991.890869 298.423859
1278.926880 1975.553589 157.372864
1113.413940 1808.809082 159.335953
1089.842285 1897.184937 496.048248
959.717285 1898.099731 448.844025
1192.013306 1839.364502 285.143005
1266.016113 1967.630737 252.316589
1077.833618 1799.707031 303.328491
953.166016 1882.147827 292.778595
901.898438 1900.525879 177.801468
1005.798889 1859.736694 314.526215
797.562317 1951.598389 252.592178
1272.918213 1924.161377 412.899170
795.739197 1953.401978 189.477905
885.442810 1941.162109 468.231903
966.866882 1964.699219 479.819122
995.342346 1872.150757 314.539612
1173.218140 1787.385010 408.707825
1241.168579 1912.092651 307.466522
951.080322 1864.937500 433.393097
1067.809326 1827.111572 314.821075
777.335571 1947.909546 416.796387
1224.167236 1875.288818 273.011536
1219.244873 1853.864014 360.279755
1271.869263 1981.158813 264.717621
1117.293579 1791.281738 394.939026
1241.842773 1894.879639 271.225220
875.703857 1971.106812 479.137451
842.669983 1932.233154 414.321777
986.597229 1856.765137 422.152985
1105.421143 1794.832031 162.949783
1029.055908 1839.104126 160.975159
1075.818726 1834.121338 174.130539
1036.023804 1873.350464 237.367615
1117.797974 1865.821045 566.945374
925.818481 1910.332275 355.096222
1045.750488 1835.280518 393.288544
1165.896973 1767.329834 405.968964
1100.326416 1791.417358 293.839447
1106.685547 1789.190918 286.707245
1208.488525 1893.841187 462.122498
1237.507446 1912.874512 241.122177
1142.979370 1771.324585 365.978821
1239.007446 1924.984009 165.286926
1251.561401 1953.727783 227.852280
1258.443604 1957.732544 248.616989
877.944885 1933.439697 462.186066
1203.834961 1846.861816 205.829147
1095.376099 1811.903687 411.940216
1031.884644 1850.651123 195.899811
794.580627 2026.725952 321.262177
989.141479 1966.605835 463.917389
865.454834 1923.060913 292.730255
909.770569 1880.831665 422.401489
801.435608 1943.032227 305.523987
1108.179565 1873.993896 502.088470
1226.451904 1908.213745 425.972351
834.573975 1962.298706 457.956787
823.777039 1940.068848 358.769043
1151.175659 1770.054932 368.107208
844.335938 1941.393188 303.611389
881.775574 1903.273438 445.927368
850.339539 1952.648926 203.795532
1058.253052 1859.069580 446.919922
1107.636841 1818.584839 420.077881
1245.164429 1920.723633 301.844360
843.788513 1925.783325 437.975952
1149.469360 1765.457275 276.186951
849.160950 1936.136963 166.067444
1128.874756 1892.224609 517.198547
1245.045166 1954.290894 431.797058
1150.064941 1769.340576 176.075897
981.196106 1858.184692 190.754822
1114.163452 1804.077271 404.769348
873.243225 1895.546387 169.148911
908.537720 1986.874634 471.952026
888.628784 1908.252319 410.104950
797.399841 2002.466553 446.335297
1094.582642 1865.248535 485.873749
1064.144287 1838.473022 227.570938
784.109375 1960.426758 446.445923
1123.808594 1882.855835 494.466949
1255.960449 1945.446899 355.334106
1033.069946 1908.254639 452.005554
1139.421997 1856.648071 432.851593
1154.960083 1801.134399 173.930267
911.283752 1926.643555 278.500824
1188.129028 1912.135254 529.908081
1144.134033 1787.275635 258.380249
1031.233154 1856.144653 379.540588
1006.681641 1873.495605 289.653381
965.921143 1874.276367 273.926971
960.108032 1874.927490 319.723877
896.174866 1996.944092 484.534546
967.609070 1862.017334 160.449387
1196.857056 1797.011719 407.803894
1189.895874 1807.220093 352.367920
880.353516 1925.268311 435.741547
829.328857 1924.513306 190.434814
804.226807 1946.070801 216.160233
1194.951782 1810.055420 322.871277
1266.123901 1850.359863 422.252838
1171.265015 1777.929443 315.671478
1050.397583 1830.763550 228.167099
1214.893066 1844.167480 255.016113
971.556030 1866.400146 166.824448
1199.592163 1820.894287 222.845337
789.920166 1946.044678 357.851013
1089.479248 1795.696899 266.614380
966.457764 1878.315186 276.753052
1059.682373 1831.105103 169.042435
1216.972168 1867.332153 263.902313
1035.044067 1857.139648 217.888565
1175.780884 1791.088501 407.948059
940.421448 1883.358276 251.113693
1177.440308 1925.931885 440.762665
1090.256592 1858.575317 430.937439
842.630737 1931.849854 284.145905
1110.944214 1783.178833 254.404800
792.061646 1942.934326 327.826874
1099.906860 1865.755127 517.756653
1053.007690 1839.690918 291.357971
888.886292 1924.079590 294.921967
1203.665527 1832.863403 156.826981
804.908752 1934.707397 208.449142
996.126770 1857.158813 205.032730
1193.205933 1819.147339 272.794952
1146.254761 1771.813965 297.003235
1001.612366 1869.135254 378.034180
1137.477661 1781.859741 247.621262
1103.731201 1809.057617 427.848816
770.839050 1964.920532 215.317276
1232.489746 1922.773071 420.059418
1196.620117 1915.835449 441.863586
965.976196 1882.943115 449.448792
919.047363 1889.260742 173.574036
1094.421753 1817.204224 428.713959
1103.248779 1867.405884 524.794739
1121.957642 1865.699707 464.674622
1150.170898 1769.610718 378.339172
786.612915 1902.516846 181.304260
1077.292114 1810.003418 340.753296
1074.626099 1817.147095 168.951324
790.915771 1949.320313 183.159103
980.107483 1862.323730 385.409912
823.240173 1964.401978 277.016266
1056.187988 1832.747803 249.315048
1165.918823 1773.930420 414.285126
1092.925781 1799.625854 404.649078
1208.750610 1853.867920 357.691803
799.292358 1949.275146 233.052109
814.949585 1961.005493 458.717163
1247.672363 1973.576416 419.196564
1064.057129 1871.471069 538.634521
862.138977 1912.328247 421.878998
1071.041382 1838.920532 322.819275
1296.299438 2012.433105 257.852539
1252.556152 1958.278076 277.538727
1252.095459 1943.822754 241.854782
1111.490845 1875.738770 431.011993
1184.684814 1802.426758 309.710938
1176.977173 1926.543457 518.412292
1189.263062 1803.974487 301.761505
1123.195557 1876.202881 433.587311
1215.092896 1845.676147 217.524963
1170.647583 1777.659546 351.391479
1117.690796 1853.250244 443.465271
1137.132935 1855.676758 427.236572
818.825684 2079.886475 381.095581
1170.261353 1781.980469 269.414856
978.338196 1858.990723 426.492004
1278.726074 2006.720215 227.579788
1187.549561 1853.244263 432.551636
1075.497192 1824.282715 184.584885
1167.105713 1775.572144 181.197876
1079.406006 1863.886108 452.973602
1131.374878 1780.600708 302.979980
1059.091064 1837.236084 262.634552
799.500244 1931.551025 392.415283
1303.520752 2017.144531 151.941772
969.881775 1879.110718 222.302200
1232.278076 1954.606934 483.715576
1098.391113 1796.913696 241.004333
1193.393799 1804.832153 223.642776
882.282349 1927.936401 284.938965
1131.033569 1771.231934 323.885498
1066.779297 1829.993042 324.231262
876.147522 1921.396729 421.682465
1085.653442 1862.829590 562.009460
847.945251 1920.435547 327.938721
1229.877563 1848.171997 431.054443
1217.758423 1849.455811 290.907623
1123.017090 1804.343262 432.275696
1130.752075 1890.864380 474.997864
1198.882324 1805.960449 413.821930
887.596558 1911.040161 374.259552
1050.883545 1844.047485 280.114838
1176.289063 1790.251343 404.475006
1114.962158 1786.146973 281.783569
878.235474 1942.745117 464.507385
951.815796 1917.243408 450.218506
982.177612 1856.111694 203.560287
1255.304688 1964.075562 308.065857
973.079590 1884.417236 254.563065
1158.557007 1762.842285 175.052460
1229.575684 1915.575562 469.781219
1111.244629 1869.589844 519.394226
1058.987183 1831.146606 331.074646
1167.827515 1796.221680 417.349060
1161.739746 1912.835693 426.664276
1229.453369 1902.179932 425.042236
1101.947632 1856.203979 546.113464
1114.840576 1791.140137 392.445313
1092.834351 1859.970337 549.317322
979.708496 1868.917725 169.492371
942.884521 1879.717529 382.025452
905.939880 1902.848145 415.042511
1154.175171 1780.555298 263.123505
1197.282349 1915.610718 528.189270
970.275696 1874.219727 317.415131
986.449097 1943.431396 455.439850
930.066711 1905.195435 232.307281
1139.584106 1878.536621 533.105347
1264.556152 1944.770874 337.436340
1261.613525 1940.889404 159.183578
1106.235962 1869.654663 490.743958
876.705017 1925.667114 227.783096
1247.655151 1980.123413 433.315338
1128.819946 1798.570679 396.372253
1012.573242 1848.410522 438.673126
1163.945557 1766.876099 367.065979
794.890381 2017.203491 422.980530
1162.923340 1781.366699 206.615250
829.797852 1929.213257 390.863190
1270.600952 1982.105713 320.176941
817.346741 1943.269897 287.789795
1075.196167 1810.539551 257.351593
836.848877 1934.772949 223.407715
1210.365967 1930.907837 438.537506
892.740234 1891.362793 396.510406
828.585693 1914.670776 198.170425
1174.478882 1782.803467 159.150269
1184.290039 1796.973145 322.937683
946.045654 1889.147095 356.866852
1259.536499 1959.731079 281.415710
951.524048 1866.002075 202.322433
813.426758 1939.155640 453.983643
1006.445190 1861.308838 279.955078
865.457886 1957.651489 499.040161
1111.771240 1852.213745 482.610260
1262.599365 1965.656982 301.241974
846.906982 1925.413818 378.780151
1205.243286 1842.344116 347.525299
940.454407 1883.948364 259.360535
1031.401123 1845.763062 162.020676
1022.928467 1859.523071 439.053375
1079.364746 1814.698730 338.623322
1196.664063 1806.158325 155.954391
1255.438843 1924.596313 292.929443
1171.251465 1794.829956 412.538025
796.126099 1947.643433 300.754456
1184.275635 1794.767822 385.993744
889.113708 1900.750244 174.491394
906.910583 1889.649658 208.505402
880.013184 1999.132813 493.856140
1172.570190 1769.609375 154.782028
1141.130859 1768.428101 259.084412
1270.379395 1981.744019 190.423157
1046.339600 1838.567993 171.614410
1015.390930 1863.065918 291.841095
1164.801514 1904.674438 443.624054
1255.917847 1927.447754 301.939636
1191.677002 1816.097534 236.111572
1028.118286 1853.163330 273.716400
1091.568970 1796.570923 341.875061
1269.731934 1944.677979 384.459229
1217.577148 1813.871582 403.458405
997.463318 1867.601929 461.518188
1210.792480 1924.339355 467.006134
893.363281 1973.094971 480.424622
1213.109619 1863.056641 357.242859
1224.350708 1879.700684 247.694412
883.843811 1900.684448 424.578003
1236.478394 1994.797729 426.283447
872.782593 1908.006714 415.896790
828.288269 1926.089844 393.762299
984.920654 1878.579224 214.995148
785.035034 1937.350586 386.841675
1068.546143 1850.332153 361.508789
1001.242798 1864.979980 269.544952
1091.836670 1796.463379 363.735321
1125.207520 1898.150757 538.284668
1174.093384 1861.596680 433.414337
1133.014771 1782.115601 403.292664
1074.703491 1856.658447 457.132751
925.657104 1904.045044 322.454895
1012.923035 1853.844116 419.041199
885.177734 1901.085205 393.616089
933.302795 1888.550903 291.903778
1101.694580 1852.216675 470.623566
960.338623 1883.165405 238.406631
789.023193 2004.746338 416.844452
1043.237427 1904.884766 457.592072
908.844849 1896.026611 448.201080
1084.633057 1805.617188 206.728210
1265.440552 1945.859741 337.393707
1114.393311 1863.279663 575.660889
1035.239868 1852.140381 360.495087
1304.138794 2004.158813 146.994812
1271.859741 1986.054688 254.116516
1095.325928 1854.177734 434.508453
857.127625 1925.948853 450.201080
1265.841064 1971.053955 325.009491
1002.068420 1864.193604 213.870087
1072.238647 1817.613037 244.860046
1057.246460 1873.925293 319.428589
1130.971191 1899.867798 506.176300
1019.967590 1870.133667 234.408875
1104.469849 1789.704346 303.481476
1184.170288 1888.258545 426.254120
850.511108 1918.915649 356.332825
1199.672729 1819.190796 212.632492
1034.340454 1869.192139 451.868805
819.896057 1927.554932 417.244446
1169.401123 1781.186890 242.985489
933.121521 1879.769531 193.428909
1199.197876 1826.023193 315.432617
796.267883 1946.973145 372.497345
1215.601563 1865.734619 327.812988
753.564392 1975.111450 355.687927
1265.526001 1976.084229 241.375671
960.335815 1861.659912 421.869415
1203.496826 1928.417969 463.043060
984.171143 1860.737427 384.889130
851.566162 1950.844360 474.734802
847.509216 1927.271240 413.203339
1188.050659 1921.858887 509.608307
1189.394409 1887.192627 437.302979
1112.482544 1797.485229 314.389465
927.625977 1882.267456 180.099182
989.263123 1869.744995 174.442337
1098.049316 1848.324951 421.019165
1193.681763 1811.225586 369.676697
1040.466919 1847.701172 348.845398
1202.969604 1807.344238 414.632141
1210.053711 1911.801025 431.418579
1217.557129 1881.670776 165.387970
1039.179810 1840.198120 349.325531
1048.031494 1846.075195 204.968033
1186.827026 1797.980835 185.859909
914.279175 1893.650269 396.572083
1190.952515 1807.397461 371.396790
1082.790405 1863.404175 454.146301
869.303650 1913.553589 434.060730
1195.296509 1817.098999 184.285812
915.828979 1876.464966 163.083191
775.012634 1954.614624 390.449188
961.946289 1870.688843 403.430359
1071.199219 1809.082275 286.785492
976.832092 1882.252441 270.554260
1171.482910 1799.602783 159.889236
1219.890137 1873.031372 304.371429
1224.958252 1838.454102 422.161102
900.481262 1933.829102 461.101196
1130.118164 1788.569580 404.958679
1284.813354 1973.565918 271.882690
1200.841309 1829.552734 174.517914
1117.130371 1881.950562 435.962311
901.211853 1898.259155 435.859802
1167.559570 1759.800903 244.821198
1141.890869 1782.335815 416.167847
1172.959106 1791.518555 398.206451
1094.791870 1801.208008 200.897476
1064.033447 1820.018066 214.592743
1291.041138 2006.666748 217.283447
926.194397 1891.428101 220.970032
1008.631042 1858.752075 457.312836
1104.104980 1810.336914 223.434830
1047.049438 1827.590820 226.942535
1162.943604 1764.339966 361.316101
1149.998169 1891.692627 434.979065
988.049805 1878.361572 247.448471
953.060608 1924.448853 457.116943
1169.549683 1818.759766 428.989777
1196.649658 1823.033325 367.715179
825.090271 1950.237915 298.022339
1140.386108 1771.657837 326.594330
1158.688599 1929.607300 431.126038
937.499939 1916.892700 473.495819
1122.582520 1810.114990 163.055374
1031.685913 1843.617432 165.746277
1264.109253 1946.087646 246.150909
1009.192261 1849.093872 387.105194
1140.938110 1785.262817 163.093292
780.616089 1962.005737 181.368271
1208.513916 1845.833862 438.410187
815.603333 1958.058594 307.046539
1149.642334 1782.300781 409.144318
1246.715820 1922.226074 233.699753
1162.301392 1761.358521 258.677856
1226.549072 1909.741577 241.562622
1068.694214 1876.497559 433.805420
1228.897949 1869.220215 192.045212
1199.987305 1881.757080 432.828217
1282.436890 2018.932007 159.107910
1197.329224 1843.337280 361.774323
959.813965 1880.343872 245.391403
802.280701 1928.968994 303.438141
1067.741455 1824.443970 176.418839
1039.614624 1843.149292 430.009369
1292.634277 2021.603760 149.021271
1276.127563 1967.609131 332.380493
971.314514 1881.213745 236.829544
833.616760 1930.059448 427.964874
1141.684326 1779.902344 281.508942
1178.257080 1923.821411 437.123901
1014.389465 1855.199707 353.508270
891.437134 1929.086426 345.274994
1058.199219 1860.232666 423.984406
1106.553101 1802.154297 403.911499
1126.598999 1776.674438 304.721497
887.317810 1965.826904 480.070648
1279.490356 1980.727417 350.009155
1141.466431 1776.670288 276.963623
1185.811646 1844.998779 427.503998
1085.782959 1891.746094 316.350311
799.399414 1946.184204 247.408264
1207.681885 1842.321411 259.644440
1170.530884 1763.455322 358.587677
1267.878784 1980.990723 158.455032
1264.090088 1971.145752 197.560211
965.449341 1865.581299 412.797821
861.421936 1908.339111 379.493652
1263.740967 1942.285889 337.573273
1161.395996 1782.317505 389.036316
1037.112305 1960.782959 468.327423
810.284790 1942.334717 303.418732
1146.273193 1789.055298 153.812576
1221.660278 1845.527710 388.901245
1289.556396 2004.371460 191.808624
1254.384277 1939.212891 234.307053
937.929504 1874.886963 414.456604
1026.768433 1819.269409 161.397720
1192.463257 1814.541992 387.433563
1074.581543 1865.775513 525.337708
891.337830 1900.321899 423.042816
1253.636475 1945.246460 355.171021
1092.409424 1850.580811 431.702026
1047.074341 1845.552612 370.480316
791.345581 1943.968140 229.038254
1138.565796 1769.290894 305.180573
1277.236084 1996.819824 315.080017
1005.636292 1865.588135 260.402435
1101.412964 1804.118042 426.639069
793.404480 2009.174561 436.085663
1120.506714 1880.996094 561.721252
1210.949829 1835.887085 415.355530
1069.112183 1815.443604 280.822815
1194.750732 1823.088867 374.208130
867.185364 1914.490601 218.693390
1046.739136 1827.498169 231.535385
1052.696655 1830.706787 371.964417
859.326843 1927.632568 449.762177
1089.660767 1869.116577 474.296600
1169.219482 1793.302246 170.605713
1038.470581 1864.817749 436.750305
1089.014771 1806.587769 404.264130
1092.827637 1864.883911 581.305542
1214.320190 1841.933960 315.066620
1067.784424 1869.806763 559.929321
1214.125610 1927.161987 477.186096
1209.506958 1851.564941 174.584366
1196.022583 1809.270020 406.998627
1226.596313 1835.091431 151.008728
805.177673 1940.701050 322.731079
1176.101074 1769.719360 353.235260
870.658752 1912.648560 218.404404
1134.529419 1797.499023 167.156540
1182.417114 1783.841553 337.926270
1007.287720 1847.025757 418.728424
1167.769531 1774.647827 397.441620
830.200562 1922.819214 196.740982
1076.377808 1862.908447 435.145233
1212.605591 1821.793457 419.076355
909.173706 1894.958374 169.687698
901.373108 1892.117798 160.495926
936.736633 1891.306152 446.329926
1172.599243 1906.267578 451.715759
1259.066284 1954.044067 367.058929
972.142639 1889.515381 467.190033
1112.362671 1862.725098 484.318878
1253.404907 1940.231689 288.040314
1115.327881 1845.952759 448.536621
1217.598022 1890.399536 253.474869
1000.981628 1898.559204 457.488617
923.840027 1884.680786 422.422668
1181.701172 1926.292969 498.012787
791.186157 1958.017334 351.416290
938.597473 1892.613159 221.966446
941.391113 1903.903687 273.874268
947.714294 1885.091675 256.124542
1093.595337 1855.251709 550.833191
1078.944092 1825.564087 429.902466
1072.468628 1811.488647 326.964722
963.220703 1878.167114 251.097183
988.517029 1856.803223 445.843109
1115.924561 1875.571411 472.548615
856.735352 1920.069458 171.606827
812.643250 1930.689209 257.669342
1168.503418 1912.587280 466.464050
1141.213623 1772.246094 315.014160
940.035950 1968.028564 465.370728
881.245300 1918.858521 197.639313
985.612000 1868.695557 326.493622
1287.521973 2016.208862 216.687180
972.002258 1863.671997 413.599030
1198.146851 1909.047974 510.928009
1008.493225 1859.698486 304.799896
1204.190674 1835.214722 315.080536
1115.050659 1786.972656 253.408768
1235.175415 1900.378296 322.929199
1074.384155 1815.297241 219.143555
932.250916 1888.697754 427.946106
1262.774780 1962.068848 350.997437
1156.141113 1765.550171 285.891174
1243.983765 1923.128418 371.824219
1221.149414 1866.958130 170.376297
1130.114258 1791.469727 427.877594
1085.999268 1797.769775 270.299713
1241.661255 1912.366089 209.358627
1005.090759 1864.989990 214.018326
1127.311279 1798.557739 425.747528
1060.925659 1823.829956 394.160278
1026.872925 1855.292603 207.195313
1108.627930 1800.672119 160.121048
1083.252686 1860.130249 459.106964
1246.062256 1942.398315 343.751740
1257.992432 1863.372070 412.889404
1271.472046 1991.278809 260.907196
1160.789307 1785.572632 427.879059
990.781372 1858.211914 223.020264
867.393005 1944.688721 473.656891
1237.513916 1894.357910 155.308868
1139.258667 1782.833740 369.049561
901.843140 1989.066528 467.383026
1078.012451 1809.007324 378.118530
1034.233032 1843.599243 427.715424
1268.271118 1945.842285 156.222519
1151.847778 1775.067505 382.377472
1093.706299 1855.174805 427.347260
977.515137 1873.258789 180.119324
1032.191528 1868.702515 246.857178
1146.038818 1922.407715 439.146973
877.388977 1908.641479 287.695740
950.937866 1885.247314 333.760559
1171.714355 1765.856567 381.509430
858.809814 1910.482422 395.617584
920.404724 1900.934448 225.222260
1211.033203 1876.496704 326.136078
1244.859253 1929.649292 149.089630
845.386292 1928.675659 440.963623
1089.603149 1806.462280 273.446564
796.762817 1985.040283 441.956543
995.778320 1863.983521 310.712189
1285.517700 2005.094482 357.139252
1142.025269 1780.861084 239.833069
1199.339600 1837.345215 420.819824
867.438965 1924.526855 436.508728
1106.586182 1812.249512 416.854523
953.653992 1875.324585 398.815430
960.601746 1880.755493 247.540771
1226.791626 1869.521851 219.354126
822.715271 1934.617676 400.049255
1202.629761 1917.463257 440.050995
1131.339600 1779.034668 238.690826
998.617798 1847.409912 201.183029
1268.983521 1977.922363 328.504242
990.590637 1863.160767 408.802795
1086.852051 1813.471802 428.896606
1238.080811 1942.163574 433.167542
818.692139 2079.927002 376.897705
1097.455933 1793.802368 373.203430
1214.450806 1902.891113 490.203156
795.146851 1943.720947 386.059143
1053.178589 1813.219849 177.260941
1144.825317 1770.530029 242.494675
861.904419 1998.227539 497.147736
838.090088 2124.297119 398.119873
1117.809082 1839.581909 463.105804
1191.899902 1815.419922 230.193878
1065.005737 1874.209961 569.705933
1077.147461 1806.537720 204.031921
852.072266 1934.122070 468.978149
1184.361572 1821.568115 300.245331
1030.495972 1866.350830 306.812439
919.812073 1887.942749 261.336304
998.203674 1870.355835 257.545532
1221.458130 1820.420776 402.716797
803.194031 1954.789795 426.983643
816.774780 1932.124146 285.964844
952.293823 1886.360962 317.287476
791.275452 1941.976563 378.294983
1027.239624 1840.113281 425.683380
1267.637695 1969.881470 209.158585
1136.840698 1771.134277 319.532379
