ply
format ascii 1.0
element vertex 1429
property float x
property float y
property float z
end_header
-28.386223 2113.491699 47.547916
278.816956 2241.499756 244.996429
257.997345 2217.963623 225.292969
-115.131599 2112.068604 63.649223
-4.812114 2125.577393 86.440598
195.970184 2180.726318 179.579407
179.872986 2132.442871 130.225983
259.281006 2221.597412 223.951202
109.424957 2152.574951 -100.550865
194.126480 2258.240723 1.032525
128.947708 2116.335938 42.204880
-44.191952 2115.000000 38.039635
-64.756058 2110.438965 206.095413
-130.149124 2097.354736 113.756531
-23.272858 2133.532471 351.396332
119.118134 2420.245361 -66.031273
46.770271 2123.677490 264.869446
162.293045 2125.289551 -13.024930
202.113647 2153.998535 134.536072
-128.275467 2168.111572 310.682312
-44.383026 2139.232422 375.883850
50.656963 2149.041504 321.116516
-15.144611 2118.586914 263.490997
56.806202 2132.494385 131.874573
252.332565 2372.684326 49.918472
176.398636 2138.449463 20.216867
-95.739120 2108.021973 63.286236
274.454651 2250.813232 58.067570
247.172333 2279.168945 164.771240
-1.421032 2165.618652 379.035614
129.474167 2116.081299 59.954632
155.677338 2121.988037 74.636124
223.114075 2214.250977 190.208115
75.401009 2130.287354 169.121262
83.361862 2235.846680 -121.546257
136.832001 2132.688232 -25.891500
47.452023 2191.179688 335.316803
39.463131 2132.301758 -8.295990
206.854248 2279.131836 150.918686
145.803375 2142.550293 229.477341
143.860336 2174.558594 253.218781
172.404678 2133.958984 158.396225
64.920135 2134.049316 98.594604
202.329208 2163.977539 153.477676
137.332657 2207.259033 -75.892273
-155.264771 2108.256104 118.492134
169.124420 2322.239746 -8.498939
235.424423 2183.687988 53.228226
83.537956 2133.744873 207.608414
165.858276 2114.322754 77.826538
10.880829 2143.851563 46.279259
97.106384 2102.676514 21.302422
-164.632507 2090.598389 148.796722
218.976959 2126.998047 49.102058
-46.971531 2114.836182 91.719681
225.813934 2200.029297 216.279846
177.224091 2142.418945 170.601578
190.271957 2132.133545 126.797020
44.099361 2153.517334 315.707733
-12.313570 2131.019043 -25.816887
187.100403 2130.073730 40.786072
211.215149 2134.157959 97.902298
61.706573 2139.116455 161.933884
284.204315 2173.040771 89.509033
27.336363 2123.548584 256.278656
-123.894936 2113.959961 270.612000
119.900963 2118.114014 6.941608
165.105072 2261.212891 -32.871334
7.876534 2133.317383 182.402100
-55.930790 2112.169189 199.044144
174.412247 2121.775146 38.394947
80.587738 2130.566406 175.783737
-6.272768 2133.195313 359.742798
110.960228 2246.384277 -82.647964
216.933151 2169.424561 16.581146
161.973663 2199.637207 225.350067
191.074966 2135.788818 104.181175
118.681793 2155.147461 233.151443
197.639069 2154.085938 -0.172283
260.180664 2211.024658 58.379757
236.421204 2190.302979 253.027847
212.095093 2130.840088 35.330330
128.380646 2206.446777 -89.986649
-44.857929 2118.062744 299.382568
231.907867 2168.802734 121.301567
-32.148094 2115.955078 74.659966
260.129364 2200.497803 94.966927
146.453720 2145.406250 206.585632
131.451797 2185.070068 234.644989
216.766602 2187.161377 30.895891
125.013451 2135.503418 83.738556
239.342422 2235.333252 195.923172
218.584839 2154.660156 6.040167
98.258606 2232.585205 -114.181419
44.585854 2130.660645 137.782898
194.567307 2122.187500 66.741844
-6.280341 2139.971924 329.929016
176.014328 2132.476074 98.740768
205.052094 2342.833252 27.015459
194.827957 2122.692383 61.253456
119.853920 2137.481445 112.715317
111.593819 2190.553955 -133.158463
149.881714 2115.530273 -25.244232
266.968964 2255.175049 53.869949
39.084030 2166.598389 328.371246
256.164093 2382.845215 75.329681
147.021790 2193.386475 -65.455116
181.903107 2160.211426 -20.545225
248.390610 2210.929932 97.633873
-110.506104 2119.427002 70.957672
114.468155 2159.146240 235.263000
219.658386 2138.485596 64.054420
172.942749 2194.916260 -24.482925
-56.879330 2107.964111 45.370964
282.241516 2285.913818 199.962631
146.561340 2146.477539 208.271347
151.953278 2210.671631 -54.405544
-19.094728 2122.024902 350.375397
-58.652111 2123.875244 358.878418
-100.873489 2104.210938 239.581573
-13.064577 2120.930176 327.374878
196.014740 2139.103271 145.129059
139.891708 2369.186768 -62.896385
204.188080 2386.176758 31.087271
268.636597 2345.549805 142.127319
139.555344 2344.400391 -53.062256
134.058334 2121.126953 -11.247947
248.059647 2310.292480 103.272774
263.422302 2150.655029 88.453773
132.458038 2194.217285 -74.577080
122.690353 2138.922607 146.841858
63.951988 2183.905762 30.831383
93.015465 2219.372070 -124.240791
269.809113 2292.153564 188.524719
-30.027096 2110.634521 59.540604
93.730057 2124.483643 264.180573
131.727020 2107.958984 87.072906
128.249573 2116.108154 49.897911
167.420547 2173.233887 -38.373856
224.752869 2201.190674 197.420822
11.081595 2133.910156 338.795624
79.979935 2424.515381 -136.284424
19.658983 2135.184326 218.590179
-123.969147 2115.513428 339.607147
98.484970 2156.354980 290.386108
112.368233 2293.788818 -82.739426
184.105484 2214.476563 -24.023441
220.212540 2183.971436 29.959835
105.049965 2121.921387 -55.167873
254.966660 2147.948486 84.409073
213.540543 2131.324951 81.733467
114.753441 2129.620850 131.713364
118.213280 2124.719971 -75.821640
76.775848 2145.213623 85.142990
-161.377136 2092.254150 170.999969
23.768946 2131.440918 137.934265
219.551102 2210.163086 18.587132
140.308472 2306.450928 -54.309868
214.250839 2147.498779 -4.829754
40.858093 2136.670654 155.847885
-12.949387 2118.645996 48.221508
4.405881 2199.366211 403.255035
-52.335236 2088.599121 21.204756
260.607727 2282.298096 76.254410
103.079308 2144.732422 -117.256317
-81.433121 2110.930664 350.333191
216.192352 2232.016113 26.468742
-95.206039 2107.755859 332.783295
94.956100 2351.489990 -104.665817
127.016800 2145.184570 133.344025
260.086182 2286.207764 164.832108
-63.980560 2110.109375 169.134750
72.896889 2116.998779 31.050314
209.971329 2195.642090 11.913210
112.414490 2358.108643 -96.773575
96.849419 2105.645752 -86.397606
101.889114 2145.069824 157.116364
-82.388367 2107.120605 250.978806
86.922050 2126.772949 221.667130
237.946625 2291.965088 199.208817
206.010056 2345.849365 39.766346
179.796677 2135.232910 119.398453
104.805016 2127.971436 -106.070221
-70.663719 2125.788574 258.389404
-93.455826 2098.866943 101.232689
153.961060 2122.827148 -69.753548
266.448029 2244.973389 243.587357
17.491585 2140.921143 343.771606
135.366043 2139.560791 244.535538
215.809143 2157.216797 124.561852
103.600441 2127.865723 245.508530
259.130615 2376.089355 74.420013
-40.454758 2112.416016 274.430359
143.090988 2126.287354 82.023712
250.283615 2321.789551 78.076416
6.287430 2120.960449 182.338806
43.412502 2158.814697 324.823547
45.975830 2116.192871 -23.271351
60.003548 2127.500488 -71.821304
191.465454 2332.633545 -4.806370
-31.274231 2117.760498 253.448929
32.160961 2130.072266 131.472931
117.443260 2127.732178 -56.681690
-37.005985 2119.106201 135.452667
-61.272926 2124.258301 370.959595
42.570969 2137.952637 295.787781
-133.097382 2126.531738 245.174911
18.582529 2132.203857 167.631866
230.953354 2379.369873 90.390259
228.098007 2269.055420 159.281906
115.565872 2135.101563 -49.812244
31.513445 2149.826660 71.463730
-115.178902 2102.260010 287.739410
27.004999 2131.828613 86.130264
215.134781 2127.803955 93.061584
-38.834385 2131.164795 361.955811
76.191093 2335.751709 -129.101791
-23.811419 2120.542480 157.439911
130.084015 2123.177979 53.957767
117.975113 2126.289551 -49.198662
-41.014072 2121.355469 278.654938
100.267761 2141.392578 176.585632
233.624481 2204.914063 185.192169
244.406845 2134.710205 77.623344
117.937500 2154.909668 -105.157036
216.168198 2321.247803 23.714808
232.545410 2203.397949 208.812286
92.843849 2329.439941 -105.213722
155.014206 2224.441406 -51.621815
63.766994 2129.601318 148.166977
-56.864338 2105.983398 62.578705
-40.364891 2117.177979 319.489349
144.300400 2119.850342 71.400352
211.549088 2263.059326 172.560806
250.896133 2266.175293 94.122559
-1.513554 2121.603271 16.449192
131.481567 2280.510498 -70.518997
251.307632 2219.842773 99.495438
97.879723 2298.569580 -121.437683
131.119568 2130.509033 227.794083
-159.096100 2101.717529 225.188553
-83.544113 2108.764404 66.871208
78.500961 2141.418213 180.622375
223.834503 2279.495605 122.744781
107.838402 2404.060791 -78.411346
278.389984 2241.322021 64.548561
-110.994812 2100.322754 296.211517
-137.371109 2107.601318 91.916748
-223.452911 2317.530518 212.815323
114.588127 2239.693604 -87.916336
258.680359 2213.688721 54.684708
169.805740 2122.936768 -20.787104
170.827530 2283.278320 -22.352575
215.088699 2194.474365 131.444916
201.810516 2128.342285 67.192879
249.759140 2294.419922 153.923584
300.191345 2237.351318 70.025429
-3.664642 2105.549805 295.870636
135.618378 2132.470703 -37.768570
41.477390 2142.437012 315.456726
176.573776 2195.906738 -31.179243
76.812439 2108.118164 40.371994
257.998230 2342.542236 77.406143
92.262276 2330.333984 -132.240753
-68.238510 2118.965088 191.203873
-114.412323 2108.236328 87.032310
213.578247 2192.021973 187.069901
275.284607 2339.891602 139.235413
235.520767 2134.050537 50.117680
184.176208 2357.452393 0.698299
111.613510 2283.263672 -91.687752
197.553909 2142.499023 -26.483633
231.528793 2363.287354 90.792030
248.624664 2246.625977 51.233887
251.273560 2147.461914 70.522217
236.823944 2345.292236 43.758045
-56.278400 2212.904297 391.246094
162.983994 2132.879883 127.180344
33.993668 2128.635986 234.230057
150.879120 2119.398438 36.958904
-4.837735 2117.643555 -6.427068
116.708961 2354.402588 -76.130730
83.975075 2124.022949 21.238369
181.902100 2138.328857 65.936134
187.734619 2137.392090 123.879341
-141.067184 2163.187988 296.838074
196.886215 2190.425293 164.008591
266.953644 2399.017334 55.845955
238.218323 2289.573242 145.648163
273.563751 2326.775146 138.189926
23.415445 2124.732178 183.174515
197.849808 2388.270752 37.698193
-110.269859 2155.296631 330.241516
232.689651 2363.776123 111.206902
47.046482 2133.370850 181.689804
16.816311 2137.324219 369.924713
-19.569229 2129.565918 137.931000
179.522079 2184.176025 194.159775
34.442089 2143.295654 102.773323
-55.032913 2112.843994 271.207336
6.803150 2127.830566 218.363510
-201.626190 2165.199951 222.277893
200.419342 2130.007080 68.143829
211.323151 2191.673584 183.785614
-1.072662 2112.875244 10.302408
117.215042 2255.894287 -98.615639
26.557611 2224.429443 361.930145
189.152893 2286.299805 -0.137960
-9.228588 2120.567871 99.037888
183.040176 2370.935059 9.315625
-54.934841 2107.170166 294.183502
165.328247 2124.142578 113.258492
172.765289 2352.879639 -11.761583
247.325455 2196.853027 242.738083
-179.305359 2090.450439 124.421486
251.002380 2282.930176 98.057228
-96.516563 2125.834229 206.733932
56.682369 2123.403320 220.737701
225.477783 2283.088135 41.033981
153.684174 2118.175293 -26.905664
199.058395 2192.242188 172.727020
44.952332 2130.960449 223.699493
102.833366 2125.920898 24.630476
102.235725 2395.206787 -87.090157
265.329926 2319.361572 92.689896
127.434425 2407.089600 -69.860130
-45.986134 2127.305420 116.829567
181.984726 2346.050293 1.798757
-20.950138 2112.406738 305.616760
20.205839 2130.924072 247.140900
31.188272 2135.045410 259.667084
171.281311 2187.631348 -35.572113
151.666809 2131.801270 -66.968369
272.392609 2156.545654 81.490746
-98.578369 2072.016357 68.917397
123.342278 2383.552490 -42.079353
169.685181 2150.729248 168.225693
144.037964 2134.533936 200.073547
2.928602 2119.756348 325.913239
-74.620148 2131.148682 334.407867
-2.404122 2135.004883 246.730881
32.835682 2123.604736 69.149078
106.219269 2138.476074 261.409729
158.185776 2115.290283 -16.260418
116.285057 2143.502441 214.066925
134.461563 2315.342041 -62.171425
-37.979733 2106.901855 50.302773
92.148003 2119.334717 259.137543
-0.478544 2111.508789 40.836388
10.727770 2112.897705 20.712999
87.272858 2140.020020 87.646790
-117.111389 2111.582031 239.163284
266.747223 2200.055908 67.880798
36.797043 2190.153564 365.113098
96.943428 2219.141602 -129.751816
183.721222 2121.062744 -53.797302
264.285797 2259.326172 82.727043
106.503891 2128.394775 219.552551
-133.828293 2095.163330 177.779312
185.513885 2135.735352 153.019348
190.470078 2175.689453 148.245270
-38.903229 2121.611328 149.535248
276.646667 2275.238525 69.951073
231.100342 2152.829346 66.153038
211.345993 2386.575439 111.810783
-143.649155 2088.143311 210.033386
292.378418 2305.175049 164.581711
144.865204 2169.380859 252.368881
-49.266930 2111.766357 250.965698
66.888809 2170.249756 293.837830
79.858093 2140.047852 207.967957
40.955791 2130.093018 84.374611
72.518806 2134.631348 -91.198570
41.232292 2118.855957 -2.067161
97.973473 2360.520996 -98.119598
-49.215927 2107.584473 72.985374
66.512871 2131.753174 86.920959
-33.183342 2136.049805 370.834442
94.631897 2309.189453 -108.173088
-58.582317 2111.224365 170.059647
-91.054367 2108.223877 256.218048
-149.821579 2099.863037 268.982239
157.392014 2133.378174 -42.544247
51.233212 2133.140869 91.852371
181.596909 2121.134277 -58.038441
104.552376 2129.759766 217.286743
-130.550888 2095.332520 104.317955
-121.611961 2109.189697 215.477158
226.610626 2237.672119 37.238014
-111.550354 2100.318359 310.643097
-135.765564 2163.692871 303.085052
148.764557 2107.344238 27.120352
281.798828 2214.081543 48.553967
110.812111 2135.787842 158.484283
196.829391 2187.444580 195.395035
240.287460 2152.957031 114.676872
47.514156 2120.844482 -55.790596
237.653671 2293.546387 111.180443
109.286453 2115.279541 50.009727
17.301722 2132.099609 85.138214
63.716694 2126.349365 267.920471
107.110359 2161.939697 -106.555786
-129.001526 2138.288330 137.079407
214.314590 2287.116943 30.997938
189.095108 2181.450928 186.676193
175.734192 2121.080811 46.273918
-39.369789 2120.127930 336.188782
209.182114 2190.389893 202.770935
263.339661 2319.077881 126.013290
48.825920 2130.060791 145.676163
84.592537 2132.038330 -91.729477
247.183960 2291.278076 99.797806
248.408264 2301.164795 114.888245
280.106628 2203.074951 279.250946
111.600052 2183.721924 279.289154
221.540466 2224.225098 184.939957
262.862457 2372.874268 71.668579
176.862396 2295.092773 -13.792549
-74.123894 2113.173828 205.204239
104.936867 2136.185303 186.037659
143.695541 2116.847168 9.004881
128.510208 2160.156250 128.756363
15.609159 2138.741699 55.802189
101.688423 2135.168945 153.609085
85.002136 2173.509033 50.766106
57.545593 2132.273682 196.530411
263.672546 2321.072021 131.161530
146.362045 2319.119873 -36.525459
160.205276 2368.349609 -21.766022
152.732864 2117.988037 -25.788139
180.324966 2360.458496 -1.283663
-16.745674 2117.513672 57.579411
240.914383 2319.104492 100.048073
141.684204 2348.498779 -50.106071
75.692703 2152.833984 297.418671
273.597687 2297.234375 179.522705
-123.530952 2108.697754 210.375519
188.847824 2169.095947 -13.982702
278.467377 2256.899658 76.668312
-18.184641 2125.744385 155.014206
259.036194 2155.999268 84.824791
193.233276 2136.221191 48.715263
50.737408 2125.425049 244.475403
143.950851 2181.974609 -70.183800
140.385864 2151.224121 233.931595
16.385914 2136.171387 135.539963
235.938934 2215.024170 227.268234
149.487000 2203.051270 -50.596603
-43.625069 2117.658447 73.180534
265.755737 2333.145020 132.648697
193.709869 2141.312744 128.585938
265.507050 2318.336426 142.487793
55.723789 2132.714844 124.227417
183.111191 2376.462158 5.450738
231.251022 2153.110107 106.829887
149.229935 2135.627441 174.489426
268.036835 2194.997070 225.131241
232.906021 2356.742188 45.498402
220.932541 2233.737549 39.226223
151.511688 2127.901611 124.319412
-122.083626 2113.593018 196.461609
169.196381 2187.135254 182.927933
96.437805 2117.058105 -1.211214
186.380951 2140.364502 29.131813
181.604126 2154.617432 -11.550153
26.594460 2139.121094 14.290031
28.819950 2124.337646 220.042450
158.263275 2380.833252 -17.739325
207.584488 2237.658691 136.862259
140.422363 2142.926758 209.391190
145.972107 2134.560547 165.463898
-131.056747 2184.561035 308.887482
251.232361 2139.806885 60.402599
36.085407 2146.582031 345.083496
196.787933 2151.767090 -15.599335
185.536896 2119.823975 5.239058
202.803345 2318.614502 18.348286
171.563019 2185.757324 -25.043610
89.973427 2255.059326 -113.819366
83.860687 2132.455322 60.265041
153.692505 2157.327393 241.150848
172.434036 2357.150146 -8.267895
262.225372 2192.441162 225.489136
-14.890917 2068.692627 11.796976
-34.182594 2132.293701 349.229767
104.755539 2311.681396 -108.071342
143.651077 2213.419678 -64.221771
-24.885489 2122.392578 358.261322
191.879547 2139.571533 130.501694
155.464478 2383.979248 -26.355206
87.391113 2250.506348 -123.030403
-169.483780 2054.863525 142.219635
254.724258 2202.488037 58.709904
169.491287 2277.772217 -20.594723
217.849380 2384.166504 104.592316
-72.375641 2109.015381 73.552582
35.758759 2180.921143 326.207336
-60.849754 2118.291504 337.632690
147.448303 2190.169922 211.497742
225.191986 2233.015869 38.275826
239.004532 2156.731689 68.760757
100.332626 2117.034912 13.599350
78.983894 2131.361328 133.799683
79.737045 2121.615479 240.580276
28.088507 2150.581299 362.725525
157.974182 2275.720215 -40.359325
251.232788 2306.680176 47.826202
205.084076 2183.504639 177.855560
-52.516132 2191.339355 390.161072
39.678612 2130.165283 89.791832
269.213745 2152.481201 76.953827
204.763702 2331.082520 24.328196
-174.760544 2091.203369 192.007294
174.144623 2131.679443 95.742096
52.087700 2134.748535 80.254074
158.652374 2149.670654 -46.813168
221.154938 2186.370361 173.484787
204.826157 2254.626221 23.106026
-29.166386 2114.204102 43.268055
151.691162 2187.716797 222.265228
-25.158428 2097.588379 -3.427782
184.720520 2306.741455 -1.901832
245.428482 2243.662598 201.204086
171.473206 2119.937988 -25.191910
261.963806 2196.836914 76.885162
-140.289169 2094.024414 188.252182
283.054321 2337.922119 156.853485
99.034348 2135.130615 150.179688
246.327072 2197.161865 97.623375
238.585373 2270.877686 109.209236
181.561325 2124.877930 90.272682
208.587219 2172.009766 12.908010
90.033157 2208.202881 284.416229
80.545380 2279.298096 -108.606171
131.124619 2242.485107 -71.521591
-77.661827 2120.236816 310.533203
117.591530 2144.846191 -91.538834
175.993073 2121.345947 -4.359330
128.241318 2119.424805 -3.736480
70.082619 2119.253662 10.890560
287.008118 2200.824463 253.284042
-19.500338 2132.100342 248.917786
278.579803 2231.780518 68.955864
211.233353 2152.131836 132.951477
94.607147 2243.882080 -121.248619
150.983963 2188.895508 205.458435
-52.686123 2120.803711 143.594604
118.401115 2119.667969 -21.032717
227.386276 2230.085938 25.331657
113.157829 2294.663818 -91.691559
124.709885 2285.406006 -76.536537
144.589905 2142.049561 119.074745
194.702316 2375.710938 5.205567
251.386002 2348.341064 72.062393
270.003937 2197.834961 251.764313
43.524307 2116.661377 -7.052889
245.277863 2212.281006 230.209991
15.193423 2144.030518 50.998867
14.814150 2133.797119 275.285797
3.128790 2121.066162 -27.485186
189.148193 2167.880859 151.035751
282.169403 2302.080322 153.144119
181.716324 2133.979980 49.857967
213.617706 2212.456543 6.337592
92.045700 2226.630127 -113.691910
185.146744 2172.288086 158.934845
5.354395 2125.366699 341.311218
125.059677 2165.188721 -93.191017
46.460354 2137.043457 172.199097
180.038284 2228.668945 -19.995264
151.141830 2351.248291 -37.846684
278.616821 2208.714111 271.552216
185.828491 2129.780273 45.756680
278.596344 2288.720215 43.055149
85.036133 2135.221191 85.766624
-151.984985 2100.966309 171.158936
84.630051 2276.664551 -119.605965
53.828712 2113.184570 -21.861864
-36.123508 2123.433838 137.530121
-46.049847 2083.011475 23.157995
-156.147400 2091.471436 140.839767
199.704254 2270.438232 12.812417
274.018555 2345.427246 57.473991
211.652054 2157.355713 134.176880
144.535995 2148.457275 225.206543
-81.874687 2110.589600 132.994263
141.959732 2210.510254 -61.542553
206.718491 2223.483398 169.010468
220.702347 2201.938477 159.841537
155.715118 2269.392822 -56.636757
155.267456 2312.817383 -33.431946
153.229660 2164.913330 183.617493
270.048004 2233.259277 211.673309
-14.328585 2127.553711 -16.538425
293.365265 2301.504883 171.118301
250.081192 2224.030762 212.816833
225.137192 2204.313965 145.814087
205.055511 2141.683838 119.889481
221.652359 2253.433350 127.952255
255.115631 2258.939209 81.808952
191.739746 2354.024414 13.262625
135.703140 2166.844482 244.603271
-130.819687 2092.451904 141.677475
-66.328285 2109.359863 165.922241
271.639801 2165.607666 94.957443
165.612045 2222.618408 217.740601
123.787895 2260.621826 -81.743965
148.052353 2124.949463 5.764170
57.995922 2133.896973 168.409317
202.515808 2201.646973 -1.440106
-173.045639 2103.102539 179.532898
195.589447 2192.115967 205.322037
262.116089 2332.290771 126.019470
209.706741 2140.244873 38.408916
205.728424 2323.679932 36.135983
4.540524 2120.978516 57.527977
137.412872 2130.043945 174.840134
6.222994 2125.119629 145.825699
112.750122 2136.612061 114.085754
280.651428 2333.451660 154.382675
40.105412 2111.523926 -56.653458
40.395611 2116.451660 301.217133
221.863541 2142.066895 51.531273
187.032516 2172.028564 -20.848417
134.204453 2114.943604 54.871017
39.867222 2129.386230 75.477722
192.360794 2133.253174 119.351494
12.979190 2125.852051 109.175667
206.439301 2207.355713 171.320999
103.493370 2188.171875 -103.705719
88.951340 2201.686523 53.659092
168.700165 2121.416504 42.457653
126.987579 2214.530273 -86.930450
239.622772 2139.346436 75.710022
-104.180405 2156.313721 253.805435
232.181976 2247.997314 49.404884
161.903427 2348.642090 -37.856339
209.946075 2242.115967 20.001139
143.152359 2132.842529 186.498840
-168.577423 2100.803711 238.098846
269.634979 2267.944092 58.705879
198.119629 2128.302002 64.775909
249.436081 2134.541748 61.987556
215.121948 2250.609863 13.578045
-109.472603 2104.389160 140.349335
119.910675 2127.714844 203.006851
169.740067 2281.886475 -37.965828
-116.567299 2100.859131 194.483170
146.175217 2155.441650 250.766983
6.603118 2125.083252 101.287422
143.600571 2178.028320 209.938354
276.422760 2215.794434 74.946510
226.878967 2190.384277 237.508530
-18.588484 2127.969238 -16.169865
309.735779 2277.999756 192.675873
-97.307625 2119.400879 293.110413
257.402069 2205.021973 211.063477
37.895805 2168.052246 345.212891
-7.226039 2129.100098 121.381432
97.594643 2128.108154 -116.794739
48.136864 2143.232178 306.165283
253.111938 2337.751221 116.586609
95.817978 2201.887207 -110.289085
153.987686 2127.041748 85.463524
141.788284 2138.982422 109.794983
243.802032 2257.428467 106.788780
-9.027673 2126.433350 -20.618340
142.332489 2121.996338 15.722012
138.287979 2159.910156 -71.150162
125.151199 2311.394043 -71.665794
73.366928 2137.576904 -86.972603
204.701691 2285.756836 28.191425
165.580124 2122.889648 91.024315
132.721161 2324.056152 -75.494110
65.483383 2127.422119 280.431458
229.718338 2229.303467 178.213043
-34.698044 2136.281494 371.128632
246.671051 2156.788086 44.329681
157.122314 2204.133301 -28.014616
171.219589 2133.653809 121.667725
-97.919426 2122.814453 281.451172
-22.289263 2118.296143 339.151764
191.687469 2152.977783 -1.906852
111.024918 2403.812012 -93.531670
78.335907 2138.320801 -91.791451
138.483032 2153.284912 201.045746
-12.540651 2113.177490 -17.597004
210.997803 2281.850830 29.907593
-62.736607 2150.267822 185.373917
212.985458 2283.188721 25.631800
261.487701 2164.948242 92.179138
270.445435 2289.144775 180.316467
118.848747 2347.611328 -76.683777
232.350662 2223.135254 47.857887
87.781235 2130.827148 208.549255
-23.657688 2122.399170 97.218788
183.398666 2128.621826 34.308048
211.940750 2146.292725 92.544655
-48.983612 2126.278564 354.585907
34.731331 2128.707275 289.850128
37.372322 2135.084717 276.885132
175.862839 2241.041992 -14.503200
204.937225 2328.540771 27.007399
255.479904 2159.133057 76.374672
180.615204 2138.391357 97.582275
-23.117041 2123.464844 187.380020
133.963760 2305.248047 -46.035866
121.915535 2139.098633 221.952774
265.620605 2183.219238 90.378716
195.700500 2220.616211 4.859208
249.789200 2144.910889 92.312187
-25.656815 2095.464844 -3.164305
-23.780691 2121.002197 316.836304
124.581764 2137.308838 -83.291618
45.696415 2136.439209 104.463562
69.061447 2133.369385 140.523300
235.218231 2137.294922 38.343029
68.503632 2136.780029 124.635201
250.316467 2155.446777 79.438835
20.993702 2146.543213 69.176392
218.850281 2383.448975 35.898415
64.389267 2165.346191 301.563293
26.256721 2122.314209 79.732117
-76.127792 2121.327148 40.125320
288.917725 2209.234131 253.913940
219.218369 2248.134766 30.911264
136.422302 2144.022705 171.007538
275.978668 2204.796631 61.388908
200.585480 2198.291992 1.932251
117.996277 2312.771729 -84.611664
-117.617699 2086.830322 75.250420
-78.267235 2111.515137 94.622795
131.863708 2142.590332 233.999954
240.380768 2393.427490 72.766548
-3.877870 2124.560547 39.040283
185.434540 2123.712891 -0.988378
-57.613361 2120.360840 191.744217
90.447762 2126.078369 -10.705121
76.907158 2375.404053 -123.427139
208.696381 2129.625488 11.649678
57.436516 2134.650146 145.823624
249.121399 2164.900879 68.299492
277.956482 2242.463379 222.797867
97.092712 2124.859131 -91.939819
106.275047 2398.978760 -81.249245
13.131504 2126.005615 321.311432
30.396074 2123.690186 -22.812088
164.018066 2134.666748 124.625313
86.469757 2189.352051 -112.439529
-27.294250 2115.810547 218.436646
91.718590 2134.772705 -97.041718
-55.704014 2119.380371 12.804396
197.593979 2341.710693 15.694872
168.594543 2163.939697 -44.345791
232.262360 2142.008057 63.665531
91.224632 2125.300781 226.760391
115.245384 2173.981934 291.312408
24.316818 2124.643066 300.593933
66.962105 2128.001953 -55.417866
-4.363891 2177.983643 377.459259
33.186508 2145.483154 315.539093
-13.108795 2113.915771 326.975189
-80.303680 2102.326904 51.762169
42.708767 2124.013672 287.993103
158.698120 2150.291992 178.181488
153.197433 2389.857422 -44.502026
183.258026 2176.877930 -23.717070
228.176788 2267.271240 115.775391
84.052483 2121.697266 256.716217
108.101387 2299.773438 -96.122543
136.835709 2138.560303 -97.540253
176.840759 2132.697754 113.121918
201.885330 2136.595459 91.537102
255.209076 2166.731445 77.579361
58.322887 2125.390137 209.796783
269.358459 2279.163086 93.443718
153.688263 2135.455811 148.475052
-17.860798 2113.624023 24.252354
151.713440 2204.613525 -68.341217
85.851662 2328.113281 -95.838028
-136.335327 2152.462646 299.248322
122.682693 2279.683350 -91.181068
283.345459 2298.463379 158.132370
264.453522 2255.882813 55.866047
14.777287 2128.106201 183.058197
-36.149025 2129.126953 69.185440
-34.675976 2097.914551 0.807131
184.963745 2324.239746 -1.443879
129.597488 2129.446777 219.651443
-21.450985 2124.857666 164.942139
95.337456 2130.016846 -102.259201
271.552765 2323.383301 63.711376
162.706207 2131.286865 106.682220
240.014603 2200.297607 106.985245
247.921280 2250.353271 51.005680
233.552582 2161.989746 130.405792
-7.420118 2121.824951 361.764313
181.877502 2179.861084 -25.050617
183.485901 2187.971924 184.987366
239.066589 2239.331543 195.607468
-75.024681 2114.490967 144.851364
30.872627 2125.620117 179.083755
-90.818245 2107.494385 73.969803
164.132645 2241.499756 -34.760654
185.430969 2161.863770 -13.719142
136.828491 2187.423584 230.292542
48.554817 2132.438721 13.014723
230.119415 2197.934082 150.832687
-81.680565 2121.873779 35.107250
135.696686 2142.503174 -106.285095
87.541580 2341.986816 -133.970566
221.597946 2134.571777 71.201660
-13.252457 2125.420654 243.959061
141.131485 2136.860107 102.132912
178.300751 2145.792480 -39.635769
31.545702 2130.897705 114.150055
125.411545 2206.242432 -93.226738
81.598480 2129.646973 189.735107
270.508057 2224.541016 225.898804
-45.991776 2117.107178 228.584534
134.560577 2131.573486 246.623795
151.610687 2143.532715 204.079468
105.996201 2133.051758 253.142212
-150.759827 2092.425293 246.536133
226.356216 2141.005127 92.180611
97.081993 2396.732178 -89.549774
-143.436417 2102.730957 274.521790
197.936020 2197.975098 172.479309
197.794342 2134.886475 116.721695
175.618729 2301.129150 3.763500
-32.744961 2168.329834 391.745270
172.751190 2172.398438 -29.539501
-70.855003 2122.266846 117.905365
-46.731377 2108.584961 295.564819
254.042358 2224.296631 99.602325
-23.467388 2135.951904 153.261002
260.188416 2203.400146 80.719337
212.702850 2209.764160 166.813400
281.771851 2212.013916 241.397034
-143.052383 2092.915527 262.037842
-86.371582 2111.269043 136.371490
208.821716 2259.355957 37.665264
-17.183056 2124.273193 265.110016
-70.509766 2110.666016 269.666534
121.072418 2116.346191 -35.537064
-203.417984 2096.115479 203.586548
267.082306 2196.684814 277.303650
126.664391 2214.623779 -86.563545
138.037933 2344.459961 -67.361404
205.208725 2198.401123 15.413079
111.994896 2286.339111 -75.688286
-58.032295 2129.387451 197.909042
-35.654316 2173.495850 377.108459
219.415070 2214.294678 130.727661
-109.050453 2195.708984 338.591431
255.903946 2159.757080 63.542061
72.800957 2392.064697 -120.944763
225.511444 2133.511230 65.127640
145.531326 2184.565918 -64.527191
236.868073 2203.941162 192.715790
168.070328 2364.776611 -29.426697
-44.097298 2124.836426 358.065643
172.554733 2238.571533 -25.210699
-209.145111 2093.922363 171.881882
24.320229 2144.473389 390.423431
103.184570 2117.065186 -47.991688
261.981537 2199.431885 230.821671
68.264351 2118.686279 243.685760
96.646027 2127.538818 262.529358
-56.716412 2120.070068 103.648125
176.617767 2129.897217 34.237141
290.028381 2286.585693 165.282578
243.465057 2147.901123 47.726421
-7.765409 2127.322266 154.287521
244.966888 2163.934814 101.256187
266.209381 2272.919434 123.755684
97.725151 2120.069824 -56.131680
137.460938 2128.489502 -1.549244
214.750473 2259.479004 26.951954
109.563477 2362.055664 -86.192429
60.597031 2131.604980 -63.554722
143.308228 2122.237305 -40.109776
165.054260 2118.605225 -16.057514
26.424047 2181.651367 367.630188
-46.701847 2120.050537 279.059784
163.133194 2137.246094 14.275266
176.317703 2120.844482 35.433014
-37.823498 2116.334717 126.480324
195.268265 2130.422363 96.679764
77.003029 2122.062500 -61.826580
99.519402 2385.484863 -94.036728
155.659973 2175.539551 199.089142
153.639114 2348.658936 -47.688362
119.330330 2205.836182 -99.728539
187.421097 2139.951904 120.198273
260.255219 2240.293945 221.479507
188.465698 2122.073486 -28.654394
195.713989 2173.934570 149.402908
217.753418 2132.765381 87.824577
244.931290 2336.674072 109.577477
-131.151749 2100.595215 105.400108
94.071075 2115.759521 6.433572
30.677355 2145.933105 322.603058
30.453260 2118.846191 289.156067
260.728912 2312.045166 54.979633
142.033630 2341.131104 -49.949146
87.914337 2129.483398 -78.935913
268.673340 2305.277588 144.491821
193.351593 2124.341309 51.317196
158.546310 2132.157227 66.483871
184.749268 2121.297607 58.531834
78.960915 2135.122070 243.708817
120.693481 2331.438477 -76.657066
88.586655 2131.152344 184.791306
194.345154 2129.845703 -4.932986
167.314163 2131.371582 163.273651
267.158844 2300.457031 81.168060
85.110008 2142.519287 287.172699
186.042328 2179.212158 178.972107
101.762192 2130.549561 218.836792
228.794205 2360.567139 41.610634
97.120453 2140.179688 289.120148
212.729187 2238.817627 23.187580
85.530807 2125.397705 -108.326920
50.262001 2130.219727 8.697659
7.679883 2190.846436 381.802124
-56.788815 2116.201416 33.658798
206.467361 2193.139893 177.494507
228.407974 2201.774658 218.721024
-24.709011 2114.506836 23.219730
40.576077 2128.053711 110.255219
-164.151642 2096.319336 114.458305
-43.220928 2145.239746 372.282928
262.390808 2198.308350 240.274200
170.595886 2125.665527 18.956324
241.080307 2338.835938 41.869671
183.582962 2136.464355 148.436752
100.864220 2209.649170 272.055115
131.721390 2137.615234 211.691086
206.899857 2358.282959 28.951897
-67.241623 2121.677002 33.317871
245.692459 2143.360840 74.322411
266.126251 2188.613281 67.033981
176.844513 2175.296387 180.321823
202.734940 2148.126221 150.412048
168.752502 2320.615479 -32.402180
135.610641 2155.680176 266.611572
137.611176 2142.276855 120.251495
-59.983345 2115.207764 83.720634
86.850273 2400.937744 -103.870995
207.478989 2285.522705 31.546989
104.134682 2178.138916 -125.282288
172.403336 2241.449219 -27.605000
0.683480 2135.836182 363.413025
94.310539 2111.579102 11.914588
-79.114471 2121.534668 145.326431
51.318909 2135.438721 187.271332
231.559906 2133.803955 64.780823
131.335312 2218.901367 -80.742874
133.361038 2134.034180 171.684830
100.700584 2134.261475 -94.131920
237.313477 2274.344971 137.563110
5.572145 2120.909912 237.981216
233.356232 2131.335693 62.732338
179.845596 2315.362549 3.139053
104.786407 2134.661621 230.912109
179.641937 2128.138184 -0.856125
190.375000 2153.307373 -9.354346
121.552483 2323.883301 -89.023186
-121.787285 2096.852539 125.413437
134.901291 2139.945068 218.655670
277.302643 2234.028564 241.948410
195.881546 2139.917969 149.123306
64.308342 2130.983154 288.716125
182.355331 2153.561523 -40.667061
187.938934 2154.546631 -24.909828
138.507523 2128.437744 -48.720798
26.173996 2132.211914 101.056122
48.500168 2133.564941 88.044319
12.148423 2115.122070 280.596924
-96.419891 2133.689209 213.605118
117.926834 2142.260986 -138.967850
45.313213 2124.094727 -34.647903
138.176025 2272.351563 -73.836044
193.061417 2337.428223 9.790055
233.925934 2364.792236 118.714027
33.696106 2122.115967 283.965973
-149.706253 2091.105713 98.959961
215.892807 2246.155762 43.660603
51.316708 2115.431885 273.018036
260.951996 2336.005859 129.468079
274.941071 2223.891357 68.288734
-57.427624 2118.359619 145.131943
191.429245 2184.237061 149.606415
274.227844 2322.339844 56.784142
108.905914 2137.716309 152.505264
27.739458 2127.573730 198.980774
196.551956 2131.817139 116.533997
132.748032 2140.210449 143.647202
252.503098 2196.349609 52.691383
252.067154 2292.793945 80.232407
121.618027 2124.864502 240.351089
262.203644 2152.864258 92.114006
142.227249 2138.624756 148.456146
248.058868 2196.900635 202.931046
196.071045 2189.646484 -5.972298
99.836029 2139.818115 205.105270
123.598495 2372.799072 -61.660622
231.022400 2151.667969 37.250095
259.701660 2338.137451 54.364594
144.650940 2118.729736 41.989555
-90.958839 2090.588135 47.991158
212.462006 2125.629395 56.106110
-72.128624 2103.439697 56.943474
241.461182 2306.350098 100.816536
84.723785 2394.101563 -80.978470
-10.572589 2121.337891 357.394409
5.254407 2118.937012 -33.658684
174.568054 2128.024658 98.874832
110.179375 2130.855225 78.861839
121.550407 2357.787842 -58.992443
38.916367 2140.445313 167.931702
282.014618 2283.092529 178.684860
197.247284 2131.793701 136.451294
19.290115 2108.551514 -19.902672
185.092346 2132.287354 149.292648
213.888992 2127.242432 67.854431
-39.835087 2119.824707 121.697876
218.916718 2257.554932 34.360989
112.837448 2190.886230 95.196884
-22.207224 2128.832031 80.998604
172.441727 2124.578857 67.236130
83.216003 2121.049805 -53.258980
142.725174 2198.187988 -59.877010
207.582108 2208.690674 140.452118
225.131989 2217.338379 188.778122
147.785126 2198.455566 223.293091
-9.714697 2116.819824 0.680839
-76.290710 2108.488525 39.341660
238.591354 2194.777832 236.930939
64.628349 2116.543457 12.957390
159.116943 2159.324463 -47.462936
-4.781189 2123.708740 150.445679
204.716690 2347.250000 28.939762
259.266937 2276.431152 172.482803
135.601639 2116.757080 53.532066
-48.431877 2117.877930 94.904594
273.859283 2300.146729 159.489807
7.823810 2113.662842 31.118151
191.491165 2166.041748 -10.695683
107.456345 2129.308838 253.977051
130.120621 2125.688232 -4.687086
-36.305092 2123.642578 312.316467
104.186989 2144.674072 160.782135
2.618316 2117.357910 286.500763
255.029465 2282.476563 124.318481
50.002460 2163.785889 320.398560
208.239853 2126.143066 66.267799
-103.899536 2100.124023 159.932968
-75.182663 2095.812256 36.174686
87.249825 2142.225830 105.312202
148.031464 2217.595947 -58.191223
-62.514809 2112.352295 34.748882
149.172089 2108.438477 39.080082
171.895325 2392.638916 -4.461106
-69.068375 2257.471680 389.716583
-87.998810 2100.160400 284.239807
178.202225 2204.488281 -17.261259
171.274582 2122.885254 61.884007
-74.138557 2225.900146 378.996948
216.473038 2236.927002 221.900833
48.959549 2131.595215 -28.375628
179.248749 2240.675781 -14.278418
-37.276184 2116.433838 352.220642
117.630844 2117.906738 3.125439
246.056335 2291.736816 129.721115
69.777412 2113.208740 -0.692605
7.354629 2128.801514 69.494263
-15.668717 2132.911865 163.896149
-133.043182 2111.028809 220.589905
222.030090 2373.342041 44.094612
-51.696846 2118.839600 139.476059
22.640049 2141.672607 337.020569
253.531174 2248.246826 52.505779
123.703766 2158.800537 252.746979
-78.473778 2100.251465 116.323677
262.687836 2195.432861 289.227142
138.007385 2218.469238 -78.226669
187.717087 2275.390869 -4.498012
-138.301926 2102.623779 117.514465
103.338875 2279.383057 -111.235046
-59.100674 2103.517334 69.242844
30.334055 2128.927979 15.229919
106.295815 2136.108154 105.399323
-81.671288 2099.885010 85.784889
35.130920 2117.029785 -6.233502
228.699722 2214.259277 195.701324
131.148560 2158.026367 -84.849930
-161.031998 2120.484863 156.620850
-25.865063 2126.643555 55.378704
-30.403233 2205.927490 406.787598
-127.415771 2121.718262 268.202484
153.621201 2191.297119 197.584076
3.710747 2108.566895 -34.719711
-208.299881 2215.513184 220.276688
165.754410 2133.882080 -37.145432
269.196686 2304.964844 156.395813
259.373840 2253.952881 91.100792
123.806328 2164.051270 124.631836
1.133961 2131.612793 106.743980
165.855545 2135.879395 -2.454513
-12.754347 2119.408691 232.816742
-10.067542 2113.633789 93.955032
-13.006845 2132.570068 92.745209
140.930191 2136.119385 205.895889
167.609680 2122.676025 101.103165
51.863220 2126.024658 67.635559
225.056702 2322.629883 46.011894
276.028839 2316.525146 145.989853
99.742096 2212.477295 -132.493134
198.413773 2194.068115 -15.905449
128.254120 2312.706055 -52.004841
-25.097679 2122.865479 99.483696
-138.704727 2103.299561 150.714966
122.876808 2120.893066 -55.112774
-164.856827 2095.675293 209.122101
210.073441 2274.922119 24.240957
190.104309 2135.722412 50.438484
2.816287 2126.702148 166.328934
-63.002022 2114.546143 28.448786
190.216278 2273.427734 17.255327
148.725296 2309.532715 -42.168339
222.371262 2198.341064 12.995311
125.862862 2130.892334 183.060822
93.441559 2117.961426 226.082123
201.067657 2358.330322 25.157906
193.020065 2294.412598 5.376665
-66.944908 2104.766602 132.356400
194.276733 2125.781250 19.434828
167.250229 2134.123291 5.318808
141.117355 2116.758789 30.024027
240.754501 2202.134521 223.277420
42.010788 2156.787109 342.745422
157.075394 2118.513672 18.665310
248.507629 2337.440918 48.294502
203.180023 2384.376465 13.822246
25.912457 2133.689453 309.457153
48.386806 2134.913330 215.036758
128.263916 2140.262207 228.319321
67.041801 2141.965820 126.559555
199.435638 2138.348389 39.108604
82.401764 2127.024902 256.187836
64.744225 2121.074707 -57.759960
105.104065 2141.490479 115.542870
241.126007 2372.394287 41.112000
182.597229 2362.118164 6.648528
-152.436249 2100.855469 210.520782
75.731407 2127.757324 -12.909392
235.729324 2231.456299 179.411835
33.632404 2144.101807 334.143890
187.262619 2264.094727 154.068909
58.168571 2164.622559 33.173401
48.594456 2114.740723 -9.553257
253.786591 2196.177002 202.654984
225.005829 2147.290771 7.695163
-18.834976 2117.557373 54.647728
61.581085 2118.628174 243.597656
135.230377 2114.517822 46.033920
283.867310 2253.032471 44.314178
-21.231953 2120.022949 2.745382
-54.798191 2123.473389 135.644531
-32.061501 2119.864014 207.777344
-75.127701 2077.905762 59.188499
190.964691 2264.167480 142.459137
-184.958542 2089.822021 148.307587
281.768799 2211.268555 265.400726
-126.026756 2149.253174 211.051590
239.889755 2208.220459 111.334564
85.345970 2254.524414 -120.803101
136.261932 2139.841064 -59.231670
171.068192 2167.687744 174.426559
91.734329 2124.142822 26.985014
138.944580 2250.454102 -64.306557
17.862629 2158.989258 371.216187
169.790222 2117.130371 4.624485
185.406540 2206.331299 -7.696147
154.351700 2162.044678 213.282593
207.590775 2366.218018 33.674629
0.790673 2118.731201 39.195480
100.636597 2142.687744 252.330780
213.760056 2183.476074 173.089066
105.927322 2198.391113 -107.933548
117.212944 2126.304688 51.285404
81.991997 2125.448242 -106.488113
242.707932 2217.775879 233.173676
178.340118 2253.428711 -12.486741
174.070496 2195.330566 -27.936852
72.023323 2146.721191 111.827354
-53.293713 2115.755127 350.579224
8.600138 2187.808350 367.136322
254.178207 2208.022949 92.242119
215.676025 2163.202148 -0.461974
157.020309 2244.880859 -25.524742
20.198343 2127.092529 135.052063
89.168503 2126.723633 29.073057
105.590950 2130.242920 242.407913
222.765366 2198.216553 126.679733
65.895836 2151.661621 308.165802
-103.681076 2110.757324 186.283112
100.731560 2119.253906 -51.866577
191.094025 2237.143311 -13.425619
51.178654 2210.761963 329.840942
152.591873 2123.341797 20.759180
73.652702 2125.656738 243.860901
-70.794800 2110.123047 67.428230
259.878906 2195.900635 265.465332
151.381622 2139.318359 192.408722
81.706123 2297.662109 -123.049530
-114.553658 2123.728271 113.727234
133.587555 2129.356934 97.436676
-145.157730 2107.902344 241.601776
135.071152 2128.431885 111.206154
48.552311 2122.248779 224.994751
46.852478 2143.024170 31.691389
176.685043 2183.529053 196.273178
244.024292 2303.265869 127.044022
220.715805 2167.204346 31.493349
22.970133 2118.656982 264.514130
-71.052162 2114.912354 274.975830
223.039810 2141.315430 18.889772
224.274841 2161.119141 125.898537
154.362839 2129.132813 60.127071
136.488998 2233.919678 -66.532501
211.685883 2292.696777 32.270107
96.825958 2151.574219 269.980103
223.153137 2136.636963 94.705475
-157.966827 2125.255371 268.755920
177.696335 2357.372314 -2.088046
289.715271 2287.069580 181.404190
274.546692 2209.557617 260.740265
45.694672 2125.967773 -58.086746
302.150208 2298.628906 149.870911
61.986057 2120.613525 -48.753918
124.269714 2117.627686 39.086300
196.484665 2167.172363 -3.923576
157.753250 2113.804688 106.207497
194.052475 2125.270264 15.882667
135.337860 2136.025635 126.025703
263.444885 2349.574219 69.217545
134.005310 2120.997070 28.267149
207.718384 2148.612793 130.983276
228.087997 2190.054932 41.898098
24.522123 2135.952881 124.008072
244.354584 2297.845459 46.775978
188.209442 2127.207031 78.364731
-36.384605 2125.249023 306.756592
263.019104 2190.374268 72.199524
114.919312 2124.116455 -71.984077
216.992508 2290.368408 35.708923
-219.210098 2062.568848 164.974121
140.595047 2339.929199 -48.149712
204.294601 2281.102783 21.032808
276.906311 2214.019043 249.732361
92.901733 2136.576172 281.751678
-65.647118 2123.927734 42.013908
228.989731 2254.835938 46.174877
53.466450 2147.364502 330.360779
137.154907 2136.954346 129.440720
270.942078 2234.639648 246.004257
33.141716 2222.752441 353.071655
146.556671 2110.838379 59.992344
165.592285 2133.635498 -19.947145
248.666580 2198.315430 223.361374
158.625687 2121.416748 31.703627
188.511368 2361.595459 6.842473
216.789047 2143.075928 134.751251
151.569687 2117.899170 76.000168
268.329712 2359.366943 66.473511
-116.464684 2122.872070 216.388321
-128.921967 2300.339844 321.513947
-43.485561 2117.283691 224.551285
123.590599 2139.111084 187.625504
194.456696 2166.799805 149.428207
9.467812 2133.145020 74.754105
163.801056 2209.196045 -48.483402
188.955261 2122.900635 10.396233
-21.758375 2126.070801 335.466919
-1.267488 2134.722168 360.495483
-177.617493 2095.746094 198.818176
130.947983 2195.606445 246.797302
-79.876900 2105.091064 45.060329
153.480286 2132.805908 167.518799
189.307419 2187.906738 197.235580
-34.986225 2116.372314 307.150482
147.150421 2147.236328 207.642624
290.303986 2193.885254 247.080811
182.764160 2126.333008 101.087418
194.824753 2179.966553 175.595459
-131.766708 2097.856689 101.925690
193.555893 2347.961182 25.936010
-22.683775 2113.943115 31.680767
60.428730 2136.933838 94.968002
243.461411 2393.400146 88.854721
-75.125458 2108.577637 198.633926
279.607391 2227.111084 77.837677
138.579498 2325.559570 -45.148186
279.619598 2219.833008 78.263390
114.718956 2134.094971 179.118011
261.918854 2279.011963 155.643524
116.697830 2117.498291 26.495726
112.420937 2138.121826 248.477753
118.249336 2334.399414 -77.459579
51.572136 2169.558838 327.105042
31.076052 2128.350342 133.899658
264.494080 2353.552490 143.965515
85.620972 2347.116699 -133.884262
-15.201549 2133.455322 158.221222
170.281311 2194.758545 -27.695847
234.804047 2133.281494 70.575546
251.184097 2198.612549 248.531616
210.216522 2129.887451 31.628456
254.966949 2202.757080 195.832870
215.311371 2129.156738 79.173401
132.130539 2119.036865 10.585007
258.374573 2275.011719 206.824875
116.463638 2131.177490 193.252792
205.877670 2141.379150 107.732407
-141.339752 2113.214355 135.882187
-8.658662 2132.384766 94.120506
-131.303024 2141.462891 279.936157
-13.094081 2112.728271 316.910034
-157.645340 2099.423828 259.401581
238.588959 2137.231201 67.947861
234.018433 2164.161133 118.919754
192.514526 2239.871582 -14.828275
-11.858824 2125.379639 186.319946
153.921967 2124.505859 104.569939
125.105568 2204.270752 -78.753487
43.780121 2127.116943 158.202530
9.101106 2137.742432 316.579803
77.335991 2202.804443 307.651062
240.970016 2194.394287 183.137161
11.596072 2157.650879 371.540039
89.614487 2265.516846 -131.905014
-1.016675 2108.186768 287.969604
106.714630 2092.876709 -94.509583
206.963547 2130.302979 29.329126
7.007429 2122.041992 -11.621470
-147.488724 2114.963379 139.693481
-113.693008 2110.632324 212.496933
-149.775848 2095.002930 119.887505
136.236328 2120.562744 -71.436623
96.607010 2127.823242 113.431778
241.434326 2192.373779 230.489563
102.203796 2211.496338 -101.974197
105.733704 2204.075195 255.765930
182.019974 2160.134766 -28.139011
163.392761 2140.767334 -67.706421
-60.981232 2104.021729 59.564983
235.886551 2285.618164 138.688599
232.641754 2146.474609 112.420998
91.218231 2116.017334 -95.473953
237.800476 2315.021973 109.434578
62.024639 2116.276123 -41.812775
152.556442 2121.987793 53.848263
260.005188 2296.458252 161.660355
238.790268 2351.642578 44.906456
-124.122871 2128.557861 309.359070
160.691925 2132.144287 170.189377
273.262451 2219.925781 245.255844
88.347115 2131.675293 204.510391
186.382339 2400.906738 16.330093
102.815620 2123.309326 33.543026
122.609520 2115.334229 13.303510
150.400757 2188.862061 196.187546
84.564957 2119.410645 -19.960308
217.116318 2248.758057 36.971191
168.084122 2132.996826 -40.708557
-190.481522 2111.074951 227.031982
-65.097893 2108.418457 77.075577
30.772190 2161.347900 40.884495
76.619865 2331.794922 -128.524460
209.126602 2205.659912 20.542740
85.787949 2134.743164 132.858566
-11.761331 2124.528320 146.205338
212.702591 2177.657715 11.820210
-52.099407 2116.944824 158.669098
86.790634 2134.990479 -107.786530
236.796494 2237.394287 198.703125
196.945572 2196.940674 167.326172
129.288544 2138.989258 -43.934349
270.741455 2303.893799 126.807480
180.084747 2187.834717 -15.620050
191.772400 2177.585693 160.367264
-120.042511 2104.206543 128.800842
114.805611 2378.743408 -75.280472
27.611872 2123.995117 210.168228
214.823441 2141.562500 69.504990
1.265441 2125.445068 348.709900
84.105110 2380.099854 -111.354530
77.117195 2134.915039 290.800354
141.036423 2114.801514 91.322517
275.532623 2195.594238 254.522003
86.926468 2136.128906 113.088066
134.441742 2213.007324 246.653549
144.007767 2119.019043 -15.837346
-73.598778 2126.548828 229.227753
104.108742 2311.592041 -97.426506
-79.067383 2113.989014 305.809906
57.602089 2138.838867 85.525391
-119.327599 2319.184326 335.518219
172.055466 2131.089111 156.562119
200.829727 2282.427979 12.589539
27.621145 2142.303711 333.083282
93.010246 2153.443359 271.089935
131.363831 2119.416504 67.744606
232.010254 2175.233398 35.800812
79.391113 2119.589355 -10.598800
229.126007 2152.911377 103.942520
276.359344 2293.694824 189.721115
-39.405525 2105.884766 329.264648
29.806473 2132.575684 21.843473
64.701828 2136.234619 242.824417
217.786942 2145.950684 122.665588
47.617504 2163.085205 319.855225
-135.314499 2108.916016 224.414398
-113.063904 2075.009521 80.638687
79.719154 2135.809814 -63.320934
76.298897 2106.217285 -22.948792
