ply
format ascii 1.0
element vertex 1381
property float x
property float y
property float z
end_header
873.715942 1968.591675 231.076340
1132.787598 1773.529297 268.288879
1127.302246 1775.514282 299.288391
1253.023438 1826.927368 425.434906
1198.671265 1791.826416 271.828918
811.810120 1924.860840 238.630966
1082.875000 1849.898071 445.593506
1301.797363 2003.699585 150.888947
988.799194 1877.212280 285.389832
929.053650 1847.805176 177.451218
1200.573975 1907.415405 519.167603
1201.348877 1803.785889 164.511337
1204.508789 1796.718384 181.562805
874.898132 1906.807251 403.143250
1074.941772 1810.633057 371.443451
1169.960571 1757.020996 233.869446
935.935059 1881.078491 217.514252
952.128845 1885.518799 407.445770
900.689392 1934.247192 261.713470
892.463745 1884.426636 206.094879
1212.650391 1823.013672 248.950623
936.722534 1885.365112 450.111877
905.286743 1884.648438 421.883545
1025.574463 1840.812988 433.874420
1134.994507 1771.229126 210.409470
929.999390 1894.328125 264.281738
880.905640 1929.080688 448.865479
949.122803 1880.693481 233.009979
1138.352173 1863.233032 534.299744
1175.932495 1777.953735 301.672363
1051.059082 1825.420044 375.378387
1023.743164 1883.573730 452.154846
1138.576172 1791.907349 410.998657
1140.435669 1760.372559 286.623657
1134.178467 1876.299072 442.491333
1064.239136 1834.237183 427.196503
1207.054077 1777.171753 235.139481
901.927917 1948.055664 471.985382
1085.626953 1813.904785 373.151215
1008.617126 1844.694946 398.409180
1222.215088 1816.579102 168.077515
801.983582 1945.863403 357.188965
1231.515137 1860.859253 173.741058
840.427246 2079.519287 233.470734
994.173523 1870.616577 350.071991
967.819519 1868.964722 371.715515
820.676514 1940.386353 460.877228
1017.250000 1851.005005 222.793015
816.505310 2027.216187 418.969177
902.643494 1894.310913 255.446014
912.346680 1894.982666 438.725067
855.036865 1926.042358 359.754364
1102.257202 1860.649902 454.788574
1045.285400 1831.098022 217.577225
1220.938843 1842.942139 197.509064
1226.680420 1911.739502 433.827271
833.230713 1936.688965 224.295013
1267.461304 1913.165161 376.470032
1044.235596 1842.847534 438.736694
1102.877686 1855.241455 464.927643
1103.529419 1856.892944 562.640320
1191.707886 1839.589600 438.362701
1077.711426 1791.955811 305.989288
1146.124268 1763.394165 369.676117
947.049988 1878.526123 171.088257
966.932007 1857.856567 418.302490
1101.894531 1857.992554 462.005249
1010.910828 1855.896606 305.928314
891.141968 1855.306885 177.582428
957.302917 1870.325073 162.284103
813.767334 1927.656982 382.934937
1227.708984 1893.254761 521.596436
1136.753174 1790.473755 405.340240
788.959412 1950.552979 182.130569
1136.688477 1861.212280 497.621155
1250.154785 1876.831299 220.646591
1155.821655 1760.029053 326.258270
875.164429 1903.003174 398.050598
1254.898438 1890.931885 178.899490
972.816711 1869.354248 446.315277
1225.496704 1827.331177 270.810669
1130.315430 1787.436035 252.054459
1248.093384 1938.524780 471.059021
1278.772949 1961.873657 330.612396
1141.906494 1771.979004 378.126373
1204.776367 1797.535767 221.488663
1284.065918 1962.562378 284.576385
1105.209839 1784.548828 250.512848
901.640808 1903.766846 223.261902
799.500366 1934.330322 405.823975
1290.311035 1898.497925 408.229980
1057.262817 1920.809082 467.528290
860.479980 1916.427246 227.166107
845.787476 1917.507324 244.307938
1059.895142 1837.779297 430.400482
886.521179 1918.160034 449.746490
1180.822510 1909.753906 533.501099
1040.621338 1855.676147 290.175018
1093.635620 1856.635742 476.064148
937.325928 1889.982910 314.717651
1085.307251 1806.321045 214.596039
890.436523 1897.089722 207.750015
872.289673 1919.756104 293.252686
974.024048 1886.679932 240.429886
951.441101 1920.281860 457.424347
1126.428711 1866.271973 498.811127
1239.781250 1871.452026 191.367676
1194.834106 1782.711670 306.875153
1285.783569 1948.677490 222.104614
1047.892578 1848.972290 257.832428
1213.258179 1876.087891 432.811859
1204.010376 1791.149902 421.939911
1230.902222 1833.595581 427.446930
1159.154419 1768.896729 395.404419
1162.985474 1758.861694 327.692963
1048.085571 1827.595947 316.077759
1260.301758 1922.443115 428.383026
1199.014038 1789.700073 399.385559
1033.950806 1833.080811 193.328156
1238.104126 1913.790405 513.001160
1047.961060 1844.013306 431.906708
1090.222412 1796.118652 315.399750
1228.064941 1851.431152 248.623581
972.473206 1859.184937 236.165009
1095.411011 1862.091553 512.893250
1213.042603 1903.843018 439.220581
1107.438843 1782.977661 326.708893
1246.703735 1878.121826 170.663925
1005.893799 1848.275635 410.345001
1141.576050 1880.058472 427.053650
915.082947 1866.710938 168.904938
1224.357666 1847.173462 342.356781
1018.577820 1860.767578 324.775269
1296.784668 1939.908325 400.769928
1107.761108 1785.974609 268.783722
913.395874 1899.066284 226.010864
1238.754639 1869.184082 349.178009
930.567505 1899.065063 395.839142
957.777405 1874.661255 396.498871
931.964966 1913.496338 280.890839
1000.484802 1854.839111 414.932709
953.236023 1879.511108 396.309326
1124.686890 1783.258911 359.967194
1233.168091 1829.209595 156.571640
990.305176 1871.437622 333.157867
829.379944 1937.659302 462.563934
879.788757 1920.795776 176.400238
1004.568909 1859.077881 300.626038
1233.382202 1838.647339 265.054962
1134.775513 1839.370728 468.932831
913.515808 1896.752563 224.936737
1310.988281 1998.338379 331.403870
1124.886841 1871.724121 448.072784
1302.392212 1982.607300 304.935181
1164.392700 1757.960938 291.723389
1011.153625 1844.802246 216.144760
1293.793701 1964.196045 211.886169
1040.417847 1839.399414 168.103165
878.156311 1908.208862 426.762848
1094.778564 1792.389404 328.666260
1105.712158 1789.971558 323.939301
1227.475708 1845.262451 293.376129
1223.790894 1882.790405 430.836578
989.389832 1870.803833 434.075684
1131.831665 1868.410645 540.127258
1093.982422 1804.843750 420.472595
1076.365723 1788.109863 307.833282
1225.924561 1831.358032 371.305878
1151.212158 1767.392578 331.896362
1196.885620 1902.509155 532.582947
1127.900757 1885.440796 443.395233
999.686035 1866.236206 368.627747
1137.318481 1799.003296 431.179138
1116.854614 1787.118164 262.216797
1204.127563 1788.977295 296.044983
940.444397 1882.176025 248.134918
981.207886 1868.578735 305.203400
1017.843079 1840.730469 407.533997
954.924316 1874.114014 226.455215
1057.444214 1901.661499 454.844757
1162.672363 1759.665283 237.446564
1144.504639 1783.249146 176.983063
968.235718 1860.468384 461.724030
1114.033447 1780.911133 330.688477
960.333740 1873.709839 200.294785
1247.020630 1884.664307 192.404205
994.375061 1875.316895 264.080383
1121.460205 1810.825195 430.596680
907.583252 1913.091431 440.381775
1239.265015 1833.241577 406.267212
1091.084839 1789.082642 273.011536
826.776855 1934.952515 435.491516
1142.604492 1767.085693 352.170654
1238.473633 1931.102539 475.587738
1284.886475 1913.392578 410.319244
1129.415527 1858.134399 467.176239
787.791565 1956.112427 213.495682
1182.297974 1766.554077 207.786652
1310.463257 1999.522949 286.804504
932.404053 1888.987427 314.024658
1103.901001 1881.407104 484.817657
886.932434 1901.833008 197.733109
993.049988 1865.144165 237.254593
1179.003174 1837.844238 424.715424
966.491150 1866.882813 199.464355
994.093445 1850.476318 423.897064
871.951294 2143.085205 386.675293
973.358398 1879.517578 252.094452
1062.792969 1833.792725 304.836517
1237.535889 1892.832520 343.563965
834.696167 1918.646362 208.992340
1191.553467 1851.365479 442.154297
1278.046265 1951.687012 166.841217
1011.077515 1850.888428 179.950455
1285.107788 1958.051758 382.105194
1121.692261 1786.683716 409.613953
1077.049805 1863.330811 258.884155
1170.160645 1784.926392 435.891205
878.577820 1913.522705 247.768616
1139.032715 1802.790039 422.758209
1292.025146 1989.122437 171.624222
1289.719360 1928.283447 414.318451
1312.875610 2003.508911 161.910843
1163.077515 1768.224487 404.307800
1057.482422 1840.333374 258.916687
1266.894165 1933.133667 292.548676
1269.590942 1931.486450 262.661987
1062.415039 1851.413452 243.792679
823.399109 1926.316040 281.709686
1278.262573 1983.150635 307.719696
1017.703125 1841.637573 407.513977
1079.920166 1838.759644 342.910156
862.883850 1915.281860 162.581696
1089.307739 1854.091431 433.062134
1096.574097 1861.557129 461.664246
799.831604 1940.803833 334.682495
901.837219 1902.112061 409.797089
1242.418701 1857.999512 153.690094
1287.135010 1980.128540 169.136597
1313.876709 2004.994141 225.590744
881.311279 1921.466919 482.783386
1008.047852 1862.293823 262.882477
1235.217529 1859.187622 357.412201
1226.494507 1835.121948 180.865036
994.654663 1868.361938 266.543701
1288.374512 1982.019165 361.707153
1131.219116 1825.784912 419.590881
1160.089478 1781.041382 329.072754
1080.609985 1833.812744 369.662201
1050.244141 1839.182983 204.488266
912.792664 1891.804443 215.118134
979.421082 1875.049072 256.262665
808.901550 1939.386353 251.994354
1211.464233 1821.222290 312.971313
869.285645 1932.218262 470.348419
1289.966309 1981.419067 342.470947
840.002014 2073.544189 168.087570
985.507874 1849.743896 430.403687
1136.559448 1780.017334 218.993805
1193.233643 1903.344971 439.076660
1018.078796 1854.436035 450.147339
1269.692993 1882.422607 426.999390
1245.392944 1878.787720 446.221588
961.116333 1870.013306 467.150085
1222.483154 1833.551758 192.300766
1017.198792 1841.459717 419.016846
1155.398560 1779.573486 287.150818
1147.644165 1784.791016 364.049500
1193.898071 1755.694336 310.024261
812.821777 1937.317871 192.231812
927.869507 1895.130493 367.298065
1242.734253 1838.572021 413.206207
960.900024 1869.728760 456.004883
811.936340 1924.397583 216.002380
1296.541748 1971.237061 267.548096
1094.778320 1856.975952 576.596252
1123.119385 1786.403442 320.572235
1112.636963 1787.676758 371.466553
1063.693237 1860.165771 357.705719
1040.863647 1832.267578 408.807465
1148.664429 1920.583374 427.652344
1099.917480 1788.875610 380.590424
1227.647705 1898.653076 448.016815
792.706238 1959.968506 428.927338
860.390137 1923.082031 342.003082
1141.987061 1782.343872 401.890717
1115.584839 1785.638672 247.746689
1278.364746 1948.449341 219.321136
1256.565796 1856.396851 402.886780
1188.496948 1756.406494 267.783752
836.945374 1939.380859 361.896912
805.043762 1937.140503 413.929260
1098.211426 1799.922363 223.720184
1123.336304 1774.070679 336.292999
890.338684 1959.778809 474.031494
1311.863281 2001.879395 337.101593
1020.503662 1859.429932 337.638245
1081.812866 1796.279541 316.951202
1262.654907 1921.982300 323.128296
1007.387756 1846.424683 181.279999
864.265808 1913.622559 442.147766
952.046387 1888.230835 362.676239
971.955505 1873.916382 215.638397
1074.375610 1834.781738 438.235229
1130.706787 1784.666504 326.763458
1191.223755 1781.635620 422.043701
1220.051392 1791.996460 409.474091
803.675659 1950.035522 182.525269
789.189697 1939.943481 286.548004
1166.840942 1768.568726 372.168579
961.333130 1880.888794 326.607361
1219.662476 1838.325439 172.491608
1134.079956 1905.356079 481.467468
1067.629761 1831.433960 284.394714
1118.245239 1790.704956 159.195526
1209.473999 1820.027344 377.916412
926.415344 1902.711182 376.657013
1100.369019 1850.381958 531.404663
1009.663574 1841.911255 407.983612
1236.140259 1856.796143 173.295471
1106.660278 1848.024414 505.602936
1163.733032 1758.697754 369.331696
1040.738159 1837.687988 271.292633
1200.592163 1810.099731 386.240479
1009.291382 1851.967285 430.715515
1270.087891 1955.829590 337.309753
931.208313 1885.839844 396.223511
1308.968994 1933.733521 415.206787
934.190613 1859.734863 159.779465
1100.415161 1791.307861 386.517517
903.837708 1917.080444 442.910187
1263.429321 1912.778076 152.646469
969.483337 1872.490112 344.489960
916.599060 1896.327637 216.525864
1085.881226 1805.879272 383.887024
1092.167236 1811.719604 185.531815
1236.163940 1866.010620 156.660248
1111.928223 1867.334106 456.277771
871.411621 1939.452759 240.456024
881.464905 1894.792236 417.857544
947.295288 1874.026489 432.679291
1228.799316 1874.260742 263.241241
983.731750 1940.841919 478.057404
1270.099976 1939.575806 348.792450
1033.684937 1829.505371 163.869339
1197.472046 1758.767212 332.568604
1070.853760 1816.708862 288.111511
1256.803955 1908.640625 249.414047
902.680603 1902.407715 227.353317
1216.924316 1816.692871 241.778656
941.230957 1898.864380 436.422485
1070.631348 1825.353149 180.533371
862.720398 1953.234741 213.045761
1086.369507 1816.676270 186.045975
1249.479614 1887.482666 241.886200
1110.117188 1784.312622 321.052887
1134.034302 1864.512573 470.483948
1265.695313 1927.741821 351.154846
858.317139 1952.305298 463.428467
984.313538 1885.153320 368.400482
1226.931152 1839.328125 192.391113
793.235596 1939.675049 400.340729
976.538635 1867.438232 262.406738
1297.055542 1970.736938 350.947113
1113.068970 1799.113647 411.823608
826.658203 1930.686157 232.852875
935.964783 1886.014893 210.651855
895.444885 1891.285034 421.560852
906.071899 1982.129761 488.071167
1173.304199 1761.396606 394.702850
1115.818970 1791.926270 180.865341
871.606445 1894.997314 208.368088
1202.478882 1902.828857 466.982422
1088.669312 1812.976318 186.815628
1187.994019 1778.097534 340.406738
1125.074951 1787.484131 409.963409
1147.043701 1765.701660 301.362946
1135.026245 1863.170166 489.437408
834.577332 1934.559082 444.079681
1110.740112 1854.550049 464.894562
1118.509277 1863.121460 535.633545
857.757507 1926.629150 470.923065
909.039307 1890.926147 394.000793
959.219482 1877.316284 462.882263
1000.279968 1863.689209 269.931641
834.983032 1949.518555 246.942978
1133.723389 1864.928101 466.556335
981.850281 1855.631104 192.816055
813.945740 1954.178467 331.906555
1006.767090 1866.426270 454.783508
830.060486 2058.845459 285.048065
1110.035034 1787.069580 336.957520
1118.689941 1802.558960 167.644516
1236.677490 1980.262817 441.340118
1320.727661 1953.388672 407.914063
1140.860229 1780.031616 409.817169
1130.942017 1822.637085 430.570099
1063.272949 1880.418335 446.663361
1255.072266 1909.375977 259.584869
1040.392944 1831.883789 411.432251
1290.344116 1957.959839 199.029480
1171.199341 1759.997681 378.051361
852.399231 1939.382935 199.057953
1113.387085 1891.591309 514.239624
1261.163574 1916.390991 376.743591
1250.188721 1897.254761 360.001831
918.687866 1877.569214 408.496368
1028.131348 1834.976807 399.137360
1133.002563 1779.196167 241.438202
1018.926941 1842.011475 166.231461
969.672791 1845.092529 162.316483
1243.248657 1879.712646 167.204880
1014.002563 1858.887451 377.230133
1177.503418 1786.029663 165.014633
1292.705200 1986.266968 263.313843
1307.059570 1992.806885 278.700836
938.796143 1877.033203 434.493469
820.605713 1936.989990 435.467468
856.376099 1934.311035 358.288879
897.856018 1871.810181 163.412857
817.458435 1936.230469 430.255585
1225.834229 1851.846069 235.613037
952.824097 1914.529419 456.281158
1234.525146 1857.969482 326.107819
1078.634766 1807.888672 357.827393
915.143188 1909.456055 384.862061
1297.960693 2000.262939 245.257309
1150.960571 1764.128418 273.405212
1072.829956 1808.185303 395.229858
935.192688 1887.584961 457.131317
1296.752686 1986.649902 379.354095
1026.101074 1858.303101 365.164215
1116.817993 1853.565430 536.814941
1207.795776 1813.552612 206.235001
970.715942 1896.813721 454.422058
1282.480225 1980.315674 430.993530
1195.533325 1775.403687 336.474365
821.944824 1946.721924 356.419708
907.130005 1949.180908 471.768951
1139.569946 1791.967163 399.270630
1164.054199 1845.322632 442.664490
1118.709717 1907.822510 504.154083
1092.437500 1805.554443 420.362396
1021.101440 1859.111572 249.149551
1107.922729 1839.388184 463.177216
1181.339844 1788.292114 170.567459
858.507813 1909.258423 163.230148
1303.702393 2013.312378 311.904480
1224.502197 1866.228882 333.630737
1276.320190 1944.372437 213.884781
1293.342407 1970.280640 357.773071
947.289978 1873.735352 412.636993
1181.113159 1753.824707 333.508636
1146.028076 1769.989746 357.424164
963.243835 1875.944702 367.285492
1089.491943 1806.299561 389.522491
1237.015381 1873.165649 186.192444
1135.407349 1838.985352 438.247894
894.674500 1901.073730 417.888428
869.512085 1941.360352 460.291595
1144.173340 1768.017578 319.001190
1026.524048 1843.678589 210.206787
1099.312622 1806.433716 164.499649
1131.753662 1782.955688 404.563171
1048.061279 1844.202393 438.596375
1019.290405 1897.925781 447.967346
891.581055 1886.119263 168.708084
891.860901 1923.713379 441.507263
855.458923 1922.457397 314.287292
943.397400 1869.443726 435.356964
1250.797852 1953.840576 494.283264
900.403931 1960.008789 479.494019
1189.420532 1788.325439 361.588715
1235.028320 1919.235107 439.712372
1244.836548 1881.129272 164.479828
836.413147 1924.518311 163.115234
1296.880981 1995.628540 310.872772
1072.647339 1804.975464 333.102539
1155.340210 1755.142090 306.190369
1054.829834 1823.526855 164.990570
1201.918701 1801.939697 300.610291
1119.868530 1858.868164 528.792542
1079.186768 1812.647339 295.357880
1013.503540 1851.616943 186.198685
1224.875244 1823.394165 390.201324
1097.337036 1806.891968 413.122498
1096.856812 1795.862915 385.927429
1223.495605 1862.508911 263.014221
1000.504517 1865.267700 173.125443
848.530884 1952.141602 480.576019
1146.993164 1780.034058 413.042419
1263.398071 1852.405396 415.303650
1209.916138 1816.910889 220.216660
921.791382 1896.240356 442.015198
791.490051 1937.339478 326.085907
1221.604492 1829.057617 185.268295
916.526001 1891.522217 397.501556
1168.549561 1767.463623 411.230103
1097.041138 1796.900513 314.863678
930.355835 1869.514160 161.352036
1218.877197 1821.097168 296.200043
1015.078857 1848.361084 389.959503
924.252136 1896.750122 299.180328
1237.183960 1872.395508 295.031372
1281.818115 1940.534058 328.039185
1112.584229 1853.473022 505.325378
1148.521362 1853.345703 466.294006
1127.824585 1785.807007 159.180695
898.848694 1906.110352 440.727905
975.724548 1861.771973 445.774567
1176.388184 1779.273926 366.463623
1036.948608 1833.161011 425.741455
885.315308 1908.894287 234.634338
1265.677246 1962.320801 172.871262
1036.769531 1860.005249 438.126495
1182.593994 1758.452515 336.298248
849.539612 1948.722046 243.849625
808.127380 1934.844971 384.322266
1213.332153 1788.706543 216.259918
1225.119629 1841.335449 352.912964
1246.458618 1869.574219 299.926453
1112.476440 1849.341309 470.124664
940.332214 1888.117798 167.885727
1131.820190 1870.611206 482.189606
851.291138 1912.218506 407.559296
1081.020142 1838.044189 330.238281
1284.972168 1970.007568 223.713943
1198.679077 1905.296021 486.287048
1188.800903 1909.507935 534.230591
1176.136108 1752.052124 324.404236
1245.607910 1883.654175 343.810822
1141.616333 1897.662720 503.942169
990.663757 1852.085083 431.436646
800.788025 1997.811646 340.912323
1131.560425 1791.487427 403.925659
907.402710 1928.768066 452.630463
1251.751831 1953.192383 489.113770
1050.548584 1801.510010 165.183411
1038.181885 1843.203125 426.467621
874.317078 1907.914551 424.344818
1028.308838 1860.818970 431.098022
851.142822 1912.212402 414.999390
981.476379 1874.283936 285.861969
1202.383911 1914.060547 481.817505
924.933777 1909.323853 466.280029
1145.751709 1890.928589 553.709534
1302.213623 2007.169312 332.909607
1288.583008 1924.638794 151.244537
1130.877808 1863.373901 439.067383
993.485168 1863.109619 357.681793
1125.520874 1775.429443 336.255707
1235.045166 1860.171387 214.391708
812.866028 1938.168335 333.666077
808.457214 2008.984863 174.194031
1259.710083 1830.920898 440.283966
1234.380493 1871.957153 192.202759
976.853760 1865.666138 364.889160
822.578735 1937.320313 443.716309
942.264099 1992.183594 469.728912
1228.629761 1848.249756 312.739899
940.168457 1883.084351 168.856613
1212.028198 1822.076050 170.914139
959.394470 1870.547852 207.900696
1159.405029 1778.480103 301.333954
1081.653931 1809.228271 222.360764
1195.736084 1767.359985 211.178253
1317.763550 1969.043701 396.927612
1126.421509 1786.987915 369.405975
1221.281616 1828.128174 259.166260
1068.779907 1855.004150 227.268433
1003.547913 1857.443237 341.603058
1213.802368 1812.760864 290.152740
1238.439941 1853.886353 276.710144
1319.133545 1973.027954 396.653778
823.926208 1970.443726 250.408676
1274.843140 1926.716064 324.689972
1078.272705 1803.365845 263.373413
1121.149658 1787.233032 231.889755
1097.062500 1802.488281 193.367325
949.805969 1878.557373 341.819000
973.525818 1867.429199 222.097046
1132.293701 1876.796021 471.608612
902.218811 1935.482910 467.360443
1189.884033 1746.210815 289.752838
1070.962646 1802.336548 362.054413
989.339722 1858.782349 378.764130
853.107422 1920.098633 359.239044
1188.140747 1844.508789 434.945160
805.400574 1940.740234 421.838074
1228.724731 1798.825317 415.850403
973.856079 1875.083862 360.645081
1044.401245 1830.580688 372.987762
1180.063721 1779.855835 416.759613
1244.538452 1804.453735 433.818176
1088.405640 1809.950439 408.844360
1057.419556 1850.897827 216.689209
1102.700317 1788.723145 234.425949
1095.951538 1861.611084 469.629639
1116.374756 1781.790649 238.815506
1181.148682 1767.421875 160.121124
1261.511353 1915.336182 341.064392
1160.744995 1836.401733 427.563843
810.960571 1934.618286 411.686127
1019.064880 1857.836304 189.271149
922.375183 1891.394043 269.878571
1210.064209 1804.619629 288.422455
802.789612 1938.331055 307.278015
818.445740 1951.873169 455.062683
1131.466187 1799.469604 424.263977
1199.020752 1776.265991 333.320831
1023.731018 1844.777954 367.528931
802.352966 1946.358643 435.348633
841.014587 1923.366089 213.357376
1171.947021 1913.552490 433.949646
1221.224854 1877.591309 451.228729
1098.730713 1805.783325 219.393555
1121.641724 1848.722046 534.454041
1073.345215 1816.621216 402.033936
1109.699951 1794.084839 287.745697
858.680237 1955.374878 226.263794
1208.194946 1823.767334 160.595078
1176.997437 1770.779419 318.548157
918.883728 1898.760132 449.243011
1017.228149 1859.813599 297.198639
904.544006 1953.594238 488.079010
1082.419922 1811.478516 425.221313
1259.008423 1879.188843 154.445908
898.961304 1906.954102 256.484070
1229.192505 1854.255493 275.443481
1062.498901 1830.445801 169.093460
834.611145 1918.891479 400.993744
1010.754456 1846.832886 204.529022
915.737305 1904.592529 160.053909
1089.154053 1811.426025 381.525330
1072.786255 1832.962524 222.364929
1109.436768 1794.625000 300.297607
1016.805847 1854.993408 233.885101
1253.574341 1919.699219 370.431549
1166.292969 1913.681885 432.047302
820.006958 1943.114624 256.459320
1110.309570 1805.827393 417.021759
913.378662 1905.594116 423.625122
1215.005371 1847.421997 313.067261
1047.696411 1826.462524 404.865662
900.247253 1914.608398 439.548523
1218.039307 1798.826172 366.291840
1003.041870 1823.656616 163.900574
1128.316284 1766.411987 316.334503
1023.786133 1846.028809 302.396393
972.937744 1886.654541 273.290955
1228.490845 1828.851318 427.436432
1079.874146 1885.533569 449.566498
982.510376 1876.340942 259.677612
1282.483887 1963.371338 203.137482
1097.081299 1850.407593 446.132080
1205.780640 1798.323242 408.727173
1077.881470 1814.838623 321.486267
1066.114868 1877.700439 434.287506
1199.908447 1788.078857 378.290253
1110.623901 1780.164795 305.362244
1027.587402 1850.984253 250.026764
1083.976685 1805.168457 169.445175
1160.575562 1762.831665 348.952026
919.705872 1914.428833 335.000458
857.103699 1923.858765 382.968109
1247.641479 1938.353638 478.337402
1181.786011 1907.852539 463.044434
1080.146973 1796.934204 242.703735
1090.733765 1789.222046 277.336121
1305.095581 1939.799316 426.773376
1299.768433 1926.100952 414.188324
956.543396 1880.778320 349.605682
1296.009033 1995.525635 270.895905
859.957336 1910.283936 212.903534
1014.953369 1859.117798 351.589844
1248.600464 1873.730347 283.471588
1207.970703 1803.840210 229.027328
1155.753296 1763.892944 298.799988
1178.400879 1780.897705 161.190292
1083.136841 1825.184326 355.282166
1199.830444 1793.884888 370.314697
1224.042847 1909.183960 433.621094
1147.966064 1767.102539 304.710510
927.649292 1895.045410 387.640778
1127.788086 1782.797852 409.257080
1206.576538 1804.295532 296.025787
1273.361572 1933.588257 376.187195
1222.256104 1812.177490 410.021729
1175.617310 1765.849609 167.219360
1251.665771 1950.055542 459.330475
1106.300537 1852.719360 579.768982
923.788818 1884.369873 206.843964
1278.066040 1894.893311 153.660309
811.498413 1934.473145 419.295990
1177.843262 1767.156860 157.001068
1198.479126 1787.382446 330.242310
1302.536865 2003.361816 246.423721
1242.978027 1862.653442 304.372955
957.520142 1947.669800 467.276611
1227.185425 1850.054688 250.068268
1223.502441 1838.101563 177.948486
1068.930420 1815.231934 212.591782
899.922485 1935.189453 466.603149
1065.971802 1863.203247 288.263397
1225.518188 1835.545776 282.084290
1229.228149 1837.487915 374.931763
1215.593750 1846.434326 356.799927
1061.989746 1873.284790 439.737091
1180.251465 1909.526367 537.577332
1108.525024 1803.120361 159.459259
1213.385010 1905.380981 516.297791
1246.505737 1888.838379 301.186646
1170.246826 1775.886841 417.218140
1021.837219 1848.102783 175.693680
1080.861694 1811.703125 391.178406
1181.847412 1760.685303 402.311584
1147.024658 1814.641235 436.219543
1265.041870 1923.187988 306.718292
926.257080 1890.909424 366.542938
1221.046997 1820.024780 310.768585
1202.737061 1787.114014 331.837128
1193.353271 1900.171753 530.540039
864.670166 1905.372681 183.983765
995.277893 1853.388184 173.925003
926.283081 1895.119995 387.092316
847.694824 1964.248779 225.970703
1234.198242 1863.325317 182.606018
1134.330200 1772.559448 257.600891
1085.626099 1859.386353 439.218964
1047.345093 1817.953613 168.046143
1263.739746 1921.656128 323.967102
986.818726 1857.541992 260.406738
1195.559692 1807.139404 300.583466
936.862244 1886.897705 369.766632
1085.214355 1832.279663 332.187775
1084.929565 1797.195679 315.563416
835.008301 1922.141968 248.009949
993.412537 1856.214722 381.644226
1195.225830 1784.257568 330.478851
795.260925 1954.105225 245.851944
1113.164185 1798.324097 162.338562
809.638306 2021.091553 315.405548
1136.739258 1873.850464 537.055542
956.209167 1874.510498 222.796265
883.793701 1937.656128 472.393036
1207.741943 1899.420654 435.223907
830.190063 1930.158203 444.010223
1133.737427 1762.924683 318.132385
1125.194458 1787.069092 389.816437
1301.356567 1988.931885 157.278748
1155.803467 1767.822144 211.078033
899.189880 1898.005493 271.225128
1299.738159 1948.018921 397.058441
1299.797241 2001.757690 250.117386
1097.399292 1789.747559 364.274261
1074.285278 1829.402588 289.107910
1023.045044 1866.015137 458.000702
1267.431152 1938.895996 232.048782
1187.888306 1748.677490 237.722778
1294.989136 1908.210815 411.656647
957.942261 1861.978027 430.117737
962.828125 1891.596313 267.268585
1192.960938 1799.246094 316.409882
1235.785767 1824.285034 413.723572
904.974182 1903.865356 373.582306
1113.753052 1835.498535 470.721619
1298.778564 1996.072876 340.014313
1270.866943 1965.961304 244.324615
1281.738159 1960.435669 344.917206
1128.936401 1785.184204 339.489594
1087.110352 1820.884888 431.086334
1015.333130 1857.213257 270.461853
961.119629 1873.442749 348.554291
1051.896118 1830.205200 162.333237
1070.320679 1832.559204 266.401093
1253.822876 1899.270630 203.206589
1040.428955 1937.877075 487.919983
1150.299316 1766.533325 359.462708
1289.115112 1904.991089 403.153778
1227.629883 1820.424438 395.981934
1201.687378 1901.190063 501.098846
1235.569458 1848.537598 328.771362
1251.543579 1931.334839 473.954956
1123.641479 1784.906006 204.719009
1235.253540 1836.473999 391.796783
1074.050049 1824.835815 360.125702
1161.925049 1762.066284 227.213272
1316.884766 1966.021240 423.711975
952.768188 1880.911621 246.826553
1206.672974 1809.242310 163.626175
1120.750854 1851.415405 552.130432
1102.240845 1855.251587 468.712402
1235.219604 1902.348389 485.910767
1289.776123 2025.961914 183.204483
915.077393 1899.930664 324.834595
1122.185913 1777.816895 276.491302
879.092712 2159.433350 391.615204
1174.170532 1900.763916 455.519897
1096.317871 1851.583862 432.013062
1190.964844 1761.611206 225.318787
1000.922729 1853.118408 378.953888
1146.778931 1766.034912 280.914001
1208.915527 1902.657593 505.661713
1298.192017 1998.816650 349.417084
1091.855225 1804.175415 239.097717
1225.797485 1897.749756 515.407654
1245.986938 1847.780151 398.040100
1001.204651 1861.811035 349.674500
1236.868042 1892.857910 307.404175
867.106140 1906.472534 207.713470
844.666443 1921.634644 326.349487
899.500793 1908.887085 456.917419
1116.094116 1785.540039 368.677734
801.995728 1942.070435 215.344391
1201.501831 1787.913940 226.100403
1077.191650 1814.847656 396.134369
1173.331665 1760.973389 373.741608
1142.351929 1865.322266 494.219177
1131.123413 1803.011597 421.374878
1298.419922 1995.137329 255.817886
1221.793335 1820.898926 275.145142
960.524170 1872.757813 356.105743
1171.715454 1823.242432 428.818481
1088.396973 1809.021729 405.452087
814.101074 1954.512329 327.497955
816.053101 1950.261597 435.730225
1172.966064 1779.909912 327.263763
854.412964 1944.723267 231.335358
1204.736450 1803.611084 389.041840
1216.776489 1889.064087 431.825378
1229.139526 1894.039551 505.719513
1042.869873 1831.928589 343.424194
988.530518 1867.275879 356.224304
1217.262329 1831.678955 290.756989
1246.066284 1884.869995 306.283142
900.297791 1976.283936 485.663879
1140.200806 1924.085571 427.499603
1082.878296 1810.814819 276.918854
946.432190 1873.535278 186.051392
1293.939941 1988.177612 356.297943
1154.316895 1793.169312 167.835831
920.306824 1901.727417 444.684540
1183.530518 1768.319580 207.823837
1155.037354 1778.084595 177.156143
860.077698 1916.576050 438.557312
834.908569 1925.343140 293.093048
1112.968384 1860.508179 566.681641
1140.355469 1774.174316 236.613235
806.672913 1937.370605 306.617798
1088.928345 1804.015015 379.401367
1164.488159 1759.399048 328.235229
1068.246460 1845.637939 242.041351
818.681580 1946.541260 229.432037
851.100159 2100.175293 218.034653
815.270569 1922.523804 411.113098
1227.589844 1883.588623 426.257141
1135.996948 1782.115845 162.508316
1126.101685 1786.182861 333.833496
1061.673950 1836.271973 352.553314
1028.571655 1849.080078 432.635223
1116.429565 1767.362061 291.880249
845.744080 1935.500000 330.555969
991.984497 1869.640625 243.526260
1291.221802 1957.195923 415.719360
920.879517 1880.626831 193.193588
1157.296387 1785.840820 423.098083
863.218628 1923.673828 223.932495
901.525757 1906.335083 226.368729
1304.156494 2021.724854 207.045654
1295.383545 1994.480835 345.083466
793.030701 1941.217041 337.928864
995.455322 1867.155884 248.132660
1090.413696 1788.470703 324.466492
970.355042 1876.529053 458.456482
1301.993896 1977.300415 390.742065
1074.885254 1804.549316 352.937897
1079.375732 1800.146118 361.072021
1259.644165 1896.068115 314.349060
1289.891602 1975.450806 312.700562
1177.799438 1752.714600 265.070587
833.939514 1941.031494 369.332581
1198.948730 1771.201538 205.517044
1073.781372 1815.260742 185.697113
1198.283447 1790.427856 201.226974
1286.675781 2008.639771 274.406342
943.852478 1878.561646 399.536194
990.072449 1854.641479 189.006897
796.136108 1942.747070 324.343109
1196.806885 1778.341187 395.989746
1237.406738 1925.652710 513.426453
1231.865356 1849.160645 220.806366
795.753723 1963.114380 439.118378
1239.579346 1872.638306 360.312622
1066.481079 1816.688599 202.371078
1060.198608 1825.420776 388.855988
1268.966309 1937.969971 177.259918
1063.438599 1823.515747 390.532471
1149.974121 1786.621338 239.450836
1306.129028 1988.912598 231.628494
944.071838 1877.736084 210.324173
1216.902100 1828.865234 165.572128
988.476990 1860.983643 349.473206
1135.922607 1791.419800 394.623779
1230.044678 1822.904663 396.259033
1086.602417 1809.144775 402.238983
1088.355103 1802.182373 330.698608
1125.052979 1782.836182 394.807556
1105.103882 1788.534180 258.750641
1006.313660 1859.154053 329.072144
1266.108887 1929.441284 374.893372
878.781189 1908.296753 424.798889
817.930542 1953.706665 327.578186
1123.557983 1802.779175 169.044373
1024.198364 1853.647217 212.547485
898.107056 1895.102783 426.023865
1215.951172 1919.590210 469.484131
989.580872 1854.965698 198.710068
1152.638306 1765.885132 373.718048
957.936768 1882.587036 381.505127
1267.788208 1929.657104 363.139313
1117.192017 1845.137939 475.942719
1183.499390 1778.245239 335.103577
1153.529419 1762.571655 325.247772
840.018921 1928.307739 368.237732
1143.531982 1777.460449 166.652328
835.432434 1933.027466 336.669037
1099.129517 1785.395020 178.928329
1250.049316 1943.103516 452.484039
1286.201172 1973.486206 231.734650
1107.683960 1800.072510 368.226532
819.691650 1927.587524 195.497391
1253.733398 1902.965332 211.171432
935.994873 1898.866089 324.215515
963.512268 1880.002075 380.037415
1291.479370 1919.900635 409.306030
1136.961914 1783.942017 159.077682
1143.792725 1875.823242 479.811401
859.431213 1910.821533 419.628693
1171.700317 1766.713013 169.425873
1245.444092 1897.202148 192.889313
811.123657 1943.851929 259.904236
1241.569824 1930.475464 473.305695
897.192383 1914.621582 235.435196
1163.862183 1770.664307 317.490509
1058.015869 1826.878296 197.481796
1051.204468 1838.481812 296.081299
1051.124756 1864.619751 451.396667
1002.979309 1858.105713 374.138550
1242.594116 1904.353516 349.145142
972.082214 1859.818115 196.432510
828.646729 1935.770264 378.648315
1282.551636 1965.955811 184.240784
1304.214355 2012.687012 153.430206
968.507568 1872.090210 382.801666
1207.312866 1795.561035 230.032471
1042.073242 1841.287598 249.136688
920.042542 1884.004761 444.656555
1215.334961 1819.045898 206.852631
964.278992 1859.667358 414.225891
1211.068726 1819.439209 272.506165
818.814758 1921.998291 414.755646
926.843811 1882.410767 381.779327
1180.455811 1761.056885 209.559357
1186.014771 1924.734741 431.967468
973.851135 1874.955200 299.294739
1221.906128 1898.216431 514.969482
1005.259827 1851.733765 217.529465
866.332947 1940.661621 239.276062
944.117065 1886.862671 237.700821
1191.924194 1754.060913 283.977844
1244.641235 1882.498047 282.185516
1213.452271 1812.694946 278.590790
1070.067993 1817.966553 390.616852
1016.598694 1869.523682 474.557037
1141.799683 1876.752319 499.323151
1118.036987 1782.530762 273.954010
1101.667114 1852.705566 459.126404
787.009583 1943.499756 287.507568
1178.578369 1780.297974 202.566223
949.063782 1885.795898 373.468018
1249.353149 1973.788574 448.752533
874.502625 1902.352051 410.234009
972.226868 1875.285156 451.049896
1111.310547 1814.648926 163.359802
1237.372681 1868.866577 182.481277
1254.326050 1918.523071 430.943176
1177.978760 1751.289063 314.213135
1227.592529 1872.212158 282.403564
944.098083 1998.410278 477.550476
1177.982544 1762.058228 262.973267
1107.457397 1794.828613 261.718048
1234.674194 1840.818359 427.423920
864.744568 1912.325806 386.476227
1199.690796 1837.906982 428.481628
876.409119 1936.482056 479.978058
1234.763062 1865.444214 277.374969
1188.409424 1850.797485 425.104462
1181.423218 1806.717896 164.236404
1070.179199 1822.871704 419.968903
1249.938477 1889.981201 352.979584
892.941467 1902.829834 416.368927
849.868408 1914.550781 184.603226
1002.623474 1869.216553 451.490448
1067.178833 1821.519531 191.594818
1147.799683 1797.675049 195.056549
1266.886719 1957.533936 334.252289
812.158264 1936.869751 357.744293
1163.603271 1890.323486 551.931580
957.557373 1860.152710 162.257019
1233.338745 1910.993042 524.955811
1182.454956 1869.718384 429.642334
1143.780151 1769.654785 382.131897
926.000000 1882.649536 419.894409
901.313293 1914.665771 313.217468
1137.673584 1779.786743 398.818359
1254.326782 1903.816528 373.179626
825.113831 1923.857544 412.307739
918.211365 1905.756348 289.933441
1079.934692 1862.764648 508.032104
1017.844360 1842.111450 400.011444
846.271484 1928.989380 339.405090
795.353394 1941.164307 245.890137
935.752197 1880.590820 213.444458
1227.281860 1825.160156 365.526520
1294.377197 1986.421387 320.040833
1133.849976 1874.957886 466.208893
1094.354492 1846.471802 482.807251
978.209778 1854.687134 410.837433
945.919617 1867.815063 198.696304
1053.413696 1828.353638 394.632233
1003.045105 1852.875854 177.665833
1207.549072 1804.435303 366.622437
1063.874023 1825.650391 385.571838
808.313965 1973.805420 328.805725
1286.763306 1950.756348 195.345901
1095.447266 1803.739258 401.219849
1119.114014 1848.185913 488.782501
962.775391 1883.278809 368.065643
976.743225 1866.577637 339.052490
852.590820 1962.331909 488.507141
906.186462 1922.072632 270.024109
1212.439331 1818.671021 158.580795
1087.807983 1807.439941 404.325134
904.937195 1873.315918 177.051605
880.705200 1932.965454 459.837891
959.463989 1903.057983 467.625671
1067.561279 1823.212524 386.874573
1226.710693 1805.560303 420.950378
1256.564453 1910.834351 359.400909
998.832825 1878.487793 462.816986
984.147705 1862.992065 183.318741
1307.194214 1991.794312 244.399231
1094.359009 1869.602539 485.582947
870.624207 1916.343140 259.493744
1290.413818 1955.066528 415.611481
1021.604309 1850.223877 282.069611
840.831360 2020.194702 475.157684
1241.172363 1855.648071 316.676910
942.636292 1893.628540 369.204529
1178.623779 1777.511230 335.934021
883.774292 1914.930054 287.470703
1174.371948 1801.639038 428.137604
1192.038086 1757.600098 377.188232
1168.407837 1769.812500 418.643616
882.522827 1918.458130 459.147156
1143.871460 1785.821411 420.135712
979.908264 1854.119507 220.224976
1266.920288 1933.409668 253.057083
1097.732910 1888.875610 474.163605
1198.317627 1795.315552 177.216690
986.563416 1860.609375 371.399414
1200.831421 1780.286255 286.204315
969.129089 1870.830078 267.038849
1184.338745 1783.632813 410.393616
1226.397217 1915.732788 485.212433
1136.969482 1778.867432 318.092682
1201.879761 1846.221191 440.407593
1048.593506 1826.975342 307.854889
1128.651245 1840.863159 483.993103
1125.021729 1833.492432 534.610413
1117.541626 1847.134155 550.457520
1160.934326 1896.697754 432.992523
1160.607544 1860.563232 427.201965
875.451599 2151.515381 268.710358
855.770264 1924.066284 358.400543
987.911255 1877.314941 458.213531
1191.741943 1901.769165 498.314941
891.611084 1908.131836 245.066330
1232.417603 1822.336426 395.460602
1106.604980 1789.746460 409.156403
1024.698120 1836.859863 160.036407
1263.557617 1918.979980 374.133636
1126.033569 1891.968750 462.781067
992.628845 1864.152222 386.280701
961.261353 1875.363770 231.413666
1227.194946 1922.592041 467.052704
1118.208252 1783.933838 380.209442
912.977417 1886.516479 211.009033
1143.002563 1773.692383 208.698532
910.918762 1902.069702 263.167969
1224.187988 1843.361450 227.825134
1020.725342 1861.502441 259.620392
1321.525879 2026.376343 190.363968
1097.946289 1888.277710 464.611053
1034.713745 1870.999878 471.034088
1207.963013 1804.343140 359.248932
1159.208984 1761.431396 345.632416
845.978516 1895.636230 169.133789
1110.888184 1845.783813 504.700470
1072.536011 1820.326538 375.110443
991.131042 1870.032349 351.455322
914.855957 1893.943481 330.037262
1116.397217 1793.759277 410.854950
1061.795410 1831.565186 420.897675
1275.764404 1953.190308 287.964325
1292.038940 1984.683350 356.373932
1202.542847 1805.934448 333.287323
1202.273682 1912.052490 439.288483
1259.841797 1949.622437 438.303314
826.960388 2057.271484 440.990021
1201.759888 1820.902710 321.610687
972.834961 1925.453735 473.839081
845.213196 1921.658447 309.898499
1160.843140 1824.144897 430.912567
930.270264 1916.013062 257.503876
969.031433 1862.113403 243.838531
1087.044678 1808.370605 390.122345
1194.067383 1764.031494 157.600418
860.604980 1977.406738 478.060303
788.055542 1949.515747 413.771820
1021.625366 1853.594238 244.396545
1246.984497 1949.774780 440.258087
807.223877 1942.679077 376.095428
1024.457764 1844.359009 354.096405
1262.182617 1916.304565 203.686813
810.608276 1942.246460 436.865936
1231.323486 1848.942017 378.631500
1116.246704 1791.358276 286.598785
1055.774658 1826.346313 181.310928
1297.468628 1997.493896 182.804459
1192.128662 1788.691772 175.448517
1238.303223 1814.699097 396.077240
1136.879395 1771.190918 285.867859
1082.233276 1806.670288 284.103363
1054.952271 1823.481323 200.868820
1226.083984 1899.869995 496.378265
1004.148071 1872.104004 277.941162
1152.290039 1771.064209 380.019684
1084.838135 1814.295654 381.028687
1214.133667 1827.102783 298.945740
983.012695 1882.541504 373.612274
1037.875488 1977.496948 471.451965
1221.843628 1818.283813 423.339844
1020.975464 1843.509644 213.264771
940.803833 1892.930664 279.870850
889.424805 1901.110229 410.961334
1251.506470 1893.908936 270.124603
1198.050537 1769.683350 240.383286
977.003479 1866.611206 166.012878
1039.442871 1850.934082 240.738159
1172.735596 1783.922119 422.105713
968.312500 1863.775879 163.268616
1067.066528 1812.882568 385.176727
1167.969238 1765.901367 351.970001
966.145142 1875.365479 224.673309
859.232117 1913.072144 383.568390
863.983032 1900.439209 159.937332
926.667236 1877.317993 221.363342
1249.075195 1969.882568 456.413910
1184.140991 1925.535400 444.256317
907.280945 1898.220581 301.365112
967.795593 1933.536133 459.024902
1152.315552 1772.988403 386.696960
1028.554688 1849.793457 458.289886
853.144592 1919.305176 439.072266
1141.619873 1875.657471 519.418762
1122.486450 1778.060547 300.801453
1087.841919 1808.138306 195.825531
850.183533 1934.666504 211.682312
802.437073 1981.796509 434.005615
1008.470764 1855.317871 342.573944
1038.899658 1824.473999 162.235687
1261.926636 1942.959839 366.093170
1092.881226 1803.876587 359.462433
1235.414185 1872.069702 374.003937
995.644714 1861.639526 334.700409
1195.186035 1783.219482 346.620819
962.760620 1869.690430 421.883209
1083.243896 1860.680664 504.808319
949.315125 1877.747437 371.294037
1301.291626 1984.005615 421.788116
935.494690 1885.420654 355.044495
1103.187866 1796.964478 268.959076
1191.782715 1756.158691 281.062744
857.094666 1920.845947 408.920227
1193.421753 1787.679810 167.852478
1112.654297 1789.143555 225.352768
867.231445 1905.489746 407.734863
1112.638428 1783.025879 245.727310
1081.546143 1815.652954 288.208679
1317.422974 2012.994263 264.372101
1111.376953 1793.505493 421.380463
914.149414 1892.422852 373.654053
1051.803101 1820.489502 405.477783
892.238586 1940.657349 236.611755
1221.819702 1828.679810 246.690231
1031.536377 1854.705811 213.032181
1188.882935 1784.269653 215.829803
1026.443848 1853.090820 298.565063
1267.841797 1929.476440 326.452606
1085.197266 1808.982056 338.971161
1246.634277 1870.631226 351.058563
1184.466553 1755.366699 277.489899
1233.498535 1863.178467 308.561768
1262.863525 1950.447144 424.421417
981.947815 1867.597534 159.945007
1069.256226 1879.902588 443.955841
1201.958374 1802.588989 383.085938
999.538635 1845.020874 426.996582
955.627258 1891.153564 292.443542
920.485657 1895.688232 320.838989
1121.798706 1781.056519 239.235962
1097.975952 1798.438110 366.084442
1126.781860 1780.069580 250.418243
933.592773 1890.016235 158.242538
1111.857056 1797.842407 401.406799
1237.226685 1851.543945 252.287018
1019.038940 1847.815308 314.625244
1077.121338 1850.339844 425.616211
981.229736 1871.341431 444.010406
1157.543945 1786.072632 415.528381
934.678589 1877.449707 169.429199
899.092041 1898.551025 349.203369
814.342407 1937.011597 391.512390
1106.395996 1779.792236 296.104614
1278.054688 1925.848877 387.535248
1136.937012 1799.017334 186.564850
925.924377 1891.162720 289.980133
1072.908447 1809.197266 300.199280
1197.536621 1769.944214 183.569565
1118.668701 1780.640503 366.201233
834.809448 1900.678589 177.384674
1188.252075 1763.244019 409.818024
1099.722778 1795.349365 226.755402
834.872925 1932.615601 344.786499
1236.700073 1919.619385 437.215729
846.567566 2090.275391 379.644928
1027.222046 1841.647949 391.648376
984.916809 1913.569336 465.884918
855.567993 2109.037354 355.832489
1044.893799 1846.556274 434.914703
1261.930420 1900.424683 297.928375
929.909729 1896.893555 278.743896
843.627502 1958.038208 469.665253
996.027649 1866.052734 238.967468
1155.775513 1770.106201 369.974182
1249.787842 1908.680786 334.400269
1221.546021 1818.475220 391.418793
1109.061157 1863.029907 499.185516
1306.158447 2021.343140 161.711853
1277.891113 1956.697876 372.351227
969.932251 1864.967407 195.331604
1234.427734 1915.460815 472.419464
1161.824585 1783.020142 160.856201
1227.442993 1999.304077 432.535675
837.728455 1934.103394 192.940674
863.503784 1906.691772 404.713745
845.410950 1918.446533 206.432220
1238.430176 1917.424438 504.461182
1087.083740 1822.169800 427.300293
835.385376 1936.477539 334.189667
1179.773804 1760.111816 191.287186
1209.270996 1788.067139 407.306000
1145.174561 1833.604126 426.777283
1212.354736 1793.037476 156.701797
884.239685 1949.949585 491.444183
974.461060 1867.484131 312.045746
1007.885376 1856.813354 441.253265
1088.740234 1800.225220 272.461700
1266.614624 1883.710693 408.671448
806.862305 1938.553833 390.562103
987.835205 1851.932007 443.176086
1170.905884 1910.723511 499.654999
858.075623 1924.495117 374.929535
803.829956 1938.302612 216.525162
1043.339233 1840.555908 438.208344
1003.991760 1890.111206 471.692566
824.306580 1927.442261 206.350861
948.371765 1896.529297 441.439575
808.830139 1978.120239 437.317719
1003.433716 1868.036743 305.779175
824.995056 1942.207031 463.038757
1060.000000 1915.127441 463.259125
931.605042 1861.561523 163.160187
895.717041 1901.612183 221.162048
972.646362 1862.687134 454.352142
1064.069824 1856.502808 362.750610
1290.260742 1928.892334 428.642212
989.671143 1967.589355 481.601440
1260.270752 1913.127197 325.002899
816.839478 2033.044922 427.392639
1139.605347 1772.479736 322.259277
872.325012 1931.457153 330.558929
803.007141 1945.688965 244.923294
989.993225 1907.319458 450.438049
982.766541 1864.439453 458.337738
1157.918213 1779.317261 427.944885
1283.328491 1963.383545 337.646820
976.200989 1864.488647 275.634338
940.256042 1876.176270 439.847656
909.852478 1894.467651 214.955032
906.953125 1921.951050 256.608459
1250.548340 1894.709229 317.517395
902.982971 1911.749878 227.137848
1167.409302 1767.182251 227.418900
1140.751709 1775.244873 371.317688
888.566101 1911.041016 441.528412
1224.187012 1841.125854 424.713348
1302.256836 1951.874756 152.657501
825.514526 1922.798096 180.843323
1225.546143 1835.108154 197.836731
968.015381 1960.905884 465.530518
1246.161499 1883.780396 336.011566
866.500549 1977.617310 492.794434
1282.479248 1991.588989 334.340973
1175.104492 1759.727417 352.270874
970.101807 1870.734985 164.054672
968.626526 1877.778442 292.558807
894.444458 2000.681030 483.946747
989.262512 1862.833008 355.805634
889.696960 1907.283203 328.610229
1231.180054 1854.297363 339.396240
971.262634 1875.393921 360.022278
997.017334 1893.611206 471.995453
920.647400 1905.115112 427.383362
1183.054688 1834.390259 428.615112
1301.473877 1989.478516 417.209076
1149.193848 1763.886353 345.747223
976.178345 1866.424927 332.681091
1050.976440 1845.055298 283.719666
1202.315308 1780.957764 200.295425
1086.733032 1886.078003 453.098633
1130.146606 1793.220825 410.735657
1106.972900 1782.716553 302.903992
1221.794800 1822.192871 242.211594
936.514709 1953.191772 467.821045
971.460449 1868.326904 348.587372
1265.985962 1935.768677 351.397461
796.598328 1948.416992 328.977417
875.415283 1904.163330 214.339752
1205.811646 1805.524048 182.711411
1180.727295 1760.498901 231.917694
803.123413 1935.085327 406.675018
978.978088 1867.293335 286.203003
901.278320 1897.495117 204.093246
889.361511 1916.220337 451.367401
1226.899048 1837.838745 219.053253
823.612305 1962.736816 477.866302
1133.947876 1834.143799 431.588837
1095.906250 1803.047729 384.436310
1300.981689 1985.623657 167.170822
955.325623 1867.782837 410.440674
946.829590 1885.856812 468.266296
1217.292969 1888.314453 491.873962
899.136841 1901.325317 308.734894
1261.706421 1918.056396 258.520935
1099.918945 1778.301636 256.052277
1127.578613 1854.381592 525.844055
1046.986816 1815.449585 199.374466
1157.139771 1770.073608 167.336792
944.610535 1874.909058 254.174820
1078.113159 1806.438721 387.613434
922.751831 1890.328613 216.631989
1060.880249 1840.867676 278.570221
1029.613647 1843.189453 162.949493
1228.204224 1899.287842 508.887878
1178.375122 1779.912842 166.569534
1228.439819 1920.390381 494.301575
1095.648193 1849.221191 435.037201
1223.869751 1819.992432 396.716583
929.787903 1883.089111 183.427444
