ply
format ascii 1.0
element vertex 1376
property float x
property float y
property float z
end_header
-389.439697 504.929504 2019.231689
-178.802353 794.312622 2015.956787
-107.828873 658.086060 2040.917969
-254.204147 863.800781 1994.587158
-53.486023 574.057251 2200.225342
-65.745117 702.900024 2036.597290
-121.934792 695.125061 2012.156982
-170.408447 570.599487 2070.935303
-367.614349 396.923676 2223.337402
-133.192993 568.669250 2153.902100
-264.298401 549.196594 2060.031006
-329.839752 425.216034 2073.970215
-408.929901 406.215912 2082.170654
-54.611851 612.684753 2130.680908
-272.716980 342.600403 2120.266357
-137.240143 621.725098 2046.146851
-319.514587 913.348572 2214.035645
-211.206985 855.282776 2245.416016
-366.888153 650.891418 1974.208496
-293.027863 715.932373 1973.536377
-111.733391 596.832458 2075.507080
-237.664246 370.562012 2144.873291
-166.917450 475.447540 2118.818115
-315.281921 594.111877 2016.454468
-303.091644 352.881561 2199.271729
-218.432220 394.899658 2156.582275
-365.487366 531.094055 2017.248413
-190.955765 475.483856 2073.903320
-197.256226 453.800201 2095.461182
-402.315887 478.869781 2022.526489
-170.770218 823.476440 2226.860596
-225.495789 570.810730 2049.235596
-86.353371 717.404724 2212.165771
-245.322937 676.743591 2008.703003
-208.453400 744.056458 1972.164917
-90.683090 628.317383 2155.354004
-188.174332 482.912079 2077.290283
-262.216705 830.020508 1967.633789
-70.697617 750.337769 2172.203613
-12.248529 566.839844 2175.088379
-176.053574 804.668213 2139.995361
-278.162537 889.371887 2233.135498
-53.362034 746.682800 2155.393066
-204.855728 531.142395 2060.460205
-260.853668 412.036011 2092.447021
-210.766708 712.283752 1985.717651
-448.589050 444.577637 2012.202637
-250.894165 466.981323 2086.014648
-226.842468 855.827209 2159.597900
-442.619141 457.418121 2042.648804
-180.187012 668.270264 2003.984375
-211.075195 835.879028 2175.654541
-170.867752 790.929565 2063.781250
-323.361511 349.287842 2101.527832
-313.855804 708.766113 1975.759033
-232.232208 438.759949 2080.425293
-227.537201 751.434204 1967.930054
-198.751053 473.543579 2176.046631
-72.138138 750.419556 2121.970947
-245.417328 862.605713 2193.373779
-82.071587 791.545898 2233.634033
-215.172562 802.611877 1966.042969
-57.044430 699.754395 2059.354004
-109.145538 660.234985 2040.723633
-240.615799 740.010559 1974.367188
-239.438263 837.164185 2015.559692
-253.628754 867.682922 2000.649780
-221.008423 830.659546 2221.509521
-96.956093 667.093445 2037.537720
-100.484123 657.680786 2040.202148
-205.412247 820.513306 2081.131348
-86.612587 781.903137 2220.981689
-319.649109 680.793518 1982.122559
-233.624649 806.877686 1955.793457
-352.831238 426.404968 2070.541992
-72.447052 776.910583 2206.661621
-155.309616 785.170959 2174.010742
-308.545807 510.063232 2047.425415
-284.124634 667.594727 2000.613647
-227.458603 640.191223 2085.277100
-218.059998 845.183167 2236.809326
-235.427658 373.119995 2106.007813
-192.873932 554.237793 2058.834229
-240.445984 836.073425 2007.345459
-313.935150 540.047302 2036.694580
-164.752533 538.376526 2067.051025
-117.362984 704.187683 2012.445923
-70.566750 614.032043 2175.445557
-164.488480 718.006104 1994.009033
-84.856926 733.610168 2194.772949
-243.270447 843.261780 2048.375732
-200.345490 807.924622 2054.306396
-229.301895 521.862915 2060.110107
-280.195801 889.330933 2086.512939
-186.101486 591.054565 2053.233643
-151.533264 780.989746 2158.552979
-81.375061 699.708008 2196.508545
-416.994873 491.001587 2001.961426
-239.551254 450.164551 2067.878418
-113.255836 644.083740 2042.279175
-75.720642 685.702209 2060.374268
-158.612335 699.020996 1998.388550
-87.392052 678.877136 2037.975464
-216.934601 348.133240 2145.434570
-143.189194 621.963196 2045.736206
-108.851105 677.216125 2033.837524
-92.224457 734.608337 2068.151367
-240.171967 856.913147 2228.033203
-63.762524 723.234009 2113.083252
-144.657806 789.820313 2194.654541
-213.834290 767.176086 1975.080933
-183.504562 804.823120 2086.438965
-59.239685 686.137878 2065.844238
-222.638260 436.512207 2097.315430
-147.865509 506.724731 2112.332275
-155.646240 510.216766 2074.288330
-138.877991 760.746216 2032.270752
-70.847679 711.552185 2248.863037
-287.272858 364.256866 2086.788818
-91.626091 789.830078 2245.146729
-283.532227 404.993530 2076.512207
-429.070862 478.840179 2009.422974
-222.673676 578.063049 2044.684814
-60.065716 590.495056 2146.086426
-364.827087 573.347961 2009.484619
-147.142380 553.319519 2184.789063
-159.613297 791.238586 2207.154297
-80.539749 660.169373 2043.378174
-176.092484 813.088928 2132.453613
-212.818176 827.671265 2135.658203
-245.491150 854.192139 2142.663330
-264.946655 487.765930 2062.962646
-47.009235 686.681885 2227.786377
-285.168182 862.079346 2101.327393
-347.944244 373.218536 2071.927734
-234.566345 665.456421 1991.180664
-55.390038 599.320984 2168.809570
-106.807945 639.885681 2046.202881
-260.970367 876.434448 2019.255493
-238.478500 615.486023 2045.934814
-56.015709 715.179871 2086.652344
-447.625824 436.322113 2018.852783
-325.500946 722.761475 1964.140137
-410.039398 444.291962 2042.441284
-238.097748 851.356323 2170.809326
-68.117477 754.639832 2156.424316
-172.733582 503.384705 2082.444580
-386.814453 536.174438 1997.301270
-283.475403 889.469116 2225.903076
-103.622574 620.637695 2063.786621
-48.647648 722.695679 2079.968018
-111.741928 597.089478 2111.715820
-104.160393 614.743347 2104.720947
-229.227600 850.189514 2099.517334
-299.874359 346.651093 2128.406738
-420.961700 530.078857 1990.879639
-62.134502 696.758179 2108.990234
-65.790916 583.076660 2148.977783
-272.230621 370.365356 2113.583252
-77.014801 713.346680 2178.100098
-211.923050 471.692566 2074.182617
-141.441818 779.136902 2129.552246
-168.826645 475.361237 2130.522217
-334.881927 608.276062 2021.425415
-111.707642 745.422791 2094.924316
-173.807434 669.068420 2006.785400
-140.980057 544.118103 2088.831543
-270.271912 808.549133 1957.186646
-236.987610 435.378693 2071.504395
-193.212875 804.035522 2147.616211
-304.159760 897.766541 2186.384521
-147.134567 774.767944 2063.771240
-72.237038 685.537964 2035.411743
-233.943024 851.978577 2178.997314
-65.807724 617.767944 2158.737793
-193.174133 797.187805 1978.999878
-265.280609 571.519348 2038.750854
-219.281128 491.273468 2071.242920
-298.575592 712.307739 1967.733154
-65.870956 679.709656 2111.966309
-254.560333 810.396484 1957.387573
-313.978271 387.203033 2072.521484
-154.600189 659.679077 2023.279053
-76.286522 704.047302 2167.411865
-129.524155 748.733887 2283.959717
-133.552109 751.190552 2022.309082
-196.889709 556.566772 2058.005371
-139.014969 766.930176 2027.637695
-78.863731 688.599426 2109.683350
-201.174103 840.185181 1947.205078
-79.852692 788.884888 2228.191406
-262.808777 570.147156 2039.047974
-261.014923 648.062622 2028.719727
-232.142960 836.578613 2068.280273
-59.859047 739.298950 2167.488037
-212.503830 373.276978 2130.467773
-316.494202 387.312958 2072.200195
-215.138458 794.427246 1959.820190
-284.043396 560.257324 2031.513428
-159.570786 563.422180 2062.689941
-356.754272 687.884033 1975.447021
-346.284637 528.320679 2030.322876
-289.060974 712.402649 1989.655884
-21.931894 563.577576 2156.977295
-155.626984 771.988220 2115.233643
-187.618576 517.896484 2068.541748
-80.888710 725.875061 2045.699829
-35.671112 566.958984 2143.774170
-65.341827 696.403259 2197.538574
-240.424301 392.931427 2095.548096
-144.665344 541.476440 2154.561768
-372.011444 386.989319 2155.795410
-399.849640 517.488525 2029.589355
-182.004578 814.741455 2178.214355
-189.450165 658.054749 2018.100098
-95.423943 740.274841 2206.929932
-160.443665 775.957703 2020.817505
-211.564865 824.727478 2223.065186
-117.093002 753.005005 2099.864258
-281.947052 626.229675 2024.781982
-164.332336 787.458801 2121.045654
-124.508812 794.082703 2234.726074
-270.392120 570.426086 2037.595581
-207.029724 821.352722 2100.227783
-253.051147 568.390015 2042.830444
-339.944489 707.037598 1973.377808
-84.554878 631.207458 2171.275391
-192.767807 820.469116 2165.732422
3.715128 536.615906 2164.177246
-170.494629 682.452148 2004.651367
-50.400345 692.143494 2227.025146
-218.150375 488.589172 2083.507324
-140.970810 612.640015 2052.379639
-102.546211 600.985840 2124.175537
-149.248276 777.795349 2103.794434
-171.948349 480.206635 2096.586670
-219.365234 579.839905 2275.641113
-350.181580 672.642151 1977.796631
-258.642517 845.968567 2004.459961
-273.342621 873.263489 2125.674805
-440.593323 522.504395 1979.033813
-182.544479 833.471069 2239.182617
-89.174438 642.582458 2082.239014
-319.075989 726.695068 1968.161255
-330.461945 542.073120 2031.152100
-152.345963 679.684143 2024.971924
-306.073090 385.921936 2074.537109
-33.949215 554.998352 2137.810303
-179.834351 791.175232 2018.787720
-260.497711 867.571472 2138.414795
-213.237152 835.977478 2084.361084
-232.891327 862.382874 2182.393799
-449.222168 487.208954 1996.354492
-213.831024 820.872375 2034.151245
-207.199570 814.088989 2034.265747
-358.114746 591.614014 1994.773315
-277.794128 676.049866 2001.978760
-196.173874 709.846924 1983.320068
-225.150894 637.723755 2039.220459
-225.046677 639.858826 2014.006470
-59.962601 695.760498 2220.850342
-369.373718 542.609314 2013.485474
-143.440704 799.758789 2265.648682
-130.769424 696.464600 2014.382446
-176.592743 477.210602 2090.267822
-112.655594 766.240479 2287.157227
-92.367889 681.696228 2036.626221
-207.177322 831.295105 2103.316162
-371.326904 622.689941 1985.294434
-54.610409 610.509888 2153.548096
-138.694244 763.950500 2022.861572
-314.025024 528.120483 2035.510132
-60.425137 675.600647 2207.852783
-163.292404 802.491272 2114.933838
-325.666748 408.815887 2060.051758
-79.786140 665.122131 2094.150635
-255.151642 369.048096 2131.790771
-188.475815 807.897339 2079.378662
-321.505615 625.304199 2012.722168
-284.353333 584.826477 2039.689453
-284.510864 360.937256 2121.580078
-227.637131 368.982666 2132.363770
-224.516800 747.812805 1962.702515
-332.822327 421.562225 2064.560303
-125.240868 741.161743 2005.160400
-186.173203 459.246613 2148.334717
-228.308197 404.238525 2125.177002
-140.667953 575.882507 2069.913818
-83.043839 792.552368 2246.863525
-232.284775 412.203278 2112.130127
-185.062592 792.487183 2104.683350
-394.498505 520.594788 2011.614014
-62.815849 600.486328 2115.809570
-310.940277 731.889038 1968.913696
-250.692307 732.217468 1972.751465
-215.236435 381.385132 2144.237305
-205.312088 840.040466 2172.654785
-161.902344 755.239624 1992.090698
-404.180389 475.275024 2023.055420
-77.922638 765.234314 2172.756348
-140.878067 786.097046 2214.248291
-101.798622 729.178955 2040.450928
-305.650757 744.709045 1954.145508
-255.448502 798.896057 1955.915405
-138.023636 533.637512 2102.104736
-393.668732 599.567444 1982.708374
-253.238602 722.820740 1974.895264
-72.355751 683.983398 2095.864014
-388.826141 546.450806 2000.177490
-145.781479 771.769714 2001.552124
-101.079414 604.429810 2092.853271
-151.806320 523.280640 2078.649658
-302.369202 896.881470 2167.982422
-86.321701 656.560730 2060.624756
-97.042984 732.459473 2245.980713
-73.314354 583.085327 2152.386719
-256.788483 411.354431 2091.904541
-212.062515 436.548035 2190.779297
-61.583961 573.470093 2141.030273
-161.289429 808.407043 2246.962402
-321.984833 515.462280 2049.688721
-237.829666 858.584473 2134.517090
-461.688782 499.209015 2003.346313
-216.658478 518.368774 2070.148193
-103.760071 664.553833 2209.562256
-243.912491 694.070007 1988.084961
-340.567535 406.055817 2069.189941
-122.087669 535.225159 2100.428467
-55.451679 719.494812 2056.284180
-332.187347 577.309387 2003.978638
-161.479706 729.908630 1981.881226
-175.552917 819.439331 2254.871094
-168.006332 711.450867 1995.778564
-160.552094 685.842896 2009.696655
-231.923080 764.123413 1971.868530
-54.058926 606.417114 2131.915527
-130.653885 761.088074 2040.004639
-175.529449 798.954956 2084.859863
-361.727203 599.767822 1993.779419
-227.888184 832.727661 2045.270020
-231.688324 473.054932 2076.465820
-249.154861 471.315277 2071.762695
-127.285019 618.006653 2042.150269
-285.300171 362.737274 2116.565186
-62.277935 731.517395 2104.644775
-467.517181 516.501892 1996.163574
-381.012054 555.418762 1987.524414
-158.252060 720.928345 1994.833374
-75.042648 742.441528 2211.648193
-209.054962 833.389893 2221.291748
-426.767853 529.205322 1996.473022
-127.833321 721.652893 2005.408081
-82.816467 659.645203 2050.154053
-165.329712 764.674927 1982.167969
-441.029297 435.170135 2017.996338
-169.471939 817.080811 2191.376465
-211.605957 450.305206 2103.150391
-140.168106 564.994873 2066.033936
-150.352890 552.608521 2064.312744
-311.749298 469.783966 2065.864746
-177.325363 747.511292 1990.777954
-165.380112 642.345032 2034.620605
-346.136444 459.834015 2051.027100
-227.138184 826.025879 1971.572388
-183.276413 525.334900 2078.308105
-117.923233 599.023865 2061.965576
-260.278137 394.956970 2113.618408
-230.730515 672.913818 2007.226685
-344.554626 363.548706 2081.562988
-121.028770 570.415100 2129.380859
-83.032928 725.344238 2168.561279
-304.711761 678.989136 1996.132935
-136.328247 572.574341 2131.683105
-192.442657 514.060303 2065.154297
-156.831345 717.840881 2004.509766
-41.578663 606.183167 2209.648926
-289.744598 680.444641 1987.432861
-186.334396 466.147095 2087.897949
-151.292267 774.846802 1993.419067
-376.418640 641.976807 1963.481079
-253.824554 809.170898 1956.584717
-197.805283 501.166473 2070.395996
-142.381332 536.983582 2076.858398
-162.148590 534.226929 2073.090332
-180.331955 815.898865 2194.955078
-476.703918 491.539001 1987.968628
-233.318176 856.546631 2214.636719
-271.101013 374.362823 2089.546387
-138.661194 516.194824 2088.224365
-297.825226 907.133301 2155.729004
-104.057091 725.647461 2015.511230
-350.877197 378.300079 2061.350342
-206.578339 797.491150 2030.807373
-86.156647 727.684509 2032.316650
-184.362747 530.145691 2067.069580
-415.291016 577.338928 1984.086060
-172.668808 472.065308 2113.407227
-285.085663 881.087463 2073.326660
-67.275314 707.237854 2190.771729
-99.468842 674.112244 2166.941650
-113.719246 625.559265 2096.429688
-215.802567 384.875702 2173.429932
-253.815475 857.517151 2107.124268
-97.236481 654.707764 2133.906738
-340.249420 524.148804 2034.016602
-160.105026 681.459473 2004.117920
-357.080719 605.784424 1994.844727
-316.120544 621.144714 2001.664185
-36.127174 690.991394 2251.728516
-236.188034 428.550690 2090.967773
-208.607346 837.071899 2224.342285
-352.714478 440.772308 2054.520508
-113.056763 631.886108 2052.751221
-369.550751 559.841431 2022.326416
-68.422104 662.347961 2060.501221
-91.226395 735.471375 2056.245117
-176.895187 469.390442 2080.549561
-311.648560 403.591888 2066.241943
-255.799973 366.234650 2145.510742
-171.938080 803.139221 2072.802002
-329.246307 457.183929 2048.146973
-83.909698 648.443726 2051.288818
-215.143143 841.836853 2231.217285
-353.347076 562.682495 2013.224731
-297.758942 774.260315 1966.196655
-255.198181 707.641968 1986.011353
-273.465698 776.185669 1956.952637
-76.245163 688.232849 2201.053955
-214.403671 518.696350 2069.952393
-430.374725 488.175415 2010.322021
-262.130219 700.480896 1993.439819
-269.253235 801.935303 1950.918823
-386.519653 632.315369 1974.525391
-127.543900 719.287415 2017.552612
-139.595093 660.586548 2032.030640
-182.638245 534.160034 2063.530029
-69.973106 689.001343 2189.042236
-275.978760 878.235107 2176.893799
-58.317936 727.960571 2087.455322
-134.497665 566.675781 2106.568115
-344.589325 493.071808 2036.372925
-268.004456 804.740845 1950.201904
-279.189575 775.480774 1962.755981
-90.972481 639.260925 2108.589111
-104.260735 727.595215 2044.623413
-262.713318 514.316589 2074.405762
-265.018311 782.439087 1972.008911
-208.075974 754.848083 1974.744385
-89.470909 682.481079 2205.470459
-197.802032 811.372742 2087.952148
-352.824158 538.542297 2032.173096
-386.197693 557.946899 2003.151855
-290.672607 675.336914 1996.667603
-128.478882 713.124451 2005.867065
-308.514954 363.072784 2104.060303
-93.624771 766.355713 2226.959717
-212.934357 560.492188 2052.877197
-261.154419 719.747925 1974.728516
-95.194946 693.353638 2158.785400
-347.588989 489.097443 2032.526611
-84.610916 656.169617 2045.326294
-133.701202 562.426453 2109.464600
-182.475891 463.785522 2163.552734
-90.652596 781.736816 2262.811035
-107.434486 691.223022 2022.885010
-173.081528 700.386597 1995.357300
-257.121033 868.563416 2110.267334
-316.764313 429.871887 2059.466064
-98.741776 652.575928 2053.402344
-314.661499 574.180908 2022.865967
-38.476227 592.916626 2188.359375
-251.105423 824.958862 1953.630005
-208.926636 441.913147 2107.553955
-241.887009 864.611450 2243.413330
-310.278534 742.088928 1960.216797
-183.104813 789.112732 2009.851196
-293.940521 589.822388 2022.513794
-78.454933 662.867554 2064.039795
-402.914459 570.349548 1986.901611
-214.979462 457.307526 2105.814697
-427.147339 444.305969 2026.520142
-183.085205 816.152649 2181.672852
-116.626129 580.596252 2120.664795
-62.885387 579.980713 2135.952881
-171.648178 792.212463 2043.037842
-160.288849 490.599365 2078.612061
-54.351940 694.184021 2058.751709
-232.824921 840.619385 2078.602051
-236.091522 812.369385 1966.342407
-191.590683 762.883911 1977.343628
-206.931076 637.110535 2023.563354
-200.070221 522.231018 2067.835205
-197.977295 751.934631 1978.295044
-55.926445 699.928528 2091.884033
-238.878525 451.858429 2072.648926
-312.246124 475.371094 2052.689941
-205.142715 835.741638 2244.882813
-184.669998 806.553955 2110.613525
-52.548115 614.362549 2136.655518
-70.020103 671.511841 2077.379395
-409.309998 423.728027 2203.528076
-235.221313 846.636658 2126.550049
-10.672288 565.420349 2175.944824
-109.418785 614.588013 2118.479736
-387.584778 556.951355 2026.076172
-11.647502 575.596497 2171.760498
-205.342789 789.898926 1966.944946
-179.449326 747.566711 1985.615112
-256.824463 861.447998 2002.292358
-148.060257 631.367920 2025.519043
-409.284119 542.506653 1995.216675
-197.030502 648.463806 2026.109009
-28.645241 586.581482 2179.609619
-224.385895 578.829712 2055.649658
-177.981094 485.960602 2152.891113
-150.957520 648.125610 2018.883545
-180.907990 496.249268 2076.849854
-258.616669 844.497681 2025.130981
-182.478134 747.249634 1980.057373
-177.733810 617.824341 2044.475098
-248.939133 387.341278 2101.335205
-124.839973 769.981934 2148.291992
-125.351189 707.384216 2007.880615
-456.947876 483.196106 1995.781860
-269.136871 866.233582 2103.671631
-105.402405 802.294189 2241.730225
-197.253922 523.514343 2066.773193
-141.230347 570.087708 2115.904541
-130.697220 595.255188 2113.994873
-181.579422 763.430908 1974.528931
-143.286560 492.704773 2106.237061
-152.879150 502.715729 2114.914307
-169.864212 683.398560 2013.201782
-212.515427 477.587006 2073.526611
-253.801682 876.921204 2178.028809
-350.094360 429.241760 2057.806152
-34.681179 580.026489 2154.035645
-436.924744 533.256714 1995.525269
-84.828468 626.337646 2066.804443
-220.951080 837.331543 2077.562500
-133.187592 711.638977 2004.128906
-132.254654 574.042786 2082.422607
-211.917480 840.191040 2233.324951
-278.828979 546.509583 2042.810425
-93.301636 689.835632 2031.254272
-206.991440 458.017944 2116.230469
-271.058685 366.871887 2096.262207
-148.343430 785.720947 2091.221680
-46.305027 732.108704 2102.186035
-467.436310 487.633026 1961.612793
-371.351898 579.233398 2001.010254
-216.474625 833.787415 2149.762939
-203.321106 826.367004 2153.117920
-281.890808 559.156189 2038.113403
-231.488464 811.381165 1954.775146
-168.168762 787.667297 2081.936035
-334.607666 594.589844 2011.022827
-131.775833 697.537048 2011.861938
-321.125488 683.761047 1979.644531
-212.937958 798.626404 1959.379028
-180.200317 501.725220 2071.592285
-281.391968 903.934387 2228.569092
-93.920792 757.925781 2125.266602
-275.397736 873.668091 2120.429688
-206.779221 833.988770 2123.392334
-301.752472 426.226410 2067.147217
-193.421097 672.743896 1997.235840
-118.832344 555.694458 2136.740723
-378.994110 564.280457 1991.708862
-85.853714 649.462219 2070.656250
-138.882202 510.082672 2112.055664
-304.851349 895.523132 2167.652100
-193.829163 495.968079 2081.643066
-165.268692 500.425079 2082.462158
-240.026825 524.040039 2062.310303
-135.929321 774.152344 2124.089844
-448.485077 520.842957 1996.473389
-306.264160 897.878601 2148.967285
-191.074188 595.384094 2060.243652
-184.865753 479.907440 2073.538330
-377.200043 408.149353 2048.202637
-173.922119 768.434937 1980.465332
-94.697762 570.564331 2142.504639
-113.709045 633.117676 2152.283691
-221.761841 394.878143 2142.077637
-73.959679 652.358276 2053.138916
-308.016602 536.817505 2034.274048
-291.342102 512.283142 2060.192383
-386.821747 448.404175 2037.979126
-248.923599 852.496826 2053.955322
-74.723900 616.297913 2155.484619
-87.754173 677.675171 2194.309082
-124.462349 584.040039 2130.600098
-126.184113 531.039063 2089.765381
-290.319122 511.580261 2052.126953
-156.866455 571.394531 2060.840088
-128.837875 730.950989 2016.579834
-86.138405 714.343201 2179.682861
-339.385468 637.929688 1987.491333
-124.217499 595.893799 2090.497070
-172.887680 464.485962 2105.166260
-117.692673 743.606995 2018.403931
-260.744019 420.899994 2068.761963
-280.073639 412.326691 2079.690430
-283.915497 641.942993 2000.907837
-231.622192 414.765198 2104.102783
-256.967224 861.372498 2074.496094
-139.546906 556.364441 2086.572266
-66.915016 636.706238 2204.047363
-415.424683 534.793091 1994.956299
-353.132416 468.049408 2064.629395
-185.859848 490.885864 2180.121582
-80.159393 686.080811 2056.219238
-218.786713 821.111145 2024.770508
-272.947144 864.805054 2059.844482
-52.172588 738.698914 2108.563477
-304.559784 647.919067 1988.049561
-197.100937 822.439575 2181.396240
-56.038059 701.298706 2075.262939
-30.097708 593.850464 2175.488281
-310.052979 603.375488 2018.560425
-89.693100 779.864258 2213.652832
-30.660740 676.791077 2225.281006
-276.656036 370.389679 2107.064453
-87.342636 652.573792 2059.864502
-222.891312 430.024139 2097.892578
-181.180573 718.655884 1989.244873
-89.079102 782.602722 2205.870605
-240.713821 373.808960 2113.754395
-212.620956 432.810150 2173.225098
-120.676674 740.128113 2065.248535
-235.090347 826.972656 2024.385132
-119.713661 761.443176 2178.046143
-64.070305 565.302734 2150.546875
-216.685028 437.863281 2174.553467
-298.148163 893.412354 2183.679443
-322.083008 653.299500 2002.633911
-123.874466 780.333069 2213.455566
-167.616516 708.808472 1995.396973
-333.956848 499.023865 2043.163330
-176.656631 828.435974 2232.999268
-391.781464 593.579224 1982.495361
-243.107773 860.873657 2189.152588
-28.669634 659.819519 2222.382813
-293.570496 694.244080 1988.310913
-274.534058 479.562408 2066.722168
-365.358551 619.968506 1985.150757
-102.718620 619.282532 2177.237305
-112.761391 582.289734 2121.562744
-267.887024 855.871399 2024.840576
-221.613083 829.771240 2123.126465
-317.264343 392.032898 2070.039307
-300.283478 712.102356 1986.083130
-79.402496 664.493225 2047.729858
-95.630722 621.759521 2083.035889
-209.095215 389.469482 2123.694824
-134.458878 566.972656 2160.365723
-179.242172 802.643982 2171.826172
-251.571213 754.142029 1963.432251
-329.196106 586.544128 2009.334473
-157.393646 617.551086 2060.966309
-212.394852 816.916138 2027.951660
-66.299477 673.621155 2079.402344
2.897646 548.552490 2170.937988
-197.246719 737.758240 1988.418091
-222.221497 723.675842 1991.128418
-448.434937 527.069214 1965.156982
-38.141201 698.011902 2055.858154
-236.358887 495.615082 2074.753418
-35.533844 754.130188 2170.641602
-257.436829 725.242676 1969.262207
-209.707047 818.939453 2032.911743
-214.712540 394.923615 2142.721924
-330.608734 590.450745 1999.093262
-54.714417 594.428101 2121.300049
-242.961288 441.042236 2086.062012
-107.919945 668.062927 2031.172119
-343.504639 390.637360 2065.571777
-296.766663 885.612366 2109.128662
-184.232544 805.843018 2117.355225
-56.956036 610.163025 2148.416016
-417.211914 427.464325 2025.023438
-36.120140 686.500488 2231.808594
-420.108459 503.277954 2012.174072
-114.795067 767.350281 2176.117432
-28.076759 651.106812 2224.027100
-197.109085 447.671173 2086.722412
-61.297039 586.601013 2138.086182
-124.703957 600.867310 2065.801514
-224.373001 435.433167 2089.715820
-265.129089 861.782837 2093.764648
-200.792145 815.492737 2101.087402
-280.821899 881.827942 2101.684814
-130.815231 772.985107 2155.340820
-209.078461 423.227386 2173.600098
-66.013359 680.847534 2052.609619
-280.277283 525.690735 2052.966309
-172.959457 492.232208 2121.129639
-65.618553 744.346008 2130.051025
-263.019623 863.129578 2013.331177
-222.818771 587.180176 2054.299561
-56.785778 730.707397 2078.295898
-259.304626 874.719666 2138.145264
-179.304642 560.558044 2060.932617
-245.486542 416.644318 2081.533691
-156.674606 522.630432 2076.724854
-341.575256 687.317078 1962.827148
-81.940811 705.923584 2031.972656
-222.416687 643.964783 2088.007568
-144.726028 750.226685 1990.059814
-239.895340 815.411499 1939.664307
-267.874634 489.882019 2061.395752
-11.409701 569.342102 2162.435791
-452.725739 525.267212 1970.162476
-342.118744 650.336731 1977.431152
-152.864166 782.942688 2169.203369
-169.394516 741.437805 1989.911255
-385.981903 597.251343 1947.449585
-345.266022 511.080963 2026.534912
-237.060333 764.636597 1980.020874
-78.530365 654.495178 2066.932373
-122.208839 715.026855 2020.219482
-275.688354 884.881470 2230.864258
-70.747101 708.098877 2179.840820
-283.766937 666.961914 2012.401245
-225.487625 739.239990 1974.754639
-217.692612 830.651428 2089.381836
-214.355270 442.107422 2103.581299
-88.797997 729.309204 2062.060791
-312.221344 473.816284 2057.237061
-336.947174 693.708252 1961.557251
-331.592957 423.978577 2067.750488
-193.581833 824.005127 2104.572021
-332.484924 664.090515 1991.790161
-147.842117 627.682861 2046.390137
-235.419937 387.447388 2139.637695
-218.454391 428.384338 2099.151855
-144.102463 699.084290 2019.764160
-141.555191 653.813599 2029.395142
-122.276901 604.297974 2105.657959
-260.786163 769.998230 1947.687134
-123.463783 600.248230 2092.830566
-226.188248 396.039948 2098.697266
-97.366333 614.823792 2064.051025
-186.960266 800.931030 2075.859375
-349.133362 443.506012 2046.041016
-148.503601 560.100037 2093.863525
-302.192657 564.510010 2029.903442
-261.890564 832.035522 1969.517334
-254.777054 847.313110 2048.791504
-371.327240 526.152527 2044.056763
-72.938103 680.038513 2046.924438
-235.746796 400.791504 2099.497314
-185.761108 812.992981 2170.741455
-184.770737 454.311676 2113.878662
-62.844528 735.206421 2139.706787
-407.524200 596.709961 1968.275513
-225.371307 825.956726 2068.221924
-155.561462 635.713135 2033.463623
-226.214752 647.627563 2030.533325
-321.764404 605.604248 2015.460205
-245.823212 855.518188 2136.874023
-89.240273 690.078430 2182.126709
-319.186707 725.054749 1954.289795
-355.205933 623.774475 1980.065063
-39.160454 666.705444 2206.631348
-379.751282 550.782471 2006.690186
-172.813721 519.397461 2072.622314
-226.475342 830.006165 2025.138916
-103.142593 740.473938 2054.674316
-106.823334 738.252502 2016.912354
-254.482422 547.617676 2050.860596
-231.243256 398.644379 2127.367432
-235.783340 579.650635 2047.752441
-295.349091 515.327209 2057.052490
-144.713959 771.145874 1990.590088
-286.246246 635.262451 2015.068359
-98.367226 700.414246 2038.453491
-134.223206 788.178894 2225.913330
-327.431030 545.414490 2020.412231
-140.900375 769.398376 2045.144775
-351.264801 668.726013 1955.542603
-41.947563 595.274841 2169.226074
-336.321777 676.582642 1975.233276
-61.574371 743.636108 2147.753174
-89.073029 726.375427 2240.740234
-242.018066 624.574402 2027.665283
-319.619385 911.417419 2200.872314
-226.567017 543.195129 2054.362061
-402.786163 486.773163 2059.842285
-95.080269 717.506104 2024.148804
-100.357498 728.278687 2049.040771
-342.370331 617.338806 2001.485229
-195.397476 604.041748 2047.419922
-218.179565 723.054932 1981.951782
-252.533691 393.438446 2109.770508
-90.924454 746.630798 2200.042725
-152.553192 794.632996 2118.964111
-163.867828 514.326538 2079.019043
-172.023483 646.407104 2017.727051
-109.322388 791.006836 2230.000977
-98.269028 731.280701 2059.437500
-161.430954 647.505310 2027.930298
-309.122223 394.481812 2063.742432
-448.427032 554.215820 1996.682983
-221.363739 846.286682 2212.343018
-270.734711 895.886719 2223.355225
-300.207764 682.776184 2000.979614
-477.204224 475.327820 2000.776855
-117.757645 646.419067 2162.670410
-392.216217 394.464417 2077.907715
-423.366516 559.383789 1991.080811
-290.871002 886.754639 2139.653076
-174.720505 790.422119 2021.594238
-293.587616 877.559509 2086.896729
-355.486115 511.474701 2046.783936
-245.519485 524.985596 2078.530273
-276.255188 863.291443 2170.138916
-311.368439 601.759827 2025.746582
-242.893753 439.852203 2067.759277
-187.497131 546.255737 2059.825439
-179.708130 475.442352 2088.904053
-113.415359 609.476379 2067.716064
-318.807495 942.709351 2208.688232
-41.623554 745.554199 2106.019043
-338.344330 595.448914 2005.459229
-51.598179 690.096436 2190.935303
-97.025429 673.887817 2038.549805
-274.749023 693.434265 2028.255737
-128.423431 768.585938 2141.125488
-418.993469 496.649780 2025.548340
-143.743454 548.794189 2175.865723
-181.302872 550.008972 2065.328857
-241.123871 567.655823 2047.110352
-277.542206 770.462769 1964.518677
-360.455597 417.068451 2053.584717
-320.621094 348.895966 2080.922852
-165.687958 680.275879 2008.604126
-267.541748 805.590454 1959.324219
-227.206390 413.491608 2120.192139
-312.571503 348.078033 2088.685547
-131.790009 711.114380 2009.327637
-55.293381 700.909668 2236.768066
-430.556396 522.605042 2016.468628
-69.064758 575.965332 2136.830566
-227.907181 836.197510 2079.170898
-79.182831 672.536804 2094.325928
-101.939011 741.236633 2224.672363
-210.302948 725.979248 1976.580688
-240.702271 848.905762 2065.270508
-161.842758 480.666748 2137.682617
-153.334137 705.030701 2009.395996
-135.985306 532.316589 2077.838135
-64.703217 739.213928 2152.572266
-223.101974 674.962280 2009.676514
-76.495201 780.080994 2184.546875
-287.420654 485.287384 2067.519043
-130.030090 699.892456 2017.170776
-68.872055 702.684326 2215.992920
-216.074524 810.884033 1996.380615
-243.299942 602.868347 2035.795166
-276.382568 768.285767 1951.585693
-285.080536 882.665344 2141.046631
-168.023727 501.942108 2135.433105
-96.566467 762.361938 2172.316895
-236.437332 464.404755 2071.641846
-184.446060 800.711975 2088.176270
-71.181580 618.201050 2233.511475
-273.349335 879.418823 2169.296875
-246.561264 551.427490 2050.558594
-295.134613 592.727844 2015.301147
-27.371019 542.054443 2157.604004
-261.521698 861.322754 2001.337524
-334.145630 505.131622 2042.415527
-205.047134 482.096893 2073.399170
-200.307968 827.268250 2170.082764
-184.897385 595.493896 2052.129150
-131.411179 767.091675 2101.655273
-197.744873 521.042725 2064.321533
-91.825211 677.172302 2048.593506
-195.788635 811.729187 2090.012695
-217.958801 819.824219 1976.082153
-69.050461 670.773865 2048.598877
-70.040047 706.215759 2033.375122
-59.830318 539.705872 2150.639648
-422.082458 573.140808 1990.848633
-221.549133 567.603882 2048.355713
-120.713463 645.095459 2033.999268
-272.180908 385.647980 2097.639404
-67.913528 595.634827 2139.714355
-125.292290 752.802979 2022.186523
-154.738449 771.605164 2050.544922
-412.643921 594.133179 1972.603882
-235.851440 856.409668 2216.642334
-157.666245 505.997650 2095.509521
-365.531464 545.414917 2012.450684
-142.524429 772.154480 2069.888428
-138.203232 632.576599 2029.676392
-40.011978 698.292847 2052.361816
-295.273895 554.308838 2032.370239
-250.279724 833.898743 2007.691895
-178.119888 457.774780 2097.064941
-254.733459 840.630737 2072.478271
-328.324768 549.337158 2027.758423
-248.798096 844.766602 2062.028320
-103.724464 629.698914 2049.911621
-278.780304 491.310089 2055.297852
-380.505249 522.177307 2006.438599
-324.778229 512.715698 2042.295166
-148.808517 762.393005 2015.391479
-150.781342 786.108215 2039.349854
-180.513855 799.429321 2046.588013
-372.590179 492.886536 2022.107666
-106.447906 634.393005 2058.210449
-173.163010 515.311584 2074.900635
-158.253906 662.598267 2022.973022
-135.749908 615.707825 2050.527100
-111.283012 588.860657 2161.339355
-217.908401 829.297852 2083.681885
-63.390465 663.417114 2216.831787
-384.023285 608.911316 1986.724365
-211.776688 718.816406 1995.438599
-192.757462 452.753937 2166.607178
-117.432541 639.739685 2132.381592
-206.950165 506.241486 2065.020752
-223.384552 381.303986 2121.054443
-64.386024 654.495361 2068.712891
-131.766510 608.543701 2049.979980
-113.043518 752.248230 2075.335938
-165.497864 720.930542 2009.773560
-126.074181 755.782043 2141.546631
-93.463837 700.936768 2181.126221
-372.035858 525.760437 2020.235596
-110.204597 591.854858 2112.363525
-183.775558 654.957703 2014.637939
-116.146606 732.703125 2030.584106
-200.004379 453.860718 2102.947754
-198.488892 541.678650 2066.562256
-162.219650 801.173096 2123.024170
-137.403091 554.425293 2077.230469
-262.280548 872.692749 2229.744873
-294.855377 762.070435 1976.018677
-204.339188 472.835876 2071.237305
-116.162971 751.444519 2006.769531
-149.139908 784.723145 2130.341553
-334.448151 577.488525 2019.776001
-224.807693 410.047150 2111.283203
-125.845398 653.885559 2028.105835
-207.487198 380.880402 2149.980469
-251.218964 848.205811 1968.453979
-238.586700 351.756500 2184.697021
-193.868332 833.332886 2176.971436
-74.447906 629.220337 2110.007813
-405.668640 404.028687 2083.658691
-166.118088 491.011444 2166.803955
-82.680542 718.295532 2053.469727
-267.104523 594.244324 2040.214111
-219.318130 470.440552 2077.036377
-173.180374 713.842834 1992.316650
-83.689056 657.805420 2065.057617
-344.276367 466.701996 2068.226318
-345.571503 649.209290 1990.767212
-257.190796 582.673096 2036.282837
-225.463409 820.072205 2021.518188
-374.138550 447.053101 2036.073975
-274.249359 529.413330 2045.452148
-321.826141 412.824829 2063.561035
-282.759613 887.600098 2088.861328
-392.986603 620.731873 1969.959473
-83.677872 696.485046 2195.190674
-195.106461 675.938843 2006.843872
-334.426025 621.997192 2006.809692
-237.637924 860.906067 2225.838623
-277.507019 864.519165 2077.893555
-81.061356 649.018066 2058.958496
-242.841492 829.058716 2043.750854
-309.825623 584.638672 2011.795776
-101.661781 776.941650 2279.976563
-52.184219 545.914368 2147.109619
-237.360397 565.649597 2049.178467
-65.113976 597.834412 2117.080811
-151.541306 708.594910 2000.120483
-96.577042 674.403870 2145.371826
-65.330498 616.209717 2164.327637
-216.223221 405.942413 2175.255371
-205.458481 462.393402 2183.210205
-102.428841 675.425842 2203.585449
-162.217178 815.955811 2233.443604
-106.596252 762.808289 2143.923584
-327.236420 698.025818 1959.050415
-107.709312 759.071777 2072.392822
-91.909790 627.991394 2059.287354
-361.590851 529.182739 2040.420410
-444.926422 523.859436 1990.954834
-121.884781 598.322571 2054.947510
-148.303436 681.277222 2013.359131
-263.207855 563.082153 2037.607178
-83.419624 724.156616 2238.672607
-139.989319 788.939453 2142.592285
-302.732147 709.145203 1986.031372
-246.606964 367.884247 2111.066406
-164.722748 537.167114 2064.981445
-141.890610 765.615051 2052.004395
-84.775734 668.593445 2183.518066
-227.497849 856.300171 2242.383545
-438.081573 498.463409 1996.728882
-305.473053 734.134338 1952.387695
-126.400078 665.661804 2025.523438
-446.821899 498.148071 1999.909912
-441.632660 441.379425 2167.935547
-305.176727 418.255951 2073.582031
-432.068298 564.525208 1974.388428
-84.238640 707.837219 2026.069458
-194.677734 836.156189 2197.271484
-92.769264 640.628052 2050.392578
-352.679962 673.611389 1970.598633
-67.795769 573.536255 2170.017822
-246.450745 371.151825 2099.973145
-74.750908 734.370789 2059.407227
-304.292389 899.187134 2187.219971
-173.050781 717.574402 1994.682373
-148.373703 555.211609 2073.702637
-432.309265 514.982666 2016.701904
-343.691132 512.604126 2049.942139
-365.644501 404.381348 2051.530273
-124.759026 538.427795 2100.619141
-397.215759 536.359680 2003.688599
-240.609436 663.816467 2054.398438
-88.500725 722.237427 2191.364014
-74.266548 681.017212 2038.881348
-223.462784 847.413757 2247.622070
-122.345398 740.482239 2024.122925
-215.491791 826.632690 2142.719727
-192.476425 829.980530 2239.626221
-121.509132 765.792114 2132.230469
-248.120667 816.530945 1946.857544
-363.367920 467.095551 2043.245117
-240.177856 426.294647 2093.728516
-40.766579 566.335754 2188.908447
-8.460600 574.526062 2187.211914
-225.810379 529.729004 2063.033936
-251.184586 359.142761 2161.274902
-300.867249 519.600647 2055.604492
-128.277893 526.266174 2105.678223
-63.577408 683.850525 2057.267334
-265.778503 659.622620 2032.174316
-121.676971 611.339722 2118.573486
-220.994629 530.265137 2073.511963
-68.482178 712.108276 2122.341553
-84.333527 773.249695 2194.309570
-20.085169 575.431580 2167.500488
-427.408752 420.183319 2088.204102
-88.694412 640.911865 2057.980469
-204.256317 804.685181 2008.908081
-199.949936 456.389587 2110.299805
-143.276520 574.347900 2066.420898
-206.379410 827.569397 2162.819580
-125.810905 710.866150 2007.583496
-182.867142 788.487732 2086.755127
-307.629059 374.150452 2071.415283
-123.107750 764.740540 2128.319824
-294.858276 543.538635 2035.802612
-276.608124 481.820282 2073.050537
-78.313675 709.119324 2266.020752
-302.838989 922.551697 2167.443359
-151.158081 493.706146 2094.892822
-89.937553 682.187134 2029.430786
-353.757965 474.728577 2034.940674
-126.354843 737.303650 2000.749390
-164.682632 593.249573 2061.675293
-353.459503 387.063171 2228.355469
-460.504303 531.218750 1990.794189
-286.246246 429.054718 2077.886719
-362.090881 397.992004 2055.871338
-48.754875 687.317688 2192.166260
-213.739899 457.966919 2075.950684
-107.181969 760.659485 2155.744385
-276.452942 868.241089 2072.857666
-302.455170 498.395050 2048.874512
-188.077850 814.015686 2149.617676
-205.509018 443.503876 2156.747070
-225.630920 683.583618 1998.212646
-183.128250 522.278503 2068.327148
-53.139759 681.254028 2055.682129
-288.380432 431.168884 2073.585938
-155.664734 786.215759 2135.603271
-209.235138 831.537415 2183.955566
-233.585922 418.725403 2101.742920
-218.353424 424.086792 2101.028320
-89.768845 657.729797 2038.431885
-223.249832 781.648071 1961.780884
-369.932587 486.109863 2035.359131
-201.184601 818.908081 2132.727783
-131.860428 589.831665 2065.233887
-222.987381 842.274231 2167.058594
-293.930206 902.421143 2177.469971
-160.029373 501.010925 2083.993164
-447.010101 529.753540 1992.761230
-433.944244 446.703217 2042.291626
-135.754578 803.516846 2255.668457
-97.816978 667.446228 2035.647217
-397.138336 504.546478 2015.539673
-292.981873 683.630005 1991.985229
-219.860550 624.243774 2026.082642
-48.920174 603.980469 2150.965576
-104.953506 723.259644 2012.282837
-94.953293 762.172607 2153.288818
-316.063538 630.803894 2018.407104
-250.251923 869.169922 2121.250977
-329.081909 691.169678 1977.772949
-307.471832 676.283813 1996.324463
-81.470535 723.048340 2077.136963
-217.791138 841.679688 2190.156982
-96.313698 612.534180 2106.760010
-287.640869 344.603546 2145.977295
-243.579727 533.597534 2060.025635
-118.554733 734.653503 2011.272461
-88.496605 709.856140 2192.345215
-381.386322 607.533386 1981.898193
-177.496872 808.786804 2178.490967
-163.701294 662.894958 2022.055786
-291.127289 668.183777 2021.083984
-158.564514 806.192627 2172.849609
-138.971069 779.102600 2138.406738
-155.612000 801.347046 2256.887207
-130.605804 746.376648 2059.143066
-232.025528 780.472229 1963.620850
-371.634949 382.387115 2112.791748
-266.240234 663.033630 2004.690552
-20.678591 544.450073 2145.666992
-73.846420 678.096313 2128.715820
-221.446854 615.393677 2038.505981
-112.475830 796.103149 2249.330811
-263.641052 868.948792 2091.901123
-91.239716 782.253906 2244.436035
-135.009796 712.228699 2006.737549
-11.625375 593.377441 2161.268799
-263.828552 874.865601 2180.510986
-255.361389 861.869324 2137.564697
-228.686447 425.903320 2111.479248
-217.850983 469.786377 2086.798340
-304.010132 662.828186 1995.439941
-213.044769 393.437592 2123.156006
-30.644981 559.309875 2152.849854
-137.042175 528.513062 2090.266113
-198.628448 819.192017 2115.510010
-213.924194 555.730713 2064.823486
-270.307037 602.313232 2028.810303
-246.166443 842.099670 2030.835693
-194.005524 806.251160 2048.389648
-253.277756 764.645691 1970.060425
-300.475525 898.282776 2216.542236
-117.916756 609.895447 2050.010742
-223.623520 709.785400 1982.769531
-304.065948 904.870300 2135.606201
-38.677223 673.494202 2233.236572
-309.549438 569.440002 2024.093506
-145.734482 706.912659 2020.386353
-219.846176 720.043396 1979.227905
-221.005814 818.090332 1968.230591
-79.705261 773.036743 2218.516357
-53.311287 699.466736 2252.994873
-198.044388 826.450317 2204.758057
-74.336555 702.695557 2038.138672
-171.999359 634.942322 2045.156860
-156.076157 779.927612 2051.639648
-323.849976 610.780029 2011.566040
-358.048859 465.761292 2094.455566
-245.459854 548.237122 2058.191650
-56.047207 722.520691 2099.352051
-257.598083 642.080994 2017.419678
-63.551868 679.148987 2077.805420
-36.390968 567.870361 2148.062988
-263.169922 375.488251 2094.378174
-236.565140 399.004639 2095.049805
-175.447617 751.933594 1978.336426
-77.733681 709.756042 2181.138184
-166.640549 632.191772 2018.368896
-240.780365 794.555908 1959.163330
-367.031738 607.421570 1989.110229
-74.244385 705.589905 2030.376831
-77.062569 554.177063 2139.385498
-165.076797 481.714081 2136.863037
-245.705170 742.319580 1985.440063
-222.646332 827.908936 2094.914063
-176.248459 725.557312 1978.447754
-198.981033 592.499695 2059.241699
-81.289146 725.924438 2053.452148
-308.918884 604.765564 2025.777222
-225.986969 609.440613 2049.066650
-257.864014 384.021362 2114.358398
-112.381302 662.670410 2044.074829
-374.971130 444.356354 2048.462158
-36.759609 636.530762 2210.784912
-153.483871 500.669464 2093.956787
-87.082077 774.935974 2182.310303
-214.589035 431.672485 2131.065918
-75.842384 699.914795 2036.348145
-396.515808 550.117615 1993.015259
-50.479259 585.761414 2135.109863
-116.581940 756.284607 2085.050781
-329.247986 551.251587 2024.211304
-197.590103 619.439148 2037.739746
-133.206207 777.397949 2109.372803
-167.718552 794.076294 2129.838379
-87.172432 660.371948 2100.484619
-56.982422 683.466614 2216.361572
-110.671127 581.008118 2114.052246
-230.208817 838.298828 2092.883057
-67.274521 766.073792 2149.357666
-64.451180 704.319946 2067.995605
-78.943863 732.984314 2172.477539
-203.358185 716.462158 1987.150879
-245.102020 842.188477 2034.872437
-383.119720 392.233337 2134.792236
-378.002136 486.798340 2032.232544
-111.360901 683.579834 2028.703003
-213.639389 609.039856 2044.364136
-383.561493 512.110962 2039.344360
-298.114044 367.697418 2074.806152
-365.106567 647.068481 1953.361206
-298.927979 475.044159 2056.345703
-364.654968 592.700867 1985.677002
-346.123474 409.370697 2051.010742
-176.324020 813.984741 2212.561035
-421.358582 517.918640 2005.155396
-200.721634 477.685181 2096.609375
-216.906372 438.768707 2123.025391
-164.798233 779.980042 2048.247314
-217.220169 835.896606 2176.821533
-216.081879 574.528259 2047.754272
-61.279755 756.883972 2166.503418
-405.064697 605.050110 1972.955811
-120.467094 611.963989 2092.920654
-65.734879 706.744385 2071.700439
-182.397751 771.859009 1978.545776
-147.103134 502.978821 2126.855225
-178.740494 493.004120 2070.904541
-354.986206 676.941101 1970.344482
-210.235413 817.936829 2088.753662
-107.218971 746.967285 2103.543213
-122.917099 752.332886 2059.826416
-374.422882 515.472839 2040.487427
-408.998901 523.077698 1986.689209
-84.561501 680.132751 2119.933350
-350.366425 624.295776 1987.542236
-56.992245 664.796692 2199.202637
-356.299591 663.199341 1956.560547
-220.009338 826.163391 2077.426270
-313.196533 726.508240 1976.224854
-273.688354 451.918762 2068.445557
-248.208527 787.387817 1944.765015
-178.976074 465.089020 2087.268066
-239.825836 389.660858 2092.783203
-132.136780 621.999817 2049.748047
-333.155701 674.942810 1978.484131
-247.631653 722.702637 1975.664551
-193.886795 462.083466 2080.443115
-95.604843 663.108521 2166.243164
-53.897678 629.553223 2135.938232
-264.559662 695.421326 1995.376831
-25.074553 594.462769 2155.277832
-110.718140 644.281189 2041.548340
-34.175377 568.946350 2160.973877
-256.235168 722.293152 1977.757202
-0.082222 548.893921 2168.971680
-211.760666 841.998901 2243.588135
-126.449509 742.483032 2011.607422
-214.771576 823.724487 2091.599365
-50.616913 596.430359 2147.457764
-82.521217 593.930237 2117.145996
-310.602295 537.578369 2029.597778
-79.190216 708.315552 2221.686768
-110.505020 736.451172 2012.264526
-211.452423 851.528137 2219.731689
-124.401047 758.599182 2069.764404
-344.571075 696.524719 1975.848267
-418.161682 506.214355 2005.543945
-382.112640 401.884125 2232.715576
-109.915665 731.610962 2071.060547
-143.852463 778.504395 2108.260010
-436.548615 520.938171 2021.120605
-291.706268 550.930420 2049.247559
-306.494385 914.065979 2214.208740
-26.181316 553.524841 2160.062744
-338.443726 445.220367 2048.949219
-131.616913 685.603882 2026.368164
-256.238434 857.610046 1989.000610
-76.428093 673.389587 2200.203125
-148.311157 523.967468 2127.272461
-212.569153 658.086487 2019.298950
-114.400497 629.126282 2048.117432
-214.242783 834.329651 1950.579712
-230.768417 738.645874 1973.540649
-313.032837 403.036346 2074.238525
-351.883057 670.921570 1982.507324
-197.685059 832.325623 2145.904297
-168.487869 811.060364 2234.747803
-113.866249 663.972534 2035.427124
-32.124992 661.262268 2232.115967
-240.857254 839.572754 2027.271973
-231.175507 794.314880 1958.015137
-410.653564 434.933441 2062.805908
-259.758362 855.963928 2080.718018
-324.671173 351.050354 2092.608643
-156.982651 535.174194 2078.149170
-94.136436 729.493286 2082.088867
-78.991959 662.578491 2067.698242
-371.635254 557.858521 2005.063354
-204.715973 538.692078 2073.060547
-86.750107 730.594421 2070.822510
-322.550751 584.523560 2005.671265
-282.963165 656.505615 2017.369263
-344.058380 620.624878 2008.504395
-313.309723 494.061523 2050.837402
-91.781860 699.930054 2174.161621
-143.739044 786.014709 2188.065186
-64.399750 747.918335 2150.998291
-230.854828 594.638855 2043.001831
-93.033165 698.111816 2026.596802
-138.414825 753.031616 1996.612305
-154.171814 579.258301 2060.010254
-152.517761 689.643005 2017.282227
-83.980087 774.987000 2186.501709
-341.183838 486.409058 2054.533936
-421.146515 584.300476 1992.997925
-57.628532 580.939514 2138.276123
-174.731567 596.467041 2057.335938
-305.202667 673.451721 1980.134521
-57.780457 684.320557 2223.850830
-309.159821 748.571777 1973.404053
-103.921600 575.134949 2131.789551
-382.436951 527.219055 2027.762451
-271.582092 597.475342 2027.791260
-160.139313 787.880249 2167.017090
-61.069664 702.420105 2217.850098
-337.199951 377.473450 2065.150391
-313.341431 904.846558 2185.568848
-358.480072 522.155457 2028.148804
-209.370438 736.375977 1981.875488
-82.779800 601.768127 2115.643066
-86.794754 784.699341 2212.168213
-300.993561 351.652740 2201.295898
-77.918381 666.120239 2194.861572
-134.680634 760.750244 2059.985107
-179.643021 487.915649 2124.255859
-114.349358 652.149109 2042.985107
-189.230865 819.940796 2184.728271
-83.597000 703.244629 2038.719727
-253.596237 616.194214 2029.385376
-170.472183 790.707703 2039.797241
-113.495117 761.176208 2149.712646
-63.172825 760.366333 2192.712646
-318.560364 710.787964 1970.628540
-364.700531 419.921021 2070.089600
-174.331039 705.208740 1999.738159
-49.416397 721.976196 2074.182129
-254.548782 831.580078 1954.131226
-131.145172 585.980713 2120.877686
-226.377060 845.346802 2214.758545
-301.003082 499.920258 2048.546387
-258.928253 689.935608 2000.163940
-383.084900 388.512848 2061.606934
-205.025482 845.068909 2205.568604
-258.973389 864.288269 2136.126709
-154.393051 761.882019 1998.737427
-247.331329 503.759277 2066.239502
-117.514641 695.917847 2029.876587
-241.319153 842.195862 1985.628174
-37.751705 576.981995 2165.447510
-53.690849 600.778076 2161.216797
-369.730469 624.716919 1982.009155
-310.669891 896.326355 2183.926270
-241.815552 702.505066 1992.036865
-179.771255 453.773926 2101.202393
-92.885284 750.755676 2123.458984
