ply
format ascii 1.0
element vertex 1372
property float x
property float y
property float z
end_header
271.790741 1767.648926 1261.709717
283.015228 1922.963745 1187.943481
220.032242 1795.866333 1306.078003
175.653656 1795.416870 1339.593140
216.469986 1849.727417 1314.187134
-30.391338 1805.879395 1103.439697
272.762726 2004.440430 1086.912964
217.338608 1741.270508 1248.327148
241.585846 1860.904785 1322.768555
225.198059 1753.560059 1416.780884
-127.974342 1725.669434 1302.068359
56.476242 1766.560913 1207.554688
29.127525 1820.113159 1077.138306
164.632736 1848.699585 1038.523804
-18.684780 1731.847412 1307.038208
274.088989 1906.333984 1065.364624
284.514313 1845.903687 1016.463318
207.819870 1765.662231 1186.948120
178.763931 1804.397583 1069.728760
218.456070 1770.585083 1391.972656
-72.993217 1761.922485 1180.552002
269.566376 1788.977417 1170.537964
-123.467285 1732.457275 1330.352417
-136.386063 1783.043823 1173.605957
-114.718414 1725.096191 1342.026367
-105.926765 1748.837524 1354.220825
95.430313 1824.017212 1057.247192
278.513000 2069.239746 1175.324707
149.493713 1847.640747 1108.108521
209.036057 1769.586304 1146.863159
-106.338280 1704.849976 1331.969849
299.771637 1912.563843 1333.726318
270.447296 1761.598999 1178.505493
257.000763 1830.357178 1047.447510
180.684982 1744.448120 1259.257935
295.962952 1884.005249 1190.858765
174.986221 1734.220947 1254.321289
60.839314 1711.456421 1279.986206
300.416229 1876.491211 1308.032104
75.967949 1836.525024 1046.221924
198.230423 1770.976807 1296.069458
-140.475723 1786.919678 1123.545654
220.442444 1774.730591 1139.620117
269.441101 1805.214111 1104.328125
210.278595 1799.498047 1101.944702
-125.681938 1745.943237 1209.806641
-34.301647 1723.921875 1261.828491
288.970795 1847.066650 1395.522339
291.563171 1827.466309 1297.424072
287.674683 1829.627319 1199.337524
-31.192364 1754.606689 1246.177124
120.201790 1734.958984 1280.239380
265.506256 1840.914185 1014.287537
-73.363022 1763.671875 1176.841187
37.300308 1735.760376 1251.724365
269.229004 1928.825073 1067.034668
277.545776 1756.401733 1230.299438
-38.661846 1752.902100 1249.852539
-34.651146 1739.030029 1332.012695
296.741638 1821.796875 1097.961060
-85.040794 1733.835571 1263.266724
221.262360 1762.616821 1404.396240
238.260498 1781.204834 1136.006348
77.506958 1720.570557 1284.182739
175.079605 1846.729126 1019.420654
278.866699 2025.756226 1263.530151
301.196930 1846.869141 1387.698364
-5.252311 1716.148315 1259.363770
-77.319122 1783.680298 1186.882690
135.786270 1822.528809 1067.905151
158.581650 1833.312988 1052.994629
281.070343 1922.977661 1095.933472
-61.374172 1769.148315 1210.049438
286.557373 1883.592163 1013.033386
81.404694 1752.832764 1245.712646
174.940033 1763.995117 1305.394043
120.779465 1777.274902 1329.714722
153.162292 1810.483032 1128.742432
315.836212 1824.897949 1257.238159
291.534119 1841.840210 1187.872925
218.248016 1787.880249 1359.954224
21.344601 1721.530762 1313.186523
206.364761 1822.717163 1023.101929
315.534302 1923.576050 1298.156006
153.835159 1790.809937 1166.479492
262.961395 2014.106323 1094.274292
-143.139313 1798.755859 1119.485107
-67.890579 1751.674683 1372.139648
268.812317 1946.294922 1072.711914
199.692627 1763.916138 1319.674561
149.562225 1817.639893 1120.989014
176.242554 1754.213623 1176.118042
-81.210426 1810.969849 1047.775024
280.584137 1909.293335 1362.621338
185.414719 1836.481445 1022.154419
143.215591 1770.485596 1287.961060
286.842346 1899.870850 1184.607422
115.498932 1746.846924 1237.408203
115.490799 1748.645020 1321.553223
-50.365265 1726.188477 1326.217529
124.728577 1747.854370 1234.508911
26.999733 1780.545044 1187.049316
279.386841 1971.736572 1181.574341
-22.726599 1771.250854 1179.211914
261.144012 1799.001709 1145.407959
-38.205219 1715.529419 1280.677979
287.957062 1910.807007 1125.659790
277.437927 1904.197998 1378.610474
201.706528 1775.575562 1159.619995
102.587112 1807.675415 1126.155273
210.805923 1744.460083 1367.820679
106.734062 1837.697021 1084.064331
289.394104 1835.321411 1315.330444
-73.601379 1719.569946 1299.400146
-161.074799 1833.968262 1230.252930
40.092449 1772.251953 1190.583008
288.120026 1943.771851 1256.268188
-106.273499 1810.147705 1063.677734
164.412354 1836.615723 1043.403320
215.262222 1814.082764 1068.957031
101.495094 1724.298462 1273.830078
274.387848 1809.388306 1123.884644
45.233730 1803.568726 1126.580078
107.395111 1825.647949 1061.922729
87.053299 1818.006104 1115.015991
7.131637 1819.943604 1081.102661
225.988510 1787.506714 1119.850342
178.889099 1800.957764 1368.254761
296.074127 1839.454224 1233.992432
-72.200058 1720.979248 1297.514404
261.684418 1756.557007 1246.088501
203.317825 1742.725708 1265.597046
46.351936 1720.142090 1302.790405
37.731293 1783.662842 1163.560181
192.755402 1767.465454 1305.639404
92.036346 1828.924805 1053.979980
263.136505 1977.738037 1124.691040
333.246613 1832.566528 1276.751709
277.837158 1788.205566 1155.424194
84.175240 1714.220825 1295.836914
261.355225 1974.359253 1105.771362
340.986786 1822.941406 1274.360474
-132.612793 1814.438721 1146.487549
-72.187241 1710.401367 1304.787598
-8.198642 1824.412598 1053.484253
211.417725 1796.750000 1107.287598
280.472382 1791.761230 1278.273682
211.215256 1789.069580 1369.784058
284.289764 1883.737671 1203.495361
255.931763 1812.227051 1398.442627
160.710327 1826.511841 1060.422607
279.943665 1917.062866 1189.874390
309.428101 1974.020020 1354.374512
155.090820 1830.312134 1098.677612
189.331085 1856.937378 1019.741211
0.344095 1742.509888 1328.390625
212.179398 1770.854736 1153.568848
163.518967 1741.884644 1257.852539
291.388977 1902.223267 1230.806274
-61.488979 1814.824829 1122.301392
41.200409 1775.931396 1174.901123
286.450409 1800.624512 1112.192017
94.778320 1794.423584 1140.081787
291.945618 1771.700806 1225.710327
-4.906987 1811.736206 1141.367554
225.200073 1792.045776 1330.403198
249.724777 1755.796143 1202.997681
163.405472 1732.047119 1257.429565
205.942810 1812.043701 1316.306519
288.307922 1955.759888 1276.217407
291.271454 2030.573486 1253.551392
288.679840 1838.153564 1212.643188
-70.043037 1711.786377 1303.041870
291.404205 1869.140503 1236.214844
127.818886 1827.840698 1195.858887
304.178040 1901.917847 1282.172852
36.787907 1714.896118 1273.637817
302.421204 1889.066528 1271.118286
271.575409 1884.230591 1070.691895
268.259003 2119.989746 1135.229370
288.899689 1900.994141 1129.196411
-109.929420 1707.285889 1270.501343
271.546356 1782.918579 1270.109741
-7.624943 1764.463623 1197.678345
168.384201 1779.422363 1143.351440
71.179565 1757.054932 1329.837891
212.559799 1741.241211 1231.500732
258.179901 1754.469727 1208.050903
22.490982 1718.091187 1301.232788
220.641708 1759.362671 1348.260986
-3.089227 1803.575806 1128.834106
183.077286 1811.429688 1087.173096
261.638306 1746.471313 1250.144897
125.310158 1844.163696 1044.263184
303.485565 1774.275513 1193.773804
232.745651 1730.181030 1411.857788
292.603485 1871.252808 1139.583740
111.409592 1828.010254 1039.089722
184.860626 1776.081299 1146.321533
-105.190193 1808.860596 1069.666626
18.070604 1754.830078 1224.150391
270.646332 1788.902954 1117.365356
283.335266 1965.518677 1203.320801
83.749725 1827.930298 1071.301392
206.026459 1718.998901 1385.745361
276.043762 1841.624146 1090.410156
250.500336 1765.085083 1185.109497
287.573212 1857.252319 1392.025269
33.048752 1798.663574 1356.027954
208.288818 1780.818481 1153.573120
-69.697182 1719.212402 1314.693970
288.072998 1878.446045 1166.471680
316.906311 1793.133545 1242.861816
284.037567 2052.602539 1207.996582
278.295715 1962.888916 1282.967163
78.889160 1728.941162 1274.772705
68.055725 1815.698853 1120.313721
122.674248 1753.983643 1314.514282
184.574509 1759.102783 1195.410522
202.014404 1821.792725 1071.504761
50.036709 1779.694946 1173.210327
188.517807 1780.903442 1135.270752
169.472504 1785.585205 1154.460938
274.064117 1895.099487 1049.863159
-23.062521 1837.808350 1044.497925
239.580307 1814.218384 1070.688477
171.400146 1815.229492 1079.183716
203.088684 1741.975708 1258.438599
275.838959 1951.187866 1051.170898
219.968384 1759.779297 1176.852905
-27.917768 1717.912231 1256.340576
281.001190 1845.265625 1114.498047
78.620972 1731.588013 1267.901123
7.890749 1730.637085 1315.848633
286.915466 1826.540527 1190.249634
-35.797966 1715.986572 1265.941528
-76.677383 1711.350952 1323.781006
291.486633 1837.543213 1384.609985
293.484009 1788.937988 1204.194092
41.542171 1783.959351 1163.040649
-43.695763 1712.730469 1272.842163
192.162430 1755.234619 1329.235107
-138.134247 1754.890381 1331.795532
119.139656 1825.159668 1072.168457
271.411407 2019.109497 1153.098267
237.323135 1855.150269 1343.154053
29.560484 1763.280884 1194.833618
204.020050 1761.795776 1304.872192
288.841156 1953.724365 1259.172241
258.041016 1825.152832 1408.860352
115.492676 1818.683472 1125.050659
23.655245 1801.823853 1128.000244
270.665710 2047.794434 1193.680542
281.119080 1872.774414 1321.299072
236.110855 1743.015991 1380.027222
-116.210991 1715.438110 1263.291138
267.960846 2067.046875 1163.403687
227.604614 1758.150513 1195.933105
66.608788 1833.724854 1044.179077
56.658489 1733.618896 1264.500244
229.662582 1739.142944 1359.062134
48.037773 1763.137451 1206.893921
265.168274 1812.024414 1092.089844
199.593643 1749.400024 1344.220581
294.980957 1822.740112 1239.217407
226.904327 1832.288574 1056.461792
298.237854 1774.243408 1204.922241
149.036331 1775.964233 1290.638550
291.906097 1792.936157 1134.464722
329.955780 1891.923706 1305.791016
219.725845 1786.914185 1350.890869
177.170731 1749.986084 1221.125854
85.348068 1767.216187 1196.207520
276.584137 2085.977539 1154.252930
-80.050980 1792.527222 1100.572021
290.770233 1793.282715 1189.420410
134.079849 1783.582397 1323.234985
206.647751 1750.380005 1227.456909
276.180511 1886.149780 1197.342529
274.916595 1992.895996 1163.339478
285.071228 1830.955078 1172.444946
-11.402413 1773.779053 1226.325684
291.261993 1862.209595 1230.360229
47.771816 1730.232666 1256.599854
37.645485 1787.041138 1181.957520
184.716507 1779.990601 1381.787476
279.071930 1894.421509 1352.499756
284.789520 1974.443848 1262.927002
59.563450 1797.569214 1118.563477
281.442291 1895.688477 1337.747192
43.175426 1772.364014 1230.699585
95.331207 1743.657715 1247.542236
269.803101 1804.433594 1094.436035
194.534576 1773.538940 1392.364746
250.374329 1782.457031 1117.507813
310.945190 1790.924683 1265.297729
329.694702 1872.432495 1296.873779
220.104034 1801.358032 1113.356567
133.238403 1834.780029 1091.997803
289.847107 2084.459717 1110.361694
-108.143440 1721.551025 1295.038086
24.147243 1771.811401 1226.663818
64.022636 1771.326050 1194.076416
203.906342 1763.570801 1192.690430
223.826706 1786.551392 1129.516357
169.281937 1804.500000 1020.568115
-122.593437 1798.904175 1088.636353
302.064484 1825.535400 1302.903198
294.806427 1788.426880 1272.783813
214.497406 1821.298340 1337.934326
324.425110 1858.540527 1289.653320
-40.644142 1711.195190 1294.196045
318.748260 1888.215698 1286.018799
212.002151 1747.587646 1223.796509
-33.545090 1823.729248 1059.384766
-24.585339 1812.179077 1070.535889
279.187714 1836.221802 1295.687378
179.319153 1825.352905 1060.043579
-10.863175 1805.358765 1107.189941
288.804718 1977.928711 1278.536133
260.632751 2060.653320 1181.625122
279.873718 1898.322998 1100.874634
54.635780 1794.918335 1155.656250
289.158386 1896.993530 1027.771240
249.992661 1775.357910 1282.494385
274.876831 2078.858398 1106.735107
189.759354 1851.753174 1028.728271
-67.232964 1719.713379 1357.984131
-61.325645 1813.930054 1065.327271
128.222916 1794.388306 1148.947754
169.410553 1754.966919 1321.088623
118.698898 1745.134888 1240.744263
270.102539 2116.115234 1125.422119
99.852173 1814.518799 1078.366333
47.991653 1771.377197 1195.656494
299.661438 1752.944336 1249.147583
270.552795 1864.604004 1359.079468
225.132111 1805.266846 1085.339111
-47.563965 1721.325317 1315.499390
204.923309 1774.981201 1135.345337
-28.438890 1770.567505 1171.330933
-116.125191 1762.520630 1159.691895
-48.744324 1815.056763 1033.526367
75.326019 1782.159180 1173.465942
27.804155 1801.213135 1096.667114
213.838989 1749.275513 1355.517334
223.300354 1780.015381 1391.430298
-125.339195 1775.026611 1151.327759
160.563126 1821.675537 1068.461182
-161.659256 1792.699707 1146.782349
289.587494 1970.241577 1347.448608
225.511383 1765.195923 1184.571533
159.802872 1745.843750 1266.860596
53.467163 1717.824707 1293.341309
-58.317284 1775.953003 1193.511108
282.780457 1842.002930 1120.771973
-98.232330 1716.412231 1261.105103
255.321838 1851.933228 1029.208618
191.875305 1790.410278 1107.302856
264.619019 1773.405029 1191.692871
319.874756 1906.142700 1303.839355
209.151489 1739.677246 1388.301270
72.954475 1739.847168 1290.597656
-46.440319 1720.282227 1254.038452
236.568848 1824.960815 1054.564941
239.563110 1744.744629 1248.013794
18.399874 1712.469849 1273.091064
210.021561 1789.504028 1323.253784
209.006241 1764.680176 1183.466797
-59.559158 1764.502930 1372.536987
124.179161 1738.917603 1315.381226
296.346619 1873.590454 1206.421997
235.509567 1851.476196 1022.466125
43.196960 1733.317017 1255.585693
179.162598 1768.161865 1143.547607
-76.276016 1723.750610 1318.446533
-127.718803 1799.857300 1118.144897
281.494843 1778.576172 1148.916016
261.421509 1937.518066 1041.105347
-70.589333 1804.550293 1073.162964
-113.118011 1750.501343 1185.667358
-13.035944 1784.352173 1360.544312
281.688599 2008.147339 1145.264404
38.496029 1788.050171 1151.070435
303.443665 1937.066162 1292.632324
-111.184883 1752.267212 1172.112915
21.376465 1791.883911 1170.113281
214.210480 1775.069824 1349.052368
275.352905 1826.288208 1396.322754
200.023895 1764.121826 1417.121582
319.292786 1946.439331 1340.578613
203.924149 1753.013916 1307.949585
260.348785 1753.465088 1214.826660
262.521454 1750.451416 1211.831299
-146.797699 1773.982910 1168.692261
235.744705 1832.844360 1355.089966
265.852386 2051.687500 1237.215210
292.939423 1836.034424 1218.965576
232.132950 1722.187988 1418.173340
27.324659 1794.861084 1134.387939
136.676575 1732.551880 1299.676147
281.714447 1754.402222 1269.407349
80.663383 1725.786377 1303.068115
-16.735350 1831.203003 1047.281128
287.520996 1788.993774 1209.436035
-95.281456 1821.462524 1061.137695
53.071037 1825.310181 1050.995483
291.022247 2065.748291 1099.922974
210.565369 1736.887817 1382.377319
-44.816723 1816.808838 1083.196045
259.332764 1842.484741 1071.843750
284.695618 1753.988525 1196.986694
266.324066 2073.393311 1144.399780
-27.441313 1818.734131 1035.304565
225.225571 1767.022095 1166.058350
286.188385 1805.653687 1181.446533
75.421227 1780.209595 1177.225586
56.562832 1792.932617 1030.506348
93.261627 1812.337158 1144.160767
264.138428 1957.901489 1118.268799
209.414215 1747.230835 1204.297729
317.577576 1761.027832 1243.226318
288.269501 2034.408081 1229.826416
274.729309 1931.470825 1111.638550
243.951385 1766.271729 1269.658936
291.045074 1866.672729 1231.538696
320.923004 1910.396851 1297.207764
66.661644 1809.377930 1035.808960
65.847321 1785.617432 1334.446045
282.622070 1836.692871 1299.740601
284.994232 1918.327759 1267.400024
273.200195 2014.267456 1166.105347
66.879112 1730.119019 1284.950562
62.430618 1782.784424 1173.919922
259.677032 1845.085327 1043.360840
107.792603 1827.603638 1027.803223
88.721123 1817.611572 1074.870239
261.257141 2041.831177 1096.341919
-49.609398 1804.132935 1103.120361
297.464905 1813.974243 1115.195068
168.781616 1797.300415 1165.923950
299.273010 1885.079590 1317.028687
203.679977 1816.878052 1093.195313
122.951263 1841.141113 1060.670654
-75.871025 1730.507446 1294.086670
279.321594 1872.303589 1137.986084
199.017532 1851.230835 1029.955811
82.668976 1723.240967 1290.644165
286.416412 1750.377075 1232.186401
234.930298 1790.146118 1118.797852
290.052490 1876.771240 1207.802856
106.635109 1729.097290 1272.613037
214.566925 1743.401733 1365.427856
283.025208 2056.558105 1203.549194
292.520813 1894.910034 1260.544922
60.206463 1718.282837 1291.287842
65.361237 1773.920776 1202.418945
197.011566 1842.360962 1034.461182
271.610291 1884.825562 1032.995361
197.432938 1764.198120 1388.709839
-129.123001 1828.741333 1144.313110
278.536469 1838.189087 1296.891357
-126.539490 1772.754150 1196.538818
91.421349 1825.206299 1110.006104
272.622406 1884.692627 1354.884399
287.334137 1835.601440 1194.097168
-49.223946 1719.369141 1256.708130
191.044006 1753.743286 1201.405762
278.941162 1820.990112 1304.964111
283.184265 1900.440918 1021.202209
-77.378059 1724.616943 1340.213135
290.861420 1767.597900 1177.915039
284.939484 1789.166748 1121.961182
93.554504 1723.819580 1296.514526
282.755646 1979.057007 1218.176025
172.132370 1756.419678 1172.095215
-116.812790 1780.558228 1117.653809
288.453583 1784.811768 1193.524292
280.805878 1797.250854 1277.520386
202.174271 1749.210205 1196.544312
196.978180 1815.397095 1341.625244
133.367493 1770.436768 1198.897217
271.017365 1848.973022 1365.861694
209.424713 1748.475830 1200.766602
230.542938 1843.909790 1043.926270
64.316849 1748.062500 1229.720581
279.166992 1943.065308 1162.525391
265.253998 1802.605103 1118.437012
187.796768 1737.693115 1340.874512
294.603058 1798.118774 1121.913086
-104.425301 1819.942993 1046.845581
-141.048798 1791.527710 1100.844849
262.433624 1766.291016 1177.323853
192.218567 1764.631104 1142.615845
288.499481 1868.712158 1171.789551
273.927582 1835.937256 1107.603638
277.352142 1840.354980 1072.845093
-63.002483 1721.494019 1314.464355
297.876678 1825.750732 1286.858887
185.844772 1767.350952 1282.360718
283.347778 1913.409180 1185.765259
293.829407 1830.220337 1193.710938
-136.171082 1785.128296 1143.732300
-11.797217 1810.915039 1076.081055
319.413116 1918.388062 1320.700684
194.764709 1761.084717 1191.373779
298.500214 1969.352173 1276.598511
-24.352362 1773.524536 1376.650269
-154.260757 1893.017822 1303.587036
214.444733 1792.443115 1104.097290
293.030609 1868.982300 1350.507935
277.398956 1873.432007 1343.113525
-1.913731 1804.187500 1113.404907
285.196655 2034.311279 1272.854492
300.093964 1983.326416 1299.819580
257.537933 1801.949951 1093.141846
180.898148 1747.820679 1233.280640
274.776611 1837.489136 1055.039551
62.867722 1741.843140 1250.814453
222.978073 1728.139404 1369.258423
280.961365 1892.355957 1356.647217
209.054977 1775.726318 1291.328247
147.837769 1804.374878 1184.013062
-12.900400 1785.469238 1161.885132
316.752045 1846.821045 1287.800415
299.319092 1837.569458 1010.286438
66.078438 1792.429077 1153.886230
59.872269 1748.168091 1252.713989
-19.333017 1752.723511 1249.764282
272.033325 2103.222656 1148.004761
47.855022 1819.268311 1105.322876
175.102692 1739.218872 1262.101074
225.106552 1773.250488 1297.514282
208.950409 1756.960449 1367.663330
94.884705 1820.778687 1073.239624
123.170158 1788.221436 1164.167969
56.693035 1761.413574 1219.420776
49.491608 1842.022827 1038.085327
-148.094040 1790.544189 1123.283081
218.115814 1751.005859 1265.358521
281.499359 1897.425659 1166.295654
315.379761 1884.946533 1331.056885
209.807419 1722.916870 1381.942871
276.394379 1824.979370 1385.651611
-107.713547 1808.962769 1061.172974
20.266554 1778.464233 1356.788574
242.782684 1780.368774 1125.350220
5.722247 1801.228638 1114.136963
90.374557 1724.007202 1267.025146
-86.460266 1729.163940 1271.926147
310.172394 1927.786133 1296.386353
255.572311 1742.385742 1224.011475
58.003178 1819.821289 1066.488770
178.236389 1829.181519 1031.359741
290.708038 1864.195923 1226.876709
297.934906 1975.047974 1274.716675
162.076233 1815.230713 1138.131836
114.075111 1789.937378 1154.438843
292.349243 1885.577881 1225.604980
-39.880234 1817.645020 1121.715454
197.513046 1769.792358 1294.317017
276.299683 2016.732178 1164.396606
-104.275360 1710.535278 1315.206055
299.129669 1981.906860 1294.772339
-153.611038 1801.467773 1096.178345
319.893127 1885.961670 1298.516602
-15.154119 1735.150024 1251.557251
278.166260 1929.621216 1157.292480
274.910278 2043.902466 1203.538452
261.521423 1854.928955 1363.123413
261.675568 2021.905029 1127.765869
304.023926 1835.089844 1290.021362
281.411560 1929.449219 1176.691040
-124.564407 1818.640503 1060.192749
-100.420891 1708.732056 1302.158203
304.167297 1783.830933 1263.007202
206.350342 1741.578491 1242.958862
-65.900764 1711.893311 1278.164185
257.232513 1758.756836 1194.249390
273.485199 2129.362305 1125.455566
118.498680 1767.877930 1227.631836
93.621521 1790.120483 1152.873901
275.687408 1903.908813 1108.142334
280.706573 1892.467896 1152.164185
-131.211014 1761.126587 1183.737305
291.989502 1775.180908 1198.228760
241.356812 1753.720459 1246.807739
4.114079 1778.445557 1192.473022
275.929230 1943.678101 1145.334595
203.564774 1744.357788 1269.346802
208.663239 1814.263428 1070.316650
269.549469 1980.690186 1131.622070
286.121277 1872.916748 1379.531372
24.180870 1789.743164 1157.883423
262.389923 2054.539795 1100.197021
287.406311 1825.129883 1087.487671
-132.201828 1818.730469 1061.863892
214.180954 1852.065552 1028.093140
280.657532 1919.053711 1132.211548
231.945694 1765.186401 1153.104004
40.833549 1744.104126 1340.361572
320.848450 1816.345337 1257.431396
273.388824 2068.538574 1121.140503
43.652924 1807.520752 1145.112183
159.906372 1743.257813 1239.390869
176.523941 1758.895874 1302.511841
255.043472 1781.378662 1122.628296
26.179653 1737.714233 1327.323486
182.913315 1734.864990 1244.689575
241.790985 1820.135864 1066.350586
288.074188 1928.593628 1256.573975
289.791260 1757.034790 1257.892334
227.703690 1777.383545 1144.383301
294.226776 1922.172607 1336.520264
13.510296 1770.878296 1177.097046
53.538761 1820.665283 1066.825317
282.391846 1869.834229 1040.103027
191.936340 1756.507446 1312.691772
283.190186 1857.689941 1397.516479
255.404358 1738.683472 1257.517334
222.359604 1797.154785 1358.994751
279.315979 1784.356689 1164.484985
281.066315 1907.418091 1170.018066
272.560547 1873.763184 1344.992065
178.334869 1745.902588 1274.503540
244.428528 1807.984253 1088.057983
231.119110 1820.045288 1076.494873
247.737274 1768.536133 1169.761963
-55.155880 1727.730713 1286.062012
-32.512627 1762.777954 1195.312866
298.269501 1839.943848 1208.751709
-114.657845 1774.301758 1196.722778
308.532684 1883.128174 1310.703857
192.927963 1741.875854 1236.870361
50.702896 1771.859985 1183.513916
9.394651 1844.797485 1040.915405
18.721939 1723.964478 1305.091431
276.438354 1969.020874 1146.185669
323.851257 1883.500122 1298.499390
-26.899910 1726.361328 1314.451538
295.148499 1917.955933 1212.594482
26.296101 1751.495605 1249.472900
223.766464 1754.896729 1202.512085
135.288040 1764.011841 1227.277222
233.289703 1768.960938 1268.470581
275.701599 1871.423950 1094.025757
102.960037 1746.839600 1239.662720
229.306992 1743.248413 1348.511719
71.421051 1763.300049 1324.911133
85.923080 1781.040771 1177.801636
217.451111 1738.090332 1392.502563
269.305939 1886.691162 1039.386475
280.211273 1923.159790 1199.901855
-95.760963 1806.645264 1069.837769
203.829391 1758.626953 1343.808716
292.163513 1945.301880 1351.855469
3.141108 1809.327393 1029.974243
235.099762 1754.730103 1185.509155
226.283798 1746.957031 1411.505981
272.184967 2039.380493 1147.548828
-144.471329 1798.026367 1328.315063
326.614899 1909.591431 1297.492798
23.154638 1730.106689 1321.299194
209.591507 1793.202393 1316.192139
10.420889 1762.372070 1226.181030
92.561966 1827.433594 1114.285767
-80.180313 1710.408203 1343.568726
301.166077 1819.449219 1288.756104
258.656219 1865.562866 1328.973877
281.327301 1909.132446 1124.601685
266.066681 1932.517944 1359.729980
253.407379 1746.485107 1265.615479
220.261520 1761.227905 1344.788574
197.876999 1784.520020 1129.053467
279.241028 2016.966797 1129.902100
281.192657 2037.475098 1160.535034
191.250168 1744.850952 1247.759521
277.104126 1806.946167 1102.087402
-107.584618 1775.995972 1136.508057
270.682800 1845.564819 1079.486816
-43.232067 1794.938110 1136.413208
265.321686 1760.037842 1232.955322
161.312454 1758.802856 1273.409424
201.346771 1754.193970 1324.439453
-81.054047 1721.764893 1361.143555
33.109226 1723.403687 1282.924316
-77.419044 1809.059204 1067.839478
284.823853 1886.687500 1147.985718
270.249939 1949.585083 1052.681030
287.303925 1809.609985 1410.232910
178.954437 1775.725220 1299.277588
19.885532 1718.002930 1275.479980
-116.278290 1758.721313 1188.062378
-125.571213 1794.451904 1097.241455
267.050690 1757.453735 1197.887817
-88.184624 1715.129150 1261.616821
276.467926 1780.836304 1147.321533
281.648773 1870.444214 1368.731201
309.848419 1811.804565 1267.001831
332.609894 1812.940674 1264.590820
176.951233 1716.472778 1407.266357
59.343487 1732.100708 1254.927856
-9.443197 1806.149048 1113.940674
149.291107 1732.622803 1258.542236
288.137695 1842.246338 1137.624878
287.983307 1921.440674 1215.874634
-29.431124 1768.951904 1205.116089
276.717926 1929.728760 1140.481079
87.176033 1715.415283 1302.601685
289.276917 2013.969849 1299.554810
18.540407 1815.221924 1079.967529
285.585968 1860.390625 1395.358765
257.334351 2038.484253 1158.325073
-60.167412 1811.659180 1083.993042
274.458649 1996.005371 1093.559204
273.304016 2103.923828 1123.909668
141.393616 1761.707031 1222.837524
47.641502 1817.824463 1091.172241
219.771790 1851.772095 1318.598511
291.357635 2017.120117 1243.703003
150.912292 1771.193359 1213.665161
157.718231 1776.249268 1137.231323
272.936829 1916.606201 1036.397827
296.867035 1811.529663 1235.480103
-35.041889 1722.467407 1297.802856
282.477081 2031.658447 1266.214966
288.388885 1741.872192 1238.160400
317.191528 1873.947754 1299.097046
264.974121 2032.236938 1163.053589
210.763031 1793.415649 1324.832275
226.405472 1797.703979 1403.116455
-127.327782 1734.850952 1228.102051
237.665863 1770.846436 1150.489502
115.784203 1822.989746 1160.401611
66.222923 1744.180298 1247.398560
272.988861 1756.910522 1206.054932
268.854828 1873.391846 1041.251953
18.290369 1756.065918 1238.652466
82.280602 1736.765747 1265.938477
277.303162 1969.082520 1054.790527
333.455963 1951.315918 1325.372437
-101.602753 1783.997681 1120.804565
-105.049690 1821.601929 1096.860718
287.371582 1926.899414 1243.717407
152.269669 1735.498169 1267.660522
-37.471355 1822.719604 1058.288940
8.615129 1816.921143 1031.069214
272.794708 2053.618652 1227.755493
209.819977 1833.548950 1054.417725
-61.031620 1834.979248 1061.985962
-121.557335 1810.848022 1082.075562
286.203461 1883.992065 1177.287231
274.138824 1903.172241 1361.935303
161.774292 1839.419800 1047.583862
16.589979 1809.739990 1098.222656
58.085121 1764.177246 1328.496216
287.474884 1968.815796 1250.081543
273.616730 1870.620361 1056.542603
-142.145035 1774.438721 1157.508667
231.365616 1801.205078 1088.554932
286.325348 1928.432617 1347.944702
-103.842346 1753.130981 1197.328491
246.765488 1819.992676 1063.963501
281.788269 1841.317139 1133.050903
41.572723 1832.464966 1057.916138
278.084839 2095.346924 1172.037354
276.767609 1753.482544 1198.272583
296.131287 2009.551147 1287.369507
295.115936 1816.896606 1180.817749
284.824066 1888.260254 1385.070679
269.561340 2040.437988 1097.346924
32.551014 1802.679810 1027.572998
-50.667274 1755.173218 1358.876343
278.289001 1775.654663 1156.676392
219.916931 1777.567749 1296.653320
293.338593 1856.681274 1208.382813
234.175507 1745.543335 1403.017822
123.164185 1818.342651 1096.737305
160.665802 1736.012817 1249.247070
201.357681 1738.754272 1379.239746
85.092552 1738.019775 1257.792725
262.143707 1858.201416 1055.512329
298.347870 1860.801392 1256.927856
289.570374 1825.204102 1185.933716
271.210175 1763.186157 1232.956421
306.795715 1950.196655 1301.683594
227.288834 1771.324097 1159.871826
338.982422 1827.679077 1282.526611
224.792038 1725.000244 1414.417603
280.512085 1969.205566 1204.565674
271.198639 1900.901489 1077.416260
308.962433 1942.291626 1343.403320
102.088448 1733.893188 1319.505493
118.878868 1736.230713 1315.693604
199.565552 1755.922485 1186.176147
221.294754 1807.721558 1295.795654
-37.940777 1748.765381 1257.045532
289.243561 1790.176025 1130.799561
-71.463562 1742.380371 1256.538086
199.045502 1750.497437 1350.074219
123.689804 1759.140747 1222.854858
220.382233 1776.442871 1135.842407
234.048813 1852.498657 1009.377930
34.543461 1716.963013 1281.713379
268.882172 1850.841919 1357.217896
297.488342 1832.008911 1209.109375
194.302353 1761.153931 1347.560425
322.230499 1807.886475 1249.685059
191.394852 1756.086060 1320.379028
213.592026 1833.370361 1014.577148
292.948456 1800.060791 1191.853516
15.748838 1717.101929 1264.648926
208.089661 1777.478271 1160.786133
-50.380989 1717.646362 1348.799561
291.510834 1868.440186 1224.692261
159.817505 1832.282104 1048.381226
209.253891 1754.286377 1194.538208
244.523132 1741.756958 1237.089966
320.242554 1899.770874 1301.044678
64.340561 1725.821411 1259.963257
267.839600 2066.373047 1180.880737
257.156311 1851.837402 1365.364624
298.397827 1802.314697 1152.913818
-32.176189 1716.454712 1305.027100
-34.052856 1712.198975 1296.771606
237.006332 1744.306519 1234.414917
276.046173 1957.535156 1198.614380
210.379013 1815.043091 1067.762085
-145.342667 1792.879761 1097.904663
303.861237 1848.000122 1310.145630
275.099213 2024.399902 1161.668335
175.704742 1746.961060 1236.351074
56.108067 1766.201416 1195.479004
298.045410 1847.647339 1162.292969
24.161852 1726.452393 1258.321899
311.179047 1850.422607 1319.352905
8.698917 1830.939331 1036.837646
-134.892136 1802.935425 1164.970947
48.647385 1841.044434 1042.405273
-86.183128 1704.698486 1314.912109
192.094727 1746.867554 1230.798218
265.084625 1839.233521 1396.850952
228.156509 1777.372559 1274.677856
210.419754 1727.155884 1409.497314
292.404755 1895.068115 1181.445923
71.326561 1713.790649 1297.870117
-40.362152 1763.548462 1192.677002
-101.159332 1711.014160 1287.327393
212.387131 1791.546143 1290.246460
127.963722 1828.563599 1018.563843
201.645615 1741.074951 1264.625000
346.086487 1903.932007 1314.403076
101.837868 1805.810303 1131.893433
283.328827 1984.540161 1225.995728
261.424774 2003.722778 1086.682007
-62.543072 1803.057251 1081.871460
281.172485 1915.779297 1177.311279
294.391510 1818.146240 1207.792603
-30.365334 1731.927856 1335.229858
147.789993 1771.930542 1169.824585
-18.661299 1720.923462 1304.236816
66.268578 1802.715942 1125.032349
114.075905 1803.733154 1134.239258
-123.700569 1749.203613 1214.701660
268.788696 1883.388306 1037.984131
308.535828 1818.623901 1249.011108
114.227577 1790.696533 1172.401611
63.377899 1719.736084 1275.781250
103.870377 1717.695679 1294.724976
312.437683 1840.614868 1260.209839
-51.394558 1802.456177 1106.818237
136.124512 1822.838013 1064.129272
282.547760 1827.485596 1081.682983
150.188278 1828.044067 1018.967896
279.962982 1981.279785 1177.293945
212.549469 1791.487183 1340.553101
179.657486 1740.907593 1269.142212
227.288208 1763.255493 1179.675171
-96.418411 1793.087891 1136.047241
210.727936 1767.461670 1331.227783
-19.634727 1796.635864 1135.855225
52.599297 1721.634033 1262.024048
274.567535 1742.892090 1231.911011
257.237061 1769.381836 1152.171509
-9.074995 1722.178467 1328.722168
212.577560 1749.845825 1230.774902
-97.398827 1742.293701 1218.058838
246.056229 1846.694214 1366.506592
71.650543 1815.563721 1066.650269
127.828407 1767.245239 1224.792236
197.489105 1770.621216 1145.543213
204.526001 1731.473145 1380.821289
202.090195 1782.347900 1318.440063
-60.274635 1728.464600 1378.222900
287.760803 1895.561279 1202.873535
57.365952 1735.553101 1253.384277
280.391876 1979.580322 1289.014648
270.141876 1747.032471 1229.014038
286.658234 1914.698608 1199.495483
123.297981 1820.804688 1094.683472
-9.388981 1714.920288 1262.148193
34.595112 1716.462158 1290.891479
37.188171 1712.221313 1280.834351
264.039368 1847.404663 1025.508545
286.779968 1810.831787 1078.098511
241.010910 1780.349731 1131.004272
284.490448 1915.507568 1210.296387
320.169922 1921.377808 1332.265259
162.082870 1843.448242 1043.270874
-60.752583 1710.400146 1328.995361
218.059174 1760.685913 1320.379150
261.915131 1862.630737 1321.721924
140.733093 1747.330811 1286.380981
189.289749 1724.580811 1383.658936
56.070644 1738.264282 1241.108276
262.407654 1816.179199 1115.668335
282.688293 1915.682495 1193.820679
257.728271 2065.790039 1110.497681
290.546265 1814.876099 1202.060181
190.623032 1758.750610 1352.874634
-73.389015 1727.013428 1245.298340
283.069000 1809.437256 1219.465820
220.423798 1802.568481 1303.839478
188.139267 1767.189697 1372.647583
199.635376 1784.778931 1283.671021
271.843994 2001.193115 1115.720337
260.761414 1960.961426 1062.114502
269.923584 2071.953369 1167.718750
-21.212313 1708.859619 1298.753296
211.347763 1773.627930 1344.047241
288.248993 1915.882813 1038.484741
98.357498 1725.113770 1267.294678
-169.260071 1897.395386 1170.787476
212.262314 1778.821899 1317.809814
300.314819 1973.312378 1310.267090
223.342758 1767.992798 1406.733643
288.130310 1819.258423 1206.481445
139.778610 1752.711914 1295.767212
-165.216644 1948.045898 1243.338013
220.550552 1812.968140 1072.131470
269.524780 1987.851196 1097.805298
189.869293 1854.398071 1029.692383
273.211090 1998.471313 1089.426758
283.334290 1754.247559 1215.239746
286.774139 1916.157837 1117.405029
96.921028 1763.199097 1234.442505
-15.876767 1776.905029 1177.525024
192.188385 1742.040039 1362.211670
224.565247 1769.806152 1281.367676
-94.431946 1765.399780 1383.089355
-104.203979 1728.058838 1308.804810
44.861855 1790.445435 1347.763550
280.604675 1757.554077 1197.933594
290.325226 1993.021973 1220.601196
274.840759 2070.912598 1222.477051
-136.978790 1804.463013 1095.064087
129.464111 1763.799927 1315.585449
284.621429 1774.602051 1159.980225
104.970711 1729.867676 1286.402954
321.863190 1911.938477 1294.512695
204.415482 1751.446777 1262.650879
-132.980957 1783.932251 1371.613892
-136.347092 1788.275513 1134.542358
258.387451 1929.217773 1061.109253
-103.794197 1805.107910 1122.975952
281.258545 1787.635010 1198.956421
-120.119217 1799.388916 1091.093750
175.395645 1753.859741 1286.497803
279.335541 1912.679199 1335.382080
316.199097 1859.165771 1303.015747
215.588196 1795.416138 1363.674683
-26.329924 1758.016602 1197.125366
-49.056896 1757.306763 1194.373047
99.520813 1819.940796 1066.500366
279.911926 1934.595825 1180.147583
265.663605 1805.616455 1114.654541
278.383057 1895.216919 1096.611328
277.541687 2093.613281 1166.605469
7.799274 1733.908569 1293.982422
-174.453445 1928.623657 1127.355225
287.742371 1957.642090 1151.539551
-27.002733 1817.294678 1033.852661
278.049347 1910.038208 1227.708130
259.860718 1853.401733 1344.834229
271.489014 1884.211792 1325.000854
276.681854 1892.059082 1078.103516
42.207478 1780.667480 1204.644287
294.919434 1879.007935 1196.091431
275.679718 1967.590698 1129.160889
269.945038 1829.114258 1065.872314
27.508492 1720.035278 1279.814331
272.638977 1850.604248 1361.747559
283.641266 1751.381958 1256.870972
-23.119846 1747.480835 1351.853394
212.735519 1742.574219 1331.618286
184.146484 1770.510742 1304.181274
288.879669 1895.638794 1031.852783
276.250549 1747.812744 1262.090698
75.956345 1818.914673 1063.773682
153.596420 1834.350586 1096.815796
12.713576 1735.451660 1335.596802
248.278351 1741.613159 1257.806519
253.553711 1790.439331 1136.603516
243.934753 1826.745972 1304.211304
229.378738 1783.023438 1302.530884
283.135193 1989.902222 1064.661255
95.986900 1741.876465 1238.177490
204.541428 1753.600098 1362.591309
119.517395 1734.086060 1304.313843
189.975693 1733.386841 1252.082642
53.990971 1775.766357 1198.609741
280.357666 1924.484009 1154.354614
274.520844 2029.599487 1162.855347
316.254822 1948.942627 1338.599121
194.852051 1761.501465 1172.053223
257.923492 2032.273193 1152.935547
202.466568 1757.609009 1305.250977
290.655243 1815.814209 1197.917358
302.345184 1801.307373 1270.856812
-32.373241 1810.725586 1147.066650
-56.912651 1776.259033 1174.362305
-54.855251 1759.908691 1198.271118
285.460266 1963.982910 1226.463623
-94.001778 1809.120850 1120.382690
-59.522884 1745.062622 1224.072021
135.554474 1834.903809 1046.016235
51.095604 1769.954590 1187.392212
279.692108 1888.084839 1079.810913
318.463593 1881.037354 1280.557617
287.377869 2046.119507 1228.047119
15.324478 1757.701538 1207.214111
-132.360764 1743.779541 1332.075317
278.809540 2008.312500 1195.247559
278.065186 1977.020630 1169.782349
-104.928131 1797.501831 1040.375244
214.965637 1774.928711 1164.201050
142.908051 1847.791260 1181.790527
146.927673 1850.941895 1108.648315
246.999756 1747.141235 1241.885376
5.027299 1801.682739 1159.842285
308.303589 1987.320190 1334.243896
323.255707 1800.598022 1263.933350
288.500488 1802.412964 1296.294434
203.483963 1751.886108 1224.307373
82.253212 1723.172852 1269.199707
287.220734 1820.863525 1290.640503
273.615540 1949.483032 1347.762573
211.770920 1749.836182 1377.879150
272.573944 1839.079224 1035.070679
3.501904 1804.689697 1114.859863
281.391998 2057.560547 1188.984131
-122.459908 1714.789551 1286.636963
149.204178 1826.230835 1073.539429
-122.681015 1792.217896 1111.903076
295.727417 1796.615723 1214.552490
-36.768932 1720.063843 1289.577637
206.003937 1768.618408 1346.838013
236.195313 1807.546753 1405.959961
190.030075 1764.207031 1187.133667
-106.637215 1818.571655 1067.830566
254.172363 1740.224365 1239.856445
273.468994 2058.766357 1223.811157
-138.615143 1717.353027 1275.238892
284.248596 1836.409912 1379.706055
276.518005 2013.962036 1181.575928
322.748566 1928.032593 1309.459717
29.744036 1737.307129 1326.727661
69.028580 1782.791626 1179.001221
220.631195 1760.050781 1186.528687
231.771332 1788.044312 1127.217163
23.380911 1811.899048 1089.113281
278.012573 2052.668457 1225.719849
178.873611 1770.824097 1321.624023
111.296318 1768.177612 1228.956421
74.776672 1795.496704 1147.644653
174.971527 1822.616211 1080.309204
274.906189 1966.151123 1196.013062
0.422005 1733.465454 1320.304810
42.636284 1723.558594 1259.984863
191.002884 1757.201538 1333.601318
274.793396 2074.277344 1141.202393
180.172470 1749.824219 1229.526978
276.025085 1792.239014 1118.449585
-155.639343 1776.618530 1156.689453
66.084831 1721.092896 1314.200439
258.461334 1818.651733 1301.326294
282.320984 1827.200073 1101.210938
-63.650337 1731.075562 1342.168945
196.492279 1784.686401 1124.613525
-124.727058 1781.854614 1178.428467
262.505951 1843.297363 1037.349487
88.777855 1770.066528 1231.088379
205.794861 1797.973511 1325.368896
57.483063 1721.326660 1273.836914
126.761765 1764.810303 1201.574219
286.799469 2028.003174 1283.565308
212.895966 1797.959839 1120.573242
297.266388 1804.388916 1233.923218
39.989517 1722.647949 1317.357422
-150.762177 1864.188599 1316.104248
-70.657608 1815.942871 1120.961304
276.716583 1873.392456 1040.399780
220.343552 1815.371948 1068.120972
-12.109112 1752.233643 1228.387329
-57.711033 1734.035889 1241.285278
-102.139938 1717.495850 1251.405273
130.592911 1834.162720 1088.740112
220.999207 1809.146973 1301.548584
278.370178 1971.335571 1059.652466
190.797272 1760.766968 1299.985962
280.242279 1842.082397 1053.212524
270.273071 1921.809570 1076.510986
110.238754 1725.541992 1301.726807
81.182663 1851.698120 1032.082153
-4.613443 1754.855835 1223.551758
-42.265484 1819.728638 1045.808838
55.697655 1768.149658 1191.634766
313.722137 1906.905396 1293.203003
228.804993 1756.569580 1281.430420
208.961746 1772.546997 1139.526978
-24.155478 1817.186157 1110.837891
-144.605850 1752.183228 1199.472168
1.784693 1747.060913 1224.880737
237.316223 1791.413208 1288.395508
206.669128 1788.538940 1285.677856
250.587326 1843.678345 1329.359375
270.328094 1798.086182 1098.845703
97.010918 1834.877319 1044.398315
36.532089 1796.246582 1147.599365
-113.931122 1819.905762 1059.453369
261.829559 1782.664063 1127.971069
129.789215 1762.013306 1231.077759
230.162323 1750.822998 1202.896240
24.255287 1838.146362 1068.253540
286.111969 1948.164307 1128.461792
-97.065681 1711.668701 1271.065430
196.035522 1790.426514 1115.255127
229.109863 1739.427246 1244.732788
212.931595 1744.635620 1223.757690
-43.721142 1729.885376 1361.992310
292.990936 2017.369995 1265.164307
285.921844 1840.185303 1310.058105
-70.919708 1700.995483 1355.061768
90.299072 1765.968262 1204.901489
-35.527172 1718.790527 1285.599243
206.888504 1811.650146 1101.136841
292.209869 1919.225586 1252.750000
290.296295 1889.160645 1237.562012
202.296143 1825.692139 1307.838013
33.675980 1809.247681 1110.116089
222.396988 1828.176880 1074.368286
245.854156 1786.713501 1158.885620
268.230347 2099.156250 1181.999390
37.198109 1797.696045 1137.732056
269.832184 2088.062012 1173.719849
276.654022 1835.906738 1363.453125
272.809021 1951.542480 1135.643799
286.403839 1910.700928 1135.688599
235.923538 1744.673584 1390.596802
91.766846 1736.865601 1312.155273
152.447632 1831.838745 1070.741577
36.428116 1756.581055 1235.379272
292.097137 1873.266968 1218.272095
276.453369 2056.856201 1230.615356
27.711227 1796.197266 1145.499634
261.828796 1932.241821 1043.794678
56.568089 1752.510010 1233.812744
-50.242283 1731.188232 1256.120728
272.862793 2067.706543 1127.687134
247.111771 1841.161743 1315.568481
215.039124 1722.823975 1398.828979
129.371399 1835.491943 1087.933838
94.449585 1793.440796 1153.471802
213.041809 1743.548950 1215.161011
184.916397 1768.110718 1182.848999
-17.713697 1747.481445 1240.441162
281.801178 1795.188232 1132.380981
67.415649 1733.892090 1310.280640
283.957367 1943.739380 1130.482300
275.648804 1924.546753 1117.735962
206.371216 1789.968140 1306.131836
-58.501587 1737.437988 1239.641479
145.904480 1744.090088 1276.450439
270.697968 1927.547729 1096.007568
277.777740 1840.469116 1366.296875
274.053009 1848.148804 1029.926636
280.922211 1776.438477 1266.927124
294.978180 1795.217163 1135.009033
-25.824944 1808.909912 1093.840454
117.905617 1788.525757 1158.036987
141.670502 1821.208862 1069.025513
269.329254 1845.465942 1351.713013
275.283630 1795.952515 1105.851685
185.594513 1769.198975 1161.487427
-44.857365 1723.489746 1278.317505
90.572517 1727.416870 1292.791870
51.082554 1811.759521 1133.575073
-104.255318 1712.329712 1308.552490
281.955750 1764.594849 1243.395020
249.212021 1827.100098 1299.353271
88.705223 1772.974365 1185.131958
266.049957 2040.539429 1126.363892
188.914551 1752.057373 1211.476074
-42.202942 1818.735840 1125.720825
203.491013 1753.610718 1367.956909
247.621353 1759.025391 1226.331299
186.138275 1751.860718 1353.994751
-17.566864 1720.433594 1266.398560
262.563629 1985.488159 1125.412598
10.339649 1796.616333 1141.281494
-114.898697 1804.073364 1048.552979
233.754837 1820.012085 1363.951782
272.421570 2072.001221 1129.040894
269.477570 1872.713135 1131.005249
-10.408023 1814.758789 1131.528931
276.315521 1846.043945 1039.177979
282.575745 1881.079590 1134.095581
210.845764 1771.728394 1306.687744
272.324677 1866.085083 1368.763550
266.270294 2087.815918 1170.892700
263.835419 1776.012817 1137.171143
277.661255 1957.331299 1148.101440
15.563884 1814.020020 1120.773560
315.335785 1948.118774 1325.402100
297.052673 1811.783447 1134.665527
271.560577 1930.025879 1041.967896
10.139163 1811.866577 1083.698242
291.441956 1872.789185 1344.498657
78.792786 1741.211060 1246.973755
5.897699 1724.028809 1282.551270
80.370193 1792.093262 1153.980469
280.957397 2053.376465 1166.454224
291.754150 1768.744751 1245.808350
111.615929 1731.105591 1301.158081
-36.305111 1724.049683 1323.884521
-35.302605 1835.573853 1091.645386
-130.700943 1738.431519 1326.941650
281.296417 1881.779663 1169.332397
-6.829497 1838.245728 1047.978882
282.736420 1815.703735 1134.665894
289.090973 1780.690186 1211.892944
26.232176 1827.679199 1053.917969
287.373260 1876.522217 1308.011841
184.562790 1852.279175 1029.277100
-135.128403 1725.155151 1235.716919
146.352493 1765.485840 1307.482422
269.306976 1846.903198 1364.452271
175.419861 1820.899170 1068.119385
192.191971 1787.904175 1111.195679
164.235321 1819.947266 1068.808960
296.951416 1951.855835 1297.712524
126.439560 1824.381348 1055.424316
290.497742 1787.601074 1167.774170
35.459026 1801.987305 1096.380371
260.875793 2116.411377 1131.339966
-8.446827 1754.340698 1224.159302
-88.903435 1764.086670 1173.727051
-103.799202 1708.671631 1297.047852
197.420090 1841.739258 1044.327393
283.141602 2025.661499 1255.657715
222.529129 1745.737427 1228.098633
-118.413795 1797.750977 1040.244141
214.265121 1813.002563 1083.425171
299.617188 1978.240479 1311.881104
215.898239 1749.325195 1217.237183
250.332687 1749.238403 1208.800903
-14.005944 1720.623901 1295.018311
192.230164 1756.781128 1325.861694
275.104950 2039.627930 1204.509888
11.540655 1824.109009 1053.750122
-61.629810 1807.969849 1089.044434
-108.364944 1792.537231 1078.532593
-5.900419 1823.795044 1374.746704
83.614540 1808.317749 1128.346191
273.965759 1884.552246 1089.478638
108.740349 1774.537964 1322.555908
-81.133659 1742.798706 1231.822876
135.268585 1747.437744 1291.500610
224.761856 1853.021240 1332.710205
108.189140 1825.768799 1063.987793
0.502567 1827.984985 1055.164551
60.896576 1729.301025 1257.259644
24.635468 1838.856323 1039.341309
56.911968 1790.152100 1141.559814
197.256317 1733.819824 1252.624878
217.055191 1766.054199 1167.396240
49.733784 1756.486572 1213.818359
214.592133 1745.518188 1358.680176
-48.891045 1816.758789 1083.036133
-54.131783 1813.571167 1072.366333
57.102787 1779.523560 1181.314575
220.000641 1764.706177 1149.754028
-52.153645 1791.482056 1111.185913
141.900604 1764.233765 1310.885254
-144.667221 1814.605347 1083.404663
266.934296 2067.885742 1143.236084
109.837784 1751.048340 1303.624756
37.293686 1778.093994 1191.089233
283.386719 1894.344238 1205.995972
287.830597 1871.347046 1212.848877
222.289444 1747.411621 1372.522217
21.502069 1830.600098 1033.028564
278.619476 1860.213745 1115.524902
268.585022 2069.227539 1166.915527
279.249237 1874.606934 1347.862549
-74.097565 1726.260010 1285.958862
263.065887 2030.541748 1087.469482
-15.743505 1749.956421 1232.663086
203.290756 1860.553345 1029.316162
162.785141 1805.649414 1129.812500
90.870071 1782.641724 1173.834961
-26.818907 1708.833008 1351.153687
131.563248 1732.502686 1279.278809
-59.236298 1727.110962 1239.207031
136.080154 1857.168823 1024.250244
266.912262 1821.183472 1294.241333
224.361526 1766.850342 1416.053955
254.742264 1783.190918 1118.894531
207.594757 1768.601563 1286.446045
108.004791 1820.325073 1068.165649
-98.455177 1754.872803 1188.954956
-69.916763 1719.249390 1347.072388
-29.673244 1807.931641 1095.418701
-30.613728 1745.213867 1335.885254
295.926575 1902.486694 1276.723633
65.617615 1777.899292 1201.266113
18.650858 1810.217285 1127.247559
-40.110817 1814.656738 1060.534058
282.835236 1957.018433 1344.399536
281.146576 1849.699951 1101.125732
255.193527 1802.191772 1105.219360
304.233093 1909.412720 1327.434570
150.801239 1761.166504 1214.952393
59.242184 1711.434448 1288.344482
273.311401 2010.528809 1164.774170
283.751434 1776.067261 1262.150391
83.663811 1713.615967 1278.112061
273.879883 1846.140625 1040.376831
293.962463 1849.438843 1205.835571
175.865540 1794.680908 1097.531860
289.235809 1870.049927 1216.358032
-109.643059 1768.220825 1151.874268
92.368210 1844.699585 1030.433838
-43.664085 1715.194702 1292.907104
-115.190071 1770.001343 1372.823364
180.018890 1744.083008 1276.705811
259.405518 1782.924194 1182.425659
45.824421 1719.094849 1279.487915
234.567047 1777.872681 1144.610352
56.303585 1718.404297 1291.075073
-53.899586 1773.653931 1197.361328
324.726379 1874.269165 1294.295654
271.654083 1982.983643 1113.110229
278.218170 1975.748901 1184.673950
288.368347 1785.302246 1172.449463
24.656736 1786.060059 1165.494263
54.519573 1788.926636 1157.931641
1.452670 1766.075806 1200.672485
202.630875 1711.483398 1419.021606
272.046661 1743.644897 1240.994995
-33.443783 1718.785645 1354.253540
228.647644 1766.696167 1161.719727
112.949188 1787.158569 1188.395508
276.657562 1992.158936 1157.864014
245.799377 1861.005737 1012.132690
105.689148 1723.322876 1276.619019
35.772102 1749.344238 1243.943970
58.286777 1819.417480 1102.485962
284.777344 1858.992432 1173.215332
134.507645 1815.328003 1084.868896
-35.674389 1767.998047 1175.352051
145.721939 1797.081543 1159.129883
