ply
format ascii 1.0
element vertex 1413
property float x
property float y
property float z
end_header
119.835526 1968.729858 808.130737
154.635147 1927.608276 986.206360
157.048965 2101.361816 820.244995
-83.579956 1878.327881 998.138062
63.373871 2099.759277 761.813721
-131.892654 1824.322388 1070.547119
263.962769 2085.975342 953.474182
62.085541 1967.690674 791.074646
-227.897324 1983.952637 1102.865234
76.024742 1960.175659 871.364258
81.389336 2002.406494 723.249146
105.171104 1889.262207 1146.383667
-27.469423 1957.655029 804.698242
19.594448 1833.158936 1094.188599
60.440472 2124.122314 778.971924
23.739056 1858.911621 1048.768799
35.283718 1829.897583 1138.232422
144.276489 1931.406616 926.214783
-41.298325 1891.412354 954.871704
-51.277874 1857.987671 1020.889160
142.921066 1993.060425 762.879456
-54.204208 1966.959229 788.997498
117.533844 2246.921143 875.156311
-8.000299 1824.463745 1114.201294
145.199692 1918.252319 961.052673
199.732742 2042.350098 811.627014
-4.881122 1854.314331 1051.903442
206.716599 2061.452393 801.049500
-74.652519 1931.076660 855.995056
145.360184 1951.978394 958.114746
184.341293 1961.658691 880.496033
-70.910187 1923.848755 892.347656
177.561371 1983.733398 801.765808
166.273117 2129.093018 833.614563
203.179962 2012.993286 803.395874
159.205490 1986.894165 962.923950
-18.938288 2000.710205 697.393188
116.910751 1894.738647 996.403198
49.624832 2173.762451 784.165344
280.560089 2000.302734 966.752441
-31.199347 1988.906616 758.139282
38.240692 1853.971069 1053.278809
159.392883 1974.741699 842.568726
52.310261 1972.715088 771.171814
137.332092 1900.307617 1002.172913
-55.184731 1931.497925 848.285583
108.628639 1931.027100 1076.539673
187.378006 2214.767334 888.201965
-6.253554 2029.850952 706.787537
-0.961828 1896.399292 977.598267
236.975540 2009.117432 920.554749
49.767715 2168.315186 796.085632
116.853462 1951.548096 841.373291
105.940720 1951.499512 841.387268
104.544655 2201.395264 846.633545
173.952942 1955.881104 886.993774
-24.875753 1956.494385 847.534058
111.941483 1926.501221 935.770325
78.573624 1965.502808 820.323181
35.536900 2228.478271 805.866577
58.189045 1951.567871 850.105957
58.899597 1855.549316 1159.368286
136.269669 1922.282715 941.031555
86.704086 1866.274048 1075.905029
38.813335 1915.261841 944.024536
70.761841 1968.987305 810.704041
206.895172 2108.980957 905.731567
85.292404 2207.270264 835.852905
-1.096059 1874.587891 1010.483276
210.956558 2126.295166 840.035889
137.230728 2072.701660 798.519714
214.942719 2098.781982 836.942383
180.027649 1987.232910 934.910461
134.428223 2087.831787 792.830688
56.766323 2213.478027 811.390015
184.099396 1979.637451 820.214905
-56.194759 1981.233032 759.996704
-52.048729 1928.796021 901.126038
198.189484 2040.188110 861.932312
63.976288 1845.426147 1092.581421
71.596710 1855.459839 1052.484009
159.592789 1915.186890 1011.964111
-176.726242 1874.616943 961.581238
9.101470 1985.439331 746.284485
51.822140 2202.126465 815.942200
2.102376 1972.322754 860.920776
95.002914 1868.215088 1121.318726
262.305298 2103.905029 935.852112
-14.031294 2007.875488 693.494690
71.918999 1891.333008 1002.402832
131.945175 2143.325928 827.873230
107.739052 1971.284424 886.392273
42.256496 1964.410400 781.343201
-23.662020 1963.670166 805.192993
197.227661 2143.347412 901.179260
75.335762 1860.201904 1108.380005
65.742302 1967.298218 776.434570
102.109131 1932.078247 1101.051636
70.192909 1915.462402 977.521301
141.449982 1901.356934 985.741821
125.738625 2135.490967 811.713257
-115.803574 1875.939575 950.325378
288.589600 2099.052490 932.208008
-23.094854 2189.093750 767.469788
-59.295189 1891.476563 1159.943237
45.817795 1850.369507 1081.229126
109.674217 1897.785156 989.276489
-118.700249 1904.608887 905.458740
203.095032 1990.785889 823.779053
172.823486 1970.905029 844.325134
187.144073 2183.128662 901.655396
218.250107 2036.232422 948.210999
-53.533936 1946.420532 856.593384
104.008736 2099.713379 787.299744
262.398010 1999.589600 954.040771
7.389684 1890.802124 985.388489
158.516495 2093.920654 812.059204
107.615341 2101.032227 791.854858
118.498978 1958.024170 828.129517
190.743942 1984.693359 848.010498
-8.877515 1815.793701 1108.177612
-92.727211 1859.706665 1073.576660
157.411545 1973.248901 823.862427
68.336540 2200.471191 821.174805
62.457729 1850.190552 1086.763306
66.155991 1939.537231 852.296753
102.747139 1877.829834 1138.357788
149.224808 1925.186768 976.239197
186.704819 2075.612305 816.596863
182.188828 1971.086304 856.231750
23.923180 1983.374390 887.280640
188.328598 2217.561279 919.337585
244.183792 2139.985352 930.597595
211.374786 2102.591797 824.554443
-75.251915 1882.266357 967.534424
146.099457 1964.239136 817.025940
10.693863 1986.342651 739.123169
104.209312 1893.001587 996.692749
7.740173 2010.205200 701.813171
240.609299 2088.743896 928.945374
100.409706 1905.998535 972.345825
23.526991 1941.300415 884.648987
118.042046 2153.003662 828.864258
164.310013 2211.770752 872.197266
-62.079216 1857.180786 1061.574829
175.715683 2066.067383 932.015991
33.183067 1836.831909 1129.363892
146.976135 1952.897949 876.298096
14.537254 2241.316162 826.635498
150.031342 1943.593994 910.210815
255.937866 2009.337402 958.235596
51.045364 1841.741699 1064.259399
207.539124 2175.331543 859.640686
124.677658 2212.778320 863.621399
227.586960 2035.484131 945.876587
52.209362 2136.316650 768.323547
46.075745 2024.765503 716.260315
13.291189 2241.839111 816.274109
189.165161 1978.596802 883.156616
107.756096 1960.545898 829.739075
-19.476122 2035.126709 698.054443
-10.952545 1949.113647 838.285278
81.218307 1996.761963 725.315918
107.651039 1902.322266 980.301575
148.772049 1940.033936 1020.462952
-8.662090 2127.232422 725.914063
93.515572 1930.484619 921.755066
167.807312 1946.347046 902.663574
1.524668 1921.812744 915.334717
-10.737709 1886.299927 996.831421
63.493038 1877.514404 1015.613586
183.053421 1980.012085 815.554565
54.455128 1964.964844 793.067749
39.590286 2209.343506 798.618469
63.231052 1965.728638 807.142700
207.511093 2041.028442 831.087036
62.882813 1861.437988 1043.393066
-60.782543 1926.487427 862.559509
74.138802 1928.612061 922.244202
25.041912 1977.518555 763.087708
-28.942705 1828.672729 1102.553589
-185.527557 1876.619263 1072.817139
105.500999 1929.129517 1119.099365
75.255737 2140.113525 793.290100
95.463112 2245.463135 866.543518
-0.713831 2040.236816 701.257690
-87.904724 1954.390747 822.709534
-66.748581 1914.481934 877.649231
127.057854 2174.804199 845.553467
66.860435 2008.152344 720.084045
-68.085121 1939.113525 838.759155
46.258308 1921.467529 938.751770
202.911850 2005.811890 827.619934
-77.738571 1878.283691 1081.579590
-116.000603 1926.683838 883.809326
170.131699 1983.443359 967.834412
99.201431 1858.912720 1118.207275
93.912193 1985.987183 769.052063
-10.364564 2076.503906 716.211243
109.709885 2069.867188 774.881287
-42.967670 2213.538086 759.933777
-98.501266 1833.743042 1041.685425
196.518829 1993.858521 797.891663
104.176125 1916.658813 965.213501
-120.847931 1873.043213 1041.513184
-152.526367 1852.587646 993.016907
-10.985936 1903.357422 975.164124
-58.052086 1906.421265 931.147278
106.156715 2030.237305 755.394165
-4.688150 1830.800293 1083.958984
8.435966 1994.782959 726.227173
87.332611 1958.243652 832.938538
18.646774 2007.987427 735.337036
119.936356 2028.480957 763.027893
-95.302032 1887.842651 981.328735
179.933868 1996.289673 985.427979
62.534573 1869.211060 1025.017578
218.260254 2076.853027 943.074463
216.614471 2036.535400 818.315857
123.121101 1928.430542 928.121094
192.365097 1979.575439 817.254333
98.097969 1963.792847 911.661194
176.465240 2080.380615 917.386047
117.831703 1909.080811 965.779907
-36.277775 2264.623535 752.484436
-152.329300 1876.452759 967.764221
34.837982 1823.274780 1116.855225
-11.518088 2050.102295 691.133972
-200.451218 1993.017578 1125.406738
231.824631 2055.057861 953.723145
-118.146637 1833.046997 1073.792603
12.622782 2011.252197 694.311096
109.560562 2154.175781 830.389832
-111.961464 1865.764160 953.702209
-122.487259 1916.181152 890.204285
-51.075153 1980.856323 774.315491
206.208908 1978.113159 956.035889
-39.549332 2269.411621 782.375366
-43.928082 1948.026855 843.891785
164.785828 1983.517212 923.739746
203.229080 2010.497437 853.237610
76.733757 1866.231567 1095.274536
-19.294266 1911.751709 943.180481
252.621811 1970.109009 989.781250
224.300781 1992.394531 925.099609
53.040852 1928.322998 933.764343
-44.523540 1943.862183 1198.829712
133.112366 2005.541626 752.707947
-42.326153 1957.592529 799.423035
204.512253 1997.489380 953.331055
128.545227 1952.252930 849.279541
251.224808 2005.987549 957.407898
212.369736 1987.452393 813.257446
-9.829209 2273.318359 816.690491
211.524384 2057.949707 808.251648
95.091736 1886.458496 1077.820679
251.743546 2150.477051 929.827759
-157.805679 1860.323120 928.604980
141.262634 2131.432129 817.895630
125.438034 2148.823242 831.155090
138.366302 1985.353516 783.556030
216.742004 2060.388428 831.774780
-160.311081 1877.164917 938.494507
150.892670 1989.582397 798.053955
138.908798 2231.339355 883.665405
130.671051 1985.546387 1052.014893
29.908537 2045.630737 717.781067
185.708542 1974.960938 830.879822
147.234818 1901.411743 1023.697937
76.173820 1946.754028 848.968140
6.498792 2049.397461 704.085999
91.803474 2074.174805 771.593201
88.408424 1851.375366 1086.113159
140.571106 1976.682007 793.285767
96.364098 1940.386841 871.128723
198.334244 2109.682861 877.594910
92.684998 1914.108521 959.639404
146.327820 1986.563232 806.638000
204.135147 2221.539307 871.594604
-91.808975 1872.063354 990.861877
71.118515 1857.120605 1064.940552
124.375465 1980.934692 776.855103
171.931534 2209.524902 861.786438
147.161911 1975.052368 794.138672
63.600639 1856.198486 1099.213501
121.149414 1924.485840 1084.810547
131.339584 1962.939819 1085.777344
-52.423454 1942.167603 828.643860
-22.789783 1902.230835 1186.850708
124.721695 1891.951538 1020.742920
130.540817 1961.031738 829.638672
1.643622 2018.033325 703.409607
-132.516327 1880.610840 973.806885
69.083824 2118.656250 778.676941
27.569227 1911.538086 959.521423
28.490919 1934.467529 895.748108
-133.903732 1891.455200 890.075378
53.028210 1938.334351 896.098877
1.751124 2108.403076 735.526611
-187.931000 1815.998535 990.196899
213.625046 1999.572144 936.489929
67.310211 2152.718750 798.442627
141.688232 1888.700684 1001.652039
58.253433 1887.548584 1188.685303
209.043335 2022.669800 839.561096
-67.583755 1904.703125 927.024963
24.130289 1872.511230 1192.856323
252.731567 2088.648193 933.139465
-54.714314 1992.256592 750.570068
89.777260 1872.140747 1070.429199
-27.143837 1880.597656 1003.306335
-29.891634 1962.967651 829.222900
95.754700 1992.634888 754.518555
12.568584 1883.790405 995.900574
51.347275 1953.603271 854.499878
54.496967 2125.640869 764.282532
162.805267 1956.031006 871.787903
187.601120 1972.311401 872.395203
191.672379 1992.444336 802.976746
225.660797 2093.246826 827.459351
79.665016 1860.026978 1078.251709
233.820190 1999.906982 952.809082
150.735718 1986.485474 779.415894
208.443436 2098.780762 831.887939
-33.041958 2005.064819 722.496033
50.745964 2121.977295 771.854858
177.927979 1988.307617 817.452271
156.300964 1946.385132 903.422241
144.035355 2201.147949 856.918762
149.808289 1939.882690 936.474182
50.561951 1842.129517 1088.017090
20.463028 1904.362061 956.854736
153.406509 1943.254761 927.745850
116.469162 1927.753052 934.027344
255.678299 2001.162354 947.190186
-13.273849 2058.962402 696.264038
70.860733 1970.005859 783.710388
154.981125 1934.326294 1018.708008
158.366379 2137.104004 842.013550
55.679016 1938.807495 909.804565
217.311844 2103.586182 930.922241
63.036064 1930.072144 921.665894
68.134682 2192.916748 820.724854
95.671890 1881.336914 1015.990356
111.804070 1897.954712 1004.759827
86.026848 2153.393555 807.078369
77.263336 1986.850220 779.114380
-8.814512 1996.924561 692.232544
8.466998 1884.045898 990.549561
87.177887 1854.381958 1111.232422
114.747185 2166.259766 830.288879
45.844471 2165.253418 779.385925
157.059891 2126.873291 836.153564
1.755112 2208.322021 784.596008
11.320847 1870.712524 1034.558594
-19.042974 2003.392578 717.141174
98.117645 2064.601807 764.754150
-58.541069 1917.205078 911.377747
181.222305 1998.253662 800.592712
54.617836 1883.646729 1000.147217
67.233353 1883.957642 1181.014526
36.069046 1833.982178 1079.263184
-10.469995 1942.105835 1212.409180
65.252327 2105.988525 769.294678
87.459946 2151.350586 795.622070
117.751190 1926.354370 1058.049072
11.919467 2015.428833 670.507568
218.882370 2057.349854 820.054504
-12.366385 1826.770752 1097.302979
15.169656 1962.837158 805.002380
48.195042 1958.155640 824.092468
197.636261 2181.166504 906.223755
127.717659 1954.893188 852.205078
130.125565 2018.257813 766.407532
212.834885 2084.364746 848.872864
68.106804 1855.152466 1052.281494
179.055969 2237.719238 873.507141
138.844147 1933.368896 909.775269
163.251999 1965.141846 820.943054
-25.512188 2100.423584 719.388794
226.666840 1990.609985 942.870239
15.119352 2124.326904 747.239990
282.093567 1996.515015 965.263733
-16.481623 2086.623535 718.692749
184.360611 2050.845215 811.600098
165.143326 2000.031494 781.149597
221.057739 2036.739502 938.057678
189.533768 2058.293457 933.543213
230.496185 1983.804565 959.366272
-188.253204 1830.651001 981.447815
-2.704618 2084.429199 714.402344
-10.375700 1931.362427 880.774475
197.090820 1987.873535 931.284180
244.946793 2025.562988 951.808777
193.046661 2003.136719 862.536072
-77.075897 1942.285400 795.021301
-39.509014 1901.505005 930.985901
110.396942 1978.478516 772.058105
266.981842 2016.938599 962.047668
33.551510 2199.030029 815.547180
156.843170 1987.740601 786.066040
141.605515 1966.557129 830.279541
-6.905436 2048.893799 678.977783
-150.264587 1878.843018 994.660217
-60.045071 1965.155884 800.534180
164.122757 1982.983032 804.191101
-107.203804 1925.499146 868.179504
9.027032 2031.369263 704.214417
81.205177 1956.613403 819.146790
-98.495132 1887.074463 972.672668
41.964996 1975.603027 771.085022
207.604309 2164.064697 924.818298
84.205750 2169.521729 804.706848
242.095200 1970.860840 986.263489
109.334915 1880.710938 1011.503662
67.876572 1854.963989 1122.619995
42.590405 1875.370728 1033.245605
33.396450 1977.953735 788.674133
69.042984 1892.574707 1020.692932
-67.366447 1902.711426 943.377136
-40.098999 1989.713135 751.421631
195.444534 2055.299072 874.189392
-34.911480 2271.829346 757.790894
125.023247 1910.229736 961.591736
-15.059880 2249.333496 801.344177
158.915680 2047.998413 778.937866
93.043556 2044.497681 748.512512
-89.484543 1901.987549 965.205750
60.586197 1899.982544 995.476685
0.316214 1869.629883 1016.885742
203.002670 1986.716553 933.880127
215.543335 2069.130127 814.233459
-52.092499 1964.623901 814.670166
136.555283 2002.489136 776.592407
97.261284 1883.444946 1089.441284
269.183563 2089.891357 960.939941
-3.699706 2227.353760 792.347961
-33.517879 1952.880371 813.169128
157.876617 1991.789185 779.481567
209.300003 2050.955811 823.790527
131.347687 1901.810547 1040.471802
31.673817 2018.150024 701.314331
151.967438 1934.506958 958.330750
-120.256393 1899.660522 867.716492
186.297150 1992.701294 878.862915
16.231575 2198.923584 778.883606
40.620850 1899.245728 999.107178
37.937191 1965.655029 786.186890
86.920067 2016.511230 720.928589
27.414667 2019.024048 676.224426
225.283508 2103.198730 892.144775
46.329735 1968.051025 788.149231
-14.762345 1890.982178 985.746948
72.318748 1861.813110 1095.927246
-15.827976 1987.622559 754.896423
-19.188194 2232.383545 791.626038
104.912514 2110.969238 794.138428
85.896278 1899.313477 977.806030
214.335297 2037.772583 933.585999
22.897093 2045.379150 712.778809
213.142242 2109.810303 835.059875
98.752510 1947.771851 839.255249
200.055984 2049.700195 880.039063
162.261139 2068.481445 806.428955
26.757244 2042.610107 714.933167
83.986008 1960.459595 847.681030
-20.859995 1825.650879 1086.131836
-128.396500 1925.185913 1133.940430
253.442154 2060.102539 970.175049
183.985626 2117.913086 832.371704
184.433594 2024.839844 795.994080
-11.203074 1966.189819 795.351563
260.037140 2094.538818 944.117615
-69.079163 1953.623901 813.402222
-49.087761 1867.876343 1002.659241
138.011185 1931.992188 920.358337
46.380360 1832.006958 1084.282227
-170.517548 1860.200806 983.201172
-8.458662 1953.020020 889.623901
201.431183 2144.156006 839.396240
-48.784153 1951.737671 852.899719
-12.819601 2005.945190 702.298645
-168.279144 1855.969849 979.322754
-28.001905 1837.424438 1081.959595
241.413010 2121.829102 924.890808
86.846519 1862.709229 1088.310425
149.016434 2029.658569 775.654358
2.435032 1976.762939 818.649658
95.334251 1934.198486 1112.582397
194.384521 2121.528076 880.773071
168.140747 2005.383667 783.149963
82.971817 1970.689331 781.697571
-13.364910 1969.662842 785.643127
163.194366 1991.102173 796.580444
203.905212 1989.333740 950.236206
134.950806 1902.486206 995.263733
-17.271318 1835.897461 1107.722046
104.080284 2185.892822 838.060120
142.840012 2119.158203 812.047668
184.677750 1973.121948 853.849060
-73.599106 1949.090454 796.901184
214.774048 2021.338867 828.363037
84.484779 1948.128906 845.260681
44.967693 2090.801270 762.842712
-9.193801 1812.067871 1101.894531
292.228973 2006.056152 983.106567
118.671722 2061.568848 778.190613
5.940009 1982.091553 747.388550
166.243484 1955.166016 879.100525
33.757862 1989.709351 749.638550
-10.765801 1943.901245 883.552490
46.775295 2136.457520 771.889648
192.447052 2056.307129 810.130798
138.795044 1948.555054 1063.866333
70.060181 1856.034912 1059.852661
10.042785 2098.704590 735.013184
80.444107 2137.233154 796.402405
173.556290 1961.391235 874.170837
7.894803 1843.687988 1079.204102
106.819611 1940.024902 1085.036011
78.267937 1946.414551 825.908752
18.473455 2102.599121 727.565369
-33.333630 2209.257568 754.838318
81.412376 2007.081543 731.891907
-66.779068 1897.031982 970.077576
-106.700592 1914.210327 895.128906
-76.556458 1876.890747 978.970459
103.410248 1941.185303 1100.796021
145.378922 1981.970703 792.592468
-21.985994 1908.384644 936.683777
126.911957 1902.238281 974.418884
-47.187317 1907.333862 932.861023
106.184410 2201.004395 833.990234
-33.120693 1949.513794 820.038757
-124.209930 1921.569458 906.911316
43.176582 2180.471924 804.381409
227.884094 2000.251709 924.341309
13.810065 2128.127930 748.695129
81.215683 1857.116089 1103.653442
-59.220158 1905.513428 939.130005
92.883156 1966.043945 807.050110
130.851395 1895.446045 1007.078857
180.736603 1961.990601 889.205383
108.868286 1902.598022 978.187317
54.361679 2129.078857 776.430237
55.659447 1962.153320 797.591248
-14.900427 1842.161987 1097.649902
210.949478 1975.080933 967.868103
-6.775555 2247.801270 804.223145
65.990280 2157.150635 798.004333
33.253815 1910.959717 969.695068
213.534500 2020.819580 819.980042
-58.351994 1928.670654 856.617676
-12.249084 2010.636230 686.471130
-102.326782 1885.214844 945.402405
220.915329 2042.468872 952.562561
208.862656 2186.996338 857.798889
136.704620 1926.875488 947.751465
7.567793 2043.353149 705.779419
188.685120 1976.941528 960.405151
189.338364 2021.871460 813.013733
170.894470 1977.977051 894.809448
145.914948 2040.179688 779.479675
79.791656 1985.275513 752.040039
26.754984 2053.989746 714.296448
79.890671 2137.562500 801.458923
58.660934 1852.945313 1103.827026
64.119156 1999.491211 728.420532
-3.069538 2015.525269 692.376099
-28.744957 2186.935059 761.015503
-117.236389 1819.359985 1071.379639
106.476654 1957.295288 825.357239
173.515518 1953.454956 897.653992
-19.311636 1927.692749 1199.424072
191.707626 2038.463379 931.391724
117.389923 1978.866089 775.799561
37.456547 2098.193115 750.031982
-28.833540 1938.220459 895.276917
74.300568 1853.635010 1104.269165
-174.796234 1859.755615 977.621643
93.445961 2177.668213 834.196228
146.590668 1937.103149 901.637634
105.524872 1967.762451 819.434509
194.120941 1986.506348 944.349792
-68.331818 1967.976074 783.233459
117.279579 2012.338135 766.104614
-194.574509 1842.070435 1003.574524
-67.394623 1825.150757 1088.069458
-26.815895 2162.636475 749.710632
-138.827545 1895.182495 942.717102
294.985901 2006.239136 984.817993
-29.928225 2180.850586 757.074524
-19.100769 2109.390381 715.200684
174.921494 1982.486694 796.639832
237.005081 1992.766113 936.896606
212.774323 2172.045166 926.210022
17.788527 1976.944336 829.944153
12.735480 1873.090088 1032.181030
233.410889 2057.170654 800.763977
178.263794 1994.466187 920.143860
111.275307 2089.631104 785.272705
257.480347 1969.983032 989.071899
180.915009 2017.820801 916.358459
-63.552586 1971.075073 792.909058
194.209137 2182.361328 858.410889
233.010178 2136.203125 909.221863
-72.572906 1923.291626 798.564331
-29.259382 1871.395020 1009.031189
205.552139 2143.779053 855.394836
35.093212 2131.901367 755.899292
97.413170 2006.965698 730.456238
246.737549 2159.428467 936.818970
210.885284 2013.089966 811.106384
211.865601 2132.642090 870.941772
189.477066 2020.389893 795.186707
86.897652 1870.665161 1030.457397
-146.516800 1888.277710 925.624451
136.805740 1956.206177 842.535889
71.411301 2178.633545 802.078125
-152.192322 1873.249756 937.430786
191.205994 1990.104614 913.105957
52.768147 1964.550415 788.285095
85.290024 2096.672607 773.439209
18.572445 1946.089722 877.406433
-8.212058 2043.181274 671.218994
-47.844360 1977.053345 765.830994
251.203186 1980.287720 966.707825
23.259529 2178.853027 784.474243
-156.052811 1853.574585 973.562256
176.137985 1953.196777 884.666992
-168.987076 1860.587280 950.872559
-73.149536 1864.581665 1018.891663
103.152695 1958.627686 1135.455566
86.160568 2070.873047 756.556091
102.828568 1862.713013 1106.543701
-108.186234 1891.619751 911.418762
-86.073067 1929.273071 850.700867
45.820538 1957.570679 820.073364
94.377098 1923.470093 937.502380
-11.530750 1834.618774 1078.002686
168.914307 1964.300781 830.464539
97.176369 1960.827637 826.610229
183.832291 1964.747314 852.204407
205.221649 2017.840820 850.483398
186.608658 1986.675415 879.864197
-36.756195 1936.194336 866.002625
187.000183 1973.585693 853.014282
160.620453 1947.084351 962.712219
232.912903 2026.443237 824.349670
-98.194290 1931.082275 838.573059
-109.897079 1883.703369 943.402283
160.356888 1945.183716 932.934082
47.023376 1978.117188 759.603882
121.777725 1971.471436 812.005249
106.855423 1951.081177 872.673828
223.448456 2031.490479 812.296814
58.812382 1874.864868 1053.500366
245.113983 2084.772217 950.001526
-42.264191 1936.986084 875.114502
14.759848 2257.535889 820.490417
-144.184128 1873.702759 947.940796
-33.703651 1890.186279 982.029480
-9.674415 2218.732178 788.204895
70.204231 1861.948486 1136.632324
195.769318 1992.083984 863.786499
-104.090836 1888.050781 931.106201
115.138855 2104.333740 800.411560
10.238598 1851.202271 1056.151978
66.636086 1985.411621 741.296204
239.907013 2009.113403 922.811157
152.479980 2105.135986 810.082764
137.686813 2008.551636 774.990540
38.866329 2102.811768 750.478394
53.277248 1925.404785 948.743896
190.576385 2108.135254 894.513428
50.620705 1872.971191 1037.715576
-140.709656 1883.069580 984.248169
7.070185 1862.028687 1046.294189
-13.726763 1824.808960 1100.251587
30.990959 1828.266724 1139.358154
-21.002132 2128.543213 746.629089
55.513039 1844.552734 1081.512573
135.628494 1984.355103 772.557068
187.399307 2033.537964 808.318604
94.474892 1885.489014 1007.260986
163.108383 1970.280518 847.489136
140.423782 2189.417236 861.762939
45.002254 1871.563354 1037.859131
-7.609227 1970.242920 801.363647
88.364464 1967.955933 815.334412
130.102081 2141.812256 830.264648
193.341934 1991.562622 857.785583
-10.787058 2194.826416 772.620605
205.312378 2137.229248 838.658997
56.228745 1948.638306 906.215149
149.522110 1978.587646 951.231812
69.187241 1961.476318 805.693237
-14.716342 1888.481812 987.174866
261.197693 2088.681641 941.237488
45.928085 1939.745117 888.781189
-27.314062 2230.314697 770.285278
30.569246 1900.430542 992.512512
174.650497 1970.031128 913.864807
142.811432 1913.955078 979.239746
12.941929 2199.024414 789.547180
-62.572155 1893.122192 997.574646
-123.862007 1898.248169 914.384949
83.171135 1868.197632 1119.880371
71.215233 1856.237061 1106.590698
20.661854 2033.120728 715.684631
205.044983 1981.553345 839.994568
-30.025454 1840.077881 1097.198364
197.812622 2173.714355 863.058533
168.408142 1992.806030 1037.443237
258.253174 2100.446289 933.820557
81.207253 2121.783447 790.469055
-2.477917 1899.337036 955.965454
-5.769278 2028.055542 676.008972
65.714493 1952.641602 837.511414
-98.804207 1904.709473 902.888367
108.255424 1886.460693 1134.658325
64.861832 2260.460205 854.530212
152.740997 1935.776123 911.236694
-107.081520 1925.159058 879.222473
210.218842 2120.451416 835.117432
83.792282 2163.946289 811.316284
85.326569 2156.906494 808.455933
192.035706 1976.702759 846.992004
35.776363 1963.115479 800.044556
4.958218 1990.575928 731.530762
159.400162 2082.247559 818.455017
190.081985 2017.470215 802.628235
177.175171 2219.019287 867.675049
116.514694 2094.020752 795.943420
18.782564 2103.013672 736.603394
204.215240 2092.767334 943.153564
-77.594528 1837.964722 1061.092773
75.679985 1864.238525 1074.903198
141.892090 1962.926147 831.132202
-15.687513 1901.540283 1190.571411
262.837769 2004.312988 966.844971
123.323830 2058.100586 774.691345
-46.017044 1929.712524 906.246338
154.063797 1977.755493 799.202332
-115.716187 1895.741577 989.136780
51.337387 2013.894409 710.335510
184.863464 2172.183838 912.162170
25.119396 2158.711670 772.163269
168.908676 1988.274536 950.433960
158.369690 1966.956543 926.136658
170.509995 1932.954346 985.114502
-14.070457 1859.284302 1075.801147
117.874664 2218.805420 862.155457
76.303413 1865.377441 1064.057251
219.235641 2040.605225 953.711914
42.224655 2010.111450 715.738220
121.945908 2173.707031 829.132324
57.443687 2120.156494 774.033325
-121.570709 1892.661255 916.187866
162.716156 2054.131836 805.072449
250.361023 2123.143799 919.251282
90.024673 1976.242798 773.883545
132.356674 1941.407959 888.763062
233.930145 2085.956299 832.121277
174.140579 1972.471680 815.720703
-10.228072 2183.427490 766.092285
209.195770 2109.105713 849.037781
-26.473700 1899.636597 988.586121
96.652626 2075.156006 786.812256
125.844757 1987.339722 756.179932
155.536148 1976.099243 938.506042
97.878899 1953.827759 831.216736
212.216080 2099.876465 829.192139
-142.169540 1898.332275 1020.051880
-105.398880 1846.434204 1076.256592
57.275433 1903.787720 984.977051
114.248253 1884.111816 1032.721558
111.624382 1944.580566 860.552979
-8.367191 1993.011108 740.963196
-41.118309 1962.988403 832.861633
202.845688 2141.730713 848.518005
-135.938721 1843.741455 1019.224121
-122.558548 1883.709106 939.397400
41.594799 2231.935303 825.116211
201.058029 2186.831543 873.924011
269.747833 1983.195190 988.648254
224.585159 2143.988037 914.596191
135.386444 2147.549316 836.614563
-121.979843 1868.281250 980.852051
134.454514 1893.144775 1026.913086
-36.601288 2227.537842 767.584106
166.978058 2105.994873 822.158325
268.180298 2096.274170 939.457520
-32.663139 1998.209106 737.557190
87.687538 1984.261108 769.003540
-58.025791 1944.549805 870.639954
185.385559 1989.515137 874.881592
137.947205 1897.003906 1018.868286
116.849335 1936.532349 924.728760
183.998520 2009.612061 788.900146
115.738708 2099.155273 799.577454
-117.233482 1844.056396 1034.424927
146.926010 2010.780396 781.576965
-39.995850 2197.466797 750.965576
206.143967 2099.732666 867.886719
-11.982166 1855.735962 1048.075073
-38.586563 2196.575195 759.038574
266.834290 2000.592651 955.877930
-49.817589 1913.241089 927.015930
-111.802521 1882.503662 995.135864
-37.709026 1855.627930 1150.906250
-69.725136 1932.141357 794.415771
88.044029 1919.180786 959.422058
39.554390 1961.011475 799.508301
228.377396 2153.930664 919.749390
67.304047 1953.395508 826.967896
190.168350 1980.898682 823.833191
125.733101 2022.552246 761.605896
-28.939901 2138.623047 725.826416
-46.078400 1928.433838 893.078613
-26.157181 1968.375122 812.276550
-27.409336 2108.625732 716.337463
-4.602514 2242.812500 802.321472
298.494598 2001.024658 978.760498
88.049232 1881.783325 1077.641602
-38.114960 1899.005493 949.434509
120.300125 2016.773438 755.246277
177.034698 1954.474243 878.992981
232.770401 2162.055908 928.201477
-126.521461 1879.679077 934.959839
-106.871635 1907.730225 888.884216
139.507339 1916.724487 984.861511
134.470703 1949.082520 850.424561
229.917511 2003.296387 918.466614
3.522308 2099.995850 735.748413
-53.547886 1941.328247 869.715088
197.351334 2029.249023 807.076355
120.171692 1887.479980 994.787170
-13.819971 1897.196167 973.265686
-71.612091 1825.582520 1086.120483
87.200516 2155.125488 799.008423
206.516022 2012.213135 925.885071
-70.539406 1894.716064 993.147705
58.539238 2007.312500 723.848145
308.991241 2015.364868 960.625732
0.438585 2011.865234 682.326233
-13.710401 1900.166748 987.098999
207.076843 2088.495361 860.101257
158.777481 1919.543213 998.514160
51.177860 2072.440430 747.278503
-29.139866 2095.331543 720.635620
-15.150683 1949.259521 877.241882
197.686371 1983.117065 807.939514
152.615753 1956.765259 853.437622
106.509659 2060.432129 774.072754
52.858116 1995.603027 739.951965
154.141724 2096.586914 816.934570
62.451035 2006.672607 725.919861
15.911421 2002.367188 713.740479
187.330322 1974.158447 830.522949
224.384537 2010.169434 944.934204
76.641052 2026.591431 736.174316
-149.946075 1848.338135 929.239258
75.542938 1997.314697 725.705139
205.617676 2033.047363 814.237854
3.869632 1921.163452 932.878906
175.953262 2033.137207 805.206665
12.502972 1932.958130 904.332642
86.031914 1864.830566 1071.672607
126.181808 1929.546143 924.556458
113.008186 1967.749390 796.889893
-13.792813 2076.482910 690.157471
48.942245 2037.528076 715.897583
217.383606 2039.977173 815.157166
102.481400 2256.027832 860.518921
14.422132 2061.288574 710.299438
156.509232 1970.207886 1007.340881
-19.558357 1985.611084 748.695862
-158.717682 1846.270142 961.007629
126.727043 1947.111938 906.542358
91.564224 1975.401733 759.012146
95.667473 2253.700439 855.387390
91.164970 1869.226807 1028.856689
-38.322746 1937.418457 860.580750
173.295670 1991.390503 936.433411
100.386131 1910.116821 1085.816162
-117.121605 1901.038330 910.514648
-63.195835 1846.335083 1130.480835
-54.075390 1861.506226 1032.124878
218.639679 2116.845947 888.187195
-116.907913 1890.127441 874.832947
-41.088821 1926.090210 904.510315
51.638672 1827.672485 1134.949951
227.588745 2035.873535 942.677124
-118.560249 1847.752197 1069.947266
18.643095 1862.347046 1044.398926
37.045971 2002.333130 712.317017
179.168198 2031.395020 897.032227
208.108704 2100.009766 827.715149
102.093704 1926.476074 942.023987
-9.177329 2271.176025 818.131775
11.786668 1900.412598 989.466003
71.958229 2007.333008 741.850525
-42.018974 1973.500488 771.399902
-130.266876 2016.853394 1180.339355
244.246262 2089.096924 938.922180
227.739151 2095.209229 931.600952
140.615829 2008.216064 777.155396
50.952477 1957.728638 807.592651
112.647369 1862.166260 1120.500366
105.926910 2099.771484 792.549194
165.517258 2198.116211 866.855591
216.354691 2047.971069 823.110291
113.532410 1958.527344 844.398254
170.976974 1951.865845 905.320984
213.052032 2117.154541 886.517334
201.581421 2018.434448 902.687256
28.992111 1921.788696 1224.166382
3.441227 1937.086060 894.997925
34.059685 2195.969727 797.924500
107.420296 2149.254395 832.367065
57.540985 1865.377197 1041.589722
-39.436687 2250.494629 780.893616
115.827972 2196.930176 860.026978
-9.502147 2155.923340 752.413574
181.201904 2018.005249 796.659180
-60.953007 1941.409668 806.428589
-135.380432 1881.461304 1056.087646
139.251175 1998.536133 795.147888
38.932934 2171.057617 788.289673
-28.008640 2180.207520 725.514282
-101.992157 1951.161621 839.730713
-54.313774 1900.594971 1164.662354
135.168839 1931.035767 966.373718
-39.800545 1834.794922 1103.375977
127.590607 1924.341553 1031.359741
208.502090 2149.581299 924.381653
173.029999 1991.339600 914.991638
-53.440369 1978.392578 746.981567
-18.495256 1825.651367 1105.773438
197.356033 2121.308838 884.424744
262.174896 2134.242188 936.825195
108.276451 2218.625244 861.111877
-9.174467 2171.240479 759.801208
162.415436 1943.812622 915.568420
79.130463 2122.819092 785.042297
26.158276 2029.944946 698.250305
-184.630707 2024.630005 1152.664673
103.054733 1893.178223 1109.987671
-46.122932 1894.700195 966.518799
158.578583 1950.062744 886.692139
-17.608803 2228.619629 800.112427
159.722290 1929.563354 1003.635925
-128.359619 1860.847656 955.361023
271.829895 2104.032959 941.091064
195.150604 2127.594238 891.862061
68.171204 2094.759033 762.136841
73.588318 1902.528931 972.864380
116.457603 2072.252197 778.050964
-78.709328 1905.652710 911.314270
-121.396339 1866.209961 1005.677795
-69.928413 1891.161499 960.154907
85.170227 1902.343140 969.869507
-123.860916 1880.906250 931.923889
-51.779144 1935.807495 849.207153
139.586609 1984.438965 1035.705200
-10.231169 2021.192383 680.893127
86.368568 1864.727173 1129.751099
39.653561 1949.981201 846.038635
62.051762 1933.581055 932.847961
147.571426 1958.840576 860.399719
277.866882 2122.543945 918.138306
-16.748180 2259.327393 803.053711
197.474167 2154.612305 904.859009
186.022476 2212.931396 923.555664
23.818190 1975.061523 761.440674
-87.743065 1866.006836 1008.078552
113.858498 1963.904175 801.340027
-8.534424 1940.011841 887.684143
95.812897 1993.787231 762.239075
40.238811 1821.409424 1160.674438
211.365021 2051.105957 838.441772
147.736023 1956.316162 833.681519
60.460300 1936.136597 921.420410
187.767380 2007.582031 808.092224
-34.467087 1946.959839 881.695740
140.722519 1933.415649 935.449280
-47.936928 1944.438599 823.593018
81.565125 1922.303101 946.890625
33.383347 2255.016113 818.359314
-38.946239 2244.911621 766.263916
85.132545 1990.032593 742.621765
-31.837601 1913.040039 920.074158
124.880356 1916.891235 952.656006
-36.361778 1970.059204 773.941101
124.444145 1901.292725 978.621582
-150.173096 1866.926270 967.348267
52.990837 1830.255493 1151.592773
118.387840 1909.422485 969.384888
-2.000051 1950.885620 845.469177
78.313004 1868.396851 1037.781250
74.062233 1980.194214 758.786865
202.915131 2056.631348 851.906738
150.318710 2064.370361 799.189026
-57.187283 1912.782959 917.829041
-23.690191 1907.441040 948.157593
219.666672 2003.623169 846.393860
3.942094 1841.343628 1079.589233
1.795837 1980.212524 785.128418
136.214127 1959.199341 826.882568
220.167221 2000.571533 806.273315
-16.493364 2021.863647 702.604858
165.412491 1941.521729 949.819763
56.981628 1955.520386 819.514465
85.648682 1871.942749 1053.714600
193.666534 2031.680786 893.668579
113.492737 1984.750366 757.545166
87.406158 2017.527588 726.474487
-40.170223 1908.531738 932.179932
243.106537 1991.964478 941.346130
15.420222 2272.769287 833.296509
86.127045 1994.776367 738.318604
108.124092 1947.812622 919.588135
122.975403 2129.984131 819.331909
-29.522823 1969.773804 859.339966
259.248474 2001.015625 963.826111
0.209900 2101.342773 730.111206
-17.385326 1972.311035 778.040039
144.465027 2114.656006 825.513000
93.653511 1892.649902 1148.233887
198.122330 2111.083740 890.309998
159.816498 2016.458252 770.859863
140.665985 2037.595215 774.350830
216.882889 2006.427368 825.017517
-6.829996 1934.875244 909.595825
62.842522 2263.887939 851.293274
199.564484 2132.668945 827.907349
104.953300 1880.539429 1140.643799
87.798515 1869.570190 1074.302612
0.261748 1909.233887 941.071472
-91.437462 1932.417114 884.730652
63.222027 2025.266724 733.699402
211.697556 2095.389648 823.430725
219.092651 1989.627686 964.415344
-79.189072 1949.041260 791.082520
-115.871849 1867.170410 1018.208069
171.211975 1986.741699 917.449707
191.203568 2222.568604 897.664978
163.397552 2126.193604 830.539856
14.695417 2056.365723 711.607117
4.694627 1937.413940 879.456543
289.896210 2095.650635 936.571533
116.417488 1953.929199 870.043701
260.294922 2029.549316 964.340881
89.538490 1942.653687 837.182678
192.632401 2015.529297 894.298706
190.968750 2050.889648 804.903625
95.176422 1875.462769 1097.836914
16.908669 1887.349365 1200.755249
-54.192772 1919.610352 912.862061
43.394836 1957.097168 796.153748
206.764191 2054.897705 815.636536
70.882507 1963.125122 802.328003
-132.064255 1834.751465 1052.026123
-38.339912 1944.694824 856.701599
-117.342430 1884.665649 1017.723999
177.638412 2011.912964 921.550354
183.272308 2024.410889 886.452515
-32.440399 2167.557861 751.378784
-87.630821 1868.290283 1001.866577
-9.671036 2027.262085 672.433960
126.264511 1983.587524 779.218079
96.179184 1992.380371 745.640564
61.069210 2064.091797 748.046753
-117.851479 1905.312500 899.978333
49.109653 2075.614502 741.988281
3.611933 1972.979492 819.085083
84.903053 1862.869385 1081.857666
43.281628 1999.119019 719.150879
12.442060 2099.772461 731.174561
-97.347137 1823.638672 1068.735962
6.937105 1886.170898 985.644714
125.067070 1921.599854 1006.354004
128.729034 1991.867065 752.377380
40.314323 1956.325195 831.529114
109.913513 1980.983032 770.884216
98.490578 1998.439941 732.627808
88.662422 2147.992188 796.200256
128.414627 1945.209473 1085.236206
236.500763 2133.673340 924.466736
-139.996185 1862.267334 1054.808472
61.010258 2218.166016 844.489746
93.918213 1950.807129 898.391296
214.528412 2029.499512 846.097168
-8.865935 1807.283325 1126.969238
-21.964262 1867.463013 1032.320923
196.690704 2050.858887 804.422485
-70.029686 1831.319458 1058.377319
196.751190 1975.411621 836.119507
126.114258 2225.892578 858.528625
-8.415182 1970.675781 837.937256
90.114235 1991.374390 742.364197
-34.772816 1887.081665 1006.921692
-48.574642 1924.751831 777.430725
88.594429 2157.294678 799.548767
214.768005 2091.800781 909.501160
174.878433 1959.594482 870.884521
71.675819 1969.205566 771.364807
128.592941 1908.636597 976.443787
-10.509246 1883.846313 1052.413452
-46.322350 1913.437744 923.521545
191.857040 1995.550659 913.750488
-150.511856 1872.569214 953.048340
-28.795420 1896.605347 968.760803
58.698097 1877.628052 1053.008301
178.912033 2004.382080 793.110046
32.559216 1840.584351 1141.933472
-33.726799 1959.515991 826.402161
-2.894473 2167.221191 769.298645
-119.769775 1884.064453 942.886841
-52.307365 2276.306641 784.874146
92.330292 1912.323730 1139.496948
200.105667 2028.015259 919.691650
103.402435 1961.658447 796.328552
310.645538 1995.200562 971.547607
30.092585 1885.010498 1013.562622
-29.885967 2259.105469 788.361511
-100.387550 1905.373535 890.342468
84.624802 1963.774414 823.164673
12.546978 2114.036377 734.620422
86.107239 1887.799561 1000.198669
126.371857 1909.783813 958.195190
114.140160 1981.134644 783.200073
173.156799 2058.717285 810.656616
87.303925 1956.470825 842.987366
61.370441 1877.317383 1024.198364
24.858295 2126.354248 758.245422
233.324051 2100.128174 896.476746
171.492722 2000.743408 806.577515
38.288467 2083.594482 733.817932
76.151131 2110.851807 783.380005
30.596539 2031.184326 717.726807
157.508560 1936.331055 969.809998
55.761177 1952.592651 807.950256
-160.395660 1848.718506 1001.096191
212.579208 2147.363770 912.607727
97.406944 2227.759521 842.638733
56.763569 1892.976318 989.718445
1.931571 1964.426514 763.887451
24.964258 2095.479004 731.657104
-25.139297 2005.146606 724.981628
185.998016 2208.417725 861.353271
219.585312 2095.951172 918.465637
221.924026 1995.541016 934.326416
-84.913490 1926.708618 815.088318
89.695930 1879.511963 1043.385254
-187.429947 1850.942383 988.450867
116.738365 1978.521118 773.617371
41.137234 1842.211060 1114.793335
-56.394108 1857.555664 1041.144531
101.348434 1889.446655 1107.486938
187.648132 2071.566162 813.104004
-10.199921 2060.988281 680.819824
183.572083 2103.296387 912.512268
-149.509521 1881.916016 914.045288
98.939339 1998.969971 744.368530
-5.769316 2042.943481 668.524658
-123.693375 1867.816650 980.436096
-105.150146 1936.484375 847.481201
155.965225 2009.319580 788.077454
-23.248516 2264.114746 820.611267
170.606827 1975.998413 897.144592
104.034164 2065.986328 775.655701
211.248535 2064.194336 801.879211
-98.309425 1858.588989 995.117859
9.248034 1851.252930 1059.446045
125.983734 2123.589844 804.566711
198.053085 2105.420654 877.720398
134.199615 1935.112061 916.995483
184.668900 2227.356201 909.980530
-23.914333 1946.097290 870.311035
-66.087204 1820.258179 1086.059204
4.736747 1914.455811 937.997070
121.773003 1972.782104 816.023560
298.849152 1980.290283 984.386108
245.874954 1976.192749 972.716736
213.918564 2095.752441 828.195984
79.918762 2018.152710 722.919861
48.294960 2119.100830 768.472656
121.955139 1983.186157 786.092896
98.977036 1881.188477 1132.762695
111.433220 1949.669434 843.191772
-16.918972 1893.572144 970.658081
213.641159 2112.183105 910.743774
113.949913 2140.551514 819.896240
6.660424 1870.768921 1183.077393
165.087631 1962.150513 859.396240
193.952332 1982.742676 827.749390
-102.068871 1889.308350 1002.876587
127.061523 1902.061890 1022.961243
-132.757584 1849.689453 977.018372
305.042084 2003.345337 977.392883
88.210442 2114.943359 789.784790
218.334244 2065.466309 801.375000
97.843208 2108.184082 788.275635
102.151978 1901.432739 972.286072
62.555443 2186.862793 814.122498
108.428917 1964.804077 791.655640
291.808960 2005.420044 968.874634
-20.388920 1893.619019 960.494690
214.764069 2014.755859 835.290405
-44.958740 1854.749390 1041.303345
-19.115366 2185.384033 764.479492
207.159561 1992.601563 822.739563
85.514244 1856.629028 1112.097656
207.562088 1989.586670 848.794922
177.949463 1998.836182 898.825012
150.817490 2076.739990 955.459839
-46.480740 1914.917847 956.955139
116.793495 1898.865112 1044.762329
37.793118 1840.146851 1118.351318
165.775299 2222.915283 870.964478
-52.412327 1906.668457 923.771729
206.651810 2060.773926 817.140625
262.621704 2011.296875 962.847107
-125.565468 1854.628906 1097.289063
40.211987 1838.847168 1085.319092
-10.848085 1862.160278 1071.966553
-6.947996 1951.587402 870.511963
-5.068338 1969.269775 769.462646
10.843949 1951.172729 871.781250
-131.505997 1902.436279 973.388489
186.044510 1980.295654 917.534668
-118.698944 1906.790161 867.485107
202.046967 1997.652832 916.785095
-111.951141 1889.932129 926.268677
125.565414 1993.974976 762.712097
-22.101210 2287.472656 812.739502
147.488068 2127.971191 832.216003
211.606018 2000.116821 928.785583
92.551590 1978.387939 773.397522
42.185493 2159.555664 783.959656
-70.009010 1940.990601 785.662048
273.766541 1995.645386 962.571777
239.172592 1992.920288 931.692993
-165.497314 1862.108887 971.607178
204.123215 2033.124634 824.740112
134.929764 2146.446289 833.163696
98.591827 2002.519775 763.040222
272.058838 2113.023926 948.284668
7.784630 2164.305420 772.437866
269.630157 2099.157715 933.464783
-64.428970 1924.147583 804.638062
80.105667 1846.232544 1137.950684
176.940536 1986.901245 787.886414
285.731598 1990.598755 978.620850
98.952263 2061.115967 761.616455
192.560181 2008.033447 895.986023
95.813393 2209.501709 845.969727
12.156872 1988.192505 750.120178
269.258209 2091.074219 941.636780
116.265701 1903.532959 1061.303955
19.918234 1942.577881 878.523621
24.369053 1816.881470 1104.076416
53.911247 1997.114380 734.468079
212.799042 2125.622070 905.553223
106.868637 1970.037231 817.479370
38.291035 1911.604492 956.241577
223.628387 2005.198364 818.181335
256.603333 1979.712280 965.406494
125.260674 1955.905518 863.693787
-14.836351 1951.279297 788.582153
20.352203 2015.196045 722.214417
234.877625 2145.989502 921.118835
72.420135 1882.239746 1022.743652
-43.223686 2217.302246 765.290222
7.819620 2185.929688 775.702881
41.111420 2009.839355 703.641846
98.529976 1989.708008 789.394531
176.159424 2222.056152 881.222168
139.834671 1965.101807 812.612183
-177.994247 1851.563599 992.506592
70.863419 2251.566650 855.737183
182.139313 1968.646240 858.202026
-21.946224 2000.902222 744.240173
-55.883648 1950.662231 820.346191
188.037491 2032.421265 922.594299
81.646980 1975.993408 756.945496
-66.563873 1947.443970 821.297485
163.507767 1943.350708 903.024719
207.360718 2106.727539 863.764587
-71.708641 1922.430420 929.832214
-89.199829 1893.561890 944.147461
71.681297 1942.696655 913.453613
-5.295707 1885.913574 981.994080
130.981354 2179.477783 848.378784
-26.205811 2129.217529 733.781372
193.514999 2140.071289 880.445557
-172.603500 1916.038208 1102.620239
210.367889 2044.428345 811.602295
212.403473 2072.486816 809.711243
-40.209831 1910.392090 975.240784
73.492294 2155.227295 803.648682
-31.155508 1990.434204 726.007568
20.185694 2156.468506 768.044434
119.523056 1905.839355 971.133301
196.798569 2220.135742 876.183472
74.166588 1948.494019 910.087524
-48.383034 1912.487427 976.518982
64.336555 1870.857910 1022.338562
152.524094 1946.578979 915.098511
115.259071 1895.837524 1125.846924
77.224205 1970.330811 785.376587
-36.461510 2008.427124 729.580017
78.075356 1897.506226 996.228821
110.397270 1998.963501 741.797424
136.453781 1905.512939 1001.949707
76.288200 1958.017456 799.873718
182.700546 2018.686646 913.975647
251.343155 2135.974609 924.053101
61.582481 1976.932861 766.333130
46.405300 1958.547363 814.385193
-148.733582 1872.337891 947.119934
-114.595177 1891.776367 1124.726196
-84.077461 1882.595459 1074.045532
22.875309 1825.034668 1101.819702
131.521423 1888.870361 1033.659668
134.031311 2048.506348 764.845642
214.096558 2059.336182 853.380127
47.257351 2143.989746 781.781677
134.937988 1902.241577 1016.676025
-100.194214 1908.626587 897.607910
-79.455231 1896.846558 940.388062
84.871117 1972.122681 779.037476
-43.187988 1920.581543 913.204956
205.185226 2107.698730 847.399292
127.350677 1972.848755 792.325378
-89.645134 1900.389893 921.627014
67.186981 1900.465210 996.001404
90.992676 1994.786133 745.454834
188.180466 2003.488892 799.484558
91.895424 1851.703491 1132.524170
104.805069 1949.301636 858.036560
65.702942 2007.053223 896.926575
162.993835 1989.179321 796.213867
92.599236 2007.616577 760.886108
77.906487 1858.005615 1080.729980
129.200363 2059.774658 781.494202
-32.888828 1945.064697 842.357605
-146.145493 1886.423706 998.746521
130.172287 1896.522217 1039.843872
-77.932709 1926.326172 857.424988
92.405396 1897.638916 1060.245972
-57.174442 1925.673340 901.284058
85.403778 1940.864868 827.831177
53.890591 1882.975952 1039.945679
210.387650 2090.368164 836.658020
26.984312 1853.548218 1055.338379
-53.536228 1972.906006 775.513428
-66.718826 1827.519531 1082.592041
149.745972 1924.531616 966.199280
186.939590 1985.113647 935.594238
43.703297 2192.990723 805.714844
157.224060 2022.274780 787.358398
-132.701096 1864.189087 959.822205
-27.438869 2144.278320 743.463318
52.222507 1959.922974 846.200012
-72.874596 1908.798584 910.461792
-59.746269 1832.197510 1083.047852
192.205200 2102.375732 930.351379
-27.940138 1813.044922 1127.163818
-65.122353 1888.805176 957.270081
18.708691 1963.386597 849.257935
146.049271 2019.950562 783.192261
256.169678 2002.703491 938.540100
56.152058 2077.009033 735.764160
65.377914 1950.993042 904.171631
147.128937 2133.114258 837.145508
25.287550 2020.728394 863.812012
223.771515 2069.418701 851.747559
89.945946 1954.936890 840.158203
203.309509 2042.824585 954.237610
-54.850563 1987.768921 767.175781
69.109489 1839.681885 1152.570557
-40.157589 1954.532837 804.127747
-47.079231 1951.507202 810.207153
-76.736412 1890.796875 955.864746
129.400665 2044.213135 759.314087
95.195297 1921.547852 947.957214
-161.427216 1834.577026 1033.928223
154.228760 2042.290405 786.567444
-31.563669 2210.275146 777.752380
21.466537 1957.566895 886.696472
-17.832428 1966.779541 776.800659
24.892515 2020.409668 687.334351
69.679863 1965.699219 806.887451
-14.446263 2138.566162 742.571899
2.443759 1911.229736 945.909424
226.431732 2017.008179 943.499512
82.486565 2035.648560 737.416504
173.947800 2053.138916 804.814758
83.229301 1962.381226 827.498901
-17.403723 1887.051880 992.608398
-30.535416 2196.266846 762.876831
201.646317 2109.810059 914.053223
-69.841087 1945.848999 849.134399
-16.735462 1963.121826 853.708130
127.614784 2149.656494 833.655518
-48.131615 1936.780151 866.716248
232.282211 2032.939331 827.345520
34.068375 1845.066040 1066.103027
67.222366 1949.203247 846.707153
-106.462784 1920.181152 855.809143
