ply
format ascii 1.0
element vertex 1386
property float x
property float y
property float z
end_header
705.448059 1119.051270 1752.820923
588.740784 914.353455 1824.488525
859.696228 1098.338257 1753.977783
832.877747 1180.171753 1869.622437
918.212280 1042.055542 1745.476563
662.878845 1189.953369 1931.561646
773.881165 1190.489136 1914.723877
972.856628 1035.480469 1776.828735
691.506531 993.037842 1759.284912
655.993591 930.452637 1810.368042
680.952209 1175.628296 1867.327515
612.231445 1164.143799 1858.006226
751.172363 751.434753 1843.665649
771.048096 1102.482666 1710.531738
850.548157 992.900330 1736.685547
883.057007 706.648254 1875.642212
679.146790 1010.976257 1727.713379
637.969177 802.383789 1831.401733
841.938721 1173.595581 1797.905518
699.485718 769.921509 1852.250977
649.637024 1056.992676 1718.378784
871.808777 999.522034 1751.321289
657.192871 1134.511230 1797.358887
686.223267 839.091309 1846.419800
849.459351 1092.734985 1732.728027
850.000793 701.475708 1835.867676
786.037170 1140.516357 1799.373779
742.293213 1110.015503 1718.304321
648.228394 904.913025 1810.051636
692.068542 849.009216 1839.148438
638.567505 1092.010864 1718.847168
784.705200 1058.780029 1686.575073
727.183167 1035.001221 1713.979736
705.522522 912.715271 1802.520508
816.210754 762.950378 1814.774292
744.717163 1043.498169 1701.192261
849.526184 709.548645 1844.302246
607.825195 1143.417603 1827.354492
678.345459 974.783752 1746.952881
911.047180 1100.123657 1802.631348
608.033997 1050.606079 1740.289917
728.710938 991.006775 1716.520142
863.136353 992.681824 1764.286865
853.991760 1003.145081 1750.310669
698.520325 743.270386 1896.142578
683.462219 1008.554138 1732.877075
906.990601 954.858887 1833.841187
985.500183 1036.273315 1742.248413
881.980713 1054.205811 1808.207642
687.936462 825.619934 1827.003906
866.457764 744.686890 1834.152100
880.051147 1144.130859 1827.853760
891.303711 855.619080 1833.561157
881.096863 985.021606 1776.995483
762.733032 1103.321655 1708.625244
731.737305 1053.593750 1701.483765
655.343567 1035.094238 1733.662964
732.287292 1070.335571 1698.930786
686.190308 850.559326 1822.287354
839.175354 1140.591064 1749.950317
631.282227 997.519531 1758.743042
629.927124 964.224548 1787.394043
876.430176 996.599915 1753.205688
821.738342 1172.912109 1868.519775
673.788330 1106.266724 1730.882690
804.125793 1096.986328 1702.382568
638.516296 921.780884 1800.118652
811.475586 724.631958 1832.894897
707.555176 892.846008 1803.207520
772.998535 715.055664 1865.484253
727.391357 1037.226563 1710.685913
711.087097 1157.626465 1838.582031
880.200134 1016.553406 1772.207031
904.919373 931.553284 1840.481445
915.770996 996.996643 1756.829102
850.417664 930.999329 1747.593384
591.990234 1108.682495 1761.684814
628.820313 1222.218628 2001.681396
743.279419 928.815796 1786.682739
989.539856 1012.260376 1732.200928
603.468750 1176.580200 1871.278564
863.858032 1075.472900 1796.077026
578.426025 1004.026489 1752.463989
654.286499 1076.777222 1710.379639
592.010925 790.739868 1870.926514
772.260620 1147.230957 1807.473755
605.693604 776.537354 1862.635254
868.361023 836.907532 1781.177368
767.569641 872.097168 1795.171021
575.820313 1064.272827 1757.901978
590.210327 1140.116455 1831.956177
932.528198 1003.753723 1752.465088
893.905212 1025.387329 1740.303955
589.257019 860.003052 1805.857178
743.862976 1184.807739 1908.019653
857.057861 1202.056274 1902.910645
825.993835 1072.380981 1691.349609
673.936462 1169.694824 1877.094849
713.741943 1052.835571 1713.435425
764.601257 930.831726 1766.480835
620.629761 978.722778 1770.766602
734.497620 737.016052 1857.236084
859.645020 1134.544556 1756.184570
716.423828 970.289429 1753.230225
709.150879 820.783813 1859.258911
706.139832 716.702942 1872.158081
933.798645 1115.462769 1806.082764
805.726990 910.728210 1766.751099
894.923279 1145.522217 1846.767578
798.964783 900.193665 1775.947876
638.114014 713.100647 1883.744873
751.607117 1024.921021 1705.604858
951.563110 1104.620728 1794.599731
692.473389 883.667908 1819.588867
864.695679 1117.994141 1791.529907
657.360962 990.585815 1783.473267
712.360718 1174.328735 1877.494873
791.685913 772.658447 1824.268555
772.823486 856.124451 1802.456787
642.488403 1144.833740 1804.017334
730.148376 1092.648560 1705.265625
843.230835 749.481567 1815.166504
737.595947 1109.513184 1726.908203
794.217773 786.366333 1818.390991
796.508789 883.609680 1784.743286
754.549438 1064.999634 1690.078125
629.764648 727.913208 1871.708374
850.032349 948.895020 1753.505249
580.884399 968.122375 1795.155884
881.884949 1144.024536 1908.747437
796.690857 722.415100 1832.133301
861.020081 1016.263855 1763.703857
664.839111 885.463989 1818.596558
868.529663 854.525391 1769.468994
781.611816 1201.206787 1914.887817
884.019104 1143.525513 1848.859741
759.890320 1155.721558 1812.491943
897.149475 1016.365662 1760.275269
968.611511 1019.927185 1745.552002
776.705566 903.453735 1774.710815
693.519592 1020.147644 1725.150513
643.254883 1051.284058 1730.805664
765.807129 824.352417 1807.988037
776.178406 1070.649780 1683.227905
845.121399 1086.793579 1737.671143
798.579163 1076.036133 1689.664063
745.102234 964.618408 1744.104980
627.455750 905.511719 1798.512695
821.778137 956.176392 1747.123779
657.436035 981.629822 1803.970093
864.673767 852.366821 1761.208862
846.932983 774.687927 1809.949707
762.069153 863.143127 1794.096191
862.218018 1075.798096 1788.682739
739.677490 810.368042 1824.533081
797.085266 818.463379 1810.405884
660.971130 1094.070068 1717.423828
792.272949 926.624512 1762.053589
829.773682 959.157959 1739.409912
756.943604 896.203247 1785.076660
765.096924 1201.671875 1916.004028
853.773865 1030.572021 1774.922607
641.698364 1093.787842 1717.240356
821.138916 1059.391968 1689.163208
590.698792 1165.247803 1833.591919
713.799988 942.687439 1778.725952
725.848755 1127.429688 1755.763550
883.101318 901.662292 1758.654175
686.850830 1012.348206 1813.953369
845.009583 801.287842 1796.917358
735.359192 1005.636230 1819.625732
660.256897 977.205322 1753.147583
904.475586 1124.769897 1828.522461
851.773315 852.252991 1773.151001
811.548523 919.869995 1761.741943
754.322144 1049.162598 1715.913208
828.101196 880.794678 1779.615601
690.936707 835.814209 1847.099121
716.087708 1168.109863 1846.374756
798.886597 817.723633 1805.850098
815.659851 722.056519 1838.568726
685.147034 1136.180664 1798.487549
822.980774 1083.296631 1681.683472
620.083496 1224.455933 1943.731201
750.811340 712.089844 1877.250000
722.093872 1103.557861 1718.608398
905.713074 931.011963 1837.691040
830.984253 735.256714 1994.856201
794.130005 1158.382080 1834.650879
612.697205 1032.472656 1744.628906
601.296326 807.305481 1853.801636
711.637085 1159.024780 1850.639404
854.705383 1181.141846 1784.138184
676.947510 978.550049 1778.775146
607.490906 796.350403 1858.512939
969.623840 1100.994385 1775.178101
769.552673 844.271423 1811.154663
828.151001 1157.938599 1837.304688
580.964844 1123.651733 1776.188843
740.613281 1147.703613 1812.340698
635.346802 1057.677368 1741.203857
718.313965 845.521729 1832.166504
964.080261 1032.261597 1734.569458
901.196045 768.575867 1818.299927
748.482910 1055.938843 1697.557007
872.104065 1165.790649 1868.565918
717.355652 981.017151 1746.954712
817.033325 1153.898560 1817.327759
846.498108 1058.854614 1732.194946
900.214539 858.780945 1800.719604
909.358643 1091.710938 1805.890625
746.476746 988.202148 1766.232178
689.940247 1143.861572 1806.494629
749.172363 1192.863403 1964.173096
659.858643 1202.244995 1957.904785
882.212158 891.279053 1752.715454
799.851074 859.215027 1795.154053
744.803406 1190.208374 1957.730103
752.290649 963.824097 1777.302612
805.918579 1071.301880 1683.210693
892.177002 886.240112 1801.980103
886.409851 764.262146 2048.165283
896.860352 1105.373779 1822.251709
835.247131 1024.423584 1713.640991
824.914490 1053.107666 1686.579468
591.545959 1052.470337 1767.916870
720.664246 977.052246 1763.422852
760.218750 1045.595825 1697.593750
887.494263 783.462952 1815.952148
631.774292 1129.473755 1789.637329
784.060120 974.951538 1750.559204
598.173828 911.044556 1808.170166
731.149841 1000.180786 1737.960571
843.930603 863.245728 1768.410400
854.023621 1157.884155 1776.916138
578.281006 1063.999390 1762.904541
887.243774 885.093750 1794.455078
589.366455 1136.062622 1797.342041
918.678284 1012.456299 1741.078735
799.415405 922.858398 1772.694336
629.057434 1108.750122 1725.296143
753.342712 1051.653687 1699.792480
874.430420 1103.114746 1817.990479
705.708313 1180.905396 1903.111328
765.602112 912.009399 1774.022095
765.647400 799.982239 1817.521729
733.525208 1039.322388 1703.475830
642.682251 1166.827393 1868.774414
895.667969 747.002563 1827.836792
587.860107 1040.268188 1769.589966
860.376831 1185.999023 1823.957397
734.720398 1157.813354 1838.822632
827.462402 855.248962 1768.444214
843.359436 1063.849487 1695.260986
933.250366 1001.714722 1777.796021
856.942444 1171.467285 1800.398804
869.334961 806.206299 1786.328247
857.509583 718.588501 1839.666382
846.583130 1002.610229 1740.643188
694.729736 821.734558 1846.247314
846.893860 975.087158 1729.775879
945.054504 1124.128174 1814.691284
682.007996 1091.958618 1694.533813
709.417480 1038.867188 1708.511841
609.637024 1170.250000 1869.492554
607.531677 1161.094238 1879.446533
887.921448 1022.872681 1754.094727
826.802551 762.303467 1810.575195
695.290344 1121.008057 1765.284302
852.611206 1196.339600 1872.861938
832.562256 830.069275 1800.939819
833.822449 1123.171509 1727.772095
644.263306 1188.497437 1954.135986
831.752625 999.369690 1727.717896
712.102478 1134.226685 1790.946167
693.695496 753.362671 1877.880249
857.660461 964.331238 1761.423828
606.018494 866.745850 1821.695557
743.613403 1118.430908 1747.947876
639.072144 1053.941162 1718.458496
712.211975 1119.266602 1781.507324
871.863953 708.906494 1855.205444
602.830872 1144.373779 1833.576172
708.127197 689.471069 1872.046143
678.291687 917.115173 1788.205566
630.326843 1143.628906 1822.715576
603.336304 749.865173 1872.301758
807.999512 1078.061523 1692.005737
918.770996 1145.211304 1841.965454
826.496704 765.757751 1809.436768
612.780884 1003.484741 1760.486450
593.838379 734.978333 1880.997559
691.238586 1154.194458 1846.465698
817.438599 839.432739 1784.345459
854.780273 861.781006 1760.066162
878.103516 836.058044 1787.592529
826.118958 883.057861 1764.979370
988.083069 1018.509521 1737.422974
648.929260 1107.014160 1716.431152
673.750305 976.880981 1790.245850
699.343201 1180.716797 1877.674683
688.505432 999.688477 1786.956421
930.593811 1116.146484 1790.748047
915.489319 1086.885376 1818.932495
658.417542 928.743286 1784.810791
896.828552 778.915466 1818.828491
585.012390 1078.394531 1751.158325
826.666870 724.319397 1826.171021
874.447693 1123.602783 1819.442505
673.701782 935.462708 1792.838257
885.162903 1153.000366 1878.774902
720.911438 1114.849609 1747.757446
653.490479 996.156067 1747.418091
571.782837 1102.666870 1736.865479
613.701477 947.105286 1782.277832
826.260498 911.018311 1760.642334
897.371460 1039.254150 1795.245483
663.191284 823.308777 1839.771118
664.711914 776.550537 1866.479370
641.280762 967.670654 1800.912598
730.396606 1030.564331 1721.123047
696.348633 987.466553 1815.097290
872.059387 1197.932739 1856.370972
972.633179 994.945801 1748.358398
772.425598 1046.751221 1696.917358
663.335815 730.407043 1896.559692
737.403992 860.868713 1807.117798
792.391418 963.319824 1737.541504
713.442017 1162.513672 1829.171265
713.805786 973.743774 1734.277222
798.105713 1182.469482 1867.264648
677.698975 1071.111938 1701.666382
872.275452 1058.256104 1816.446289
768.703430 930.413696 1765.564575
599.704102 858.243469 1832.908936
656.325745 1132.814941 1791.200562
875.444824 1058.425537 1812.018433
842.145996 885.372864 1758.784302
769.203430 1195.919800 1932.266602
619.730652 1215.647827 1962.404419
633.697510 1101.821289 1709.860352
929.339355 1008.096375 1748.135498
686.084351 1116.927368 1740.635010
729.643677 785.392151 1831.315308
760.057190 1125.256836 1765.527344
803.392822 917.545776 1760.287109
850.691711 1110.568481 1740.795044
692.336853 821.901123 1827.890503
667.180420 1142.661621 1815.446045
839.428955 943.275757 1735.606445
650.486816 773.322937 1877.960693
792.267273 1202.651123 1935.876099
900.806824 872.421326 1778.413696
651.360413 1143.695923 1841.560791
600.922485 1083.632202 1735.605347
865.445740 746.480347 2004.100830
909.480225 858.957825 1823.801392
881.935547 993.200317 1935.156982
804.249207 1131.702637 1783.585449
832.234131 861.604248 1773.691528
931.257385 1004.111511 1762.245117
955.666077 1113.258301 1804.306152
828.802429 916.473572 1747.188965
811.364014 1026.085449 1709.521118
888.953430 1115.848877 1820.687012
603.881348 1046.138916 1744.546875
628.061279 1113.364746 1754.645874
619.124084 823.230164 1832.729980
911.013977 998.804626 1750.310181
749.520081 1159.678833 1822.370728
869.999207 1213.326050 1862.336426
894.922180 1022.724487 1761.389771
862.731995 712.113831 1840.138672
840.406555 703.530762 1831.453979
885.721252 875.075439 1759.692139
813.861450 903.576416 1775.870117
707.398804 727.869141 1866.104370
842.935791 1193.288940 1863.776245
703.216125 1003.372437 1724.149780
851.476440 783.928467 1802.640625
734.491211 757.564636 1898.856323
642.760742 912.308289 1803.678711
900.648010 1118.606323 1811.033569
975.901550 1021.693787 1733.253418
645.454773 832.541199 1833.944214
639.827820 777.696777 1857.698975
780.356750 1132.281982 1786.273804
960.657349 1028.926758 1736.371338
685.270264 992.880798 1737.693970
897.787903 873.833923 1805.251099
648.716919 926.991333 1800.088745
872.283325 791.309387 1814.447266
646.193848 977.601074 1793.877075
698.665527 769.042603 1892.012939
864.278015 882.391174 1770.956055
892.572998 797.418335 1813.300293
855.463684 715.816833 1832.933716
861.905334 1207.185303 1873.658325
639.650940 714.784973 1870.847168
885.951843 1142.358276 1845.269531
772.241943 980.550049 1760.865479
862.687378 1153.070923 1787.909302
899.907471 845.563660 1804.175659
812.359802 1141.458374 1757.101074
740.368652 1113.515503 1743.016724
774.950684 721.797180 1864.500732
882.026794 820.760803 1816.869873
893.507263 897.279480 1821.675659
708.071350 1050.636963 1705.814575
829.268127 991.463257 1715.490601
643.979675 1179.926147 1905.944946
635.461182 764.674194 1865.334106
851.125793 1097.905884 1754.811890
657.877441 1145.739624 1814.569458
921.559875 1132.979248 1828.409302
782.653320 1163.748047 1827.835815
625.634216 817.533020 1827.286987
840.778809 697.540283 1855.959717
982.697205 1000.603394 1739.263062
875.163086 711.576416 1852.296753
689.339172 717.983582 1877.113770
858.423218 1093.399780 1780.123291
789.618225 904.467224 1771.275513
902.805664 1125.188599 1797.265259
750.195129 998.522827 1721.688232
668.032471 1103.386108 1730.388916
936.662415 1140.849121 1842.288208
665.487427 1039.725708 1723.235718
825.705994 1152.720215 1731.723511
866.952759 1165.635132 1804.992188
730.734436 1121.716675 1763.227295
838.530334 976.915344 1730.131104
638.291687 1046.039185 1727.975342
747.799927 992.274109 1730.794922
645.344482 1132.804688 1796.466431
846.365356 1197.103271 1847.588745
830.125244 906.621765 1747.297485
599.314087 1114.951660 1759.725342
760.310303 1012.762817 1709.919556
658.953369 1105.192749 1730.161255
859.436646 725.783691 1826.007690
789.032043 987.212097 1736.865112
656.944336 1146.762085 1815.507690
660.696960 1170.028687 1892.777832
852.668213 765.291504 1827.765381
762.885498 1043.475952 1695.280396
814.065125 1192.663452 1922.229980
660.881042 1099.401123 1699.482300
621.402405 758.920471 1864.414429
627.652832 1106.382202 1753.293823
618.726257 804.423584 1860.200317
809.896118 1009.954895 1710.341675
903.301025 820.903564 1866.251099
785.781921 1048.269531 1699.118042
761.275513 989.267029 1717.353149
833.293152 1168.694092 1817.200195
947.520142 1015.188782 1742.946899
859.731689 757.193848 1817.494507
690.693726 1186.994751 1918.157837
790.105957 1128.025757 1737.844360
901.170227 1103.750488 1811.984741
639.509705 923.602173 1811.872681
603.307068 915.463257 1803.229492
653.161804 853.274170 1827.368042
845.021790 990.686340 1748.050171
666.574280 1048.074463 1720.777588
692.026917 744.005493 1872.025513
850.184631 1030.563965 1765.581055
861.633789 1159.914063 1735.784058
665.650879 1166.730347 1848.876953
658.319946 892.542358 1797.881958
852.034790 714.915344 1831.726196
838.688171 867.890320 1769.535767
751.517456 855.179749 1817.393433
889.300293 843.210938 1780.170410
586.084412 1024.651489 1715.899902
880.292480 728.412964 1826.723145
648.875610 1126.688721 1769.591797
637.762512 742.655334 1861.000122
704.230164 1121.535156 1765.400757
853.695801 745.958740 1818.493042
761.804016 1098.422607 1689.929199
639.546265 1144.125000 1827.859131
812.275391 1047.732300 1693.880737
722.050598 1091.550293 1712.735352
828.883423 1064.961914 1687.506348
698.745361 876.502747 1805.876709
677.469238 1126.063843 1781.185913
932.174622 745.599487 1826.606201
900.549377 1083.890991 1803.558105
849.748535 1091.777100 1740.679688
628.052917 1202.730347 1968.397705
658.400818 1203.344971 1961.477295
806.496582 866.802368 1791.927979
709.471802 892.806274 1805.635376
752.040161 997.619385 1780.633667
754.322693 891.455933 1795.564209
841.396484 994.227051 1728.047729
676.390259 709.811646 1872.198853
927.422424 808.803894 1872.713501
605.165894 1034.514160 1749.008545
847.745117 767.422241 1812.168091
591.071289 1141.733643 1811.214722
844.703979 1109.776123 1740.830566
817.472961 1006.931274 1709.234009
789.054993 853.305664 1800.368530
573.850281 1054.170166 1742.808350
799.778931 1190.634033 1909.999023
578.263123 979.025757 1772.741943
722.540527 1169.589844 1867.573975
799.869812 850.979370 1795.561035
856.268738 822.601196 1797.340454
895.031189 1041.581177 1747.378418
602.709717 770.175842 1863.321045
589.420898 828.790466 1842.205200
743.128601 1181.417969 1891.823730
805.390625 906.098511 1775.724121
859.323669 1152.590332 1776.098022
772.888672 1129.990234 1754.048340
893.072388 838.687378 1838.524414
700.229004 848.624817 1839.114990
767.437378 702.097290 1854.480225
649.639282 797.469299 1846.464600
766.628967 1128.280762 1738.281006
808.497986 1197.065552 1927.345947
971.969788 1027.289917 1734.065430
912.733643 1115.635010 1810.598145
789.184631 1158.005493 1838.653687
793.168152 1016.173401 1705.388428
986.525330 1038.592041 1763.569580
685.270020 913.523315 1801.055786
858.993896 884.371033 1766.137817
855.168152 1044.514038 1742.572266
894.431335 797.322998 1825.458984
858.496704 1096.786499 1772.827637
752.649048 1108.658936 1751.619629
766.129456 894.079163 1781.555664
894.513733 1018.773560 1754.001099
644.320068 810.294922 1842.768677
590.909485 1055.133179 1753.150391
857.313843 1124.380737 1770.166138
856.279541 895.216309 1757.478638
755.524109 1184.988770 1900.877075
656.491821 861.334778 1840.682739
882.975769 1037.711792 1780.205688
750.375549 967.337524 1739.396851
638.271362 1097.614380 1721.026733
956.937073 1093.757690 1801.256836
627.473206 1227.921387 1967.278320
626.839600 1225.834839 1963.651245
836.135193 1133.551514 1723.294189
816.920471 993.186646 1724.957397
896.169434 807.149841 1830.472046
916.367432 1006.325256 1788.070190
747.964417 779.760254 1847.809937
623.914490 731.107910 1863.040527
747.575195 999.526917 1719.488403
642.860840 1033.277466 1734.274414
695.619446 1003.121094 1742.240723
748.530884 1070.678833 1688.414551
714.097961 724.429626 1853.013428
696.130737 1175.541016 1890.727051
694.923584 1021.783569 1717.399780
665.098450 1068.522583 1716.572388
817.223450 1067.080322 1689.322998
624.879700 1054.456177 1729.902710
856.781067 941.315857 1754.977783
941.410217 1020.973816 1807.339111
784.665588 1118.213379 1767.146240
701.694153 1102.056641 1718.784912
836.118774 823.229492 1785.855591
724.912659 901.559753 1793.375732
923.736877 747.736206 1870.873169
863.712891 1118.334106 1801.860352
969.757690 1034.105591 1757.690918
630.400208 1117.460815 1781.914429
850.437683 1025.216919 1749.847656
745.478149 979.910095 1750.830200
650.650208 1022.580139 1732.700073
893.729004 763.510315 1837.549316
779.961792 1079.204590 1685.459839
647.325562 1094.390503 1712.428711
780.079468 987.273987 1715.999023
815.125916 1085.374634 1681.629028
855.073669 1087.557495 1747.242798
822.139832 1027.179199 1699.364014
618.818909 933.455200 1794.476196
862.132751 1195.985352 1864.722900
658.229797 788.969116 1853.281372
922.475586 786.919373 1864.813477
825.829773 770.296143 1812.589600
885.533325 768.090515 1819.419434
916.108887 925.623474 1803.168213
928.787292 1028.946777 1758.569946
691.746216 1191.741333 1921.596191
807.307922 1066.823853 1687.311890
787.360413 1151.487793 1818.515625
814.479858 807.037354 1814.594116
640.608337 1072.017090 1722.854004
739.798035 1071.867432 1694.395020
884.046631 1155.684814 1861.745361
894.928223 715.869141 1897.273193
763.279663 843.730103 1808.473633
756.189880 869.394775 1798.538818
914.630310 1000.483215 1746.919556
661.359070 972.010315 1790.125488
624.482361 1019.107483 1751.022095
792.499939 1138.111450 1795.100708
701.804810 1041.120361 1717.438721
813.879761 841.432190 1796.580811
676.018005 908.722595 1801.387573
581.012573 1044.838013 1750.145752
645.531189 785.624268 1893.931396
603.041260 1005.337769 1770.177002
845.409973 807.162231 1788.569580
721.443542 1088.774536 1687.443848
788.453308 1020.954956 1711.333252
739.439575 723.575867 1861.939087
757.097900 1114.340332 1738.912354
740.695740 1040.562622 1705.120850
616.835449 872.369995 1814.376831
645.395691 826.845520 1834.131226
657.176025 754.545593 1877.266235
705.499878 990.543945 1749.255371
642.476563 930.918457 1805.276611
806.496765 1020.368042 1708.260376
625.210754 1017.641846 1748.142700
772.788635 1175.527832 1908.700195
807.441711 1006.285156 1710.005493
618.993713 1017.466980 1747.764893
911.219421 1141.041016 1835.518066
728.006714 1073.767456 1693.866943
880.604370 943.989685 1773.736450
641.836731 903.391541 1813.839478
832.056274 904.048889 1751.591919
907.082275 828.757751 1859.975708
890.310303 1133.744995 1833.533691
770.349487 800.796143 1840.985962
763.975037 1131.636353 1768.406982
618.142883 898.271912 1809.250122
722.527161 924.035339 1779.723999
868.300171 803.829407 1807.956787
710.751282 992.910583 1736.462280
623.363953 1147.983643 1831.923584
874.190857 1163.600830 1835.622314
796.341797 995.995422 1711.698486
940.773865 1116.606934 1783.723633
866.243286 1212.875732 1861.312622
635.414063 871.763611 1820.252563
863.521545 728.202942 1844.665039
610.952454 1037.056396 1745.608154
697.931335 1102.414307 1719.577515
897.396667 780.830261 1811.530640
764.921631 755.382202 1844.149780
853.529358 1016.472290 1725.819214
738.480652 1168.225708 1868.866089
749.103760 1097.436523 1700.994995
780.551697 809.062683 1814.243652
593.625183 748.854431 1844.953979
833.843933 962.301758 1738.279419
780.582520 1013.859863 1712.965576
750.840332 1095.485596 1708.401245
699.475281 1117.842285 1780.229736
806.201050 851.601501 1786.663208
638.289917 723.752319 1871.147461
630.636169 898.702026 1805.406250
836.032654 985.890747 1718.395142
708.987610 779.846985 1859.452637
756.145020 1134.893677 1793.864624
793.266846 1032.387817 1704.945435
645.604309 875.869690 1819.698853
896.325439 887.742737 1783.404297
842.568542 927.246338 1758.435303
739.208374 776.946533 1851.580566
835.812927 940.189880 1737.049438
834.484924 994.112305 1732.967285
669.855530 1169.978760 1878.067261
597.130249 821.123291 1848.001343
972.043335 1010.515808 1728.481201
908.058960 1117.702881 1806.858032
771.733459 794.094299 1821.918701
745.859070 1106.131348 1701.295776
620.720581 805.954956 1841.944458
654.593933 1142.930298 1797.120117
786.245972 1025.524292 1703.866699
712.969604 859.139648 1816.377930
757.661133 1092.383057 1704.573120
878.410278 738.273499 1846.561890
837.730591 926.440857 1742.292847
897.928833 813.720276 1813.553345
582.681946 1118.639648 1774.301270
869.065918 836.016418 1781.370605
657.420898 732.105530 1883.732544
616.648743 1038.024902 1733.478760
926.742493 1148.017822 1853.899658
763.745544 1085.167480 1707.146606
770.110168 1153.536133 1823.432739
819.987183 1160.597290 1818.033936
789.747681 931.876831 1760.716064
881.987671 1005.269043 1755.623413
852.030762 1126.630493 1719.309692
591.753601 850.376892 1829.237671
833.380066 750.156677 1813.910522
863.224243 900.971558 1759.166748
675.530090 1179.907837 1894.641602
628.324890 797.566772 1839.742676
978.887695 1013.193176 1735.100586
656.795105 1173.149170 1920.786621
777.580750 797.206543 1844.087891
827.663757 933.152710 1756.723511
662.411438 722.043152 1972.811646
660.581116 797.646057 1849.615234
582.036865 975.346802 1770.247314
689.141052 731.884094 1917.229858
613.393860 802.149475 1845.313232
864.470825 943.804871 1775.189331
674.653870 993.679016 1745.295898
828.258423 813.410156 1785.314331
788.852905 1071.965820 1703.082397
782.369385 1105.738281 1705.272461
642.355774 766.162720 1857.284058
702.871399 705.510071 1930.244385
798.396851 965.666016 1756.206787
851.434692 1143.343140 1758.827637
673.038208 1186.538452 1910.959229
976.990601 1010.143616 1725.266846
593.361023 1162.525513 1833.206665
589.940491 1079.268799 1739.014893
585.950745 1004.596191 1762.470337
613.431885 995.602783 1763.449829
625.889771 1007.470642 1753.682251
652.051880 1124.259888 1769.187134
804.834961 817.380493 1808.540039
821.861633 1126.985352 1712.962891
839.912781 1080.805786 1716.512085
821.200134 1057.553955 1694.489746
710.622253 755.912964 1875.257690
874.159607 1100.307983 1812.754883
666.437378 1156.130249 1846.747314
789.119263 702.808960 1849.802856
866.089417 868.173889 1786.045410
691.761902 876.624756 1822.877930
702.042053 1065.715088 1708.261353
851.003540 977.020813 1751.789307
874.567322 712.024414 1855.076660
710.747498 1168.705200 1875.335571
677.235046 1183.445313 1909.937988
833.873718 1080.893677 1706.601563
587.270386 796.540894 1833.867798
909.923584 736.215332 1879.423462
849.339111 832.506714 1778.813599
772.979126 880.962524 1785.264771
705.757263 1049.900879 1721.237549
796.618164 1169.252197 1838.393188
732.983276 987.891357 1762.951904
841.963257 1092.968872 1707.256714
736.888306 1121.864258 1723.695557
850.502075 1001.550720 1753.612793
737.211487 895.467285 1788.207642
759.774658 1155.332397 1827.886597
790.019592 1009.856018 1716.195068
887.719604 710.537537 1843.866943
610.937073 1163.120728 1902.250854
739.026855 944.899353 1779.684570
931.733521 1009.752686 1785.133911
930.363831 1033.769775 1759.979492
668.813721 1081.244019 1701.713623
874.903320 1052.114990 1845.604492
596.657776 1022.124390 1754.082153
807.837646 782.054810 1805.561890
711.489441 1214.112671 1972.606689
878.034485 1019.959961 1765.976563
615.382690 910.844421 1802.908569
702.458496 851.213013 1824.588623
883.169067 817.084473 1797.242310
832.662903 955.739563 1732.864990
604.191406 1010.419861 1767.909912
616.844177 1114.837891 1756.645874
947.047180 1124.659790 1810.483643
794.077881 1041.432007 1700.738525
672.620911 1055.610474 1724.136108
712.810669 1104.259888 1685.041626
885.606628 769.245544 1835.704346
698.970886 952.714844 1788.534302
635.963318 1126.249512 1774.083008
862.884583 1009.764282 1773.561890
760.103882 1088.575806 1701.033447
828.552368 954.409729 1732.958374
642.116455 1001.843445 1757.790894
701.552063 897.867554 1800.010864
769.580750 1091.746582 1698.794800
946.565613 1033.406738 1735.859619
779.351013 1047.470581 1688.920410
638.025330 954.380005 1801.643677
849.754456 1103.795776 1760.320679
760.882324 858.617432 1797.450684
862.474731 763.246765 1810.970581
852.620178 1054.887573 1767.877686
925.920654 789.148865 1878.010376
835.567078 1049.884033 1699.114258
916.977600 722.126587 1860.344971
832.130005 1081.165771 1687.289063
679.571228 1128.654175 1782.989624
881.797119 1145.844971 1864.672974
675.073608 882.116821 1812.128906
606.701782 1087.793335 1735.735352
786.471924 849.666687 1817.154541
655.515320 1209.884644 1950.829590
907.945496 828.457458 1864.641602
852.658203 746.560181 1821.763550
792.227051 993.536926 1720.421143
734.814880 756.229858 1846.493042
675.133545 1211.389648 1977.823730
689.315552 1042.256348 1720.004028
719.588013 1186.195068 1884.663818
575.394104 1049.072266 1762.881592
763.155823 986.036743 1763.569336
951.394775 1109.666626 1804.979492
777.316956 1127.379150 1763.004517
825.493164 1075.234741 1701.083008
586.227722 968.212952 1791.376343
822.092529 1106.883301 1695.013306
767.898010 1171.552124 1866.473389
838.135803 1153.024780 1747.758911
755.334900 918.591736 1781.242432
791.156250 1031.460815 1708.926636
847.473083 803.689697 1796.010620
939.985657 1110.003174 1811.543823
863.022583 797.163025 1801.616943
828.755798 1172.647583 1837.892578
885.035828 992.907654 1764.885254
885.097717 1095.120117 1805.131104
808.252258 1017.492737 1706.761597
794.253540 1063.552490 1686.989624
742.789246 1186.456665 1883.210327
792.149841 1059.737061 1692.479492
701.846558 920.993774 1804.048340
724.844299 1191.107422 1930.421509
833.033997 772.589783 1804.775757
911.787415 858.742554 1892.505615
740.976013 773.592407 1838.404419
919.833496 1008.322937 1805.908081
959.621460 1109.409546 1803.016968
620.256042 1105.832031 1746.642944
569.255676 1112.975952 1734.781494
786.714539 1027.120117 1698.290771
769.087036 1163.534302 1846.255249
876.026062 1157.855103 1771.341675
808.799011 1067.075439 1685.190796
943.912598 1074.250000 1800.542480
737.116455 895.210693 1790.831909
655.025513 1117.579468 1720.842041
920.439758 1036.869263 1772.867676
645.296204 1129.768677 1754.938354
844.248535 1042.357300 1721.156738
849.929871 945.216919 1738.901978
677.884705 1075.320435 1717.152222
843.028076 922.768921 1742.474731
596.462646 848.817810 1800.569336
887.198608 708.784668 1895.594849
601.928345 1113.904419 1764.174927
809.977539 904.108215 1770.735596
941.977173 1140.130127 1834.909790
650.954346 965.026306 1791.089722
646.062866 953.857300 1789.256470
570.440491 1117.283081 1726.066528
856.898315 781.904602 1806.464722
754.322083 960.540466 1769.380005
675.023987 1172.078735 1878.602783
689.987305 753.188782 1861.829468
663.478577 981.262146 1783.012451
850.965027 1090.398804 1722.689819
741.964417 1031.591309 1709.861816
715.220337 1027.355957 1713.618286
584.155518 874.719543 1813.813599
829.410339 746.752625 1814.340088
831.538757 729.170044 1832.693848
855.593323 983.374756 1751.200439
886.407043 845.881042 1789.531494
854.771790 1046.312256 1716.791382
634.127625 1007.235657 1753.147461
859.752380 1021.862671 1762.733276
793.185486 1022.849976 1702.927124
606.415894 1158.995728 1848.559204
739.200378 1141.820190 1797.333618
770.098633 757.122009 1836.451050
618.753723 728.351929 1867.510376
598.907593 818.058594 1818.930664
575.896179 1086.102539 1752.535156
811.729614 1093.063843 1695.159668
950.871216 998.032043 1745.575073
617.313660 998.718018 1760.923584
875.565063 1041.505615 1785.884888
885.841553 1119.344116 1826.940430
735.270386 1036.387939 1709.782104
867.165527 700.947510 1865.648560
839.398438 892.741516 1753.516724
730.352417 1079.649170 1687.809814
777.056030 1189.934937 1913.571411
613.296204 781.601990 1853.064575
889.131653 917.555481 1787.196411
671.771851 976.424194 1782.598511
607.303528 1090.268433 1721.879517
845.319885 1172.001465 1795.217163
818.838806 1138.025635 1755.354126
719.866638 721.415649 1847.117065
677.797852 1205.217163 1958.986450
700.179321 1107.741455 1731.355591
771.330933 1103.561646 1717.807617
813.444031 710.997864 1832.650635
936.716797 1101.612915 1797.441528
590.513000 884.282410 1834.361816
862.911011 1083.200806 1796.098022
580.291321 1033.199707 1750.908936
611.508240 955.354614 1784.505859
716.982788 774.355774 1854.812378
742.245178 1034.737427 1708.571777
738.079224 848.333252 1805.497803
748.790100 1175.270630 1884.355591
786.792847 769.747681 1843.935913
898.527527 1002.186951 1764.752319
811.125916 1094.836060 1688.674805
885.902649 790.689392 1817.692261
897.441711 1101.900024 1813.222046
840.898499 983.477661 1723.000122
748.967712 1113.577393 1737.538452
690.127869 891.412170 1796.935425
729.406982 1103.902100 1717.877075
909.981384 1124.815186 1818.871338
811.319031 1117.555054 1724.818970
919.363525 1070.327637 1806.792603
712.997131 716.378052 1956.066040
866.068359 984.390259 1754.626709
796.171509 1195.673828 1901.773193
889.343750 820.533691 1821.769653
822.373413 1031.278931 1712.027466
611.735474 1055.896484 1734.479004
922.515625 1145.146362 1840.224365
848.881897 808.734680 1794.798340
885.752014 1018.936890 1764.450806
656.838623 993.836975 1770.814697
599.887329 1130.995728 1809.780884
770.112122 1052.549927 1696.541748
737.553101 738.483276 1846.767456
862.651184 1159.589111 1826.620239
579.286377 1134.932495 1775.189453
580.187988 1130.038452 1777.048096
698.777771 1128.802368 1762.336670
590.721497 787.206055 1864.996948
737.866821 1136.145752 1782.443970
808.601624 729.088013 1828.890625
676.586365 1174.144287 1919.634521
802.967163 1194.707153 1924.414429
819.946899 1030.872559 1697.467651
868.215881 967.360779 1786.178955
848.259094 919.128845 1751.348267
820.433899 857.052002 1776.307495
593.299744 842.378967 1781.066040
960.486084 1035.515137 1764.277466
841.893005 889.002747 1766.472900
841.546631 1176.087280 1792.545776
804.544006 750.849670 1824.497803
871.429626 763.637329 1812.769653
893.971313 878.866089 1819.784546
813.175171 905.987488 1764.595703
947.144287 1001.549988 1731.368530
760.582581 839.152649 1811.559692
642.142700 1143.395630 1800.414673
711.317688 1123.143799 1770.193115
895.864075 1137.979004 1843.849731
686.111206 1187.160400 1911.363159
864.749573 1101.536255 1804.796509
636.133667 867.878357 1821.882446
774.768066 698.278381 1860.580078
775.053345 1185.453735 1878.435303
628.755920 905.435608 1812.990356
840.170593 733.126953 1835.232178
658.912292 1133.642822 1801.996704
641.372437 1100.296997 1729.798462
914.696167 795.019470 1846.387573
737.850708 1035.662720 1705.185791
689.713745 1031.652222 1721.668213
751.860779 753.027771 1855.969971
659.004150 1135.703247 1792.831543
613.593140 780.654236 1853.852539
841.499512 1194.970093 1855.389404
768.068665 850.283508 1798.880737
615.939087 1183.812622 1910.464478
605.689819 900.817383 1812.364380
775.815735 816.250549 1824.149780
813.902283 1037.781372 1705.985107
587.041260 783.029846 1845.664307
935.529663 1012.428406 1738.068359
611.721863 1144.598145 1801.595825
753.998352 1044.403320 1702.652954
865.037170 978.461609 1750.172852
697.050842 1124.733521 1760.961304
799.908020 1177.231323 1855.723511
927.871582 781.846924 1867.136841
680.494507 1059.647583 1711.064941
864.442627 1208.335571 1902.939941
786.963074 714.599121 1833.244141
653.791321 835.187805 1830.327393
827.130432 844.663147 1783.769409
593.106018 924.442383 1804.764282
752.470337 1167.611816 1839.676880
611.461426 1000.866943 1767.102905
797.223328 886.287415 1776.358643
706.839355 1170.167969 1876.731812
785.180237 798.223572 1813.594482
880.095215 723.708984 1845.947876
696.008423 1098.253906 1719.762207
820.516296 1014.886047 1709.640625
950.008484 1033.346436 1788.223389
805.960083 685.817810 1855.404663
705.330383 1105.542969 1696.286255
882.706299 976.346985 1762.550903
913.445496 799.232605 1830.542358
719.036072 1124.549805 1762.842041
839.597290 999.393433 1713.890137
745.164490 851.724915 1807.036743
868.883423 707.117737 1909.062500
880.974792 1127.234619 1803.123413
592.118591 892.008728 1821.826050
735.867859 1025.669189 1705.105713
625.603088 885.947876 1837.870117
876.422302 1163.943848 1887.470093
656.980652 1127.698364 1771.450684
684.880493 970.193420 1779.555786
833.977966 887.654419 1763.816162
735.734558 1076.062134 1692.875000
742.765198 1114.355713 1729.370483
827.904053 1086.200439 1686.349731
766.010254 792.112183 1835.995850
886.885254 767.063660 1804.750610
840.563721 704.742859 1835.411987
681.108337 866.782837 1819.099976
617.732422 742.553955 1871.246582
873.405090 1134.063599 1822.569702
746.600098 949.199280 1765.478271
873.014038 801.973877 1785.816162
861.166748 1025.640259 1743.034180
705.850098 1174.074829 1899.799805
867.956909 1207.293335 1902.646729
758.335999 905.109131 1790.297729
608.545166 1090.083862 1724.550659
846.949829 791.307556 1797.994141
664.796997 785.165771 1840.775391
600.200195 783.614868 1872.786011
666.155212 1146.135742 1828.469604
705.774719 1071.113647 1693.180054
751.822449 1050.223511 1708.822021
796.529419 1022.435486 1714.453003
751.091797 880.250732 1795.499512
592.166565 791.506165 1829.755981
804.606140 740.255981 1827.649414
585.381775 841.474854 1833.114380
626.100159 981.581848 1768.129639
792.239563 729.684143 1837.202148
614.905640 1028.528931 1767.266846
770.862488 1006.093384 1720.821167
895.946777 788.122498 1822.834961
879.603760 783.173645 1821.077637
807.741882 1109.248657 1695.800659
855.335388 1010.438782 1751.017456
986.030273 1021.230713 1733.767090
970.961853 1018.802612 1723.455688
571.048889 1093.711670 1735.656982
883.879517 800.485535 1816.802734
864.655701 700.833252 1837.130371
797.165588 1113.229736 1736.767456
913.121033 1009.932373 1800.478394
920.467102 797.133850 1835.984863
866.110352 1198.447144 1865.104492
745.055908 1082.530273 1686.917847
761.785339 1167.674072 1862.354248
807.869629 889.355347 1769.849854
589.618958 788.508728 1859.997314
611.683044 1180.546875 1912.042480
773.947754 1197.032471 1931.111938
610.482483 997.956665 1773.468506
878.247314 694.930298 1847.179321
842.365967 1058.245728 1707.817505
879.787292 1194.925537 1866.816406
609.391113 765.869324 1871.269043
773.839539 893.268250 1790.494141
575.567139 1075.946655 1749.849731
794.662354 1054.430542 1688.579224
682.138794 745.316345 1912.770874
711.513062 688.433960 1876.041260
777.378723 1165.235352 1853.320923
902.882813 840.747681 1848.588989
851.743286 751.293274 1834.255127
797.669312 1188.065308 1905.946533
646.821167 1207.195679 1968.514648
836.846497 802.004150 1795.725708
773.405823 685.441406 1861.881958
621.171814 1181.480347 1893.489624
588.787720 815.946899 1856.401123
762.909180 727.856323 1976.171387
903.649902 794.217407 1830.178101
616.792603 1060.828613 1732.282227
622.153625 1185.125977 1900.879517
702.968811 1019.720764 1723.328613
658.362976 991.702820 1775.226929
794.383484 1047.449463 1688.630859
749.848999 1105.926758 1689.335083
859.081970 1194.668213 1799.354370
856.989319 707.983704 1836.687378
828.605286 1140.759766 1750.674316
643.394897 1046.477417 1727.895996
709.970520 954.919189 1775.792236
641.234436 1058.773804 1716.351929
683.435852 833.494934 1831.961426
863.959717 1035.037231 1790.530151
654.524963 790.794800 1849.993652
706.734436 1167.253052 1881.616699
719.307312 696.553833 1861.594360
844.817566 805.430176 1795.059204
858.207764 1032.104492 1780.855469
926.128174 791.316467 1823.100586
803.069946 704.994263 1831.913696
681.337708 866.237976 1820.678223
685.566101 1216.152832 1980.560425
714.479858 957.646118 1773.336548
595.756287 737.412476 1884.081665
752.075989 1074.184570 1711.854858
801.367004 1038.074951 1709.720459
633.722473 846.610046 1816.706787
845.763062 1118.432861 1732.783569
624.877075 1196.748779 1957.286377
787.276917 819.112122 1808.846436
848.793701 844.379150 1774.520996
906.203308 1132.285400 1805.609375
681.244568 1190.921631 1923.364990
680.462158 818.823914 1831.205200
864.553040 914.231506 1742.946533
974.844971 1042.487671 1783.106812
816.810242 1102.522217 1703.575317
570.709351 1124.989258 1735.434937
815.303833 891.856201 1768.591919
764.760925 1189.738037 1888.831421
735.594910 762.825134 1897.290771
646.173523 1007.888977 1741.372192
654.383362 772.276306 1869.808594
693.718811 844.605713 1825.586914
888.065552 1044.638428 1790.650146
970.797791 1065.899658 1795.357788
732.044739 1150.287354 1821.656250
780.117859 1091.116821 1703.289795
854.521484 1097.208618 1756.025879
592.261047 967.170288 1788.829346
666.481995 1194.975342 1932.973511
653.292603 747.316711 1871.109619
747.195068 839.218506 1814.995361
649.163025 746.229370 1861.527466
658.328674 700.018555 1878.809448
842.379028 1096.828613 1736.049683
776.158020 1109.776611 1721.698242
654.450745 1120.355225 1751.343384
850.692871 1049.306152 1749.723267
835.117126 731.734619 1837.212402
582.264771 1005.714722 1765.950073
696.229370 1120.389526 1763.887329
579.186157 1058.000244 1738.031128
619.108459 802.080750 1841.742554
771.025635 1061.430054 1692.209106
833.216980 1029.430542 1719.072144
880.014954 780.234619 1823.115112
759.737244 1027.239868 1706.244873
860.030151 1201.345703 1877.207397
694.322388 1101.642578 1699.033447
849.728516 1007.457458 1753.940918
636.606873 1028.343262 1745.022339
854.733093 764.169922 1822.988770
677.578735 901.841736 1809.634277
934.702087 1134.920410 1820.779907
685.150208 1008.303162 1732.692017
735.017212 1038.973511 1708.120850
891.987854 747.137390 1827.930298
862.529663 818.183289 1799.647705
714.427490 1117.925293 1757.255615
589.150818 838.072327 1856.043945
811.613159 1053.192139 1688.422974
734.316040 903.431030 1785.678223
836.162659 1165.265747 1796.713013
741.652527 766.685364 1835.535278
725.941711 1161.090332 1828.859985
713.282898 1102.837769 1723.709351
577.645691 1127.058350 1762.216797
856.517090 870.067444 1760.870728
684.939392 1115.190674 1757.205322
625.515869 1065.362061 1745.030273
946.004944 1029.710815 1733.871826
773.914612 1192.176025 1893.935303
613.216370 844.885742 1841.275757
854.483032 778.963562 1810.292480
849.764771 1008.828186 1746.090332
646.739380 1098.955933 1735.366699
845.844849 1121.105469 1725.248169
650.313232 991.575928 1754.414917
762.331543 1173.168701 1870.732544
856.472229 1208.031982 1889.907959
579.295959 1021.525879 1776.182617
753.958862 1030.524658 1707.976929
815.181335 1082.522217 1685.064453
842.642761 720.009460 1827.236694
994.610474 974.341248 1738.554199
799.945435 1113.291016 1733.272217
688.374146 1147.213135 1824.903564
782.520874 959.607971 1751.693726
614.741211 805.722778 1850.651367
662.321655 1077.789795 1704.354248
730.094910 856.203979 1804.226807
724.402588 900.074829 1802.795532
647.348389 1047.308105 1724.291748
698.171936 991.391479 1734.998047
874.108093 1007.700745 1748.449585
774.669189 1001.693420 1711.381592
812.705017 1130.784912 1744.603394
598.802490 1176.914551 1877.067505
879.907471 1034.553833 1757.473755
628.750000 1221.989014 1966.998047
877.763000 1173.395508 1904.434692
775.109802 931.197632 1779.247925
849.355347 730.931641 1822.309204
595.856873 847.339905 1845.107910
694.881531 869.617126 1826.886230
794.586548 730.225952 1987.849365
954.248718 1004.095032 1738.853027
801.302307 909.037048 1765.334351
754.429993 1070.459473 1689.281250
929.684631 1139.072632 1825.099854
849.045471 1102.063843 1750.382568
854.914001 1114.813477 1764.391846
772.823486 1166.289795 1875.018066
915.225647 1129.625244 1813.338745
809.618164 796.819885 1830.192139
586.448303 1095.308472 1772.947266
850.777771 1176.480713 1801.373169
905.121399 1032.729736 1771.930176
624.770630 759.764587 1850.295288
659.934265 1161.412354 1854.012207
716.180298 985.871704 1751.144897
864.362305 827.889038 1789.668335
668.211914 888.890564 1819.008545
800.191650 1055.166870 1686.887573
738.474854 1005.480042 1719.578735
851.417603 723.663452 1825.666138
787.675354 1118.969971 1739.118774
800.760864 718.880432 1838.859131
827.136841 1007.902527 1703.610352
846.016174 924.496521 1752.806885
815.619934 890.044250 1769.358398
910.830811 1041.935547 1768.065430
868.554871 1088.984497 1796.810913
665.153809 1059.088623 1721.729248
843.380920 1137.941772 1702.229736
977.444885 1025.135010 1748.311279
855.816895 1137.244751 1751.195313
863.135742 909.833252 1749.464355
575.493469 1135.412231 1765.012207
939.408569 1033.823853 1790.476318
667.061279 827.222168 1831.145264
787.397339 1018.540527 1716.716919
602.641235 1176.087891 1864.563110
819.018311 1167.182617 1832.499023
842.683411 756.033203 1811.742432
801.179504 954.715637 1750.425049
858.486694 1162.153687 1781.303101
736.054626 764.865967 1847.413940
697.952820 906.496643 1802.208984
768.747742 1124.480225 1764.686890
640.321655 1133.932739 1787.804565
582.645325 924.481873 1814.490967
877.130310 802.248718 1801.413086
904.301514 1012.772766 1761.738159
897.067566 928.297241 1803.783691
992.501648 991.925476 1733.596191
878.643066 844.524109 1769.363647
843.343689 1051.605957 1693.354004
771.238831 1107.507202 1721.943481
789.295349 727.276794 1835.638184
691.063049 1170.963989 1870.231567
740.886292 1012.453857 1714.009766
946.012085 1038.433960 1755.616089
591.975464 1123.699951 1735.899780
891.560059 1134.552368 1827.647461
849.356812 1036.588745 1716.902100
889.896606 1095.299561 1804.400757
719.897095 701.789185 1873.866089
725.572815 1110.115234 1733.441650
723.615051 868.044373 1805.444336
652.417603 1100.036987 1734.934814
643.818176 830.308105 1835.211670
942.798584 1121.286621 1808.475830
689.762939 852.233765 1812.175781
659.056030 763.375061 1872.766235
769.477783 1167.563232 1837.025024
896.831665 1141.528076 1839.701050
712.598572 1118.689819 1758.392700
656.374268 865.415833 1840.533691
862.507324 1038.032471 1775.335571
796.748230 1046.778564 1699.165161
628.132996 1127.970581 1779.299561
806.389343 944.111816 1759.734375
862.793396 860.686035 1762.712769
720.485229 827.743896 1841.248657
828.481812 948.082336 1735.968750
767.688660 1085.510010 1681.949341
941.614868 1140.812744 1829.755005
629.197388 972.737244 1772.346436
701.460876 1073.572021 1695.491943
897.609985 860.340027 1847.195068
703.224792 1068.073242 1695.155884
958.799805 1024.039429 1750.621704
608.530090 1199.393311 1898.276245
844.371399 1146.754761 1743.431274
824.566895 1035.698608 1709.142090
641.850037 915.754578 1809.178101
849.833740 1055.947021 1751.589722
709.757019 1149.247192 1804.394653
686.589478 743.851013 1914.917114
742.631775 881.122192 1796.355225
602.635498 1085.291504 1739.513184
677.439392 1086.063354 1719.381958
822.765015 1147.669922 1748.183105
764.855103 1033.816895 1713.244385
882.826660 1023.367432 1740.935303
722.458130 1007.176270 1721.567627
791.062805 1151.107544 1817.702148
673.387817 1133.314697 1782.664185
603.682434 815.182312 1838.108154
874.174194 851.192932 1784.163940
686.415955 1195.772217 1970.377441
753.667358 991.332581 1772.029541
773.928467 720.941406 1840.493408
709.680237 1040.629028 1710.426636
631.569092 960.027283 1783.237305
890.819946 935.633423 1792.150879
836.818115 860.516541 1788.969116
726.613831 1032.377930 1707.880005
579.578735 1005.628845 1750.653809
706.197510 1143.272339 1836.590820
711.306091 968.473938 1769.965576
721.669495 958.514893 1771.714600
865.270630 1082.334839 1807.183228
736.683167 1157.297485 1818.636841
682.152405 1159.565308 1848.395508
846.400940 946.323303 1747.375244
886.851013 1003.773987 1755.092896
892.486084 1053.502441 1745.841797
782.332825 992.950134 1720.679932
763.033997 859.407898 1807.853271
633.513123 837.014648 1835.866821
768.838257 920.935791 1793.540649
904.953613 777.638489 1835.740112
696.828247 1023.633606 1722.752319
758.744019 1177.207764 1881.036987
621.293457 919.428955 1796.885010
624.501648 823.042236 1829.902100
811.686707 997.091064 1720.345947
661.904114 699.369385 1881.380615
701.223389 1076.000732 1693.441284
844.199402 886.643066 1767.846680
641.657288 1213.473389 1970.897461
954.178284 1040.161865 1758.490967
752.651489 1090.253662 1687.613647
739.903870 889.946777 1799.112793
602.020996 821.435242 1830.946899
828.225952 789.754883 1793.906616
924.498657 795.898682 1840.343384
660.729309 775.729126 1870.180664
748.804260 1105.651001 1719.467041
802.869629 717.096924 1839.641602
912.017700 1030.539063 1765.475098
675.509094 1063.274292 1725.258301
822.601074 1080.812012 1675.901489
635.695801 1111.488159 1744.895386
583.070557 992.999451 1772.284546
861.698120 917.860229 1776.696411
909.234863 1144.894775 1850.186157
796.173279 928.244568 1769.550293
594.843262 820.890076 1859.400024
693.148987 1070.448486 1701.247925
613.386841 1130.936646 1783.921021
