ply
format ascii 1.0
element vertex 1360
property float x
property float y
property float z
end_header
-12.596693 1937.502319 1101.424438
-134.237259 2092.208984 1042.946777
7.724187 2028.680420 1136.631104
-154.962814 2051.636963 997.959595
-293.123566 1772.978271 1123.842896
-141.074631 1743.142578 1325.058350
-41.636360 1965.193604 1005.794617
-320.944824 1746.833984 1199.489380
-129.220215 1859.565796 1005.312622
-107.482094 1980.465210 972.126404
-257.386658 1861.530151 933.671936
-11.421350 1959.613892 1031.394409
-19.801590 1912.148193 998.600342
-155.680466 1841.268799 1066.753540
-128.972412 1723.330078 1299.008789
-242.433914 1683.118042 1287.254761
-222.435455 2114.238770 989.885132
-310.573090 1802.132813 1011.622498
4.630569 2008.231079 1127.262207
-126.848602 2099.785889 1061.961792
-93.284103 1914.579102 939.123169
-189.312729 2152.852295 1055.618408
-256.901337 1892.460083 933.168884
-22.669001 1984.964355 1059.874634
-187.319016 2112.678467 1034.369141
-29.161446 1934.125854 983.464417
-138.921295 1891.275269 952.987549
-173.727264 1855.732300 991.080872
-224.841293 1831.587646 1080.275024
-225.890488 1722.854980 1232.130127
-104.583740 1783.707520 1177.114258
-99.439857 2036.609009 1019.782288
-95.313271 1875.045776 1006.882996
-38.784740 1904.795410 1088.846069
-307.752930 1760.343140 1171.727051
-61.771057 1805.651123 1168.844482
-20.287830 1887.930054 1047.644043
-263.918060 1879.528198 937.017273
-202.493195 1889.907227 934.626343
31.520725 1921.439819 1150.857422
-128.577896 1852.335449 1327.200562
-151.205338 1972.960938 924.412354
-227.556030 1960.053589 900.677124
-187.744781 1732.146484 1244.557983
-109.323463 1812.291504 1138.590576
-147.999832 1861.028687 1009.752014
33.629837 1948.209229 1163.006714
-155.635208 2098.849609 1020.344360
-84.802719 1944.600342 946.994629
-158.943619 2104.253418 1050.845825
-29.573631 1948.752441 1076.087402
-34.399250 2107.588623 1083.046509
-300.617065 1835.413940 995.267212
-91.079132 2059.006836 1031.089111
-89.299782 1777.183228 1193.663940
-54.402702 2137.411621 1096.772217
-38.821663 1966.325928 1128.257813
-130.100449 2022.371216 992.706848
24.918007 1931.772705 1149.686279
-11.244386 1914.694580 1119.900635
-14.712438 1997.039795 1011.799316
-180.174347 1702.573608 1258.314453
-141.909210 2144.027344 1076.867310
-298.723694 1712.871216 1249.208618
-40.007164 2077.824707 1118.538818
-95.124374 1866.051636 1053.028931
12.928500 1917.810181 1173.707520
-71.638031 1823.445190 1219.016602
-71.466675 2036.753906 1037.559082
-4.675279 2050.227783 1096.445313
55.422924 1901.407104 1168.560303
-178.658829 1919.573730 914.136719
-277.195801 1842.397827 1000.115967
14.870142 1896.307373 1137.387329
-52.360764 1887.277588 1127.085938
-227.302704 1985.856445 908.594849
-96.324554 2009.747803 999.231018
-157.241653 1888.689209 969.893982
-351.223389 1748.346924 1210.644165
-92.373528 1879.977173 1001.118225
-164.141510 2131.794189 1066.707397
-208.924927 2071.139648 977.696106
-252.176620 1856.531128 1018.947021
-205.498138 1872.744751 987.024353
-125.694351 1904.134888 937.685120
-24.407753 2020.085815 1116.661377
-250.240280 1692.084473 1268.223389
-71.840843 1882.187378 1032.991333
-209.628159 1679.146362 1294.965210
-81.317329 2021.271973 1017.129883
-92.332169 1973.124390 993.135132
-258.241699 1830.410400 1039.404785
-46.813068 1932.997070 1106.687988
-288.288849 1727.064819 1200.573120
-7.374363 1945.763184 1012.312622
14.852813 1987.033569 1150.051514
-80.777802 1919.642334 962.506958
-37.870857 2078.691650 1104.257446
-70.017090 2033.672729 1037.141724
-179.314316 1907.906616 917.170471
-40.717388 1899.316772 1028.173096
-63.811005 1833.862427 1127.745728
-42.571724 1895.011719 1100.678223
-39.528221 1889.052002 1081.049316
-176.118530 2128.996338 1028.932617
-197.100433 2074.305664 976.808899
-87.658012 1806.966187 1231.661133
-365.976074 1722.637695 1166.186890
-12.776575 1948.015137 1140.280884
-62.167759 1813.972778 1151.803223
-15.916133 2034.036011 1115.025391
1.602762 1995.583618 1041.363281
-272.978973 1724.659424 1217.489014
-23.008608 1988.919189 1121.075073
-91.571709 1851.733032 1082.870972
10.908425 2022.768311 1126.023071
-182.028061 1883.522949 976.145264
-55.962414 1872.471558 1180.451050
-270.981445 1817.056152 1092.848633
-70.322151 1841.566650 1170.876099
-319.530792 1751.858032 1137.042603
-237.271072 1771.711426 1159.760254
-312.980469 1738.092651 1292.660645
-111.332474 1879.484009 1003.539490
-32.456257 2121.840088 1078.205688
-258.978088 2094.661377 977.240356
-318.620483 1761.866821 1110.128906
-21.803846 1913.083252 1109.300415
-164.932495 2099.768799 1025.655029
-106.299553 1819.305420 1131.278931
-323.944305 1747.294678 1151.494873
-395.982666 1700.008301 1177.986084
-297.194885 1845.573608 997.148010
-229.316162 1950.233032 889.289795
8.147215 1934.762817 1144.117798
-85.556808 2030.924438 1026.053345
-155.668015 1885.117432 965.096497
-51.777321 1875.609619 1162.525757
-101.144318 1837.629028 1097.731567
-102.311760 1819.535400 1129.464478
-31.893227 1896.075806 1125.940796
-236.414383 1779.752075 1138.610596
-227.607422 1742.936890 1348.554321
-138.156052 2147.101563 1082.352661
-274.129883 2098.660400 959.332764
-22.763515 1932.680054 1002.970398
-104.144554 1816.241943 1261.451294
-6.967793 1965.786987 1022.889282
-370.906830 1706.218506 1187.885376
-248.914474 1841.230225 1009.131409
-131.406250 1748.041626 1227.432495
-172.368362 2141.667969 1056.813599
-41.372177 1881.981323 1106.553955
-291.891235 1809.148438 1037.234741
-168.357544 1717.899414 1293.276489
-65.866165 1888.730225 1014.697815
-93.764183 1996.136597 990.637512
-321.578156 1765.091919 1109.148438
-31.555500 2026.993896 1033.162720
-130.565125 1726.940186 1326.192261
42.168251 2004.433472 1127.050781
-58.933968 1878.872803 1005.320679
-86.888412 1830.727417 1231.349854
-280.742828 2190.091309 985.023071
-197.020462 1795.979492 1133.644409
-233.451843 1922.824463 906.691467
-175.548523 1791.836426 1158.685791
-41.211269 1868.984375 1096.158081
-141.256165 1874.469482 985.021973
-221.210739 1716.182617 1237.793335
-111.092690 1746.616699 1256.703247
-249.868866 1878.249390 963.596497
-189.985489 1902.727539 918.279236
-151.684128 2091.817627 1028.025269
-147.771423 1775.935547 1205.297241
-157.741638 1740.068604 1236.881348
-170.825623 1879.312744 956.322693
-94.255608 1817.809814 1131.690186
-13.052333 2022.895874 1116.195679
36.428997 1932.406372 1136.383057
-176.515045 1868.232422 985.357666
-125.892418 1762.925415 1222.862793
-330.921143 1701.425171 1188.219238
-28.007717 1898.542603 1043.363892
-30.278206 1886.187500 1076.565796
-73.120827 1922.368652 979.443420
-240.517075 2014.754517 893.984009
-51.590435 1886.907104 1024.168823
-194.458435 2087.189453 987.778870
-208.476181 1760.513550 1375.525146
-104.043289 1864.782959 1053.475464
-66.094925 1849.136841 1084.192139
-22.996181 1961.162476 1056.307129
-217.636017 1810.678345 1098.518311
-329.434296 1698.843018 1213.794434
-182.200775 1894.852051 957.152039
-362.650574 1775.318726 1104.936890
-88.910843 1858.922119 1053.266724
-108.390724 1843.268799 1078.079468
-319.942505 1766.000488 1092.824097
-250.523636 2056.052490 910.271301
-12.562480 1981.994507 1048.186768
-307.596344 1765.964722 1110.495972
-257.399170 1848.387573 958.790588
-361.878296 1695.702148 1188.072754
-293.133606 1774.241577 1118.439819
-167.857300 1991.784546 947.480774
21.984016 2070.225830 1144.216919
-87.260406 2046.019531 1024.400391
-259.098145 2085.167725 967.084839
-32.119541 1920.572510 1006.705322
-70.504730 1811.954834 1156.257690
-220.477692 1822.563721 1079.890015
-57.029850 1872.029663 1055.565063
31.775480 2034.260132 1134.504517
-125.057533 2095.383057 1046.875000
-212.292267 1761.745239 1373.837402
-122.782150 2034.849365 1006.654297
-40.560680 1956.928711 1125.566650
-133.355576 1745.961670 1240.237915
-145.870193 1710.177246 1317.807861
-48.309471 1901.585571 1116.894165
-73.825172 2120.006104 1083.088379
-227.833008 2022.413086 929.678345
3.522881 1900.290527 1124.166748
-16.155849 1974.994629 1011.505676
-63.939011 1793.270630 1173.967407
-92.843880 1871.635498 1030.081543
-334.557098 1699.923462 1231.843506
-104.626106 1760.229980 1274.179688
11.352166 1903.451294 1136.294067
-276.873962 1805.061768 1068.567017
73.955261 1903.834473 1172.316040
-169.034393 2080.711426 1009.296997
49.494518 2007.138428 1155.587646
-280.705139 1741.436890 1209.680298
-41.122330 2050.197266 1096.060913
-2.255172 2004.217651 1149.592041
-56.201393 1876.112671 1104.140381
-182.207428 1878.450073 983.184143
-50.414497 1855.692139 1084.983276
-255.322983 1799.460938 1105.032227
-186.364105 1888.966187 942.608704
-35.822220 1902.480713 990.089539
-200.623840 1994.018555 939.293152
-124.451263 1733.415771 1278.953491
-290.459137 1822.901245 1031.173828
-252.519348 1739.039185 1205.653564
-51.625587 1985.565063 1012.448486
-222.509720 1828.117676 1054.585571
-150.712296 2011.074585 984.500122
-29.821468 2099.253174 1088.947998
-12.352081 2005.536255 1096.925537
-36.347103 1904.895020 1134.268555
-76.538391 1791.343262 1208.825317
-125.975060 1904.539551 931.872681
-100.735672 1859.591675 1065.934448
-159.854980 2008.215820 957.923279
-22.843662 2022.909912 1110.947021
-220.284378 1690.946045 1275.349365
-107.442375 1837.089233 1279.057373
-218.231354 1922.336914 891.889404
-246.259369 2036.882568 907.989685
-18.015173 1914.204224 1045.997559
-80.453644 1959.361694 970.569214
-88.497559 1877.566772 1003.870300
-191.504410 1729.766846 1351.144409
-161.460449 1912.956177 908.380371
-123.542793 2086.436768 1030.541626
-241.819550 2102.793213 970.983704
-226.097443 1932.600830 870.031250
-322.124939 1777.736816 1063.049072
-121.719078 1921.201904 950.609009
-118.396263 1882.382813 986.448608
-171.174652 2134.286621 1036.194458
-54.481831 1883.637939 1161.294312
-201.854385 1898.829834 925.445129
-59.874573 1884.334351 1115.813843
-32.106060 1935.097412 994.825745
-244.137787 2045.306641 940.268372
-50.087341 1897.018188 999.340393
-232.537338 2001.665039 912.023071
-109.183723 1807.822632 1144.808105
-48.482502 2098.465576 1099.935059
-105.046989 1961.964600 973.746094
-268.863770 1796.790039 1121.864624
-241.751572 2026.913452 922.097473
-182.948898 2059.571533 985.409546
-151.619751 1989.524170 949.808105
-152.347305 2014.469849 958.615845
-237.888840 1893.397949 930.349060
-118.575226 1863.905518 1009.697998
3.940336 1915.863647 1127.436157
-118.377060 1749.839600 1323.565430
-2.678197 1995.855713 1128.836670
-201.170578 1682.720215 1298.900757
-16.512058 2003.514648 1108.147339
16.126511 2066.862061 1148.040894
-230.983231 1974.786987 886.775635
-274.507477 1746.631958 1259.787476
-121.519241 2116.316650 1067.581421
-89.981667 1860.466064 1032.517212
-20.341932 1930.811890 999.405640
-327.502472 1710.618042 1216.695190
48.584789 1975.383789 1168.398560
-241.393600 2059.110107 950.817688
-195.110046 2061.056885 978.468445
-273.659363 2085.767822 957.053589
-33.675556 1943.986084 1080.563599
-19.960241 2063.314697 1048.176147
-41.365704 1884.595459 1050.328857
-59.933426 1804.247559 1197.606079
-45.870914 1888.448242 1015.458069
-158.991623 1967.527100 934.243286
-77.837158 1866.510864 1031.591064
-13.717983 1953.253784 1054.522949
-293.639465 1733.111206 1193.789429
-102.914429 2095.001465 1060.787598
-63.923641 1890.681885 998.232361
-228.344803 1736.887329 1220.269043
-147.470337 1918.163452 916.772278
-54.799706 1965.539673 1113.502808
-378.983307 1735.991211 1137.993530
-105.406700 2094.471924 1048.658813
-96.053085 1885.532471 981.188049
-200.963745 1704.371094 1276.111694
-160.775818 1903.381836 930.422119
-191.634018 1751.860596 1233.152832
-282.243561 1758.718872 1158.599854
-61.446415 1832.570801 1183.151245
-120.484886 1764.539795 1247.158447
-63.249718 1834.983154 1150.532104
-146.870010 2046.863647 998.227905
16.111425 1938.153564 1153.903320
-158.067520 1811.590576 1120.074951
-275.852295 1826.097534 1031.254150
-74.208817 1907.730835 955.640686
-161.733521 1723.333252 1348.645752
-89.866951 1876.096436 999.780884
-67.440842 1881.303711 1028.140137
0.289618 2071.316406 1145.409790
-92.883270 1828.651123 1274.238159
-13.776982 1965.336060 1025.813721
-78.465836 1822.081543 1129.304565
0.196036 2036.222534 1114.828979
-17.678205 1931.812134 1129.407227
-60.780636 1858.748047 1055.012451
-63.269539 1823.276123 1167.080078
-115.652695 1787.114990 1184.182129
-45.200359 1885.209961 1024.569580
-258.440521 1831.812012 1033.849121
-255.097000 1703.832031 1264.878906
-147.906464 2122.115479 1056.588379
-207.783112 2052.445313 954.938599
-105.436485 1808.860474 1160.104736
36.360233 1894.478027 1145.419434
47.902412 1944.985229 1151.733887
-260.318512 1771.685547 1234.155029
-319.932709 1748.256592 1149.386353
-135.292343 2107.077637 1038.552368
-48.295956 1935.068726 983.860291
-246.061203 1779.426147 1134.609863
-13.232514 1982.577271 1037.198608
-146.748215 2062.049805 999.207275
-243.713821 1923.546265 898.397217
-232.447968 1804.846680 1100.957031
-1.133094 1999.347290 1127.463867
-204.551956 2083.550537 998.140137
-65.953064 1890.162598 990.700989
-73.211205 1838.938965 1114.632690
-113.964722 1769.440308 1210.978027
65.560257 1934.120728 1142.322876
27.269728 1896.995728 1145.999634
1.054300 1986.185791 1038.239868
-159.217865 1925.767700 902.031067
-307.327057 1697.629639 1241.959229
-34.094917 1877.775879 1076.220947
-236.697769 1920.446289 882.966797
-213.767593 1697.509521 1281.772827
-36.720783 2054.962158 1040.514526
-161.142822 1737.345947 1294.650269
-193.812378 1803.971313 1130.449707
-57.696533 1896.166870 985.587158
-258.844879 1781.970825 1129.624023
-265.775635 1821.201538 1038.736938
-42.123489 1936.537964 1089.671631
22.513620 1923.089355 1123.900635
-324.584198 1766.792236 1048.772827
-269.067657 1735.442139 1203.344482
-79.271263 1856.211792 1076.322998
-162.281418 2097.347656 1030.267456
-54.608253 1958.021484 1003.157288
-206.342285 1689.500244 1300.166870
-230.364578 2125.528076 993.239685
-192.482101 2017.733521 962.074219
-133.811951 1911.053711 935.080811
0.020547 2062.112793 1128.726929
-243.515015 2036.526978 931.186218
-204.274139 2125.882813 1021.838196
-57.234200 1887.325928 1002.960327
-47.055630 2116.310791 1070.829346
-28.083679 1884.318115 1058.955566
-67.152077 1878.117554 1144.990234
41.590488 1889.661255 1163.069824
-138.283875 1900.128052 970.063232
-370.813690 1742.358276 1117.334229
-209.186798 2000.388916 928.050598
-258.146393 1877.383179 952.438721
-115.179298 1798.649414 1274.255249
-70.341728 1858.220215 1069.558350
-220.092758 1697.632446 1291.516235
-27.688328 2072.678223 1050.613037
-279.021698 1780.896484 1115.939575
-167.395370 1729.632324 1263.182861
-72.931328 2042.944336 1042.250244
-36.542992 2057.181152 1079.595825
-16.441200 1932.873047 1009.131592
-370.646027 1709.198975 1141.899780
-169.924469 1902.662109 931.977173
-210.376755 1870.383667 980.397644
-45.211468 2080.431152 1113.646729
-174.285736 1800.689819 1149.791138
-9.931643 1985.853516 1033.974609
-24.480387 2029.876587 1103.336914
-380.056366 1717.730957 1159.857300
20.308449 1944.962158 1145.555176
-63.805138 1988.878418 998.752991
-288.733704 1875.078735 974.266968
-20.327940 2030.867065 1113.773438
-118.341515 2145.760254 1087.766968
-323.142792 1792.648804 1065.907471
-113.824272 1876.651489 1005.527405
-128.360596 2085.532715 1041.295654
-105.462090 1776.908203 1232.727783
-311.981018 1708.611206 1224.792969
-201.354095 1866.353149 980.157959
-369.706207 1720.269653 1163.242920
-59.483624 1871.693359 1034.283081
-116.705688 1963.941650 960.618286
-110.513954 1746.292847 1311.936890
-200.887085 1681.645508 1294.459229
-130.486496 1873.663208 975.138428
-164.281067 2041.012085 984.712952
-47.344219 1901.187134 1083.678833
-272.386292 1821.154663 981.396240
-88.182053 1989.247314 991.382813
-218.337097 1893.609375 934.313782
-222.043045 2044.176758 950.815125
-13.282200 2014.277832 1039.971069
-229.631683 2081.203857 962.436035
-127.263542 1872.058716 1055.239136
-138.162933 1925.088013 924.155823
-22.526253 2018.487427 1110.422363
-37.185329 1882.702637 1052.173462
-258.307983 1761.650269 1166.740234
-5.690984 2048.192139 1122.204590
-36.338036 1872.381836 1070.324829
-29.796457 1993.521240 1144.328857
-28.546484 2004.861328 1076.226440
-19.388042 2014.767822 1038.966187
-16.391294 1894.806152 1136.290161
-199.313370 1753.355835 1198.418701
-128.087189 1978.699951 957.603455
-247.498611 1803.166748 1124.513550
11.566423 1941.562500 1142.554932
-228.803741 1977.618896 871.164246
-188.496017 1926.027466 887.462646
-148.306625 1862.800537 1009.991028
-77.536285 1865.005493 1061.559448
-218.320694 1914.729736 906.745605
-78.681755 2001.604858 1011.453491
-301.009644 1825.845581 1014.579773
19.781757 1987.862915 1159.624146
-31.960886 1894.853638 1039.149536
-186.965897 1701.054932 1306.636597
-99.721359 1900.624878 948.505127
-54.683220 1891.350830 1162.823730
36.131840 2050.333984 1142.618896
-348.750519 1720.602051 1144.332642
52.142101 1905.927612 1159.427856
-124.583275 1781.401123 1189.204956
-23.096508 1938.079956 981.173401
-104.770996 1983.125732 969.865784
-241.651276 1700.021973 1268.736694
-333.591553 1747.909424 1139.157104
67.854813 1917.870117 1176.799561
-189.683517 1776.009766 1174.233765
-166.312408 1822.109131 1103.410767
-119.064613 1958.244995 949.618042
-133.706665 2022.740479 979.129883
-176.027985 1831.513184 1087.200073
-78.635971 2037.609375 1035.510986
-9.718922 1896.475098 1137.468872
-43.893181 1859.701782 1143.857178
25.447990 1922.860107 1126.296021
-184.232040 1925.107666 889.753113
18.100677 2061.029541 1143.975830
-220.987640 1909.080933 906.466003
-181.289886 1903.920776 949.537109
-255.862213 2134.080566 997.858582
-88.280968 1826.729126 1113.636230
-96.612877 2003.130493 993.864319
-164.778137 1742.792725 1232.866943
-105.805656 2051.327637 1035.914063
-79.442955 1856.812988 1066.158447
-297.964203 1842.946655 993.316589
-211.685318 2039.082153 954.204224
-9.731838 1916.110107 1023.100769
-173.221252 1966.499634 938.478394
-275.833008 2094.367432 955.988892
-268.382813 1818.872192 1044.743896
-70.857346 1815.520264 1138.367798
-278.108429 1877.224976 958.924133
-234.367508 1874.925415 1018.113159
58.365559 1935.990479 1174.007324
-218.472412 2126.273193 1012.333069
-236.658676 1804.166626 1095.670898
-61.113300 1975.863037 998.275574
-345.227936 1727.485352 1220.996826
54.041904 2002.034424 1153.774658
-239.044769 1853.368774 1055.951660
-66.880608 1812.043701 1171.870972
-80.495789 2145.290771 1104.168213
-83.807098 1803.548828 1184.492554
-24.931713 2065.102051 1062.861450
-167.431625 1881.536499 953.972351
-238.152969 1864.940308 971.861084
-81.559418 1980.544678 1004.435547
-362.682739 1734.929199 1096.810425
-150.374908 1854.569092 1030.591919
-132.276306 1742.684814 1271.976196
-21.411652 2078.677246 1131.519531
-191.284988 2082.977295 997.295044
-88.456932 1873.813721 1029.828735
-270.995209 2128.256592 955.186462
-61.764656 1848.224365 1091.381836
-183.573578 2056.382813 979.937744
12.416900 2059.969971 1142.183105
-238.604187 1829.323120 1071.011353
-101.211555 1777.844971 1248.142700
-156.083450 1904.126465 924.427734
-155.401627 1901.004150 926.161621
-32.487499 2116.162842 1071.676025
-125.682785 1816.730957 1142.060181
-338.836884 1707.507568 1208.077515
-207.844025 2136.238037 1014.549011
19.550554 1899.467529 1151.482788
-183.390152 2058.039307 970.189880
-240.754166 1923.466797 900.604431
-41.101994 1898.778809 1111.329102
-9.637484 1921.051147 1028.520020
-73.130226 1833.308105 1126.006836
-230.136734 1991.020874 905.069275
-243.913300 1823.654907 1075.611084
-220.103790 1869.250854 1036.210083
-258.828278 1827.334961 1050.142212
-233.456482 1768.074097 1159.330933
-103.142471 1778.037964 1181.709839
-226.019318 2109.854248 999.161194
-143.649673 1802.470093 1154.949951
-19.380264 1981.227661 1109.204102
-48.544529 1865.859863 1044.377563
-199.711700 2019.312744 936.576111
-365.226044 1762.598877 1104.396240
-77.462219 1848.810913 1084.648193
-79.278152 1910.606079 957.162537
-119.540833 1945.084351 925.277832
-32.329556 2078.733154 1054.021851
-6.433530 2003.913696 1031.364746
-120.632408 1744.732544 1298.147583
-19.411106 1926.791626 998.588135
-169.230331 1887.938232 952.913879
-136.572052 1862.656006 1011.368103
48.275738 1944.122681 1168.504639
-147.742722 1898.634277 953.981262
18.833015 1989.515869 1153.727295
-28.392597 2104.430420 1074.720703
-83.282547 1791.303223 1186.924927
-43.972748 1887.750366 1021.851135
-317.497833 1764.588989 1106.773926
-158.259460 1863.367188 1084.862915
-233.648117 1892.068604 941.318115
-23.126133 2050.880127 1055.860840
-187.867279 1990.511353 933.898071
-105.335289 2106.959473 1059.251099
-116.554047 1767.523438 1204.647827
-191.319534 2092.734619 1004.596680
-187.543076 2049.702881 972.359009
-235.602814 1779.790527 1155.701172
-190.670364 1740.534546 1231.722534
-247.268967 1992.079224 913.302063
-338.083038 1740.046753 1127.833008
-38.777840 1916.310425 1087.727417
-325.273285 1786.030273 1081.295410
-124.495506 1791.441528 1167.205322
-166.509079 2119.568359 1040.316284
-263.122284 1747.775146 1169.034424
-113.178772 1843.096069 1300.585449
-229.172989 1731.142334 1220.280151
-229.096848 1872.368652 1000.225159
-99.342438 1730.890625 1331.640991
-292.765747 1750.795410 1313.955811
-45.762386 1961.611328 997.059326
-94.575706 2080.562500 1045.833374
-57.775757 1904.628906 992.787048
-177.848587 1745.110596 1217.648315
-40.602268 1917.112671 975.866638
-149.360474 1997.250854 962.854431
-303.187134 1837.286987 1002.971130
-238.284302 1944.320068 888.861938
-187.863586 1876.358032 944.011169
-123.713333 2069.755615 1029.221436
-67.594795 1843.565308 1227.402588
-205.598434 1806.361816 1107.897827
-60.971756 1840.625977 1119.555542
-230.697418 1909.230591 919.025818
-338.122742 1778.994995 1081.629883
-173.193893 1696.799316 1279.546021
1.635075 2065.296631 1137.742310
-18.790201 1970.915527 1099.071045
42.310154 1912.087646 1157.287354
-33.466579 2015.626587 1083.094849
-98.329628 1906.426025 981.996704
-92.854408 1843.669434 1264.485718
-34.560375 1946.958496 1095.360352
-173.916626 1986.996704 922.797974
-39.645451 2080.181396 1081.263062
-180.775330 2021.594360 961.008240
-234.367813 1835.578857 1066.993286
-54.379623 1853.756592 1154.099731
-38.058769 2108.246094 1060.003540
76.632072 1912.997070 1177.406494
-244.320206 2130.248535 1005.342041
-247.713379 2041.830078 916.275940
-133.798218 2153.196289 1085.157593
-92.222435 1788.797852 1182.600830
-129.858414 1955.831787 943.195251
-232.404037 1882.959229 940.344055
6.474926 2026.333374 1126.970459
-114.104935 2072.000488 1036.538696
-99.390884 1826.817261 1117.765137
-209.776382 1853.396729 1026.651245
-50.853199 1853.890381 1083.924316
-220.105545 1941.529297 882.118469
-23.724510 1905.687500 1009.632568
-130.569092 1974.021118 951.248962
-137.511398 1869.795288 991.081543
-33.819260 2063.239258 1101.571533
-147.382523 2002.503174 962.142883
-104.788879 1773.555054 1235.712891
-51.743092 1840.415039 1180.146606
-183.364426 1723.182251 1242.043701
-78.158173 1972.986816 982.177063
-239.494034 1863.215942 994.103943
3.828651 1941.573242 1005.211365
-93.488998 1787.604736 1172.800049
-173.570084 1737.396606 1237.150024
-341.305817 1735.547974 1220.973389
-180.010849 2127.656738 1044.730103
-154.185287 2037.863525 985.360168
17.147566 1897.073975 1132.537476
-211.477814 1987.471313 913.061340
-71.387573 2017.712646 1023.728088
-388.986267 1720.623413 1148.182007
-348.180328 1788.207275 1082.695923
-266.585449 1843.766235 996.981750
-29.954327 1946.343872 1068.084961
-50.967445 1882.820190 1095.896973
-225.268875 2028.238647 936.307068
-69.608841 1813.428467 1181.803345
-48.319744 1944.019653 979.121948
-36.190678 1874.838257 1084.552490
-125.063858 1822.428589 1115.842773
-67.312241 1859.955933 1035.111328
-277.752319 1748.180298 1199.509277
-377.873505 1711.719971 1127.403442
-106.840416 1807.589355 1300.634033
-168.004822 1944.498779 909.150879
-149.837677 1903.340332 940.258362
-70.123306 2020.438721 1035.529419
-231.839600 1985.906738 906.803101
-219.965607 1903.469116 899.217346
-258.885040 1820.515259 959.333252
-187.685471 1720.404419 1269.780518
-196.009277 1867.540894 979.485535
-149.748749 1774.272583 1191.070068
-41.422527 2061.104248 1104.716187
-291.344452 1744.672119 1173.696045
-142.667816 1890.595947 950.610229
-66.621185 2028.478027 1034.544434
-293.292267 1835.830444 1032.207275
-16.726036 2023.023315 1038.076172
-140.297623 1828.229370 1120.762939
-22.137249 2066.693115 1124.889893
-387.709290 1722.244751 1141.387451
-252.942230 2082.189209 927.202393
-218.683609 1956.581177 897.158264
-39.876385 1881.740479 1031.578247
-140.520874 1740.154053 1243.780640
7.643408 2014.874268 1130.170410
-124.869469 1896.426758 952.463379
-15.468936 1910.889648 991.182678
-88.045265 2027.619873 1010.530090
-268.380096 1746.776978 1186.842529
-71.210587 1825.129883 1176.768311
-65.914879 1879.558716 1138.151611
-206.403091 1871.838379 972.895752
-0.759163 1934.699707 1126.745483
-128.111694 2040.250244 1006.627014
-246.364365 1868.182129 1434.240356
-121.234604 2135.374512 1082.057617
-304.152130 1734.333252 1163.553711
-334.804810 1708.629395 1200.523315
65.969681 1920.614746 1185.414307
-171.249405 1697.149048 1270.167603
-13.055168 2042.114014 1027.024170
-75.984535 1811.600342 1164.441284
-404.955383 1695.900391 1190.914673
-82.629784 2118.051025 1084.820557
-259.669525 1864.026245 937.145874
-38.825291 1898.482300 1027.612183
-326.901398 1702.041992 1221.572632
-99.453751 1977.033936 973.958984
-322.202850 1778.021484 1083.335938
-103.303375 1864.058105 1084.868652
-129.054413 2057.987305 1020.760498
-48.193134 1880.577881 1168.371216
-150.740707 2037.827515 989.356201
-284.942352 1795.795776 1001.543213
-296.449188 1776.302490 1118.922852
-233.543228 2160.963623 1057.979980
-181.912933 1800.939575 1131.749634
-146.146210 1787.070313 1163.615967
-115.171852 2036.030151 1008.189453
-174.324234 2089.731689 1016.225952
-141.932114 1749.210449 1204.784302
-250.282196 2008.035156 911.056091
-299.675385 1841.351563 1004.684753
-42.204163 1895.094604 1124.684692
0.987566 2069.753662 1134.070801
-237.049561 2084.538330 976.349548
-39.357891 2034.492676 1085.285522
-145.433853 2006.808350 966.030212
-54.027824 1917.311523 990.840332
-35.148296 2022.689819 1088.011353
-7.284720 1925.108154 1008.233032
-265.866180 1694.562378 1227.832642
-268.870453 1853.290771 985.667725
-155.858032 1975.372681 941.085022
-105.391518 1770.792725 1232.215698
-164.288589 1796.613525 1141.084106
-115.427956 2029.156372 1002.684448
-88.922287 1902.595825 964.556091
-286.571594 1695.636353 1216.386475
-302.980469 1783.528809 1072.476318
-151.026306 1886.897095 957.656311
-246.002365 1723.555908 1216.468750
-183.485825 1694.401611 1298.665894
-267.550751 2100.318115 968.045410
-50.211765 1953.037720 985.898987
-282.878296 1777.636719 1146.437134
-3.691888 1907.352051 1143.962646
-247.382721 1701.615479 1303.854248
-212.672409 2047.093262 944.394897
-35.674385 1944.777832 1131.201416
-66.795296 1895.823730 1003.595093
-71.443375 1906.503296 967.581421
-68.626129 1842.336914 1118.050659
-102.721306 1776.852905 1229.449097
-153.508682 1923.793335 915.751648
-83.621719 1860.780640 1018.922546
-68.321350 1793.221191 1225.094238
-134.678680 2093.228271 1039.384399
-75.367851 1890.608032 1004.092041
76.625816 1924.210083 1170.507813
-233.182098 1832.072754 1065.844360
-153.091400 2118.230225 1045.833862
-86.366020 2035.257446 1027.620728
-21.555025 1945.132446 1115.248169
-121.082748 1744.521240 1308.888184
-85.372055 1823.653809 1123.760864
-63.030800 1876.151978 1022.351501
-57.858612 1886.994263 1015.478821
33.659481 2046.327637 1142.324097
-143.614288 1812.311646 1125.432861
-18.975508 1918.140015 984.916748
-175.624298 1862.596924 1063.306885
-92.596558 2091.305908 1067.542480
-18.693851 1986.125244 1135.166016
-271.308777 2084.948242 960.064636
-55.494823 1989.943481 1019.521118
-328.776581 1699.247681 1250.756592
-7.263128 1927.288574 988.692200
-118.180916 1783.687256 1183.164795
-166.385895 1753.820313 1374.540405
-28.463869 1919.100342 983.689209
-289.970337 1831.274414 1017.737122
-7.503845 1906.017334 1033.015625
-147.401703 1821.805786 1148.095703
-98.208336 1831.456177 1115.344604
-151.077621 1707.791870 1300.350098
-92.997314 1778.707886 1194.368652
-72.810623 1918.794678 978.700806
-86.272095 1864.365234 1011.489197
-274.832245 1703.833252 1224.833618
-292.520508 1704.183228 1233.659546
7.769695 2028.358521 1130.330322
-358.007446 1748.855957 1122.958740
-212.682205 1755.314575 1182.687866
-108.281670 1750.699463 1317.349609
-118.574486 1909.217163 943.340637
-113.876366 1918.557129 935.915344
-33.001797 1905.895508 1090.633667
-164.321609 1974.398438 929.673950
-322.676270 1785.062256 1095.047485
-252.739273 1790.352051 1098.276611
-152.055756 1838.107910 1102.575928
-15.163466 1910.475586 1108.255981
-270.472809 1834.018677 959.384338
-90.214020 1860.485107 1064.862915
-138.200104 2143.633301 1078.649536
-247.695435 2016.821411 906.594788
-89.699188 1995.929199 1010.478821
-2.038824 1939.477783 1131.668945
-135.578262 1742.002075 1297.940796
44.366779 1930.877563 1159.246094
-116.362129 1922.556274 954.871399
-30.520506 1900.674072 1114.779419
-60.671181 1897.520630 1204.974365
-148.621094 1818.737671 1126.416382
-230.284622 1823.638794 1076.136719
-248.129578 1831.151245 1069.016724
-35.864098 1900.020752 1104.061279
-93.065887 1927.831421 952.986328
-217.532318 1852.785645 1010.820251
-127.157242 1747.727661 1203.713989
-220.228836 1849.907715 1068.306152
-27.509953 1929.284790 1165.222168
-105.617920 1952.595581 948.547852
-146.387726 1849.770630 1088.674561
-63.874237 1833.816895 1145.510132
-11.643941 1957.785522 1016.254639
-312.532715 1808.303345 1015.390808
-227.224777 1938.620117 884.024902
-189.559738 1925.390015 1050.705811
-282.773926 1834.301147 1005.828064
-182.627914 2065.394531 993.017090
-226.351547 1977.153809 910.037354
-56.072891 1876.402222 1035.142944
-226.317581 1734.476563 1225.334595
-216.501114 1927.342651 888.211243
-262.422241 1766.303711 1347.060181
-109.129082 1876.580444 999.102905
-258.128967 2170.990234 1014.166870
-78.961327 1919.300049 974.484619
28.133003 1906.287598 1149.988647
27.235245 1999.015015 1143.149292
-7.030720 1941.005859 1025.829102
-117.575516 1846.783081 1112.044434
-43.529732 1997.489990 1019.086853
-51.896072 1879.112305 1096.902222
-233.011276 1861.181763 992.501526
-153.925949 2098.555420 1031.521484
-163.555939 1880.923584 956.268677
-329.591339 1788.016479 1041.996948
-289.640991 1785.984863 1073.744263
-188.359955 1826.139282 1092.528564
-175.123993 1898.868042 950.337952
-240.887482 1986.038452 903.148254
-196.626129 1886.121216 945.812378
-133.788818 1748.099365 1238.256226
-237.625381 1883.740479 929.238647
-75.403549 1975.057007 1004.655090
-229.254303 1915.737305 878.505249
-35.182575 2009.268921 1094.004639
-156.072693 1737.844116 1225.495117
-199.792007 1693.131592 1316.029175
-357.200531 1742.962402 1121.278320
-27.847528 2062.107178 1116.790161
-103.559273 1771.754761 1315.672729
-135.365891 1756.426880 1210.722168
-279.885040 2132.771973 984.201172
-56.789459 1834.465088 1196.732178
-227.471497 1703.633301 1280.838135
-209.513596 1727.118774 1227.525269
-33.124416 1980.470581 1006.270935
-54.470432 1889.101074 1160.429565
-249.129349 1807.404907 1105.500977
-91.260941 1882.901001 1007.771179
-69.579659 1819.719604 1150.082153
-132.815308 1906.390869 932.070862
25.346237 2010.107910 1144.616455
-114.905151 1845.363159 1308.086426
-106.811729 1966.225098 979.724365
-278.488464 2183.403320 977.442139
-22.426949 2015.861450 1068.198608
-183.556747 1908.809937 912.713196
-168.624557 1857.380005 1001.715820
-291.509460 2163.531494 1001.911926
0.732605 1912.249268 1005.118896
-52.992546 1857.766724 1135.781006
-178.398666 1721.327271 1270.976807
-43.858196 1906.315308 974.990784
-114.492714 1823.970825 1131.019653
-226.623917 1971.729736 896.200806
-261.448151 1834.209595 1041.159546
-276.899567 1808.472412 1053.378662
36.002338 2042.971558 1147.792480
-98.741371 1849.727539 1091.730347
-370.375854 1738.601685 1136.503418
-72.722519 2023.454834 1024.597656
-124.579880 1859.934326 1309.146729
-28.524208 2078.398438 1060.338013
-37.501556 2046.943848 1103.639771
-9.066193 1996.897339 1012.613953
-251.139450 1811.040894 1092.781494
-111.873741 1916.079590 961.147156
-107.125450 1734.689453 1284.963867
-25.217134 1969.889038 1011.638123
-286.232178 1718.952515 1202.456543
-289.141113 1775.593018 1094.164551
-69.120811 1851.049683 1192.356567
-281.934845 1839.407227 1008.976624
-383.720734 1732.680664 1142.074341
-39.187950 1877.586060 1118.153320
-273.469147 1779.786499 1134.802246
-13.202399 1999.470215 1012.071777
-76.690910 1869.223877 1023.897583
-101.296097 1944.598877 952.962341
-193.160660 1933.320679 887.528625
-276.592133 2142.061035 1005.409607
59.693932 1922.091431 1166.987915
-127.630905 1766.843628 1344.475464
-89.012146 2064.454834 1048.747803
-223.522690 2013.225342 933.769226
-187.623764 2098.583252 1027.937256
-133.841385 1967.502197 952.264771
-35.713142 1965.897217 1007.547424
-239.261124 1921.963135 894.273376
-140.331558 1709.815063 1306.664551
-260.205139 1866.423828 985.675781
-157.400284 1890.643921 942.192383
-169.559143 1709.575684 1250.072388
-68.425049 1858.391968 1074.150269
-344.481781 1707.101685 1194.215332
-93.869583 1989.749756 984.293457
21.647703 1902.803589 1147.753418
-185.808655 1843.003662 1063.413696
-73.937340 1824.262451 1121.285522
-13.288691 1897.883179 1041.301270
-291.095612 1768.359253 1166.015015
-206.468170 2007.063110 924.132629
20.932774 2016.673096 1147.184570
-97.093727 1790.834961 1248.144775
60.463181 2018.615723 1134.707275
-202.274643 2022.191284 947.701172
-143.338181 1989.540161 949.785339
29.988997 2006.975098 1141.761841
-33.642208 1902.088379 1106.120972
-277.438324 2140.713867 982.837036
-228.989609 1924.028320 891.581238
-302.384552 1831.450195 998.464600
-230.877029 2117.054932 998.848450
-305.265045 1837.580322 1018.799744
-139.370438 1750.145996 1219.479370
-82.271141 1796.273926 1162.625244
-344.864685 1751.769775 1117.904297
-163.620239 2015.664063 967.597412
-67.670174 1839.668579 1117.920410
-0.011596 2000.360718 1017.700928
-188.646454 1843.461426 1051.341919
16.058708 1914.251587 1142.526978
-108.066628 1752.304321 1225.738770
-191.516663 1746.247437 1366.300537
-197.336227 1788.642456 1398.229858
-121.724586 1884.890869 995.806091
-60.838116 1834.200928 1129.896118
-140.284470 1715.455444 1324.569214
-282.256836 1858.386963 978.320679
-64.729340 1902.543701 971.757507
-79.481018 1956.719116 956.166748
-33.570984 1874.390015 1052.445801
-133.956146 2052.756836 1011.796387
-216.884995 2023.739380 930.399048
-290.553497 1823.831177 1025.368896
-5.347165 1920.648315 994.004578
-87.466621 1785.701782 1189.993530
-364.336609 1725.377441 1114.681030
-154.465317 2030.542603 968.498657
-14.199479 1899.806030 1146.362549
-157.342758 1899.436035 939.959961
-321.218445 1768.619995 1092.466064
-247.714172 1788.358154 1150.062988
-193.650833 2033.219482 963.954834
-250.911041 1848.599243 1045.275269
-29.474426 1902.070557 1003.969604
-168.865784 1707.577026 1275.783691
-27.414742 1920.745361 1108.979370
-30.741814 1916.275391 997.276062
-36.972137 1907.916382 1107.228516
34.130310 1946.478516 1165.939453
-78.423119 1917.838257 983.944946
-293.645782 1819.930664 1030.499023
-191.425308 1991.929688 925.248352
-126.100304 1761.889160 1296.535034
-99.311798 1814.251099 1130.546753
-101.737167 1879.130127 1014.099426
54.590275 1927.129272 1157.578369
-185.008881 1871.495361 1081.604126
-86.125244 1828.250732 1199.393799
-112.817291 1864.008423 1008.319519
-254.296417 1848.679932 1042.704468
-153.913315 1781.147583 1180.632568
-13.411572 1925.864258 1026.334717
-347.406311 1734.848755 1203.763306
-139.241318 2058.844727 1014.941284
-77.560127 1963.616211 982.145264
-150.701370 1798.877197 1154.492554
-301.688843 1848.128174 1002.614685
-118.760040 1748.762817 1248.260132
-102.057281 1756.010498 1320.666382
-240.707230 1982.367676 902.047363
-232.246552 1903.576416 925.817932
-219.653107 1751.369873 1185.607300
-15.342297 1985.772827 1043.033936
-243.892349 1721.975708 1322.244629
-30.710377 1955.137207 1067.052246
-183.491211 1888.707153 951.742859
-100.292709 1897.413330 966.203064
-204.313324 1977.886353 910.609741
-87.185837 2011.964111 1006.357117
-60.466499 2021.701416 1023.771729
-238.351624 1915.708008 889.650757
-220.471252 1904.783203 1029.333374
-8.984648 1891.591431 1145.956299
-248.547501 1798.721802 1085.479980
-70.611893 1902.095947 977.127869
-274.638092 1806.671753 1069.077881
-304.203430 1788.875610 1068.345215
-172.677109 1703.575317 1276.672119
-15.293571 1989.793213 1043.055542
22.403831 2005.193481 1130.952637
-334.946075 1732.840454 1152.393799
-43.724495 2050.269775 1041.229248
-217.329803 1863.733765 990.630981
-68.631500 1873.972900 1022.092102
-231.924026 1830.481812 1073.440430
8.217793 1936.982422 1182.131104
-99.338425 1987.198364 978.752136
-95.857445 1773.154053 1206.321167
-62.169968 1889.093872 992.518005
-75.067383 1896.598267 976.610413
-287.022705 1843.152832 1000.438965
-3.733894 1930.570313 1133.840820
-16.395708 1946.064941 1005.645203
-101.425346 1765.090454 1244.321411
-189.729156 1896.605591 935.316406
-44.708324 1965.123901 1006.112000
-334.205139 1743.154541 1146.715576
-117.760826 2029.350342 1001.737610
-157.356812 1844.834473 1047.891724
-159.167038 2002.794434 963.634766
-67.627998 1838.748779 1124.291016
-127.349937 2102.852783 1051.810181
-29.881439 2018.724243 1026.559570
-322.203125 1754.231567 1120.060425
-305.790833 1749.150757 1154.361938
-348.156158 1764.468384 1073.470581
-111.764343 1799.436523 1167.095093
-195.065231 1880.932739 956.167664
-120.034393 1764.151733 1264.744507
-43.142540 1877.789185 1065.746582
-7.902128 1975.690918 1035.371704
-258.804962 1779.886230 1113.675415
-52.990490 1868.564331 1108.461426
-115.043388 1853.844482 1041.723877
-209.903458 1839.595215 1063.085205
-287.333801 2179.930420 1013.075989
-179.038574 1902.214722 924.888123
-214.038391 1890.275513 1038.553833
-89.310028 1901.424683 959.409912
-20.525961 2030.348633 1063.330444
-32.066517 2026.843628 1107.629272
-391.564941 1708.623169 1198.045044
-241.973618 2020.893921 924.776489
-113.752159 1765.440674 1236.417725
-19.065203 2002.820068 1105.106445
-145.831497 1900.532593 951.775818
-122.881470 1785.984619 1174.469238
-283.312256 1739.663574 1212.501099
2.481681 1929.674927 1007.804382
-17.635481 1994.745483 1126.883423
-23.694025 2112.876953 1071.289673
-90.756310 1904.261963 957.644348
-255.862900 1879.937134 930.309937
14.397001 1948.301392 1169.746582
-287.490356 1801.720825 1076.778809
-38.404137 1892.504883 1102.380493
-53.422703 2087.091797 1152.500732
-33.243557 1885.776489 1164.484619
-215.641998 1774.041992 1151.401245
0.519955 2017.106567 1124.847290
-359.148315 1764.311401 1099.550903
-234.297318 1856.898071 1035.843018
18.197033 1900.995117 1144.805176
-30.802591 1925.009277 1069.354370
-42.741581 1986.177002 1098.266357
-202.482361 1935.658813 895.980957
-340.213257 1731.418823 1146.915649
-311.643463 1794.176270 1060.486084
-2.924480 1917.572998 1015.657837
-108.265587 1967.604126 968.430725
-14.237394 1962.506470 1044.178223
19.850122 2033.303955 1138.817993
-141.866974 1854.227905 1019.291504
-115.199242 1861.114014 1072.044067
-40.006779 1910.043091 1084.916748
-36.208210 1891.040161 1126.045776
-22.717056 1896.497681 1109.195923
-262.793945 1810.510010 1085.538208
-51.684002 1877.782837 1029.427612
-34.057865 2063.109863 1039.457031
-136.891647 1896.537964 949.019775
-41.228065 1894.097534 1113.775391
-83.162140 1829.161987 1117.776367
-249.706299 1847.873169 1008.939758
-175.622925 2055.500244 990.259460
-383.747192 1736.190430 1133.231934
25.363516 1928.545288 1149.123047
-326.236176 1729.200439 1249.855713
-298.505005 1711.953247 1220.062378
-247.908081 1851.791626 1015.721497
-62.898758 1806.439087 1167.490112
-80.397514 1806.449829 1155.292480
-245.563782 2036.464722 915.619934
-330.724976 1737.204224 1142.836670
-131.030518 1891.145874 943.706299
-70.729584 1921.748657 983.222534
-209.116638 1924.323730 859.091553
-22.745113 2054.200439 1112.048950
-351.751404 1748.361572 1114.007324
-120.277397 1761.265503 1271.071655
-34.618599 2064.336914 1045.806641
-50.932301 1926.413940 1098.734375
-296.278748 1834.254395 996.776917
-151.203705 1883.140625 981.815186
-102.401932 1775.779541 1247.598877
-149.324677 1959.965454 931.693420
-222.902664 1770.089478 1168.636719
-330.818756 1774.668701 1185.663574
-274.740356 1818.528809 1031.724976
-66.309464 1847.769653 1114.050781
-223.686127 2180.418701 1036.990845
-64.577675 2029.992065 1034.994751
-191.410095 2060.581787 980.619934
-218.321625 1857.438965 965.695251
-208.986893 1777.130981 1166.478394
-28.362074 1889.568115 1042.971924
-147.381317 1892.975464 948.106140
3.534016 1951.992676 1150.869141
-390.293762 1789.713989 1282.577393
-299.847168 1733.570313 1298.880981
-182.950287 1697.537720 1280.900635
21.843582 1899.613159 1141.726685
-64.540283 1972.295776 1000.950684
-125.637444 1730.659668 1300.291504
-36.347584 1900.569336 1016.608337
-2.815332 1921.574219 1000.877808
-269.392944 1827.632568 1018.218201
-26.811974 2049.506348 1056.622803
-111.292656 1957.436279 949.553955
-291.356567 1783.631714 1076.322388
-164.773941 1725.783813 1240.736206
-169.529251 2087.410889 1003.552917
-281.933807 2128.578613 979.425415
-40.865860 1958.067139 996.946716
-183.340927 1768.311401 1175.731689
-19.057245 1909.654785 998.472656
-82.664177 1864.142700 1233.567261
-34.324333 2070.224365 1103.907959
-84.807320 1901.571533 987.787781
-123.576439 2009.267090 987.108887
-240.237839 1779.470215 1145.680786
-225.314453 1869.623413 967.469849
-104.341667 2075.861572 1063.378418
-178.995071 2125.259521 1025.173218
-24.418491 2032.286865 1038.771240
-114.349876 1870.682739 991.773499
-142.466675 1840.200195 1081.892578
-110.427734 1774.741699 1248.540771
26.566120 1878.416382 1178.744751
-13.985235 2082.909668 1042.084595
-147.365356 1716.000244 1279.911743
-329.219849 1725.953369 1202.847534
-245.194214 1915.158203 908.941589
-73.117874 2142.088379 1089.625122
-185.198563 1714.454590 1250.556274
-56.306431 1872.327759 1120.553223
-226.227905 2073.613037 967.287231
59.828289 1890.983765 1172.655029
-95.674347 1791.395752 1185.652832
-236.339600 1700.712158 1260.623169
-127.627861 1880.279785 980.036926
-22.446070 2044.623047 1061.045166
-174.513199 1714.017212 1277.570557
-63.383141 1881.033203 1012.785156
-168.974136 1917.528687 933.303223
-147.348953 1733.657959 1249.429932
-13.715321 2032.073975 1122.066040
-8.298081 1942.921997 1041.513672
-173.347733 1931.416016 922.009949
-128.349701 2032.951294 999.285706
-18.896193 2084.871582 1135.357056
-59.010933 2021.609619 1031.784546
-263.351624 1834.184937 1065.196655
-367.579498 1740.910034 1124.999023
15.314145 2024.827881 1128.214478
-260.060425 1697.475952 1239.973999
-218.196426 1751.345093 1192.185059
-120.520721 1905.726929 931.172546
-129.072418 1750.395996 1224.878906
-95.456314 1781.547485 1248.733521
-212.608139 2169.601318 1054.203369
-129.356232 2036.131714 1000.903015
-356.791199 1762.474731 1096.063232
-110.811897 1730.619385 1285.067627
-13.479146 1938.558594 1031.190918
-287.012939 1820.520386 1026.423828
-93.589760 1779.393188 1185.211792
-174.291153 1883.198853 963.901245
-187.232269 1803.818848 1124.507324
-388.288879 1693.354980 1224.281006
-24.855181 1896.362549 1134.517944
-207.680054 1885.295532 1047.322144
-53.676743 1909.292480 970.461670
-374.742615 1724.898682 1122.297119
59.529728 1934.645142 1137.897705
-106.141960 2141.640381 1093.389771
-182.421951 1921.697876 898.587952
-68.518135 1865.086182 1053.990234
-200.710678 1756.481567 1186.606689
-14.095382 2068.632813 1132.981445
-200.664093 1787.683594 1164.658447
-115.431190 1987.297363 965.312866
-13.650734 1943.889648 1118.556396
-213.720428 1980.450317 916.787659
-38.014450 2101.125000 1104.098145
-74.253242 1874.004395 1037.139771
-93.067497 1881.760864 987.707764
-283.602386 1809.220581 1066.783081
-127.300163 1870.441040 1016.092651
-118.201080 1843.549561 1110.085205
-223.817200 2113.082275 1003.232727
-149.142914 1736.088257 1235.445313
17.115313 1945.477783 1156.696777
-47.962173 1841.884033 1185.061890
-252.795990 2061.637207 917.254578
-136.111343 1815.656616 1139.609741
30.206438 1924.684692 1152.971436
-107.521973 1806.684692 1281.754883
-61.686874 1820.235718 1148.236450
-244.804962 1862.385254 973.113708
-7.026919 1982.734131 1008.276672
-320.066864 1802.603149 1067.165283
-89.006348 2009.370972 996.960876
-41.705585 2103.611328 1083.519287
-91.920464 2116.691895 1072.012207
-78.516525 2030.221802 1032.618530
-178.140198 2062.944336 1006.497986
-216.678650 1804.254639 1126.514648
-344.690277 1719.629639 1179.654541
-278.174622 1784.766968 1103.379272
-106.062523 1775.900513 1210.869507
-31.022795 1894.938721 1136.758301
-164.223480 1885.928467 1096.204712
-128.406311 1729.750000 1279.508301
-173.077820 1759.663330 1199.730591
-148.987305 1906.361572 935.351013
-118.446777 1897.558228 951.475037
-33.512749 2094.472656 1066.483887
-158.807968 1882.891602 976.100342
-141.437042 1990.842407 955.372009
-190.728088 2086.572510 1005.620483
8.309142 1895.657837 1155.399048
-161.952682 1772.626343 1190.059326
-264.145782 1811.506226 1077.425903
-335.081696 1740.126343 1156.023804
83.418633 1892.259277 1176.551636
-246.132507 2034.738403 902.225342
-62.764786 1990.641846 1019.407104
-178.752838 1723.735107 1347.548462
-204.620911 1996.186523 920.723083
-339.700439 1754.828613 1116.316895
-178.543167 2002.860596 942.314880
-121.603516 1738.666992 1255.174805
-115.806900 1909.330444 953.620728
-347.600006 1700.018433 1203.203613
-116.399368 1958.435913 967.701782
-75.771965 2021.382080 1023.430054
-76.195580 1837.785889 1096.187866
-95.776848 1779.100708 1184.035522
-45.986656 1952.917358 1099.162720
-2.658611 1960.808960 1018.672729
-292.187225 1792.687988 1072.887817
-92.629929 2108.224121 1081.876953
-316.234650 1753.719971 1132.796265
-85.110291 1981.943359 986.398376
-114.944992 1783.718872 1224.704834
-108.301064 2080.206543 1048.516846
-18.735350 1913.754272 1030.374268
-25.158617 1895.838867 1038.995972
-78.884674 1784.277832 1222.075684
-336.051178 1743.268433 1131.722046
-135.289063 1985.397705 959.678284
-351.229248 1710.584839 1173.553589
-102.796242 1838.241333 1108.758301
-191.329559 1875.466187 967.098572
-62.703995 1840.423828 1100.807007
-187.832352 1997.146118 950.517456
-145.121750 1763.335693 1208.583374
-144.825623 1866.625610 993.390015
-69.317894 1989.895752 1141.318359
-67.610786 1889.816284 988.960571
-218.828400 1923.243652 898.623108
-74.442520 1783.517578 1228.194824
53.166195 1925.334961 1166.675537
-177.942566 1938.004761 888.073730
-81.818993 1903.348633 975.681030
-53.686058 1827.029541 1180.688477
-9.929325 2001.824097 1052.052490
-115.856094 1761.090088 1266.421875
-232.119904 2161.309570 1038.412964
-70.807327 1852.781616 1214.862061
-181.325119 1864.844360 1021.830872
-221.075424 1755.575562 1192.823242
-6.263996 1928.187012 1133.563599
-182.183685 1983.223145 914.310974
-31.139141 1925.182129 975.824524
-34.324734 1915.160767 1010.718567
-23.814936 1919.301880 1018.222229
-241.301102 1959.726685 896.189270
-70.374245 1910.432739 958.105164
-140.299042 1863.508301 1006.065857
-262.288086 1851.464722 1018.387146
-120.288620 1749.949585 1331.588623
-47.297295 1895.054443 990.744507
-273.400116 1843.677368 1012.765076
-252.278122 1828.432007 1061.535400
-143.223251 1791.463135 1167.416138
-234.056366 1789.170776 1124.979614
-151.775757 2019.585449 962.676880
-31.920221 2099.563721 1080.416992
-32.453476 1899.000977 1102.110596
-29.757757 1927.539429 1129.544678
-102.868217 1797.154541 1151.902222
16.509026 1938.525635 1142.776123
16.423395 1922.140869 1141.763916
-27.291636 2036.890015 1080.498657
-300.040588 1814.790161 1030.425537
-130.696198 1802.869629 1150.464233
