ply
format ascii 1.0
element vertex 1355
property float x
property float y
property float z
end_header
-865.039001 1995.661133 791.690186
-924.864502 1773.933105 772.714172
-877.250000 1844.804321 617.390259
-996.149780 1797.132813 560.393616
-835.602417 1865.213989 673.394836
-1017.687744 2069.517334 722.985718
-940.777039 1820.736694 565.464111
-849.752930 1844.317017 708.435852
-921.389893 1786.217041 681.946716
-1039.606812 1867.806885 531.109192
-1030.309570 1746.307617 585.530273
-943.175781 1700.797607 888.147522
-907.228088 2033.026001 739.858765
-862.477478 1887.317627 767.436157
-879.711243 1998.299683 719.409729
-1154.502808 1996.680542 599.471497
-897.953186 2028.916016 713.403564
-851.871216 1875.136353 790.380249
-1026.164673 1659.503418 841.720642
-900.353210 1815.487671 627.313232
-940.937500 1692.210083 902.720947
-991.545227 1665.509644 924.827881
-998.091431 1615.214355 962.463989
-889.720154 1786.628662 854.085327
-843.753052 1842.568604 719.356018
-914.881348 1796.426880 641.881409
-881.817444 1747.235352 876.677795
-1104.487915 1635.303589 732.692993
-829.991699 1869.573730 673.732483
-893.792358 1954.090088 765.103699
-801.402649 1911.675049 822.325928
-1017.486694 1905.040039 582.845764
-1018.428772 1695.446411 756.250610
-897.651917 2018.052856 722.308838
-863.467529 1810.312500 860.621033
-864.017517 1996.351440 805.622192
-1035.461304 1856.271118 533.819214
-1070.100708 1635.440674 869.344238
-880.216736 2024.110474 795.078308
-1052.148438 1690.557373 710.489258
-1124.926147 2043.851563 631.032532
-853.592041 1966.624756 701.041565
-843.557678 1893.228882 801.841309
-920.130859 2041.563232 792.307922
-839.713623 1842.157837 751.271912
-972.702515 1709.047974 1034.669434
-958.084473 1698.117920 862.844666
-860.267639 1840.968994 677.868958
-862.344177 1919.144531 745.517456
-955.433838 1729.254150 816.498535
-1090.463867 1647.295166 744.398865
-1029.342651 1698.821045 712.457947
-940.365784 1749.574463 984.303833
-968.594421 1655.142090 947.304810
-1072.679810 1675.853149 707.111023
-1002.567749 1652.527466 929.180603
-883.869507 2002.269897 706.312012
-1021.127563 1993.110718 645.820251
-870.149841 1776.600220 861.223328
-860.253784 1835.691406 699.049744
-1161.953491 1631.029053 914.253357
-876.735901 1840.379761 666.598694
-944.075745 1857.056152 598.924866
-973.272583 1729.765137 798.428528
-980.485535 1766.527466 662.765137
-959.401367 1804.763062 575.518066
-918.871704 1828.348633 903.648621
-886.853577 1827.623047 662.943298
-977.923035 1997.270630 671.521057
-961.468567 1806.423584 580.587402
-1113.631104 1956.475830 581.623108
-856.728210 1902.739380 735.024536
-948.341064 1904.044312 619.672058
-943.044373 1788.183716 666.872375
-872.077026 1763.691162 891.347595
-907.671997 1740.004761 894.396484
-995.168457 1707.436279 792.552734
-1077.039063 1699.833008 675.293762
-956.129028 1657.784058 967.566162
-1001.219788 1890.293701 588.453674
-1070.551514 1623.968872 859.733704
-1046.689453 1710.050171 622.963135
-983.841919 1813.844116 546.764526
-867.095032 1984.385620 780.512268
-912.856750 1946.005859 666.926575
-1009.904175 1707.957642 780.573730
-963.546692 1993.684326 675.924255
-1016.893311 1705.006226 760.111267
-773.148987 1914.920288 875.948425
-909.542542 2027.618042 743.900574
-872.854370 1813.758179 848.227478
-838.614746 1882.051880 808.113831
-823.579712 1877.956665 825.993713
-1027.320801 1977.405151 640.306702
-982.091187 1976.142822 652.439209
-1175.217773 2026.971069 603.455811
-921.818054 2042.014282 725.270142
-1031.002808 1708.465210 761.159790
-850.762024 1851.264282 705.517700
-986.948120 1945.021851 622.522705
-1019.669800 1627.544556 941.271790
-960.153931 1700.366577 857.952026
-987.931274 1992.712646 662.405762
-921.609619 1717.932007 952.077393
-1004.439270 1812.678833 515.709473
-1129.839600 1995.952271 618.846130
-959.653198 1740.771729 787.282593
-1127.726563 1987.037964 567.447571
-1005.620300 1765.392944 702.224060
-1006.073730 1743.026367 698.703918
-1016.732239 1770.569946 599.896240
-824.812378 1862.540283 706.756409
-1046.217651 1709.087524 1037.165405
-1050.874756 1686.909424 666.916443
-1131.919312 1549.437988 812.071167
-989.049744 1795.221924 572.288818
-989.029236 1623.649780 958.319458
-1072.152222 1666.500122 678.974792
-1012.669006 1790.893677 559.734619
-995.511658 1787.292725 675.444946
-1024.985352 1847.993530 553.259644
-894.985168 2014.110840 697.977722
-868.447021 1822.393433 707.287903
-1133.773926 2028.044800 625.990479
-968.465088 1812.463257 556.655334
-964.159973 1701.662964 871.773376
-929.472534 1699.135010 940.818359
-797.065918 1916.854126 832.983215
-869.745422 1795.302612 807.244995
-849.278931 1924.720093 718.415100
-893.408813 1906.329834 782.932495
-822.283997 1898.764282 830.449524
-877.280457 1949.876343 681.853271
-1017.379089 1756.589355 658.000061
-1004.086792 1983.060791 656.071472
-1100.860229 1597.730225 825.908264
-878.193787 1805.971802 758.913391
-930.212280 1703.540527 885.244751
-921.265808 1859.626831 591.530640
-1024.541504 1848.851074 522.548889
-875.196716 1843.520874 651.163574
-1120.173340 1607.435547 763.147644
-784.611389 1904.153931 865.326843
-957.566284 1799.476929 750.780701
-937.001465 1696.111450 977.636047
-873.131348 1796.201660 781.955261
-804.470642 1922.981201 837.536072
-992.501587 1826.545044 727.747498
-864.111877 1804.019775 818.311890
-790.209656 1929.880981 858.932800
-964.858887 1857.475098 558.783203
-1028.003418 1726.972290 727.255554
-1061.867188 1968.589233 603.694946
-863.265198 1886.076172 783.201538
-987.335632 1891.809082 578.526184
-876.429321 1830.520142 678.925354
-863.944763 2009.673950 800.359070
-924.936340 1713.768188 880.897034
-1054.420044 1741.397583 623.415649
-881.067871 1852.485352 619.764709
-854.080505 1883.770020 803.532837
-1083.354980 1730.063599 1034.696289
-900.034973 1734.881714 914.510315
-1073.771362 1655.717407 766.080200
-867.680054 1806.031006 844.976074
-878.273621 1897.112061 769.820862
-1033.686646 1606.581665 934.313354
-877.583374 1805.954590 807.794617
-790.668152 1923.181519 866.145569
-856.494568 1944.531250 741.506531
-1005.780212 1810.030396 545.933594
-993.436951 1675.356201 904.720154
-1020.653870 2012.226685 660.922913
-995.946167 1630.251831 998.012939
-992.589050 1908.327148 616.937378
-849.567322 1865.030151 804.323608
-849.608276 2010.988525 800.993286
-894.491211 1767.634521 822.452759
-853.039551 1892.700317 666.037842
-801.276245 1876.525391 857.091553
-997.749146 1640.209961 921.840515
-912.571899 1721.992188 893.221497
-1143.771484 1984.576172 585.232300
-977.761658 1770.363647 659.361450
-766.847473 1919.640503 854.079590
-917.148682 1792.173340 669.193970
-1018.475830 1886.397339 572.744324
-997.477173 1765.054321 615.166260
-785.199585 1929.536133 854.829956
-834.001465 1891.290527 718.784119
-983.084473 1709.321899 1038.901489
-927.524292 1709.255615 983.241516
-947.867676 1719.990845 851.810364
-1092.353149 1938.565796 593.485474
-896.015808 1820.237183 630.866150
-890.602905 1961.259277 689.745300
-1027.190063 1853.671875 528.782166
-1019.958862 2047.770630 702.701599
-995.237854 1722.730103 774.276306
-934.161743 1689.571655 923.189026
-904.081055 1804.447510 741.184387
-1010.859497 1704.883545 788.985535
-1074.782837 1650.224854 804.835083
-1012.989746 1785.898315 546.230591
-978.132263 1675.902954 888.622009
-1060.194092 1626.254883 868.141541
-1068.228760 1657.419067 740.777649
-911.546753 1844.580078 559.134155
-850.284546 1851.957153 753.425842
-929.130493 1780.341187 717.175476
-976.429688 1674.676636 886.161987
-936.151367 1769.304443 784.698669
-1046.093994 1969.904785 613.275757
-1093.934937 1608.546265 828.902222
-945.589905 1686.753418 961.130493
-866.055969 1919.897461 822.449707
-986.183289 1973.898804 663.327576
-1061.424805 1687.111938 657.828674
-920.482971 1836.917358 568.471436
-1005.228516 1731.840454 737.062317
-869.730896 1984.737793 768.968018
-1142.609009 2001.591064 606.485474
-1014.050110 1843.503052 535.229431
-864.333496 1835.132690 777.889160
-1094.632202 1640.886475 743.529358
-984.344849 2042.994263 717.885986
-1020.958801 2046.334717 688.003601
-932.241089 1747.590576 839.833374
-1023.405273 1875.136230 565.431824
-853.419739 1879.402710 770.064575
-868.403564 1833.309448 789.257019
-996.450439 1784.085083 561.025269
-916.508423 1795.574707 692.011719
-977.434082 1780.181519 598.951172
-884.596802 1764.277832 847.653625
-921.610962 1929.135010 807.815796
-866.416138 1827.792725 685.132690
-874.304199 1848.409302 630.105591
-946.853943 1683.651001 935.095337
-1038.393311 1725.152222 643.884888
-851.190430 1893.305176 810.239929
-1094.755371 1948.441040 552.537842
-837.723267 1908.346313 820.463074
-1072.989136 1900.237549 553.819885
-893.134033 1839.544556 836.426025
-1042.250610 1960.387451 621.069458
-911.766479 2032.337280 777.919983
-849.441467 1835.917480 765.205566
-890.800842 1849.774658 626.047058
-863.390747 2021.533325 803.322632
-866.490967 1822.490479 714.873901
-839.224854 1912.790894 790.430908
-965.844543 1770.474731 668.801697
-1033.624268 2064.563477 713.557251
-1102.490967 1599.423950 834.883911
-1009.721375 2066.897461 726.659241
-1032.962769 1678.873657 797.890869
-1027.101685 1742.139038 635.236572
-878.246216 1872.818604 780.008118
-913.248291 1716.480835 992.138794
-1046.423462 1729.423340 613.354248
-957.935303 2063.073730 720.167969
-840.081299 1845.908936 720.102295
-953.330322 1655.342651 957.633301
-879.866028 1989.422363 704.235352
-865.827454 1810.961670 809.100037
-1007.315002 1783.818726 566.486572
-968.740540 2009.842407 698.446899
-783.722412 1896.487549 868.125244
-864.111633 1892.786011 797.818481
-913.986877 1861.354858 894.532837
-1044.561890 1677.639038 788.402954
-1083.605225 1965.602051 599.842590
-1049.858887 1634.576416 867.555847
-1029.160400 1667.407959 835.973816
-961.967651 1806.942993 585.283447
-1098.483276 1609.518555 816.231018
-1032.353027 1678.828247 809.577576
-996.647644 1746.090576 720.486694
-923.784302 1738.904541 920.297852
-1007.703735 1612.679565 972.895569
-1008.646179 1744.403198 651.750610
-911.133362 1826.600952 612.596680
-844.437866 1856.408203 706.348083
-806.617493 1923.884033 856.015869
-1010.945923 1838.625122 544.735352
-884.736511 1960.141602 787.641479
-819.660217 1917.304321 834.418640
-884.787964 1790.164063 815.091919
-967.993103 1969.187744 664.529175
-1005.024109 1707.543457 789.731750
-901.209778 2023.126221 738.164795
-902.953674 1928.151855 665.178894
-960.609253 1783.855103 748.850708
-863.667969 1910.160645 740.581909
-958.777344 1977.533936 676.483643
-823.964050 1873.154175 683.360352
-960.573242 1917.094360 622.900940
-903.163086 2002.471558 752.905457
-948.988892 1855.588623 583.934998
-1001.093201 1762.307495 610.500671
-1074.755615 2011.362793 656.356628
-912.971252 1811.008057 611.389648
-980.669922 1621.746094 979.662903
-967.496033 1716.393311 849.733154
-1002.954224 1675.318604 858.090759
-981.707703 1705.581665 811.425171
-927.241821 1715.815918 866.754761
-961.214722 1801.629272 576.838379
-1010.076355 2003.615356 674.180298
-1136.253174 1996.007690 576.534546
-938.795837 1856.234131 590.849548
-871.464172 2007.908203 781.499878
-930.804504 1927.832153 647.728027
-1054.904175 1682.212524 758.410950
-1023.643677 2052.483887 706.949463
-1051.430786 1885.984253 552.610229
-939.671692 1850.470581 570.564148
-869.180847 1891.725464 661.086609
-1123.077515 1982.577637 563.060059
-912.037659 2014.681152 737.152161
-901.030945 1879.577148 628.659973
-1029.512573 1999.345215 656.446960
-863.178833 1841.452148 665.628662
-1023.390320 1660.799316 844.357971
-1095.859619 1612.094604 814.361694
-787.823425 1900.907837 852.120789
-875.334290 1989.934326 752.949768
-1030.795654 1716.106934 615.008728
-948.072327 1800.784668 626.919189
-997.486633 1823.152466 532.549683
-954.234192 1926.871094 641.588867
-863.155029 1787.944580 845.625305
-929.474915 1783.084717 674.156677
-888.163391 1985.629517 740.396973
-887.076538 1807.362671 711.255615
-923.038269 1994.234741 700.231079
-861.369263 2010.554932 802.710510
-1096.138672 1641.944580 716.223816
-857.123291 2019.366577 802.171204
-1013.108521 1826.956665 529.045166
-832.167114 1936.685181 836.075562
-940.379272 1689.126465 969.092468
-984.230774 1665.688354 907.748596
-832.487793 1902.604126 672.274475
-902.606995 1738.587280 849.937866
-783.975220 1899.448486 854.562195
-804.786865 1905.676025 822.467712
-1085.867920 1604.665161 898.790405
-874.149841 1809.396362 864.091431
-1051.411621 1692.393433 723.288269
-931.101746 1781.868652 758.778259
-901.179688 1860.421265 621.583069
-1086.445068 1607.582764 789.391418
-803.918335 1896.130981 829.456970
-1030.474487 1646.051147 851.070251
-974.013794 2016.201294 699.752991
-1019.590942 1750.608643 620.126221
-805.335449 1912.132568 853.099670
-877.992920 1811.441406 743.091736
-862.406006 1974.062744 702.331482
-1105.471558 1623.660278 756.631836
-957.731873 1907.376953 622.105713
-861.176514 1961.486206 823.798279
-925.734558 1755.888672 801.854126
-1068.304810 1667.876465 734.190063
-1009.200073 1656.383423 892.123596
-1125.901611 1583.656738 805.832825
-947.223267 1661.200684 952.072021
-993.906189 1700.552490 866.040344
-886.521118 1994.641602 715.318054
-895.921875 1772.873657 842.570190
-911.832397 1840.230225 563.621216
-1047.289185 1675.470703 653.899658
-833.227051 1929.704102 696.815979
-886.502930 1944.871338 678.530396
-865.371216 1990.655640 785.554077
-916.116028 1734.366089 980.533386
-911.025818 1791.504517 770.790161
-979.565247 1950.354980 643.466797
-1013.978516 1784.643921 705.250732
-877.238831 1967.746216 815.658386
-843.361816 1917.934937 684.452637
-1051.655273 2064.793945 686.328735
-945.619385 1758.328735 773.728516
-973.580566 1798.031250 606.996094
-852.730896 1881.096680 758.253357
-1028.737671 1690.291748 739.432129
-1029.781982 1737.893555 631.614685
-883.230530 1972.149902 761.283752
-978.790222 1761.558350 661.786621
-920.238098 1737.151489 950.746399
-1066.601196 1670.928467 742.223938
-859.907349 1815.298462 755.449707
-1094.160522 1622.904175 769.013855
-1027.703735 1678.341187 811.922791
-916.615112 1960.555664 683.639343
-860.421936 1971.640625 802.973572
-833.816833 1916.994141 861.784973
-906.396851 1922.219971 656.012390
-922.243042 1734.135986 959.561707
-898.381287 1988.014038 694.968018
-910.937317 1830.525757 590.065796
-983.665771 1692.367798 840.553711
-883.698303 1899.144043 782.227112
-923.490845 2061.963623 730.772278
-936.282532 1893.193481 604.794006
-1031.513062 1956.970215 624.573608
-875.796997 1885.698853 771.089233
-1050.322266 1684.857300 725.077698
-974.799866 1669.570801 898.793884
-1008.117859 1728.109497 695.239197
-949.757935 2070.159668 732.528625
-816.436707 1946.022827 855.131409
-964.923889 1977.763550 672.121094
-864.036255 1840.474243 653.101868
-879.887878 1764.651611 863.965637
-833.406494 1840.572632 741.234802
-854.443481 2015.370850 803.341370
-902.940369 1791.366699 712.018372
-849.540100 1929.830811 675.211304
-838.920654 1838.005615 739.817749
-927.043823 2058.613281 731.376343
-903.843628 1947.299316 814.578613
-1029.941895 1608.247681 937.304382
-1003.342041 1758.746704 650.560242
-932.341980 1807.695679 641.313232
-1040.024536 1867.880371 527.097656
-864.001953 1921.809326 663.924561
-1003.819824 1857.196533 557.302673
-1020.987732 1796.683472 549.332336
-1124.113159 1990.774658 602.594971
-1042.391479 1884.140137 565.033142
-1013.413635 1706.039063 740.547546
-1065.870972 1670.366455 715.067200
-915.804260 1777.497925 754.699402
-948.237732 1707.264404 1021.885925
-910.487427 1819.740601 607.116333
-1133.338745 1990.513428 620.000427
-798.644653 1900.613525 840.918335
-861.585632 1822.626587 725.336975
-915.536743 1796.783447 730.778076
-964.434692 1785.475220 617.818176
-967.639343 1653.798706 968.576172
-963.252197 1897.901611 609.699951
-1013.647461 1604.534790 956.183594
-1007.503601 1665.692993 862.910217
-957.456177 1738.981689 799.454834
-845.900757 1934.292847 712.716553
-1045.518799 1622.802246 896.128113
-872.827942 1839.323120 653.592529
-886.458435 1785.456055 789.407715
-1049.544434 1722.265747 653.522766
-921.726074 1793.050903 660.226135
-1041.521362 1640.004883 897.238647
-902.671143 1949.586182 688.004272
-1029.742554 1704.372559 751.415710
-889.534180 1808.603516 719.442017
-839.573792 1938.581055 686.977295
-938.135986 1782.996826 728.875183
-862.947327 1902.668823 743.090027
-1013.070374 1705.404907 805.299683
-875.517456 2009.722290 683.525757
-1025.717163 1792.871948 551.445374
-1114.933350 1570.375732 831.147705
-891.080933 1944.033081 772.266663
-864.246033 1823.919067 802.782776
-1067.028320 1674.360352 844.083130
-1073.737915 2000.616455 639.665771
-910.325134 1813.714844 654.046814
-1013.318542 1667.113770 885.566956
-1155.738281 1647.863525 931.796997
-991.505005 1677.798218 874.198120
-949.230408 1740.245605 817.502380
-847.334473 1858.684692 693.796936
-908.378845 1792.608643 773.485046
-1143.340576 2010.757935 588.998535
-1119.920044 1974.463379 595.852600
-1007.943787 1739.738281 665.440796
-1065.115112 1651.829956 787.719360
-952.333374 1935.433594 636.361084
-778.130615 1905.875610 873.282288
-935.766602 1803.347778 620.153992
-1026.715454 1830.515747 533.078857
-931.579651 1814.770142 598.237488
-855.532837 1866.120605 782.951538
-882.832214 1813.850708 676.703979
-931.606506 1944.246460 661.495361
-936.740173 2059.863770 731.651001
-887.506470 1798.555176 704.469360
-917.247925 1836.885620 578.887573
-910.169861 1950.471558 782.691345
-874.706543 1803.939453 764.880676
-982.294128 1878.825317 600.376892
-985.618591 1768.329590 636.068420
-988.606567 1757.800781 698.941956
-878.325500 1851.664917 815.140381
-1013.014954 1646.125122 1003.380249
-869.219788 1989.086792 798.871887
-1037.702637 1880.700195 564.352417
-926.395996 2042.044922 741.746704
-997.195374 1788.974487 538.972168
-986.981018 1759.573975 656.051208
-1009.174133 1687.143066 810.657227
-887.668274 1986.421387 779.657593
-822.704102 1926.108154 843.331238
-941.025696 1689.961426 898.103333
-981.866699 1964.640259 641.626160
-954.687561 1645.686279 951.648071
-1008.016724 1691.066650 1042.360840
-1119.699097 1580.020264 818.311340
-1059.279053 1596.990967 902.232422
-1005.391113 1751.664551 646.401428
-929.518005 1833.860107 614.297729
-967.487000 1661.195068 964.171265
-1039.988770 1668.141968 791.653748
-883.471985 1992.402344 771.228516
-1081.355713 1644.359497 697.825989
-953.875366 1860.173096 578.004822
-1025.208130 1728.170654 730.298218
-1023.508667 1870.865112 553.810913
-977.132385 1664.268677 942.087463
-839.662903 1842.620972 734.315491
-933.357849 1700.754517 914.549194
-1025.110596 1727.937134 701.882751
-866.744263 1793.125488 860.321533
-1149.240845 2014.879028 612.665222
-968.057434 1802.002075 573.342163
-1056.125732 2030.418701 671.268921
-977.199219 1777.000488 589.894775
-1021.366211 1688.922974 807.980103
-847.374878 1943.989502 722.802673
-882.336182 1812.256958 694.332642
-1076.370605 1625.576050 931.931213
-811.756653 1900.350830 840.461548
-1034.568481 1901.649048 567.098450
-858.616455 1859.444214 650.019165
-1027.526611 2067.726318 700.408447
-872.456116 1769.633545 845.405090
-896.003784 1806.568970 672.151917
-995.167908 1824.716431 724.880737
-950.955811 1983.936279 689.850708
-951.200745 1876.271118 593.825989
-1019.740723 1872.139893 556.374756
-887.470947 1787.993896 788.609619
-947.359741 1935.396484 646.179565
-824.713318 1862.812012 727.079956
-875.181274 1814.108154 826.365051
-1143.801636 1992.050781 594.412415
-1045.975708 1690.774292 751.377258
-1021.771362 1759.049561 643.459595
-921.064880 1821.911377 634.066406
-874.367920 1891.405151 652.042419
-828.964294 1880.111328 678.617737
-997.635559 2013.884399 684.919617
-1065.191772 1697.302490 676.921021
-922.298889 1703.099121 963.733093
-1083.436401 1923.570557 560.976990
-1001.686096 1872.146606 570.745850
-938.054504 1686.104736 991.516907
-996.853333 1672.383423 877.426514
-906.133118 1822.473999 610.717896
-867.106384 1969.086548 717.927490
-867.655518 1805.218262 838.202148
-973.232361 1982.221313 682.627502
-846.058777 1858.381226 706.047607
-974.956543 1659.087280 916.169800
-931.531799 1788.834473 657.141724
-959.223816 1773.776367 633.089661
-1033.851807 1697.702271 809.887207
-1083.641724 1593.947388 922.691528
-1112.047485 1599.986450 789.754333
-968.656982 1777.694458 650.620483
-944.215637 1713.730835 859.202576
-966.459351 1650.838135 938.217224
-951.159607 1785.849609 653.122925
-882.024658 1802.640625 763.656738
-911.070679 1811.870972 664.079590
-951.735535 1680.969727 977.391418
-942.924805 1956.843994 658.067993
-1012.423157 1761.169556 658.292358
-967.739380 1747.509888 758.124878
-901.968811 1780.152588 927.510925
-954.872314 1773.575806 723.147522
-1045.358276 1656.491577 857.789368
-860.116272 1873.433594 790.416748
-998.718994 1643.077393 937.132507
-921.179504 1732.448242 846.407776
-1059.783813 1661.624390 917.267761
-1031.409302 1718.376709 699.939331
-910.163025 1727.387573 906.324341
-945.767700 1942.901611 821.713013
-1109.161621 2015.705200 628.981079
-1042.157227 1678.554077 784.970764
-897.107239 1736.052856 886.561890
-854.986755 1853.713257 663.844299
-850.137146 1833.713745 757.729004
-854.557678 1931.084717 836.729065
-891.313721 1891.243408 837.246948
-1058.465332 1667.643555 728.532593
-815.863098 1883.541016 841.605164
-894.020325 1898.979126 782.334045
-873.504761 1794.051025 855.374634
-1064.874756 1734.874390 626.486328
-970.956909 1864.479614 581.751526
-1085.476929 1600.635620 899.579285
-1000.839417 1972.272095 653.016357
-990.226624 1696.093140 822.055664
-883.246399 1773.472900 809.911926
-947.295288 1785.894287 980.432434
-1103.501831 1634.972534 759.432983
-1056.595947 2001.666016 644.180725
-927.614990 1972.965088 690.935303
-865.347717 1991.958862 793.314758
-916.963318 1731.038940 892.773376
-909.533997 1788.822754 695.730652
-895.008911 1797.801758 715.795044
-1006.624573 1625.920288 971.384033
-846.409546 1849.576782 696.603577
-1041.327881 1719.538818 656.479004
-943.293884 1666.117798 945.333008
-1004.370911 1764.566650 638.841858
-959.266846 1828.033447 553.171143
-874.432617 1896.326172 775.896301
-915.995422 1783.399048 704.802734
-850.299377 1889.693237 808.830933
-772.713013 1898.542236 866.017639
-987.330688 1996.015137 675.736633
-950.708679 2062.441650 719.661011
-891.630615 1795.257080 730.200500
-1028.989990 1694.516235 725.965027
-978.629028 1997.784302 684.341614
-1123.700562 1991.605713 617.655945
-1017.224609 1863.089844 557.864075
-1046.375854 2007.248413 654.748840
-1036.139526 1608.140503 929.989624
-858.742615 1916.163452 860.586975
-848.221680 1970.749756 819.401367
-960.491150 1730.280273 1035.380127
-991.203491 1709.975342 790.749207
-1004.347961 1796.052612 542.188965
-952.840515 1990.190063 694.324341
-919.753601 1845.394531 902.066162
-1248.626221 1732.427246 950.441345
-868.703979 1935.164307 864.994385
-988.216370 1718.008057 797.174744
-876.357849 2002.480347 777.346680
-914.956970 1796.784180 750.717407
-1126.061646 1955.815186 588.496155
-975.172424 1697.182007 861.158325
-957.330200 1915.963623 629.871338
-960.788818 1726.241089 857.093567
-860.496887 1959.570801 710.382690
-913.075378 1789.150757 778.089355
-968.541931 1770.622314 639.518982
-823.226196 1883.442871 686.159912
-995.103699 1860.081909 566.670654
-941.316772 1677.035278 942.475342
-931.777100 1707.367920 912.711365
-863.220459 1835.175659 816.755798
-983.877319 1659.614868 908.063660
-1104.981934 1656.873169 713.158813
-832.011963 1865.629761 728.883423
-846.930603 1862.269043 660.811584
-856.391541 1980.347412 796.117188
-978.376648 1732.906738 788.994507
-947.464783 1659.667114 974.605042
-1121.178223 1609.899414 793.320679
-921.780884 1698.199829 977.955688
-913.223877 1716.946289 966.986877
-929.784912 1726.884521 1000.483032
-890.100403 1775.505127 884.909119
-894.332336 1975.866333 766.648621
-965.693787 1637.395874 993.128601
-922.248901 1897.669312 628.953552
-854.826355 1947.057007 718.563293
-845.488037 1863.505615 709.485291
-1058.348145 1667.231812 757.470398
-997.888794 1916.169678 608.558838
-777.392761 1917.298462 869.211914
-1065.265991 1965.599365 615.709106
-1043.737915 1679.005005 769.073608
-873.593689 1801.324707 800.270569
-867.089600 1819.687866 729.426025
-941.477051 1765.117310 800.431274
-943.491760 2069.583252 750.431763
-866.299805 1896.326782 769.810913
-901.834229 1795.903442 732.231750
-860.494141 1820.052002 728.080627
-850.360596 1916.943970 680.215027
-1006.109070 1898.163818 592.639648
-1027.732544 2042.250854 709.337646
-1132.953491 1607.151733 775.993774
-958.622681 1681.909912 996.098145
-1147.754395 2021.400879 616.996460
-889.015442 1813.187378 682.506836
-1031.276367 2005.072998 649.919189
-921.329651 1790.291748 707.542175
-910.698181 1750.537231 827.540527
-1061.746216 1629.343262 708.281067
-1039.941650 1718.295532 663.409851
-1070.474976 1654.712158 805.621948
-941.230042 1798.419556 626.562195
-981.481812 1754.733398 713.278198
-944.833130 1801.798706 763.268860
-1106.372192 1616.720581 740.122253
-948.184875 1680.536621 1025.751953
-915.434387 1803.563232 903.904419
-1074.538574 1658.080322 683.885071
-1033.967041 1639.538940 900.404785
-903.754822 1994.188477 769.509827
-1136.382813 1984.161987 593.652405
-923.815735 1836.659058 586.445740
-1120.399536 1612.291382 768.667236
-846.528320 1906.626221 726.437866
-923.399902 1786.947021 738.236450
-828.249207 1854.167603 730.260437
-1070.632202 1677.921265 702.519348
-1025.442139 1607.484375 906.185303
-982.827942 1796.378540 563.893860
-982.879089 1832.843018 558.137573
-834.203430 2001.042969 792.659668
-1053.149780 1672.632324 774.004089
-986.959595 1955.979492 647.542114
-933.345703 1945.801147 667.972778
-1011.384094 1782.278442 546.444702
-796.506531 1892.728271 828.043396
-867.105408 1827.846313 707.452820
-1053.191895 2010.681519 659.675415
-1069.306519 2055.706787 670.845398
-1018.444641 2010.692261 670.943542
-1012.679443 1782.177734 590.123413
-918.531311 2044.549805 721.093933
-893.318420 1763.553223 824.052124
-1010.128296 1828.314819 520.802246
-1033.351685 1719.520020 651.949463
-1088.365723 1624.624634 719.154541
-933.420471 1730.256104 839.567078
-938.025513 1978.604736 690.409180
-844.933899 1845.185059 729.853760
-893.780884 1829.987183 664.254639
-886.993042 1753.514648 878.867065
-1048.100708 1615.747925 926.990112
-927.872009 1759.640503 811.866638
-959.311462 1854.916260 576.962097
-1014.428833 1806.073975 535.131348
-890.461487 2001.580078 734.639404
-974.015747 1912.942993 615.274109
-839.044556 1837.084229 744.760986
-1077.492554 2047.548950 694.659241
-954.353882 1816.225586 567.377686
-954.160217 1818.897583 564.041443
-1003.505249 2040.187988 691.896179
-997.990967 1927.414795 612.516479
-990.154175 1877.445190 576.880737
-1075.165405 1644.928467 776.034607
-927.788452 1713.883057 956.821411
-986.667358 1784.237915 709.434204
-1017.858215 1746.224854 659.454041
-945.411743 1683.977417 950.523865
-876.167664 1821.534912 875.171570
-945.455383 1759.069092 818.628845
-922.688721 1695.951172 949.553589
-912.556335 1807.909058 674.866272
-892.314941 1844.816895 831.334961
-936.199036 1683.103027 988.783752
-851.924072 1846.046875 695.738037
-872.281433 1782.461304 848.065063
-1075.567505 2018.585815 636.187622
-1046.005615 1706.373779 705.684448
-864.790283 1909.041504 677.912537
-1021.196411 1903.312012 584.374817
-968.027710 1711.295898 843.411987
-844.552063 1889.936523 657.373962
-869.047424 1806.683105 707.562866
-876.868408 1787.605103 883.644226
-855.625671 1859.470459 638.947571
-996.100342 1794.404541 702.890320
-974.718933 1768.322388 741.346191
-953.304871 1906.860596 610.218994
-867.520142 1851.164185 640.791870
-838.348450 1896.375610 715.410217
-845.597778 1848.391113 737.225769
-860.364136 1860.458130 795.896790
-847.597046 1891.910034 670.995361
-1026.936401 1757.292480 597.514832
-899.637329 1978.230469 766.650879
-1150.019653 1993.971191 595.690247
-1051.421265 1935.030518 592.137207
-929.023621 1696.705933 981.335266
-785.094788 1925.949219 862.761292
-943.919250 1716.742676 851.956055
-956.021545 1737.423096 1050.262207
-994.859619 1944.608032 628.997009
-931.729248 1756.019165 977.472656
-860.085938 1833.235596 713.222778
-937.965759 1730.903809 831.976501
-965.679749 1944.000732 633.183228
-1033.407593 1744.598022 633.422058
-947.172668 1751.916992 780.442566
-1066.469727 1679.215576 704.188293
-1025.259888 1751.919800 621.286438
-995.345276 1884.348267 577.892334
-832.774963 1881.214233 794.729187
-954.611206 1780.824829 607.442810
-951.995056 1785.223389 625.262024
-861.545288 1983.780151 793.584839
-1126.698364 1560.865967 801.180481
-888.991577 1800.827515 849.906860
-934.397461 1772.675659 758.518127
-794.486877 1939.140503 859.398132
-954.079041 1790.781128 981.555847
-957.680847 1781.034180 623.131042
-1059.414917 1668.094116 766.427917
-971.358704 1758.012207 631.752563
-1002.153625 1734.819336 735.148560
-1064.552856 1663.398193 766.779724
-890.933716 1828.800537 632.435730
-1024.178589 1992.158081 643.197449
-952.278625 1670.558472 916.835266
-971.952698 1959.582397 653.566956
-988.174438 1745.940063 729.251038
-887.223755 1917.474487 672.257507
-928.854797 1732.642212 907.600159
-903.074341 1715.168945 1006.247681
-957.112976 1700.416260 866.428223
-949.284668 1697.545410 879.207520
-836.712219 1914.825195 677.329590
-885.512817 2010.484741 787.919067
-1014.868530 1629.364136 910.734375
-1054.010132 1673.789307 748.717651
-882.698975 1853.072144 841.213867
-979.807678 2034.441772 711.584229
-1042.273804 1641.875610 863.924255
-900.920593 2021.383911 726.010925
-1031.033691 1608.943848 927.298340
-932.002319 1801.464233 622.103088
-893.569458 1940.796875 682.168823
-925.697266 1793.133789 664.856750
-999.675903 1794.225220 566.317322
-864.787964 1966.921631 705.166138
-887.509338 2006.794800 730.187683
-918.681946 1922.758667 668.092224
-1043.379517 1703.780151 729.858276
-941.286621 1694.494751 1004.427002
-895.905762 1746.445557 902.475464
-835.758484 1898.183594 719.422546
-1005.932922 1713.983521 741.085449
-985.426819 2043.720215 717.776245
-794.908569 1931.122437 860.398438
-980.566223 1776.275269 608.870667
-1023.241089 1645.571777 880.059875
-816.846924 1930.235718 843.166382
-992.889954 1839.562256 550.576538
-975.981812 1807.849976 506.887604
-929.042175 1705.874878 929.860413
-1030.906006 1771.283691 579.697327
-985.591797 2075.553467 722.635071
-1132.679932 1590.166260 790.929443
-1001.454895 1672.610229 869.197998
-871.290222 2009.902344 780.291809
-969.392273 1704.250244 1029.260376
-1082.867310 1614.947266 942.752930
-982.729492 1654.780518 927.293823
-972.062500 1630.090088 982.542419
-887.552673 1766.402832 880.040894
-990.801819 1771.679810 615.980103
-974.016541 1656.713257 929.749084
-1069.143066 1911.468384 560.032104
-1018.387878 2046.795654 704.607605
-837.646301 1883.404541 727.335449
-1015.323364 1726.908203 608.990112
-759.726868 1918.102905 866.642334
-889.457764 1835.859131 648.295532
-777.645996 1903.496094 874.578491
-877.135071 1917.806152 754.590454
-1039.591187 1748.502563 607.622131
-940.086853 1772.045410 769.427307
-861.380798 1976.626953 699.242981
-931.106140 1755.440674 988.514587
-1020.430237 1856.056519 513.576965
-870.479126 1873.890869 649.349304
-1023.255432 1761.488403 702.891052
-983.189819 1708.535889 814.599121
-1027.410889 1949.493774 623.857971
-866.062500 1852.535034 787.426941
-916.648560 1711.118042 936.498291
-1042.236084 1696.025391 744.275879
-1031.967285 1730.062988 721.587646
-862.652466 1959.998657 753.219543
-1045.634399 1724.660400 609.197021
-890.297058 1825.792847 825.268921
-1037.524780 1896.907104 567.519531
-904.330994 2031.147095 712.638916
-939.510437 1730.933350 1002.495361
-1037.032227 1754.996826 597.962769
-1003.135742 1926.897217 611.921143
-1059.770874 1645.897949 820.011902
-999.730957 1718.388916 779.070618
-982.277405 1723.198242 786.288208
-985.243103 1656.004517 947.014221
-967.780640 1816.449707 552.809875
-1092.171509 1622.208618 781.352844
-854.324036 2021.317139 809.209900
-866.051270 1841.866089 695.927124
-899.280762 1878.847778 868.189819
-1027.318726 1740.562256 701.448486
-948.048340 1732.177002 848.675903
-1092.410767 2053.379639 670.028076
-991.403870 1921.433228 610.796875
-883.508301 1998.722900 739.829346
-887.197327 1978.057251 732.015503
-904.813782 1905.343384 643.622131
-943.968384 1958.864624 672.486877
-1089.832275 1677.160522 993.622925
-849.277283 1851.972778 708.686523
-945.931030 1930.313110 648.739136
-866.503113 1939.289795 812.477600
-1126.219971 1594.270020 770.352051
-931.055786 1792.998779 653.713196
-834.477356 1874.811890 813.863281
-888.962036 1844.695435 845.666138
-1037.392944 1969.431030 626.094604
-809.034973 1897.717163 806.943298
-991.318604 1632.805664 944.883667
-922.019287 1783.712402 725.666260
-934.874146 1712.646606 913.639160
-845.635437 1918.954590 721.464050
-1097.901978 1970.214478 597.844971
-1005.043274 1745.658691 662.486023
-1013.622620 1885.440186 586.211426
-980.645935 1635.433350 972.110535
-903.642639 1935.762207 775.777039
-855.421936 1989.909424 796.500671
-843.369507 1882.662598 665.621338
-924.465637 1715.377319 922.952148
-1005.169495 1780.097412 670.207581
-1069.271362 1655.944214 765.670044
-877.594910 1972.440796 752.166016
-1108.744995 1618.339111 756.339111
-846.620178 1835.246948 763.084290
-876.283997 1837.911743 667.399963
-828.707764 1854.007935 707.702942
-1099.203979 1966.154175 580.901367
-863.429199 1888.413818 753.419312
-949.296814 1658.616211 929.538086
-1117.417358 1602.228027 820.711609
-950.060974 1688.198730 937.463562
-1085.737915 1662.627197 695.341553
-1036.825806 1612.558716 962.542786
-1033.133057 1747.155029 686.679382
-1027.850342 1633.204224 894.060059
-1071.848877 1912.574097 541.205750
-833.176147 1898.424072 842.798950
-1038.690918 1679.545288 1017.361572
-908.249207 2035.034546 726.060242
-988.998962 1678.959717 855.148743
-864.563660 1794.252930 820.227478
-874.368958 1905.470581 793.672607
-1000.185425 1765.185547 659.298950
-858.201233 1985.313721 796.097351
-1046.717407 1711.665161 661.165955
-989.468567 1776.652100 601.118286
-911.908447 1964.699097 682.671753
-865.434204 1984.032349 812.007141
-942.036133 1667.538330 964.162354
-998.439026 1749.458618 668.922668
-987.276428 1641.170776 928.208618
-845.100708 1845.774170 725.089172
-797.814148 1897.752197 849.455627
-992.833801 1739.395752 715.191589
-965.591614 1768.627930 716.747559
-886.489929 1783.390625 896.784180
-1042.674805 1707.885132 1043.481323
-950.397278 1776.882935 723.741211
-861.294128 1881.462158 751.102905
-849.045227 1840.108643 701.646301
-1027.543701 2062.161865 715.040405
-868.163940 1759.743652 880.788696
-952.931152 2068.931396 755.209106
-1018.064270 1705.915405 766.324402
-940.653809 1787.554810 628.818359
-988.144836 1755.499878 615.888794
-974.718872 1797.249634 587.536377
-1094.812378 1616.663208 794.947083
-1027.655640 1865.805908 550.001160
-896.497681 1823.274902 618.577332
-867.867920 1778.538574 864.566895
-1016.495300 2001.075439 665.585632
-862.347229 1853.973633 636.769348
-848.567810 1858.532715 673.130127
-991.509216 1700.173340 824.853699
-875.253296 1827.699463 800.616333
-857.369690 1848.531128 702.530823
-998.488953 1766.007568 651.649963
-1009.440918 1757.585938 622.463257
-1042.853638 1945.793213 612.703491
-1041.972900 1662.812134 820.101929
-912.783264 1818.665894 602.540649
-1055.289551 2031.761841 686.271790
-838.112244 1905.945801 858.134216
-905.375183 1906.462646 652.762207
-1078.293213 1645.927856 813.491699
-933.465576 1778.378784 772.631714
-947.094177 1715.994751 844.508057
-1016.415649 1703.357178 796.134521
-1123.528809 1635.408691 753.179138
-961.739624 1704.916138 857.998779
-1161.256470 2012.133423 592.205750
-874.707581 1829.748291 666.187439
-1050.029907 2006.261719 652.010315
-1005.200134 1771.993042 576.987488
-922.536438 1939.385742 661.901611
-1082.920410 1921.658325 573.796814
-1108.758545 2006.402344 609.715271
-1002.740540 1810.131958 542.147156
-931.099792 1743.701538 837.616455
-892.957520 1747.575195 867.085327
-934.980347 1697.713623 907.323792
-907.241882 2027.175781 704.526550
-822.187195 1880.599731 821.902588
-924.896179 1797.536865 715.493347
-1070.185059 1679.467285 734.643311
-1037.396484 1769.699097 591.257080
-900.939941 1794.847046 903.155090
-1035.297974 1711.866211 709.778564
-821.406128 1898.019287 699.226379
-885.493591 1830.095947 648.060303
-1094.567993 1940.235352 571.376099
-876.433838 1835.504150 831.368896
-911.907043 1815.035156 657.263062
-877.428772 1811.744873 707.106018
-871.905151 1862.699097 778.106323
-870.542236 1917.691040 746.172729
-841.012817 1883.919800 778.745117
-1113.813843 1636.415894 756.060669
-1067.507935 1649.671387 790.239929
-975.505981 1685.540283 869.557922
-870.883911 1840.785034 788.932312
-817.714844 2012.900024 810.190735
-966.915466 1825.229736 547.162048
-1068.359619 1656.406860 827.295227
-874.507629 1880.032104 829.251343
-931.384033 1771.576416 767.123230
-1020.436035 1736.451050 588.841248
-1015.602295 1773.388794 597.484131
-841.806396 1967.131592 684.250488
-934.532166 1711.748901 894.817932
-1018.140747 2053.665527 708.294312
-911.786621 1926.440063 789.154297
-931.516602 1795.727661 638.166260
-847.622314 1857.341431 702.879700
-1018.039978 1768.188110 599.337402
-950.023010 1674.300781 915.916138
-868.732361 1916.669312 749.676025
-1011.790710 1704.303345 751.361450
-899.695251 1834.590820 879.021057
-885.032410 1801.351318 709.305542
-920.995667 1865.032959 897.187439
-854.571106 1920.927368 681.166931
-1003.806458 1765.047974 614.281250
-846.508789 1935.576782 697.088074
-1055.377319 1661.506348 793.884888
-921.222046 1787.192993 776.915344
-1014.944580 1739.520264 722.473511
-873.289246 1820.961426 709.814209
-876.210144 1764.958862 867.003235
-916.422119 1772.569946 699.568604
-871.190857 1973.258911 721.465271
-865.246094 1865.828979 645.495728
-897.477356 1847.093506 870.768494
-1044.099487 1980.303833 631.384460
-969.129456 1731.017334 780.793091
-925.972168 1798.019897 644.439270
-964.470886 2027.383667 722.844238
-890.386230 1816.078247 850.237976
-952.701233 1761.289673 700.992981
-980.776978 1798.991699 561.870605
-884.789246 1776.822754 812.168152
-995.999329 1674.916260 875.511841
-1001.135376 2041.590210 712.226013
-1139.052124 1989.685425 617.009399
-860.567078 2000.036377 788.731384
-1111.274048 1598.178955 847.447754
-880.798279 1846.143677 833.689697
-1137.765503 2038.009521 637.810547
-858.646423 1823.912231 740.403870
-999.161743 1754.625122 719.344299
-1083.576538 1600.814209 887.143250
-1036.474487 1629.221802 877.009521
-888.765015 1833.425293 614.140930
-918.421570 1706.275879 987.845093
-985.413086 1716.685425 792.116882
-892.726379 1755.422607 892.807861
-840.383606 1920.255493 707.533081
-806.024109 1874.559204 851.934509
-917.064575 1800.656738 734.737122
-1122.990967 2018.241943 627.552307
-1053.052490 2048.488037 689.767700
-872.225464 1923.852539 750.028137
-979.984680 1636.290649 993.719910
-991.322021 1749.978027 750.713989
-851.011108 1964.558960 691.037720
-868.927979 1980.824341 710.978210
-925.622681 1721.811768 870.001099
-857.153625 1916.502197 673.448486
-847.889954 1873.991821 781.242188
-888.316040 1905.648193 654.662109
-920.900391 2061.180664 715.166748
-875.762695 1996.473389 777.834839
-1029.262939 1974.208618 645.981934
-907.303101 1873.961426 877.365662
-1036.160400 1619.054688 910.196350
-983.366028 1726.494141 776.745483
-1097.018433 1589.487183 858.546875
-966.785645 1829.572266 546.855225
-966.120605 1665.055054 993.035767
-839.704834 1891.737793 667.064026
-850.869934 1916.296509 798.952515
-1117.036377 1603.157959 825.802734
-922.186462 1919.938965 805.186829
-903.956543 2008.639893 764.259460
-843.716187 1878.914917 747.837646
-883.919189 1753.810669 895.758179
-939.468384 1750.235474 796.651917
-972.925476 1728.004395 791.283875
-950.064697 1792.667358 964.921082
-983.471863 1714.607544 1040.792725
-1050.247559 1908.910522 572.767944
-889.358887 1813.136475 835.049316
-907.408508 1810.975830 668.579346
-982.468384 1927.388184 628.576294
-925.635498 2035.369751 762.653076
-1135.128540 2034.307983 651.068298
-871.955872 1838.740234 782.299927
-949.757385 1783.439087 675.371216
-830.541809 1879.732544 722.467163
-988.893250 1626.525269 952.077026
-1014.242188 1955.210205 627.178345
-1129.608765 1606.604736 807.685059
-962.997131 1956.943359 645.987976
-953.460083 1798.767822 590.764771
-1103.770874 1602.053589 885.215454
-1114.102051 1561.857056 786.832886
-975.503235 1686.626587 872.271790
-900.171753 1986.922974 757.046631
-846.283752 1841.356812 715.058655
-1101.290161 1948.026123 565.736816
-1052.003540 1631.376343 908.023560
-956.022278 1689.833618 974.562988
-1029.357300 1897.844360 587.157593
-1058.362915 1907.278687 535.363892
-1072.780640 1957.299805 585.872620
-953.093689 1851.286865 580.421875
-1054.583862 1619.591064 888.268860
-1124.044678 1621.483398 818.288086
-881.512329 1980.783325 747.227356
-900.459839 1949.360229 772.535461
-951.589355 2022.716187 706.460876
-843.175293 1904.608521 858.140442
-915.309204 1767.584595 920.072876
-864.792297 1957.314331 746.057312
-866.546936 1788.538574 884.629761
-1073.796143 1650.538086 742.294617
-971.117004 1748.182007 759.417603
-1018.894531 1781.408325 571.274658
-901.633667 1775.671265 901.979309
-908.617920 1724.577881 888.012939
-848.905029 1984.036133 837.322693
-966.089661 1940.924194 648.932678
-931.670288 1806.090454 955.461975
-919.861450 1886.036011 605.833740
-1003.910950 1952.979492 636.107422
-827.291138 1878.042847 821.592712
-1043.916504 2045.662354 694.822510
-988.758911 1720.747192 780.121338
-1002.269775 2055.952637 719.781921
-894.546692 1798.070190 888.441406
-1055.914673 1588.880127 919.147522
-1007.556458 1975.638184 649.981750
-789.448608 1901.001953 855.311584
-1029.366211 2060.232422 706.718567
-937.663147 1741.097656 846.970886
-846.465881 1871.406616 812.377258
-943.582214 1766.525391 989.172363
-972.059448 1930.135620 636.610168
-867.965393 1894.609253 759.317444
-830.575134 1889.349243 709.757446
-1056.606323 1627.082886 862.405334
-885.681030 1839.915771 845.520630
-1034.786133 2004.375854 657.850281
-867.872253 1829.919556 693.091553
-846.085876 1837.859131 734.264771
-855.769409 1907.848145 811.316650
-874.789246 2029.639771 794.573914
-946.937988 1981.375000 686.372314
-865.151367 1828.668213 714.915283
-839.041016 1859.957764 739.863953
-908.854370 2033.209106 780.426575
-996.956238 2020.634888 692.062744
-925.045898 1734.553345 980.740723
-1023.539185 1681.756226 811.461914
-858.201050 2022.795898 802.094604
-986.689453 1954.693604 650.367126
-1028.151367 1693.179077 768.314209
-1054.570557 1981.717651 626.896484
-1008.049561 1846.820679 549.482239
-1053.301392 1691.722046 709.605225
-882.456177 1987.854248 791.859436
-840.030884 1864.561401 738.207031
-856.611755 1919.156128 749.324707
-808.284973 1923.547363 823.583984
-775.606995 1938.652344 841.301514
-1062.679199 1939.612549 589.925476
-1061.892700 1666.555176 739.294312
-927.930908 1714.797607 915.287415
-1046.418579 1680.471069 757.294250
-975.072266 1811.897827 541.027954
-1003.117859 1684.095947 834.669312
-996.615051 2003.043335 676.921936
-832.407654 1908.378052 808.831665
-1020.687866 1998.571777 660.470520
-830.038269 1907.221924 794.651062
-1032.634521 1768.651489 581.790955
-954.002991 1775.218506 1002.429199
-984.138245 1713.967041 825.493774
-975.448242 1661.678711 927.011536
-924.193970 1858.435303 589.060303
-1099.272095 1639.837891 738.814575
-1103.284668 1633.652100 756.082886
-1057.535278 1673.591919 738.645874
-834.571289 1883.654541 789.488159
-920.342834 1880.709106 633.896362
-1001.928650 1702.919800 792.646973
-978.989807 1736.776733 763.915771
-983.445740 1770.239502 610.565369
-847.356201 1856.366211 672.100281
-1026.528320 1739.896362 630.137146
-892.965210 1769.875977 812.505005
-1011.573059 1606.626709 969.121399
-1039.889771 1848.710693 537.813721
-890.177917 1846.614868 624.585327
-918.803650 1736.479370 861.181702
-1064.365112 1656.822754 768.973389
-920.525818 1868.523438 894.904541
-973.744934 2003.821045 688.930847
-1023.576660 1739.805542 649.778564
-911.736084 1812.782837 624.742615
-1016.837463 1945.723267 609.802429
-840.396118 1921.335449 822.374329
-967.477417 1706.496338 880.589539
-914.300781 2019.147339 762.885254
-857.956299 1898.038940 738.812012
-887.023987 1938.493164 755.544250
-1017.781616 1661.385010 852.891418
-1074.069824 1671.242188 864.693970
-1070.776245 1682.570068 670.032410
-942.288269 1808.967163 596.034546
-966.094177 1887.403198 603.018188
-1011.699219 1830.606934 519.913208
-1109.167969 1628.910034 741.489380
-962.546875 1818.455566 552.661682
-868.124084 1954.472778 685.888855
-869.625610 1789.689331 812.540222
-950.362366 1876.297363 598.746155
-875.586365 1798.193481 869.333496
-1040.385986 1964.309082 619.672424
-870.317810 1887.772217 776.818726
-879.708069 1826.850830 856.649902
-777.218750 1896.177979 877.518860
-900.323547 1998.314087 747.725891
-978.673157 2036.311523 717.790039
-1095.783813 1586.682983 876.551147
-917.353027 1708.047729 976.502014
-831.743225 1923.246826 817.905457
-833.770142 1857.496460 717.124023
-1073.880859 1996.502075 635.821411
-867.966248 1825.417480 689.826416
-977.447998 1692.687256 867.245728
-1052.982178 1747.323608 1072.431519
-911.879333 1734.755981 907.805908
-901.212158 1753.433105 835.210510
-1055.578125 1679.795532 709.382019
-880.573120 1987.912720 709.193481
-1044.804810 1879.601807 532.329285
-1026.587280 1738.822510 690.972168
-890.567627 1971.646118 691.737549
-1024.047607 1902.184448 581.725586
-903.893860 1756.381836 828.202454
-1111.071899 1655.509399 723.674316
-850.643799 1853.658569 648.178406
-884.045166 1894.349609 834.334656
-1039.286743 1721.305054 711.434265
-895.030945 1892.226318 644.788147
-992.637390 2063.572754 730.565125
-945.621521 1764.805298 737.381592
-851.282959 1920.087280 752.324036
-892.859253 1785.035889 703.309692
-969.214172 1944.385864 642.466125
-1084.490967 1676.652588 692.133911
-845.949280 1868.225586 660.862305
-1054.122070 1604.970337 883.905823
-1119.431396 1598.095703 776.500305
-862.446838 1806.897095 766.291992
-905.157410 1824.805420 610.165955
-926.676575 1814.325195 614.067688
-890.259338 1913.093750 782.832886
-930.218079 1783.496216 668.687744
-810.786804 1882.597412 830.178101
-975.452087 1901.058838 593.433716
-1129.360352 1561.175049 841.095825
-904.711121 1965.670654 801.589783
-1012.287415 1740.319580 735.443481
-890.635986 1816.049683 631.288757
-952.508301 1879.562866 603.707886
-1093.514160 2032.522949 650.878540
-976.214905 1748.757324 770.013428
-1040.572754 1956.250610 622.925781
-989.284058 1807.643921 689.857666
-871.831909 2033.746582 787.495361
-1063.751465 1642.733765 818.751770
-1024.658569 1944.973389 618.392334
-836.832336 1852.493042 706.706909
-886.340820 1973.006958 691.105286
-923.785400 2057.464844 723.265869
-831.403931 1903.978394 690.920654
-935.198669 1783.621704 740.747437
-921.189148 1975.100586 693.738220
-940.345459 1815.621582 581.691528
-968.077881 1637.922852 984.431519
-887.712097 1838.413696 854.647522
-924.803223 1776.213867 767.005859
-1031.911133 1687.330322 776.898499
-954.935181 1931.008423 640.542664
-1094.768433 1599.334839 839.916199
-996.785889 2076.169434 723.231445
-770.762146 1922.255127 854.259216
-1168.211548 2022.184448 594.243896
-1074.619141 1598.249023 887.743774
-971.021362 1709.392822 825.626221
-922.147522 1962.717041 682.060730
-1047.609741 1702.144653 676.465698
-829.267639 1933.539185 684.321350
-977.285522 1855.137451 569.491333
-1116.386597 1584.254883 813.609375
-876.357178 1805.707275 799.342773
-967.356506 1779.182373 691.332947
-1025.823486 1677.521851 818.007996
-921.173157 1860.216675 586.182739
-979.524414 1809.780396 551.051086
-975.575317 1817.527954 572.334106
-980.910461 1726.723022 777.822205
-1044.309082 1662.739258 773.267273
-921.989563 1934.609863 658.565857
-948.787415 1990.440308 691.101624
