ply
format ascii 1.0
element vertex 1382
property float x
property float y
property float z
end_header
413.327179 999.000122 1807.152954
796.294800 1206.641113 1903.941895
671.068787 916.015991 1839.850952
676.461487 1040.061768 1735.498535
541.688721 814.948181 1948.959229
757.681274 1025.247192 1747.648560
597.828796 1199.510010 1659.097900
800.695435 960.666443 1829.510376
752.066589 1165.219604 1809.125122
688.375732 932.668823 1830.845215
626.129700 1213.339722 1675.565186
814.049927 1097.381714 1782.020996
378.271301 936.669312 1888.361938
846.856567 1054.343994 1869.040039
721.695190 1027.244873 1729.643555
709.085876 962.531433 1832.586182
486.887726 962.999023 1882.748169
780.650146 1062.670288 1738.900269
777.697693 1139.786865 1808.185059
803.192261 932.230835 1859.651245
725.846008 1140.603027 1736.728638
510.455963 1073.289307 1765.081299
401.624176 949.255798 1897.561768
655.899841 914.525208 1833.029175
755.577515 982.966187 1829.592529
526.745422 822.989929 1924.985596
720.951965 1078.068359 1717.325317
652.081238 1293.419189 1799.974976
544.527039 851.487000 1894.318726
798.340759 1063.501831 1862.652832
698.407227 990.007507 1775.672119
414.650665 883.771973 1886.024170
784.512390 1081.367188 1852.484131
613.387024 1226.791016 1660.455322
399.631653 1045.658691 1779.385498
317.934448 924.040710 1907.784058
769.558228 1237.622437 1887.346924
639.497742 1321.847534 1790.908325
664.862732 1121.688354 1683.428589
565.459106 847.730652 1889.357056
706.327881 1286.937866 1870.154907
667.851990 1179.032837 1692.635254
646.959045 936.643188 1815.628052
612.661194 1203.975708 1653.097168
684.932556 1226.188477 1773.273071
371.288757 944.410278 1851.822754
365.619385 982.235718 1817.047241
808.297852 944.697876 1853.096924
400.343048 938.009460 1972.262817
755.671753 1210.431030 1858.354614
591.825500 877.395386 1866.561523
605.432556 971.532959 1806.148071
497.492889 815.346130 1917.984741
690.947266 911.897949 1852.138306
818.424866 1125.264648 1800.262451
673.358276 1084.648071 1707.091309
658.572571 949.600647 1802.494995
822.430176 1156.434692 1841.377197
735.943787 1150.344971 1743.810791
467.230469 1070.003540 1754.899780
316.135529 977.422485 1840.216064
834.013916 1002.218445 1889.973633
778.250244 1042.739136 1804.576294
680.501099 1024.252930 1739.168823
731.909424 1280.159180 1882.346558
766.167725 1056.940430 1820.274414
570.229065 1103.973999 1737.291138
690.735596 1098.442017 1685.275391
718.584106 1095.231079 1690.217773
487.668152 808.042236 1937.865112
728.968384 1047.573364 1720.086060
817.297119 1081.363647 1861.591431
732.171997 1169.004028 1771.570190
794.017883 1218.267822 1911.395630
593.699768 1124.425293 1696.566162
765.069763 1048.053589 1720.435669
819.886719 930.455811 1853.832031
530.647461 994.082825 1818.197266
523.017029 833.399048 1887.834717
490.322968 958.001221 1832.253174
493.649811 889.625671 1873.044678
677.020935 942.286560 1915.059937
473.457001 1099.575073 1748.575928
832.014954 964.426819 1874.349365
593.372559 886.369385 1881.786621
760.072266 1006.606140 1820.008179
758.693665 1180.535156 1806.500854
766.931152 1009.085876 1844.451294
776.360107 999.354492 1817.995972
826.475037 1125.996948 1806.160889
681.976563 1052.401245 1734.080444
483.177551 1076.997070 1750.074707
663.098938 921.584595 1903.276245
705.394165 1034.348511 1745.681274
382.708466 958.758972 1897.155273
633.791626 1142.885132 1685.400635
627.057373 1262.626709 1731.809082
403.696564 1017.638733 1795.134155
755.177734 1108.981445 1713.322754
367.854065 931.045166 1863.068848
685.806458 1189.825562 1735.949951
654.199463 1123.195801 1678.666626
385.457672 920.181091 1884.427612
405.315247 1034.386353 1757.463989
659.406250 1256.867798 1788.586060
744.169556 1016.647400 1802.044922
665.051575 1342.198486 1859.315186
647.145508 1112.376709 1691.247437
491.679901 1004.705933 1827.006470
563.957214 845.499756 1889.938232
637.997437 1288.561401 1754.684814
380.478302 963.025208 1872.766846
632.906982 1316.796997 1803.735840
738.911255 1180.989136 1780.762695
426.254822 891.877380 1899.798950
728.208801 1133.287476 1727.238525
716.036499 1058.896606 1729.285156
858.663574 1047.409912 1898.751709
664.229675 1333.118530 1866.712524
478.135040 1011.193665 1819.779663
620.777649 967.289307 1810.983398
430.302429 959.035706 1832.381714
483.463623 902.794434 1873.416016
673.764832 903.361328 1833.405518
524.936829 1090.707520 1741.466064
459.680359 1088.729492 1748.163208
746.183167 1069.213501 1700.447998
559.979553 1119.734741 1712.312378
850.609192 1084.944824 1897.954346
631.075500 1150.317993 1687.584595
627.894836 1173.155396 1657.136353
663.260315 1027.712769 1753.869507
469.552185 946.684265 1838.479492
660.126404 900.930664 1846.514771
652.963928 1053.145874 1720.995483
685.166321 926.205933 1836.824829
517.356995 1053.253662 1785.273193
561.355164 1023.355835 1786.721680
745.615173 1181.963501 1805.180542
672.348511 902.750671 1878.002075
548.296631 1142.649414 1708.031128
655.935913 1109.709473 1689.721436
693.743835 1292.175537 1896.219360
671.828003 1208.520752 1726.432007
557.475159 901.765991 1861.248535
615.814209 976.448486 1806.643433
646.270691 895.384888 1938.341553
306.110352 975.177795 1869.966431
430.765594 969.075073 1835.622437
370.308228 1013.051819 1818.559814
554.682922 1082.479370 1746.939087
624.367432 990.315735 1804.431396
610.842224 1145.542725 1675.426270
533.422485 820.531555 1915.281982
361.508759 936.408875 1862.040649
688.176086 1078.190674 1699.420898
597.015991 842.151489 1919.111816
589.820496 824.837341 1934.906250
637.237732 1219.947632 1690.054565
738.385620 1071.494873 1702.057861
613.834167 1226.900635 1641.537964
421.692261 902.558228 1876.240112
714.714722 1138.661987 1684.160278
620.987488 1030.460938 1754.691528
785.847107 971.561096 1836.537720
689.541809 1092.232300 1714.630493
463.327911 1010.209900 1809.524536
537.663391 1101.275391 1746.123291
488.049438 1030.687866 1783.968506
540.671997 1033.980103 1784.746460
815.213623 1152.825073 1838.715698
669.599976 1305.573853 1838.631592
420.771576 1051.730103 1784.593384
802.348816 1122.448853 1870.417725
571.020447 1161.676514 1682.717773
492.451324 1109.033203 1709.011108
747.073669 1022.062134 1743.906982
832.730164 950.923157 1866.780762
496.939240 1110.318115 1711.250610
591.120728 840.908142 1935.095825
777.900146 1168.612915 1824.863403
567.102966 1110.746460 1732.365234
641.582031 902.262329 1943.840576
462.021027 883.191406 1997.131592
521.108337 831.485535 1899.746582
823.019775 1092.442261 1876.370483
585.834839 1181.124390 1647.018188
626.509033 1280.328125 1717.664185
609.685364 1083.692871 1707.616943
532.995239 859.190674 1878.509644
821.807556 1133.099243 1856.796021
586.983032 955.461121 1822.743652
431.166016 1032.467773 1806.187744
567.843872 901.572510 1849.258423
500.474701 873.799805 1877.336060
726.275146 1001.925659 1756.555420
749.292908 1011.077515 1897.749512
577.223938 1108.039185 1724.021362
546.136597 970.320068 1834.717896
578.998169 976.281433 1813.763672
763.600159 961.220947 1838.578003
816.482056 1136.778076 1797.270752
527.843079 877.821533 1880.999023
517.434998 1026.548584 1791.625122
661.997131 1278.709717 1774.920654
693.563965 933.488892 1897.522339
688.429688 1053.604370 1712.449829
574.354980 930.156128 1850.007202
730.617126 1293.223145 1894.936523
431.571991 1082.908325 1772.209717
591.923645 840.255127 1910.144897
741.427063 1138.244019 1742.235229
519.569763 1143.084839 1708.460327
812.697327 972.317871 1856.860229
774.761841 1180.193237 1864.330444
695.754089 994.352539 1769.548462
618.587708 1058.561768 1757.431885
744.686340 1123.657593 1734.737183
757.761292 1019.160645 1805.319336
710.581604 1045.287231 1721.440674
767.942505 1045.030640 1728.463745
758.800537 1163.769531 1804.042236
779.490295 1046.022095 1787.719971
841.349060 1086.321533 1888.270630
645.703613 1205.317505 1631.832886
649.762878 1172.551147 1670.307495
638.081299 1130.703735 1684.879517
791.524658 1169.111572 1843.766846
620.116882 957.822815 1810.276001
494.241699 1126.029663 1727.855225
825.468933 1084.754761 1790.886963
672.865295 1128.668335 1669.995483
558.890503 1055.217773 1785.747925
376.941345 982.899780 1833.981567
671.575317 1319.843750 1839.666626
671.480286 936.748169 1813.289551
801.666809 956.316162 1854.163452
733.878418 1107.345215 1692.138794
600.058899 967.737427 1809.408691
677.614319 1233.411255 1752.089722
598.424438 1020.685181 1776.626221
593.618713 854.311890 1965.939453
625.917297 1162.611328 1680.353638
497.309326 828.451050 1980.044189
691.500549 1087.119995 1696.717529
600.785461 843.161011 1942.729248
679.781189 1107.084473 1689.182007
716.356323 1029.577881 1741.418091
581.161072 1029.684937 1778.656982
655.182068 925.469910 1893.374634
686.603210 1270.478027 1826.011963
768.850159 1040.466675 1731.217773
774.191223 1065.778931 1733.915405
671.898865 1194.195068 1704.968262
861.155090 1074.684082 1899.882813
757.381226 1018.401245 1777.471436
760.083252 1193.383789 1824.036621
365.356628 934.715149 1869.029663
810.847351 924.547607 1870.464722
582.494507 1134.269165 1690.786865
761.706116 981.791016 1837.583984
703.771667 970.752991 1795.818848
818.527100 1099.682617 1783.078247
577.715637 1179.948730 1685.223145
469.577972 1045.889282 1767.154541
808.355286 962.827576 1898.271729
524.665833 863.874451 1879.419678
384.297882 1032.923218 1792.582764
486.657104 876.882141 1879.930542
595.435364 862.624878 1906.812500
712.182007 1009.823486 1759.266479
662.984924 1043.336670 1730.082520
559.885437 1081.708618 1738.105225
615.597900 1234.304565 1663.648682
859.522827 1066.673706 1900.865967
695.559143 1122.695190 1699.605347
796.676453 1072.925903 1780.080566
631.266052 885.043701 1880.325684
760.191895 1181.225586 1842.053101
677.950500 1237.760986 1751.931152
705.272217 1135.115967 1698.586426
589.127502 938.104309 1841.087280
748.930725 962.710205 1837.991577
754.355652 1067.722412 1872.515625
759.125427 966.396545 1835.830200
556.155334 830.386719 1902.432129
794.112610 1079.738525 1868.539673
496.019073 1062.385620 1766.888916
849.756531 1072.402100 1896.429443
720.898438 1263.617432 1870.036865
399.651001 1018.171814 1775.388916
792.041138 967.276733 1834.947998
512.409363 1005.159119 1806.477905
721.979126 1069.394165 1701.529175
545.850281 995.210754 1801.335083
435.711304 1070.347778 1744.536377
551.463806 1088.227905 1759.396973
657.647766 1050.734863 1732.688721
617.346008 1231.986938 1685.829712
513.098877 974.535461 1835.978394
695.747925 1086.160767 1714.248413
829.713989 1119.226074 1916.324341
646.909668 1247.478027 1758.036133
627.729370 1061.506592 1727.859863
544.447571 1020.940552 1801.400879
630.750000 1280.069824 1707.617798
691.734314 1093.827393 1702.207153
766.011841 1007.839539 1845.588623
758.472961 970.884949 1839.199951
765.330078 1075.324707 1728.427002
605.980042 844.660828 1969.199463
777.249146 1005.741089 1832.852905
696.165649 1210.070313 1774.638428
776.292542 1083.056152 1865.264771
737.584229 1116.258911 1729.828613
413.602875 1014.096924 1791.452271
777.443481 1058.867554 1832.268311
609.241272 1105.120972 1710.372314
669.826416 1324.027832 1868.911865
678.205139 1215.922607 1741.469971
570.456787 852.978943 1886.413086
734.820801 1279.239990 1908.013550
827.757019 936.734680 1850.737427
663.576538 900.852783 1848.317749
726.898743 1096.744751 1684.528320
740.714417 1009.446838 1759.976196
785.038452 1074.454712 1813.631104
589.103943 1182.876587 1678.589722
786.004150 1106.637695 1763.117065
501.403564 1125.509033 1702.573486
723.278625 998.943909 1799.948853
752.439880 1180.638306 1817.663818
760.339600 1046.998779 1721.964355
754.562866 1104.564453 1738.535034
648.752808 935.174011 1816.819336
725.992798 1203.535522 1804.907959
749.702576 1264.787109 1917.914429
565.163391 812.850159 1928.971069
685.726318 1231.484375 1784.296143
541.742126 1014.510254 1792.152344
641.628235 936.672974 1817.104614
665.901184 941.784241 1833.615112
402.881561 1008.703247 1807.118774
514.440918 1076.909546 1764.066162
618.315552 1000.375061 1785.743408
646.819763 1028.750122 1733.849976
801.192261 946.462402 1850.407104
637.305176 1180.129028 1666.921875
805.770691 1091.116089 1795.033081
821.328674 1129.392212 1866.052002
647.010498 1042.802734 1739.701904
553.657959 1077.816895 1774.722534
778.546448 1053.900391 1789.012939
681.815247 1132.196167 1674.482544
653.148254 911.747742 1829.416016
679.267029 913.648071 1841.726929
614.582642 1204.379883 1637.227905
656.044434 942.489441 1817.209839
721.549255 1048.196533 1725.411743
392.785522 1021.724548 1773.559082
812.002747 1090.271606 1782.314087
787.168945 964.623657 1830.415405
636.488586 1246.659058 1728.320801
797.225403 990.485596 1877.365967
709.513977 981.931274 1777.673340
751.499939 1065.297974 1710.388672
805.716309 1123.594116 1859.146729
435.524841 897.459595 1875.130737
622.234497 1080.454468 1719.049072
470.796753 1013.422058 1806.037109
486.694946 807.499084 1931.522339
637.946167 994.769409 1799.950073
771.462402 1044.268921 1723.320190
697.286499 1158.368774 1700.689209
664.588867 968.742554 1792.689209
576.648071 1123.016968 1711.005737
830.533752 941.563232 1866.422974
702.231323 1273.214355 1854.117188
712.945251 969.376892 1808.886597
733.764893 1199.571167 1809.356445
735.534607 1000.553223 1819.540894
723.171631 1043.777710 1726.568848
597.242310 959.574768 1818.779785
391.335968 941.869141 1893.735596
521.588318 1070.343018 1751.933350
576.104492 1167.052612 1678.005005
568.567322 823.317688 1987.327881
825.041199 1119.495850 1820.026489
752.013794 1150.969116 1780.496094
665.660889 1288.118286 1811.348022
614.129700 1089.315552 1712.452759
643.664429 1298.453979 1810.991699
737.645508 1121.291748 1730.877441
596.869263 1078.706543 1734.573120
645.635803 929.250916 1828.477051
867.044983 1073.581055 1901.320435
532.979065 1099.467529 1748.169678
855.862122 1046.395020 1886.001709
676.316833 929.405457 1927.754761
616.974243 991.706116 1792.015137
746.510864 1033.108887 1728.391846
763.832336 1189.920654 1844.611206
503.602661 988.232727 1812.752197
499.076172 1056.393311 1777.637451
673.302612 1028.318726 1740.059082
766.356567 1122.553711 1776.834473
521.036560 1088.329956 1757.208496
835.641785 1158.855103 1834.519287
798.486572 1107.303833 1856.250488
731.133362 1144.220215 1739.203613
673.611023 1343.792969 1870.980591
731.904236 1239.202515 1859.205322
590.677063 1094.341309 1721.028687
465.573486 1057.651123 1709.733887
826.587402 1192.007202 1892.786377
655.987793 893.982056 1834.011108
505.606354 939.988586 1838.421631
821.095215 1158.488281 1879.048340
675.940857 1335.213135 1890.122681
434.002747 997.682190 1816.828247
795.558533 1104.663330 1764.084717
622.090210 897.995117 1963.770874
718.789124 997.421204 1774.109009
588.769348 978.344910 1808.560425
739.425354 1092.070557 1685.001099
749.956238 1023.470093 1734.295044
803.922058 944.078308 1845.665283
747.892822 1045.245239 1850.651245
452.984344 1076.577881 1747.790894
728.052185 984.538574 1842.767090
505.209167 831.131165 1900.141113
510.975525 1002.963257 1802.504028
675.497742 961.728394 1794.176758
500.575470 865.824646 1892.131348
654.910950 913.137207 1830.549316
786.014282 1060.467651 1858.637085
739.790466 983.897827 1842.807739
802.143738 989.759705 1854.046265
764.115479 1108.461792 1747.461304
786.345581 949.181213 1842.750366
401.297363 1025.240967 1791.980103
517.692383 919.067627 1865.718384
672.036316 1071.522583 1718.514160
823.590576 1080.162354 1881.658813
657.169861 956.238037 1801.516602
553.523743 833.527222 1906.515991
539.677917 835.507874 1907.516235
717.944580 973.512756 1856.031250
607.586670 909.568054 1839.435059
627.111389 1228.312988 1695.223389
706.457886 990.062439 1771.188354
463.985748 839.027405 1908.884399
707.278687 1229.340210 1789.576538
603.566589 883.846375 1864.205688
828.590759 941.187622 1874.811523
680.661377 1239.203857 1776.999146
580.129517 924.212585 1843.878418
620.730652 1231.056152 1699.333496
511.220764 1060.028564 1777.755371
468.148254 1015.969482 1804.047485
704.393921 1041.388428 1726.524048
640.858765 1077.104614 1722.723755
600.685669 901.657959 1844.704102
814.138855 1102.479370 1764.432617
739.845154 1108.566772 1721.978149
570.773315 1153.143066 1692.729126
736.035034 1231.655518 1848.571289
597.723389 936.236328 1834.652344
727.348206 1213.960571 1821.747437
749.259949 1137.707886 1749.301514
772.270569 956.286072 1852.874878
706.350159 1102.363647 1682.728027
749.531555 1102.162598 1710.053589
454.662872 908.623352 1883.802002
641.710449 1002.055664 1794.484253
401.131592 1040.057251 1805.307251
640.485413 1339.086548 1809.014771
463.280579 891.866272 2015.823242
708.224365 1108.679077 1676.117798
660.376526 1196.354370 1703.116089
551.820129 816.877563 1941.835938
454.140625 870.381592 1918.343506
394.293762 953.946472 1844.793579
495.450562 822.345520 1969.206299
473.880524 1102.103394 1742.725098
734.617065 969.370728 1863.322876
497.533325 879.347839 1885.465210
557.704102 1074.645996 1763.555664
790.707642 1054.548950 1767.078857
699.315552 1283.038330 1855.636108
740.264954 1112.542603 1719.880005
759.294189 939.330933 1855.704468
772.030334 1175.901978 1854.210449
709.011536 1033.105957 1730.601196
455.872498 865.681458 1968.914795
607.896484 862.075562 1953.025757
385.268494 1030.319946 1796.145630
694.389587 977.239380 1781.484863
586.407959 1086.863770 1789.425293
671.335693 1322.591187 1864.226196
790.410583 1080.553223 1830.775391
737.932556 1012.818176 1815.565796
412.780701 966.440796 1842.178223
517.838318 1015.197144 1802.799072
526.290588 972.002625 1818.593872
731.099731 1130.428833 1728.126953
757.682617 1113.526978 1756.341064
822.680542 1113.278320 1853.109009
725.445190 1084.794556 1697.613525
550.577698 808.705261 1918.241821
812.271545 1052.992798 1880.586426
661.017029 1299.610107 1818.898560
717.147156 1032.416016 1738.417969
636.857056 1207.510132 1665.922607
646.674500 946.048279 1809.496704
405.063782 991.996643 1809.270630
748.231079 1143.463013 1788.501465
406.747131 1014.687683 1796.503174
499.515747 814.524292 1910.948608
418.500977 1053.603760 1779.292480
386.287354 926.711365 1875.426147
692.840027 969.700867 1815.293213
707.624939 988.195984 1769.263428
468.248840 1077.036865 1758.101563
818.856750 952.921021 1900.618774
606.161011 1044.946777 1810.701782
709.568359 989.987610 1786.960327
560.737366 804.358398 1950.915894
770.117371 972.004395 1878.317017
610.774719 1142.911499 1670.001587
665.585327 936.799683 1813.940308
813.062500 1075.432861 1869.842529
629.453430 1288.108521 1771.805664
774.510620 1220.878174 1894.364746
696.403992 1322.136475 1904.488892
681.107239 1215.584961 1754.667603
723.065674 1043.273804 1737.437622
591.637573 846.637146 1916.502563
673.039551 926.983032 1829.430054
687.385193 1068.176392 1703.980713
659.810242 1376.336792 1846.853149
545.109741 1130.420166 1704.369873
828.635376 1162.474609 1895.924927
578.355896 893.384155 1871.761108
584.387024 851.842834 1909.801392
434.967255 1059.345337 1773.357788
663.735840 933.577759 1817.094849
654.786194 1145.651001 1665.383789
687.090698 920.576660 1838.959351
714.054382 1024.107666 1746.131958
563.612915 849.965576 1901.785156
670.335022 917.738281 1827.625732
738.145264 1044.583374 1726.395874
677.305420 919.301880 1836.488892
538.804871 1049.635742 1773.068848
809.665710 1142.823242 1897.457886
815.322571 1011.692017 1923.490356
712.587585 1144.327026 1714.698364
553.970154 1092.669312 1751.800903
670.778870 934.615234 1826.733398
773.379028 1055.116943 1807.257202
701.787292 1122.858154 1689.615234
573.132874 890.502380 1872.238159
674.619446 1335.900146 1895.078613
791.997009 1066.791382 1782.312988
807.066162 1146.076416 1924.154907
805.219910 1117.332520 1891.518799
565.735596 871.871094 1867.439819
544.585510 1068.290894 1767.526001
670.278625 1201.970093 1727.583862
675.030518 1023.631775 1754.617798
694.038269 1018.655762 1745.722290
587.411377 1196.584229 1649.807861
768.104553 1238.208740 1905.961426
816.429138 1149.003784 1875.068115
712.463196 1013.513062 1754.585327
741.474792 1011.184448 1794.609619
637.443787 894.920837 1838.004150
794.544678 1115.971069 1758.061768
586.144165 1180.465698 1675.408936
683.944458 1188.172974 1715.629028
575.064514 831.963379 1915.892334
570.387146 1146.654663 1686.308228
612.291077 1024.677979 1774.368164
483.096344 899.966003 1882.434814
665.900513 1192.348877 1693.520020
772.282593 962.885742 1833.147339
656.972290 907.302063 1951.917969
730.381897 1023.065796 1744.912354
765.255066 1057.742188 1712.562500
681.737122 1222.181641 1763.261353
714.383850 1082.140137 1699.260010
456.168274 940.937805 1859.917114
633.727966 1203.462036 1685.900024
654.018433 1222.297363 1716.253418
809.071777 1074.735352 1753.621582
382.564484 960.271362 1837.514771
674.904724 915.997986 1919.026367
467.810059 1079.358887 1755.133057
771.029785 1037.777344 1747.112915
422.352661 1057.490845 1772.362915
830.488098 951.219666 1851.069092
762.050232 1089.120117 1719.878418
741.914612 1207.196045 1829.079346
709.825806 1182.724365 1741.372070
744.244263 1009.196289 1751.204834
763.902710 1004.231567 1838.778931
736.040894 1175.639160 1782.877808
801.277344 948.529297 1852.132690
683.680664 1251.926147 1780.953491
667.312195 1014.824646 1764.838135
650.866699 1360.781372 1856.651611
576.046997 811.516541 1926.170654
799.522156 1082.447754 1809.446655
629.158508 935.413818 1820.775146
653.277527 920.925781 1819.661133
727.093628 1118.705444 1713.127441
700.657349 960.794312 1868.384521
679.663513 1245.472900 1762.669067
601.428589 1144.497314 1678.166626
445.416626 1070.651123 1755.123291
778.792664 1002.609863 1818.913818
753.715698 1016.163452 1803.804443
806.942444 1094.126343 1843.228149
709.768982 988.661865 1819.368896
736.223022 997.341431 1776.282593
601.573120 865.801147 1903.336060
579.096863 1073.239746 1742.152710
691.302979 1168.300903 1703.562500
537.773193 1132.855957 1704.782104
382.430084 941.291504 1854.838745
440.996185 1050.135010 1775.231567
615.747559 1057.399170 1738.671143
762.673950 1052.663818 1715.641479
461.784027 1000.412720 1818.387817
609.852478 947.819275 1827.538940
650.403015 1191.139282 1683.383423
800.594788 984.478455 1854.584839
586.389709 978.008911 1825.058105
597.798767 1132.161377 1687.964600
363.704895 958.816406 1855.675903
592.265381 1055.208008 1744.021973
633.241943 869.628540 1874.468384
468.590424 1005.175659 1813.572266
658.366760 1075.653198 1709.086182
532.807495 901.557495 1880.278198
669.452942 1315.160400 1857.971191
332.462524 956.543152 1850.197998
716.603210 1278.891235 1880.574463
705.437134 1292.814819 1879.317383
644.238464 1233.473022 1713.563477
823.585022 1145.823975 1887.198975
734.689148 1175.272217 1786.645020
668.795166 926.741516 1867.832153
811.400330 1092.902588 1811.481445
650.917297 1350.202271 1816.612183
499.300659 834.418335 1897.273560
737.763916 1160.883911 1776.712402
799.881958 1094.870605 1751.219849
649.136292 1056.848389 1735.868530
719.257813 1007.158142 1761.366577
774.778748 1228.531494 1907.171387
566.613342 862.296570 1873.382324
700.860168 973.135132 1793.920044
495.788635 814.535522 1923.969727
654.374695 1348.393677 1873.147583
623.209778 1050.262695 1755.980957
628.057556 871.186523 1879.880859
414.900085 910.909485 1861.103271
812.242249 1094.552246 1778.875732
690.185913 1120.363770 1671.928345
753.318298 1003.342529 1834.276855
805.280518 1102.869995 1819.420410
625.237122 1244.002563 1702.307251
468.036072 1097.991577 1746.133301
751.329895 1016.601990 1752.294312
585.768066 935.789673 1829.846802
760.733154 987.738159 1808.302246
696.937561 976.537903 1790.043579
581.496826 1104.437622 1733.540039
737.021973 1132.941406 1744.223022
718.821533 999.610779 1763.406494
525.077087 869.077698 1875.070801
836.268188 1002.604065 1886.348145
483.530151 1054.151733 1762.045532
746.301575 1151.337036 1772.954834
574.233276 935.625549 1837.324951
831.548950 1162.029663 1838.392700
722.578979 1240.086060 1845.721558
545.474487 1070.311523 1764.447144
716.944336 1184.649048 1773.112183
721.517883 1003.748108 1805.987427
643.296265 1376.308716 1864.576050
655.333801 1254.801270 1754.406250
659.445251 1382.015747 1867.462280
691.068665 1294.321899 1837.416748
685.708618 917.286865 1853.789185
757.913147 1024.883301 1757.010010
516.359924 823.471191 1994.714966
582.027161 822.072449 1905.036987
478.949432 870.945251 1880.907104
645.691406 1382.674561 1872.162354
665.450562 1260.349609 1759.127197
579.528259 944.381897 1831.404541
679.238647 1326.247437 1887.327637
763.448303 1036.157471 1726.801025
529.338257 839.662048 1892.329102
837.864807 958.116516 1884.936035
615.745239 931.405334 1822.970825
760.071106 1178.055664 1823.474976
615.817322 890.221558 1944.161377
530.283142 866.917358 1873.354858
445.503754 869.839844 1896.159302
805.664246 1106.055054 1774.706299
556.668091 973.674133 1820.221313
755.573059 1151.613647 1797.219604
742.054199 1018.822205 1848.957520
613.453125 1096.941895 1708.014282
735.846375 1089.136597 1702.743530
767.832825 1026.623535 1739.075317
598.311035 1171.488647 1677.301758
402.697754 1033.755981 1795.384644
544.227966 932.148376 1846.102295
713.990662 966.106506 1821.538208
562.832947 809.163940 1952.915649
486.303925 1111.812012 1732.120605
608.655579 1088.933350 1705.122192
538.278137 1168.359863 1696.396118
484.578674 1042.769409 1775.255371
657.346252 1138.491943 1668.392944
662.918823 925.645630 1890.353516
408.977539 901.667786 1884.017578
695.351379 1055.328003 1713.187500
601.773193 1150.182983 1669.540527
648.896362 1212.393555 1696.379150
775.986511 981.814392 1818.802490
639.961975 924.292969 1814.183838
627.980286 890.291687 1850.223633
602.787415 1074.014038 1732.489502
552.457397 1114.225830 1712.553223
645.799622 1388.538696 1888.525391
523.419800 943.187683 1835.993774
748.237610 1069.737915 1714.834106
395.359955 979.112732 1837.848022
690.856384 967.105103 1830.764282
607.303955 858.152039 1913.402100
537.148193 1025.555054 1794.248535
806.877075 1124.179565 1787.993530
550.537964 826.523682 1896.226685
681.500549 1046.057373 1722.454590
567.253296 827.007935 1974.428589
657.482849 926.157227 1815.770630
328.698425 970.024109 1838.863281
748.737732 1098.953491 1694.800049
510.355652 898.601990 1882.632690
680.692566 912.769226 1875.989136
675.510315 1300.542480 1820.263550
628.297180 1209.402588 1628.565308
685.297363 1189.894897 1720.115601
559.864014 854.120544 1891.413086
628.599365 1226.959961 1668.753296
823.724976 1085.362549 1881.630371
514.912537 892.433899 1875.897705
540.939514 819.220398 1948.550659
758.426575 1036.745972 1856.845581
770.011047 1259.723755 1913.449829
703.884277 1171.786865 1726.862183
750.657104 1216.983154 1881.067627
505.291443 970.688599 1822.957031
597.444763 880.528748 1843.787964
576.115112 1116.577515 1700.504761
641.483643 931.588013 1817.950439
492.466949 865.499023 1883.789551
504.371979 1058.491821 1773.485474
528.402344 854.795105 1873.729614
660.860657 887.566772 1855.678467
567.608704 897.018250 1871.033936
753.447449 1245.206909 1902.353394
526.356812 813.646240 1949.317383
588.893188 1088.733276 1730.647339
642.440979 1349.802368 1858.070068
816.692383 1171.567383 1868.486572
715.667603 1252.546021 1842.733643
660.923340 1190.521240 1681.678345
796.543152 1057.250488 1739.217041
486.079895 1110.634277 1724.000732
510.659363 911.095215 1858.977905
559.884155 842.926147 1925.503052
425.731201 985.478577 1838.050781
857.637085 1084.755859 1904.633057
856.718933 1090.924438 1910.154907
707.968689 1077.235229 1699.860596
475.966766 921.711304 1858.343384
598.717407 1113.296997 1700.086426
709.446899 1236.956909 1815.112549
824.162048 1111.296753 1889.674561
510.136017 848.584595 1888.655029
655.058411 1240.480591 1740.138916
671.948242 904.858582 1856.342163
542.285583 914.317322 1857.676270
645.394165 1211.607422 1684.830444
826.765198 962.381165 1867.333374
833.748108 925.319031 1858.755249
406.450897 1043.721924 1787.348877
804.715210 1082.320679 1794.253174
768.019470 1022.915955 1738.072021
826.412048 1134.880249 1805.621094
812.752014 1115.481079 1790.219360
780.252747 1205.056519 1888.024658
672.915405 930.415649 1891.826660
609.687927 855.790771 1949.929321
803.293152 951.328552 1848.455933
765.824341 1141.751831 1770.746826
644.917053 1156.007080 1671.394653
635.071350 1255.111450 1729.100708
815.691467 1112.818115 1835.588867
545.972412 834.907532 1923.622803
528.257813 854.461853 1879.711182
764.527039 1025.884521 1850.567017
465.221527 962.648132 1831.950317
438.106659 929.233459 1858.751831
640.993103 1001.101196 1795.586792
658.393677 926.015686 1816.749634
636.304810 1353.635742 1842.236450
451.931366 936.406311 1868.503418
509.459717 1019.743286 1805.488647
530.410645 972.725159 1815.331665
558.760071 1038.114990 1793.009155
476.307709 868.688416 1882.224365
623.830933 994.787109 1788.459106
686.829529 1315.420654 1880.028442
658.242004 1207.116943 1701.345337
694.168579 978.233459 1837.161499
688.586670 974.979675 1779.349487
743.451355 1166.965698 1788.233765
445.337799 1070.508545 1765.325562
839.492676 1071.214600 1880.385498
437.070099 992.221924 1838.774536
830.617798 1139.673340 1792.890869
606.975769 1242.300781 1683.313965
658.205994 1182.287964 1659.986694
468.400299 1012.633728 1805.845947
752.674927 1047.556885 1863.180542
540.771851 930.163086 1856.645752
623.030151 865.213989 1896.146240
588.659729 836.667297 1959.019775
695.046387 1212.948120 1764.468628
567.279602 895.386658 1860.879150
604.154358 897.866089 1856.766846
380.955231 991.878174 1814.275391
659.866211 1327.916016 1858.478027
684.720398 924.609558 1819.412842
579.265686 1126.600220 1710.212769
793.825562 959.378662 1875.199341
704.630371 1236.523926 1811.435547
777.837158 1132.007813 1791.155518
662.093933 1136.773804 1676.353760
587.109375 883.381287 1852.689087
596.608276 1101.753418 1717.773315
763.790283 1037.278564 1733.931396
637.725281 1331.279907 1832.981201
416.239227 994.041199 1818.693481
714.251587 1254.994995 1828.861206
595.952942 1122.262329 1698.762085
800.107666 1073.071777 1877.545044
611.270325 880.458740 1865.101685
710.775635 1183.367676 1762.292847
609.302612 1168.149170 1667.907715
495.857971 1037.893066 1778.407715
496.928772 1118.691895 1721.102173
510.326447 1073.147949 1747.792725
515.200806 819.957031 1910.346558
764.703308 1042.920654 1723.723999
639.588196 1157.119629 1672.963379
772.663086 1235.766479 1912.715210
671.252197 916.894287 1904.460815
873.712341 1057.208862 1877.998291
515.697388 999.915222 1809.845825
814.432007 974.576355 1862.213989
591.332397 1051.062378 1764.898560
646.678101 1138.357788 1671.952881
764.814453 1241.474243 1905.354126
797.637390 1090.914429 1871.866211
616.390869 867.941284 1897.234741
690.282043 1176.443115 1713.402832
702.063843 1111.034180 1692.970825
683.753906 1212.980347 1755.950806
605.023438 980.236511 1805.839111
659.665710 1216.519531 1712.469482
569.317505 838.450867 1915.140137
678.445496 1208.390015 1731.816772
792.957092 1187.303833 1887.068970
680.154175 1260.856567 1800.546631
628.708191 881.126526 1875.295532
624.707642 1107.417114 1696.724731
833.757385 1116.682739 1907.915894
505.454102 917.846008 1856.828003
679.593201 1297.778931 1825.951172
706.474182 988.086548 1809.207764
853.252441 1014.198364 1886.149048
621.658936 976.695190 1806.131714
753.842102 1020.631958 1846.953979
643.101990 1338.672363 1862.834473
820.737000 976.085815 1840.092285
429.299805 984.038940 1824.851440
422.883972 1014.033997 1807.552124
450.287323 1017.847961 1806.663208
711.674255 1181.920288 1760.736328
600.591370 1211.182739 1668.719727
587.294556 1030.242188 1791.014526
606.665894 1096.889771 1701.204712
549.197754 1150.605225 1702.326416
488.489136 999.729126 1812.871582
618.840881 1157.080688 1677.902344
472.656342 1050.538940 1770.794678
632.738647 1135.698975 1680.367676
752.169678 1044.616089 1741.482788
595.568115 939.739441 1832.230347
586.891785 868.742249 1890.911865
807.884033 1099.937134 1813.769897
685.266785 1108.461060 1685.894775
524.390076 1102.716553 1739.017578
761.280640 1016.638062 1825.679810
556.035645 1108.052490 1747.658081
637.823120 925.963440 1825.792603
410.927917 896.150635 1939.076416
804.140320 1052.343262 1732.664795
801.221497 1223.698364 1915.573120
563.542847 858.889587 1881.382568
758.163696 1025.744019 1764.238037
641.094360 1225.046265 1707.894409
722.457458 993.221985 1815.938843
409.436401 972.790894 1836.707764
710.733765 1225.499146 1806.552124
731.515869 1001.203003 1811.448120
619.045959 1092.392578 1705.723389
835.442078 1148.159790 1857.722046
677.958679 956.028870 1805.822021
687.957458 1209.060059 1735.037598
469.434326 1049.310913 1764.331177
738.080750 1011.399231 1820.472290
669.769470 952.955872 1801.466919
370.485687 1049.846191 2055.902100
607.999817 1181.580933 1660.593018
555.984192 829.097046 1915.296753
744.275879 1128.461914 1737.983765
805.735413 1087.995972 1752.806030
741.745483 1123.455688 1744.152832
444.986847 949.688477 1872.797485
480.397064 910.520874 1869.007568
729.940491 1154.466187 1751.290649
811.533630 968.326721 1852.966064
809.978333 973.725403 1859.340088
494.845276 881.864258 1884.249146
567.185364 910.948364 1847.849365
711.227905 1158.976074 1730.505249
815.333374 986.429199 1878.976440
804.160889 907.524841 1864.815063
392.772766 907.607178 1893.048706
668.857483 1339.325195 1910.160767
515.841614 893.336304 1885.421997
508.071533 1126.606201 1729.815063
536.183838 861.190674 1869.699951
741.361389 996.875305 1838.778809
627.257629 1260.259399 1728.640625
640.810059 1053.786987 1733.189697
764.328796 1031.970947 1858.889526
515.128052 884.146484 1887.504761
544.822144 857.259277 1890.069824
823.611694 1175.469360 1852.630127
778.954041 1076.911011 1859.614868
825.067383 1136.641846 1830.005371
631.428711 1041.547485 1760.399780
769.090393 1201.254883 1862.210571
635.562805 1329.529663 1828.302368
649.951538 1055.225342 1722.755859
696.603333 967.976868 1823.688721
712.350464 1220.360352 1807.282349
786.684265 1083.632080 1751.405273
844.061218 1115.525513 1919.648682
638.196899 869.977356 1875.409424
594.988892 1140.137207 1684.526001
661.112488 1127.286133 1671.833496
703.377808 977.890930 1854.637939
800.349609 1063.786621 1736.208618
559.270569 893.615479 1856.027222
616.313110 1236.033691 1672.852661
846.702148 1100.721313 1906.313110
682.794067 1263.753418 1812.481201
472.024872 1108.509888 1741.824463
795.455139 1083.061157 1754.483032
775.505493 992.269470 1831.882446
734.883850 1035.460693 1733.944580
800.206848 1085.437988 1749.934937
570.520020 1069.056519 1746.560547
494.255707 1101.349243 1699.169922
668.370056 1292.626831 1820.404419
595.539673 997.974792 1791.545532
665.459351 1350.394897 1871.983643
612.043640 884.840454 1848.087036
687.769592 1253.537354 1808.904053
709.914001 978.000916 1796.789673
451.971130 982.455139 1826.326904
784.098450 1046.057495 1725.802856
616.588257 1035.592407 1784.931274
823.276428 1166.957275 1863.925659
665.540039 936.929260 1817.862061
616.184326 882.752441 1980.109009
515.054138 951.455933 1838.508789
700.715271 1072.488892 1717.015869
837.063049 921.309143 1867.139526
539.205444 821.029419 1938.025513
404.005096 990.986877 1800.744141
571.888000 1017.882935 1782.562622
618.386414 1169.256958 1662.936035
830.644470 940.425293 1851.464355
463.889679 1074.947876 1768.256348
696.779785 947.425476 1841.713745
788.045532 1163.355591 1843.693604
817.622131 1086.426880 1833.052490
463.366272 1095.828613 1750.750366
499.590973 942.079712 1847.298584
739.702515 1014.704346 1742.178955
591.946411 1128.077881 1692.559326
525.890808 1147.424316 1706.524414
592.482605 980.977905 1802.641357
611.579346 1213.010498 1670.442627
710.497253 1094.868774 1689.862915
756.036011 1102.457642 1702.887085
804.537598 1171.218750 1855.080811
482.849213 1026.061401 1787.747070
574.843872 864.614746 1881.468628
730.483704 1079.588745 1699.315674
728.226440 980.800232 1821.745972
750.575256 1201.814819 1836.091675
516.235718 920.438538 1858.143188
619.418091 943.073059 1817.045532
821.202576 924.994873 1852.067749
647.946838 1373.923950 1895.709473
666.394409 1181.856445 1693.248413
613.834106 878.358337 1892.103271
703.533142 1114.293457 1682.645508
701.596863 959.640686 1811.761597
720.655640 983.283081 1779.237549
773.362732 946.599426 1830.316528
668.195190 1245.556396 1761.659668
674.916748 1058.805908 1715.144165
491.834900 1066.690186 1752.492432
811.037476 1089.338867 1775.527832
599.186646 1194.917114 1647.045776
795.603577 1102.444702 1759.423584
818.772156 1140.675415 1889.510132
787.825562 1005.885864 1851.605103
823.943604 1145.250244 1891.668579
737.345337 1247.808105 1871.441162
780.624023 1210.980347 1898.027710
641.596008 1109.364136 1679.744507
650.578369 1220.484619 1709.244385
795.877014 966.395996 1839.096436
514.098511 1149.852173 1721.053711
657.691956 1023.374939 1763.339966
684.636597 1088.104614 1697.787231
488.197937 976.001648 1822.563232
538.205994 901.530945 1880.846436
379.147980 960.403564 1836.222168
531.380249 819.068787 1995.309204
442.737183 1067.630981 1767.313965
617.998535 879.939880 1896.005615
728.924072 1198.296875 1785.620117
738.351624 1276.723267 1887.548706
727.523865 1005.608826 1806.204102
656.132629 1281.753540 1790.190308
663.410889 1198.058838 1709.849243
665.570801 1071.841309 1710.224243
634.745300 1089.129883 1704.881226
511.587494 1017.069031 1803.603760
448.815979 923.210449 1876.727173
633.597046 1220.335449 1686.096680
481.757538 885.690674 1881.620850
676.019653 969.507324 1790.706909
437.174103 1067.717651 1769.069702
680.819458 966.557190 1798.598999
491.772247 963.262878 1825.737549
413.171417 962.880737 1846.282349
762.005432 1058.539551 1900.263306
834.701965 1094.758057 1860.283569
670.737671 967.525940 1804.864258
369.112244 1017.638489 1787.850098
545.869446 1050.513550 1776.810547
666.285217 961.636230 1798.162109
493.599854 1097.395142 1737.512939
737.674377 1205.011963 1822.216675
499.781464 912.487854 1863.846313
618.157043 866.984802 1952.841797
668.818359 905.013489 1827.933350
806.841553 982.720032 1862.690918
607.303467 1194.987549 1655.720825
560.314575 925.972229 1838.252930
632.211731 929.437134 1833.720703
615.399963 881.352478 1981.706177
634.257568 1340.210327 1865.338257
551.490417 1052.213135 1770.697998
484.897949 809.185120 1935.952881
786.993713 1043.702515 1739.922241
629.271790 1193.426025 1677.941772
373.585175 943.376282 1839.828735
672.120728 1048.229492 1730.111816
799.968079 1116.652466 1871.581421
413.285004 1028.000244 1764.362427
738.463257 1006.470398 1778.220825
603.658752 1087.318848 1723.151733
535.833984 1118.423828 1672.901001
641.932678 904.944336 1892.765381
828.292114 1116.056641 1896.411743
534.370483 1147.891235 1715.283691
712.428467 1090.173096 1692.106567
740.693237 1207.232300 1830.066895
534.794678 1022.602051 1787.192871
707.041992 1036.421509 1741.745728
775.502380 1039.007202 1729.026245
817.953247 1156.784058 1838.459595
838.372253 947.131470 1850.165405
704.101563 1064.345459 1722.021729
821.831787 1108.650024 1767.132935
469.678101 850.333618 1898.739380
696.409058 1236.939331 1798.293823
622.418884 905.057617 1858.685181
662.942871 1072.240479 1712.279541
568.809082 1101.491455 1734.943848
796.464600 1074.517212 1747.739502
672.796204 1167.907349 1688.984253
721.054871 1018.482544 1742.646973
636.117249 883.265137 1853.770264
708.863342 1034.419678 1732.354858
567.428955 809.452209 1945.737549
632.962463 1241.833252 1673.727661
657.009644 916.192078 1820.430664
638.456360 1348.211426 1853.219116
529.755859 886.071899 1868.690796
467.993927 1086.048828 1751.402588
813.936462 1096.114990 1768.155151
766.267517 1163.318359 1797.146851
532.531067 1056.895264 1775.016846
571.128540 867.431519 1873.557251
574.985840 955.352905 1830.088013
641.887634 997.233521 1787.047607
811.322815 1146.680908 1821.966309
703.306519 969.185364 1784.984985
727.906311 1082.016113 1698.111694
666.884338 1212.200684 1730.763916
645.812988 1261.797363 1741.434448
490.055725 863.792908 1902.146118
349.014709 955.470459 1841.805786
507.545929 991.797852 1820.406250
437.447327 995.685547 1815.866821
544.500488 1030.828735 1795.776489
798.136658 1127.012939 1792.893921
779.891479 948.726746 1852.038696
703.565247 1297.421021 1879.632568
710.140320 1260.244507 1864.072632
716.446777 1248.719971 1867.875488
682.912964 1300.631226 1855.495605
700.601929 956.576172 1841.607056
804.433350 1108.403809 1876.939087
473.382294 944.740662 1850.072510
712.286438 1085.856079 1694.333252
628.857361 1318.194214 1782.902588
798.217896 957.251038 1848.752686
671.947021 1244.947510 1768.631104
390.244751 964.590271 1835.599976
837.333191 1158.169678 1865.203003
761.665039 1196.122559 1829.567017
626.165894 1091.121338 1700.311768
658.180847 901.173035 1838.121948
613.345703 1049.809814 1762.655884
593.355347 1201.879272 1651.297852
569.878906 952.824097 1829.686768
539.876404 1060.284058 1768.375000
525.425720 1088.108032 1746.092896
810.629944 1088.426514 1790.389404
790.469910 1058.487427 1758.808960
498.669220 1048.044067 1778.363647
519.507507 1009.688782 1816.840454
709.116211 1182.847534 1762.668335
604.633362 1104.905396 1697.325806
710.346924 1037.237671 1727.417236
783.940918 987.748169 1898.658813
508.629547 813.097351 1925.442505
507.836914 1132.900146 1713.634399
697.657043 1060.032593 1716.151367
808.501099 1112.730957 1861.856689
762.794800 1033.395752 1836.851196
544.585999 987.612183 1808.046753
815.504700 1178.819092 1861.090210
544.893677 1063.437256 1771.669312
653.239502 1197.754761 1693.053955
456.175690 999.003540 1800.142944
843.826538 949.020020 1862.208496
629.586548 886.440247 1910.907471
722.732544 972.657410 1823.562866
841.610107 955.160095 1877.148682
667.310364 1082.365356 1715.459717
655.529724 1058.810547 1730.947632
732.011780 1218.285767 1830.561646
598.391052 935.981262 1836.158813
720.691345 1011.030212 1745.272827
608.299622 1250.018555 1694.856567
622.924500 974.393250 1815.272095
544.752197 1019.588379 1792.476074
646.764526 1077.152100 1710.756470
490.515259 1013.311584 1815.974731
512.690979 1083.838013 1737.358521
537.752991 1079.493408 1772.382202
445.191650 1080.265747 1736.126709
333.894012 946.984558 1790.905884
514.141296 868.786194 1889.092896
665.784851 950.205139 1804.743896
551.118286 827.994385 1913.349854
740.853088 1025.966675 1739.376221
576.541138 876.671448 1864.287109
671.144043 906.072021 1845.561523
624.512878 884.861694 1867.688965
654.824951 1107.833740 1688.369507
686.168945 1255.024780 1799.259155
711.083435 1305.601563 1912.439819
506.512848 871.435913 2062.671631
598.297546 884.734741 1864.615601
701.748962 1043.596680 1724.824219
404.294678 971.133545 1842.167480
536.645630 1091.758057 1736.522095
620.645264 1131.921265 1699.380981
766.474670 1041.006958 1726.260376
712.314087 1184.128784 1784.147705
782.236511 1045.024780 1764.181396
651.505005 1069.068359 1799.577393
787.315796 1198.402466 1890.551147
737.615601 991.136292 1764.901001
451.591339 1082.174194 1739.132202
755.470520 1040.876709 1724.437378
423.651459 1020.618774 1798.031616
700.891785 927.254333 1842.500366
641.193848 1336.779419 1789.752686
534.100586 913.240845 1869.257446
681.631470 1051.192749 1724.724731
507.424713 878.125732 1880.833496
389.899567 915.904541 1931.042725
661.189941 1176.986572 1676.991455
597.514587 857.884399 1893.416382
541.000671 856.391052 1878.970581
759.752563 1025.816895 1741.043823
529.598450 954.822571 1830.739624
607.294617 845.688599 1969.370483
736.951355 1031.819580 1738.292236
661.741028 1236.185791 1748.787231
696.852600 1287.961426 1856.485107
694.125244 957.332947 1846.649292
828.077698 950.768188 1866.464966
649.739014 1268.537231 1764.282227
691.637146 964.954529 1788.126709
808.786377 1082.814087 1878.890869
462.342438 963.832153 1888.710938
695.660522 995.291016 1760.774780
621.803589 1111.383911 1689.699707
733.437134 1022.346680 1741.565308
464.105713 996.109741 1817.092285
722.729736 1201.419922 1780.544556
712.249634 1136.962769 1700.917358
850.698364 1045.015015 1894.805664
578.896240 1106.943237 1731.681885
862.964966 1071.698975 1896.239380
661.815491 1326.391846 1854.142090
817.728577 1130.028320 1801.141479
580.205200 1198.863647 1672.407349
566.848999 1168.046631 1683.717773
656.507935 1376.845337 1868.593506
624.500244 1061.681885 1737.800171
657.403564 1084.405396 1712.609741
661.261353 890.219299 1872.450317
686.849670 1023.179077 1739.173096
674.638306 1005.120544 1765.408936
697.074524 971.972839 1786.980225
673.554810 924.269836 1820.878540
745.718628 1006.860962 1762.098022
774.836487 1148.517456 1808.190063
767.231079 1142.401001 1795.135986
669.094604 1038.577026 1741.349609
774.278870 1189.714111 1856.713135
595.841553 1211.465820 1665.335938
575.198303 951.469116 1830.917358
727.673828 1059.359253 1707.802368
709.441833 1233.904297 1811.505615
668.844116 1279.521484 1833.528687
717.121765 1018.696838 1737.922485
624.326782 1108.401001 1695.310547
729.406067 1200.555420 1788.618652
583.954285 1153.042480 1683.814575
621.985779 1120.473389 1690.796021
747.907166 1059.705688 1705.598267
561.291443 1041.402954 1776.595337
542.346680 1083.527832 1753.337769
601.490234 1143.621338 1683.224121
637.032043 1081.127197 1711.534668
615.239929 847.358032 1948.865967
569.379028 936.193237 1832.808472
413.739166 929.535767 1863.215820
593.151428 1134.239258 1685.916504
646.711670 1154.000488 1665.367554
664.099121 913.210571 1857.041504
477.421814 1063.051392 1759.481567
623.549133 1148.876099 1672.034790
628.853455 1062.624756 1722.063721
610.829773 992.821411 1792.282837
863.896240 1052.827148 1887.030518
616.051453 1074.154419 1718.581299
733.416077 1235.498413 1877.502075
641.562744 942.120972 1812.943481
548.771912 1143.115967 1704.943970
410.163940 1007.149597 1801.431030
633.016602 1289.192993 1746.477783
546.703369 1106.042725 1723.346680
388.363007 1019.942810 1801.345459
594.370667 877.300293 1875.282227
558.792908 1009.021118 1804.054199
436.195679 980.660645 1815.380615
590.378235 1144.887207 1684.671875
618.452698 894.690857 1847.592896
637.655029 904.903870 1834.216064
668.654846 922.233582 1830.098145
423.999390 957.489075 1870.877563
726.723877 1046.931763 1717.579346
626.502625 905.614563 1833.504639
462.950195 909.391113 1912.627686
642.661865 1190.314819 1653.065552
775.414063 1113.040039 1771.516113
783.772949 1219.479614 1910.170776
781.038208 1110.126953 1764.953735
440.130219 1086.536621 1765.727417
765.651611 1106.566895 1743.607544
664.123535 896.070801 1851.441895
727.812988 1202.667358 1804.118652
678.561707 1085.730103 1693.729248
721.574402 1040.657349 1718.345825
498.105042 1054.360229 1790.484497
847.734314 1042.423340 1894.480225
657.786682 1165.299561 1660.416992
619.408447 959.204773 1818.240356
594.179443 863.916626 1892.555176
581.332153 858.762634 1883.575806
723.728943 1017.460632 1742.660522
674.795227 1300.813110 1838.176758
647.356323 1264.476440 1756.773682
356.676361 968.678772 1830.155762
788.016968 1065.990356 1740.833496
658.827942 952.427307 1800.126343
770.151611 1089.064331 1717.469971
407.258698 1009.217651 1799.627563
800.009338 1084.460693 1812.433105
636.678467 1314.196045 1782.128784
545.317566 872.050476 1861.884399
717.925964 1068.010376 1705.339233
761.263184 1248.917114 1912.426514
632.998840 1047.765259 1757.553467
698.500000 1237.742798 1786.368652
647.552185 1305.363770 1810.191772
536.290710 1065.921265 1763.656860
577.161621 1192.673340 1664.870239
647.105774 882.468994 1884.069824
402.791718 1031.247070 1757.619019
679.627808 1119.088501 1674.289795
597.921753 803.000671 1940.269287
429.573273 999.536133 1817.745483
766.826538 1101.326416 1720.285156
568.255798 1109.222290 1731.049683
749.413086 1191.356812 1827.291870
549.471985 988.775696 1807.385742
718.578918 1177.030273 1747.635254
440.086212 1054.890137 1769.569336
647.685547 1361.896973 1843.089111
654.069458 1110.877563 1687.945801
586.069763 882.063843 1859.865356
622.152527 1176.407104 1657.146362
538.963623 857.402832 1869.564453
