ply
format ascii 1.0
element vertex 1367
property float x
property float y
property float z
end_header
1501.401123 -100.512604 1502.580566
1670.860596 -179.349609 1535.953857
1502.482788 -23.764530 1760.015869
1538.830811 11.199378 1523.635376
1489.619751 -76.135422 1519.571777
1575.687500 26.751356 1367.874146
1561.014771 77.121178 1446.367920
1537.916260 -41.806393 1772.327026
1491.833740 132.685562 1523.058472
1587.287720 125.066902 1390.766724
1731.704712 -171.884216 1626.164551
1508.057373 -41.743149 1492.025635
1666.291382 -131.066101 1676.127197
1545.085693 229.852081 1664.934204
1503.133301 236.248489 1492.139526
1553.676025 113.479218 1438.617432
1453.052368 -105.241501 1678.118530
1491.006836 -23.743076 1779.353271
1606.106079 119.340393 1358.213867
1468.545898 -62.853142 1547.059570
1589.703247 -126.054626 1665.400269
1446.652954 58.071644 1606.987915
1565.413208 -143.358292 1439.862183
1424.811768 -52.222504 1603.434692
1477.907471 254.741562 1573.171265
1585.795532 67.337708 1388.785645
1619.850464 -137.959335 1626.212524
1515.604248 -101.251091 1683.966797
1481.675293 265.127960 1569.891235
1655.046387 -117.629738 1704.376343
1522.731934 213.514816 1483.629395
1667.158447 -115.877930 1715.321045
1520.024902 -134.689148 1487.034302
1574.071777 -171.731140 1508.004395
1592.776978 205.282837 1366.914429
1622.425537 -149.196732 1602.548950
1457.161133 277.747650 1601.637573
1561.082153 211.346390 1490.265503
1409.943359 32.364368 1729.833130
1435.716797 123.793793 1614.431763
1450.390381 3.618085 1649.565430
1467.661255 78.301056 1575.234619
1460.317261 29.407461 1674.922241
1553.487671 192.614731 1435.588379
1430.190918 45.728413 1689.389893
1455.492920 32.001572 1709.592041
1633.278687 -195.558395 1515.187988
1620.625000 -189.457809 1534.409058
1483.700073 -147.780777 1529.522339
1573.983154 278.209167 1446.701294
1519.616821 -158.825012 1488.878784
1430.599121 -65.824959 1632.502319
1520.490234 -72.885094 1473.371948
1418.383179 -55.123981 1605.323975
1569.217285 -113.809586 1774.746826
1467.583862 15.839410 1556.246582
1493.731689 4.023181 1745.698608
1458.334839 -107.578262 1721.175781
1432.607544 -91.111443 1644.682129
1470.197266 -59.975220 1694.853760
1442.896118 167.526871 1609.090332
1472.677734 17.186474 1678.186890
1441.815796 -92.001755 1672.797607
1543.735962 -83.728790 1448.157715
1504.160522 -11.641931 1753.324219
1562.531006 -191.419296 1460.596680
1492.488037 89.032219 1540.612183
1571.679565 -82.293213 1768.491333
1580.154053 -42.987396 1420.983154
1559.860352 30.262980 1416.257446
1606.371460 211.935272 1371.833618
1482.309937 -88.854897 1719.762451
1518.823975 -27.399660 1737.293213
1723.773682 -163.408005 1618.142700
1531.543091 110.621338 1487.250244
1582.906250 -116.478683 1665.110107
1420.347900 -33.563206 1623.127563
1565.392578 220.138718 1416.101318
1468.740112 -89.819000 1537.991211
1503.726807 -36.516113 1785.000610
1567.258545 -23.997921 1474.448975
1432.881592 31.196838 1592.053101
1569.928101 -47.818810 1409.632568
1571.379272 -12.453319 1472.115356
1494.776733 -153.374451 1508.466797
1594.782715 -174.825363 1510.142090
1548.635498 -155.181290 1444.486084
1432.026855 35.620544 1605.607300
1463.211426 255.196335 1584.560669
1495.891357 -35.017532 1503.972046
1551.367432 -39.921066 1436.632935
1570.851318 218.204071 1435.128418
1708.631104 -157.967575 1628.650024
1558.462402 232.268097 1409.002075
1508.192261 -90.996078 1729.171997
1433.343018 -35.854504 1602.447144
1611.846069 -108.250053 1769.980835
1571.235107 -139.764511 1595.306152
1422.218872 -35.279091 1620.028076
1533.325684 178.572220 1458.883057
1512.409424 -92.801056 1466.651733
1404.337280 66.592796 1756.679565
1535.819946 -138.426147 1573.489136
1424.454468 -52.454433 1616.110962
1572.372070 -12.592517 1494.051514
1466.241333 35.864784 1726.281616
1481.251953 7.328087 1781.660889
1571.131958 -6.658610 1450.656494
1543.167114 141.609833 1462.233521
1528.344238 -108.894577 1475.424927
1552.515015 125.163185 1448.943237
1490.835571 -18.094877 1513.834595
1449.396606 2.446511 1685.412842
1543.669434 181.331116 1459.589966
1477.918335 230.023590 1512.923218
1549.993530 -90.482597 1765.768921
1440.399902 -28.963144 1648.696899
1453.589478 -10.186554 1791.660522
1516.868896 232.081375 1486.546021
1568.989502 -128.630310 1642.754028
1465.842407 277.708618 1543.936401
1585.595459 -165.935944 1505.206177
1566.370361 -99.895844 1758.389526
1539.369507 -38.195164 1395.533569
1436.224487 126.923782 1618.695435
1472.907104 187.784409 1569.028809
1488.117676 184.380722 1630.699585
1473.677734 -57.748310 1553.121338
1511.868896 111.292206 1693.891479
1460.625732 -118.541580 1557.892090
1557.069946 30.587877 1467.704834
1468.527832 289.330078 1559.965576
1571.571533 193.178802 1413.401367
1447.416016 28.304565 1664.054810
1481.403931 15.504063 1685.353149
1459.954956 -56.326637 1562.687378
1488.686890 261.896515 1518.907471
1470.465942 -68.349747 1689.954102
1599.032959 71.935486 1372.115601
1502.187500 12.365620 1675.913452
1607.194336 143.181503 1351.107788
1595.252563 207.650085 1362.804688
1677.956055 -145.880859 1620.812744
1471.422119 221.211411 1550.372803
1516.223389 -80.885193 1739.692749
1451.630859 9.689775 1650.092407
1561.781616 148.825897 1429.134644
1523.630249 -64.423660 1469.051514
1548.380981 46.590397 1456.398071
1484.612427 253.921005 1555.802124
1484.542480 -92.619255 1715.036499
1540.038940 -172.976257 1476.147339
1477.316895 270.127747 1587.873413
1499.275879 -92.265892 1715.884766
1569.342041 -21.060713 1446.158081
1540.667358 -13.842327 1488.755249
1558.947021 -70.278900 1439.347412
1525.928955 176.934387 1475.875000
1390.852051 72.635597 1745.808960
1572.248779 141.544922 1415.401123
1460.209106 146.615204 1573.418091
1431.420532 -4.110847 1621.289795
1562.089966 -165.563339 1512.554321
1445.328735 -106.466652 1567.514648
1739.637451 -143.913696 1645.136719
1608.377930 -107.414284 1773.934448
1467.637573 -94.775085 1697.388550
1450.069092 24.475454 1583.343872
1545.156250 152.958054 1459.075806
1477.189453 28.195076 1778.787109
1478.257446 62.103783 1565.240845
1528.308838 -81.619667 1470.421265
1499.591431 84.717140 1528.126831
1397.843140 57.335949 1757.363770
1468.451172 284.049530 1557.319946
1436.065308 -25.114956 1584.217651
1487.098633 68.628563 1562.812500
1717.438232 -147.622742 1657.210205
1597.477051 -128.515198 1639.359985
1527.044189 -70.852699 1468.483154
1654.536743 -131.235382 1669.889160
1606.638794 -111.062996 1715.557495
1563.816650 124.884811 1434.141602
1546.045044 -131.875397 1450.001831
1513.534302 -103.200287 1722.513916
1788.112793 -177.173309 1618.981812
1423.089844 -93.862152 1650.164185
1552.077393 9.316568 1433.271973
1468.393799 -119.695038 1544.581177
1529.952637 18.450220 1502.658081
1449.907349 -7.956285 1576.026245
1489.772339 -22.499065 1804.665894
1476.594116 -16.538311 1803.674683
1445.907715 91.572250 1634.092896
1445.485962 -30.287006 1568.527222
1468.082642 -86.073349 1534.420532
1497.888916 -156.936432 1528.307495
1476.014404 285.115448 1538.799194
1575.362549 234.264252 1404.847656
1516.282959 -109.393074 1634.469116
1397.091919 58.325691 1721.768311
1466.162476 196.025558 1547.610474
1581.633423 58.422581 1397.488281
1554.589600 232.758881 1435.943115
1525.614014 -33.774281 1753.987305
1629.729858 241.635712 1335.305786
1552.613281 -114.929840 1649.573853
1461.471069 30.493586 1686.190674
1541.593384 -96.802925 1702.396851
1524.574829 151.902069 1486.546875
1459.597046 138.640656 1559.761841
1394.500122 97.583870 1723.529907
1540.560547 -160.112335 1486.934082
1492.223877 110.820183 1537.155884
1556.575195 227.305847 1434.103149
1424.093994 24.580080 1698.989014
1424.107422 -64.798576 1598.611084
1598.204834 111.931099 1371.651611
1449.328125 41.462162 1583.171753
1515.084106 173.012863 1490.926758
1552.666626 70.150093 1458.992065
1465.296387 -72.905479 1535.214600
1434.442505 -23.449654 1587.169556
1443.312866 78.400604 1636.926270
1601.563110 -135.242569 1625.996826
1594.893188 201.116806 1419.954834
1659.464722 -109.401680 1732.364868
1434.853638 7.527539 1603.469971
1574.114258 243.996414 1393.038086
1454.014771 -94.373322 1651.706665
1716.116455 -148.236603 1629.069580
1504.428833 -97.956947 1488.197388
1527.719849 -7.744515 1503.557007
1449.766357 151.308533 1572.084717
1498.122314 169.534210 1522.681519
1553.817261 -84.107811 1459.433594
1579.541992 -47.022202 1412.622681
1528.343872 -111.390945 1662.815674
1539.523315 230.282898 1459.270508
1566.078735 51.798466 1432.219238
1550.774780 81.993324 1444.804077
1458.422607 61.105495 1678.992188
1447.946655 87.189354 1577.147949
1516.661621 58.729225 1507.385620
1458.672363 -67.777306 1579.384399
1554.289185 -112.871658 1765.690918
1546.834229 180.370209 1487.406128
1466.812866 205.728317 1551.835205
1510.502930 238.174652 1485.757324
1591.480835 -148.376755 1573.981689
1479.399536 -125.658554 1582.904419
1490.867188 -140.259491 1574.010498
1516.521729 80.257729 1511.598999
1440.738892 153.350677 1598.500977
1434.486450 -88.232788 1587.220825
1458.664307 33.026981 1649.924561
1566.133545 -154.357422 1537.798950
1508.100708 -106.010361 1711.641724
1487.444092 -92.430115 1715.057251
1506.389282 -118.454086 1626.662720
1517.393799 -132.564636 1490.051636
1521.570190 -133.443695 1564.813110
1523.207886 -109.703171 1663.379639
1617.226929 -179.358597 1507.240234
1533.013916 -34.545998 1796.941406
1557.320557 160.602341 1459.717529
1446.265137 19.799944 1630.226318
1592.193970 14.572761 1383.934448
1420.654419 -64.494911 1649.117432
1581.461304 -111.942902 1670.346680
1619.604126 -144.817886 1630.639893
1489.741089 -61.332844 1507.033203
1555.985718 16.279774 1495.605225
1454.481201 -13.909821 1572.139160
1491.610718 17.392727 1768.857544
1496.343506 -127.702583 1570.743774
1677.111450 -123.874954 1697.137085
1438.490845 -86.536469 1626.852905
1677.157104 -116.714638 1720.379272
1459.488159 27.521898 1700.646973
1511.353882 -70.126793 1481.818115
1547.871460 -197.312683 1455.400757
1488.181885 101.434868 1665.821777
1441.451782 -60.533741 1579.168335
1462.409668 118.104698 1641.997070
1507.621582 66.967751 1516.180542
1610.060181 -122.435516 1646.298706
1559.424316 12.210527 1431.421631
1586.636475 140.749222 1391.554199
1573.387085 -64.892487 1406.933472
1478.919434 -65.840500 1707.751099
1453.588745 178.960754 1556.054321
1637.650513 -107.741501 1719.827515
1460.004639 -39.922058 1666.572266
1476.389404 27.775269 1711.906006
1452.440674 58.129311 1590.584473
1508.951050 -136.072311 1483.513306
1464.967285 21.042437 1658.917969
1494.570801 58.167217 1560.316040
1419.831909 28.303204 1704.427734
1447.448730 132.837906 1576.701904
1514.482178 -141.068741 1560.119385
1547.691040 -140.649597 1573.423828
1546.208740 -26.918562 1460.221436
1478.867065 211.850586 1563.899170
1612.927612 -150.921661 1608.325073
1473.979248 11.787360 1790.452881
1453.338867 46.878632 1657.490356
1741.914307 -154.467316 1658.979248
1492.821899 -101.780289 1719.229126
1509.166992 165.547470 1527.698242
1571.108154 0.150641 1399.162476
1531.685303 280.460876 1462.468872
1446.416748 162.406815 1594.099365
1559.218384 -99.403267 1422.695557
1608.921265 216.606659 1340.599609
1457.586426 236.297440 1565.710083
1766.225952 -176.045349 1601.145386
1441.680664 -103.966919 1578.729736
1487.121094 280.555511 1612.438599
1460.159668 51.765896 1665.167358
1479.585205 -78.035217 1719.438965
1439.513428 2.517432 1795.757568
1445.990601 18.108646 1627.968262
1492.208984 -13.933338 1792.460449
1471.154419 229.429993 1565.747559
1460.854126 310.717194 1593.896606
1613.357300 200.678848 1349.681641
1443.868896 -49.493797 1585.910156
1502.215332 9.850524 1744.628784
1433.715332 -3.480288 1583.982178
1438.372437 22.735720 1692.523560
1459.349731 -45.826591 1544.912476
1600.102173 208.790466 1340.164917
1464.303955 -105.549644 1680.373535
1452.131348 -57.305687 1672.453003
1695.983887 -162.690918 1609.177002
1585.254272 -128.351593 1627.142090
1433.733154 8.804763 1617.115234
1521.151367 -36.496574 1777.544678
1489.886719 -88.756424 1720.912720
1642.604492 -171.667984 1537.138550
1406.945068 -63.024952 1642.604248
1603.973389 295.614716 1456.759155
1482.785156 259.593689 1567.556763
1590.813477 110.372101 1371.584839
1481.209351 12.065598 1670.388672
1560.074219 166.613617 1425.556030
1551.614258 90.555939 1451.230957
1511.457886 -128.886398 1488.122559
1519.448120 17.752960 1502.185059
1505.064209 -120.274185 1631.404785
1758.058228 -173.968750 1632.355347
1515.352783 140.674423 1494.682129
1622.482788 -172.196564 1548.640137
1568.809326 221.036362 1417.210205
1643.237793 -198.010895 1521.564941
1567.537109 -39.955795 1421.995483
1438.935791 67.938156 1587.992065
1581.385986 73.973656 1387.526367
1436.568481 47.876556 1700.485962
1487.971680 234.666290 1607.483765
1498.637939 297.285522 1489.242798
1770.406982 -167.742355 1621.624146
1576.684448 -173.406082 1504.891724
1444.258057 112.725754 1599.324829
1536.118408 75.400375 1471.280884
1466.691284 -33.853733 1534.719604
1444.581665 120.023369 1572.627563
1549.418701 -53.008396 1776.066772
1485.550659 -7.184243 1795.868774
1457.001831 252.767319 1583.947876
1436.484131 71.134315 1594.029053
1506.747192 215.196777 1619.305298
1543.125000 273.946747 1448.606567
1621.471191 -116.718422 1690.559326
1381.999878 63.275986 1755.066772
1617.937744 182.633530 1333.695313
1497.539917 -135.783188 1514.097778
1448.818481 -23.246181 1653.741333
1416.312988 -66.275223 1650.959717
1521.113037 238.464233 1635.305542
1581.846924 -81.315125 1422.679199
1535.416626 -170.769760 1463.541870
1460.310181 173.134415 1557.399780
1541.662842 -79.684570 1744.213867
1505.465332 331.014618 1573.266235
1544.778687 -103.137169 1676.494995
1452.981567 73.815002 1659.669800
1569.223877 -23.997910 1541.323608
1660.621948 -165.074570 1601.206421
1548.681519 270.362823 1441.262329
1487.957153 -9.683178 1756.158325
1546.353271 -158.222580 1448.208008
1560.457153 38.826584 1416.668213
1706.063599 -195.109726 1570.747803
1458.304810 184.858627 1541.959961
1472.452881 298.577454 1554.979492
1493.297241 239.421036 1514.051392
1528.860352 239.066910 1483.128052
1448.597900 -104.579445 1559.430786
1562.946899 -27.340872 1429.132568
1467.284790 -122.657562 1548.676758
1583.608398 -59.746986 1424.543335
1451.282715 -105.483597 1647.906982
1497.715210 275.616180 1625.823242
1488.281128 -53.251740 1501.748901
1456.469604 23.311426 1786.521973
1486.787354 -118.558243 1589.564209
1426.208374 -56.386906 1650.278442
1432.426392 42.404022 1722.725098
1531.909424 62.734116 1483.082520
1448.282959 21.621614 1584.213623
1414.049683 90.064995 1704.189209
1426.070801 11.690801 1611.595703
1521.492188 -103.475197 1650.712280
1531.045532 -24.133104 1483.789551
1489.863403 -38.617012 1486.274658
1472.326904 12.977049 1536.656494
1488.446289 309.460632 1507.892944
1485.417969 -47.139465 1510.911621
1453.825562 98.858566 1570.025879
1481.379517 -107.446838 1697.962524
1521.254761 286.092865 1464.989990
1455.524536 -85.772110 1678.423096
1667.358398 -139.542542 1679.500488
1465.668213 14.160267 1647.462891
1518.729248 -104.158134 1651.772949
1489.256714 201.146042 1517.768311
1779.700195 -190.923569 1619.819702
1486.257324 152.817673 1527.549438
1465.520996 2.402104 1569.956543
1522.546753 -33.294388 1748.487061
1458.237549 -120.165749 1598.369751
1455.673340 152.566589 1613.543091
1439.176636 28.556961 1700.353027
1512.425415 66.472931 1508.634888
1387.151733 66.332672 1762.260376
1462.379028 154.488861 1552.819580
1514.391357 201.003067 1482.296753
1421.786255 -30.511003 1618.312134
1471.215332 146.694153 1548.960449
1437.499023 57.661911 1596.278931
1564.928223 -150.463242 1450.888916
1449.493530 106.640190 1574.788330
1445.278809 77.399635 1591.367920
1509.961914 -156.732010 1515.642822
1489.536987 74.266136 1535.145630
1473.128662 282.979279 1511.694336
1472.068726 261.891968 1576.194458
1553.537842 -71.554680 1435.885132
1477.873169 63.337643 1550.129150
1493.525391 125.655930 1527.293335
1609.842285 214.369690 1343.897217
1505.960693 -149.251892 1493.556763
1446.903564 153.914307 1617.834839
1778.996948 -193.649948 1618.227783
1597.919312 -126.565338 1637.823364
1482.923218 298.455078 1576.420288
1633.782959 228.004974 1315.867798
1481.091064 38.840256 1561.321167
1659.068970 -161.607681 1609.267700
1493.378906 -43.779308 1513.172485
1553.222778 271.598541 1423.470459
1476.639526 -21.064114 1533.502808
1462.186646 257.755280 1550.638916
1443.275024 -109.196075 1567.753052
1575.906006 -63.063118 1419.913818
1437.047729 102.116791 1601.388550
1445.838379 9.983643 1680.856323
1698.379883 -152.015808 1663.844849
1541.262207 267.512207 1470.671387
1596.289551 -140.154480 1598.300049
1521.175049 -101.854378 1473.984131
1482.824097 -18.711823 1530.535034
1693.068115 -129.702896 1666.450317
1490.171387 289.228760 1586.089233
1484.859497 3.629151 1530.495972
1484.403198 -141.617798 1548.607788
1562.826416 -111.479553 1667.022339
1599.661499 -138.257309 1635.997070
1454.358887 -88.648636 1702.429199
1466.501587 91.152328 1556.619385
1554.427246 -90.216759 1764.749634
1428.588989 -85.392410 1593.315796
1448.795898 150.458496 1565.215210
1563.170898 -100.825790 1779.966797
1435.092773 -23.834003 1593.394287
1575.461792 113.430695 1435.706543
1513.617188 138.143753 1490.627319
1480.009521 316.328278 1558.582275
1664.695557 -141.507538 1639.198608
1743.974487 -159.270493 1639.461426
1495.299438 -21.254068 1795.020142
1486.890137 149.033508 1663.010254
1495.999756 77.019432 1536.969238
1540.303711 278.604309 1426.142334
1412.730835 -76.806946 1640.584595
1554.112793 -68.117081 1441.653809
1430.057251 -2.404644 1616.252197
1495.993408 -32.699078 1756.146729
1440.066895 37.946213 1683.036255
1560.735840 184.636383 1433.412598
1492.206177 168.007019 1513.791016
1453.667725 -98.414360 1603.331543
1542.980835 -189.808990 1468.564697
1509.159058 -31.013229 1706.854248
1554.219604 -109.428528 1447.632080
1539.796387 -19.874653 1457.716919
1519.869385 -103.698395 1656.503784
1457.593628 -112.618217 1562.641602
1408.808716 59.249928 1724.523071
1396.922607 55.758759 1744.473267
1463.230103 145.737732 1595.997437
1446.822266 140.649506 1583.922974
1507.280884 214.463776 1491.016602
1475.436035 202.280792 1532.050781
1534.036011 -64.214005 1735.131226
1448.078125 -2.879290 1793.848145
1413.378418 -78.206589 1626.945679
1505.172241 -21.524456 1746.559448
1465.694946 43.237530 1661.088867
1442.968994 169.284363 1574.288940
1571.358521 33.904373 1449.139282
1506.402100 -99.294136 1685.540283
1510.352417 271.325562 1477.290894
1703.856323 -121.497299 1677.445435
1482.674438 -107.180504 1713.657471
1461.475586 47.598972 1571.927368
1562.054688 25.788280 1422.165283
1551.080688 -185.456894 1468.144531
1610.465942 127.029793 1352.473633
1558.456421 205.318909 1433.386475
1506.528564 -59.991291 1717.722900
1432.034790 52.456097 1675.584229
1409.710205 -77.025749 1636.411743
1472.443726 -108.901390 1524.305542
1579.157104 -149.173279 1535.908813
1751.738159 -159.710693 1595.559448
1498.653442 -112.877975 1609.462402
1725.784912 -176.853210 1577.828857
1449.865723 195.692017 1593.479736
1505.127197 245.116989 1489.665527
1453.625488 71.257568 1611.227539
1645.642212 -126.789993 1652.097778
1583.982910 -62.893837 1776.163818
1529.484863 187.183624 1477.364990
1502.666382 -36.887169 1702.970703
1541.308228 -161.802185 1520.606323
1480.826294 -83.698997 1545.516357
1557.839966 -175.981522 1513.164063
1471.617920 -99.735107 1527.238403
1498.543579 -146.978409 1514.709106
1463.512329 17.208345 1790.321777
1517.602905 119.020515 1487.731323
1727.271484 -143.218597 1677.222046
1446.103394 109.071297 1632.013428
1546.052612 -36.102978 1751.143555
1507.623535 -142.632401 1531.096436
1503.606689 -52.817524 1744.438721
1501.928345 -2.188720 1687.410522
1504.801758 291.882782 1477.555420
1545.298340 -139.588120 1460.735229
1580.504883 104.335640 1395.069092
1466.683594 84.106392 1557.490112
1469.335693 13.526520 1743.648804
1535.718384 234.583450 1654.931641
1460.386719 222.139328 1576.773071
1530.929810 -34.995342 1733.948364
1541.198120 215.469025 1466.436401
1428.090454 3.856819 1595.315796
1460.893188 -22.022682 1661.320801
1513.890381 117.012367 1495.193970
1570.741089 164.731140 1419.970581
1564.291626 123.160454 1460.556885
1681.025513 -128.743546 1652.467529
1525.805542 -36.859074 1787.811279
1645.993042 -120.714844 1720.869141
1588.867188 -33.628258 1413.384766
1516.255249 -68.895744 1726.507446
1478.507813 192.819794 1569.310181
1521.692627 -35.280289 1745.560791
1459.284790 206.208420 1574.618286
1489.057739 -66.734756 1702.536255
1463.248413 -87.814857 1581.496338
1438.489624 162.056137 1591.112793
1584.243652 -160.150772 1543.483154
1530.073120 107.352257 1484.688477
1527.875366 39.227516 1513.295898
1688.062134 -126.175095 1706.098511
1479.507690 267.217712 1576.499268
1583.744263 254.678436 1458.249756
1516.207397 -94.400528 1678.588623
1537.266602 -53.858917 1752.438110
1472.221191 -96.706535 1697.427734
1626.231812 -189.175568 1506.313232
1522.872314 -107.127090 1746.059692
1493.990723 -58.094261 1705.698975
1440.436523 -84.054764 1619.791382
1493.498047 -30.616341 1758.898193
1443.568481 -53.608868 1573.448975
1664.401855 -170.741623 1540.667847
1434.988770 50.308472 1676.828979
1405.468506 33.498806 1703.528564
1483.819336 11.105409 1699.315308
1452.557129 117.253914 1620.491577
1599.046509 306.856354 1484.904175
1446.354614 111.267776 1593.388672
1580.616211 173.266281 1379.529907
1713.650269 -178.290451 1566.961548
1475.777954 54.021729 1568.231934
1439.778320 57.468529 1590.156616
1570.456299 -9.239697 1447.481934
1607.138794 -191.788361 1493.949219
1557.900146 41.224033 1435.012329
1514.519287 -11.652974 1739.456543
1471.120850 -102.170952 1551.807373
1539.554199 -37.242615 1457.098267
1489.394287 293.473267 1598.118896
1552.015747 -134.845474 1579.416138
1489.946533 157.886948 1531.404663
1479.789917 -31.044437 1508.718628
1583.639893 187.300888 1373.551758
1475.000488 -101.239586 1695.925781
1491.462524 316.679596 1515.346191
1583.630981 14.547296 1397.279175
1518.301147 -143.604568 1510.751343
1613.037964 199.495529 1350.360596
1551.688843 -184.440430 1449.960938
1522.510254 -29.706039 1503.415283
1557.670898 -107.626427 1458.781738
1606.309326 247.383698 1409.486938
1570.494629 -131.744980 1635.026978
1516.698120 28.648941 1509.087769
1452.263306 96.315170 1571.345703
1486.172729 201.698318 1607.941162
1510.186401 150.466705 1531.735107
1515.571777 118.176559 1528.507324
1500.255737 -61.707474 1504.515869
1545.793945 -131.328781 1454.802124
1442.180054 -34.416405 1577.553345
1475.925415 232.478561 1568.106445
1440.489014 -85.786293 1686.172607
1543.805054 27.995293 1537.171997
1587.933350 -108.056328 1712.313843
1420.929810 -13.850784 1618.725220
1497.962158 -42.872173 1508.593140
1498.143433 -82.878746 1716.353516
1535.630249 118.960899 1485.416626
1426.558228 20.480255 1601.664917
1455.200684 -76.400887 1580.702881
1721.604004 -146.999084 1660.152222
1482.079956 182.259048 1620.432007
1578.445679 -72.659073 1777.898804
1562.220459 -28.222124 1545.339844
1519.319092 269.282257 1481.316284
1419.562134 -63.806923 1614.463013
1458.484497 42.201988 1672.025269
1600.288818 211.340332 1351.604492
1558.664429 -99.872612 1753.391846
1419.573730 -15.073162 1609.390991
1443.781616 -85.168739 1674.506226
1609.037720 167.581665 1344.894897
1686.757813 -184.768509 1544.133667
1666.802612 -126.350700 1692.856812
1538.478516 75.988380 1491.611206
1397.753418 72.145538 1750.129150
1509.294312 -57.398354 1759.707642
1498.877319 -30.109503 1696.396362
1474.970703 152.967834 1534.756470
1452.574097 88.116203 1573.242432
1563.852051 -121.525772 1629.011719
1562.421753 43.262787 1440.751953
1705.751465 -148.990768 1645.760986
1462.894897 -54.077988 1543.591187
1567.157227 2.591516 1381.503662
1556.587646 -152.062805 1563.543579
1557.096802 -104.961075 1680.046143
1449.615112 69.217758 1660.694092
1438.559814 87.618507 1586.533569
1515.989380 -87.694176 1472.872070
1632.271118 -150.482605 1593.911377
1550.642944 -110.923340 1747.860718
1479.123291 -83.723000 1520.999390
1661.632446 -150.383514 1643.225952
1439.388062 -46.717113 1590.426880
1588.926880 -87.147156 1791.844604
1392.248657 96.161629 1727.886719
1561.511230 139.487213 1430.217285
1472.314453 -77.497780 1529.182129
1478.744507 265.347717 1585.799805
1561.795044 153.205017 1434.193481
1561.206177 -133.605148 1446.246338
1415.998413 -14.230682 1625.379028
1582.616333 -145.157440 1549.713379
1478.011475 -31.037861 1524.989746
1468.794800 213.315521 1566.813965
1597.718140 -159.117661 1548.373169
1475.745361 145.574707 1545.642456
1420.558960 50.870392 1743.121460
1522.492065 -87.559204 1491.043091
1526.803955 -44.575027 1479.659424
1532.729004 266.310608 1451.693726
1516.520142 151.002121 1488.192383
1463.706177 -53.175270 1535.747559
1619.166504 167.421646 1332.630127
1612.811768 136.056396 1347.085938
1550.492432 -148.858658 1468.973022
1767.313354 -160.153061 1638.881836
1516.221436 170.525406 1522.156006
1394.129883 69.382713 1765.399414
1426.221191 113.557037 1610.968506
1466.005127 -24.863449 1538.832642
1469.812378 18.749159 1789.640137
1623.814209 -114.920746 1688.799438
1494.707397 287.067719 1514.251465
1440.626831 -63.444256 1580.607178
1647.279175 -136.555847 1642.115112
1433.805786 -24.679476 1591.122925
1620.271973 197.029160 1329.420410
1463.936890 253.583893 1589.144897
1505.155396 316.525879 1575.015015
1724.184082 -151.810669 1642.342163
1398.668335 52.530350 1750.642700
1532.348267 226.196075 1652.515503
1410.495605 68.263390 1713.275146
1475.962158 121.640778 1543.874268
1525.042114 57.038776 1514.827881
1443.639404 122.953529 1594.915527
1454.026367 -45.604977 1572.277466
1537.390259 78.752846 1469.255737
1463.921021 -116.230888 1555.676636
1489.710449 273.792389 1489.664429
1465.786011 -110.047218 1665.690186
1499.282959 -29.783619 1724.052002
1490.541626 -107.338402 1507.593994
1515.505737 221.207855 1491.260986
1536.673340 -158.475067 1526.640015
1471.785400 -77.740311 1532.196289
1479.765381 310.083069 1540.730225
1468.256836 -82.521240 1696.263062
1428.945801 -46.442276 1623.868652
1512.286987 -149.043732 1539.745605
1432.863281 98.262016 1608.307251
1642.374268 -171.432617 1542.918823
1486.047852 -96.195671 1650.734741
1466.642456 -79.717476 1692.575439
1427.894043 -67.660683 1658.657471
1441.419556 119.231186 1592.872314
1573.737793 107.938972 1417.754272
1492.972656 -122.618820 1499.550659
1459.400635 183.657043 1594.069458
1604.595459 -125.082710 1652.242065
1656.015625 -110.410355 1722.551025
1741.782959 -169.811203 1608.595581
1466.215332 127.572853 1555.884521
1547.074829 -165.338303 1508.826904
1565.708984 -37.409126 1427.071777
1563.485718 24.521379 1414.532227
1612.038330 -198.363052 1509.540894
1573.011597 -27.045656 1414.027588
1558.541626 -161.966385 1512.811646
1642.656982 -99.013168 1749.607910
1556.055298 -159.305344 1526.620117
1484.198975 157.343231 1537.083008
1484.070068 51.553307 1541.580811
1508.518311 -120.039207 1623.954834
1411.786255 -69.261353 1647.459351
1448.252563 43.647007 1706.232666
1486.885254 306.429901 1620.752808
1582.280884 -78.487869 1786.044678
1536.873657 -123.333687 1468.969238
1409.786621 60.596645 1756.187866
1499.609863 77.659103 1534.607788
1422.158081 -91.588081 1602.718384
1473.115723 247.281677 1570.996338
1559.903198 -77.186501 1432.829956
1433.636963 -16.696690 1597.069458
1492.928101 24.227783 1541.164795
1464.204468 117.600075 1553.823364
1524.098633 -69.129242 1484.858521
1533.914063 133.914825 1488.351440
1477.414795 -20.091026 1521.077637
1469.851196 68.867699 1562.357300
1435.253052 45.729580 1681.474976
1634.358643 -155.216522 1616.637207
1435.676392 55.225174 1593.158081
1588.731934 -166.255341 1535.826416
1592.143311 160.053955 1403.398682
1523.224487 92.643608 1493.770142
1436.342163 -95.961464 1596.479248
1426.237305 23.940737 1717.424805
1536.058472 147.419952 1481.436646
1608.808838 130.421936 1362.051636
1457.855103 -90.038933 1544.325928
1549.601807 340.639496 1603.740723
1463.498901 -88.569511 1693.820679
1459.986816 -76.890511 1532.205078
1604.006104 -109.106865 1694.565796
1489.263672 158.173248 1537.287109
1489.729126 310.512512 1520.733032
1462.273560 130.036163 1633.140991
1477.968506 97.057091 1555.395386
1477.013794 -4.259104 1671.484253
1497.321899 313.395966 1509.436157
1471.512085 89.273132 1630.582642
1625.059082 -121.530846 1671.425659
1457.344727 -78.884941 1547.267334
1466.742676 -1.615284 1555.901367
1466.804565 275.559692 1572.207642
1535.014648 186.227417 1462.415283
1474.542603 -88.293198 1540.855347
1582.170776 10.161916 1377.402344
1529.104370 122.640244 1494.174072
1443.518188 130.821747 1585.065674
1492.413574 -99.251404 1491.833252
1453.138672 135.534531 1562.279907
1689.030762 -130.896515 1692.670166
1459.539185 3.925289 1560.867310
1531.779175 -139.512863 1571.223877
1584.667969 -95.940796 1727.687988
1476.255737 -105.804886 1681.252563
1689.481323 268.748962 1440.518188
1557.866577 -138.354721 1592.783081
1566.299927 208.983734 1440.505615
1764.762451 -175.872559 1607.755127
1497.188599 69.343803 1539.747681
1622.874512 -133.072281 1625.804443
1564.878418 62.598988 1451.141113
1455.824585 -3.915282 1793.633911
1552.190063 277.723969 1414.244995
1610.854248 -101.323021 1721.682983
1426.813232 -45.886974 1588.398804
1550.434448 -139.929962 1457.817383
1565.298828 258.259186 1431.742554
1488.029663 304.874603 1523.007446
1457.037720 170.054047 1577.418579
1466.614380 21.274990 1664.043335
1550.357056 -159.369904 1511.562744
1418.134521 78.685509 1700.705322
1552.509766 -141.650436 1592.235718
1586.063477 -105.070580 1756.106567
1476.968994 293.063080 1529.893799
1451.211060 -89.832733 1628.543213
1481.162476 -100.138046 1631.575928
1468.632690 -58.899479 1706.148071
1458.538208 169.611176 1560.677124
1534.312012 -167.494125 1474.255005
1516.397705 -129.215744 1591.556641
1559.724243 -110.693359 1424.399170
1491.430908 6.610929 1522.868652
1683.550903 262.809723 1418.989624
1462.407227 78.546234 1568.563599
1543.636597 12.869801 1714.685913
1463.155762 -16.957895 1556.897339
1519.192627 44.419674 1493.035400
1526.931152 -31.694469 1781.286987
1508.726074 32.401688 1532.471191
1497.110474 -106.906792 1621.785034
1472.662964 -96.284447 1529.766235
1566.007935 -143.028748 1458.632080
1801.984619 252.870102 1472.881104
1490.994385 260.323395 1614.985107
1499.487061 -124.936569 1593.165649
1443.158569 5.464262 1635.436523
1426.286133 -4.476525 1621.491333
1457.399902 200.560120 1578.519531
1454.978271 -60.836662 1551.735718
1475.771484 18.854181 1716.639038
1440.760986 -101.795654 1574.316528
1537.137939 -154.202896 1528.292114
1403.915405 61.913551 1729.801392
1535.411621 -63.462601 1469.729614
1502.852783 -60.161850 1484.367310
1481.741943 -79.934364 1518.060791
1425.009766 -61.090809 1602.812012
1561.574951 -130.711960 1448.864380
1572.659668 40.464870 1420.878540
1552.735840 -137.094742 1577.917603
1430.701904 58.725021 1714.966797
1490.810181 -118.745415 1604.352661
1524.946411 95.560326 1482.374268
1580.189209 33.365860 1395.908813
1570.584473 53.317955 1400.673096
1591.777100 52.121998 1362.894409
1481.325439 -4.881813 1526.291870
1467.331421 189.162109 1536.869507
1534.973145 -79.547722 1462.018677
1693.671265 -179.317047 1553.386841
1491.369629 90.061920 1531.816895
1637.226196 -185.467056 1512.778442
1641.855835 -122.134590 1713.469849
1498.687866 -9.027649 1686.400146
1576.459717 -114.101646 1438.187744
1455.005249 113.742874 1562.996216
1478.449219 283.832611 1526.109009
1513.425659 -87.430611 1734.752686
1574.046143 -29.036436 1507.799683
1684.620728 -163.923004 1580.892456
1451.286621 -4.587807 1558.449951
1505.226563 318.197906 1582.939331
1452.479126 91.102394 1576.157104
1551.810913 -59.367821 1434.614624
1547.250488 245.590469 1448.838989
1423.261597 73.010735 1691.713501
1585.155518 50.729290 1388.240967
1513.419678 53.692890 1500.398804
1381.862305 94.604958 1750.412476
1433.180176 100.116676 1604.067627
1560.348145 -95.636803 1436.364258
1601.180420 110.231171 1351.698853
1524.249756 149.970337 1481.163696
1621.629395 -155.455322 1608.525269
1486.212158 300.647522 1505.133179
1424.265015 54.401463 1677.126099
1449.664185 70.897842 1587.196045
1468.757690 247.203339 1518.383423
1498.300659 -125.164154 1533.441650
1491.873413 186.364166 1520.160278
1459.104492 -75.624886 1558.080811
1458.656006 249.136932 1556.812622
1508.185425 -107.895721 1640.797974
1465.603760 -95.343773 1696.028931
1586.978027 102.975739 1375.410278
1472.184326 292.766235 1554.998291
1494.071411 -35.420200 1519.420044
1480.925903 -98.650436 1712.898926
1544.144775 257.711517 1438.848755
1589.983398 -103.448692 1747.289551
1495.580811 -116.320198 1615.866821
1498.920044 271.125427 1486.764160
1564.179443 -31.138361 1488.758667
1448.796387 115.847626 1576.128540
1562.410767 253.955811 1435.548950
1490.044189 -94.817474 1512.021240
1454.919922 -70.885803 1546.174194
1574.660400 -149.408783 1558.485840
1522.208618 -79.715805 1485.022827
1543.693604 -147.997482 1549.147217
1452.793091 205.466141 1543.178345
1532.447266 200.261002 1469.492310
1526.262085 135.831421 1473.157715
1549.421021 -101.429756 1683.267334
1472.167236 -87.772758 1633.610229
1450.495605 37.067810 1650.569946
1421.303345 -53.358719 1652.227173
1524.849243 87.023720 1494.976074
1577.042480 -193.203674 1473.557007
1430.200928 150.062592 1606.815796
1547.635498 -104.309982 1729.909546
1632.530151 -116.477051 1688.610229
1491.981445 -23.096493 1689.241211
1536.046875 49.290436 1475.651611
1531.070923 -157.389572 1516.761108
1655.480713 -139.792328 1638.169800
1523.447144 -76.977898 1470.102417
1534.540039 -7.968412 1472.735962
1474.748657 -106.696068 1691.458008
1425.665894 -48.752529 1602.363281
1439.893799 37.494888 1731.230591
1539.144287 -144.101227 1568.239136
1450.365479 -11.703247 1660.378418
1443.868408 -72.977356 1580.916626
1485.463989 -9.081629 1536.867188
1502.611938 -82.170113 1476.416504
1617.625977 -162.842377 1561.487427
1426.036377 -64.021568 1595.752319
1571.303711 -107.247269 1438.920654
1485.840820 184.533539 1524.798950
1481.150879 303.652344 1531.224487
1578.309326 215.396820 1377.261963
1492.251099 305.478882 1495.984009
1586.336792 76.056534 1387.918945
1404.149658 62.243881 1752.496704
1484.003784 88.974785 1559.464355
1525.474976 25.880089 1520.000366
1574.987549 351.791595 1437.998535
1410.559204 -51.076679 1640.449097
1488.150879 -5.575106 1785.314575
1621.346313 -160.543213 1586.202881
1538.858765 72.642036 1480.181396
1539.908569 112.402969 1466.990845
1454.957153 -58.423840 1685.665039
1431.023315 -87.707306 1590.933350
1482.214966 265.210968 1584.229248
1501.986206 -75.884705 1715.841553
1562.258179 -109.826172 1423.230225
1583.841431 -162.794510 1541.953735
1512.528442 -108.739624 1490.614990
1598.892090 15.994887 1388.754028
1450.480347 84.103516 1583.673096
1709.175903 -142.004822 1701.723267
1537.175659 -152.561859 1562.773315
1536.835571 -173.391312 1445.548218
1465.370239 86.984421 1566.535522
1437.283813 97.256973 1616.419922
1462.511108 158.461060 1575.615845
1538.530151 -132.477814 1609.571777
1681.607544 -162.759766 1594.745728
1578.596191 15.688341 1399.483521
1480.718872 272.578491 1548.148071
1461.655640 -24.345600 1551.309692
1568.309814 -164.038162 1529.848145
1570.065918 -39.754673 1393.930542
1477.292114 149.039597 1556.740845
1602.809937 256.949341 1367.603760
1590.844238 65.992668 1399.450317
1444.111572 40.667027 1586.263550
1450.985352 128.532547 1572.244263
1578.218872 -150.319565 1551.945190
1602.191406 -120.888535 1629.395508
1551.692749 51.736961 1431.071045
1567.324707 -157.552078 1530.208984
1546.133301 -68.684631 1742.581787
1565.271729 -47.065815 1771.296021
1426.039551 8.045157 1604.865234
1419.199829 -75.307961 1612.228394
1439.388794 0.472003 1669.667480
1637.729736 -120.970222 1687.315552
1454.183105 180.151718 1580.655762
1438.514526 113.893517 1581.899170
1681.957642 -125.515289 1730.656860
1425.235107 49.943432 1688.988037
1441.384521 92.793221 1613.882813
1582.953247 -90.534676 1424.750610
1494.201782 45.395363 1553.368286
1498.973389 9.924777 1529.108765
1496.082886 -110.120552 1495.181519
1509.374634 -24.680481 1740.638184
1503.576538 156.743118 1516.494019
1485.346313 -141.657928 1558.986084
1441.811646 -44.160477 1596.609863
1458.882202 -56.270821 1551.391479
1561.218628 71.683411 1443.027100
1436.348267 69.543625 1602.796143
1576.102905 7.112933 1405.275879
1510.425659 12.295144 1525.171021
1719.101929 -168.991058 1598.294312
1468.272339 -121.431770 1548.369873
1535.847778 -101.819054 1678.904541
1484.161011 61.134823 1561.848999
1515.746704 -122.790390 1576.771729
1511.811279 333.117432 1579.690308
1480.351807 276.364746 1524.842041
1525.808228 144.646408 1479.357666
1530.160400 -152.046478 1466.899170
1461.446411 133.741684 1554.329956
1461.823242 -53.918152 1696.141357
1426.055298 -73.865204 1660.336060
1471.202881 -98.764923 1691.123413
1581.708862 197.739288 1377.109497
1555.445190 136.127350 1445.624512
1418.689453 52.806015 1745.929565
1520.566528 17.135727 1729.638550
1547.588989 259.537689 1434.937866
1427.961182 -87.032631 1602.144287
1450.951050 99.217354 1616.986572
1433.512085 -25.986105 1586.582886
1447.601929 -3.843365 1581.853271
1480.758179 302.404999 1533.102051
1589.690308 42.419788 1407.348145
1480.274658 -74.817345 1519.267212
1451.043335 158.843735 1569.969360
1430.941162 -7.387951 1623.659058
1465.324585 -118.153099 1584.706543
1570.574341 -159.397263 1522.424438
1518.963501 -121.205818 1486.150024
1469.112549 -92.340218 1549.278809
1519.945313 -111.080399 1629.930908
1545.245361 -132.969894 1584.046143
1468.975952 40.673183 1721.499512
1423.244019 -1.620458 1606.276123
1492.211426 189.946548 1518.895508
1519.739136 -60.783493 1476.465332
1490.086792 -99.852921 1649.225220
1587.321289 5.697212 1385.233398
1565.800171 -166.101501 1500.107666
1567.414307 -35.255775 1394.487549
1570.154053 82.726082 1414.648926
1413.539185 -29.871805 1626.178467
1509.561279 -71.537148 1493.029175
1518.377686 -135.904327 1574.978027
1537.735962 59.002480 1459.703613
1509.612183 -124.257179 1603.913330
1442.497437 74.859276 1747.631348
1618.224731 -155.385666 1572.101563
1558.275635 -102.964226 1442.351807
1467.411865 19.190199 1782.840576
1465.843140 196.717941 1572.108765
1537.514893 -35.208355 1460.189209
1494.356201 -59.713383 1500.687378
1431.453613 -32.519608 1591.694824
1529.003662 -147.333740 1508.284790
1455.508057 199.752167 1592.077881
1483.135376 176.628189 1547.780884
1718.064331 315.102936 1597.572632
1512.488159 -145.749130 1525.033203
1602.215576 -162.371780 1542.337524
1483.045166 277.895844 1610.155396
1409.973511 57.547600 1757.102783
1495.296387 65.354378 1725.263306
1455.305542 22.243717 1577.486938
1500.070679 -106.139854 1718.446167
1479.872314 243.245102 1516.059814
1474.012451 -98.832428 1708.153076
1544.724121 -108.828728 1729.570923
1453.223755 -59.457603 1550.063843
1472.692261 32.500031 1546.486450
1653.156006 -113.971405 1713.477783
1491.021606 292.643311 1568.204346
1464.028931 26.315323 1685.500488
1435.077759 1.769958 1600.304443
1431.345093 132.695389 1604.022827
1416.928711 -8.089383 1626.322632
1607.990967 -169.502060 1522.697876
1478.467163 240.659332 1581.429810
1499.231812 125.434776 1668.547485
1496.896118 -16.772003 1729.789551
1549.747681 -121.403702 1428.823608
1473.420166 102.880241 1558.060181
1582.430786 -136.955643 1598.625000
1485.168579 26.158695 1672.520874
1455.991821 -7.845396 1781.503296
1489.122070 -126.803017 1516.840454
1464.342529 103.638062 1644.465576
1504.928223 -111.500038 1487.402954
1436.412598 48.664200 1679.836426
1412.299316 64.713493 1717.517944
1513.705688 -33.379299 1494.310669
1456.785767 116.331772 1592.823853
1538.841187 217.986023 1445.856934
1476.971802 64.829514 1691.561890
1563.591675 -87.375534 1430.820068
1528.667969 20.941473 1492.218628
1560.291382 -147.238220 1568.843994
1511.943115 -132.991974 1497.458618
1475.546997 -67.615334 1538.696655
1450.325195 -62.354607 1565.520142
1451.475220 -116.031151 1595.781738
1506.037842 -56.790482 1489.385254
1578.827637 151.037735 1405.044312
1556.775269 -131.056381 1453.113037
1484.166382 -95.170845 1657.083618
1615.580200 -133.508469 1637.351318
1485.693359 217.170502 1589.818726
1512.585815 80.749924 1503.476685
1523.147339 148.965500 1487.748413
1571.543945 -160.262177 1550.688477
1444.170776 -50.006763 1564.139404
1563.024170 -156.415344 1451.030029
1529.678955 -139.579880 1553.420044
1423.894043 -5.854742 1618.912476
1549.670288 -150.149597 1442.571899
1460.840088 -73.393684 1529.057495
1495.956177 -104.845467 1657.031494
1525.164429 -149.419067 1521.268066
1473.222290 232.349380 1534.155273
1710.315796 -175.476791 1601.259644
1533.154297 185.724136 1504.194702
1556.581787 -114.222527 1449.803345
1456.075928 82.823280 1660.024170
1562.445801 106.174217 1432.275024
1519.563477 212.243179 1503.007690
1472.557617 -90.467621 1531.051270
1467.735107 260.482513 1547.782715
1578.594238 -158.612091 1544.780151
1564.207764 -10.683460 1417.674561
1423.195313 -86.048241 1617.785889
1550.394165 -91.311584 1712.438110
1447.008301 69.976433 1733.204224
1509.124634 -70.161407 1484.967773
1468.941895 -1.269139 1784.915649
1533.312256 49.755630 1502.150757
1473.831055 182.547928 1561.391357
1706.667114 -146.751999 1685.888672
1492.133179 -42.355610 1505.190430
1540.069092 211.115753 1459.514648
1527.091675 57.287674 1489.785156
1500.049927 -99.264084 1679.159912
1471.090820 64.892967 1688.573853
1623.774170 -143.588806 1600.784302
1726.946899 -171.078415 1587.909302
1566.279785 19.359070 1421.318726
1505.870728 4.045286 1506.977417
1462.206787 96.025414 1561.625122
1534.361328 -98.683319 1682.713745
1660.876099 286.865570 1473.361938
1446.421265 123.982590 1589.858643
1594.677246 -172.717407 1499.336304
1550.879272 -58.526287 1769.860718
1445.210083 89.428360 1582.708862
1487.472168 289.622650 1502.397339
1532.215576 -109.713676 1641.970337
1614.080444 -158.084274 1562.066528
1522.113159 -164.311722 1488.001465
1767.834717 -186.543686 1613.792236
1480.746582 43.045280 1561.807373
1417.827026 -10.642009 1619.615234
1677.132568 -170.015427 1567.807251
1543.249023 50.420429 1483.243408
1501.752563 -30.813709 1503.824341
1525.385620 -145.913818 1553.164185
1551.756958 -46.226814 1766.719849
1456.652100 -47.830925 1552.229370
1631.746094 -139.104950 1630.007935
1552.476318 -26.311022 1472.084106
1656.978516 -144.467422 1632.413818
1507.389282 154.891846 1503.779175
1431.375732 -71.955139 1633.873169
1446.262451 -74.890747 1578.210327
1568.027954 230.138641 1418.505005
1581.925659 27.590546 1372.767212
1481.574097 -28.227808 1534.824829
1514.860718 292.855835 1463.282104
1553.938110 0.452384 1470.630859
1459.647217 -61.665230 1543.575562
1557.338745 -12.393524 1478.015381
1447.763916 10.124284 1583.746826
1518.613403 -127.888840 1481.941772
1423.004883 -102.099724 1624.678345
1465.547852 256.675690 1528.167847
1517.445068 70.636436 1493.288574
1571.589844 -58.548279 1404.562866
1759.999146 -155.986969 1653.138428
1650.569702 -119.636276 1692.694946
1493.149414 1.244221 1770.013672
1584.791748 -101.759636 1686.391479
1471.066528 216.933685 1555.071777
1464.159912 -42.728745 1694.115601
1545.152222 -145.017563 1583.864380
1410.333984 44.061131 1736.065186
1575.954590 130.977203 1406.780029
1522.508179 128.705917 1499.926758
1414.995361 -38.672882 1629.259888
1545.902100 -65.518715 1444.302368
1426.200806 -53.417046 1596.995728
1631.630615 -122.103081 1706.760132
1550.717651 -33.570930 1471.168091
1528.140381 -14.334989 1498.532104
1515.812012 292.850647 1465.187866
1449.708618 -55.642338 1668.662598
1487.549683 6.673715 1664.429810
1555.949951 239.237579 1436.965210
1612.012695 -144.858795 1595.606445
1461.348877 92.431564 1562.622437
1564.631836 -155.088562 1545.103394
1457.639893 -100.327759 1538.588745
1446.395142 53.258083 1610.677002
1437.064697 13.661855 1669.780518
1564.482910 19.141912 1413.457031
1525.152222 -71.281326 1461.478760
1609.200684 229.289642 1419.356812
1507.136841 299.573792 1473.329956
1481.467773 -34.286194 1764.991089
1452.243408 -19.740660 1558.294800
1472.546875 253.991898 1567.287354
1541.509888 -100.820137 1745.489258
1521.907715 -93.229324 1488.773682
1562.359497 -78.490654 1431.425049
1473.473511 -80.791130 1702.081665
1434.739502 -91.031830 1589.890381
1594.185425 -166.153687 1514.344971
1490.671631 17.965914 1540.434204
1480.200073 233.382553 1522.450806
1585.533691 184.780212 1396.407959
1391.125488 72.365807 1734.997192
1454.432373 -49.790562 1666.201782
1457.331543 -59.221012 1550.741943
1478.569214 224.126892 1531.628052
1506.716919 246.790146 1494.471802
1469.184082 244.113739 1570.911133
1522.067749 -117.327515 1641.623169
1571.932495 27.562132 1405.039185
1480.507080 285.639923 1601.236572
1426.103516 125.740532 1600.623169
1436.904053 68.293358 1595.556885
1442.289917 -106.056885 1635.601563
1451.976074 56.925011 1663.617188
1546.294067 -87.018509 1451.069580
1749.752197 -153.460861 1669.215088
1520.024170 -84.273628 1731.814209
1665.715332 -116.281242 1718.926147
1617.157837 -148.350250 1589.167114
1434.073120 -31.279966 1586.604248
1679.620850 -167.810532 1572.649536
1546.633301 -49.142513 1450.945801
1542.495728 66.284988 1468.975586
1516.796997 -136.905563 1480.701172
1603.015869 184.568878 1348.959839
1494.490356 -102.324554 1643.521851
1519.522339 -25.245237 1737.201172
1496.749756 29.574497 1543.728027
1610.804199 -108.144867 1707.859253
1511.975342 -166.630203 1488.692017
1637.444946 198.219757 1392.604004
1509.122192 56.864521 1513.339722
1585.814087 147.633728 1362.062988
1629.479004 209.825882 1323.465820
1552.205322 -34.391560 1433.019409
1468.557373 -91.354767 1543.667725
1435.302002 159.559402 1595.974487
1539.431641 -144.346420 1562.307617
1495.660400 -21.461916 1737.278076
1485.243042 -98.420837 1664.771729
1564.427490 -132.964951 1605.148071
1569.580078 115.622444 1425.515747
1561.977051 -160.963150 1528.007202
1558.362305 -129.553757 1605.525269
1622.826294 -123.370155 1669.219971
1476.439941 163.258469 1541.068848
1434.846191 39.338161 1612.151978
1500.203125 109.774162 1513.634521
1489.799927 -17.667419 1718.480591
1492.793335 306.866089 1584.605591
1433.477905 42.375725 1722.282959
1444.367310 63.424793 1639.666016
1485.382446 229.838989 1516.898926
1586.046021 32.786205 1395.486328
1650.183350 -168.402771 1540.734985
1566.904785 207.844894 1404.502197
1465.076660 -69.408653 1687.814819
1623.114746 275.616791 1416.868042
1478.319458 297.290741 1581.515015
1475.352661 89.656349 1650.628052
1476.336426 174.800507 1633.321167
1619.739258 -131.978607 1644.434570
1506.788086 86.949242 1522.305054
1441.907471 99.070366 1602.227051
1440.090820 -86.674866 1669.539795
1494.486694 -106.674812 1619.824951
1446.681030 131.888870 1589.772217
1581.789795 -96.746819 1773.250000
1622.364380 148.848083 1345.857910
1543.161255 -140.527069 1455.393555
1501.745850 -10.187024 1756.030640
1624.420654 186.527817 1325.292969
1572.866455 -91.692268 1768.047119
1739.868164 -146.794586 1675.515381
1477.474609 300.753632 1552.790405
1453.185303 -80.712791 1542.530518
1521.622437 -121.960167 1464.847046
1502.384644 320.205505 1483.270874
1487.961548 75.459816 1559.103394
1688.451660 -167.455994 1564.224609
1435.343506 -37.033104 1593.864868
1564.499756 124.547050 1408.134521
1500.411499 -134.435074 1549.314941
1508.902222 -102.540115 1659.802368
1550.037842 -121.312523 1457.752808
1510.568359 -31.091671 1713.395630
1596.511597 169.171875 1359.021240
1593.768799 177.993546 1381.248657
1489.830811 -113.508064 1544.527832
1519.048950 215.772156 1646.388184
1535.682617 287.499817 1453.585327
1418.578491 38.939377 1714.682983
1589.504028 151.532150 1399.077515
1575.969482 160.967621 1388.777588
1485.398804 174.852356 1632.725464
1502.754395 -34.494297 1729.106812
1588.298950 -108.646896 1794.445801
1633.569580 -180.696777 1517.807617
1551.872803 -109.658943 1422.416260
1540.408081 -145.852524 1544.380371
1479.994141 -37.894096 1519.241333
1523.115601 -36.482040 1785.409058
1438.967163 -68.389694 1674.386841
