ply
format ascii 1.0
element vertex 1324
property float x
property float y
property float z
end_header
-925.831177 1000.298462 1684.844238
-910.836365 988.216980 1643.848145
-862.337769 1294.446899 1588.095581
-956.234802 1373.560181 1552.101440
-879.358276 1331.762695 1591.361450
-955.341553 1206.981567 1451.244995
-826.811279 1245.131348 1550.298218
-876.538452 1114.113037 1602.506470
-860.279541 1280.928101 1489.509521
-945.658569 1283.147949 1416.961426
-801.580139 1080.312012 1659.804565
-832.007263 953.651184 1705.896851
-963.475464 1272.592163 1432.038574
-952.379700 1208.812744 1460.095093
-771.935608 1013.400208 1716.692261
-1208.234253 1332.433716 1581.393188
-815.096924 1226.752930 1670.184326
-895.753906 1258.627075 1483.746338
-1131.671509 1324.652832 1526.733643
-802.401184 1095.331055 1660.846191
-915.578064 1396.438232 1577.292236
-876.723022 1203.280273 1546.493896
-979.585754 1010.113464 1562.471924
-1135.693115 1376.376465 1608.283203
-845.991333 1015.667969 1685.693726
-872.759766 1318.227051 1455.342529
-1159.371826 1313.540894 1535.180176
-956.738953 1383.059937 1561.898682
-884.515991 1356.932373 1568.196777
-1000.651123 1077.336548 1516.296387
-947.268311 962.101746 1638.306030
-1046.163940 1201.645020 1427.648438
-869.647339 973.186890 1757.407471
-957.817261 1179.126709 1491.803345
-918.230774 936.080627 1660.499023
-906.974365 1378.666138 1595.649414
-725.890015 1341.089233 1636.414429
-799.407898 1205.899170 1602.114624
-1184.807007 1357.053467 1587.809570
-861.675049 1271.826782 1500.782715
-972.805115 1041.810059 1551.516602
-899.734924 1385.451050 1510.414673
-1102.394287 1364.072754 1581.283936
-901.937744 961.156372 1689.074463
-1142.923462 1285.980591 1499.854370
-845.638000 1292.978638 1556.798218
-1119.765747 1380.886475 1617.698486
-1004.078918 1042.422363 1534.791992
-802.222412 998.222778 1697.548096
-1187.792725 1315.389771 1536.834717
-894.536621 1273.275391 1470.942505
-1112.386719 1258.725830 1447.327637
-794.916382 1105.158813 1664.603516
-1219.690308 1345.474976 1600.456787
-946.804504 1025.118408 1621.061035
-978.088989 1221.077026 1429.170532
-1056.371094 1367.914307 1577.367188
-767.882751 1069.171509 1680.389160
-994.148560 1094.851074 1525.081299
-941.579102 1327.332886 1483.097168
-1078.877808 1278.123169 1458.970215
-854.312073 1306.884399 1558.266968
-905.623230 959.673340 1649.861328
-824.451538 1257.656738 1643.416382
-880.067139 998.842590 1674.472168
-923.128235 1287.551147 1463.997437
-844.383362 1091.135010 1627.334839
-767.661255 1073.829102 1712.547119
-781.648315 1176.827515 1646.858765
-902.956787 1117.316040 1587.139893
-788.668823 1210.586182 1605.826172
-1014.226074 1171.348389 1449.116699
-934.950989 1359.214600 1524.519775
-901.174622 1409.717773 1538.828857
-845.211792 1214.606812 1565.543335
-961.014526 1446.738281 1605.165527
-816.135986 1377.900146 1650.093506
-736.424988 1360.043457 1615.700195
-877.695007 1220.117188 1528.863770
-730.401123 1363.931763 1627.481689
-841.635864 1328.311157 1497.753662
-1036.014038 1289.370483 1463.759888
-940.419250 1000.595703 1637.017090
-1001.623901 1283.696777 1468.606812
-831.079041 1246.638550 1551.704712
-969.342102 1235.821777 1427.822754
-848.765869 1316.438477 1490.027832
-1065.616943 1396.654053 1599.151733
-861.488831 1099.795532 1621.075439
-845.025879 1190.698975 1572.561890
-961.923767 1433.382935 1592.673340
-1023.505249 1360.078735 1539.868774
-756.571899 1346.469849 1620.231689
-838.133423 1009.908081 1673.801147
-1222.451538 1347.287720 1603.307251
-962.628357 1228.527710 1438.002075
-843.632690 966.460083 1700.301880
-919.125488 957.085205 1679.652710
-1023.752136 1231.713379 1399.468384
-790.677002 1177.112671 1621.985107
-863.169495 1309.515381 1466.267822
-762.422913 1111.819702 1771.692139
-841.926453 1182.929810 1574.580933
-869.162415 1231.852539 1521.288940
-922.803467 1189.480957 1548.637695
-891.337158 1286.504395 1457.643188
-976.167175 1113.318359 1542.836914
-822.414001 1276.230103 1591.493042
-852.216003 1281.839966 1573.840332
-776.398682 1069.093628 1701.249878
-999.625061 1281.899414 1438.311523
-901.859558 1307.348511 1470.547485
-776.320740 1010.211914 1747.578857
-1005.635864 1019.457642 1550.625000
-820.630188 1406.971191 1638.334961
-974.909485 1051.697510 1547.624634
-1009.237854 1205.200928 1422.998169
-835.343994 990.243408 1698.244019
-871.737976 1343.763062 1484.135132
-1019.598450 1112.875732 1485.498779
-904.619141 1268.252319 1454.716797
-1038.950317 1260.451294 1424.493164
-1064.875000 1226.109009 1395.456909
-1038.122925 1410.943115 1630.496948
-1054.287231 1276.838989 1452.982788
-840.471191 1321.763672 1518.636719
-847.606262 1084.313721 1633.269897
-855.245667 1314.075562 1561.394775
-870.526672 1309.209473 1598.578125
-825.993347 1076.611206 1662.756470
-1042.851685 1230.843628 1399.083130
-990.965942 1065.320190 1525.183228
-890.194946 1418.182617 1627.553101
-1008.031921 1126.108643 1478.641968
-890.296631 1300.852905 1475.100098
-1079.805786 1244.651245 1423.767822
-926.580750 1310.642456 1471.221069
-911.684875 1075.615234 1587.230835
-775.831055 1107.974365 1753.731201
-966.279297 1366.014648 1530.003174
-769.333008 1109.647949 1718.295166
-926.973816 1410.819336 1554.922119
-850.831360 1220.335449 1551.542847
-783.481628 1186.350708 1613.402466
-817.650208 1366.972534 1646.141113
-794.812439 1175.773560 1620.550171
-871.719055 1115.990112 1603.519653
-782.815430 1095.320313 1676.111328
-880.604309 1008.820007 1803.718994
-939.504395 949.902039 1654.792480
-776.288391 1095.742432 1680.754395
-930.875793 1256.703979 1437.682861
-787.454651 1078.103149 1694.988037
-1080.284546 1339.492920 1547.184326
-780.497559 1179.052612 1614.434448
-862.392761 1134.229614 1594.737915
-918.787048 1075.259644 1581.612793
-974.388977 1118.734253 1535.085815
-830.943665 1254.874023 1543.890625
-984.706421 1025.157349 1551.306396
-742.293396 1068.174438 1738.754517
-861.556580 1113.960938 1611.101929
-1224.567993 1344.171021 1586.320801
-725.645874 1343.170044 1640.990479
-905.799500 1099.073242 1594.958618
-823.064331 1038.488647 1680.750854
-895.549194 1310.352661 1439.835938
-1000.245239 1069.993164 1536.011963
-830.120728 988.625488 1701.582397
-937.706116 1296.375854 1446.871460
-951.168518 1303.889771 1459.841919
-798.264587 1184.129028 1613.591064
-862.978455 1038.364868 1642.074097
-859.718994 960.087952 1694.885620
-1022.678955 1058.366333 1519.401855
-853.723999 995.106873 1670.807251
-863.200684 986.704346 1668.479614
-816.531006 1345.162964 1614.531128
-1006.741516 1252.561279 1407.318359
-752.945313 1099.349365 1713.315552
-888.976257 1355.607544 1645.738647
-844.758484 1281.247559 1509.610840
-820.933716 1166.611450 1597.849365
-949.217346 1347.130005 1511.532593
-974.135681 1453.779297 1629.194092
-742.700623 1359.664917 1625.161499
-752.679443 1069.409668 1756.011108
-1084.838013 1267.672974 1455.297974
-790.191650 1194.690552 1690.834839
-908.836182 1200.453857 1503.923096
-757.057007 1114.060913 1750.674561
-867.787720 1279.497314 1483.178101
-993.713867 1008.384155 1564.495117
-840.862488 1268.248535 1577.535522
-1000.228638 1036.746826 1539.628662
-964.522827 1354.879272 1530.159058
-933.701294 1241.563843 1450.993652
-837.747131 1268.787231 1598.468384
-758.279114 1013.427917 1732.242798
-894.235901 1305.279297 1463.849731
-834.916382 1247.761108 1526.613281
-903.365967 1215.427490 1500.246094
-850.419617 1259.514648 1514.126587
-854.445190 1339.141968 1591.916138
-1020.123230 1299.559814 1480.478882
-1002.908630 1127.047119 1480.348877
-871.400757 1338.857178 1490.027954
-965.230286 1450.216187 1588.389526
-851.045715 1312.929932 1532.194336
-939.133057 995.897034 1624.664917
-1006.046021 1403.822144 1604.843872
-1037.269653 1113.267578 1477.198975
-928.769775 1397.185425 1538.768311
-872.184998 1325.411011 1568.809326
-825.416870 1067.096069 1669.432373
-1123.730957 1391.269897 1632.955444
-795.255493 1060.955078 1674.700928
-912.831787 1148.805908 1555.626587
-870.682190 1369.790039 1638.289917
-858.512634 1154.798340 1588.616089
-1067.790527 1253.037109 1422.973511
-996.731812 1162.194336 1516.708496
-883.295837 1005.593079 1672.141235
-1006.860046 1006.605652 1565.825928
-1070.874634 1219.125854 1408.250244
-889.618408 1056.592041 1618.742310
-906.989380 1214.192261 1498.687500
-953.826355 1034.526611 1597.828735
-957.503784 1432.458496 1599.529419
-839.631470 1291.824219 1570.338013
-844.395691 1225.254883 1550.884155
-1073.342651 1271.728149 1460.789917
-926.566650 1148.591797 1547.894409
-823.984497 1253.619019 1652.604492
-997.131958 1453.034912 1624.197632
-984.870361 1268.866089 1435.326172
-986.728333 1307.284912 1479.208252
-812.060425 1056.041016 1848.809570
-844.041077 1138.408325 1601.449707
-816.718384 1287.746338 1587.302856
-955.621826 1203.547363 1473.897705
-1043.278687 1304.331543 1483.192383
-957.026550 1057.328857 1569.447144
-1043.750366 1324.251709 1497.532349
-833.265564 1280.937500 1525.452026
-867.311462 1311.003052 1467.550903
-943.927002 1347.785034 1515.156006
-785.855530 1058.277222 1696.363525
-799.433411 1133.736084 1628.651245
-848.220459 1091.885864 1654.072998
-785.805115 1005.043457 1725.005371
-982.931519 1295.375244 1463.601440
-888.562378 1269.828979 1483.889648
-959.817566 1438.906860 1641.402222
-1031.395020 1327.818115 1518.095215
-929.206177 1413.712769 1640.301025
-901.779358 1244.718994 1467.001343
-848.891724 1409.673706 1618.955200
-970.602783 997.492188 1581.112183
-813.787781 1232.163452 1668.510742
-955.254211 1180.573486 1482.991089
-813.458313 1267.307861 1644.864014
-889.571411 1392.913818 1624.646240
-1056.467529 1341.740601 1523.949463
-756.738037 1035.809570 1724.688843
-1014.438354 1020.966431 1545.194092
-893.549683 1129.519165 1577.510376
-934.138550 1426.463379 1564.904785
-832.772095 1109.566162 1638.304932
-797.500793 1157.292236 1619.731323
-1042.269287 1307.706421 1487.661133
-850.438538 1054.392822 1646.020264
-921.055603 1406.810669 1549.800171
-1121.872070 1284.057861 1478.387573
-841.657654 1307.328003 1522.446533
-905.441956 1381.354370 1511.791138
-854.369873 1403.583008 1626.218262
-846.245667 1421.022095 1637.767700
-728.056396 1314.965576 1641.677368
-939.577820 1271.660889 1429.775513
-823.933777 958.453613 1705.007446
-776.207520 1138.221924 1682.196533
-838.098633 1249.729858 1602.411621
-859.189758 1385.252563 1629.718872
-995.388855 1179.218018 1522.347168
-815.464172 1266.219849 1640.917236
-772.980347 1357.419800 1622.539429
-941.407043 1258.302002 1441.594360
-964.873169 1204.181030 1453.059570
-785.870544 1117.162720 1639.978271
-796.790527 1227.552368 1661.417114
-948.639343 1422.795654 1574.845459
-1021.888672 1077.451416 1511.638794
-1049.615967 1204.148315 1395.718994
-891.320068 1285.121094 1482.378540
-1046.444946 1169.747314 1421.510132
-976.605652 1174.465942 1470.051025
-864.010864 1264.027100 1501.694824
-953.780701 903.794128 1648.949097
-1017.399536 1129.565552 1456.484863
-999.761780 1360.665161 1546.700439
-777.138367 1077.802979 1698.727417
-837.776611 1111.271362 1638.541138
-826.719971 1076.277832 1647.381226
-1050.169312 1152.201050 1454.166016
-925.039612 1295.409790 1434.498047
-797.069214 1013.115479 1698.844482
-956.985779 952.318970 1615.900024
-963.579590 1123.208008 1532.884399
-1031.522095 1367.198608 1569.230103
-862.727051 1261.745117 1490.566406
-877.512146 1167.919189 1561.904541
-792.397827 1307.650024 1615.751831
-1011.713257 1082.177002 1488.804565
-895.388733 1320.246948 1474.089600
-972.111877 1243.306519 1421.413330
-887.372620 1285.095947 1483.487793
-825.113953 1256.867798 1657.296631
-930.082947 1266.669678 1434.781860
-981.961914 1219.705566 1432.802490
-1009.056458 1334.478638 1515.986694
-884.581604 1122.849731 1605.344238
-1070.211914 1361.358887 1588.751099
-841.208740 1002.490234 1689.280762
-846.929138 1008.476929 1690.165161
-751.287354 1088.477783 1734.061035
-1024.499756 1098.818481 1485.474976
-844.777405 1279.261108 1504.119263
-785.164612 1153.739990 1705.588867
-1128.263306 1268.424316 1459.915649
-1000.536987 972.654175 1567.462646
-833.066406 1268.531860 1625.500244
-1037.417480 1345.594116 1538.822021
-931.340271 1024.541504 1651.320068
-1001.620361 1149.579956 1483.436523
-991.205688 1121.512451 1510.377563
-963.290039 1246.836670 1439.057007
-1016.446899 1367.921997 1563.347900
-1025.461304 1104.355957 1479.519531
-878.447632 1248.000000 1483.261475
-999.501465 1452.554810 1650.173218
-801.359985 1228.951172 1592.761108
-764.119751 1342.506958 1620.412109
-958.696106 1230.236938 1441.356201
-821.292664 1010.330383 1685.803345
-944.030701 1336.860962 1505.740356
-1061.089478 1299.613892 1488.584473
-978.151550 1228.372070 1427.703125
-894.551758 1203.526001 1494.689819
-838.685608 1092.168701 1635.382935
-948.884277 1237.941895 1450.683350
-1015.538208 1112.011841 1476.596313
-941.887329 1057.395020 1568.240967
-862.950012 1288.685425 1478.456055
-1008.605957 1081.680908 1512.601807
-857.431702 1424.829590 1630.748413
-966.829834 1335.686523 1501.964355
-855.257080 1366.936157 1511.265869
-858.513000 1325.373657 1614.812622
-991.270630 1188.909302 1450.395630
-986.930237 1299.355591 1464.590210
-746.870361 1345.199097 1610.373657
-976.312012 1179.404541 1468.769165
-940.104370 1310.450317 1467.719116
-1018.916199 1119.974121 1442.636475
-998.710571 1150.434326 1491.046143
-781.558838 1118.490723 1688.031128
-929.306946 1218.132813 1481.299561
-745.062622 1088.158203 1792.861206
-1012.127563 1035.396362 1516.720459
-967.753784 908.080994 1595.139526
-1159.765015 1292.857666 1518.911621
-1196.718628 1329.896729 1543.877930
-977.805542 1237.158325 1426.311523
-977.191772 1039.146851 1552.803589
-837.368591 1178.788696 1586.877563
-912.475647 945.930359 1672.513306
-977.882080 1243.571045 1422.943726
-860.604187 1116.775269 1602.360840
-790.893738 1340.743042 1605.356934
-959.981140 968.894043 1640.494019
-1172.137085 1322.989502 1557.215454
-870.513245 1228.891479 1524.183228
-900.273132 1339.012939 1624.088989
-965.053955 1175.916260 1488.149048
-926.635803 1417.079346 1633.657349
-1001.480652 1317.946777 1491.479370
-1236.453003 1362.833862 1584.659668
-826.194397 1248.624878 1582.979248
-838.285828 1253.884277 1525.668945
-817.965576 1049.444458 1681.732666
-877.211487 1187.170288 1578.872437
-1127.826294 1288.544189 1456.237061
-794.757446 1160.494873 1611.491577
-952.083008 965.838074 1621.213257
-1000.446533 1313.368042 1485.124146
-914.106506 1285.129272 1443.304932
-1034.557495 1070.922974 1514.158325
-1030.154419 1252.340942 1380.944336
-885.643005 1222.017700 1524.103516
-898.093506 1389.716553 1539.162354
-786.093872 1106.508179 1664.348389
-851.515259 1321.698120 1484.681030
-1011.454346 1197.724854 1432.467529
-763.768738 1032.227173 1719.017090
-938.900696 1420.227783 1551.518311
-893.803833 1214.757080 1500.263916
-1072.002197 1394.480957 1635.797974
-891.715759 1391.364868 1562.387695
-856.266541 1022.671692 1813.696655
-905.977478 1208.804688 1485.029907
-802.775452 1209.325684 1587.968262
-1107.110718 1265.848389 1417.810181
-845.997498 1325.501709 1610.709351
-968.748718 1326.901733 1484.824341
-883.557556 1061.874756 1624.985352
-962.332642 995.044800 1633.835938
-903.446838 1349.784424 1504.121216
-810.372253 1188.977173 1592.469482
-869.363708 1344.050903 1544.684692
-827.126648 1231.894043 1617.436523
-877.603210 1238.350952 1504.154663
-879.944214 1436.925049 1648.013672
-897.781067 1188.338867 1529.010864
-958.774597 1315.590210 1456.497925
-938.669495 1142.217163 1535.521240
-955.985779 1007.582092 1628.831177
-901.103149 1362.877441 1500.773193
-868.763123 1147.886230 1592.398926
-860.944885 1083.131226 1619.724487
-803.352112 1159.166016 1733.762939
-921.619507 1416.919189 1620.259644
-1012.316040 1230.347534 1428.900879
-961.860352 1342.240723 1519.848633
-765.053101 1362.250732 1618.832886
-779.827576 1156.151489 1648.256348
-916.730591 1198.879395 1492.812378
-1127.607178 1365.374878 1598.702148
-957.245544 1431.581543 1592.999146
-852.588867 1247.654907 1524.638428
-981.612915 1097.919434 1513.022095
-1051.091431 1246.666748 1406.667725
-767.492432 1031.788208 1722.034912
-1075.228271 1383.124512 1607.209839
-996.600281 1132.158325 1511.829468
-860.951050 1201.835205 1567.232666
-1005.301941 1082.527100 1485.854858
-1056.170288 1194.058472 1415.705322
-1033.189575 1200.331909 1418.904541
-979.590698 1452.100952 1647.415039
-994.192993 1282.733398 1440.572876
-781.257263 1093.305176 1675.442871
-832.969421 978.811035 1712.130859
-891.564453 1337.791626 1628.041382
-828.888794 1271.215454 1534.661987
-984.183533 1457.695435 1626.308716
-899.668152 1393.844727 1510.918701
-816.854248 1304.149536 1600.703979
-918.623474 1251.616943 1460.774658
-812.567993 1322.717163 1578.212646
-749.664368 1327.033936 1627.559570
-1019.654236 1229.964844 1407.233032
-1110.423096 1392.772217 1607.564087
-916.365295 1366.565796 1515.734375
-827.416321 1235.586060 1564.911377
-1190.043335 1352.225464 1596.762451
-883.272034 1258.578247 1482.140747
-1087.019409 1268.532471 1462.577759
-758.218628 1045.720093 1754.424316
-920.515686 1321.456421 1483.044922
-791.714172 1072.551636 1670.649414
-783.730774 1347.678223 1611.155640
-1042.206299 1406.010620 1606.335449
-832.387085 1270.325317 1568.393433
-994.424683 1143.924316 1490.917114
-1058.774902 1341.361938 1540.847046
-785.200073 1084.805542 1670.535889
-995.336853 1295.830322 1467.827637
-926.682983 1052.452271 1599.994873
-933.796143 1048.933838 1596.767090
-834.191101 959.766357 1709.856689
-990.011902 1344.205566 1520.811401
-914.315308 1348.691162 1507.089478
-851.362671 1398.034424 1620.005981
-963.016479 1065.387085 1582.686890
-779.116272 1335.638794 1603.048340
-793.020508 1344.203247 1624.447998
-816.243896 1290.043945 1612.542603
-924.765747 1323.818726 1482.200317
-762.715149 1088.580688 1712.925659
-798.578369 1203.698730 1710.395630
-1058.654785 1308.926636 1482.412720
-1152.715088 1347.708618 1578.620117
-855.218018 1302.215698 1579.228394
-851.310364 1406.141968 1636.609985
-1002.881531 1124.299927 1502.531372
-819.551758 1243.341431 1569.775146
-854.124268 1316.239990 1580.469238
-1138.295776 1298.257446 1512.224365
-1001.201782 1009.617188 1526.209717
-843.737366 1122.308594 1610.158203
-994.095947 1283.690918 1426.606567
-870.833435 1206.314697 1550.193726
-947.601074 1193.411377 1473.354126
-1128.527588 1314.909302 1537.831665
-988.195129 1152.910400 1478.769287
-1049.654907 1379.362549 1590.485352
-1044.601318 1278.106567 1458.063477
-767.645264 1080.625366 1701.594971
-856.298523 1315.898926 1543.329346
-906.004700 1390.963501 1519.735718
-794.867126 1125.068726 1665.615356
-755.367676 1089.830811 1808.602051
-777.307983 1183.272827 1628.159912
-851.546265 1222.979492 1542.536133
-887.078003 1330.094727 1460.701050
-942.994873 956.394165 1693.071289
-832.853943 1086.886597 1638.050903
-756.445374 1364.867432 1615.700195
-907.569580 1138.071411 1576.445313
-833.558594 1238.061279 1590.641968
-1199.529785 1339.610596 1580.777954
-968.925598 1180.950806 1480.154053
-884.894043 1426.364502 1637.042725
-994.404114 1096.027710 1519.492065
-984.341309 1139.610107 1510.711670
-806.992432 1298.603760 1578.878906
-934.490784 1297.224609 1436.224243
-997.940491 1101.269287 1506.271973
-784.456787 1039.337402 1679.107544
-877.778015 1296.661499 1646.440552
-920.644165 1263.729736 1447.850708
-781.780029 1199.463257 1644.855469
-939.499939 1212.629272 1476.428833
-928.566772 1318.380981 1465.375366
-1101.518677 1353.419678 1568.037964
-1109.616699 1276.666504 1474.160522
-1003.655823 1244.728027 1402.258545
-971.247925 1322.119141 1493.903320
-914.095642 1235.946899 1483.958984
-862.117065 1314.932007 1477.574097
-747.013550 1370.328613 1629.221558
-836.853516 1131.673584 1617.403198
-803.684143 1003.754333 1708.942871
-763.929688 1018.763916 1734.033447
-886.172485 1189.796997 1559.029541
-992.743103 1313.792725 1488.621704
-967.197632 1274.553345 1405.365356
-824.290710 991.365417 1764.795776
-1027.415405 1312.815918 1496.187622
-812.776978 1287.684692 1612.502563
-776.535034 1020.780151 1772.418701
-987.546570 1426.452515 1606.002808
-958.395386 1205.523560 1450.906494
-940.965759 994.372803 1621.256226
-814.352356 1146.527832 1615.359619
-853.842041 1066.432495 1633.567017
-877.837341 947.404358 1678.192261
-793.253906 1174.452026 1624.820313
-883.009338 1371.822388 1540.305298
-1130.838867 1351.120117 1573.657593
-996.271973 1066.643799 1523.289795
-890.468628 1382.833130 1509.677612
-818.799377 1253.091064 1545.499268
-1057.561890 1352.333130 1555.570801
-1061.485596 1308.842651 1487.125977
-816.161560 1289.913574 1584.525391
-843.645020 1311.362183 1498.414551
-961.374207 929.020569 1630.801514
-1064.420654 1391.551025 1592.280396
-980.709534 1049.004272 1552.960327
-778.435425 1319.270142 1595.559204
-1125.525757 1336.335205 1554.607056
-1015.853699 1403.698120 1593.381348
-801.019043 1200.819946 1601.719971
-808.328552 1332.565674 1583.037231
-903.320801 971.030090 1656.871948
-896.791321 1110.436035 1580.682373
-752.290894 1089.883179 1719.608521
-1085.469604 1358.492554 1573.930298
-934.347107 1333.477173 1489.610840
-949.742432 905.927612 1659.340576
-990.606140 1123.045776 1502.944702
-907.022888 1071.494263 1602.424805
-1005.483215 1311.122437 1488.830322
-920.695618 1328.114380 1487.419678
-1008.794922 1359.778809 1548.350464
-887.760315 1058.531494 1634.988892
-885.399109 1354.691284 1499.543701
-1086.483398 1358.393921 1554.871826
-949.505920 932.595581 1651.684448
-979.960022 1098.458740 1549.959717
-972.435791 1044.476807 1565.913330
-1129.496704 1272.035767 1467.365112
-861.344482 1097.869873 1620.699585
-915.654846 1008.159485 1647.659424
-803.480591 1227.532104 1611.378662
-750.886169 1096.817505 1714.068970
-782.914856 1063.996826 1808.732178
-1047.220947 1431.030029 1637.117554
-914.781067 1048.482544 1657.564697
-774.273865 1128.639404 1729.130615
-966.246582 1386.413574 1559.320313
-917.530884 1262.960815 1452.221802
-1046.300415 1196.028076 1406.081543
-874.323242 1344.037964 1497.824097
-741.247070 1336.751709 1623.752808
-1075.392212 1254.192505 1415.959595
-802.110474 1295.251709 1596.076416
-964.244446 1264.086060 1424.955566
-898.821594 1311.360229 1460.649780
-1007.229248 1303.425659 1479.281616
-1031.092651 1313.503296 1484.514648
-971.506653 1258.534546 1443.726440
-829.401672 1041.686279 1666.945068
-1033.450073 1239.513550 1399.582764
-774.357605 1010.907471 1739.899414
-858.328918 1420.587646 1627.417480
-898.135559 1100.200806 1588.677246
-831.535889 1298.690063 1594.000610
-980.359802 1196.205078 1464.471436
-1214.243286 1349.295044 1610.606934
-993.437134 1125.867188 1488.403076
-984.305725 1037.529663 1557.337158
-1008.109070 1314.370239 1488.870728
-891.014160 1229.530518 1486.805786
-911.583740 1099.892334 1580.367798
-999.354431 1314.040649 1483.478027
-1038.886230 1222.484375 1398.930908
-1069.176270 1369.005981 1584.291626
-1025.372314 1265.755371 1431.693359
-998.564880 1271.313477 1433.612183
-850.522034 1280.996826 1580.877441
-960.999817 955.461548 1605.827393
-912.325928 1338.080933 1496.967773
-991.803345 1382.338257 1560.006104
-812.887878 1108.822144 1643.227539
-748.018066 1358.883179 1636.103638
-1170.735596 1351.761475 1594.150146
-1160.345825 1289.425903 1508.358398
-1054.362061 1191.126099 1420.446777
-829.141235 1136.998657 1627.936401
-976.780273 954.436462 1584.761475
-1118.354370 1280.848877 1482.729004
-891.338745 1267.251831 1488.135742
-1068.027222 1319.633057 1520.779663
-926.676575 1222.629395 1476.857178
-1103.186157 1315.173462 1526.321899
-1103.959229 1322.069946 1536.725708
-983.145630 1078.785889 1522.465454
-846.151917 1326.293701 1487.432495
-923.176086 1261.682495 1445.916504
-861.586670 1346.345215 1491.075439
-852.043457 1093.958374 1620.094482
-940.299744 1122.680420 1560.878052
-920.915527 1406.244995 1616.019165
-769.363037 1056.174683 1731.558838
-1230.722900 1371.330200 1576.572998
-934.294373 1169.037476 1487.575684
-943.418640 1060.136353 1584.619385
-884.771179 1267.248169 1481.153931
-995.643372 959.282776 1584.146851
-915.466064 1062.586792 1606.059692
-1015.255615 1150.059448 1459.100342
-1028.323853 1060.250732 1520.566040
-964.507324 1087.960571 1553.793579
-998.237244 1432.735229 1615.494629
-1176.789063 1352.746216 1593.640381
-799.360474 1307.560059 1589.395142
-934.049316 1130.145874 1550.875000
-907.091309 1283.580444 1447.797852
-794.334290 1180.791260 1617.498413
-738.925110 1325.705078 1626.420654
-793.442688 1027.628418 1689.375610
-991.963745 1094.723999 1514.074463
-949.842590 1331.595093 1493.653076
-929.413086 1354.877197 1522.240356
-797.683411 1343.780518 1626.082642
-929.526550 1221.385254 1474.504028
-1020.334900 1233.896240 1406.354370
-897.919128 1415.745728 1568.669312
-988.800598 1411.512817 1612.156494
-812.638489 1201.576782 1580.786377
-797.532410 1167.949829 1702.509033
-964.455078 989.574890 1592.315063
-923.398987 1420.417847 1553.322998
-979.105347 1216.302246 1555.163452
-1024.911133 1428.873291 1644.725464
-933.500183 1026.819824 1630.402710
-829.658569 1192.317993 1574.782471
-903.181335 1341.865479 1501.573730
-971.047119 970.850952 1598.923340
-914.191589 1232.782227 1466.512085
-877.597961 1038.077759 1839.536743
-894.854004 1427.613892 1639.166016
-1045.205444 1172.706177 1436.725464
-861.774231 1325.167969 1462.922119
-867.220276 1085.003052 1619.342285
-862.803528 1107.789795 1610.303955
-802.642944 1226.567871 1613.992188
-754.235474 1095.175171 1783.785889
-903.246277 1409.463257 1626.222656
-824.454163 1241.600830 1595.880005
-973.923950 1387.783081 1563.648438
-785.601624 1361.351318 1603.783936
-971.869263 1052.185547 1553.479736
-1010.600708 1369.918579 1560.807495
-843.572754 1154.431396 1592.049316
-1025.910645 1099.888306 1489.523071
-791.437317 1001.547791 1696.197754
-972.459412 1438.190796 1633.815674
-967.617920 1372.860229 1568.215088
-876.862549 1409.221436 1600.795654
-845.687317 1212.037842 1567.985107
-848.862854 1270.307251 1516.828247
-938.050659 1223.203125 1460.021118
-920.158020 1396.358887 1612.965210
-1040.665527 1276.252686 1448.376709
-927.831604 1359.511353 1524.326660
-771.324890 1121.436035 1707.591919
-949.029297 1036.348999 1598.817627
-970.461487 1083.401489 1547.659790
-841.045166 1137.223145 1613.103638
-889.907104 1002.526489 1804.516602
-792.837708 1165.188232 1637.658325
-1017.036072 1067.158936 1489.958618
-940.151917 1030.403809 1583.379272
-972.012451 1053.404907 1542.367676
-896.006409 1225.776733 1489.323853
-948.809570 1071.770264 1570.599121
-890.070862 1386.011108 1547.292725
-785.174011 1113.585938 1673.482178
-894.602112 1382.790894 1508.334473
-1037.805420 1374.616577 1596.180664
-863.901978 1334.492188 1560.110352
-952.975708 1442.142578 1591.270630
-1008.346375 1014.306274 1535.888184
-961.280518 1286.568237 1439.490967
-970.418457 1330.021362 1517.287354
-935.340515 1412.349243 1558.160034
-1053.456543 1372.910889 1599.701782
-1033.606445 1358.580933 1555.344116
-1009.460083 1000.559814 1562.088257
-849.899292 1079.678101 1634.003784
-1012.174011 1332.207642 1533.009644
-834.375061 1314.567261 1497.882324
-1142.158569 1366.874756 1577.031982
-961.368591 991.867065 1587.436279
-976.230408 1090.139160 1521.178101
-859.337097 1343.182251 1490.399414
-801.299133 1160.482178 1725.689941
-793.188293 1301.469604 1596.031860
-848.912354 1326.140015 1500.311157
-810.781921 1236.400635 1601.060303
-943.823547 1292.535645 1431.986084
-853.989990 1342.736816 1507.551025
-978.569519 1221.096924 1435.287598
-868.153442 1409.241211 1615.085449
-862.230835 1018.166504 1815.501831
-944.346375 1205.183838 1449.797974
-1201.848267 1337.912231 1545.135254
-1007.495728 1353.367920 1538.469116
-864.747437 1346.134888 1493.437134
-883.727539 1283.744629 1465.027100
-876.818787 1395.640259 1604.237061
-1006.702576 1022.451538 1538.727051
-1118.931030 1342.514771 1545.513062
-836.813171 1056.472656 1674.050415
-869.226196 1205.529053 1554.942749
-877.571045 1255.458130 1486.329834
-965.639221 1302.449219 1468.177368
-839.885132 1317.169800 1597.346436
-947.985596 1342.213989 1504.962402
-889.850342 1332.842896 1491.411743
-721.520020 1319.866577 1640.170166
-980.869873 1160.211304 1504.497070
-1039.054321 1318.293701 1510.207397
-925.969971 1188.723022 1511.737061
-885.610107 1054.141357 1624.519897
-830.392090 1288.463257 1584.753174
-777.044250 1159.956421 1680.479736
-912.314392 1403.515015 1620.693359
-986.441040 998.047363 1551.059326
-971.253662 987.627747 1577.979370
-1110.439453 1332.261963 1541.143555
-909.093811 1352.247681 1503.985352
-972.031067 1341.349609 1513.207397
-878.157959 1205.809570 1539.874268
-837.874268 1268.106323 1512.293945
-1075.953857 1352.359985 1557.290283
-909.138794 942.401978 1665.688721
-837.480713 1302.726807 1512.471558
-983.836914 1379.813599 1579.750610
-834.030579 1126.420776 1619.788330
-743.977234 1087.906250 1704.843872
-1015.788818 1036.412842 1539.282227
-992.650391 1137.632813 1506.794312
-1003.206116 1156.874878 1461.209595
-885.185547 1253.973145 1494.363647
-769.914673 1173.336792 1662.485718
-950.996521 961.593201 1638.668335
-919.323486 1212.531494 1472.673218
-860.662048 1362.610107 1512.957642
-1080.027832 1298.190796 1506.909302
-762.079041 1082.843506 1733.836304
-751.191772 1100.181885 1707.683472
-815.696289 1196.366455 1591.181152
-776.795776 1185.694702 1642.340454
-803.944397 1157.607422 1614.770020
-941.864807 1246.656982 1459.499023
-907.873291 1188.379883 1528.465210
-861.965454 1346.331055 1546.481934
-825.740967 982.450684 1714.731689
-845.481201 973.300415 1689.693115
-767.225525 1348.885620 1624.644775
-1006.217346 1231.060791 1419.432129
-877.167542 1198.944092 1553.926270
-830.717224 1240.542725 1711.248657
-918.421753 1416.539429 1547.765015
-788.761047 1054.845215 1677.209839
-939.024902 1134.669800 1536.635986
-897.374329 1409.151123 1623.874878
-820.604004 1273.878540 1586.818604
-754.363159 1040.593628 1740.033936
-867.800903 1344.551758 1492.283325
-816.076355 1197.629761 1586.987671
-910.938110 1210.829590 1493.981689
-784.172119 1185.628418 1612.069458
-923.181458 1249.499023 1456.325195
-1008.976440 1285.893433 1458.521362
-1025.590698 1376.609131 1562.468750
-1032.525879 1373.328369 1559.984985
-956.485962 1419.968262 1645.020752
-984.077820 1224.690186 1424.819580
-776.512695 1179.245239 1634.570313
-850.952332 1324.335327 1515.730957
-1026.986450 1118.460449 1451.080688
-965.577820 1092.199585 1528.840210
-1041.274658 1168.354370 1421.644409
-934.747864 1430.897339 1580.765747
-1010.437256 1354.960938 1541.426270
-969.229126 1342.239746 1522.153442
-842.652039 1301.781250 1504.710327
-800.250671 1219.438232 1603.788208
-914.956970 1392.775024 1597.886719
-1122.703979 1358.217773 1566.149414
-748.252258 1080.414917 1727.786255
-919.065857 1318.908813 1475.466187
-1142.517944 1350.019043 1578.344604
-850.392029 1318.299438 1559.215332
-1009.913757 1056.094238 1526.217041
-762.123718 1045.387207 1769.168091
-771.786865 1120.196167 1651.661621
-837.167725 1301.229126 1539.293701
-914.748840 1200.562378 1491.105957
-934.748352 1341.034668 1499.794922
-788.499878 1125.568604 1635.460449
-811.587708 1118.453369 1637.318115
-736.164673 1354.192383 1607.072754
-1139.051147 1277.387329 1480.485107
-1131.860107 1378.218994 1609.512939
-919.251160 1082.058838 1585.757202
-954.657471 1255.413696 1452.715942
-753.024414 1351.620239 1626.085571
-787.496460 1097.366821 1670.959229
-868.990173 1230.315796 1511.202881
-994.726929 1068.219482 1527.366821
-825.592285 1287.411011 1599.515503
-1059.604248 1323.917480 1518.680176
-1002.461975 1089.973633 1523.884521
-834.791992 1110.014160 1620.485840
-967.799011 1073.730957 1574.772705
-775.180542 1029.073486 1729.340454
-831.065613 1157.855713 1598.044922
-815.334656 1174.841309 1753.672852
-777.201782 1335.146484 1607.267212
-804.148010 1221.335693 1605.401855
-901.151001 937.741455 1693.157227
-847.740845 1290.981934 1515.485107
-825.615112 1297.951294 1585.925781
-754.621399 1358.048584 1623.034912
-911.188843 1255.808228 1458.658325
-794.929871 1171.757568 1613.322876
-762.447632 1068.891479 1708.614136
-1019.725464 1089.933716 1498.256836
-886.344788 1376.900391 1566.616577
-1016.401245 1067.259766 1520.840088
-905.339722 1218.397705 1500.072021
-808.117188 1301.843506 1595.146484
-894.892029 1196.600220 1536.163696
-1007.842773 1431.417236 1628.715942
-1016.396790 1253.052612 1400.878296
-981.803650 1162.589355 1491.877441
-1106.809448 1261.242432 1446.268433
-961.359741 955.817566 1608.946411
-871.495056 1169.168335 1582.907715
-834.881226 1317.365601 1495.909058
-1010.083069 1014.886292 1538.078613
-1184.422852 1329.221436 1562.228638
-984.698730 1089.658203 1541.810181
-1022.197876 1141.493774 1468.155518
-847.864136 1156.496216 1589.112793
-983.611511 1118.033936 1516.755005
-1026.258789 1208.381836 1412.047974
-825.878418 1416.862061 1626.131226
-992.934082 1133.256592 1484.189209
-788.997559 1141.095215 1778.168579
-932.956177 1219.848267 1463.580811
-914.665771 1070.923218 1596.617188
-847.282227 1029.914917 1668.631836
-916.971619 1174.737061 1536.086304
-1065.740723 1330.972412 1547.003540
-1188.296509 1337.230957 1576.107056
-995.802307 1357.428345 1552.143311
-915.300842 972.869141 1646.293945
-874.601501 1304.909424 1468.375122
-901.354126 1159.601929 1555.096924
-881.927917 954.417542 1679.500854
-1012.484985 1068.441772 1493.247803
-980.119751 1347.640747 1513.671387
-1061.757202 1353.922485 1557.263428
-780.888489 1033.148438 1697.217896
-1019.830017 1364.706055 1570.027710
-878.701782 1152.231689 1569.976440
-987.324402 913.308655 1624.661255
-767.789185 1017.795715 1734.553955
-896.872070 1248.999023 1477.381592
-869.261841 1039.090210 1657.138428
-950.760803 1352.424561 1528.803101
-1067.168457 1422.273438 1631.001221
-938.062134 1296.009644 1453.857910
-746.205444 1101.130005 1721.996704
-777.356384 1064.065308 1691.210205
-792.015259 1119.310059 1640.339233
-1105.765259 1252.145386 1449.135132
-986.766479 1159.573853 1484.484985
-947.601196 1305.557251 1461.013794
-848.116760 1242.868774 1528.596069
-818.714539 1227.448486 1564.650635
-1002.200562 1028.250732 1510.749512
-852.554504 1414.981201 1629.043457
-821.591431 1087.129883 1638.874878
-996.617065 1153.529907 1467.707031
-841.472229 1312.192749 1603.770630
-784.912292 1048.851074 1700.851807
-996.355103 1206.076904 1429.638672
-806.872559 1170.439087 1600.598389
-940.923584 1189.299316 1506.143188
-787.343384 1029.433228 1708.877686
-954.917053 937.960938 1612.595703
-1082.224976 1269.816650 1452.048462
-874.379395 1298.321533 1471.614258
-930.439392 1397.875366 1611.953613
-978.352417 1384.731934 1570.685425
-806.187012 1150.193359 1609.193237
-963.326538 1155.331909 1509.412598
-861.893677 1303.523682 1586.420410
-769.706665 1351.921753 1613.638428
-1156.080200 1300.440796 1520.093994
-1057.303833 1212.803345 1420.853760
-833.377930 1229.426025 1546.978027
-1062.422974 991.592529 1834.280640
-935.756409 1310.793579 1456.987427
-891.392273 1358.817749 1583.945923
-993.674316 944.312195 1594.126587
-783.958313 1133.099854 1660.299683
-866.699951 1183.129883 1562.588501
-888.992981 1177.354370 1558.540649
-868.971680 1155.634644 1594.377319
-971.316772 1025.569946 1567.655884
-907.613464 1337.840088 1497.859253
-928.543091 1218.677490 1463.506836
-914.724304 1292.269897 1440.625610
-943.208008 1210.972534 1447.090332
-857.905579 1354.490967 1499.264038
-1035.141968 1106.821167 1492.217896
-889.866028 1021.617615 1632.133911
-1012.430054 1010.528687 1565.002808
-785.740417 1342.185181 1659.682251
-781.900330 1335.416260 1599.103394
-1026.449707 1072.808228 1502.062012
-1082.283691 1239.412964 1397.014404
-884.583740 1255.730591 1480.985474
-865.136963 1276.864746 1492.096558
-834.224548 1288.498779 1525.339844
-769.940735 1086.022461 1707.745850
-934.505554 1082.833862 1589.052734
-965.992004 1071.568481 1560.438477
-947.786438 993.540588 1609.880859
-919.420105 1406.237061 1625.026489
-1011.507507 1409.736206 1617.687988
-786.691467 1232.899780 1633.246216
-778.943787 1160.977539 1650.034912
-932.278137 1271.165771 1444.510986
-841.380615 1241.846191 1533.943481
-922.778748 971.165955 1630.415405
-1035.887451 1354.414551 1553.704590
-879.937927 1108.571289 1617.527954
-992.478210 1203.333252 1437.911743
-1007.500977 1217.465576 1422.144775
-841.910461 1327.767212 1512.307251
-1137.818604 1361.013062 1588.291016
-974.114685 1257.489380 1410.409058
-869.194336 994.419189 1684.503662
-1116.818604 1350.223877 1582.938477
-988.138428 1271.709595 1392.793823
-722.617920 1320.001221 1642.630615
-1102.224243 1348.662354 1575.161255
-801.705261 1102.736084 1663.367676
-998.567871 1235.145630 1410.399902
-943.961670 1302.605469 1458.538940
-794.510498 1085.170898 1678.597534
-1135.620117 1306.236694 1518.082031
-986.386475 1073.955688 1549.595581
-829.663452 1311.096313 1576.328125
-771.194519 1348.667847 1662.504761
-844.893127 1299.120605 1499.768311
-1011.375244 1278.341553 1446.197998
-1014.117432 1056.422241 1501.434570
-941.244080 1315.889771 1466.933105
-807.703003 1169.770386 1606.183228
-844.506104 1204.136597 1564.698120
-1059.067871 1255.500122 1427.352661
-773.466614 1156.289917 1637.852661
-925.255615 1068.718994 1592.750000
-874.638000 1127.717285 1598.187988
-1065.112061 1207.087769 1403.866211
-832.073120 957.915100 1702.415527
-883.219238 1364.919067 1521.306274
-770.811157 1095.514526 1691.328369
-843.362183 1246.999023 1519.310181
-857.929504 1406.330078 1639.521851
-931.446350 1361.117676 1525.267700
-801.611938 1330.819458 1611.832642
-763.581604 1108.868286 1719.358154
-782.674377 1005.761230 1701.179565
-1009.992493 1026.696899 1525.869385
-1023.520569 1279.704224 1443.291382
-870.148926 1383.921509 1617.173584
-741.231750 1333.682739 1630.093872
-1047.300415 1198.259155 1399.186035
-777.321411 1340.887939 1619.498291
-944.087891 906.574951 1651.742432
-903.897766 1132.880005 1571.210693
-931.548096 938.968689 1634.763794
-818.553284 1271.136597 1596.583252
-834.328125 1201.214600 1570.521729
-959.196960 1202.472534 1459.056641
-958.713684 1071.575928 1572.428955
-977.093445 1163.654175 1498.344971
-871.468689 1263.582886 1495.948486
-933.812805 1260.026733 1438.084595
-769.781860 1122.564941 1712.084961
-833.794495 1097.276489 1642.087524
-930.332458 1197.640015 1481.362305
-892.991089 1192.537231 1584.447144
-918.223694 1022.751038 1621.814697
-782.443909 1152.034302 1702.596924
-1041.760376 1258.772949 1430.122925
-798.361084 1068.836182 1657.050903
-740.716736 1305.893677 1641.233521
-757.361084 1329.695313 1610.430054
-782.454102 1152.047852 1691.594971
-999.533997 1128.931885 1482.247314
-752.957764 1343.689453 1596.986450
-969.725647 971.000671 1626.841553
-993.509094 1110.076660 1503.220093
-1064.239258 1256.221924 1435.873291
-895.745544 1430.529663 1649.371338
-1072.227417 1303.388306 1483.156494
-948.263672 1070.114868 1576.690308
-801.870422 1150.332031 1761.555542
-895.487366 1368.266602 1580.367065
-758.146973 1102.047852 1707.330566
-1212.322998 1338.530762 1591.628052
-885.002686 1266.927612 1469.420898
-898.557251 1222.135864 1477.487915
-778.538086 1084.445068 1702.334229
-831.407837 1178.033936 1598.019653
-1058.822998 1303.279297 1492.881470
-977.550598 1139.422485 1526.124756
-849.872437 1165.810303 1581.322754
-911.187439 1192.011108 1512.708130
-1157.950195 1295.606079 1515.147217
-1117.665283 1387.960327 1626.358643
-1117.304321 1382.447144 1597.113281
-849.454468 1098.608887 1619.633301
-837.404846 1055.708740 1659.843140
-982.240295 1007.788208 1606.808472
-943.027771 1052.869385 1587.645752
-900.855164 1388.424805 1556.031982
-847.984314 1399.453369 1621.869873
-930.624939 1069.493896 1585.339233
-952.180420 1132.993408 1534.290527
-1006.726685 1341.042358 1523.649048
-886.940674 1383.194580 1515.285156
-739.949707 1325.824219 1628.558105
-759.458740 1099.314209 1751.132568
-943.816528 949.039795 1618.372681
-773.370117 1029.619751 1703.960449
-905.003113 1113.821045 1577.873169
-1058.492188 1383.000244 1579.890991
-991.314026 1176.079956 1456.099609
-875.428955 1107.313477 1606.391357
-825.595215 1155.565308 1600.510986
-978.943481 1095.867920 1533.097778
-941.156555 1337.868408 1492.952026
-987.839172 1144.196411 1488.312012
-846.416077 1280.465942 1590.315186
-770.994141 1004.896851 1726.235840
-921.346985 1158.598511 1540.190308
-1126.494019 1283.876221 1486.974243
-1111.049927 1324.364624 1532.806152
-887.348206 1084.153198 1600.739868
-1099.752441 1251.584717 1418.117554
-876.045776 1051.494873 1636.644897
-1059.782715 1195.978271 1422.562988
-779.871582 1118.983643 1675.932007
-878.586792 1135.150391 1593.314453
-919.028625 1311.560547 1474.881470
-776.464844 1081.207153 1701.168335
-840.292175 1300.393921 1565.143921
-926.493408 1197.202759 1494.111450
-1047.609253 1327.499390 1518.763428
-775.262390 1188.332764 1614.393188
-778.239868 1171.696411 1692.405884
-772.431885 1080.478149 1686.669434
-986.377136 931.924927 1735.135986
-996.388000 1017.930054 1570.988770
-880.547180 1386.626343 1554.053955
-988.612488 1069.421753 1532.959839
-808.506348 1239.945313 1625.920776
-1075.119995 1279.165405 1454.734009
-948.474365 1419.939209 1567.331787
-802.368713 1114.693359 1654.483765
-842.550293 1193.542969 1570.618042
-925.547791 1110.308105 1568.395142
-917.136780 1330.422363 1489.491333
-767.856201 1364.747925 1639.336548
-914.266296 1215.666870 1479.906860
-876.474976 1011.736389 1658.253662
-889.106384 1018.468811 1634.150513
-987.978882 1350.631104 1539.872437
-773.837646 1331.634644 1622.080322
-977.188232 935.935608 1612.743042
-849.079285 1314.739868 1523.177124
-1210.726563 1351.846191 1600.878052
-1183.164307 1323.062012 1567.087036
-837.677307 1272.134399 1533.197754
-787.559814 993.889771 1750.854980
-904.811340 1148.089111 1559.611084
-838.283508 1112.552856 1634.771484
-905.672424 1093.241333 1593.490112
-822.086060 1331.395630 1668.207642
-911.755493 948.772949 1668.055542
-829.973083 1249.972778 1688.308716
-991.004333 1076.444458 1536.639160
-891.641052 1319.366577 1455.145386
-939.503601 1419.486206 1646.651367
-922.269287 1217.725586 1469.239014
-831.535645 1331.070801 1612.189331
-980.274780 941.854126 1615.851440
-846.569946 1261.234009 1507.990356
-843.342590 1235.637085 1529.826294
-1021.562500 1286.985962 1462.406494
-834.228027 1243.132690 1612.923584
-904.562683 936.620972 1673.285156
-958.348633 1116.014648 1542.691162
-870.796753 1310.689331 1489.313232
-1055.627563 1231.527588 1398.811523
-970.590515 1177.149292 1540.594360
-825.446899 1423.806152 1638.179932
-959.543945 1218.062500 1444.642822
-813.291016 1083.423340 1672.376587
-969.068481 1360.492432 1523.519897
-928.821167 1325.448853 1478.791504
-1024.171387 1064.577393 1512.870728
-826.074524 1221.396362 1562.863770
-742.054321 1095.026123 1743.673950
-764.460815 1100.452393 1705.464966
-812.880493 1325.629028 1589.602783
-1014.273010 1210.094604 1417.781738
-1127.301392 1328.349731 1565.238281
-950.936279 1437.222168 1576.959839
-846.498779 1024.012207 1691.463623
-810.664612 1093.021362 1643.548828
-925.291382 1194.043213 1493.745972
-872.172729 1291.189575 1492.245361
-846.621094 1310.484741 1604.640503
-900.677246 1156.139282 1552.569580
-1027.097778 1167.363647 1448.478516
-949.242004 1050.822266 1596.773193
-904.863586 1427.181885 1647.144653
-1093.426636 1352.259766 1577.549316
-885.221802 1377.559937 1534.811646
-852.355896 1247.898071 1524.638916
-874.652649 1354.982666 1510.294800
-882.814941 985.446716 1778.843750
-932.996460 1142.956909 1540.259277
-938.450684 1268.431396 1455.995361
-783.842468 1074.074463 1691.713013
-1165.971558 1346.101685 1564.081543
-1076.419434 1291.311157 1485.721802
-1017.583252 1404.386475 1611.777710
-838.795776 1215.296753 1555.343018
-1036.541382 1128.824829 1447.910156
-829.869690 984.198853 1696.726318
-797.522156 1340.177734 1618.161865
-941.508850 1017.629822 1617.061523
-1084.133057 1266.368896 1465.581177
-919.391174 1404.505371 1577.973145
-854.515808 1004.945374 1687.657837
-1064.616699 1374.317993 1570.850342
-828.120728 996.547913 1688.175537
-787.448181 1325.194702 1602.021240
-855.720764 1076.641357 1646.289185
-766.168457 1361.225220 1639.493408
-774.354370 1168.082275 1682.103516
-847.013062 1006.118103 1679.908569
-901.166260 1222.389282 1499.275024
-925.095398 1255.053345 1447.818848
-788.968811 1155.559814 1616.700928
-909.264832 1396.876709 1626.214966
-922.051758 1217.835449 1486.556396
-803.576843 1135.218628 1624.904785
-1090.917114 1284.682129 1466.518555
-986.692688 1208.666870 1540.121094
-881.892090 948.772156 1684.943970
-997.382446 1377.011719 1568.541016
-1047.966309 1205.981323 1405.610474
-936.888428 1329.405518 1468.047607
-989.541565 1112.515503 1499.273315
-1060.928589 1421.503906 1642.294800
-826.792358 1229.184570 1559.389526
-761.851135 1302.588257 1622.803345
-1016.300415 1378.520630 1561.980103
-912.884644 967.032104 1651.349854
-951.322021 967.047791 1597.968994
-1045.981323 1144.907349 1456.142578
-923.619629 1082.802612 1573.385376
-879.176453 1354.540649 1580.529785
-776.318054 1336.673218 1603.571899
-1041.763794 1266.776367 1442.985474
-749.360413 1365.701416 1616.234985
-819.160217 995.397278 1689.218384
-1016.840881 1353.023560 1541.950317
-814.548889 1389.514771 1646.241333
-773.230042 1075.218262 1725.566040
-848.443542 966.328308 1693.351196
-955.411926 1192.964111 1465.717041
-823.815186 1239.468628 1691.749878
-917.456177 1353.095825 1517.727661
-743.084229 1067.879639 1719.418091
-782.827393 1149.194702 1641.975098
-788.474731 993.965820 1704.189697
-889.578796 1377.646240 1627.459839
-982.472290 1248.340332 1411.740967
-1017.516602 1428.488037 1637.755371
-969.126892 1452.237427 1614.140503
-881.987244 1093.615234 1615.762451
-992.615540 1077.798096 1463.934692
-965.852661 1333.975830 1509.717163
-1102.031982 1269.096436 1461.578003
-797.809631 1088.031128 1654.696533
-878.429810 975.499512 1668.651245
-857.140747 1361.971191 1501.205322
-916.178528 1400.004517 1622.907227
-805.377258 1311.267700 1588.887451
-800.050354 1347.097168 1637.564209
-977.637756 1282.315552 1441.392822
-836.597412 1282.416382 1523.374634
-773.877441 1103.979980 1691.359985
-895.171631 1141.082520 1565.082031
-957.312256 1127.180298 1546.519775
-940.789795 1329.505615 1495.277344
-1015.980103 1295.622437 1466.401123
-882.663635 1249.860474 1492.730347
-1013.791626 1201.012085 1425.768188
-919.711365 1409.424683 1630.895142
-877.811462 1300.091187 1459.510132
-1114.012085 1325.809937 1535.842529
-979.909424 1447.749023 1641.239746
-1149.374268 1348.060425 1553.185547
-751.096375 1374.306152 1632.444824
-960.183594 1277.058105 1418.072021
-861.015869 1101.880005 1614.841675
-788.774109 1042.178711 1700.382202
-765.853210 1112.495728 1720.078003
-856.640259 1296.948364 1479.115234
-937.032959 1052.871216 1620.027100
-1062.242432 1229.091797 1383.740234
-836.000793 1196.638916 1571.461792
-1016.349854 1212.224121 1414.047485
-849.646118 1189.994629 1570.192749
-787.862610 1187.653442 1626.666748
-1024.683228 1387.193115 1591.944580
-936.675110 1276.064819 1430.035889
-842.970032 1141.494995 1606.621094
-1129.753174 1279.661743 1475.963623
-1019.509583 1288.042480 1439.326172
-1184.019287 1332.732300 1574.569580
-997.019287 1002.761902 1567.647095
-762.578491 1306.410278 1613.569092
-888.375671 952.788330 1679.331299
-892.448303 1275.643677 1466.559204
-1079.439697 1325.137939 1543.345581
-1030.714600 1078.064575 1494.433960
-1022.452148 1269.390015 1438.864990
-918.055359 1269.244751 1448.879761
-844.213440 1342.095093 1516.204224
-780.200378 1339.138550 1618.090088
-959.239685 1031.100220 1596.446655
-919.404907 1271.657837 1758.526611
-1003.603088 1292.505615 1455.495483
-1053.304199 1270.350464 1441.583496
-859.013855 1275.175049 1499.677612
-1001.792603 1202.723389 1427.532104
-906.350586 1083.261841 1592.846069
-826.701904 1183.210693 1581.982300
-1065.476440 1393.866821 1629.603271
-817.328979 1195.757813 1598.276001
-961.849609 887.893066 1661.352905
-812.780334 1018.330017 1684.397705
-907.764282 1229.768066 1478.222168
