ply
format ascii 1.0
element vertex 1416
property float x
property float y
property float z
end_header
712.090759 2002.292480 283.933929
528.713623 2034.860229 174.837158
531.927795 2025.941406 93.648315
960.446167 2061.422363 230.780884
924.359314 2100.034668 204.535202
902.805298 2052.270996 152.185745
842.006104 1965.603882 265.857483
476.335510 2056.888916 258.901825
849.533264 2019.400269 436.204224
717.525085 1995.288940 303.365997
649.755493 2013.082153 79.323669
933.983948 2116.846924 326.432159
838.762695 2056.783203 285.619720
760.783020 1992.911133 188.841690
662.447510 2013.327271 279.223907
464.368134 2050.325195 153.610626
576.430298 2035.243164 349.924866
619.697998 2022.462158 292.271393
865.231506 2098.342773 275.925140
813.881592 2028.508911 336.725739
822.414063 1962.538696 120.380684
523.874023 2038.469360 319.489319
920.853394 2156.531250 154.910141
891.770264 2084.056396 120.848915
883.470093 2151.541016 29.552073
656.233215 2025.095947 157.732910
895.980896 2042.784790 138.017593
825.976807 1969.004639 6.288418
588.228333 2040.331543 358.582916
877.251526 2181.510010 -2.889599
947.035889 2031.474121 245.728210
641.833801 2013.674194 295.941895
852.810791 2025.758179 431.758789
715.663330 2010.320068 111.024643
836.657104 1955.611816 8.417556
873.000183 2018.593140 270.073639
654.658447 2039.449585 362.348907
659.140076 2005.082764 320.961609
907.891418 2057.455811 181.416794
776.393127 1974.469971 73.301025
845.628967 2037.381592 301.885376
867.389832 1953.240234 125.892181
864.162354 2120.654785 -13.483586
501.470367 2057.191162 345.125183
609.779480 2031.791382 194.053635
543.074463 2037.532104 331.300110
693.560425 2011.800537 192.539520
810.237854 1961.648193 45.353451
753.328735 1990.144897 31.866722
607.706116 2070.973389 409.710846
455.979431 2109.867432 250.167755
563.474121 2055.570801 404.883270
857.468262 1950.611938 96.621231
528.236938 2038.069580 353.742706
568.284363 2021.376953 111.014877
853.827881 1965.468750 -7.253504
857.043274 2053.000488 -13.587013
937.626221 2162.772705 206.813416
506.753235 2042.564087 342.181885
867.235901 1967.631714 190.250961
850.406982 2016.076660 380.932983
627.156799 2010.717651 319.708557
875.754761 2001.944336 118.203796
781.499756 1972.225586 46.273090
878.607544 2093.053955 338.926086
660.086365 2144.382324 373.782623
809.719177 1972.760132 74.722443
816.229370 1961.060547 7.645469
582.488525 2023.876709 336.091827
900.109314 1967.190430 224.188141
860.109985 1973.780273 254.154999
828.392456 1953.766113 124.192871
952.058289 2080.504639 223.821915
505.204559 2056.998535 191.866867
603.246826 2041.515747 252.596298
878.019592 1960.483276 125.179741
538.512146 2051.072510 372.230621
609.171936 2047.960815 377.709320
848.065979 1952.168945 165.771072
779.885071 1968.182861 113.628647
837.132019 2034.671997 345.710815
758.469116 1977.360107 94.425522
885.281067 2003.275635 179.052979
925.794922 2192.179932 139.907883
739.552734 2002.500122 310.042908
597.942322 2021.926270 331.676971
908.474182 2218.386963 56.814213
697.403625 1991.391479 37.101387
899.026367 2097.006592 164.739792
466.731659 2050.547852 289.012939
546.126526 2027.785278 115.133720
909.085083 2069.922607 186.757217
660.151672 2013.918457 113.858208
629.370972 2037.879761 190.191467
751.652771 2054.183838 134.836014
588.585876 2010.996460 72.665459
577.031738 2039.522949 375.418915
910.687866 2094.829102 361.961090
819.793579 1959.551025 40.129448
936.291077 2153.510498 271.334686
892.322205 2105.562988 115.078033
601.739624 2052.617676 368.920776
502.974152 2099.007324 386.431549
549.219055 2033.309692 335.476837
855.937378 2037.588379 345.548126
830.759338 2022.410278 304.241608
895.710632 2206.234619 61.288452
612.395752 2037.987915 157.703156
786.159912 1977.903564 21.304356
727.112976 1990.003174 63.479069
740.265930 1996.655762 266.915527
700.226501 1995.396118 312.830444
578.494446 2047.958618 276.585938
803.795654 1966.528809 222.579300
594.225708 2042.343262 231.047989
546.761108 2045.306030 269.353668
507.366547 2034.524536 155.481140
910.632507 2150.019043 127.664688
600.660034 2034.438843 281.965424
913.141968 2009.814331 220.374908
959.543152 2051.241455 225.566132
693.221375 2021.020996 356.084015
612.862183 2014.573364 108.191490
762.830811 2018.007446 306.286530
678.302368 2055.940186 375.533844
934.546448 2143.453857 181.517960
901.223816 2027.328003 261.808319
815.320496 2042.250977 295.709717
652.197449 2010.633545 338.614166
820.399963 1988.811646 6.604081
652.539917 2016.607178 261.199158
917.789490 2011.330078 237.703857
707.899170 1989.246338 79.178673
469.112122 2118.350830 290.488556
594.306885 2029.518433 264.691498
607.236572 2036.693604 204.211670
791.233765 1980.869019 265.755920
663.085388 2014.359497 266.253784
905.501953 2099.182129 332.077881
897.985596 1994.707520 205.664932
834.676758 2045.230835 302.887268
848.850891 2092.594238 299.852386
597.850830 2028.152344 134.338470
548.359985 2040.737183 316.109680
865.492310 2031.719360 343.253357
585.706482 2050.577393 308.425201
958.333679 2172.433350 251.116806
703.812561 2014.473145 231.280243
711.460327 2035.688354 167.273682
912.379517 2183.997803 105.727234
929.197571 2167.884277 271.508606
918.296631 2110.273438 151.019501
868.338501 1952.686279 241.412216
912.893127 2148.900391 135.832367
592.847351 1996.466187 73.391724
895.326599 1998.247192 209.148376
834.791443 1995.479492 21.091877
653.613037 2040.435669 376.082642
835.654114 1976.785156 28.745531
587.646301 2032.029419 194.255066
715.330017 2019.182617 338.042145
603.477966 2015.806030 87.710274
881.051147 2058.715820 74.466858
598.219910 2037.162720 292.094757
869.193665 1959.394165 247.608383
688.999573 2019.416504 351.130676
945.663879 2045.283081 239.324646
666.551086 2026.509766 190.337448
599.310669 2017.120483 91.552544
807.321106 2019.047607 360.982178
787.187500 1975.541138 33.995914
711.524109 2014.366943 258.970673
687.589050 2028.788940 131.011581
802.624023 1959.943115 128.510712
734.815979 1984.799561 83.446014
864.178528 1968.249023 264.105713
617.617126 2027.327026 149.379532
811.187805 2027.176147 325.768921
555.611206 2090.280762 406.102539
467.877441 2038.490234 117.078491
888.351501 2059.561768 130.950699
883.607666 1943.862793 202.887375
672.146729 2025.177856 115.936714
865.730530 1992.261719 268.833893
532.787170 2049.893555 379.633301
833.729675 1967.999023 162.991135
826.398132 1964.144409 220.857849
512.939758 2048.682861 122.864365
739.378784 2000.862671 328.996155
664.714905 2018.187134 323.160034
863.030090 2034.609131 283.786774
921.173035 2122.431641 182.000351
568.931274 2118.939453 424.666168
775.526611 1974.200073 150.625534
567.329102 2029.176758 341.412262
884.703308 2115.350098 102.204094
764.735840 1984.115479 285.291168
919.263000 2088.959473 203.991211
845.418640 1953.427979 233.337296
666.473755 2018.529907 236.844482
545.699036 2054.339111 272.998627
932.269287 2143.998779 202.235733
650.013062 2018.611572 107.559654
865.015076 1958.921143 239.588287
610.358398 2044.604614 371.919220
846.918945 1961.414917 143.353455
837.355225 1961.968994 228.671768
710.119446 2003.827515 240.867020
841.549927 1971.075928 138.171570
910.226074 2066.652100 202.010986
950.838074 2187.955811 254.827637
759.198059 1973.051270 24.667143
689.591003 1980.020142 59.303524
874.867310 1987.961792 261.231506
621.428101 2031.182373 242.003235
544.988831 2039.401245 322.074707
621.869995 2021.317627 63.578190
778.975342 1970.899170 141.549713
774.955566 1983.759888 229.149597
821.426147 2041.459839 287.785187
552.754578 2036.041748 356.725281
735.009827 2016.019897 223.898132
860.967651 2030.501099 381.225555
771.481445 1968.516113 129.217117
805.616638 2056.320068 332.632141
836.059082 1955.762573 216.820465
701.369263 2004.030151 271.252533
968.227478 2135.398926 241.901535
644.329651 1961.033325 72.044563
872.980774 2023.211182 425.407043
594.523987 2030.332397 202.820206
514.282593 2050.104248 190.398315
586.177917 2032.625244 353.158295
561.069580 2035.739502 148.627045
518.995239 2060.680176 245.728226
914.219299 2191.704590 104.868370
907.872864 2050.798584 170.865952
899.974121 1987.128906 241.602310
514.012085 2044.966431 287.202972
879.615784 1991.736572 139.187500
826.350281 1976.893066 272.916260
893.001160 1975.581543 231.311035
710.409912 1996.174194 311.811066
507.788483 2040.694824 129.670380
690.203369 2010.972534 218.864532
443.950897 2056.715576 224.583282
900.966736 2103.467285 333.049255
861.372620 2012.300293 80.770798
871.692566 1967.677734 145.496246
971.402283 2074.577148 261.735413
582.435181 2029.970825 324.335144
767.219055 1983.261719 276.033417
788.787170 1968.417603 44.524948
857.107544 1949.043945 156.586349
892.673706 2089.814453 328.565125
834.227234 1961.272095 51.330875
836.263672 1948.605835 132.356216
506.543427 2027.658325 141.400040
807.642883 1956.862183 121.218788
661.477356 2124.524658 372.205170
878.195435 1952.104126 152.803131
870.478210 2090.914063 315.986908
939.347534 2164.691650 267.184631
692.032349 2063.849121 367.635773
855.647583 1959.966187 212.587570
659.507019 2014.981323 222.005463
746.419189 1982.765381 49.549042
842.846069 2017.264893 396.627502
776.925049 1957.101929 104.238174
902.575317 2138.395264 110.924965
873.703979 2091.298340 311.058075
932.721130 2115.943359 257.835602
782.183044 1979.059448 46.390999
840.054993 2002.515747 17.004093
697.273254 2015.674194 243.866974
592.316223 2035.894165 264.062653
674.815735 2015.167480 196.832504
907.622375 2156.848145 112.710251
939.989441 2144.250000 313.460022
819.197815 1960.260498 189.054337
910.900757 1971.762817 250.164795
847.149048 2027.102539 374.253143
656.043396 2020.561768 259.393677
788.889221 2026.250488 290.484802
903.507690 2086.503418 188.651718
945.540405 2214.181885 178.748627
903.727600 2141.556641 102.603104
436.517944 2055.799072 174.372528
776.602844 1987.478760 274.957550
914.251343 2156.042969 169.768524
922.007019 2013.216187 250.726883
757.586487 1977.988892 65.463272
723.904297 2001.780029 336.764618
944.043945 2192.737549 163.598907
890.500366 2176.353760 28.564730
966.651550 2092.398193 239.104538
826.332031 1953.491577 104.891167
640.008789 2033.874268 356.141571
911.036072 2080.789551 201.979767
746.682373 2081.196533 345.271210
703.951294 2016.473633 235.567307
869.349609 2034.302368 390.890350
628.094543 2020.843262 234.295288
486.758331 2044.312012 128.513428
743.348694 2026.645752 322.676086
837.642822 2017.272217 367.075592
474.829224 2087.431396 197.571121
795.665039 1973.083496 250.256821
820.509949 2023.636719 365.009430
854.268005 1945.529663 162.289276
917.308105 2214.001221 256.355835
931.006592 2007.348389 242.092987
867.234924 2060.310791 401.957001
852.737732 2053.951172 316.243500
832.320557 1951.096680 111.610474
936.745178 2178.439941 185.410614
816.552917 2023.460449 405.267883
916.239563 2090.130371 158.963974
610.274170 2061.270752 401.696503
573.168335 2039.157104 161.348648
866.973511 2088.357422 -5.786824
901.433777 2183.675781 69.667175
750.125854 1980.380737 171.625549
780.725647 2033.608398 297.962830
929.209473 2040.143677 225.096542
558.696289 2078.034668 411.476074
557.201477 2058.364990 409.784668
831.762390 2015.826416 290.710205
831.743408 1956.769531 241.521194
451.224426 2051.797607 122.798752
941.464722 2192.558350 185.231262
591.491455 2034.434937 314.190338
924.108887 2091.032227 282.512726
893.966003 2076.198730 289.854309
842.658875 1977.841675 277.706146
857.154907 2060.151855 15.479774
714.918091 1995.106323 132.786453
625.622131 2031.643555 330.186157
577.524780 2019.730103 138.535538
674.426697 2017.941772 326.777771
923.428711 2181.335449 151.451172
823.702759 1953.849243 163.460007
503.833191 2040.669312 352.720612
864.395935 2028.161987 384.405029
805.978760 1975.356079 274.419098
760.421570 2033.196045 147.705215
827.889771 2032.501099 290.162750
925.112976 2157.975098 131.306610
796.018127 1964.526245 135.036957
802.641174 1963.193604 64.747612
831.364990 1988.156860 23.835775
840.680542 2015.226440 33.806568
559.125977 2041.823608 194.349380
887.893127 2066.987061 114.264336
589.416443 2080.098389 395.143524
816.197571 1974.475952 277.886688
589.571106 2056.645264 183.503616
740.451965 2029.660278 317.131470
838.323792 2047.353394 298.162201
810.915161 1969.425049 4.895932
797.531738 1970.848755 269.439636
871.587097 2096.472412 38.315079
811.518616 2021.585938 401.123047
631.362610 2073.614502 380.451782
846.206726 1948.839722 135.054352
951.519897 2092.478516 337.440369
843.375793 1961.488525 144.297577
897.113464 2105.956299 84.999443
761.047119 1988.171387 195.261459
815.751831 1966.886353 222.364944
699.955200 2016.498535 355.553131
798.833191 2028.384644 326.611328
867.961121 2174.001221 14.427217
817.423828 1966.171143 238.145737
483.203430 2055.530762 139.476120
871.191406 2058.189453 390.166107
839.778442 2023.655518 306.773926
510.964691 2081.385498 386.651825
952.930847 2187.903320 194.749680
893.310608 2169.426514 51.363892
837.093140 1972.820801 52.393127
537.123169 2113.765381 406.324188
835.720459 2030.139282 321.942719
849.180786 2027.064941 368.177582
764.257507 2056.764160 328.642426
845.345642 1949.645508 147.765381
838.412659 1962.184937 65.330894
939.317871 2181.768066 156.695465
784.503296 1982.648926 284.372833
921.358337 2200.163330 82.689384
897.350830 2092.822021 325.434631
853.586792 2024.216431 37.280308
832.806641 1953.207275 79.679375
671.118591 2008.821411 65.212029
560.416504 2046.222290 383.307190
930.476196 2092.630615 270.406403
934.808777 2083.891113 334.526917
855.544373 1989.059448 104.410095
888.687439 2035.017456 261.097473
488.418549 2064.497803 256.354919
898.198914 2042.537476 137.296097
871.986816 2149.990723 33.819283
659.362305 2011.457642 55.200237
789.327026 1967.142578 123.166824
500.743164 2042.564209 333.258942
734.575806 2001.270996 270.998169
526.110901 2031.336426 130.999084
653.105774 2099.520508 387.451599
536.085083 2033.380127 173.008392
642.843445 2008.045898 135.135574
659.143677 2022.328003 103.948692
661.935608 2002.197632 98.089386
932.653198 2017.058716 243.403717
945.221008 2071.533936 248.524673
568.060974 2025.353027 161.426468
865.889282 1946.262939 16.920280
811.798340 1971.145508 107.159645
719.033020 2041.823242 361.088562
878.455505 1984.787598 157.727020
704.890808 2012.685181 92.394791
795.680969 1961.723267 202.802414
820.982422 1963.255249 82.937630
654.520203 2038.268188 255.090332
864.743530 2087.409912 19.841875
853.458618 2059.928711 334.601074
485.260406 2158.252441 314.876587
877.149963 2109.563477 42.967514
686.949646 2000.337769 123.607010
589.517822 2017.392700 140.057434
887.778320 2097.569092 94.891228
810.342773 2016.588501 357.119354
750.560547 1990.926758 275.725616
897.417847 2000.905029 258.241516
805.369385 1978.522827 14.901345
861.226257 2098.426025 279.916321
595.111694 2030.863159 142.345627
886.239136 2122.524170 80.488609
773.269226 2068.705811 333.493530
613.229492 2018.965820 87.951973
876.430176 2029.092041 421.446838
822.899658 1970.240356 126.342247
746.819763 2034.987305 315.952026
860.917969 2045.586304 379.453491
878.530701 2167.603027 -1.105515
889.884521 2241.735352 -11.295157
835.659912 1960.497559 42.344357
653.404175 2073.505859 364.557007
585.722717 2058.999512 393.777527
971.747498 2196.053223 244.523026
870.942810 1990.638550 131.245453
888.317810 1949.461304 229.003479
817.590698 1963.760376 63.461021
985.750122 2183.256836 229.949585
603.464417 2030.101074 344.797058
819.708679 1966.224121 207.644516
544.068359 2045.603882 274.789124
576.802795 2040.390259 262.893372
881.691345 1957.292969 262.859680
574.972412 2038.330322 363.278412
880.503418 2082.159180 80.642067
921.164795 2120.800781 290.579834
697.623962 2018.668823 119.302116
665.093567 2018.492188 360.267883
773.129700 2051.037842 317.535828
669.072632 2027.498657 239.004929
797.500549 1973.466675 57.376408
565.839111 2054.235840 192.754547
924.370178 2229.062256 97.496750
860.164124 1949.745972 223.836807
841.424988 2002.008179 282.182220
787.347534 1970.954712 158.131775
559.758972 2024.853027 81.660484
790.351318 1965.024780 168.353561
858.045593 1952.843018 205.706985
698.462585 2023.042480 253.833054
716.341248 2005.822632 259.861450
897.526428 1998.401733 270.765106
740.058044 1995.390015 304.411987
822.943420 1960.200806 36.267963
908.535217 2143.645752 115.505028
499.289154 2043.110962 153.243607
933.761780 2141.818604 302.188751
906.666870 2052.555664 186.262985
698.157715 2004.968140 336.696198
911.983582 2139.636230 141.382477
852.739685 2015.622803 363.387207
961.759521 2120.283203 221.822128
484.851593 2044.197632 259.732727
859.145020 2154.595947 -2.399597
708.472107 2017.021606 217.407562
576.324951 2050.184814 367.620300
887.184448 2106.122803 78.590523
754.925903 1980.777832 150.357773
850.662781 1956.717285 112.807236
667.972290 2024.887939 199.382843
904.308838 2230.022705 -18.688507
775.592651 1968.166748 19.233801
785.463318 1966.072388 184.706909
859.223572 1953.769409 236.543137
601.162354 2042.263550 363.362122
658.950012 2019.346924 268.325897
879.185730 1988.864014 156.708954
494.090942 2187.490723 308.636536
507.408722 2039.678345 135.613022
672.282043 2025.716919 363.343903
896.636597 1961.911377 264.669556
868.869507 1981.229370 127.865700
758.871704 1975.590088 106.853760
477.936615 2056.219727 219.269028
821.239746 1954.243286 125.662300
550.079529 2035.709229 105.076057
679.394836 2004.292358 109.376892
896.230652 1980.377930 252.337006
557.751587 2040.685425 146.579269
931.888489 2144.799805 194.266006
631.763000 2017.218872 75.663124
943.285156 2143.144287 323.544556
820.467468 1962.305664 96.361252
603.629883 2045.073608 362.225159
623.550842 2018.485474 342.480255
597.589966 2016.407349 101.771919
866.445190 2038.811646 376.996307
567.796753 2028.307373 343.056915
885.081787 1956.579712 190.252060
789.212097 1967.303223 49.676182
773.608398 2010.218872 310.649475
743.200134 1988.548584 38.484859
863.664734 1991.463867 95.957253
832.023071 2011.138916 339.649078
869.307861 2110.080566 18.114304
949.681885 2065.123291 231.581284
855.568909 1969.449463 240.318802
757.052612 1968.029053 21.403315
628.554504 2013.507935 81.761772
506.894531 2035.879639 135.985107
719.089905 1993.314087 78.735054
931.954590 2015.777344 226.474030
826.648254 1968.233765 246.649399
773.032288 1970.182739 180.711746
846.802124 2016.989990 326.464966
917.405518 2223.343262 81.448814
716.125671 1992.615112 68.112427
583.193298 2089.883057 434.176453
762.032166 1994.259399 299.174591
721.265808 2057.415283 346.928040
661.953064 2021.985229 209.620285
833.660156 2040.246338 287.376923
902.923889 2039.195190 193.291443
669.593384 2005.602295 60.729172
836.785889 1956.592773 208.306976
454.208771 2054.127197 120.109802
594.438843 2134.696289 415.932892
921.100891 2109.675293 309.942993
590.403870 2025.153442 133.142609
687.783997 2013.081299 313.506378
889.516052 2053.838867 136.564636
619.265564 2033.792847 171.586334
736.313538 1995.096924 312.104340
749.053833 2004.271362 298.755157
680.248413 2010.724487 111.768135
693.080566 2022.873779 189.115585
608.856689 2018.534302 95.702499
732.747314 2035.580200 137.588043
837.796082 2019.629517 401.670593
601.364136 2074.588867 393.672974
780.675659 1981.068604 249.138412
653.293945 2020.648315 268.501648
810.916565 2030.514282 321.155090
887.616272 1962.708862 154.499496
746.320374 2035.418091 316.325134
878.874756 1981.245361 276.501740
900.024902 2088.191406 156.542755
758.571777 2001.428589 312.321411
830.273560 1973.250122 231.910049
549.225403 2032.935181 116.307266
439.362457 2054.146729 140.113419
623.321777 2037.513428 272.553467
725.321899 1989.658936 80.128357
725.436279 2036.157349 330.134827
793.969421 1961.264038 117.501183
940.005188 2046.769897 242.254028
805.686951 1958.807617 99.235954
836.675232 2010.187256 7.164512
924.571594 2110.877686 307.302246
712.837158 2002.361328 314.081573
874.627625 1962.531372 175.218521
917.824280 2027.684814 245.018753
804.015564 1958.004639 147.416611
786.422241 1957.650146 214.280441
862.350281 1950.316040 162.005829
579.484436 2032.531128 198.029922
896.472473 2043.305542 154.027985
691.959839 2014.335449 195.102325
858.772949 2024.211792 49.415829
519.741760 2044.007813 158.018097
561.418701 2029.943359 325.797852
778.253418 2015.496826 315.977173
654.127319 2019.729126 129.692673
645.418091 2021.153076 243.190857
822.817139 1944.772095 154.151688
546.087280 2031.540039 131.365051
626.077515 2025.368774 129.809601
816.104797 1960.568481 51.160526
940.081909 2055.962402 226.560577
805.654907 1967.363403 147.554626
903.172729 2192.478027 30.624126
881.851929 2012.962524 153.708755
635.973389 2027.232178 254.801010
695.983643 2011.237305 262.746216
532.241394 2039.933838 314.196625
686.096252 2007.920776 285.763824
880.097290 2020.755493 126.581253
697.580627 2012.520020 266.281128
541.704834 2051.790771 364.690826
881.694641 2194.328369 -15.266834
797.722778 1964.203735 106.740479
507.323975 2071.057617 227.626144
854.042480 1966.766113 241.351074
716.093262 2000.744385 282.764679
845.366577 1962.922607 239.358566
794.566589 1970.785278 190.711090
579.553650 2011.703369 82.635071
863.375793 2135.580078 -10.546409
865.439758 1979.480225 117.867188
736.672668 1999.511719 96.747505
809.635010 1959.368042 151.740479
808.671326 1978.604248 280.469727
508.426361 2092.197021 209.594376
926.404053 2179.421631 117.361031
905.776062 2008.033936 220.403015
879.962708 1957.091919 242.342987
765.309814 2007.947754 305.406738
922.736145 2098.711426 205.655060
912.120605 2157.699463 160.482056
498.725372 2042.282593 117.108795
929.521729 2043.674194 219.053085
889.604675 1977.434448 256.262726
911.162109 2202.946533 95.131271
767.791687 1963.902832 174.248398
951.743164 2122.761230 239.515533
840.325073 1958.972534 234.930298
666.553162 2026.899048 163.900848
603.036987 2033.696655 179.617447
890.363831 1964.966919 259.821655
844.312744 2016.256104 409.148438
755.151306 1988.003296 292.895416
476.299133 2285.211426 165.923141
607.388184 2015.380859 316.931976
929.951355 2127.238037 307.786713
839.281433 1949.954956 117.921127
849.482544 2015.152832 -7.951647
807.409180 1958.389526 90.030235
876.556763 2007.963501 136.663589
664.696655 2020.172485 205.495087
861.954834 1944.102051 147.273529
836.889160 1961.379761 121.189865
598.521240 2018.805664 112.961075
641.081482 2010.078247 333.127563
515.896301 2065.128174 223.674088
904.056946 2249.002930 22.870378
528.045654 2065.395752 395.056122
751.957275 1979.437256 102.795563
637.160339 2039.599609 359.172668
681.835876 2019.496948 334.626831
869.646484 1970.148560 218.968491
836.325500 2012.011719 273.810516
857.167114 1969.171875 120.101746
936.320313 2212.410400 167.743546
830.787842 1961.289429 254.749847
648.666626 2012.316284 352.419098
532.627441 2034.411743 108.390900
838.248901 2041.425171 -4.830494
866.275940 1948.293213 216.169022
589.863159 2028.014526 163.590668
874.142090 1948.635620 181.511703
904.902100 2190.124268 102.106064
865.401978 1956.555054 32.385269
909.960144 2043.390869 201.919281
948.251038 2072.891357 224.345657
784.973022 1979.342163 230.750931
629.292969 2017.191528 342.035736
937.459656 2186.455322 151.201477
826.281067 2030.788208 279.466278
845.971985 2003.016357 36.282513
877.266602 2100.767822 47.115871
654.232971 2012.772705 324.548950
854.074890 2037.024658 41.558399
926.528198 2184.359863 159.061157
863.965576 2076.531982 25.760963
953.936584 2196.240479 190.393387
850.445496 2020.286743 384.953094
537.792419 2042.258789 382.619904
662.006104 2020.371826 353.995972
767.150146 1987.881958 13.350658
913.343140 2176.875000 77.004753
877.740295 2056.052734 103.210869
455.780609 2050.921631 130.995209
682.114075 1999.864258 78.181107
778.325500 2046.362427 326.045715
558.808350 2099.311523 422.833527
772.493347 1986.943848 218.548981
891.679565 2187.072754 -8.792354
619.702393 2012.962280 72.277466
896.505127 2256.888916 -18.929024
563.253357 2030.289063 341.810272
901.693054 2088.094482 359.871368
622.975952 2118.123047 405.774200
731.209961 2011.480957 315.688080
954.027466 2180.662354 188.415054
568.988892 2037.852661 342.696594
894.994995 2027.844116 159.834076
491.172211 2052.805664 377.388336
708.167053 1994.969727 65.127457
515.016357 2011.905396 97.450554
934.755859 2162.061768 158.296722
862.608765 2044.793457 394.626587
560.507019 2041.324585 153.953903
830.695862 2029.404663 298.630341
865.941162 2112.797119 11.508007
818.457886 1969.994019 235.294891
770.473816 2045.897461 157.805954
924.134338 2104.283936 360.018646
926.269958 2122.317383 195.149109
855.490417 1956.516724 136.644638
894.825134 2160.722900 64.719284
915.338684 2088.936768 338.848358
795.006226 1961.463013 28.279863
612.336853 2030.761475 230.393433
660.889038 2018.987183 237.847870
924.131775 2154.099854 131.654129
820.820190 1955.243530 201.268082
895.117615 2120.602295 87.594612
826.687988 1960.461548 79.559937
856.686951 1949.657349 44.795013
601.710632 2041.201782 162.650436
925.898315 2055.358643 215.336304
641.398560 2023.600952 290.800446
567.172058 2039.399414 177.028091
588.357666 2032.417114 100.195984
772.621155 1963.636719 136.226044
641.552856 2019.264771 264.177917
513.039734 2080.093750 184.897034
502.894135 2170.689453 361.236542
873.960510 2048.953125 59.721249
846.401428 1971.766113 252.133575
790.751404 1968.756836 179.214157
894.478210 1993.799438 154.639862
513.320313 2036.943359 140.341003
915.158203 2138.518066 149.137634
515.107117 2061.806641 246.295074
823.280273 1982.141846 281.370636
871.476929 2048.421387 408.736023
652.520874 2012.506592 309.246246
589.421143 2048.137207 378.652466
719.512878 1991.126343 134.199951
874.914368 1980.348145 152.212799
860.723389 2005.448120 81.143875
549.994324 2043.035034 368.560638
803.873901 1969.175049 207.085480
563.331970 2025.580688 158.487000
710.287048 2015.259277 152.040253
935.054504 2123.700439 320.677002
931.474121 2125.580811 297.263062
812.089233 1956.145386 207.954758
471.813477 2056.526367 213.490021
845.172485 2021.584106 342.245392
779.370911 1975.181030 52.486946
854.160095 2028.343750 363.156952
625.108948 2010.298340 84.288559
922.499756 2053.838867 214.943039
614.652344 2022.415161 320.058472
502.611633 2054.460693 228.994308
801.441406 1961.395386 72.304352
725.335388 2015.083008 223.979172
578.931274 2064.744873 384.077362
567.722412 2118.300293 441.512360
793.077148 1965.651855 207.187378
902.340210 2250.345459 39.292332
755.475037 1981.056519 76.552406
651.677185 2024.111084 135.796722
879.304871 1979.853394 147.512787
877.801758 2075.631592 65.001923
897.360107 2212.064209 33.842522
846.455811 1947.954346 164.404877
628.938049 2025.969116 200.559067
582.919556 2048.823730 297.343292
925.138855 2050.709717 262.347534
759.507935 2000.026489 301.280945
753.458801 1989.256714 278.790314
605.904968 2032.557251 195.821411
686.808411 2005.410400 341.513336
932.099304 2014.671021 221.040573
847.671265 2046.538696 4.254253
622.138000 2028.267700 282.881561
800.167603 1977.205322 274.249695
562.075195 2098.875732 433.771118
496.318878 2056.876221 354.741455
832.741272 1956.691284 167.202164
838.502747 1953.361694 89.382721
577.859314 2056.533203 431.628387
610.745178 2025.101074 329.404449
890.004028 2070.656738 123.826675
835.862610 1959.127930 8.622309
901.116272 2157.917969 110.260918
501.720245 2069.388672 202.754944
864.428528 2049.009521 378.680481
952.211975 2053.707031 237.042496
838.697876 2064.830566 286.792175
871.904602 2035.002808 377.837189
759.059326 1987.879517 272.213470
721.374329 2039.730713 116.419876
838.846436 2024.864380 336.513794
587.829895 2036.325073 190.219818
897.648682 1983.168213 215.317352
722.684387 1995.380981 139.631775
512.086365 2047.978516 369.262695
677.868835 2012.647583 174.211655
928.327942 2122.674805 172.814362
682.855042 2018.730225 115.469826
519.833435 2063.540527 167.027374
862.849182 2023.486450 407.510345
581.075989 2034.763184 355.610413
479.667786 2055.433350 242.616699
881.077332 1976.171143 178.376312
909.576172 2069.432129 158.244064
861.900696 2007.666626 37.199112
808.798279 1969.526245 249.856049
893.835449 2074.361572 143.576492
887.509155 2001.252563 172.721588
876.743713 2081.513184 282.479980
629.111389 2083.220703 379.184296
747.698303 1990.045654 287.149902
724.195190 2019.426270 147.217712
860.009399 1952.136230 139.302383
883.085083 2046.369995 91.655243
490.280579 2056.487549 345.573181
935.974182 2098.854004 349.729767
664.578247 2011.665649 174.452957
607.462646 2039.486084 237.408310
857.422302 2021.975464 405.225739
868.902588 2024.748535 412.825134
834.661438 2050.502930 309.304596
974.783630 2174.517822 218.943558
896.331970 1999.315552 156.633606
798.030579 1988.311401 16.981928
466.427765 2049.367432 158.911026
927.662048 2159.979248 177.695633
892.658630 2060.796387 128.684494
530.024963 2045.117798 374.728729
455.691254 2049.481934 247.776123
789.195374 1961.888184 89.295593
532.397644 2034.087280 173.940765
547.223083 2037.510132 155.971588
942.290527 2127.752686 321.767273
914.315125 2155.758057 125.373146
754.365356 1998.572754 22.665674
875.990906 2069.739014 71.083351
872.255920 1963.252319 163.225220
855.320923 1966.592041 271.572235
602.204468 2029.645264 224.325104
912.546753 2089.744385 262.585815
859.462097 1982.157837 83.027542
745.427795 1989.626099 147.576721
823.540344 1965.697998 244.454819
549.121948 2002.825317 91.986374
735.103333 2009.277466 250.495178
812.333740 1961.222046 79.896629
872.766907 2067.205566 55.885826
608.650452 2027.237305 346.394226
563.770447 2099.655029 413.074646
635.255188 2037.450439 239.440002
623.231567 2022.082642 112.890793
862.021851 1976.398560 111.043915
692.890198 2021.903809 350.441528
557.539917 2038.374023 291.696198
509.936859 2053.993896 95.529694
613.459961 2031.933838 338.650970
801.202759 1956.589233 146.229034
845.597595 2048.635010 385.301056
913.086182 2177.354248 119.646698
616.382202 2016.705933 91.526634
682.271729 2015.102051 140.943649
563.943909 2033.007935 352.797882
676.754211 2014.781128 244.425140
819.005737 1969.215942 45.312534
923.719177 2140.157959 171.832932
775.657532 1968.634277 99.860176
625.153503 2028.942505 245.547333
713.610168 2073.234863 353.610291
735.375793 1975.045654 30.807650
552.232422 2051.892334 374.600800
955.621094 2176.235596 251.129364
686.021973 1999.787354 342.393097
596.818970 2025.066650 345.233948
864.961792 2141.690186 -3.844085
572.153992 2016.148560 119.705666
574.299805 2048.401611 227.297562
927.745605 2092.799072 286.142975
765.855408 1974.515747 22.802940
880.860413 2052.096924 94.805565
682.305054 2000.704346 324.196198
581.600952 2030.559937 126.580849
696.328918 2006.282837 331.828949
910.397522 1991.063965 249.044266
490.788147 2044.895020 109.138641
497.057953 2067.707520 139.638824
840.324097 1968.712646 276.374786
923.359131 2099.407227 333.976227
540.771851 2046.479248 315.719086
858.385132 2038.696655 286.072174
838.941040 1990.071899 44.868740
880.746826 2026.428955 396.746979
628.294495 2016.957397 304.989777
710.378113 2052.467041 345.744049
835.094604 2010.272339 300.857452
834.464661 1957.742310 215.852264
618.709106 2019.005737 105.078880
574.775879 2046.781494 328.950226
895.981934 2061.454346 264.451416
893.094604 2007.365234 261.471985
482.880951 2044.752930 106.268867
818.835327 1955.713013 157.030594
704.830383 2004.856812 206.815018
875.323853 2066.030029 71.562805
523.290039 2235.214355 365.407654
525.676270 2051.565674 384.645660
656.821655 2028.134888 365.170349
570.097351 2035.626465 163.551849
779.763550 1974.444702 165.945602
884.431641 2098.063965 49.572693
740.984009 2022.504395 334.355438
959.211304 2091.407227 220.107010
735.394714 2013.965942 337.890961
567.731140 2037.040527 241.076050
919.121582 2122.321289 180.016953
620.245728 2066.283203 374.013519
821.445496 2014.244385 284.995209
875.417236 1979.154907 177.513596
597.931763 2071.415527 394.221252
799.625427 2021.781250 301.216064
724.873291 2019.144165 187.345520
698.922180 2031.880371 349.516602
786.646545 1974.932251 59.922215
607.306641 2015.668823 86.709106
860.191406 1949.884888 221.510605
863.719421 1961.201172 80.721352
919.081848 2082.591064 276.077728
616.395447 2027.490845 282.915771
593.322083 2028.104004 263.873322
874.438477 2117.020996 25.212107
520.870056 2087.591797 408.794739
975.698120 2182.728027 222.129929
849.451111 2060.256104 291.094818
760.561829 1980.463379 142.355789
745.915771 2025.656372 321.264282
550.423706 2051.577881 379.995819
681.647400 2000.061279 351.186340
908.779114 2027.217773 266.503845
814.300293 2026.762817 361.474030
656.937439 2005.838257 315.220551
862.917542 2042.796997 65.263016
673.980896 2017.910645 242.382202
804.754639 1981.732056 0.566094
960.885132 2178.068115 210.698395
883.785278 2036.403198 264.042816
656.660828 2009.858521 52.553585
874.064758 2054.950684 84.342560
897.493591 2053.842529 133.201675
843.222961 1970.864868 145.700974
883.233398 1954.171387 232.902939
606.362061 2020.949585 341.550873
619.224365 2056.192871 377.185455
885.665894 1979.544800 136.228653
473.169922 2059.363525 217.209320
637.324402 2018.893555 310.474396
861.971680 2010.063599 64.739464
623.198547 2025.358765 307.197266
844.815430 2030.184448 319.924805
849.279602 2045.261597 313.411011
560.876648 2037.707031 367.334198
922.298767 2152.074219 162.817902
850.592712 2059.605469 295.211914
857.097412 2014.557617 377.575867
539.535950 2034.158936 333.087952
965.851501 2134.480957 228.130432
764.697205 2002.155762 209.195404
503.932465 2041.028198 152.289856
932.562012 2158.808594 154.675079
835.979736 2033.196411 369.153381
873.639404 2050.081055 71.194611
901.067078 1992.942505 214.349533
819.673340 2082.485107 335.068451
871.543579 2171.125000 -14.804252
811.295837 2036.242676 335.524689
718.972351 2002.987793 180.931625
531.448120 2026.022827 106.301201
819.873352 1962.887451 211.318527
535.329163 2138.887695 415.734528
644.052002 2018.204224 340.034241
865.469116 2036.517090 107.778198
859.256592 1951.282104 167.924103
861.885315 2026.546509 396.660950
796.067017 1971.004883 224.881119
796.838501 1984.981323 276.758331
812.206604 1958.605713 88.242828
589.444275 2037.443481 359.196777
511.023163 2049.606201 375.542755
764.164612 2034.406006 315.943848
702.936218 2050.042969 353.184021
687.086121 2028.188721 139.737671
550.597534 2068.874268 387.332367
768.821594 1974.945313 221.913788
585.336182 2034.385864 319.832611
741.735779 2044.006104 348.443329
869.823364 2063.511963 388.027405
809.344360 1959.561279 178.205032
678.187256 2000.797974 341.334839
492.806793 2169.965088 318.529694
925.401184 2119.552979 294.876282
645.283142 2012.365601 305.200836
768.585083 1992.164795 283.233704
913.799438 2002.588257 225.974808
841.175354 1965.721802 276.036713
841.695740 2022.878052 295.103912
610.315613 2027.705078 129.701935
909.566345 2229.825928 60.616623
768.140625 1998.859619 292.302094
838.446533 2128.324463 281.111969
881.362915 2095.722656 316.896301
663.114441 2024.866699 135.375336
884.034973 2009.764771 153.339050
736.622742 1992.363281 95.923042
611.946533 2030.691895 252.192337
944.228149 2055.552002 246.325806
868.492981 2040.886963 66.982323
699.439087 1996.374634 42.999741
744.880798 1992.516113 213.181702
928.681396 2120.013428 199.465500
846.842651 1955.588135 246.851227
802.011108 1958.637695 147.979309
855.256226 1991.175049 57.596733
795.936523 1967.488037 71.552734
840.768677 2061.483398 313.411591
757.721741 1993.980469 303.074860
877.959473 1969.414185 200.853455
863.193665 2032.038818 411.453827
779.583374 2053.313721 320.298523
781.088318 1965.631470 86.147507
938.597290 2178.704346 192.557541
725.190613 2045.719482 209.065750
884.611572 2025.776245 148.944916
872.055237 2026.022339 83.390594
445.137329 2131.118164 194.835968
902.787354 1974.521973 233.498581
942.280457 2059.789063 222.015549
554.212891 2039.739380 88.774094
822.780396 1997.755493 280.465698
816.614258 1969.634766 47.937862
776.507141 2065.947510 332.143524
772.759094 1969.763062 110.238754
821.014832 1973.411133 101.843315
893.684814 2192.522217 41.300735
757.955017 1965.056885 162.967346
718.387085 1998.540039 186.898148
692.618713 1995.512695 75.483948
877.187134 2096.269043 271.611420
826.395691 2029.750122 323.829346
830.324097 2049.934570 294.262817
840.118591 2023.390991 370.015656
922.607117 2002.862549 220.853226
697.292419 2003.652954 295.287720
589.743408 2040.445801 401.506989
971.685486 2119.650391 225.024033
948.247864 2188.821289 201.818359
547.171997 2039.771484 391.039429
434.504883 2059.235107 130.220490
732.001465 2026.342285 341.815735
500.531525 2046.490234 323.453186
564.191772 2028.552124 334.020081
575.583618 2039.173462 353.363098
638.377808 2056.441895 363.220154
939.883606 2219.687500 164.610321
602.447571 2068.236328 393.864166
846.373596 1953.095825 188.930145
843.677856 2031.373169 273.031006
589.957947 2022.775024 84.987549
603.663452 2039.421265 323.607635
644.886414 2017.743774 242.557693
637.873596 2056.328857 378.542572
933.716797 2159.011719 188.321594
848.376648 1945.213623 150.667618
657.990662 2014.098267 344.761017
723.330627 2001.983643 41.348171
597.395020 2055.265137 403.875397
584.450378 2032.335693 323.949921
860.217102 2029.184570 395.687561
938.541687 2153.930176 293.750427
915.895264 2092.064209 328.861511
816.002686 2023.123779 333.260834
617.941101 2046.647705 365.484894
837.504456 2031.271973 327.423676
810.493835 2023.924683 298.213684
898.598938 2166.068848 65.365517
645.927002 2022.860596 264.126923
632.595825 2017.795776 333.213562
684.771545 2019.509888 251.934692
526.442932 2097.793701 397.156097
558.935303 2073.350342 408.137268
537.143677 2046.794312 375.363068
949.067566 2155.078369 208.266098
644.215881 2029.582031 329.970551
618.866516 1992.859863 65.980812
590.570923 2036.087036 290.234528
925.843506 1997.846924 225.878738
938.466980 2019.552246 237.200592
685.247131 1998.290894 91.067116
866.527466 2088.400635 317.363892
931.439209 2088.296143 297.959717
523.609497 2054.403564 163.515076
821.470276 1968.089844 179.892975
950.539795 2141.581055 324.116852
538.982544 2064.328613 248.882721
614.754639 2022.858032 208.063309
856.555603 2087.225098 4.349101
849.930298 2042.146240 353.067719
813.252502 1956.729614 161.577621
874.832092 2005.845947 154.671875
703.706665 2011.297607 340.623474
899.506104 2135.478027 135.922302
757.873474 1983.490234 276.185730
789.513977 1970.785156 213.300797
739.879333 2003.683228 35.107635
878.862122 1971.151245 212.156662
642.792542 2015.778320 81.206322
436.299103 2055.275879 123.334267
835.966797 2020.755615 400.608398
567.996948 2036.533081 287.876923
495.973328 2049.192627 289.300262
563.486450 2006.611572 95.853912
821.305847 1961.230713 52.145481
896.009583 2144.383789 75.757988
907.892883 2086.706787 260.543152
890.149902 1993.625000 207.138092
629.357788 2020.068481 162.485840
670.028992 2097.376953 371.100342
945.926453 2106.929932 246.731110
535.706421 2042.882935 91.501030
699.577637 2006.249512 195.196182
811.946228 1963.956665 250.041519
899.695251 2037.648071 262.343872
825.391663 1952.204346 163.091171
755.588989 2054.775391 337.568115
850.557983 2070.451416 351.645142
878.166077 2174.282959 -15.941814
692.277039 2021.335083 243.805466
687.036560 2048.039307 355.999817
867.725159 1976.509766 121.959686
806.779053 1966.498779 45.178051
638.651855 2021.568481 180.319199
851.058228 2062.785400 5.022973
882.859680 2024.479492 127.327980
643.696228 2016.135986 334.837158
512.055603 2052.818115 233.523682
804.344177 1969.663940 23.080683
637.519836 2021.081787 194.098923
819.598145 1954.547485 7.797696
755.676941 1998.148438 303.977325
828.243835 1978.072266 262.535217
888.478577 2160.303711 -12.242571
880.072083 2068.849854 86.891624
581.451172 2020.416260 77.411697
805.264709 1958.206177 155.287872
833.449463 1957.781616 194.348969
662.681946 2090.018799 377.617462
873.238586 1986.431152 165.769882
897.313477 2018.159180 192.277679
890.558044 2221.463867 -19.173172
827.605286 1974.539307 278.380432
864.253235 2098.996094 279.027710
811.876587 1971.241943 31.155985
890.860046 1951.469360 231.301590
910.089661 2041.728271 254.212875
699.159607 1997.526489 312.187836
860.395630 2042.183594 380.956879
929.567322 2223.872314 133.333389
844.084595 1959.553467 212.791290
732.438904 1997.405396 278.863708
973.956787 2179.161865 215.088211
906.595642 2097.954590 316.812408
678.979065 2015.657104 325.378967
743.930725 2044.504883 329.237671
586.416138 2029.737549 298.379272
858.224976 1952.062134 168.232422
763.403687 2034.536011 155.449432
640.876099 2026.548706 174.844360
772.229614 1979.924805 197.123398
761.147400 1980.177002 146.705704
919.349670 2160.713623 111.161247
808.223694 1950.181885 112.849335
714.423767 2039.250854 359.436493
759.674316 2025.000854 304.154388
468.433624 2074.142822 176.076736
945.547424 2062.916260 224.876144
898.947205 2105.411377 118.186546
812.841614 2021.278198 300.617737
834.980164 1965.604492 59.531143
564.067139 2074.304932 405.718201
630.495422 2028.444946 347.491943
751.221558 2058.888184 340.800598
777.066956 1986.456909 216.046875
563.039063 2085.000732 241.588623
589.393616 2031.591797 80.441994
848.402527 2062.504883 314.945740
592.640869 2019.100464 151.539093
647.188477 1973.641357 71.363647
931.408752 2164.681641 257.045135
840.303528 1967.943848 31.482769
812.057495 1985.681030 -0.218944
749.697388 1979.825684 84.049477
851.805298 1976.402222 39.055923
745.262390 1990.529907 280.174988
474.688995 2050.185791 263.706543
885.731689 2158.378662 7.507958
653.696472 2020.930786 240.542999
839.536865 1994.569946 9.996830
941.967407 2137.857910 313.998932
772.320007 1971.578247 193.191544
799.500549 1981.777222 291.203583
867.475708 1969.187988 150.249588
877.003845 2041.538696 268.376892
611.275208 2056.802490 375.781586
887.666992 2233.592285 46.860291
896.199890 1972.185425 213.048309
892.450562 1969.098389 235.180878
610.253662 2041.535400 300.834930
599.042114 2049.313477 193.514328
802.029846 1964.752930 119.801460
555.743835 2038.399292 152.334549
551.728516 2087.463623 410.954376
873.747620 2024.601318 391.442596
763.730835 1994.657349 291.605957
829.260376 2005.838257 -4.776542
920.627686 2131.243896 165.496124
910.652161 2072.026611 263.420074
591.557434 2035.608765 206.846573
896.990173 1983.783569 219.211975
556.705750 2053.328369 357.148285
766.353088 1997.895020 231.016312
591.635010 1993.473633 87.379257
674.695374 1996.840576 84.073471
733.035828 2006.862671 265.893555
492.390076 2033.650513 100.873100
889.417847 2102.432617 53.189087
934.605835 2128.440918 191.132095
763.328796 1979.661621 79.736107
859.446960 2016.818481 58.269028
848.104187 2018.495605 384.262299
496.997131 2204.311035 320.012146
838.544861 1995.543579 276.049591
676.262573 2015.770020 210.190247
800.335144 2083.034424 331.655212
874.061523 2022.826904 272.672150
608.462585 2044.309326 351.816650
612.325073 2041.047119 358.173584
933.231934 2147.687500 202.012222
828.599182 1951.483887 168.756607
801.966003 2033.955444 314.468536
502.441010 2049.832275 328.887756
908.887024 2176.185303 61.314068
833.157959 2112.495850 297.776642
858.564026 2012.140381 70.789024
939.915100 2094.540771 328.824402
866.346436 2063.127441 59.056847
630.410828 2082.574707 385.496246
475.867462 2055.784180 242.953568
721.264648 2001.944214 215.161224
592.059570 2024.961548 126.933441
764.073792 1985.380981 275.971802
778.964172 1962.286499 123.793297
886.940002 2038.944336 144.053421
524.595154 2034.315796 142.541260
873.134338 2114.131836 291.586304
946.031067 2064.656006 258.247986
543.674805 2055.294922 124.809296
808.485901 1956.578125 91.481941
842.133057 2061.322266 281.941406
857.931091 2067.878906 319.890015
899.661316 2151.405518 81.405205
773.794495 1963.664307 185.596741
850.549622 1955.844971 90.146370
772.049377 1974.227783 98.049515
620.763794 2040.853149 359.072876
826.883972 2023.173584 441.787628
875.579224 2057.344727 94.561096
891.037354 2081.505127 112.748238
868.516479 2037.881470 268.039398
887.644165 1992.033203 255.806976
848.964417 1952.909424 207.185135
916.319824 2240.708984 85.103294
825.751709 2026.463135 361.941193
742.933533 1997.333496 316.245789
915.834778 2105.556396 175.125458
857.760864 1979.470825 87.123024
849.639160 1954.357056 243.006744
482.580414 2041.416016 144.910202
977.924744 2191.609619 226.128632
774.574158 2031.628540 301.636810
703.926636 2017.184570 337.718872
649.541443 2025.705322 360.689758
562.365356 2030.663818 183.030121
916.825378 2067.273193 187.975311
756.232605 1995.073975 165.547882
784.053772 2005.691406 289.745575
832.890076 1954.876953 183.675400
557.066406 2025.429199 110.975204
908.712524 2048.558350 193.821182
587.873779 2033.646118 89.778168
556.065186 2053.875244 216.542496
646.046204 2021.830078 204.188187
696.200073 2011.281372 161.193375
860.922729 2087.809570 -5.232736
929.650635 2070.839844 255.327393
878.069275 2089.664551 360.236359
888.618530 2001.488770 165.233749
914.029907 2109.886475 294.420990
888.749146 1982.110107 194.745285
689.778137 2000.625122 56.397461
689.584778 2017.815063 233.598129
463.892303 2063.218750 302.571442
935.981934 2025.169067 228.520020
873.109680 1954.578857 192.129593
917.438110 2115.301758 291.889801
670.715393 2007.630249 54.694283
949.991272 2087.380371 224.694748
816.063965 1956.236084 96.930412
893.505859 2024.892212 180.806244
909.891907 2000.139282 217.303452
938.362549 2045.968750 229.668060
925.370911 2015.466797 237.479370
909.337463 2250.526855 11.777503
916.772522 2078.858398 204.687683
951.058777 2093.026611 241.371735
822.281860 2030.582153 372.759430
836.218628 2009.079834 -8.667000
904.437561 2029.016479 196.842163
841.373535 1964.957886 16.402626
558.442627 2056.636719 173.842087
791.781006 1963.818359 146.756882
665.038879 2017.297363 198.352859
850.097412 2063.056641 277.477966
922.044556 2104.099121 339.288544
774.033875 2029.490845 310.562469
832.516968 2005.713867 285.565063
758.212219 1997.396851 276.464264
655.128296 2020.930786 227.863831
557.634583 2046.918091 113.901230
497.381958 2042.521973 277.335663
887.458435 1970.974487 261.036133
914.262207 2100.171631 315.403748
858.892883 2013.387085 49.575005
904.201721 2146.228760 98.617401
925.445435 2138.420898 261.691833
863.816467 1998.475464 91.310822
550.558044 2085.438477 407.688110
931.056763 2111.587646 321.448792
878.066406 1951.139648 245.862701
484.170227 2057.807861 288.368164
679.016418 2009.240967 103.189140
798.161926 1977.389893 24.202568
802.014221 1975.783447 12.651238
501.849701 2047.930176 302.141357
764.026428 1975.839355 156.183502
475.342560 2055.693359 211.883240
718.770691 2018.678833 337.301514
764.790344 1987.550293 82.292801
663.585266 1999.282104 85.541313
817.482788 2016.826904 374.607239
716.107361 2122.984131 359.890472
635.055725 2022.174316 171.081284
869.508484 2040.641724 412.178070
582.244446 2111.562744 429.622162
871.112671 2009.447021 120.966194
845.804382 1947.423828 160.784119
828.066467 1956.886353 51.514904
500.237396 2168.823486 342.810028
907.897217 2165.274414 96.087540
923.243713 2104.896729 356.286652
505.324677 2043.877563 218.441162
917.645142 2031.419800 214.149155
584.558411 2045.279541 223.591660
726.568481 2039.870850 113.546539
875.350891 2037.175781 85.486885
909.385925 2141.333984 128.906570
800.098206 1960.433105 86.435303
899.504822 2042.187866 172.614655
916.327759 2188.971436 75.673576
655.743530 2021.585205 181.357452
944.755554 2082.071533 216.396362
511.777985 2042.814087 327.940521
865.432922 2031.390381 380.688110
811.950745 2020.946289 315.245239
828.214050 1964.372314 33.952553
765.641846 1975.949951 77.099785
469.853210 2088.011963 212.692047
546.978210 2031.755981 344.670288
860.710388 1950.441284 207.124344
607.518494 2134.376709 408.467010
527.112488 2049.001221 238.347733
907.494873 2241.148193 47.604107
585.959778 2046.542969 351.643402
487.264618 2054.280273 139.074860
985.388367 2184.236572 235.902512
879.471008 2098.829346 51.228397
827.233154 1965.874878 148.165527
639.851196 2020.443970 102.364502
790.949341 1961.660156 185.922226
