ply
format ascii 1.0
element vertex 1408
property float x
property float y
property float z
end_header
707.950134 2148.896240 275.375153
768.487549 2103.409424 439.247101
783.248047 2177.530518 427.473083
656.727722 2019.487183 251.483398
786.435913 2072.065186 464.995514
383.956726 2006.348633 642.232300
768.328430 2107.674805 434.272583
706.734619 2016.163818 608.101685
673.897278 1971.880859 433.737244
296.291901 2037.314819 463.911285
717.762146 2033.854858 565.856995
637.543274 2024.727295 557.796509
599.245300 1992.175781 437.020874
615.889709 2020.640015 285.035797
435.183167 2028.334351 479.926025
695.930054 1969.778931 372.529999
330.648438 2030.230835 454.877960
664.098511 1997.964111 314.078217
631.960632 1998.835693 309.274902
543.725159 1989.265015 585.778809
473.593109 1994.541016 588.239075
691.899475 2035.467896 540.374268
731.286133 1968.301270 381.965240
786.055176 2151.914307 523.328003
692.863098 1970.081543 474.232239
713.712402 1968.851074 435.831329
784.955444 2125.460938 559.694702
693.788391 2030.274658 530.645813
819.591003 2187.791016 506.921173
515.467346 2016.420898 310.756409
393.871216 2011.615234 580.017700
790.109985 2066.137695 628.581360
711.738831 2029.044067 556.471252
782.448730 2127.776123 552.246521
458.767242 2021.592041 645.242004
740.817017 2049.453857 375.127167
618.675903 1993.551392 366.326263
547.390198 2018.955688 358.779907
649.103882 1982.291626 444.392548
633.566650 1983.582275 414.624023
627.866943 1998.454346 498.070221
655.210632 1974.863037 462.551544
748.453247 2032.569580 420.929596
679.981323 1972.291260 427.438477
668.801697 1979.677856 472.068298
408.577026 2025.537598 485.547821
727.054016 2026.011108 636.750854
754.681519 2016.185303 446.925293
800.278625 2097.398682 497.656036
778.929504 2099.074219 533.194763
726.054260 2142.381592 324.965149
616.893250 2017.863281 426.814941
603.207581 2001.509521 470.032990
615.795044 1983.828003 550.780151
713.617310 2070.865234 319.691101
740.031799 2068.150879 371.433044
503.908600 1999.993042 602.986755
417.705017 2026.589966 454.561554
668.796265 1984.112915 351.258728
771.076599 2109.479004 521.228027
768.344116 2087.821289 451.332306
646.473938 2051.071777 582.213928
748.501831 2108.344971 550.963440
700.096252 2024.394653 286.810211
733.812134 2017.101563 656.643860
607.388428 2004.193726 510.829987
728.389526 1963.233398 462.096985
310.295746 2046.969238 423.807068
518.081848 1981.019287 582.593628
723.920105 2303.289551 270.557251
727.804077 2154.813721 322.423248
582.249390 2008.689941 324.906860
463.863251 2015.949341 636.977295
557.751709 1997.766357 609.030151
749.254150 2033.680908 419.181122
727.750183 1998.894287 640.252747
695.039612 1965.746826 380.382568
500.472961 2023.110474 429.024933
645.409607 1978.059204 381.186646
759.378601 2043.642456 430.455719
660.675354 1977.939575 429.135681
710.488831 2046.112183 315.819427
723.371521 2292.836182 277.901703
335.124084 2042.438843 383.703278
515.519897 2022.293579 643.821777
537.471436 2008.101807 644.014526
749.081055 2071.434814 405.410278
632.651917 1987.876343 512.836609
743.400757 2023.067871 429.392731
692.889954 1997.166626 288.674164
345.108276 2032.758057 509.699280
725.764526 2047.483154 355.523041
607.368530 2068.123291 395.984253
799.045959 2111.614258 471.192749
719.554199 1983.877563 381.558380
761.087585 2080.410156 433.672394
518.356567 1986.209473 584.278870
375.896881 2059.587158 407.382385
437.469604 2020.082275 595.429932
564.293030 2065.245605 623.538391
509.942230 2027.079590 509.059021
758.862366 1993.415405 451.686493
578.643860 2022.094116 443.547577
625.317444 1981.665894 546.784851
743.225403 2097.564453 356.137177
761.378418 2092.977783 624.519470
646.282227 1995.239502 366.579803
710.279175 2041.658936 574.062195
447.981293 2006.038696 575.785889
519.537537 2020.672119 466.123566
712.257507 2022.774780 326.186188
474.791595 2026.894775 511.271881
349.927917 2041.219727 424.561859
737.270203 2116.626709 354.883942
534.723083 2019.854736 499.789581
767.157410 2206.503662 548.287537
701.260437 1968.847290 510.214050
784.043152 2115.691406 548.346741
345.036133 2140.200928 594.781128
702.964966 2126.431152 268.235107
698.102234 2016.530273 581.894043
690.946838 1998.376831 331.726471
453.385712 2019.920044 379.919464
733.343933 1995.794312 661.787903
758.591736 2096.464844 410.649048
797.435364 2045.203979 496.635040
347.736023 2011.845337 584.138855
715.914856 1991.612793 308.738647
676.422180 1968.739746 522.212280
421.204559 2011.838867 674.515625
796.411316 2112.853516 534.297424
379.672028 2040.363770 363.937439
453.759583 2009.215576 655.130493
759.885864 2184.753906 397.538361
763.224121 1966.675659 470.134613
770.741394 2181.454102 424.519165
367.857910 2036.388794 378.378601
560.823120 1991.282471 553.472900
746.735535 2112.324463 354.338898
651.160339 1989.059814 546.924072
431.505768 2004.448364 592.572510
728.025085 2029.053711 624.634888
678.115967 1997.039551 265.408875
427.716888 2038.223877 490.538300
729.471191 1979.053101 517.134216
673.490906 2002.452881 267.328369
735.961365 1971.709961 453.512665
816.685730 2159.833496 506.088409
646.653320 2016.714355 266.459229
761.818481 2231.477295 385.179230
763.266418 1982.683105 492.007141
586.808105 1993.558350 333.097809
441.806549 2026.911011 485.557343
816.040161 2133.150146 490.989319
423.224121 2026.515625 635.657776
433.916351 2018.265259 517.710144
813.922668 2075.847656 473.262207
501.259460 2017.452759 479.135254
727.536804 2194.000244 309.025879
573.929077 2003.335571 471.097504
778.313232 2112.989502 510.919800
360.280426 2037.755859 441.574341
684.925903 1978.382568 508.628021
287.885193 2052.129150 503.604279
552.174377 1978.866943 588.467346
714.512756 2006.879150 635.857056
714.184265 2093.715088 634.268250
720.757690 2033.654053 536.114685
717.675232 1976.999390 470.443573
573.190857 1995.877808 541.955566
632.902222 2042.258179 450.552704
455.189880 2025.751587 359.169647
794.790894 2074.773682 496.251770
718.759888 2001.579346 571.927246
646.099548 1983.579102 480.487823
356.556061 2030.921875 434.456421
368.282928 2038.529663 388.126709
357.112518 2015.600464 591.052185
678.238159 2031.411133 581.511475
540.929321 2038.966797 375.202576
576.699341 1991.590454 579.776733
719.839111 1962.903442 437.044495
458.281799 2029.194214 443.769745
781.075378 2090.126709 622.331299
520.278442 2033.049683 375.435822
688.904907 2057.339600 257.338928
758.036804 2072.222412 415.444427
743.364990 1983.153442 458.210999
367.098114 2040.616089 381.705475
781.252686 2246.793945 400.278107
807.131042 2094.020996 513.402893
381.332489 2014.582275 560.987915
758.803040 2000.283936 478.951996
694.284302 2044.876343 548.116821
576.461731 2022.973267 364.244598
751.415039 2200.433838 339.241516
648.505432 1978.592773 460.694855
384.256927 2054.240967 449.365387
726.494507 2238.543213 261.090942
668.901062 1976.250732 513.764343
700.872864 2072.367432 256.738312
768.105347 1975.616699 447.027435
335.703735 2040.975830 431.867737
684.763245 2022.706787 242.756073
619.002136 1975.381226 281.586853
617.211609 2000.605591 318.204102
740.997803 2071.490479 382.587585
501.844452 2009.828613 588.818115
696.157166 2060.846436 266.343353
613.643005 1980.111938 554.991150
452.976074 2010.099731 540.199402
734.022644 2257.773438 305.107361
701.858765 2157.226318 267.452728
636.700439 1996.879761 306.878723
755.611084 2098.464600 386.233612
675.426941 1965.768677 406.553040
524.612488 1997.287842 623.168701
789.990967 2122.205078 547.034119
631.398315 1971.845825 275.906006
811.375671 2144.556152 476.653290
795.072571 2118.559570 581.816589
692.708069 2006.602661 550.136169
716.768555 1963.657593 484.450745
686.445679 1971.112915 397.445038
716.796753 2230.845459 258.087952
774.805664 2066.839355 513.417419
664.171570 1974.326294 487.535095
784.173462 2096.241943 613.339355
664.625122 2028.952026 555.310852
730.586609 2048.071289 658.391296
714.420776 1971.715942 378.500092
736.921448 2176.578857 328.874756
615.449951 1999.383179 418.394226
422.041809 2019.237915 653.313354
687.114319 1971.956787 425.521912
731.786011 2023.237671 335.778015
719.447327 2212.484375 283.538452
707.610596 2130.199707 280.128357
472.690735 1999.005493 607.768860
632.087952 2045.295288 589.425415
604.642334 2046.076782 399.423157
748.288635 2017.742676 659.929321
717.508240 2129.965576 306.667511
298.548492 2040.256104 424.489105
768.469360 2227.140381 404.161255
818.700989 2104.290283 491.084473
721.738770 1970.217529 386.082672
378.301880 2040.460205 428.960999
717.041931 1986.337646 381.304077
382.185120 2036.164551 660.371033
608.871643 2004.531860 444.080780
590.944763 2000.807617 499.012329
661.262451 1987.911499 317.460602
778.124268 2232.834473 433.187805
713.555481 2027.889038 599.485474
400.032898 2016.094238 676.476440
721.328369 1965.008789 428.571320
711.584045 2054.970215 315.107300
632.872559 1974.734741 420.327820
535.296509 2021.201172 424.396118
387.512268 2060.542236 403.647278
744.049438 1983.260986 465.107422
524.631226 2020.269775 366.612457
698.789185 2068.420654 282.608826
656.843994 2034.904053 592.625488
648.284241 2000.891724 352.372101
696.968201 1968.264160 453.863953
667.328735 1992.801392 349.239258
697.003967 1994.468140 293.118835
446.196381 2029.470703 339.764221
661.253784 1983.433838 359.665924
668.819092 2009.131836 304.062408
668.574219 1965.560059 510.431854
728.216797 2033.201294 613.556030
745.923523 2040.176880 407.832977
477.305847 2023.423706 654.912537
536.625305 2024.109985 392.773773
330.179932 2036.069214 471.065613
469.759369 2002.300415 575.196716
478.329590 2017.295044 648.219116
559.931824 2009.291748 289.500580
738.224182 1962.836670 490.269623
516.864624 2094.997803 660.862366
462.181458 2027.478882 455.766327
584.905151 2007.215698 337.874268
384.370667 2002.160156 632.329712
505.097168 2027.067383 318.561066
355.829651 2012.638428 591.856873
819.697571 2141.490479 497.510071
733.659485 2295.657471 259.477234
721.211609 2017.252075 347.275391
706.129944 2083.478271 292.055603
461.719116 2035.285034 481.294312
615.282898 1982.316040 543.407288
548.532593 2007.541748 469.454956
715.716736 2242.041748 276.555969
494.392181 2028.559326 484.387512
319.418060 2025.315674 507.760223
383.028381 2040.074341 366.785339
624.103577 1993.383789 270.462708
736.378784 2047.111694 640.590759
502.647369 2023.142212 613.924072
507.419586 2032.021606 320.199219
542.087463 2032.393311 413.410065
812.661560 2102.530273 479.483643
687.529602 1994.768921 305.982727
400.401276 2023.746582 552.854431
722.261536 1995.844360 308.924927
591.381531 1998.226440 456.819550
486.615906 2010.367554 537.283752
717.080078 2024.773071 576.726013
714.631042 2019.553345 610.860046
685.518005 2115.100098 557.721375
604.927734 2010.961182 338.609497
740.479126 2273.735840 331.233093
458.426727 2012.932129 565.621521
656.522156 1986.600342 352.072113
735.106323 2000.990845 390.432678
354.344635 2136.113525 617.943420
707.531189 1975.917847 346.405640
477.047394 2008.704468 324.272217
582.181519 1985.656738 546.125244
700.064880 1970.794556 438.429016
361.379913 2012.616699 560.555664
651.117065 1983.364624 374.725586
722.375427 2188.499756 292.828430
765.892334 2216.525635 398.441925
392.665588 2031.820435 672.650208
335.141846 2043.125366 472.047974
557.628235 2005.277100 474.986023
751.238770 2066.873779 412.200348
557.135254 1998.378784 541.909973
685.194641 1972.822632 417.617279
647.130737 2000.553101 256.025360
633.395264 2038.539307 460.324585
599.716492 2016.703247 387.804749
728.560425 2118.624023 337.532898
798.398621 2053.927246 502.526093
289.743530 2043.692749 433.208069
737.316772 2076.728760 373.647095
805.917725 2051.167969 478.458801
506.797241 2018.676514 446.623596
806.726440 2117.813232 590.874756
747.142944 2119.669678 352.704529
490.374603 2032.774536 330.682709
720.650452 2213.463867 286.109833
481.925873 2020.274780 460.403839
370.768250 2028.338257 586.294189
725.163452 2136.086182 322.421661
485.921570 2003.283203 635.227051
588.456482 2033.328003 281.105042
455.128235 2031.100098 672.855896
708.451782 2001.155151 572.571228
647.854248 1984.172241 441.902924
726.689514 2116.167480 330.697998
348.517334 2056.645264 432.433289
564.284424 2003.955811 595.415222
683.440491 2009.276489 241.651733
768.943420 1967.569214 497.570587
730.828003 2287.400879 259.587585
553.829651 1995.783081 546.424011
559.116638 2012.125244 312.927032
668.030151 1983.322144 520.301941
812.997986 2214.135010 499.931610
612.213806 1982.468018 541.931274
642.351868 1980.138672 439.873291
731.795044 1999.609009 372.572632
339.600952 2048.770996 530.869202
555.080872 2004.937866 502.506714
385.231232 2034.116333 377.784851
778.781006 2135.747803 522.368286
316.088135 2038.107788 470.392944
730.468994 2095.466797 373.880859
716.617737 2065.013428 583.200928
681.631165 2024.268433 240.644669
737.359741 2083.343750 340.561310
782.784241 2121.021729 555.897217
384.783661 2024.437866 550.172180
523.353516 2011.957153 514.654175
736.840210 2113.957031 365.792664
703.015991 2069.554199 288.707306
723.038452 1970.631958 484.701965
478.958923 2030.087769 349.620056
749.297424 2001.665649 422.422638
705.516296 2121.274414 276.625488
681.595215 1980.908813 454.056274
740.008667 1969.960083 490.308136
372.985413 2010.436279 632.169067
796.239624 2101.716309 558.739685
782.563049 1985.622925 483.176941
688.416260 2009.837524 579.818176
720.848816 1980.206543 517.932007
568.373413 2064.030029 636.261475
696.510071 2090.446045 264.181366
717.845703 2010.827393 568.979187
607.277039 1988.199707 557.456604
551.891602 2014.755737 439.458984
802.625000 2072.642334 475.793701
455.966370 2025.409912 656.448853
736.086548 2183.277344 349.149933
522.877930 2011.831177 460.986603
702.141418 2128.326172 249.397003
529.686829 2009.396973 535.393677
416.893890 2044.016235 702.842285
414.285889 2001.906128 613.349243
613.178894 2028.712158 274.609344
572.671021 2019.789063 297.610229
735.107666 2009.675903 643.982849
738.561035 1982.278442 479.864288
788.972839 2052.538818 492.536163
768.661682 1981.463013 465.623962
485.360687 2009.884033 560.767822
466.559937 2025.680542 387.849091
627.569946 1986.001465 387.313141
799.072998 2215.992920 517.987671
583.925232 1997.563599 592.179932
630.263428 1991.635742 544.591736
664.515869 1998.696533 295.399689
553.797119 1986.180054 610.798950
731.332397 2007.471558 656.787292
792.664429 2121.299316 502.977448
737.647583 1982.001099 517.776489
393.144501 2030.417969 507.601868
439.435150 2018.977783 515.462280
672.859619 1979.407227 515.846252
516.512573 1994.214111 599.103516
803.543335 2086.148438 592.535889
634.588379 2048.844727 453.185669
298.331940 2042.236206 417.864075
760.967896 2006.303223 414.642548
680.609009 2019.587036 577.552307
694.385498 2040.526489 559.339172
682.750671 1977.827026 368.920380
784.976379 2145.044678 515.454041
409.138000 2019.690796 649.998901
747.057495 2186.189941 356.782288
606.450684 2006.258667 498.404510
425.376282 2011.451416 640.376526
618.750366 2009.292236 568.771118
747.661621 2188.958496 365.952942
720.211487 1979.787720 509.409698
722.543335 2098.169189 315.914795
368.142548 2033.097046 368.666901
730.766235 2260.991455 306.175690
786.710205 2181.946777 462.839722
520.316650 2000.657837 626.137695
685.624695 1972.752319 446.538635
546.716492 2029.633545 430.319489
351.603699 2033.206665 441.132355
494.604370 2004.689453 563.438660
718.580750 1990.951294 323.195740
686.549133 2002.579224 270.828461
320.387604 2067.643066 481.966675
477.176788 1997.012573 603.691711
453.508179 2036.714478 522.924866
412.437164 2025.050659 558.979309
495.770233 2036.131592 409.568268
711.662170 1988.416870 344.471710
665.606750 1977.880859 392.823273
602.341614 1986.242798 591.627258
687.343201 1998.740601 251.890396
406.637360 2051.983643 442.636902
752.434631 2200.247803 365.058136
357.540619 2050.542236 376.167236
333.461090 2063.607178 506.219788
535.995544 1997.621216 548.855042
523.607788 2009.368286 503.562195
728.511169 2050.177002 605.557373
426.695190 2019.696899 598.817200
791.237244 2053.209473 465.960846
663.284424 2006.257446 288.214020
657.168030 1979.073608 377.057709
626.503784 1989.208496 475.919128
487.605927 1995.355835 596.110046
645.865051 1974.479736 439.234009
677.400574 2002.308838 551.735291
667.707886 1987.365845 530.097595
455.138702 2029.185181 474.807281
406.626251 1993.249146 611.563660
372.990265 2026.456055 363.734619
516.000671 2028.414185 396.244720
561.642395 2022.612793 345.676056
760.588379 2024.657593 447.974976
509.857910 2013.881958 367.224152
736.620483 2171.619873 329.294830
707.033508 2025.834961 614.715027
608.776062 2018.486084 294.285980
817.341003 2202.434814 473.110107
452.053253 2028.054932 515.715881
641.068909 2009.701416 293.595367
661.244751 1976.879150 524.707764
389.377136 2060.688965 433.086884
786.236023 2100.121582 462.567108
553.443176 1988.039795 581.120056
361.236053 2112.771973 632.745850
613.799316 1993.560913 424.991150
629.293640 1972.123169 449.184631
762.342896 1999.175171 452.465210
381.600525 2033.526245 445.937744
771.463440 2031.805054 439.800995
821.598633 2191.367676 511.625244
625.586304 1981.762085 423.255341
616.751282 1997.466919 436.040985
658.034790 1975.984863 426.376648
797.533081 2093.284912 607.852905
697.833740 1974.581787 494.320557
346.283844 2032.705322 520.427612
772.091309 1987.042847 478.847443
676.719788 1972.496216 434.976837
550.268127 2033.215210 635.238831
581.563904 2012.605103 346.931122
738.867493 2163.819092 322.653717
374.423767 2050.768311 435.556519
478.535187 2009.239868 549.514160
758.726563 2263.778076 377.437256
557.795959 2020.914063 628.175476
797.236633 2063.343750 497.686188
714.291321 2128.442139 243.600128
679.806213 1998.428467 276.638885
659.213745 1978.882080 439.637421
498.463928 1995.127563 320.314423
709.162476 2027.629395 526.151245
351.726074 2050.722412 397.184723
446.076721 2016.767578 620.836548
596.117126 2002.293335 474.058472
726.034973 2096.866943 337.423340
711.835571 2229.837891 268.601990
447.204742 2041.065186 422.333252
505.990967 2015.906128 356.483765
622.619690 1982.580444 436.121552
524.747742 1988.142334 570.833923
786.888184 2210.370361 425.531219
347.111359 2044.527832 563.558838
643.392761 1984.553467 372.722687
625.913269 1995.055420 445.119873
533.173157 1991.632568 617.881287
655.884277 2003.206909 300.520477
460.878204 2033.421509 339.718475
566.294495 2013.976563 330.060822
586.941589 1996.544922 599.486389
780.040955 2173.999268 449.568604
657.811523 1988.793091 337.711090
563.432068 2015.079712 481.727875
719.523987 2293.698486 318.236725
587.910522 1992.947021 542.057007
707.312317 1990.448242 272.444458
685.875732 2016.731201 588.163269
692.237488 2091.179443 256.659454
371.150482 2005.537476 633.150146
796.074768 2232.797852 467.670746
775.951721 2228.679932 416.797699
754.508545 1977.880371 470.941650
336.028290 2033.846924 556.007813
358.741150 2039.971558 441.437775
553.888245 1994.976196 537.821777
606.084412 2022.221191 461.957245
497.967987 2030.291504 638.683472
514.649109 2032.121582 428.422913
723.101501 1961.537231 452.259308
334.925720 2035.911011 481.782745
569.296631 2021.054443 403.077301
805.018921 2213.965820 472.015228
425.396179 2001.030640 595.665955
798.122803 2133.924072 501.716217
577.833679 2006.491455 523.536926
389.589844 2039.789429 428.722015
505.354645 2016.638428 495.039948
660.195129 1992.557861 324.997101
738.411316 2116.973389 337.480835
623.879333 1996.685669 320.406952
495.560577 2015.412109 448.901672
722.512756 2074.520508 306.060089
460.730865 2034.370728 404.499573
763.279663 2090.666992 581.003601
641.793823 1994.528442 337.968567
765.465149 2029.657227 459.871613
695.833679 2041.593628 544.327820
790.160706 2144.433838 508.381775
631.656982 1988.717285 347.228638
358.883484 2025.720459 537.865906
770.966736 2133.964355 433.928314
797.870361 2170.723389 509.575714
455.555084 2008.399170 561.240601
301.206482 2109.842285 485.398407
714.452576 2023.853149 581.656250
686.525269 2027.317383 578.593445
422.748688 2011.613403 589.665039
747.972900 2100.039795 547.635498
469.800018 2032.317505 408.147949
500.526550 2027.815918 413.696289
740.679810 2008.098633 653.149048
675.225952 2027.560059 265.836304
805.070862 2144.497803 579.173950
529.658447 2009.394897 629.547913
603.600464 2013.772705 600.775513
591.520447 2004.001587 574.669495
717.451477 2056.200439 573.473877
759.951233 2044.140991 511.529053
370.647705 2030.162231 406.410583
422.518982 2038.197144 691.921814
722.975830 1965.035645 412.099243
803.347534 2212.628174 474.124908
527.889160 1999.909668 566.135132
618.196594 2003.152832 487.949249
704.690247 2016.314209 552.082275
481.992523 2009.072021 547.952820
472.744232 2014.389893 545.523804
651.658081 2004.346436 563.206604
394.825226 2014.959839 668.723572
785.675293 2036.515137 494.526855
735.652283 2075.146973 374.211243
417.870667 2035.738403 358.419922
671.788086 1991.330322 364.238190
405.433746 2033.603027 453.920074
570.490845 1998.625000 603.644165
710.028259 2000.124023 659.460999
726.996338 1961.843506 476.121979
630.009521 1993.572510 346.321655
720.199890 2078.177734 319.973175
627.143860 1988.443970 553.500854
761.083191 1992.222046 461.796570
803.450684 2091.049072 575.961975
759.665771 1992.978394 455.060822
682.802490 1988.642944 420.580933
705.563232 2017.997803 540.031738
758.125122 2134.226318 380.160156
483.472931 1996.929565 583.733887
551.440125 2033.333496 421.985413
508.377838 2014.730591 479.618134
478.053589 2022.633301 658.587708
544.453003 1999.612671 528.833862
478.452057 2036.387939 671.816284
731.984070 2033.223022 614.341980
792.466614 2079.943604 495.598206
384.778931 2031.789063 560.002319
563.183533 2023.222412 495.777618
720.097717 2011.481689 338.516724
372.346893 2143.038330 650.949158
665.656128 2009.290039 267.378601
719.061584 1974.778076 402.024841
503.938141 2014.588623 450.309845
595.283813 2047.458130 384.919647
545.097534 2022.373047 423.100464
484.732178 2056.056641 658.416870
511.847931 2019.342163 379.393616
454.902710 2013.284424 658.221008
504.484253 2016.821899 507.978943
524.401306 2019.208984 616.812073
523.764282 2019.846802 438.997284
661.295654 2019.215820 247.822876
586.037354 2025.666382 356.673950
651.165100 1975.772949 447.167786
653.301025 1978.012207 511.979431
565.975037 1991.781494 549.341858
819.718933 2076.325439 491.282135
640.692566 1985.712158 379.744202
503.943359 1993.566650 594.978210
508.508820 1999.580078 568.190247
714.621399 2068.350830 566.218933
717.213867 2049.167236 584.468445
748.912476 2121.853516 384.716583
582.388428 2084.896484 638.120483
518.511902 1992.103760 584.291199
697.284912 1964.339600 448.825043
674.160522 2009.094482 260.857422
610.488159 2001.401245 335.173737
766.077698 2084.551270 440.327301
745.678955 2047.130737 639.748962
767.471497 2027.173096 449.854523
739.776062 2173.343994 352.148193
746.395081 2121.703369 374.526794
560.284607 2016.673706 319.384888
726.960205 2230.703857 277.608765
722.164368 2093.740234 316.330444
689.907043 1985.326660 332.514435
482.154816 2012.310059 322.870331
459.317688 2016.317627 515.201660
627.968811 1988.892822 542.323792
580.766846 2012.896973 467.386841
727.704895 2140.338867 329.921997
816.358337 2082.015625 477.114868
485.402557 2072.776611 668.961914
475.502625 2031.354248 692.353027
382.408142 2029.132568 535.776306
553.331604 1993.753418 552.732788
723.015259 2068.858887 343.757294
704.408203 2069.804688 294.349792
799.113281 2129.510010 467.985138
768.511169 1963.274292 490.768372
731.534973 1987.064209 512.593689
389.391785 2021.475708 580.340942
733.172424 2124.338379 322.034302
719.425110 1994.786255 524.638550
536.883484 1999.829956 580.293884
816.554749 2031.482788 480.794220
345.002625 2036.319458 550.311584
592.737732 1991.346802 381.955200
364.047180 2054.748535 374.785736
475.577240 2033.146484 473.609680
563.585388 2000.950317 597.250183
656.603943 1982.879272 355.197571
428.893402 2024.634399 462.914856
800.499023 2120.092773 583.341492
563.633667 1992.672974 584.692444
360.602509 2012.311646 636.462708
526.211670 1988.352661 598.453857
620.443481 2035.325928 582.045044
359.392792 2027.562988 374.672760
724.655396 2034.022461 348.988556
495.875793 2017.923950 627.211487
761.094055 2185.202148 415.618744
488.097748 2019.827148 476.556519
434.791534 2012.421753 633.915466
738.502991 1976.871338 506.014587
595.122864 1986.100098 534.323303
463.345581 2033.080322 378.372589
730.576721 2011.256226 661.624451
732.004456 2053.105469 360.577545
530.340210 2029.794312 342.919830
526.226929 2010.130859 472.714417
503.939819 2006.814697 615.070251
722.910217 2061.757080 368.184601
563.557068 2010.890625 453.736511
755.227112 2007.475830 438.794678
742.231201 2023.077515 523.378784
544.262024 2022.232910 375.133636
498.554504 2037.623901 377.929230
787.432312 2219.231201 452.255280
582.199036 1991.734497 527.819519
708.216431 1984.498047 308.665314
347.023651 2176.975098 578.660217
682.791687 1990.614746 245.328262
679.567993 2005.252075 273.417908
663.259583 1994.711914 345.519135
405.382690 2022.778320 479.513855
681.357422 2016.073853 557.767883
540.612793 2003.806519 530.881042
592.063416 2016.006104 616.881409
614.242065 1975.336426 535.917358
770.010742 2096.919189 446.786011
710.940674 1976.176636 345.318817
477.463043 2023.225952 353.999054
747.067139 2194.721191 351.669617
686.551086 2014.417114 589.076843
763.930237 2151.198975 415.925812
772.755676 2016.024902 489.194611
344.814270 2059.670898 515.626892
313.216064 2135.939209 509.008972
759.880676 2020.261230 408.378418
705.760498 2179.743896 276.274292
508.421753 2014.668213 558.774963
465.140533 2019.533813 583.027832
584.744690 2072.996826 636.628174
664.947388 1982.827759 405.509949
719.145508 2139.491943 308.198059
741.011414 2145.071533 334.183411
451.896851 1991.106445 599.578857
581.086792 1994.060425 543.843567
606.179138 1996.933228 516.599426
753.515198 2107.979004 555.205261
506.500305 2029.431396 623.681396
736.687622 1996.544312 520.585632
691.026489 1967.369263 497.989166
728.787048 1998.634766 506.290558
742.618042 2018.363525 662.384216
773.119324 2182.620850 421.946503
743.102539 2001.446655 664.990723
787.532654 2118.649170 536.008118
689.372864 1988.726196 325.522217
790.508484 2152.877930 508.207550
705.013855 1972.349365 410.492706
807.460510 2067.473145 490.220123
720.569580 2081.880615 320.004639
753.813477 2268.267334 324.276215
759.139526 2039.207886 506.464447
606.765381 2002.595093 334.089203
386.413879 2163.681885 693.675293
706.830688 2058.582520 639.679443
451.199860 2014.093384 569.667603
788.011658 2049.652588 467.671387
732.352051 2012.220703 624.535583
374.456482 2038.165405 520.580872
559.985474 1994.688354 604.466248
704.513428 1977.314087 446.279053
353.217041 2043.956177 545.809875
716.821838 2080.462158 266.290802
590.584045 2047.046631 373.183960
660.917786 1974.541504 438.209808
669.255737 2011.457153 244.309586
380.000275 2024.165039 604.231201
812.706726 2138.305420 493.162842
775.889465 2023.875122 494.606903
712.391235 1970.262939 501.127075
715.662781 2015.782471 333.814636
725.426025 1984.734497 423.692535
490.139740 2024.981079 418.357452
502.778412 2022.496582 349.218353
453.220062 2017.820923 595.000000
487.246613 2029.481079 461.182892
439.203705 2029.614990 386.532562
417.331787 2024.913574 524.841187
481.430328 2028.680542 545.569824
542.156860 2015.504639 446.107727
477.267914 2016.243042 417.117279
489.359497 2010.610718 644.111694
450.057800 2030.530518 458.978027
499.369049 2019.851196 380.900940
675.951782 1976.463867 406.154327
681.627808 1985.297363 344.652374
809.816833 2125.793701 499.940063
719.907166 2171.652832 270.295624
328.625610 2036.244019 467.418304
663.840942 2020.408691 595.588196
580.265991 2038.810547 362.298737
757.676025 2141.789795 397.365570
508.578064 2013.214355 389.572998
747.895996 2004.129395 442.550323
666.149231 1979.324219 519.264954
360.311920 2024.715820 606.097778
728.953247 2021.097534 524.834717
645.692139 1982.397461 419.166901
494.836975 2034.426880 429.173248
505.985657 2023.866455 341.881653
818.938293 2156.147705 502.031097
650.650452 1980.052734 484.675049
478.249603 2007.075317 662.240479
396.065979 2036.413452 507.942719
459.081268 2021.420288 655.674438
567.762634 2034.473877 373.295532
710.430115 2006.992188 629.754761
479.908325 2043.653076 674.155945
805.753235 2065.810791 494.478607
740.150940 2014.860474 509.461548
552.158997 2020.754517 302.964722
622.468750 2002.775024 337.830963
466.501129 2014.519531 328.818817
572.241028 1985.198853 567.468384
695.644165 2091.248047 248.723465
403.020752 2035.151001 454.078552
722.842957 1968.948730 387.635376
748.457764 1966.125488 437.821991
683.114990 2006.306641 247.734436
602.802612 2001.816528 610.227783
763.036621 2209.141113 395.941925
692.327698 2044.578003 265.679291
660.402222 1992.898682 544.574951
688.816101 2023.541504 242.258896
800.913757 2086.846191 490.241089
466.161072 2027.964966 383.528137
725.992126 2088.600586 345.038025
488.713318 2025.637085 414.075562
473.441345 2018.609741 641.178894
414.313171 2031.776245 426.477203
572.417236 2037.841553 619.441833
452.434601 2028.279053 428.990173
521.449219 2023.790405 421.637054
732.595032 1972.201782 497.937103
758.041321 2174.585205 394.781525
658.372559 2013.134521 539.476685
536.715698 1991.475464 575.699524
635.407104 1987.910767 388.450134
630.343140 2027.383667 562.147156
364.000641 2007.247314 624.736755
738.398071 2262.125000 262.894867
732.989746 1972.600952 344.046112
625.318726 2031.579590 571.123718
534.177795 2004.260986 634.282654
523.387939 2025.848389 636.991760
465.695465 2010.388306 634.804993
719.081665 2258.739502 276.410980
780.190247 2092.402832 575.178650
825.279053 2201.539795 476.390045
466.539154 2032.123901 400.712738
731.886963 2010.227905 506.708344
739.807556 2180.490967 346.104492
603.958557 2001.572021 487.630219
719.649292 2084.070068 295.125732
582.969604 1989.780396 541.965149
619.381165 2015.304932 269.354675
763.796448 2003.983643 422.328888
547.090149 2022.939209 373.639038
783.793579 2110.772217 462.677948
529.653381 2007.908203 518.990173
733.947815 2049.932617 361.510376
535.437561 1989.242676 566.907715
715.270813 1973.276733 354.352173
573.110657 2013.845703 366.927551
721.777588 2012.286377 354.587036
665.267212 1991.890015 533.655762
501.315887 2013.700195 392.064697
430.889404 2044.930176 704.155273
373.827484 2076.191650 518.379700
445.315643 2027.837036 404.278534
477.583832 2026.875122 353.108856
488.431488 2059.196289 657.889343
637.826233 1993.498291 364.895630
741.336060 2158.963135 368.727295
337.906860 2032.127441 512.293823
716.009949 2141.724365 291.339294
534.184509 2016.273438 303.304565
693.954895 2086.444336 260.853333
379.638977 2031.308228 422.080688
460.361206 2023.920532 658.393616
712.475586 2032.074829 307.691956
435.118286 2037.838623 347.960144
750.147095 1983.777954 419.293335
698.005615 2017.822998 578.205688
732.263916 1965.250366 470.097229
723.809692 2078.782959 325.420990
532.966064 2025.380371 415.296051
702.980408 1985.575439 341.675873
585.134094 1993.534546 608.020569
607.720825 1993.210815 520.802368
736.350708 2279.197754 256.286652
759.913147 2021.147827 441.066040
672.282410 1982.661377 348.921021
578.907593 2024.452271 318.362915
672.181946 1990.126099 409.336609
447.042908 2011.777466 533.832153
367.128204 2017.318115 593.063843
555.325500 1996.361450 531.631104
405.366058 2038.550171 692.574890
639.218140 1988.399780 361.953064
672.220398 1975.418335 512.203857
564.775085 2081.067871 647.503052
608.378479 1983.413330 548.461243
766.220276 2209.511230 399.765259
775.002563 1986.537720 471.627106
760.353394 2107.185791 566.168030
550.951965 2012.247559 598.902100
837.821411 2185.118896 481.501129
635.717834 1989.678589 351.669678
763.161865 2191.553955 374.564026
426.811218 2031.103271 408.173767
761.026123 2167.667969 396.572083
530.416443 1985.178955 602.328125
414.315521 2012.480835 570.354614
409.235443 2025.855713 476.450897
721.963623 2167.682373 296.911987
490.723724 2026.070068 374.290894
436.391693 2032.957520 683.174622
713.335999 2065.626221 320.506317
479.877960 2015.674561 520.681763
719.989563 2118.010742 308.645844
566.424744 1988.523193 599.431274
730.362244 2266.272949 300.060577
465.675079 2013.275757 658.381165
755.295044 1999.435669 504.041779
730.752625 2270.985840 298.952759
511.673615 2049.819824 642.286255
732.516663 2206.397217 318.361176
461.405273 1998.301758 595.004456
583.355347 2022.325806 292.121368
774.447327 2050.645752 458.565216
523.994019 2027.255127 448.490265
399.831451 1993.932739 613.883667
710.159058 1960.994019 465.501892
611.720215 1984.373779 448.935059
577.188232 1987.606934 553.307739
800.105652 2134.661377 471.338593
769.951721 2078.277344 516.685242
656.787231 2012.379761 278.020538
518.279907 2023.258667 425.491669
463.747955 2058.971191 677.250000
674.869568 2033.335205 548.183289
483.504364 2027.164185 392.453857
770.925781 2106.149170 548.906006
806.585754 2132.541992 576.794189
341.323120 2032.074951 402.228119
571.104614 2029.792725 297.277771
349.718567 2099.820068 609.310669
704.808350 1971.634644 359.589050
692.364441 2101.465088 254.917313
742.717590 2182.228271 379.671967
783.289429 2086.007813 596.531616
573.299133 2009.294067 476.060028
302.889557 2027.426392 400.076294
799.394775 2079.247803 595.032166
455.400482 2019.810425 383.698425
420.497894 2035.141357 506.387421
772.750732 1993.046265 483.407806
600.492065 2005.364014 339.930542
801.477173 2049.673096 467.643860
352.415070 2042.721313 399.415314
688.212708 2020.892090 263.856049
688.469666 1966.490356 507.951355
725.170593 1980.836548 423.667328
471.567322 2033.964111 417.108032
717.862000 2156.113037 295.185913
598.522095 2007.577515 329.224701
735.234436 2137.744385 343.109528
699.146240 2031.300415 550.472778
400.351257 2025.463623 506.752106
496.586426 2016.826660 557.949585
522.710571 2028.647949 404.395081
586.662415 1992.725952 576.418274
673.108948 1999.995972 254.971786
758.906311 2134.926758 432.867401
743.032410 2031.658569 511.574127
640.031677 2059.553223 591.327759
580.318848 2008.558228 334.658783
736.732849 2114.582275 359.857300
620.728577 2003.271973 309.963928
553.191650 1988.379395 563.638367
730.675476 1975.301880 404.082581
515.028687 2020.896362 460.293610
722.786560 1971.064575 418.284729
791.769409 2092.119629 531.675415
389.396790 2053.204590 444.269257
475.180115 2016.236450 526.707886
781.136902 2214.619141 410.437347
482.949554 2022.450073 392.593689
738.429260 2140.136475 350.938477
661.320435 1971.060913 263.731812
559.535461 1980.594727 601.017944
766.476501 2016.123657 497.152710
617.141541 2074.054932 610.464966
634.060181 2006.417847 336.411011
757.519592 2073.659180 431.617371
481.138031 2034.593750 657.358582
798.025391 2176.997803 520.316833
428.690491 2032.227417 436.982880
638.353943 2004.070801 266.474670
697.966064 1973.933472 363.894440
789.605713 1999.366333 479.562531
793.543701 2161.630859 459.752686
498.552521 2057.956055 651.107300
807.012024 2107.427246 589.676697
410.081024 2031.911377 470.729218
488.976807 2004.927002 572.365173
478.312653 2024.972412 334.065826
481.429169 2027.523071 373.373932
710.742798 2118.820557 314.639648
671.445984 2023.461426 559.324890
727.086304 2055.692139 355.226379
558.594727 1982.515503 570.457886
439.620667 2020.365723 685.381958
645.816467 1983.714844 443.804718
743.783752 1973.346558 454.456116
691.272034 1985.261719 523.324829
516.550537 2016.418091 441.672455
742.457886 2266.562988 326.240936
521.614685 2086.688477 651.281128
383.809631 2004.806030 607.347046
516.697021 1997.496094 606.527283
733.393372 2014.214478 636.153381
722.482239 2003.684692 335.379120
715.617981 2052.208984 645.714172
717.555725 2020.965088 555.117615
703.026367 2056.118164 296.681061
804.150085 2082.799316 498.957825
799.122009 2101.069824 469.812408
739.473938 1996.395142 400.227905
716.387146 2105.925049 251.957901
670.967834 1986.385620 528.652222
591.366333 1999.623291 297.321503
423.387909 2036.654175 423.484924
645.363770 1977.438843 441.547791
569.200928 2020.816895 303.221954
738.770386 2097.844727 368.194458
713.463867 2228.805176 262.321777
692.204407 2105.350342 260.061920
536.605225 2021.512451 302.536469
698.298950 2044.204590 551.791321
708.854248 1979.048462 373.446960
692.370911 2046.558228 244.400711
711.840515 2064.853516 635.248901
424.668152 2000.119385 618.136292
365.405182 2018.091675 575.528625
599.791687 1999.786499 342.055481
804.020935 2132.286621 506.174500
735.299927 2270.832764 269.482758
470.680939 2045.894775 691.242249
746.273682 2100.188477 378.496094
684.377014 2010.147095 270.319824
491.100159 2004.933960 636.723938
481.776825 2001.184448 327.986298
690.321411 2049.126221 261.542084
742.132629 1969.472412 443.889374
720.947021 2125.671875 308.692383
806.150146 2064.878662 477.607086
726.315552 2085.947266 340.852722
638.648193 1976.233398 442.032990
466.372284 2023.506958 359.525970
785.661316 2130.348389 555.861755
552.852661 2016.207275 329.656738
781.580444 2202.661621 441.800720
719.489746 1970.281738 471.047821
683.807800 1990.762695 293.633118
728.126709 2224.996094 296.886871
724.870605 2159.623779 290.397156
733.089355 1991.116943 408.935516
584.530945 2008.252197 460.597412
774.742493 2091.955566 601.075195
631.156677 1981.971924 418.258362
779.939270 2005.747559 484.589081
785.153076 2083.655518 542.456909
377.279846 2005.172485 637.921814
331.048767 2034.838867 413.019257
704.518555 2062.633301 557.644836
597.718079 1991.388062 521.220581
690.055908 2017.806274 563.694031
759.003296 2165.850098 424.694885
330.066437 2031.073608 521.786560
663.684387 1976.336304 414.686188
631.671326 1985.757813 434.474426
555.331787 2008.741333 452.894073
737.645813 1994.097168 679.609009
724.462952 2024.497559 592.390320
453.762878 2004.930176 560.364136
760.032166 2156.975342 398.057800
475.282776 1996.617920 599.875183
579.910522 2021.448242 447.824707
750.671875 2011.721802 640.829224
470.206116 2012.010742 536.251587
464.831268 2085.572998 696.143982
694.560181 2117.937012 257.889618
650.195801 1973.291870 466.999176
617.347595 1993.092651 339.743805
420.034180 2049.515869 394.885834
555.014160 2011.502441 464.110260
637.805359 1992.605713 344.562195
752.357300 2161.236328 397.182098
737.705444 1966.914795 421.963715
499.865692 1994.423950 570.224304
495.866150 1995.596069 587.707092
743.860657 2240.442383 344.751038
617.328918 1981.617310 526.398865
808.414673 2209.522949 465.760925
669.337708 1970.139526 525.647522
812.613281 2088.117188 480.764679
628.269409 1980.901611 529.570923
783.839294 2176.365967 458.288910
454.093933 2004.794312 620.532654
403.708710 2026.335693 483.322083
596.423584 1999.619629 490.797302
426.954315 2018.616333 555.260437
511.027069 2012.182129 477.702423
687.409424 2016.103027 236.339462
759.911682 2096.643311 579.126221
465.433228 2025.830322 354.350037
760.096619 2263.772217 370.364227
728.951477 1964.300903 439.348022
790.606689 2013.706543 484.750122
408.273010 2028.513794 550.594116
712.494202 2032.628418 558.791443
423.994720 2025.359375 460.686096
746.728821 2014.564819 658.493713
737.321716 2092.763428 361.773743
372.762604 2025.427124 490.592438
787.744690 2107.047363 463.787506
316.516937 2039.619019 479.879547
779.408813 2100.689941 459.280518
701.533020 2097.225098 242.934891
662.184204 2002.049805 255.244766
732.489624 2035.024048 598.796875
736.872620 2226.356934 296.864838
771.992676 2133.312500 437.538177
697.761169 1972.972778 477.403076
782.423523 2167.973145 454.473022
401.438446 2010.739136 663.262878
686.294067 2024.497437 252.512024
695.325378 2001.160522 266.278198
790.753906 2196.458252 461.592957
714.682678 1993.395264 648.008301
421.289703 2031.860352 472.805267
450.112793 1996.679321 607.062927
766.300903 2158.733643 392.550385
419.848206 2000.349854 607.734863
636.832825 1999.180908 556.501282
348.481445 2050.998779 376.860260
698.237732 2090.329346 538.766052
630.582520 1989.576782 495.496277
604.338867 2014.926025 391.350281
630.539734 1991.677979 543.504150
479.261047 2037.005371 422.523468
702.967102 1972.489746 486.472931
499.688354 2033.028198 395.079071
705.928711 2035.093140 574.365234
535.319519 2030.321777 442.328491
807.083069 2156.479736 569.364746
731.299988 2222.176758 331.150177
341.942322 2044.733154 385.621338
580.649597 1997.981567 504.893768
668.216370 1997.377441 313.904816
811.393372 2091.956299 480.857666
649.823669 1990.206787 350.780609
781.707886 2084.951416 504.375061
743.922913 2270.899170 339.815582
748.487183 2280.788086 330.506378
438.736847 2007.314087 354.318756
680.217896 2007.480469 303.119598
475.158844 2013.343140 553.103027
489.354523 2017.957397 493.857178
701.746460 2010.809937 621.171265
661.258423 1987.417480 360.482178
646.280884 1974.694458 427.049255
573.759094 2016.658325 286.950500
696.213318 1973.095459 473.409698
796.915649 2114.109863 592.340454
642.624512 1988.803711 357.603668
681.209778 1964.705078 398.844238
709.377075 1969.031860 376.116394
385.859619 2018.591064 619.601990
473.383820 2007.059448 620.796814
748.599365 2017.613281 407.610321
691.951843 1995.600342 303.452972
654.617004 1976.267456 445.039185
651.908142 1965.072144 446.192963
565.501770 2019.598145 348.780273
718.772278 1967.870850 482.273773
766.078674 2001.087158 461.622528
726.137085 2059.779297 342.258942
716.153381 1964.598145 474.898407
414.139221 2043.719849 367.681946
450.148041 2023.432373 643.704895
605.830627 1980.374512 553.912720
730.605103 2013.349243 657.537720
696.983337 2057.280029 277.565002
668.963928 1975.266235 435.341309
634.310608 2040.769897 578.213806
752.748413 2075.322998 400.865509
794.940796 2095.636719 600.578613
384.301025 2148.975586 690.888855
577.020691 1993.068115 593.324219
652.970520 2003.603149 323.856293
588.058044 2007.926636 459.673279
742.778992 1969.639160 485.446716
390.718140 2015.002930 650.611633
664.382141 1977.942017 419.959381
752.821716 1974.402222 501.021484
544.193970 2005.391602 617.512634
456.944519 2000.517090 624.872925
772.319275 2205.087158 391.252869
738.099731 2194.486816 337.975647
717.096191 1979.291748 441.961304
657.118774 2019.879272 570.808655
687.812805 2007.591675 245.675980
712.550354 1976.617432 474.334595
757.686157 2101.108643 606.924744
629.751404 1987.642456 412.670715
751.987793 2089.467529 577.048828
480.528625 2007.740112 628.648193
536.748291 1981.245850 602.392151
452.628235 2018.608765 492.385620
658.146729 1984.780273 317.198639
646.057434 1996.072510 311.359100
443.393250 2000.666870 342.756622
791.710876 2243.269531 427.340973
619.487244 2024.333130 266.128632
397.239899 2022.200928 567.594482
455.663025 2015.847290 649.527893
729.726990 2125.700195 338.268280
375.365997 2024.228149 527.606323
527.566956 2035.036621 402.107330
432.380341 2025.224609 372.490601
648.147339 2022.825195 258.338623
563.410583 2020.896606 371.330231
525.018066 2027.389160 413.250000
739.213074 2011.009277 621.643555
790.489807 2159.430420 535.058289
703.464172 2038.376953 531.871826
638.061829 1991.530640 430.870056
762.317322 2093.471924 607.771423
745.442688 2264.505371 344.203583
573.593872 2007.196167 582.373596
800.332153 2172.590576 527.420715
429.994202 2002.533813 627.092957
601.264893 2000.116211 578.089478
672.714355 1984.405518 261.286041
354.524628 2050.247559 635.717590
428.126099 2009.041992 605.803284
739.375732 1993.874023 435.926514
681.800476 2014.685791 555.544739
669.605469 1980.988647 377.684021
594.981812 2021.581665 283.651001
722.638855 2031.362061 604.405518
711.278381 2098.334717 292.909119
739.029724 2182.575684 337.004242
280.460358 2111.259277 428.827484
655.541809 2031.323120 578.853210
782.284424 2122.989014 533.349426
663.038513 2013.734619 249.901932
637.564636 2054.207520 592.766357
716.164978 2069.655518 567.822510
743.440552 2085.864990 523.382874
623.425964 2026.373901 267.913757
806.149719 2141.488037 578.297791
542.759521 2014.180664 353.330200
433.618042 2022.477661 342.190704
538.431519 1979.943726 579.566406
393.551270 2005.795776 602.622131
722.431030 2210.371338 310.864563
415.205383 2025.633179 522.759338
737.939453 2072.273193 351.630249
370.163300 2063.085449 459.878296
719.217102 2006.540283 634.135925
549.654785 2023.291382 462.492279
709.639587 1968.208740 447.017975
596.568604 2011.053345 354.056702
517.187561 2014.412354 536.201904
824.742249 2161.215088 481.344147
706.688721 1998.806030 660.362671
759.243347 2071.508057 419.057068
459.920929 2027.627563 332.340240
573.644348 1991.387329 569.429138
480.237518 2001.354736 617.506226
403.733124 2031.696045 419.314819
749.076233 2211.248779 353.501709
459.570923 2018.467041 461.081665
721.674255 2108.246094 311.012085
594.270020 1985.118164 545.615234
802.371216 2073.683105 613.535950
604.764343 2011.607422 363.414917
388.366791 2035.674438 665.504700
488.063202 2028.715820 475.506439
715.205872 1971.171997 382.328918
367.089386 2026.913574 369.750732
722.958496 1972.200684 501.304260
736.297729 2028.506226 584.813354
731.956238 2258.299316 305.669525
596.905212 2006.831421 592.423523
470.436096 2019.513306 328.359833
781.405212 2068.334717 504.268799
790.765015 2138.118164 461.736359
701.180969 1972.036621 361.195282
467.664246 2023.040405 372.175262
772.174988 2211.896973 418.608917
734.094360 2087.865967 565.188110
743.237854 2094.835693 379.995361
522.220032 2007.127808 499.613861
346.070068 2033.197021 383.810516
592.315735 1988.780640 578.475647
641.697632 1987.097046 493.747223
662.307739 1986.222412 330.472198
809.117981 2082.910400 478.377716
623.325684 1991.953125 510.667633
776.887573 2068.543945 441.706726
766.119629 2038.239624 451.168365
494.047485 1999.230591 612.180847
667.252502 2032.475220 584.707947
514.977417 2032.925415 395.690399
765.826660 2107.559570 552.260315
620.577271 2073.585205 417.110870
743.089844 1962.650513 456.622620
666.687500 1993.820923 296.824066
435.148926 1993.559570 616.751465
687.890503 2028.347412 542.608398
486.816284 2057.960938 668.451599
750.329041 1963.490234 455.534454
637.323669 2013.809814 569.114990
695.214661 1981.350586 438.847900
424.833099 2025.942505 582.000488
734.639832 2213.703613 322.284241
547.529968 2021.728027 388.183105
782.146301 2094.792725 513.148193
492.103333 2013.918823 504.576904
564.305359 2001.120239 525.908630
798.222229 2215.358398 452.277008
669.480225 1975.116699 423.743530
439.028717 2004.818115 650.108765
697.722534 1985.111816 347.286163
684.758057 1978.318237 350.700195
507.027527 2007.053467 616.165771
633.247986 1988.075928 437.060883
593.330017 2034.956421 406.586731
697.179321 1967.468018 469.540161
793.572449 2123.391602 572.193726
754.583740 2013.812622 635.372131
390.228577 2024.896851 458.827332
584.806824 1991.045654 582.172424
779.342590 2123.653320 460.405640
655.314758 2023.036377 255.773270
544.518616 2018.477295 372.523102
636.621338 2013.371338 281.801422
733.263489 2227.651611 314.237213
484.928375 2042.128052 666.872437
349.634827 2019.103638 561.196045
703.657654 2130.816895 271.773071
798.515808 2084.336914 470.984894
740.636292 2244.517822 327.150574
609.091797 1995.325928 456.437378
659.904236 2032.409424 564.606506
651.973022 1981.070435 390.519318
582.505066 1978.606445 577.706909
665.006653 1979.226196 360.301025
759.383301 2133.952881 401.785309
769.228027 2061.049561 453.976593
635.760376 2017.919434 463.706512
564.686951 1989.076904 555.904297
526.019348 2035.746704 388.195068
372.482513 2005.919189 602.050903
476.023926 2031.829468 403.357178
712.970947 1975.433472 511.810242
331.406189 2043.652466 481.990692
633.819885 1977.325562 411.539063
725.412170 1971.952759 452.876282
768.711792 2133.936523 429.359100
746.813538 2250.485596 343.431305
679.310852 1999.065308 285.314606
734.965210 2290.220459 301.299530
404.009033 2022.633179 415.835876
570.257996 2007.356934 521.015442
468.832550 2018.601074 647.074768
724.812500 1996.339722 379.372681
733.067688 2020.393677 363.647644
794.227051 2041.266357 501.069916
713.731750 2016.064209 521.015198
