ply
format ascii 1.0
element vertex 1335
property float x
property float y
property float z
end_header
1484.290039 1655.679199 4.053046
1476.150024 1561.655518 -117.476921
1431.247437 1516.755981 -365.367828
1583.881226 1488.883057 -248.559509
1440.171265 1521.197510 -328.298828
1375.366943 1618.725342 -231.122498
1542.214844 1494.568970 -158.229141
1679.968018 1646.355347 -213.521774
1562.531860 1471.770142 -190.132721
1318.049316 1645.715332 -383.994110
1556.146362 1593.839844 -98.395630
1502.530273 1661.028076 -21.481739
1320.892212 1666.187866 -167.066650
1487.121460 1568.610352 -107.306564
1715.034180 1615.152710 -327.950684
1514.610107 1664.001587 -75.374245
1392.337646 1630.812378 -180.095917
1606.696777 1584.864380 -85.641907
1368.718018 1651.445923 -220.564011
1386.878784 1660.613647 -120.338081
1608.416992 1485.059204 -343.343750
1611.072388 1490.694946 -301.117828
1662.239624 1606.989258 -209.684998
1321.666870 1599.802490 -378.588959
1518.061279 1654.329956 -87.722961
1565.992432 1538.430664 -156.088608
1301.239136 1682.868164 -242.643738
1397.712280 1623.662842 -177.454910
1503.932129 1556.666016 -87.444748
1587.821045 1481.015381 -268.474335
1261.109497 1770.898926 -147.170959
1399.842896 1589.635864 -255.951035
1641.269897 1549.660767 -288.449249
1578.825806 1469.838623 -269.660736
1413.642944 1576.250732 -250.254211
1536.003052 1451.157715 -252.355804
1509.519043 1504.826538 -144.590576
1585.945557 1553.961792 -121.299614
1394.420654 1514.607056 -368.545013
1521.464966 1512.338013 -143.939331
1356.312256 1633.364624 -269.459595
1575.747559 1551.688477 -114.428276
1248.682129 1680.533936 -342.989838
1650.399658 1605.145996 -216.549133
1481.265381 1486.465820 -301.310608
1415.643799 1606.860962 -131.674347
1324.686768 1861.327271 -389.139923
1346.036011 1535.498657 -374.904053
1385.355713 1593.100098 -311.489288
1445.852539 1673.782471 -39.297516
1397.526978 1610.240845 -196.214615
1745.080322 1635.587891 -401.240692
1587.978638 1547.852295 -93.689941
1457.769653 1658.792114 -113.041191
1343.990479 1668.900513 -160.644058
1571.104126 1460.586670 -302.831055
1381.262573 1644.881714 -116.497543
1419.102173 1602.176636 -135.690323
1474.368164 1672.898560 -18.246796
1509.585815 1664.178101 -15.391606
1537.683594 1451.995728 -329.520264
1475.819458 1493.743896 -291.394043
1288.017944 1697.676025 -200.938721
1462.834595 1639.313599 -97.096741
1449.261719 1603.814209 -114.252739
1526.006592 1475.438721 -228.176559
1469.003906 1590.987671 -108.503502
1624.134888 1689.530151 -60.843586
1628.339722 1560.883057 -238.816071
1212.255371 1709.316528 -320.444183
1464.430054 1549.602051 -137.872620
1379.650757 1547.836670 -381.812714
1468.886475 1510.786255 -223.643234
1249.977661 1720.026245 -240.110764
1462.069946 1502.177612 -301.443329
1265.994507 1692.125732 -282.076172
1484.226929 1536.228394 -128.614578
1556.378174 1433.034790 -286.592255
1465.797363 1570.043335 -110.600807
1503.998535 1519.511475 -138.869446
1623.916504 1643.052856 -120.163864
1457.791504 1586.139160 -102.108414
1316.024902 1559.603394 -387.366638
1209.388916 1743.835815 -220.605316
1513.942261 1646.325439 -102.902130
1709.349243 1679.613525 -236.496094
1538.398193 1446.556763 -304.380432
1479.819336 1677.606689 12.283209
1495.544067 1481.126343 -320.866608
1680.716187 1559.447266 -373.935211
1507.476929 1511.656494 -167.003998
1630.366089 1531.760742 -296.026703
1608.693481 1643.249878 -110.879250
1507.961060 1504.801270 -184.396851
1340.641602 1721.655151 -130.045761
1628.673340 1647.528564 -113.154839
1339.412720 1579.877197 -382.202454
1381.589355 1638.260742 -137.470520
1270.612915 1635.056763 -402.036713
1321.112061 1692.288818 -146.160583
1253.362549 1739.745972 -186.557755
1638.698364 1629.453613 -118.776527
1720.204712 1650.092773 -274.677338
1250.908081 1672.609863 -333.491272
1610.553955 1540.341553 -206.432541
1495.393555 1485.800781 -237.088333
1453.897461 1518.620605 -306.503357
1221.321289 1707.651733 -344.606781
1656.897827 1573.842163 -284.013153
1333.464478 1633.451538 -276.981140
1397.221680 1559.994263 -348.093475
1481.316040 1585.899902 -104.901535
1538.003906 1578.707031 -83.848854
1552.240723 1639.768066 -116.942268
1511.718628 1546.248535 -107.476974
1613.464111 1561.564331 -200.967255
1264.769287 1691.459717 -272.777374
1267.869873 1671.336548 -359.104675
1439.409302 1570.969482 -177.858887
1530.613403 1493.885010 -146.950165
1654.280518 1569.240234 -259.830994
1426.676025 1603.845825 -120.032906
1428.010742 1524.461182 -342.146271
1572.904053 1532.449097 -105.868652
1622.945923 1679.060303 -95.721458
1378.916870 1581.886230 -308.891113
1519.786865 1607.693115 -104.765121
1536.613647 1539.313599 -79.546227
1270.170288 1608.901733 -404.200043
1307.722412 1637.611938 -353.458832
1479.296997 1510.883545 -195.430771
1364.823730 1610.067017 -336.516144
1577.619019 1511.757324 -202.206619
1258.417358 1711.088501 -267.866455
1230.401855 1717.754272 -248.218109
1475.746704 1500.595703 -241.230667
1357.974487 1598.284302 -298.493835
1434.558105 1574.983154 -192.441269
1287.141479 1654.861694 -318.351501
1619.616211 1457.997314 -334.404572
1605.340820 1469.642944 -336.164734
1386.602661 1549.206543 -347.469971
1544.218506 1475.289429 -216.957428
1440.814941 1525.354004 -308.059662
1526.332886 1477.367432 -170.299225
1345.206665 1684.420776 -118.094360
1314.878906 1653.768799 -280.927856
1511.386108 1466.171387 -257.720428
1549.135742 1442.860718 -283.054840
1357.937866 1606.038818 -302.041656
1363.401489 1611.183350 -318.733978
1635.791504 1602.533081 -116.381187
1602.490234 1486.435425 -289.804565
1477.403931 1635.387817 -74.726280
1296.466675 1664.832153 -293.162750
1439.772827 1513.185547 -354.280914
1336.958008 1599.180054 -351.405182
1555.052856 1463.186768 -244.487259
1552.441284 1523.257202 -86.628036
1673.622192 1654.676514 -177.977127
1459.315308 1679.132568 -107.526764
1503.710205 1493.561401 -171.845047
1500.812012 1609.196533 -105.302261
1599.765015 1654.413696 -105.494957
1395.283936 1560.096191 -354.245483
1538.256348 1616.140991 -112.041298
1487.251099 1496.173950 -240.586761
1333.027588 1655.406006 -196.016968
1218.254028 1716.962524 -248.470886
1328.629639 1630.551636 -298.176422
1320.669800 1644.468994 -295.098785
1375.660889 1637.171753 -169.417206
1638.374023 1596.805420 -115.872200
1431.696411 1602.148682 -142.001877
1543.578003 1449.360840 -329.444885
1584.239990 1521.371216 -207.258224
1546.957886 1444.706299 -271.721497
1276.164185 1726.326294 -173.356201
1369.833862 1713.243408 -115.609207
1549.873413 1491.527222 -168.066254
1634.887939 1535.534546 -294.968628
1506.322021 1476.481812 -213.927109
1426.848267 1539.383301 -323.723450
1378.207153 1764.255981 -131.776550
1520.592896 1460.709839 -250.267044
1683.347290 1668.462280 -177.803619
1514.388550 1477.977051 -199.950821
1546.851318 1447.072876 -261.412659
1551.616699 1618.799683 -111.995705
1437.781494 1589.825806 -136.123520
1445.261963 1506.083862 -347.190857
1581.005371 1456.672119 -290.073242
1631.339722 1528.751343 -342.491119
1581.559692 1553.781494 -126.507874
1494.184814 1641.214111 -40.709633
1573.006592 1696.060547 -43.082466
1498.587402 1517.903198 -138.143112
1708.622192 1653.869141 -329.500183
1433.338989 1595.425171 -181.839981
1723.524780 1640.266113 -329.866486
1427.204346 1527.548462 -327.605499
1274.076416 1745.300171 -141.542389
1572.315674 1450.668213 -309.292267
1426.524780 1521.718018 -347.706848
1642.484497 1530.354492 -321.565735
1305.872192 1636.209839 -339.283508
1426.849731 1574.658325 -229.997482
1303.508911 1674.264160 -177.746399
1386.136963 1529.021118 -378.484253
1706.885986 1653.518677 -135.974731
1659.786987 1540.406250 -352.319641
1352.726074 1613.112671 -300.151855
1252.371704 1782.695679 -123.508980
1492.441162 1626.517212 -66.050339
1348.079102 1618.346313 -304.474518
1584.406860 1694.378418 -45.902958
1210.382935 1760.483398 -193.385559
1512.816528 1434.904907 -323.282623
1277.073486 1792.331787 -140.092438
1664.037231 1619.797241 -123.951401
1584.896973 1670.593994 -70.415070
1490.124390 1639.421997 -34.601665
1439.608398 1581.098633 -118.288544
1285.739746 1620.828003 -415.390259
1540.332397 1478.149902 -163.919312
1331.699585 1690.366943 -127.196777
1403.512695 1618.939209 -165.959610
1314.208496 1666.228760 -162.157516
1499.803955 1655.808472 -42.238224
1491.424072 1657.905396 -48.449398
1448.284790 1512.703369 -340.091461
1483.334229 1535.409058 -146.315063
1525.264648 1598.330688 -107.254494
1401.068970 1605.198730 -211.930496
1590.275269 1547.067017 -173.684586
1552.516846 1689.200806 -134.812042
1486.830811 1508.825928 -223.356613
1608.823975 1530.005127 -247.261642
1299.861938 1701.142700 -165.785721
1505.232422 1676.258545 -34.112858
1709.032349 1638.070801 -338.615295
1446.861572 1684.798950 -7.086623
1649.027954 1606.297729 -240.730576
1571.573730 1505.813232 -184.216858
1515.032715 1491.205566 -166.275146
1738.123657 1643.316528 -373.419830
1537.338745 1461.787354 -280.551514
1401.006104 1551.194214 -356.959869
1251.676880 1740.449219 -426.621246
1320.516235 1686.057495 -143.685333
1663.488647 1645.294434 -172.756180
1409.867798 1555.852783 -319.764130
1261.651978 1710.069458 -224.399231
1615.325195 1649.734131 -85.891991
1558.035156 1487.047974 -200.979935
1427.118408 1596.631592 -122.523766
1539.381592 1520.134155 -87.424866
1535.261841 1598.127930 -97.852142
1650.566650 1549.078247 -287.262207
1355.169067 1648.935181 -178.795258
1445.804443 1563.384766 -274.667969
1591.213989 1612.740356 -108.839607
1443.296509 1512.227173 -321.187164
1588.243164 1504.367554 -201.209229
1252.220947 1717.464233 -195.168655
1312.360474 1617.245972 -381.260040
1361.957886 1646.234253 -157.585327
1457.057617 1540.137207 -171.934967
1660.431152 1594.726196 -256.962708
1415.968628 1700.529419 -125.511391
1700.610596 1545.994019 -370.548828
1611.562134 1597.122925 -82.329483
1586.780518 1692.148193 -28.190033
1488.377563 1561.839966 -111.069168
1315.226929 1676.269287 -200.946228
1272.427979 1634.206543 -396.355103
1273.191284 1719.682495 -167.024948
1576.407837 1430.657593 -327.131866
1253.527466 1701.664307 -263.744598
1365.028564 1563.733032 -385.467743
1502.449463 1479.424438 -245.435822
1497.536377 1619.081299 -78.139183
1692.552490 1598.924561 -322.120819
1631.754150 1613.255371 -170.487900
1221.573975 1687.674438 -368.233521
1484.239990 1687.360718 8.012922
1223.403320 1787.530029 -191.401245
1651.528809 1549.836304 -335.023804
1462.020874 1534.936401 -149.667191
1451.191284 1572.995850 -158.216293
1222.310303 1737.753296 -269.920105
1338.714111 1620.841309 -321.521545
1581.510620 1604.757202 -104.982903
1387.797363 1710.557129 -111.513420
1706.546143 1658.607056 -259.149048
1406.062256 1618.599121 -125.073441
1438.642944 1585.269165 -119.676468
1238.149170 1757.414185 -188.071503
1627.162354 1529.255493 -286.993591
1557.582642 1524.412964 -124.052414
1476.911987 1603.253662 -103.171730
1581.179443 1455.190552 -325.941925
1637.241333 1769.340332 -168.933319
1511.807983 1653.911865 -80.722351
1410.401001 1576.522339 -269.193604
1693.524536 1642.517578 -251.323624
1588.981201 1541.834961 -170.104431
1430.089722 1541.431641 -290.129150
1376.850098 1636.076782 -142.007675
1474.704102 1632.337769 -112.424500
1446.919800 1503.652954 -359.965302
1585.371704 1509.560303 -230.525177
1588.400024 1553.064575 -133.489960
1698.616211 1632.410889 -281.780731
1346.545288 1595.828735 -340.884338
1439.205933 1575.599609 -203.799713
1493.242676 1627.768921 -80.205597
1288.873047 1629.704712 -404.617584
1525.185425 1530.675049 -84.768539
1420.206421 1515.560547 -360.840790
1527.640991 1503.003906 -123.120224
1465.836182 1516.120117 -215.025848
1258.223999 1764.046997 -141.406631
1261.547607 1749.735962 -151.138077
1441.268311 1536.957153 -327.490662
1722.099121 1662.952759 -301.676270
1266.517090 1630.893799 -419.255310
1290.237915 1710.642090 -219.431488
1279.802246 1735.395264 -166.972382
1561.235718 1699.772705 -65.591454
1454.005737 1510.897705 -243.415237
1528.580078 1465.854858 -201.016754
1639.153320 1518.198853 -320.525421
1257.793701 1740.749268 -149.354721
1357.160156 1585.724854 -396.126343
1662.453735 1624.983765 -119.108894
1516.245728 1509.417603 -160.747986
1480.866089 1657.691284 -18.899309
1448.975220 1562.151123 -203.768555
1713.254395 1616.316528 -347.522003
1574.593872 1489.982788 -238.225937
1303.604736 1672.799805 -209.894745
1328.063354 1679.735352 -124.060905
1273.183594 1667.041382 -376.537567
1483.585083 1496.955933 -249.086319
1606.064209 1676.310791 -80.778297
1667.970581 1587.416260 -285.645996
1647.677612 1589.319824 -206.301590
1704.141602 1603.504395 -319.202759
1683.406860 1657.744507 -117.736465
1679.130493 1615.449707 -270.374481
1535.308350 1489.882568 -160.089722
1262.957031 1768.217407 -145.766129
1502.334106 1473.041992 -277.897614
1228.313477 1639.499878 -435.976593
1637.607544 1521.210938 -334.866455
1439.981323 1515.328613 -359.182190
1518.769165 1480.700684 -178.319107
1623.468994 1690.127808 -73.041000
1488.725952 1654.225464 -33.744457
1567.299805 1454.419312 -302.274841
1509.552856 1526.624023 -102.736069
1257.947021 1703.000488 -358.140320
1418.385620 1523.282959 -350.205536
1460.244751 1567.494507 -146.266251
1593.045410 1595.566528 -89.535973
1268.949829 1700.390137 -217.840164
1532.246948 1461.222290 -209.870300
1439.311646 1583.448364 -123.096405
1627.169556 1606.619995 -107.586754
1553.553711 1625.785034 -91.679970
1571.466797 1684.389282 -95.174881
1389.084595 1557.893677 -333.332153
1280.133057 1689.871826 -367.203674
1694.192871 1579.292603 -378.419250
1519.793457 1674.109375 -76.275375
1503.186523 1463.973022 -252.621185
1459.240845 1510.833984 -239.082657
1253.466187 1835.165283 -256.776520
1538.691650 1455.530518 -304.679382
1343.129395 1589.152100 -367.779205
1633.581909 1609.212280 -159.393204
1375.767944 1708.416504 -124.852226
1691.352905 1591.916626 -333.969574
1492.845703 1678.198975 14.618480
1469.778076 1519.908936 -226.753998
1321.685791 1662.363525 -198.146133
1354.978271 1674.676392 -116.101402
1286.994385 1696.245117 -223.710587
1250.600098 1799.254028 -171.799744
1331.971680 1588.108887 -376.296783
1722.240845 1644.966553 -322.980865
1220.184448 1734.826050 -256.367004
1464.572510 1518.665649 -203.489868
1530.774292 1465.815186 -207.842682
1379.512451 1693.787720 -129.697388
1506.337524 1520.018066 -164.996506
1408.287354 1578.669189 -288.337372
1242.637573 1732.254395 -269.693939
1507.997437 1480.026855 -232.996475
1227.068604 1724.140137 -242.516434
1288.754761 1637.149048 -339.209229
1541.176025 1542.585815 -92.936623
1690.031128 1553.908813 -364.847168
1290.937622 1693.831665 -174.551666
1632.862061 1611.233887 -112.512001
1531.439331 1513.826050 -100.232140
1286.613892 1750.679321 -147.468964
1325.805176 1538.218750 -367.159912
1550.348633 1436.430420 -277.051147
1397.286133 1577.561401 -275.237549
1309.720337 1652.856201 -290.727173
1393.467285 1632.099487 -146.466782
1478.036133 1484.920776 -281.724487
1315.888916 1712.522461 -134.900024
1501.286377 1502.242920 -166.384430
1409.460327 1516.469360 -371.780121
1587.544922 1489.525879 -271.588165
1255.075928 1706.456909 -230.967163
1249.539673 1704.391968 -282.180786
1414.802734 1531.239624 -331.830688
1263.316895 1709.092529 -219.562805
1404.919067 1597.771973 -206.311935
1653.941406 1591.752197 -249.496246
1442.864014 1557.514893 -257.827240
1566.305176 1518.273438 -149.002213
1536.356079 1500.322876 -132.040634
1649.351196 1646.889893 -115.254860
1564.294556 1431.660767 -275.506653
1496.946045 1649.880249 -86.512833
1535.557129 1532.260376 -79.588394
1505.598511 1639.716675 -109.433098
1569.735474 1635.329956 -111.887726
1662.920410 1624.975586 -117.381996
1462.378784 1662.255493 -52.631577
1344.489014 1592.890747 -366.730988
1552.076782 1464.881592 -191.067719
1539.732056 1526.124146 -101.247360
1505.624268 1484.360352 -231.043106
1435.529297 1703.171875 -117.976768
1554.364746 1631.227783 -110.880577
1240.729492 1708.011475 -380.486176
1339.547119 1622.896729 -310.488586
1633.625366 1696.024780 -71.416359
1338.745605 1676.291504 -124.999382
1543.495361 1608.475586 -88.531425
1473.244385 1648.419434 -95.508255
1501.074707 1490.152710 -276.167145
1703.821289 1703.264038 -147.668655
1298.929443 1605.725952 -364.987610
1641.821899 1507.831177 -338.236328
1383.939819 1665.131226 -135.800110
1473.356934 1487.036621 -328.763977
1624.903076 1605.810791 -165.634689
1489.827393 1626.386475 -84.797424
1421.455322 1595.286377 -157.641998
1700.427246 1665.972412 -231.399033
1232.748291 1667.242188 -425.644989
1281.460205 1699.313354 -229.013275
1588.894897 1656.301880 -59.072979
1239.264038 1709.562378 -256.161926
1327.785156 1731.854004 -139.110870
1450.967285 1557.973999 -166.072495
1363.743164 1645.790161 -122.996231
1583.017090 1462.540771 -290.621277
1494.879761 1653.528076 -15.335107
1486.495605 1501.005981 -209.148270
1271.186768 1742.242310 -151.488144
1266.024414 1629.092285 -422.525879
1281.584717 1628.043091 -419.426636
1568.353516 1545.621704 -92.331055
1468.567993 1497.097412 -299.310242
1642.840820 1551.424316 -285.152039
1491.046753 1637.440308 -54.145367
1513.685059 1651.055176 -113.979362
1520.622070 1524.486694 -98.046280
1496.085327 1476.741821 -273.269012
1634.923462 1504.912354 -345.578857
1667.371216 1526.594727 -362.576660
1510.027466 1483.824219 -198.654175
1299.695801 1714.366211 -148.753021
1323.992432 1747.050049 -134.065155
1272.424316 1725.523804 -173.772842
1543.027710 1502.854858 -139.612839
1517.887817 1442.495239 -331.236206
1482.936890 1515.639160 -175.532959
1637.042114 1526.477905 -324.810455
1563.895020 1496.448853 -198.893539
1599.363037 1558.242188 -111.616722
1322.709595 1639.563965 -320.136047
1495.261841 1522.100464 -141.074066
1487.901123 1512.954712 -178.744766
1217.077515 1688.067017 -361.527130
1647.055298 1544.704346 -319.483185
1385.838867 1595.295898 -257.918732
1673.031616 1637.073120 -134.096939
1551.154907 1525.084595 -117.840446
1383.945068 1610.256226 -244.860748
1536.613403 1468.849609 -202.621567
1576.182495 1514.801392 -200.174255
1483.211060 1528.508667 -153.338608
1459.304443 1507.896851 -261.462280
1485.149170 1550.529175 -132.868195
1495.371094 1647.734619 -78.406151
1490.452881 1482.157227 -245.691910
1366.383545 1619.525146 -235.286224
1473.157227 1662.713501 -2.094248
1540.271973 1688.323853 -24.370264
1477.722900 1654.218384 -31.923733
1611.643433 1679.856201 -82.595909
1457.138672 1706.296387 -117.350677
1591.510620 1556.844971 -121.567390
1209.133545 1774.934692 -191.638885
1467.253296 1547.324951 -143.319580
1644.377441 1601.973633 -237.017334
1627.480591 1585.966675 -191.757034
1531.229614 1517.833984 -103.758736
1727.793091 1660.856201 -306.714691
1313.462036 1692.859375 -165.668671
1611.203491 1572.018799 -186.903214
1518.842651 1460.826172 -259.645081
1475.698120 1684.076294 9.094830
1444.417603 1540.889771 -308.578186
1253.745239 1744.088989 -168.948975
1500.602905 1550.275635 -94.697037
1417.321045 1634.296387 -130.593109
1246.809937 1715.804932 -199.140625
1517.093994 1687.233521 -32.023621
1619.929810 1690.771362 -66.212936
1559.591187 1680.495361 -67.563873
1375.337891 1739.676880 -121.916115
1271.674927 1679.908936 -303.412445
1347.462524 1656.906006 -239.805161
1196.499146 1755.887817 -242.980927
1406.249512 1580.118286 -297.391266
1452.933350 1549.091919 -179.046173
1643.502563 1606.416626 -189.804184
1210.636108 1746.218506 -217.268219
1254.694702 1842.421875 -254.528763
1653.492310 1550.763916 -312.168274
1503.064331 1550.036377 -106.461655
1458.797729 1635.015991 -117.871979
1502.168091 1536.381836 -98.448151
1642.156982 1495.338501 -351.722931
1504.477905 1531.516968 -130.497055
1600.342407 1561.842529 -80.071716
1244.104980 1716.666748 -217.497803
1572.229126 1589.662476 -87.086128
1550.311768 1513.561157 -153.418701
1642.221924 1683.358032 -118.445457
1546.108398 1480.041504 -189.942047
1249.415527 1714.964844 -243.346741
1279.592529 1684.179321 -371.399292
1718.257935 1680.585815 -151.473969
1244.729858 1787.308716 -156.620834
1483.301392 1569.480225 -108.913040
1241.747314 1752.729492 -193.129364
1641.203613 1483.583008 -346.674774
1481.474854 1468.569580 -345.762787
1484.397949 1523.667114 -156.387299
1505.583496 1530.631714 -103.306305
1501.328003 1687.733643 3.111319
1551.240112 1652.554443 -102.745445
1386.231934 1614.864136 -211.274475
1396.102905 1607.388306 -210.756393
1587.886353 1641.373413 -99.602219
1634.971313 1660.272095 -116.577850
1324.552979 1614.774536 -343.787384
1356.472290 1724.351318 -120.847916
1371.248047 1557.377197 -369.835510
1691.667236 1670.531128 -125.143990
1458.164185 1534.442017 -309.761200
1387.493286 1548.769165 -373.660858
1545.786499 1523.035889 -122.751480
1467.309082 1521.782837 -187.018875
1209.927612 1745.376221 -236.911560
1658.303589 1510.238647 -354.500946
1505.646851 1612.364380 -94.906433
1505.533691 1503.104248 -169.503357
1613.039917 1558.830566 -194.800140
1607.198242 1546.098389 -201.233978
1269.100220 1722.505371 -218.269882
1544.126831 1517.131714 -96.956589
1468.371582 1634.009033 -94.714165
1425.502686 1633.455688 -107.005486
1484.669922 1632.253052 -100.512321
1712.138428 1634.927979 -355.068146
1616.269165 1547.616943 -228.124634
1384.840088 1754.191528 -143.806244
1539.185059 1435.190063 -301.368988
1375.918823 1648.909912 -208.145981
1300.642578 1653.680054 -316.489136
1476.246460 1646.294556 -48.302780
1321.776978 1739.810669 -145.354034
1455.572876 1592.481689 -113.180092
1637.740601 1638.929199 -102.057068
1556.801392 1556.699341 -89.583115
1456.801636 1549.112549 -160.997406
1444.734741 1573.568481 -163.512619
1268.182251 1753.740234 -147.448837
1320.814331 1642.560425 -299.057861
1667.695068 1550.236206 -318.733459
1622.052490 1575.459351 -101.067856
1258.104614 1742.860596 -158.977997
1532.064575 1458.012939 -220.142792
1231.793579 1661.032593 -395.383698
1217.326294 1774.647827 -203.076843
1457.289429 1554.210938 -145.629868
1393.186768 1635.189697 -122.668762
1481.760620 1505.457886 -216.296936
1470.339233 1543.104858 -168.797913
1292.876343 1692.563599 -178.470459
1603.678467 1533.677246 -229.714127
1624.820923 1537.415649 -268.239868
1657.254517 1548.819214 -325.910889
1481.455078 1494.273926 -251.713882
1292.046753 1621.608032 -427.039154
1684.798462 1550.635010 -361.277893
1560.354492 1486.004761 -180.502472
1547.034302 1558.691406 -85.971550
1648.876343 1737.612427 -140.422302
1453.451904 1502.047974 -330.760132
1252.499634 1706.226318 -201.945816
1477.366089 1648.489136 -40.473751
1342.398682 1661.032471 -124.246765
1414.094727 1529.444580 -361.124969
1286.264893 1621.478882 -424.536255
1629.361450 1666.360840 -113.026512
1449.165771 1525.523193 -315.094482
1271.675781 1758.644775 -144.656555
1643.246582 1590.411133 -112.892570
1492.224365 1644.067383 -40.013714
1458.234131 1507.852905 -304.652466
1377.813721 1590.795288 -315.625244
1258.507324 1718.195190 -218.605713
1527.592773 1471.475342 -193.939224
1336.709961 1592.694824 -370.829956
1573.939697 1645.539795 -93.300362
1579.026001 1429.730713 -322.162933
1490.471924 1669.328491 -19.069118
1451.137817 1531.738037 -308.581757
1360.205444 1634.277344 -208.368729
1559.287354 1633.150879 -111.973297
1409.482666 1565.489014 -307.166809
1569.634033 1690.371094 -18.802784
1461.628418 1665.303223 -116.683258
1720.045410 1617.537109 -374.762695
1576.057129 1515.400635 -146.480972
1535.367310 1454.382202 -279.757233
1522.176758 1472.751953 -291.216736
1307.980225 1707.057251 -163.122101
1552.221680 1550.650879 -85.755249
1351.304810 1687.324463 -123.861511
1333.002197 1654.287720 -211.954590
1491.613892 1473.431519 -292.718628
1447.717407 1559.593262 -168.146317
1700.592529 1590.696533 -375.945587
1483.210205 1676.577759 -7.686427
1357.669312 1656.840332 -181.151749
1445.527222 1550.455688 -318.602356
1326.982178 1608.171021 -349.513092
1578.636108 1581.865112 -79.280777
1306.927612 1625.258423 -331.154846
1403.814941 1675.507202 -110.735168
1541.422852 1527.274902 -83.256744
1516.338867 1507.260254 -129.716248
1717.247681 1659.068604 -289.749176
1588.422729 1487.809204 -256.062561
1564.715820 1465.978271 -227.562027
1435.380737 1535.601318 -308.505737
1240.060547 1739.436157 -211.140411
1361.734497 1600.302246 -316.153839
1292.841553 1716.749023 -144.185883
1665.497559 1616.810303 -250.735397
1474.537231 1540.068848 -150.302002
1521.395142 1452.609985 -271.314148
1715.204224 1643.879517 -308.004639
1320.653564 1661.054565 -219.920609
1602.640747 1664.070557 -118.152840
1306.993164 1663.308960 -271.214447
1336.329346 1687.665405 -131.859344
1690.260132 1619.932373 -310.255371
1355.225830 1736.188843 -140.463531
1508.526855 1508.123413 -143.003143
1577.063843 1483.207275 -235.073334
1519.194946 1498.055542 -138.897659
1575.763428 1602.606445 -88.834320
1420.439697 1625.625732 -129.192307
1711.966675 1630.144897 -326.461792
1741.250000 1644.002197 -394.031372
1508.108887 1645.097656 -75.481155
1602.824951 1576.853394 -144.756256
1295.703125 1657.244751 -296.466125
1338.378784 1608.935303 -325.310394
1395.254883 1676.442993 -104.340881
1555.061157 1474.922607 -189.316544
1322.092773 1660.062134 -230.566910
1458.315918 1541.892822 -163.885635
1645.125977 1711.750610 -103.243912
1446.244141 1543.039917 -223.802002
1422.910156 1560.996704 -302.113464
1517.063110 1670.840698 -93.843399
1523.031860 1450.031006 -296.255493
1505.036133 1491.898804 -250.929993
1233.012695 1723.083374 -249.984207
1300.062622 1794.348877 -140.246902
1441.450317 1558.590576 -196.657806
1626.410034 1572.913940 -223.160889
1506.972046 1653.035278 -118.240616
1503.611450 1530.988525 -106.647369
1460.196777 1637.487427 -94.739563
1471.382690 1495.753296 -337.548187
1546.226929 1428.077026 -310.633820
1480.609131 1514.258057 -183.594971
1541.894165 1474.201782 -179.396027
1510.057373 1695.709961 -4.616897
1596.746826 1648.260498 -111.986122
1655.316772 1563.310303 -306.750122
1240.985596 1656.182861 -417.143005
1401.440308 1675.562012 -104.917427
1602.331909 1482.408691 -302.344849
1292.776489 1770.483154 -142.674820
1425.010986 1558.380371 -278.992126
1615.010010 1508.103271 -288.150879
1450.099487 1492.151611 -359.599609
1625.076294 1506.117554 -334.616943
1634.432495 1628.046753 -103.281670
1391.178955 1625.128784 -136.273178
1658.977661 1661.595459 -119.509743
1280.255859 1648.693970 -397.070953
1363.787720 1792.214111 -153.400223
1554.914795 1517.952881 -136.250076
1632.986572 1624.270874 -104.938911
1708.579590 1618.536133 -372.440216
1380.375366 1657.729736 -137.682404
1373.124634 1625.834961 -201.524231
1490.082153 1679.772827 -17.481529
1672.320435 1627.492065 -231.333755
1523.284058 1489.978394 -187.718475
1599.101074 1658.910645 -56.568607
1349.485718 1658.347046 -136.297943
1623.472778 1578.500366 -105.596970
1542.254517 1592.633545 -89.868263
1542.764893 1642.105835 -119.926247
1364.361816 1578.607788 -370.478699
1514.398071 1556.032104 -98.396599
1599.791382 1575.115234 -150.672546
1447.917358 1563.778809 -308.044678
1375.894653 1649.270142 -126.375168
1617.529907 1538.889526 -280.627533
1557.318481 1503.277588 -136.842148
1503.032227 1590.273682 -244.149033
1538.944702 1463.323364 -210.910233
1375.471191 1634.692139 -187.319138
1400.814087 1622.163940 -178.717178
1403.398193 1628.497559 -119.682526
1420.338257 1690.535156 -128.809814
1229.083740 1727.620117 -240.021591
1644.865967 1555.962158 -283.022919
1555.879517 1402.091919 -300.535248
1686.781250 1589.270752 -302.363739
1325.178955 1710.842407 -128.527100
1495.841309 1496.831299 -185.058304
1289.334839 1648.133423 -344.779388
1307.706055 1602.769409 -372.844727
1253.849487 1780.904907 -154.010239
1591.345215 1480.783691 -278.629669
1719.138306 1659.742798 -299.877594
1235.331177 1728.779907 -198.133911
1490.965210 1618.035645 -108.273582
1325.614868 1649.558105 -265.755615
1604.436279 1626.281494 -107.012627
1546.140869 1458.184326 -211.200470
1457.823486 1528.633179 -208.497757
1310.484863 1679.432007 -233.531433
1256.945313 1756.887085 -161.940262
1358.201172 1614.408325 -265.689789
1423.341431 1611.630737 -140.239883
1356.740845 1642.339600 -175.576187
1212.616333 1635.204224 -430.836700
1256.887207 1687.687134 -314.989960
1473.502563 1490.438477 -306.599609
1510.053833 1463.892578 -282.860840
1468.257568 1683.915161 -8.189762
1430.939941 1557.751343 -299.291779
1449.214111 1578.304443 -129.150742
1436.854126 1498.235840 -361.285492
1328.073242 1671.741699 -135.770004
1241.492065 1760.307007 -151.844421
1518.600342 1533.482056 -95.622787
1500.929688 1657.650269 -58.519936
1239.879395 1753.767334 -172.573883
1327.420044 1596.824097 -410.704803
1302.660034 1656.740723 -304.431000
1497.432129 1510.706909 -165.468933
1338.926880 1655.897949 -157.389130
1471.244751 1646.345215 -75.230110
1516.234497 1680.854492 -46.348488
1253.926392 1704.634155 -233.536682
1345.698853 1573.829834 -388.645782
1743.491577 1585.135742 -380.502686
1496.839478 1648.544800 -90.290436
1470.688599 1563.207764 -109.515724
1472.129639 1541.941772 -152.348373
1646.957886 1680.595459 -128.377609
1716.562012 1632.711426 -334.573120
1276.699341 1612.807983 -404.909943
1455.129883 1531.935913 -215.312637
1430.673584 1685.104492 -115.779366
1584.868408 1551.885498 -108.336700
1252.344604 1718.680176 -189.331177
1286.110596 1686.177124 -230.335373
1274.367554 1674.967163 -281.383453
1390.416016 1548.445557 -333.042908
1235.081421 1772.121460 -334.460968
1255.832886 1638.576294 -426.611664
1387.048950 1622.168091 -217.983322
1252.833984 1765.914551 -152.826706
1236.459351 1680.335449 -332.541931
1559.791260 1527.674438 -157.187500
1588.277344 1492.359985 -223.277924
1272.449951 1845.349365 -170.626678
1700.423706 1643.423706 -280.592133
1317.028931 1648.086670 -291.486511
1558.594849 1545.223267 -89.848213
1615.474365 1539.849121 -234.718140
1496.344116 1640.714844 -42.795177
1386.967407 1748.047974 -145.486893
1545.051514 1460.822998 -222.446442
1455.389404 1499.042358 -312.261963
1696.718018 1593.491821 -360.181335
1350.850342 1579.569946 -356.622223
1343.136108 1675.867310 -141.628220
1497.399902 1481.672729 -241.092651
1733.794922 1649.155029 -363.472107
1579.281860 1522.206299 -223.454468
1278.178345 1708.857056 -177.140213
1650.102173 1529.249878 -315.308258
1547.160400 1582.832031 -101.939415
1326.201172 1629.143555 -309.030975
1212.256470 1708.645508 -332.495148
1550.453857 1534.525879 -102.786903
1588.517822 1691.647827 -42.865593
1453.574463 1575.131958 -178.329468
1264.651367 1699.729004 -331.385101
1720.339600 1615.325073 -380.466858
1638.649414 1678.571533 -120.540749
1455.231445 1671.255981 -31.499327
1426.950317 1660.296021 -125.425072
1258.091064 1656.786743 -352.337006
1483.212036 1528.684326 -135.328354
1308.413208 1659.971313 -344.177979
1346.313599 1655.553345 -180.436584
1722.330688 1611.803223 -396.370605
1480.245972 1516.545410 -202.743896
1307.445801 1572.590576 -400.576324
1640.985352 1607.574219 -218.609634
1218.034546 1670.119385 -418.800995
1401.249023 1583.281250 -298.620178
1435.642456 1593.853516 -114.738075
1493.263794 1479.477905 -319.360718
1615.315430 1697.191895 -43.086002
1439.393799 1640.312378 -109.852646
1311.913452 1649.735474 -301.669006
1247.020630 1735.375977 -178.455750
1604.296265 1652.622314 -71.395050
1421.526245 1520.148926 -368.092499
1448.952881 1574.667725 -143.031937
1282.883545 1712.074829 -180.460815
1282.555420 1712.498901 -188.400131
1315.475708 1706.721680 -139.981888
1671.338379 1632.142700 -250.980820
1569.540649 1542.949585 -124.389977
1366.368774 1588.812256 -316.355957
1482.371216 1488.297241 -274.299652
1593.894409 1562.162720 -124.493935
1508.588989 1513.242310 -165.037338
1324.152466 1690.453369 -134.758575
1495.460083 1566.314331 -102.538628
1259.212769 1862.666626 -209.593536
1393.430054 1523.912598 -367.877350
1262.788208 1712.391968 -271.011261
1507.221680 1473.594360 -236.854660
1409.364502 1723.714111 -102.598457
1437.750488 1602.149536 -112.694893
1477.689453 1483.330811 -291.872284
1587.193481 1540.763672 -206.360001
1305.547485 1674.770386 -215.816788
1486.541992 1517.669312 -155.258072
1440.078491 1635.218262 -105.445740
1266.793213 1726.487061 -178.014313
1546.401978 1466.816284 -205.159897
1440.186279 1535.104370 -201.365524
1702.814941 1614.663574 -321.171143
1399.289795 1619.636597 -142.675430
1354.817505 1639.567627 -212.765579
1496.585938 1612.146240 -102.802155
1538.227051 1588.505249 -94.694839
1471.508911 1516.398071 -234.314377
1395.933228 1612.925659 -216.488159
1593.061279 1668.204468 -84.047234
1500.038574 1476.678101 -245.061249
1514.629150 1486.708618 -171.976883
1656.755493 1638.789185 -111.165276
1369.790771 1712.285889 -129.493164
1479.075684 1536.849976 -164.300278
1681.091919 1613.990723 -244.166595
1255.413208 1841.667236 -192.219208
1265.474854 1726.219604 -176.993164
1390.823975 1633.570435 -139.204971
1488.395630 1609.532593 -107.270836
1660.616821 1624.954468 -134.155991
1534.071411 1454.010132 -315.963409
1573.155518 1425.337158 -324.623505
1630.219971 1560.875122 -215.433823
1469.329468 1625.314331 -101.769112
1335.553223 1669.845825 -128.720108
1389.274658 1643.491211 -123.114883
1558.605103 1473.534058 -227.131531
1638.772339 1598.839478 -187.336304
1610.991577 1568.476807 -117.927002
1373.945313 1531.981323 -380.110718
1386.863770 1652.071777 -116.260895
1426.685303 1546.946411 -304.031555
1591.512451 1666.183472 -85.940399
1388.160889 1625.996094 -186.772766
1509.300293 1465.877808 -257.211456
1624.239746 1543.810425 -251.426361
1252.531128 1647.354126 -402.072540
1444.287720 1508.550171 -352.720520
1549.022827 1536.229980 -116.819450
1668.493896 1513.481567 -358.489594
1620.060669 1682.813965 -75.992546
1718.045776 1657.700928 -294.134796
1511.657593 1465.890747 -317.388885
1588.104980 1621.098999 -106.694244
1478.000244 1488.993286 -260.171173
1634.474365 1508.909546 -331.544067
1323.521118 1693.109131 -151.455643
1484.879272 1544.177979 -131.358566
1465.960083 1592.125000 -234.923004
1643.605591 1669.401367 -131.175583
1592.881714 1663.379639 -93.734955
1536.336792 1458.943237 -225.031998
1429.939209 1522.162842 -363.414520
1458.476563 1523.130005 -260.080933
1640.471680 1504.298096 -348.011810
1610.804443 1520.284058 -256.535309
1311.566406 1685.229248 -161.829285
1623.699829 1577.255127 -188.438126
1449.294922 1541.824585 -197.814743
1542.158447 1416.093262 -309.216309
1465.697266 1668.515137 -27.579578
1647.802734 1613.275879 -188.568420
1481.195679 1658.707764 -64.284279
1634.582397 1603.297485 -176.273270
1270.502319 1670.983032 -376.309967
1465.100708 1493.930542 -334.478821
1379.488647 1607.844482 -248.439209
1632.802856 1583.425537 -209.700821
1667.823730 1580.991943 -294.380402
1719.773315 1620.544556 -371.927490
1429.007813 1538.281738 -329.304016
1659.181641 1595.459473 -255.781311
1474.682739 1489.448975 -341.677917
1480.980225 1650.205200 -52.824680
1256.583252 1822.353516 -168.440643
1284.083740 1707.643066 -172.197464
1482.154785 1562.594482 -90.619537
1376.815063 1657.530518 -127.495628
1455.482178 1534.180786 -250.738693
1252.684326 1688.592896 -385.367523
1450.815918 1530.460938 -323.479584
1431.276978 1545.350830 -325.027008
1476.822754 1557.844482 -124.168983
1632.048218 1513.052979 -344.494263
1572.701172 1430.947876 -290.991791
1710.540649 1677.355103 -236.654419
1236.984497 1721.401367 -215.182693
1479.039917 1492.366577 -270.953217
1539.415894 1521.255615 -99.693245
1638.702393 1706.028809 -73.419495
1392.559814 1634.446777 -136.229568
1572.603394 1672.777710 -69.388824
1573.373901 1499.708618 -199.520432
1482.483276 1555.433350 -121.924423
1652.735840 1613.422852 -178.293793
1706.751587 1692.510864 -193.917877
1610.165894 1658.478638 -105.135284
1207.044434 1755.661377 -231.844162
1613.206177 1639.838257 -117.047882
1591.507080 1630.854614 -105.553284
1372.761353 1648.717773 -114.935966
1526.574951 1650.133545 -115.123810
1442.215576 1552.130005 -165.382919
1657.688721 1559.293823 -306.927277
1599.363159 1477.824707 -312.272278
1459.113159 1561.565186 -123.112686
1273.812256 1690.989014 -322.745361
1323.923096 1630.782959 -303.316895
1576.726685 1518.776001 -185.371292
1737.108521 1622.201660 -389.507629
1607.037842 1501.126343 -286.120605
1493.946411 1551.898438 -116.019669
1727.466675 1642.812622 -353.184540
1647.754272 1703.493286 -144.011368
1466.118530 1550.499634 -251.241501
1507.805542 1519.886597 -169.963364
1587.125854 1686.769897 -65.031059
1581.767700 1449.380859 -312.187317
1583.844727 1547.449951 -184.710556
1539.588867 1544.897705 -74.899918
1544.392700 1504.612671 -138.543732
1393.833252 1624.663574 -126.941109
1630.029785 1686.070068 -80.000374
1335.136230 1617.161987 -341.992828
1514.937378 1565.491211 -85.793953
1424.142090 1533.956299 -309.019684
1292.992432 1717.912598 -164.256317
1683.675781 1654.849365 -173.838211
1468.771362 1743.415527 -121.501930
1416.512939 1528.778198 -351.725677
1593.735962 1666.375977 -87.664436
1517.194214 1517.057739 -133.017563
1474.724365 1603.181641 -115.294456
1465.056152 1530.681885 -204.955933
1558.588257 1610.671753 -91.872269
1752.473999 1593.124023 -383.992401
1523.062622 1480.824707 -188.597717
1277.517212 1621.693481 -370.912262
1584.059082 1511.798584 -175.085373
1599.052979 1668.432129 -70.328545
1380.557251 1523.367676 -372.623322
1268.788940 1650.058716 -377.145294
1544.199585 1442.318726 -318.705139
1494.889893 1620.058838 -98.226883
1578.831177 1666.889038 -39.022160
1588.648071 1558.004883 -101.594078
1509.579712 1717.316284 -60.459587
1662.952148 1620.561646 -237.096176
1356.332886 1795.617310 -147.997314
1476.338135 1508.178345 -212.343246
1574.722778 1508.499268 -204.436295
1494.029663 1480.046997 -274.238037
1631.099609 1704.951172 -64.077759
1480.196655 1649.314941 -36.028732
1306.624023 1725.537231 -156.838364
1568.765137 1428.290039 -291.353638
1355.271729 1770.286743 -155.055786
1492.491333 1615.825806 -116.506004
1561.502686 1454.603882 -239.342743
1359.880127 1652.870850 -114.822258
1660.003418 1543.992188 -351.601990
1667.758179 1639.871704 -163.792679
1449.173462 1619.943115 -109.937965
1500.346680 1507.846313 -157.851166
1602.801147 1563.352051 -99.962715
1428.442017 1595.201782 -122.602249
1335.790283 1768.564087 -155.876633
1516.566772 1661.743042 -48.352444
1279.167847 1840.095093 -314.305389
1639.385620 1541.404907 -274.136658
1410.009155 1622.757690 -144.395889
1645.720215 1577.648315 -88.482597
1567.216309 1652.876831 -105.989449
1340.536987 1692.803833 -150.102295
1647.033203 1570.005005 -260.677490
1572.498291 1554.534912 -88.053528
1580.790649 1517.262207 -185.760803
1566.058105 1546.341553 -87.374695
1350.342285 1636.061035 -255.203445
1479.592651 1670.654175 -15.947966
1613.411011 1666.270142 -83.789200
1483.755615 1498.868408 -208.289017
1485.666992 1550.393311 -117.959641
1323.911255 1618.781372 -388.868134
1341.641846 1731.253296 -145.000137
1231.046631 1696.737793 -348.467651
1347.663818 1683.488647 -147.239120
1380.421509 1679.570557 -106.519028
1572.418213 1453.697876 -299.788971
1239.662476 1819.985107 -170.253708
1434.321411 1508.965454 -364.955383
1743.398926 1614.086304 -390.542053
1458.020996 1589.080200 -108.297768
1641.372681 1621.136353 -116.475632
1285.267822 1666.266235 -371.919373
1627.056885 1649.027710 -94.696960
1517.985107 1490.524780 -177.655548
1526.823730 1524.388062 -95.852226
1566.092651 1457.232178 -237.898575
1333.540527 1779.087524 -149.106003
1304.253540 1803.600708 -142.892288
1455.402222 1509.553101 -315.136719
1464.649292 1659.391235 -116.507256
1296.308594 1689.300659 -221.181534
1488.334595 1666.687744 -24.814909
1609.044678 1555.912964 -189.259384
1466.076660 1645.453735 -96.548393
1233.055176 1757.973389 -176.394028
1344.550537 1809.909668 -152.606491
1641.283325 1618.197266 -198.925186
1469.975464 1608.142090 -117.153564
1400.746704 1624.643188 -127.824699
1413.325806 1543.968994 -350.660431
1575.753296 1473.569824 -254.775864
1488.069458 1491.232544 -231.576370
1342.130859 1642.708374 -245.486984
1498.443115 1671.601807 -21.627621
1704.317261 1634.096191 -293.287384
1495.328613 1588.283691 -267.396271
1526.638184 1517.434814 -100.554993
1626.758789 1546.630249 -253.098694
1583.082764 1689.130493 -23.505404
1653.030518 1533.491699 -354.862885
1515.916870 1667.202515 -92.090813
1709.672729 1628.248657 -287.906158
1375.934814 1588.749878 -287.308014
1517.111084 1657.675171 -89.788025
1592.754639 1651.827148 -118.701393
1465.595459 1528.860840 -216.753998
1397.709106 1629.748535 -130.566498
1511.546143 1550.884277 -100.890160
1549.436768 1459.900269 -262.549561
1629.215454 1523.075806 -311.533630
1358.125854 1637.732178 -213.275284
1323.564087 1685.447266 -189.183655
1566.518066 1444.200684 -271.366913
1493.458984 1512.433594 -151.406815
1492.838501 1540.470093 -115.927895
1562.483032 1663.724365 -94.229271
1240.647461 1794.569824 -176.011948
1440.001343 1513.255859 -332.324371
1371.313843 1633.919800 -153.943863
1711.104492 1683.556030 -260.790283
1327.113770 1671.163574 -162.584442
1668.578125 1554.717285 -365.667725
1306.640259 1609.776489 -378.610565
1282.780396 1592.213745 -411.131531
1625.188232 1512.339600 -307.513153
1514.373657 1626.357422 -117.012032
1372.151367 1588.252686 -307.061768
1416.992676 1587.976318 -281.805237
1477.370850 1521.316895 -162.447937
1508.420166 1695.748535 -3.024113
1309.987549 1653.435181 -293.838074
1547.239380 1586.867065 -103.092453
1312.846558 1684.051270 -154.088928
1656.563721 1617.076416 -209.001587
1347.631226 1639.791504 -239.872498
1267.905884 1696.030029 -327.297791
1668.942139 1535.471191 -359.006165
1374.160400 1604.527710 -263.599304
1308.398438 1779.525635 -148.306839
1593.737549 1501.916992 -261.680847
1278.141113 1623.440796 -405.543030
1484.999023 1483.172729 -346.968048
1207.620605 1760.563232 -198.109253
1351.805298 1671.742676 -118.158089
1320.163330 1699.079346 -158.798370
1658.837769 1622.673218 -125.805969
1375.838867 1601.038452 -340.387604
1371.984985 1665.896851 -108.901245
1405.973267 1616.659546 -128.146973
1499.657837 1478.750000 -266.340332
1379.455566 1723.046753 -140.855545
1246.053467 1643.011963 -411.881592
1726.548584 1647.344971 -393.657440
1587.221191 1510.383301 -223.668793
1236.956299 1712.518799 -225.203964
1418.072998 1546.671753 -311.605072
1522.255493 1614.366089 -96.811333
1695.862671 1547.222534 -368.131378
1531.633667 1451.101807 -309.869171
1511.154663 1514.711670 -115.470787
1423.067261 1599.599854 -155.025330
1632.934692 1612.925903 -101.602394
1447.808105 1509.207397 -319.222168
1209.132690 1768.498413 -203.676376
1484.496948 1514.528320 -183.366760
1708.614136 1590.241455 -339.654419
1243.237793 1706.844849 -287.092010
1706.784912 1684.860840 -131.624298
1355.405151 1667.298462 -119.264366
1596.907837 1528.400269 -209.228317
1497.628540 1650.734619 -37.777744
1546.643433 1463.472900 -201.215103
1270.203003 1689.902100 -248.257706
1428.910400 1606.049561 -140.471680
1639.233276 1565.166260 -254.544647
1618.223633 1588.051514 -164.460388
1533.917358 1498.163208 -140.631348
1585.975464 1524.313232 -191.466049
1520.323364 1480.091919 -245.116028
1596.026978 1616.462524 -108.203041
1656.341064 1613.903198 -182.457367
1404.421387 1585.463989 -264.721588
1356.613647 1620.088135 -267.700378
1532.734619 1443.502563 -283.673248
1567.295410 1428.265747 -320.295746
1490.493286 1691.375732 -27.556231
1247.888428 1672.469604 -338.191132
1416.967407 1570.441162 -268.346161
1360.262817 1602.113647 -313.482056
1485.294067 1487.302490 -256.846222
1319.995972 1668.202271 -171.580704
1581.004517 1530.390625 -166.151688
1401.785156 1613.568970 -146.451416
1587.359863 1614.634888 -108.126740
1383.084229 1607.531860 -267.794006
1383.390869 1677.325317 -115.424583
1239.015381 1694.700806 -330.894867
1224.910156 1775.218872 -300.038452
1552.150269 1539.553955 -78.644539
1509.871094 1483.154053 -239.882309
1604.731689 1516.573242 -234.834152
1655.389404 1576.658691 -273.908752
1550.163330 1513.620117 -149.362686
1353.986084 1621.686523 -265.882721
1741.801147 1643.227295 -377.980560
1495.707275 1667.288208 -17.948956
1385.135376 1724.024658 -116.624947
1505.434326 1550.317871 -93.095619
1300.336548 1680.432251 -171.928406
1329.181030 1687.942505 -126.371002
1473.088867 1635.160400 -73.718719
1664.604248 1552.663696 -350.559357
1455.623413 1671.917969 -96.617607
1690.213013 1644.922852 -243.796906
1410.312134 1558.550781 -330.068481
1626.692749 1582.281250 -169.443542
1286.646362 1786.108765 -140.001663
1501.583618 1644.525879 -63.456703
1702.460327 1646.691895 -136.215530
1383.697266 1567.518799 -342.788422
1572.098267 1509.890381 -213.434097
1498.998291 1480.318237 -346.843872
1322.153320 1672.572388 -171.240646
1482.910400 1480.390503 -302.426239
1496.262817 1482.477295 -264.870575
1466.675049 1512.210815 -291.271149
1651.442627 1638.608765 -176.891037
1576.600098 1484.722656 -231.342926
1702.224487 1629.958862 -308.117249
1371.122681 1822.142334 -168.265991
1287.687988 1691.447876 -173.246414
1415.638550 1606.546997 -141.669037
1526.212402 1651.290283 -121.990875
1325.629150 1685.746704 -138.055801
1489.352905 1661.930298 -39.063499
1355.325317 1586.305664 -341.203156
1423.504028 1606.277954 -180.269196
1219.186646 1739.016235 -207.278305
1489.426880 1638.318970 -20.723028
1640.786499 1583.504517 -232.392807
1313.296753 1679.763428 -173.510788
1240.248535 1713.676025 -240.132614
1579.294067 1505.191895 -221.768845
1495.293579 1495.580078 -215.159622
1274.508667 1707.239502 -177.013870
1471.977173 1632.288940 -93.022713
1356.972900 1647.309937 -242.035095
1417.546509 1571.502808 -295.908112
1526.339111 1521.949463 -98.196892
1589.689453 1555.838745 -109.477974
1490.637573 1649.920166 -30.508547
1618.007813 1678.501465 -82.888206
1326.279419 1682.382568 -125.892143
1555.964478 1429.066162 -263.196350
1519.868408 1659.193115 -113.788139
1468.072388 1665.823730 -47.896778
1532.749268 1499.138306 -156.437347
1616.084106 1567.172363 -186.939163
1368.907349 1563.713501 -345.716095
1506.529175 1670.145264 16.539522
1473.699463 1522.038208 -213.476700
1470.983643 1651.864014 -58.173988
1382.112305 1635.914551 -132.738968
1333.142822 1585.413330 -365.335632
1444.190552 1535.301392 -263.329224
1645.383789 1652.168701 -106.249474
1342.932861 1687.613159 -112.842384
1342.090454 1734.236084 -127.268417
1195.308350 1759.531494 -230.769165
1640.280518 1538.399048 -282.051270
1546.289307 1544.527344 -108.136536
1656.684692 1615.531006 -135.467026
1393.620361 1622.114868 -202.823761
1332.127686 1689.359497 -133.840881
1386.554443 1494.868286 -343.408112
1307.925171 1608.187134 -384.903412
1708.945923 1677.679077 -225.075104
1416.879272 1529.929077 -331.489258
1269.082520 1626.819092 -421.515717
1497.489624 1515.196411 -168.581635
1332.507568 1636.816162 -268.614380
1279.579712 1643.046509 -343.160156
1460.562256 1607.837402 -120.839783
1294.037720 1693.538940 -196.257324
1395.536133 1668.144409 -111.106232
1622.986084 1579.869385 -183.740479
1323.341309 1590.204712 -378.274384
1553.802246 1528.110962 -114.841690
1470.157715 1621.113281 -114.651726
1468.010620 1545.615356 -141.908493
1301.931396 1670.746704 -245.728683
1488.267822 1541.626587 -144.485550
1491.501343 1674.950073 11.115033
1520.232056 1458.682373 -263.374512
1360.688232 1579.553711 -352.676849
1273.739502 1642.016235 -383.828583
1491.069336 1693.545410 -24.383375
1251.594360 1795.239136 -336.950043
1250.884033 1716.945313 -247.228210
1256.105713 1694.213257 -282.589386
1382.697632 1575.718506 -315.311676
1512.535522 1477.776001 -220.771530
1323.053833 1674.344849 -193.885101
1678.292236 1525.815063 -353.121979
1397.905029 1697.424316 -122.528702
1444.107788 1539.831665 -230.165787
1595.841553 1549.151733 -173.175171
1399.373047 1686.978149 -118.853409
1268.854004 1626.013306 -403.382813
1575.369019 1685.743896 -104.015640
1475.603271 1495.757690 -273.837372
1413.180908 1616.481812 -139.632751
1706.115234 1636.750488 -263.717468
1244.134277 1725.831055 -222.780441
1481.764038 1513.617798 -196.527069
1688.783203 1555.006348 -368.503479
1571.287598 1488.676514 -260.003204
1551.442139 1420.313477 -310.002960
1565.984985 1585.022339 -99.544312
1641.263062 1535.011353 -316.054901
