ply
format ascii 1.0
element vertex 1381
property float x
property float y
property float z
end_header
1174.822388 1895.025146 348.296387
979.558167 1874.214600 238.493484
914.859070 1861.159790 494.649109
1240.809204 1809.463867 526.774048
1216.965698 1887.522827 384.722778
1246.781372 1993.661133 407.819672
901.267273 1874.586792 423.622528
957.854675 1864.436035 342.031250
897.366577 1813.200806 672.733337
1232.421143 1871.018433 365.956543
1100.248535 1816.689331 512.170410
1244.278931 1797.039673 519.566162
1070.558472 1809.021118 550.477600
1218.753784 1899.354492 480.866058
1242.720093 1788.311035 541.036072
810.691772 1907.367798 607.010742
1151.299927 1948.315552 324.551788
1056.672729 1779.478638 546.048096
984.484314 1824.453003 546.432800
1115.170044 1810.189941 528.531189
957.899719 1822.777954 559.011292
921.367676 1880.808716 406.326843
975.431519 1873.538696 392.194397
1191.723877 1869.317139 349.299744
1105.333496 1794.756104 423.146545
1056.545898 1796.700562 507.018677
1198.504639 1837.188965 355.013641
1054.993286 1987.582520 247.034500
940.917908 1819.626953 624.705566
1206.916138 1803.349609 505.110901
1259.242554 1882.345459 488.953674
853.645020 1850.813965 620.954590
1262.444580 1903.598999 458.926147
951.438660 1856.333374 274.301086
1153.635864 1836.712891 481.606689
1028.374634 1819.537720 369.111786
942.937805 1832.367676 550.911987
1205.704956 1808.023926 476.890839
978.635376 1838.384766 468.905518
822.665222 1858.359741 617.855042
1215.602661 1875.963257 475.313049
1113.814331 1780.755737 448.719360
1104.279663 2084.823242 266.107025
893.217712 1883.437622 348.233612
892.511414 1843.094971 559.344299
1087.824463 1813.698120 292.290802
1204.863892 1962.318726 367.408966
1076.440918 1777.719604 544.657471
1060.654175 1880.004272 658.407715
993.419250 1871.994995 212.401825
1072.812256 1955.458374 260.696594
1142.801880 1888.498169 315.849060
977.962341 1854.145020 322.151001
995.448425 1842.793457 434.921112
1097.879639 1888.543579 293.447906
1170.128784 1826.959351 439.755554
1235.884277 1942.434204 422.146790
853.947693 1891.363281 412.239410
1235.148071 1931.183594 397.725433
1047.379761 1817.339111 620.199402
1217.174316 2038.699463 368.931488
1153.647583 1848.982666 334.485748
1083.127441 1978.226807 257.590851
1127.418091 1833.946289 505.006836
1001.436523 1858.591187 272.594543
838.576538 1872.733521 520.976990
953.473633 1850.367065 518.727112
1201.518799 1787.234131 529.912231
869.686462 1882.173462 359.208160
1210.918457 1843.737183 371.572571
1254.649170 1875.566040 487.414520
976.746582 1855.639038 330.338593
1047.780640 1821.956543 472.851959
915.933228 1873.635986 383.671356
912.712463 1872.481812 417.973633
827.583069 1867.342163 581.587891
1125.494263 1969.759277 310.142975
747.247864 1955.622681 580.626526
1115.146729 2108.775635 287.240906
1019.446167 1804.046509 671.601929
1076.246704 1997.993774 261.800171
1132.823730 2106.827393 297.143494
816.312317 1887.801758 454.885590
1201.305176 1805.868530 481.691040
1230.529175 1883.161011 355.608673
1176.667480 1988.210571 343.196686
969.604309 1794.687256 608.958984
908.205322 1868.331665 387.761505
1115.000244 1811.158203 501.026276
1066.427734 1984.907593 254.418976
1043.794434 1804.809448 512.472046
1095.775391 1798.842651 476.896179
1119.277710 1787.304565 376.672302
1025.626953 1831.528931 488.961670
944.991760 1861.766724 436.032501
1214.726929 1808.853760 504.793518
945.560608 1829.672729 548.876526
941.859375 1867.429565 453.748505
1008.126282 1809.903320 623.203430
1099.879761 2119.333496 263.468811
1080.526978 1828.010498 272.534637
992.874023 1859.878906 206.295166
1064.676025 1814.478394 446.277527
1031.066406 1783.430054 565.312500
1106.928223 1887.843018 311.969727
1168.227417 1899.513794 331.522888
1102.847900 1875.049683 299.353638
1241.252075 1796.671631 532.664185
1171.246582 2039.885010 331.538330
1027.465576 1901.979492 236.846298
1229.118896 1919.187256 380.745911
930.659302 1836.622437 532.850403
1225.692017 1780.526001 515.270142
893.038330 1867.066406 326.480072
1065.013428 1797.775146 472.010040
900.910400 1841.595093 593.816528
1087.391113 1794.276367 526.011841
1149.175903 1821.707764 491.710388
1051.733032 1795.573364 513.032776
958.985291 1873.305298 276.163940
1156.042480 1885.933716 337.095917
942.781250 1880.067139 290.971100
1188.072510 1797.867798 503.868164
1109.333862 1905.928711 311.380310
965.658630 1880.311646 383.508820
996.438354 1810.259399 595.703491
1261.877319 1982.102905 396.420105
1020.821289 1847.888550 246.183304
860.611450 1842.823608 614.898438
958.630737 1859.456177 459.811127
841.887268 1863.597412 575.395813
1154.375000 1803.843506 361.592224
994.816833 1889.223755 238.118881
1027.404907 1824.202393 366.830688
1126.251343 1789.556152 334.527344
1100.802612 1793.622925 380.163910
1040.956787 1792.875000 547.322144
1126.822510 1977.258545 550.697693
923.082886 1881.003662 381.297089
1182.310913 1810.524658 363.120148
1034.757202 1892.421997 234.383469
1144.478394 2073.050293 298.114655
943.829346 1821.600464 605.604919
921.544006 1808.599976 647.635376
1129.344360 2073.413330 298.061432
1034.401001 1881.963745 245.342606
1106.919556 1793.765259 358.237762
1192.633301 1820.784180 480.515900
1243.231567 1955.822021 417.810486
1154.537354 2089.937256 305.967499
980.362549 1852.486938 296.350555
1007.750488 1840.185059 311.838013
1007.864014 1853.869019 244.516800
979.380188 1845.763184 432.513336
1081.426880 1843.072266 290.214844
998.471924 1878.242432 199.732056
1058.176758 1820.239990 316.702820
1144.739990 1814.187378 470.583679
869.779663 1888.138428 410.936310
1098.117920 2139.370117 271.263367
894.649353 1886.332886 353.814819
1168.221313 1913.697876 343.196869
1199.391235 1794.528931 523.640198
1217.807373 1799.283081 498.464874
1046.402954 1810.328369 617.158325
885.143921 1860.187744 455.032501
1157.754639 1827.416504 495.255737
1193.370605 1825.652466 374.951813
792.617188 1881.291016 469.539948
1071.804810 1803.268433 371.687500
1060.886108 1908.017944 254.409714
868.908752 1820.379639 668.633240
1222.766724 1807.031250 503.148773
1215.601196 1876.612427 385.468475
1192.168945 1929.031494 357.709351
1020.073120 1829.068115 339.133972
1036.978760 1828.949585 291.820435
1046.709351 1829.123901 271.983734
938.865906 1801.621460 649.718872
993.431458 1849.543335 316.937622
1107.669067 1797.925781 363.580078
1217.912598 1842.483032 512.227722
953.662842 1810.715454 666.285156
1277.806641 1931.463623 456.758057
1036.393555 1831.964355 335.973328
1069.625610 1816.091064 298.019073
1124.376953 1817.647095 449.976654
1204.709595 1824.803711 497.964569
1182.647705 2022.028198 358.695557
1031.206787 1808.708984 515.167725
1249.513550 2001.208252 377.038147
1052.609985 2027.275879 236.061844
1163.744751 1828.850464 429.186768
1104.307373 1786.550415 388.985260
882.298340 1853.615479 606.018860
1161.578735 1825.589600 351.565094
987.387695 1857.801880 322.366058
1190.244385 1872.235107 415.620056
1280.472656 1938.866089 454.900879
893.668091 1848.450073 578.406006
1159.242310 1854.400391 338.255341
1259.857422 1887.809082 461.237701
1010.567932 1922.337402 234.824646
1191.249146 1812.501709 369.443604
1097.989502 2052.494141 273.341339
1230.603638 1779.947754 549.114075
1021.023865 1923.070313 227.539215
1015.187500 1817.656616 527.284119
1009.594849 1895.150391 232.135010
902.897156 1806.639160 687.882568
1151.329102 1824.563599 514.270142
1238.610962 1917.483398 362.998627
1132.963379 1910.500488 311.903412
928.683228 1844.421143 499.997559
952.286438 1842.800171 500.918640
907.704041 1821.178589 645.647217
1025.240601 1832.965454 705.330750
1116.410889 1812.853394 458.064728
1001.195374 1821.821167 693.709290
1037.358765 1861.042969 675.574341
1054.011230 1824.656982 290.885803
1020.302673 1968.672607 224.391998
972.395081 1890.825806 233.521912
1149.139282 1901.464233 490.014343
794.889282 1892.966675 502.223846
1077.254395 1791.030029 480.170380
930.242737 1875.704346 358.547150
1253.081665 1807.799316 532.314514
1165.631714 1805.745483 397.710541
1208.327148 1864.855713 384.725769
1061.688110 1804.140869 366.848175
1050.475586 1870.509155 655.079163
1157.225830 1906.216431 346.925049
893.601746 1874.417969 458.338104
1210.181519 1814.349487 507.139008
1094.599365 2032.691895 281.920837
1151.522217 1897.005249 318.961456
1158.802612 2048.012695 335.445190
980.163940 1814.343628 704.543030
1226.385010 1886.419312 370.158539
986.177368 1810.189941 582.657959
1109.066895 1804.787354 293.973816
1197.953613 1860.843750 476.732513
905.329712 1824.171509 628.026428
1140.685181 1992.117676 314.766571
1092.140015 1886.565063 285.359009
1022.228271 1827.662842 723.982361
751.201172 1899.122559 556.388672
1039.964111 1922.910400 238.888062
1087.004883 1842.674561 294.689941
1207.504395 1811.150635 493.058044
975.662476 1844.271484 534.385742
1207.760742 1999.511597 365.401093
969.666565 1833.034058 547.472290
1051.606445 1825.410522 340.045410
877.919006 1848.951172 592.375916
1207.514404 2036.486084 366.431152
1196.693359 1807.210449 373.750519
915.982727 1829.346191 623.809204
1131.634155 1972.969849 310.422180
889.195007 1879.133179 430.545319
1119.612305 1817.710205 460.137482
1075.530273 1782.924438 549.478088
1123.650391 1788.025635 439.435150
1156.354126 1792.744141 400.770630
860.905029 1877.914063 467.156464
1220.149414 1808.448364 501.072144
1196.481812 1791.519287 532.385742
885.524963 1843.433472 611.465393
1018.562683 1912.346924 226.403778
1221.515503 2008.743530 374.007813
1124.199463 1885.305298 313.165161
1137.729614 1782.432617 371.456177
1120.393433 1911.805054 318.921844
810.799561 1868.841431 492.418976
928.168396 1850.827393 547.414429
1153.207520 2014.752319 320.235291
1025.067505 1797.192627 605.039917
991.063416 1800.405884 587.214539
1078.562134 1808.160889 304.434418
1222.849976 1914.489136 355.261322
1165.547852 1810.473022 401.070862
1027.143677 1792.088379 593.160645
838.843750 1894.031738 442.390961
1047.648315 1820.666626 292.120392
988.184692 1844.298828 453.939240
844.149109 1849.827637 624.838867
1135.968140 1781.402222 374.471344
1042.452148 1916.740234 241.240295
1070.952393 1797.060181 457.175232
1021.382935 1817.954834 501.679779
1062.907471 1790.100464 565.428345
749.758911 1887.335693 550.371826
1013.123291 1835.686401 330.050201
811.667786 1897.305542 524.670898
898.851624 1892.076294 567.435791
1147.131836 1783.853882 385.785767
1140.364136 1792.982422 327.917328
1162.127319 1982.813599 331.579773
990.751953 1850.807983 314.038452
1025.615356 1838.246094 290.538727
1245.333862 1921.088135 366.333191
1018.910095 1949.624634 205.576675
1239.659302 1917.251587 368.121643
941.424561 1843.427734 507.834869
940.251892 1794.336304 660.624878
1011.620789 1820.448120 484.877441
1085.043457 1798.916626 388.908661
961.619690 1869.128052 358.726410
1155.208740 1797.212036 424.193787
1079.728760 1980.719727 254.654480
1044.393066 1859.483765 267.897156
959.661255 1808.701294 619.305237
843.815247 1874.510498 474.194031
921.413513 1804.793335 678.425598
870.386780 2014.983032 672.184692
1171.028198 1991.802979 338.390686
1172.297607 1816.756714 353.953888
1038.891602 1789.426880 562.742432
1034.939819 1805.569580 573.670715
921.309326 1878.465454 339.085693
1041.086670 1820.132446 335.333038
943.495422 1871.634155 306.423004
1009.989197 1815.506714 621.834900
804.234680 1885.048584 441.741974
969.183228 1805.855225 605.042419
1154.785278 1881.048096 333.945129
1044.461060 1790.593872 578.516296
1203.966797 2059.050049 361.134979
1238.517334 1901.787964 425.428711
1109.984253 2049.537598 294.427032
1104.973633 1786.510010 368.146027
1167.596313 1884.664185 478.630188
1232.395508 1908.818237 380.023163
1086.842651 1783.313843 454.642975
969.040710 1861.946411 279.472351
996.422913 1805.774048 691.745850
915.106201 1872.742188 299.242096
1157.342285 1833.016235 324.621033
953.972839 1856.832642 387.507294
1146.719238 1818.921997 477.052917
1270.911865 1999.402100 365.317719
1244.224487 1955.699585 384.510284
1065.075562 1808.531372 406.139313
1032.219116 1833.187744 661.185913
836.564941 1884.147461 518.468689
1213.607422 1903.503784 355.979858
926.215454 1869.815308 445.439301
1064.586670 1811.735474 307.916809
1050.145386 1800.986206 527.777771
1061.439453 1812.624268 459.191071
1002.379211 1827.515747 467.364349
1143.959839 1781.723267 418.539948
1015.856689 1829.135010 326.602631
1085.263306 2147.248291 262.909363
1195.058472 1902.665161 470.334381
962.326782 1798.798218 608.082214
1183.720215 1951.211548 350.900085
1135.202271 2000.408081 308.525299
1009.320435 1839.646606 339.504486
1156.215698 1986.680664 326.527252
1236.005981 1783.599121 520.177917
1149.060303 1788.366821 376.602509
1257.736572 1862.526978 505.513092
799.135864 1885.292358 449.633026
1199.701782 1925.657715 356.017731
843.361450 1873.915649 510.757660
1031.155640 1916.552002 239.680466
1217.461914 1841.036133 354.219727
1198.749878 1892.602539 354.635681
1055.850464 1838.275146 294.919922
1053.603027 1951.015625 248.559494
1050.975586 1787.852539 544.934570
1036.876953 1815.599609 361.513000
1205.613770 1883.722534 415.500427
1173.507935 1883.525879 446.379730
940.985657 1883.980347 401.231628
908.376709 1839.757690 576.481079
1100.525146 2107.278564 275.509430
1113.251465 2064.521484 275.022614
1025.913208 1832.064453 373.601379
1149.267212 1817.159790 488.988281
919.624207 1851.875610 498.796356
820.266296 1866.195190 439.992462
744.470032 1884.370605 530.539001
1154.157715 1786.057983 334.890106
1129.866455 1959.098022 307.543915
832.958069 1885.187134 521.380737
1104.651733 1789.567261 440.834900
1118.718628 1804.585449 454.449921
1124.448364 1800.528931 343.037231
996.837463 1830.185059 475.961487
831.159790 1900.454590 483.449280
1202.048950 1815.474854 504.342194
913.821472 1800.677002 680.864441
1287.113525 1909.719727 464.979065
861.357788 1868.247681 500.116791
995.404053 1854.821167 203.749725
1077.831299 1811.715942 446.266296
847.123047 1863.724854 498.445068
998.188904 1799.228394 606.432434
935.563171 1879.597900 300.299255
1081.737183 1785.560547 547.833130
935.819275 1810.014282 661.079529
1204.280884 1841.060425 348.781372
1259.734985 1874.748413 473.107086
1186.963257 1787.622437 380.664642
1262.283691 1996.394287 406.727936
1052.944580 1856.699219 637.641357
1113.153809 1834.809937 308.674408
910.631958 1876.347778 439.528229
920.086487 1872.352539 346.820770
1218.023682 2033.954712 373.306519
1168.214233 1996.936890 333.416077
1281.359497 1941.017456 450.450562
1050.511963 1832.878784 417.290955
1227.420776 1774.104492 571.201416
828.583923 2020.203735 639.295776
826.642456 1920.223877 535.018494
1127.191162 1809.742798 305.731750
962.196899 1837.628052 502.142090
1044.170654 1816.952148 607.630859
879.338867 1822.731689 662.048157
1019.808960 1854.216675 295.384552
804.429382 1882.613403 456.043518
790.741150 1881.216187 507.943970
992.313293 1819.732788 539.011169
873.659302 1882.145874 358.033295
882.403320 1930.524170 692.454529
1105.093506 1795.568726 375.019958
1083.830200 1794.300659 390.418182
1057.148804 1823.680176 282.778625
999.548706 1806.966187 561.476685
985.728699 1807.749756 666.170105
945.013489 1797.749878 662.419983
1007.694031 1808.833740 629.439819
1144.596436 2044.344116 323.384796
1128.271118 1860.678955 300.614166
903.550049 1862.937988 454.000763
920.503113 1883.417603 315.249390
1133.616577 2010.320190 315.416534
1049.511475 1819.679688 306.086761
1142.232788 1787.263550 404.569305
1041.598267 1812.356445 372.227600
1247.871216 1926.523193 374.981567
1014.427795 1834.317383 297.070435
1054.619385 2044.424316 245.109299
773.645325 1892.390259 521.302856
1055.090332 1878.372192 411.303986
877.706360 1890.661499 358.443695
1044.848267 1895.466797 242.783951
1073.868408 1817.973511 442.157288
1206.364258 1853.658203 337.880432
844.703613 1864.386230 573.826721
1200.875854 1902.843262 355.525665
1071.006226 1779.201172 567.516724
977.953430 1843.661255 299.296234
1060.596436 1783.032715 545.715271
1013.539368 1870.497192 222.082458
1188.097900 1811.759277 508.193207
1143.623291 1842.041992 471.155762
959.952698 1844.293457 566.851074
1078.143555 2147.232666 253.549530
851.523804 1858.476318 637.720703
1047.081665 1805.838135 541.347900
1059.013916 1875.601074 262.127502
1065.544312 1807.655273 464.279327
1087.568726 1820.960693 346.563934
1081.099243 2101.880127 262.190216
1099.800171 1985.625000 296.176178
959.596375 1848.188354 493.061523
845.389954 1887.569946 402.952301
1052.191040 1797.946777 503.098999
1044.994629 1785.733276 560.409363
1251.436279 1941.578857 439.605713
937.589050 1820.345703 601.902161
1200.863403 1804.324951 499.473419
1042.832397 1994.832397 241.312271
822.744629 1881.289429 482.165771
856.609436 1869.340454 527.017822
828.012207 1878.594849 458.561890
894.398193 1857.924438 532.823669
1054.322510 1790.178345 531.834473
940.279236 1851.215332 559.436584
1253.146240 1909.502563 434.704102
1016.720703 1825.260010 357.803925
993.826050 1843.709106 352.627563
1163.460327 1822.343018 473.506683
1155.988281 1784.432739 355.248016
1094.336304 1967.793945 282.362335
1262.848999 1969.844727 362.535675
1147.543091 1923.132080 322.898682
1095.716187 1800.530029 484.198303
1177.887085 1907.963745 353.988556
838.852478 1904.651978 554.870483
1044.393799 1828.985107 618.320862
1055.842896 1866.556274 269.984772
1047.887817 1887.025635 253.167114
992.202759 1846.044800 313.492828
1081.848145 1837.306152 272.647125
1141.170288 2043.226074 312.352112
762.611572 1888.062256 497.050232
1002.847168 1820.463989 518.219482
982.528870 1834.182739 323.854919
1230.011108 1936.935303 404.531525
1225.696167 1941.587524 410.365326
1024.430176 1806.377808 371.519318
1110.744385 1819.258545 306.228394
1179.206787 1807.368530 385.876892
976.899963 1875.133667 266.957520
1182.810913 1862.671143 420.854553
929.978149 1874.544189 316.336731
881.358887 1872.076660 487.384979
948.158264 1845.948120 504.226624
1249.735718 1796.058472 537.944153
912.945557 1838.811523 588.487244
1099.477295 1879.663696 307.017578
1229.499878 1931.161743 365.237915
1254.210083 1795.828735 532.501709
1109.864014 2045.345947 283.714294
1072.217163 1783.270142 548.187073
1082.715576 1792.195313 470.923584
1093.784668 1787.305420 446.383423
1118.890747 1888.593140 301.306610
1202.275513 1794.760132 500.007690
1231.955200 1787.759155 546.385437
1105.745361 1804.308594 511.263550
1182.614258 1826.580200 342.232910
1147.802124 1785.008057 337.268829
1016.481262 1797.951172 594.644348
1079.887939 1798.540649 459.818695
1053.153564 1821.281982 316.284241
1221.201660 1786.447266 532.192993
1129.346313 1863.176270 319.724884
1081.828613 1883.887207 273.022675
1025.534424 1967.123291 210.484161
1203.683228 1814.388916 519.510193
1126.146851 1930.906738 309.467773
1205.354980 1786.927734 532.377808
873.487793 1849.159546 557.692139
1107.068726 1797.894165 315.084167
1066.741455 2119.587646 248.128998
1138.587036 2094.863037 304.854828
1010.530029 1924.776245 234.037460
1051.188721 1814.512085 346.396149
942.826782 1866.955566 411.487793
993.192871 1894.993164 206.790695
1117.801636 1792.500244 379.832611
996.681824 1866.221069 232.429047
971.030945 1847.162842 739.340027
962.995300 1865.636230 354.820160
1208.709961 1778.653809 555.524048
1073.777832 2129.869629 248.913269
845.777527 1859.474976 637.958801
1086.261230 2127.418213 265.032166
1052.996948 1938.626343 247.026321
1009.766663 1809.158569 652.573242
974.500488 1831.824951 549.332214
1162.403564 1789.026245 342.874878
903.949036 1857.034180 451.359802
1156.709961 1821.500610 411.351105
1167.437988 2027.741821 333.631226
860.523865 1857.937988 530.819458
1026.134399 1802.026245 536.251465
1141.941650 1786.281860 372.469147
1066.576538 2070.341553 239.358627
904.180664 1854.214111 531.716492
807.329285 1874.347656 489.096863
1102.349487 1804.500366 349.841125
1113.224731 1853.086670 306.887390
1175.951294 1842.360474 412.736359
1203.136963 1799.930298 506.402191
1124.510132 1872.993286 307.051788
1118.956909 1817.385864 327.162476
947.214111 1827.593750 548.271606
993.434448 1804.376587 627.897766
1091.284790 2066.824951 269.217194
1061.067383 1818.482788 422.298798
1026.862183 1970.611694 210.636490
1092.075073 1802.167358 509.569092
1194.793091 1857.735840 347.952271
978.519043 1808.161377 566.046997
831.977661 1866.208374 575.503174
1038.134277 1806.546143 498.964966
1107.165649 1963.401245 290.080688
1078.904419 1778.274536 541.924805
1220.924072 1908.742676 354.755829
858.911133 1890.834106 497.512054
1023.373535 1823.550171 327.670319
1166.539307 2082.219727 327.517914
1232.756104 1889.325073 468.540771
1143.570557 1795.283447 395.700745
1146.738647 1805.613159 330.099915
1020.895203 1958.680664 209.526443
1042.957397 1835.372925 623.324219
1110.018311 1823.717773 540.285889
970.179077 1809.416870 653.896606
1082.302246 1855.331299 281.845642
1035.307373 1832.813232 281.581635
1171.747192 1935.502319 342.376953
850.683044 1874.062378 393.384491
1041.384277 1826.119019 304.530487
1069.564575 1799.405640 574.140930
914.555786 1889.320923 327.239441
801.637268 1872.472046 443.169952
1119.358276 1812.318481 497.780975
941.693787 1821.359253 709.530640
1233.225220 1900.833862 408.046906
1054.043335 1803.291016 379.408844
950.476501 1852.623657 510.698151
1158.387329 1882.990967 336.767731
1196.542603 1844.717163 416.560760
1290.288574 1872.332031 464.664978
1127.034058 1792.486694 450.461517
1135.095703 1785.759277 428.780975
1200.059326 2000.015259 358.513062
890.385864 1850.175049 575.790405
1083.584961 2054.190430 263.308228
1100.815186 1792.083862 468.330383
1043.842041 1820.088135 294.831299
1113.607788 1829.538574 491.776886
1211.296875 1975.331543 364.080811
958.118896 1852.389282 329.707642
1171.044922 1912.721069 341.355316
985.484985 1830.574585 491.747162
1103.419556 1796.873047 486.854828
871.045227 1861.683350 513.938049
1235.569092 1782.037231 549.895691
841.150269 1886.191650 524.930786
990.563293 1829.021973 504.589508
997.731506 1827.347290 487.512299
954.032410 1875.399048 250.550552
1098.183716 1793.685791 383.851166
995.732178 1840.909180 330.321106
936.242859 1826.449707 585.330933
943.174438 1870.809570 414.140991
1168.755981 1801.877441 388.995331
1033.765869 1955.076172 236.994934
1047.432861 2021.028564 216.534531
1096.393799 1803.320923 537.889343
1112.788086 1904.770874 295.662781
1114.504150 1814.231812 485.597473
1217.188110 1871.101929 389.490326
855.948608 1881.262939 432.198425
1229.018066 1913.338379 381.321594
1185.603638 1850.583862 477.321136
1003.551514 1838.567261 425.325897
965.105591 1810.841919 664.071289
1121.125610 1794.927246 328.523407
1027.729614 1913.123413 236.983963
1151.518555 1778.002197 371.066132
1006.215454 1794.657959 590.948975
1184.902832 1919.233276 353.894745
1016.383606 1812.363281 531.397339
998.145386 1798.298462 605.466858
794.262512 1860.615479 615.752441
1172.237549 1847.583008 467.291046
1057.617065 1794.668701 577.655701
1206.748291 1890.498291 354.622986
1207.537598 1878.651855 478.859253
1205.373901 1851.550781 375.552765
970.033447 1857.926392 380.378418
1002.432739 1822.027466 493.033661
1257.119507 1936.941284 443.976593
1049.652344 1794.048584 583.098877
909.248535 1814.571167 693.578796
1009.852722 1805.059326 612.212891
795.033203 1893.535034 519.336426
995.142761 1858.165894 368.506836
1185.433350 1806.167969 483.965668
1214.038574 1771.005249 538.880005
1076.307617 1826.531006 332.994293
950.987061 1847.013550 464.053711
1020.811096 1819.104370 527.698547
1085.213379 1943.956421 276.624725
1200.877686 1792.442749 526.486816
1102.033447 1780.905396 424.108002
1246.977905 1928.139160 435.529175
1157.826904 1880.023804 339.270630
1039.713867 1809.816528 622.256836
1004.287842 1795.904419 575.608704
1041.728638 2039.892456 242.144760
993.967163 1800.021118 584.577087
957.323303 1800.414429 635.853088
874.377197 1883.449707 478.057556
1037.405273 1803.575562 615.125244
785.862915 1883.525513 505.043762
1232.716919 1794.004517 533.203125
1149.310547 1954.414185 326.156250
1114.238403 1798.415649 376.724487
1184.382813 1785.565674 366.626495
1044.183228 1789.428955 595.456787
766.855469 1894.334961 601.085815
935.908447 1868.840332 353.377686
1248.277100 1786.866455 533.144958
854.392334 1872.691528 437.684509
1182.422852 1787.107056 359.261536
941.125244 1914.941406 733.857056
934.173950 1862.097168 283.325653
1199.672485 1805.021484 515.927856
1090.329590 1790.513306 511.764465
873.494873 1862.328369 584.614807
1201.862793 1815.246948 494.126251
1008.116577 1822.205688 483.536011
976.771240 1854.747559 329.918182
1048.215332 1792.000610 570.831848
1226.620361 1829.015381 516.350769
1155.687988 1786.347290 352.237762
812.705200 1868.355469 519.763489
898.841309 1846.813354 534.349060
1046.949951 2014.465820 243.612335
866.469299 1874.543823 479.431915
1189.905884 1909.612061 442.128723
1189.568970 2015.512451 360.803040
1166.863892 2052.438965 330.032013
1150.200684 1784.252930 374.617523
990.414734 1876.709351 207.728912
1039.950562 2007.417603 220.576126
1085.277100 1864.060181 629.880371
1103.128784 1810.246826 539.348145
1049.936890 1781.636353 577.476807
1137.580078 2063.776123 310.467621
985.404419 1804.293823 671.274475
1025.206421 1838.530640 277.969299
914.078430 1893.253662 329.453827
1238.127686 1898.260620 430.872986
869.539246 1834.138306 638.304810
819.137085 1849.171997 628.094421
779.003052 1878.384888 533.819824
861.503723 1839.701416 639.047241
1237.036255 1935.604858 417.085083
1018.876770 1813.888672 656.898376
1011.798401 1865.027100 247.276505
1085.348877 1992.826660 269.312317
839.820679 1896.380859 415.076172
992.320923 1830.147217 495.328278
875.263916 1826.394653 660.768982
970.171509 1797.806763 628.942749
957.622742 1825.225952 552.743286
1091.210693 1798.153809 406.408600
1013.445068 1827.654663 349.116974
812.166626 1893.524048 511.265503
972.792175 1837.048950 493.720551
1146.599854 1825.335327 330.974640
1119.279175 1988.032715 297.817169
1053.341187 1789.568115 526.281372
1110.292480 1792.022583 469.703705
1032.032471 1832.022705 395.307098
1232.573853 1914.089600 363.333740
1222.970215 1864.161011 338.351013
1143.160156 1784.038452 375.723785
1243.439941 1791.529053 537.298828
1075.138306 1813.198364 363.471283
1004.214294 1846.037598 302.120148
862.384521 1889.340576 390.834106
851.608765 1883.491699 427.913971
1022.504028 1845.992310 388.403564
995.104492 1801.026611 688.329834
1020.117798 1814.307007 682.347412
1086.645142 2052.748291 267.091644
1013.736389 1799.208252 665.645203
1097.126709 2069.123047 274.496796
834.055969 1880.589722 507.252350
987.956116 1838.408203 352.964355
848.409485 1880.391968 424.155762
1144.211914 1822.453247 506.482697
881.403137 1876.523315 399.617340
1046.547729 1799.491699 508.191864
1147.006836 1859.817017 343.949249
1088.388794 1812.220947 309.158417
862.788696 2070.042969 660.937683
1246.137207 1984.441284 371.133331
1150.852051 2057.936768 316.386871
1139.063965 1983.619507 313.579926
1163.822388 1958.568970 336.354309
1268.343872 1878.299194 467.861969
1079.465698 1796.867554 457.555939
969.785828 1847.609985 513.125488
923.300171 1830.376831 716.882874
1281.619629 1874.133423 452.429108
1073.003784 1806.108521 399.883728
999.423706 1840.079712 333.490906
1209.986450 1834.264038 533.102661
789.021179 1876.154175 562.341187
1170.248291 1938.630615 341.943115
999.263855 1863.866699 245.361633
982.834595 1793.885620 613.637207
1183.978149 1916.470947 476.126160
1020.302368 1808.729492 573.955505
1228.780518 1927.150146 410.673187
1077.964233 1802.853638 511.118561
1026.200439 1833.664551 309.621338
1202.905029 2049.194092 359.547913
1210.175293 1908.008789 429.200134
1201.298950 1822.069824 498.121521
1044.579834 1871.681152 236.547226
1062.796021 1785.814697 550.516785
1124.328125 1817.211792 475.822632
1240.270142 1901.256470 360.581909
881.694580 1879.179565 381.191620
1141.423828 1786.571899 345.023834
1131.893555 1877.186279 312.510590
1278.478638 1890.073364 476.188416
1090.587402 1790.411499 463.670288
849.382874 1847.300781 597.389832
941.936646 1803.242798 676.983582
1026.101563 1833.754761 390.281982
929.852905 1864.606812 443.047546
946.232788 1794.844238 637.276062
908.631409 1874.493164 437.359222
838.356201 1878.079102 490.334351
1256.071777 2009.003296 398.369812
1125.388306 1817.088745 497.292236
1191.505615 1856.186523 479.894623
835.509277 1875.043091 503.305359
1030.739624 1847.968018 241.821198
1100.572510 1800.420410 329.730011
1162.789673 1831.714844 511.078400
1134.598999 1823.220459 327.071899
974.687927 1798.290894 589.286743
1102.728271 2124.840332 279.810150
955.610596 1850.199341 315.536682
833.200378 1933.071411 651.415405
865.559814 1822.358765 662.929504
1002.967896 1896.652954 201.135605
1263.753662 1970.195068 372.212708
1154.886230 1779.277710 366.307037
1035.149414 1843.601929 654.843445
1032.000977 1835.053345 278.294891
1192.865356 1796.901855 502.099304
1054.259277 1797.451416 607.922302
912.970520 1872.748779 373.499237
858.031982 1900.807739 390.282501
1168.253296 1804.087769 358.594666
972.028442 1883.653320 259.322052
1169.400513 1794.944702 365.236786
1059.544678 1957.372192 251.254242
1020.642761 1863.559204 222.833771
1046.672485 1798.084717 498.526886
785.216980 1879.436890 538.547485
1204.242310 1802.505615 489.447296
1119.622070 2012.461426 293.318085
1101.068970 2071.345947 277.527344
976.068665 1868.737915 242.179565
1073.907349 1804.892822 360.828552
1090.798706 2149.185059 244.086990
944.432556 1815.093872 608.162598
1251.123047 1968.147827 380.265411
1029.435059 1977.659424 226.703079
1223.101685 1833.219238 541.975708
1063.494263 1825.014282 256.645905
804.761169 1898.443970 452.940979
1028.665161 1795.882813 581.516418
1077.133301 1912.865112 274.101349
897.202209 1872.365601 413.358398
1249.916992 1969.000244 377.892487
1010.694763 1802.562744 622.742188
1067.174438 1935.571777 250.147995
1081.869629 2134.715088 271.341217
1244.447998 1960.717041 418.320526
946.655334 1871.041748 365.841034
964.652588 1871.598145 247.507507
1085.470581 1808.915039 366.707306
1132.850708 1843.072266 333.436615
1143.634033 1793.458008 392.428314
784.463562 1880.802124 555.817261
964.746582 1860.529907 298.945648
1111.331543 1800.240112 366.009125
969.219849 1860.110840 329.648621
969.053162 1864.005249 348.641724
1079.558716 1827.903809 282.641541
1141.643066 2011.210938 300.962708
1043.161865 1981.630005 240.121841
1119.500122 1948.980347 306.348053
1259.458618 1982.424194 401.146820
1036.069458 1906.330811 388.173401
1058.023804 2023.734863 251.155029
1228.203491 1804.622803 528.208008
1012.902832 1835.667358 512.558777
1052.899170 2067.782715 241.806732
973.978149 1807.437134 602.133972
1005.106567 1862.088257 234.029587
978.840637 1798.999756 622.462891
1090.011108 1856.275879 288.932312
1098.935303 2056.545166 273.859497
1035.940308 1849.517212 248.181763
1032.962646 1821.244019 348.234283
978.677979 1814.089355 562.509705
1057.683350 1793.967773 523.995361
765.755493 1888.228638 561.129639
1060.945801 1816.805786 363.703613
1012.280396 1824.360840 372.051056
905.215149 1815.371948 652.347900
1208.032104 1839.979248 386.238892
930.548767 1850.077148 485.058563
1047.881470 1815.704224 391.476257
1174.269287 1803.270020 498.855988
1230.569336 2007.141968 372.308289
932.498535 1805.761230 710.202209
1058.403442 1799.948853 519.237549
832.192261 1873.675903 557.186951
1202.156982 1794.708496 521.168274
999.428467 1873.615723 224.977310
899.226746 1820.634155 642.507202
1206.264648 1819.677612 475.615845
1101.564209 1787.455322 391.375092
996.721558 1832.253784 482.151062
1243.402100 1897.258179 401.209869
1194.510498 1843.947266 340.448456
1055.877075 1818.537476 463.596252
1267.512207 1891.535767 461.402374
1164.226929 1868.514160 335.536652
930.901428 1857.831787 508.236176
1056.649902 1810.856079 396.326782
1132.127563 1796.185669 326.037048
985.681335 1855.692627 285.495667
1110.127686 2014.197876 295.610962
796.088440 1891.882080 475.340118
944.667786 1854.316650 447.713501
1211.619873 1842.484009 352.125916
983.114563 1860.470337 279.293518
1008.062378 1804.257080 656.573914
785.010071 1866.816406 552.270142
839.957642 1875.524536 459.761810
1201.660400 2040.544800 361.790039
1002.983826 1849.788208 268.346771
1258.312256 1903.855469 435.088165
1166.943481 1895.122559 334.350677
908.544312 1854.160034 524.627808
867.401733 1869.453613 432.636810
972.725159 1793.085083 617.503540
1086.807617 1866.329590 282.543549
876.654358 1865.731689 517.540649
937.580078 1891.114746 298.046600
1210.147949 2029.459717 365.303955
1274.883423 1871.504395 486.822357
883.528381 1898.044800 694.767822
1127.118774 1916.916260 307.392670
1170.533691 1844.458374 352.321136
1015.475830 1819.586304 506.909332
925.728760 1848.681885 555.629333
1026.983765 1842.166016 400.292267
783.313599 1896.368164 492.916382
1052.839966 1936.474243 255.754044
1012.539978 1853.837280 191.726883
1158.205078 1792.992065 413.254364
984.276794 1806.259033 705.160400
1162.234375 1969.699219 321.726196
1159.176270 2086.676758 335.991547
927.600342 1872.211426 301.147217
1062.500488 1801.994507 347.846405
1167.930298 1783.207764 370.039001
1150.632813 1969.847168 325.749451
1003.582275 1851.217407 277.904999
1031.869019 1969.609741 220.832153
826.162598 1846.830688 624.240112
1128.019531 2062.482178 297.014343
958.274475 1803.518066 718.434998
1000.839355 1832.561279 447.698944
971.929688 1798.080200 679.248047
1188.965820 2047.994263 348.721710
1076.403564 1806.846191 519.240601
1164.168579 1798.288574 382.393463
1025.070313 1916.609253 233.395584
906.583435 1852.560791 569.688599
1088.155273 1943.109375 279.422302
1018.832336 1827.356323 345.832428
1159.604980 1804.972534 411.814270
943.934082 1833.911987 614.225525
855.307495 1892.298462 396.243774
1046.213257 1784.746582 553.959290
1142.078003 1795.964478 362.257904
1019.850708 1953.886963 214.286942
1181.837402 1823.649780 458.697479
845.575684 1840.073608 613.894470
979.798340 1865.668091 263.407593
1173.369629 1834.286499 407.828766
827.810303 1869.226685 602.171265
1074.110229 1805.507202 316.727509
1030.209229 1975.431519 208.078827
1122.241699 1788.774536 388.038239
1114.554688 1836.718384 522.094971
1181.385986 1975.186401 346.107513
1103.889893 2056.196045 268.461060
1205.928345 2065.760498 345.660065
1183.236206 1938.010376 351.718658
1028.119873 1823.677490 462.737518
1095.172729 1823.178589 569.264771
928.328979 1866.782471 336.641663
993.781799 1808.137817 668.254028
1085.020142 1790.452759 552.381409
1231.876221 1876.466675 371.983978
1128.845825 1799.983276 429.449280
827.487488 1855.614990 425.407166
1107.973755 1792.774902 435.618439
869.016724 1867.743042 573.500854
1058.625000 2078.033203 245.447845
1070.341187 2071.600342 221.937729
1227.276733 1891.649048 447.484161
1047.880981 1893.779053 416.235718
1094.333008 1801.333252 496.936920
1013.424194 1819.489502 540.814209
913.692444 1872.894531 363.054871
997.453308 1866.798828 227.919357
843.256958 1946.214600 657.923218
1128.021606 2103.565186 282.197662
1086.846924 1961.590820 271.685028
863.045654 1870.532593 573.678406
1114.705200 1793.140625 418.402039
884.859802 1839.118042 653.470581
1200.433350 1856.842041 503.763245
930.166626 1858.619385 397.243256
1241.381470 1978.051025 363.524780
974.944214 1834.431641 481.699402
949.477051 1873.861694 289.844299
817.364929 1887.787842 470.440826
967.435181 1839.211182 493.541077
1059.454712 1801.023193 382.567017
1036.338867 1819.564209 374.887512
951.991150 1881.021606 313.552277
1156.832886 1875.808105 339.139099
1191.847656 1963.424072 354.378143
1168.320435 1930.851440 329.142670
1101.278198 1836.048218 561.122070
926.297668 1798.075806 677.217834
1239.154663 1805.695068 539.700378
1103.133911 1801.329590 353.232269
1254.666016 1913.594238 439.445007
771.181702 1885.822876 512.149719
997.342041 1849.786499 399.157257
857.203064 1877.109009 424.031647
868.445923 1872.251587 478.691803
1098.850098 1807.800415 484.910736
1018.945618 1823.409546 488.998657
929.361694 1871.933228 400.401276
1161.389526 1817.849365 445.461212
1102.770630 1821.734253 523.059937
972.886292 1854.599487 457.320313
791.802856 1867.343018 532.503540
1128.157593 1822.891479 334.327820
1023.735352 1867.594971 225.550354
1039.268311 1837.662842 652.732605
1028.451416 1847.687866 238.684006
1041.028198 1832.759888 270.257843
1121.567261 1783.055054 392.275452
1126.528320 1788.330322 437.082428
1180.982544 1803.615356 513.872559
1027.233398 1824.551636 450.057648
1036.037598 1837.358643 676.062683
1044.998901 1807.078613 406.108337
991.018921 1838.497070 473.073639
1043.931396 1814.726440 357.009155
829.813049 1890.703857 602.090332
837.093628 1888.992676 421.509216
1136.797607 2033.563232 305.829529
1183.344727 1865.866577 348.901154
1046.876587 1826.988892 282.466553
966.798706 1829.772827 546.352051
1028.661621 1818.055786 361.090942
1138.313110 2060.341309 304.939880
1179.025513 1818.634766 362.155670
963.554688 1858.425903 329.936035
772.713074 1887.069336 486.193695
1122.354370 2073.921631 297.361633
1182.451050 1941.770142 351.407806
819.131348 1857.267456 618.848572
1180.011230 1900.461914 351.158722
1076.268921 1803.807373 389.386505
985.248962 1850.410645 347.735992
1033.993164 1993.031128 216.021088
785.516907 1903.494995 491.212830
1109.133423 1789.202881 387.576263
889.952026 1890.299561 438.475006
807.612305 1895.542236 517.328003
1057.081543 1807.380127 371.465149
1274.734497 1881.212891 485.971252
1035.124146 1790.746826 601.319031
1100.144165 1801.375244 395.628601
1001.392273 1846.585083 449.989288
1016.214294 1828.292480 344.208740
1016.269592 1827.567017 466.739471
987.707581 1841.291016 412.310028
922.503296 1841.928833 559.404297
787.820679 1878.579224 558.584839
1056.153809 1815.994873 317.816803
1020.850220 1793.814575 607.186157
1110.042358 2097.609375 303.822754
1246.455322 1814.010376 531.565063
1137.544312 1787.637939 398.479248
868.956238 1880.865601 486.683533
758.315369 1988.263184 585.845825
1232.880127 1906.078247 451.892273
988.556580 1811.997192 574.975342
867.598694 1880.642334 397.796417
946.292053 1853.583252 478.058167
1005.777771 1890.979980 187.367783
1026.497925 1792.564331 595.105713
1180.680298 1823.563477 352.566559
1212.191895 1824.762451 491.153900
1095.918091 1927.082275 286.708740
1072.189941 1804.654785 515.406311
1096.588867 1995.967407 276.029327
1195.262329 1972.243896 358.817932
1130.901123 1786.313843 375.635712
1159.525635 2023.681885 327.964050
939.133240 1852.409546 489.661652
1053.138428 1820.189087 329.070435
1072.109741 1791.919067 524.584290
791.712402 1868.899902 564.344971
750.399414 1890.781006 547.906799
837.321350 1871.465820 467.713654
1068.429565 1801.637939 319.926880
1027.032959 1809.697998 516.482178
1207.626221 1852.589966 348.814636
997.133057 1801.494507 576.904724
977.573730 1799.330444 629.550781
952.134216 1887.432739 377.364746
1062.468506 1832.519775 271.374298
1165.549438 1916.247070 336.815002
1130.347412 1891.062622 317.706055
1115.262207 1868.670654 319.456604
773.382324 1879.603516 573.068176
1181.127930 1819.125122 464.126923
899.425781 1882.015381 403.681244
1026.205444 1951.595215 200.921829
1002.106689 1830.434937 470.449249
1095.999268 1820.114258 288.641754
1219.352295 1835.291870 505.723999
944.128296 1845.937378 480.621857
809.321411 1882.029907 493.627472
1067.708008 1825.312866 607.851929
1074.046143 1856.042847 275.437531
968.797241 1811.356689 601.285461
1120.880737 1810.916504 341.330719
800.461304 1889.697021 451.445862
1064.121948 2088.630371 249.431824
1109.912842 1879.312988 303.626831
973.521240 1838.209351 488.305847
1069.726563 2113.437500 251.754807
932.125977 1871.510376 403.240234
1020.875305 1815.772949 491.299408
1206.909302 1801.904053 493.264618
900.411011 1858.167114 558.889526
1122.488892 1922.806030 310.391571
1189.152222 1819.932007 393.110901
1021.041687 1864.513062 234.734924
946.312927 1831.479980 532.126038
847.086426 1880.412964 601.296265
1226.131592 2042.089355 373.969360
1067.596924 1794.669922 537.283508
1021.679138 1844.595581 667.206177
1276.623901 1852.029663 482.906189
1076.803589 1791.001343 485.632446
1014.969299 1847.235718 721.434143
1135.925171 1986.199707 312.647766
968.480713 1838.614136 522.759277
1116.437378 1792.385498 340.252258
951.040405 1859.204590 437.634247
948.574585 1871.656372 303.889069
1104.293457 2012.598755 282.570251
1036.043579 1829.123657 337.391693
1240.193970 1977.066040 415.112518
1033.741821 1811.703369 395.615936
902.802368 1888.425781 333.984589
1042.014160 1785.516479 576.636658
1241.912476 1905.469116 450.177948
873.575867 1882.293335 431.113556
1132.060913 2019.778687 294.462799
1131.818481 1785.826294 399.288208
1171.745361 1863.180542 344.872406
952.022034 2037.737549 731.810303
1057.039551 1794.923828 504.929626
1227.681274 1832.964111 512.334717
1036.833008 1838.903198 634.650574
1207.247803 1977.818237 367.179352
1166.819702 2004.225342 335.036560
1093.501465 1789.914917 488.151001
1040.159668 1862.295654 675.010925
1007.971924 1847.075928 294.550995
952.487061 1861.902710 329.959595
989.045410 1848.485107 310.339417
879.629517 1825.802612 660.946228
1219.094727 1896.693604 439.711823
1144.473633 1820.649048 442.946747
881.801575 1855.532471 560.857727
1080.547974 1790.308716 480.592865
895.875793 1874.815674 408.480194
1064.970093 1944.651978 251.177185
1142.104004 1795.478882 392.388306
1151.173096 1789.309204 356.683197
1206.932983 1866.904297 482.914124
1109.582642 1802.160889 325.551483
985.092590 1791.345947 644.250977
1032.246948 1832.174805 429.481934
1071.635010 1811.962524 310.904541
1151.206543 1785.996826 395.107300
887.151489 1879.841553 371.308746
780.622986 1879.533081 540.721802
846.796082 1844.648560 641.401245
1235.998901 1912.068115 379.196350
1134.978149 1834.642212 330.099182
1109.825073 1793.899536 418.344330
1159.756714 1801.432373 369.978027
1095.785400 1808.295288 354.313354
899.291870 1874.846802 383.570587
933.629822 1882.944702 359.016998
1021.926819 1806.706787 529.082703
1208.091431 1846.077759 492.476227
1079.213379 1792.482300 473.264801
1169.775269 1946.420288 329.357758
997.524597 1849.626343 299.069763
1050.591309 1810.432251 599.340576
1184.815430 1975.364136 351.162109
1255.337891 1999.598145 372.509369
781.197021 1875.007935 566.342773
1076.834106 1786.989258 528.344238
1255.101196 1941.207275 425.129456
1103.365723 1945.061035 302.488159
866.485229 1872.995850 458.236816
1022.369263 1833.959106 295.401245
1188.450195 1852.472168 351.492462
1195.941284 1817.429565 485.521698
1278.715820 1904.665039 459.343872
958.029663 1832.139160 557.730347
977.532532 1817.792969 570.307739
1037.326416 1991.298462 206.791977
992.847290 1877.994263 242.542908
834.329163 1874.859009 497.842041
1100.741089 1977.369751 284.445129
865.536377 1880.312012 413.887115
1046.426636 1837.155029 267.250519
1007.142822 1811.925171 603.170044
1055.898560 1817.482666 311.162506
1134.526245 1856.207642 327.033295
984.797485 1872.025757 361.289368
913.172974 1864.663330 528.245239
1210.647217 1874.941040 355.419128
1110.710938 1809.575317 330.436951
797.633789 1874.163696 553.146484
1212.128296 2009.937134 355.647278
1147.803101 2046.733154 319.559326
1156.109497 1787.410767 409.018372
1046.787720 1869.474243 446.148285
1121.290894 1862.474609 306.117920
1199.347046 1913.340698 356.217957
918.349121 1865.589355 418.883881
1057.217041 1890.599854 685.322388
940.195129 1870.747437 345.332520
1271.785278 1937.844238 444.205353
955.842285 1918.466797 750.952698
1223.975708 1845.623413 507.380432
1052.173096 1792.499268 535.687256
1246.787354 1913.572021 422.164154
1217.989014 1842.115845 543.763123
1163.528442 1998.657104 329.674988
1045.534912 1793.429810 529.461060
1121.487549 2092.386719 293.313293
1152.249146 1827.110840 434.701233
1078.861694 1809.002197 299.649109
1074.250244 1820.588257 600.823425
1087.086914 1796.081055 457.455597
1071.953491 2009.199463 257.672424
1015.969177 1809.661743 534.899597
970.348267 1846.976318 436.829681
844.659668 1881.395996 585.610779
1102.438354 1849.809204 308.468781
1109.919678 2137.089844 288.025238
1227.531006 1849.328857 548.446289
993.619080 1822.284058 524.782104
1228.345825 1901.993408 404.936646
1065.509155 1941.806763 272.489960
927.672119 1853.703979 441.918152
984.220459 1800.441162 591.400574
1134.936035 2051.943604 315.112579
1100.803955 1811.364624 509.895599
783.848328 1881.431519 531.777954
1101.008545 1798.738647 393.947632
959.338989 1851.930176 471.729370
756.100525 1877.194702 512.607361
1177.092407 1840.534180 470.618469
1077.759644 2103.956787 244.744293
1077.987549 1916.364990 263.667908
1119.060181 1789.637451 350.479950
1171.698975 1836.913818 458.275116
971.342957 1867.495972 235.613037
1019.785522 1804.781860 603.880493
945.670349 1803.457520 697.465454
1031.878052 1816.213257 634.563171
1023.828796 1838.479004 451.502136
1194.825073 1920.176880 352.618591
1276.907349 1871.113647 474.250916
1031.883057 1839.296753 709.947693
1061.031372 2050.940918 217.233597
984.465027 1856.634277 274.015289
1202.833008 1821.397705 526.741577
1033.460083 1796.563965 571.254333
1070.509766 2109.470703 253.715317
935.127380 1870.328613 406.151733
1066.126709 1814.713135 313.942413
948.111206 1866.642944 369.175934
884.121704 1872.239868 428.213531
1080.647339 1889.510742 272.907654
1032.118286 1819.723633 388.038605
1199.919800 1836.689453 363.338409
1013.119751 1853.107422 253.795898
1153.292236 2069.623535 305.987823
1187.190674 1828.435181 343.715088
969.895813 1838.260498 490.838348
1109.626221 1789.961914 368.741852
1009.160828 1834.733154 421.437225
990.055908 1837.591553 459.561157
824.077759 1879.847290 526.350403
943.082642 1850.095947 556.630554
1046.842773 1816.446411 368.609650
978.609375 1810.207153 595.766541
975.167847 1826.219238 714.937927
1089.737427 1801.184692 359.285126
1125.731445 1797.130981 331.441956
1171.745605 2010.712646 338.539368
969.794800 1847.428345 445.555603
897.289673 1869.383911 469.080994
1069.523926 1790.230835 391.943817
1235.650391 1921.012329 394.046692
1066.534912 1822.267090 297.111694
984.959473 1832.156128 475.941010
967.051697 1845.045044 464.915771
984.010925 1796.928955 669.651611
1077.302979 2083.924072 258.549622
1109.384399 1790.824097 471.554413
1232.317627 1886.336914 452.685577
892.635193 1851.608643 563.271973
1119.861816 1872.276611 308.490631
1176.370605 1838.262939 478.801819
1253.052124 1882.011108 460.044678
1041.107300 1809.858154 360.963287
866.876648 1866.888794 513.275085
1067.118774 1813.927124 457.524445
989.080750 1798.944824 608.822937
1111.926392 1784.252563 459.216736
1129.851440 1845.122070 331.064362
1147.519531 1787.200684 391.634125
1248.625977 1916.591919 377.018860
1048.916626 1860.077026 646.381409
1042.406006 1830.714478 268.339203
1173.985229 1803.229248 390.743439
1048.691772 1790.502563 568.212585
1014.225647 1897.757690 222.467270
818.294739 1898.914185 546.211182
1046.369629 1821.988770 359.122040
1082.048340 1796.038086 496.732788
1015.281677 1804.729126 677.596619
1050.333984 1944.338379 240.696320
891.725586 1809.802856 699.444763
959.502136 1881.850830 394.080658
1114.325806 1786.682251 447.296783
993.174866 1871.130737 253.349670
1231.718506 1880.622925 484.728271
963.495972 1841.746704 501.243622
1071.663452 1822.545898 337.412598
972.593872 1848.192505 474.162506
1082.337524 1797.192993 446.756012
1243.852539 1920.946289 398.562256
1217.347168 1857.515625 369.940460
1219.929565 1845.663818 359.382660
823.838318 1854.283936 585.543884
938.039490 1873.876343 324.225464
1001.795959 1789.482666 581.143555
1276.155640 1863.613403 464.711243
907.859070 1856.890381 488.598419
1078.227539 2050.968506 260.902161
1141.067505 1941.290161 319.799469
1237.778687 1945.487549 385.369263
925.396301 1847.890381 600.865906
1056.963135 1923.183472 250.587296
946.959473 1805.089966 699.379700
1196.648926 2023.459229 355.582794
1065.941895 1834.315430 603.110779
1273.597778 1915.649414 449.814850
1040.690430 1804.296631 623.465820
984.681641 1889.958862 754.743774
929.648926 1868.049072 728.858765
