ply
format ascii 1.0
element vertex 1360
property float x
property float y
property float z
end_header
-826.128967 586.517029 1993.270386
-1022.254211 477.020325 1848.418457
-815.778320 604.921936 2002.182739
-892.616821 465.154236 1868.788696
-753.674011 346.949341 1968.874023
-840.861572 637.081726 2041.391235
-951.978027 619.632263 2014.640503
-854.581177 660.930786 2054.281250
-882.909790 263.846344 1892.088989
-779.793030 499.388550 1988.285645
-755.284363 499.783722 1964.131470
-745.062805 509.730621 1966.720337
-895.361633 282.222321 1890.403076
-740.326782 406.865753 1970.623779
-893.585449 578.924866 1881.759277
-751.156799 491.266815 1959.062866
-916.018311 425.881622 1867.400391
-985.653381 556.665588 1965.962891
-1021.058777 424.161865 1835.354370
-815.877625 175.584778 1930.011353
-1026.124268 546.602600 1986.877563
-992.498108 391.361847 1840.425415
-688.282654 417.332306 2007.252319
-813.254395 362.265167 1941.749512
-820.623535 215.864594 1922.857056
-801.958252 520.201172 1992.472900
-894.141296 570.933594 2035.744751
-887.733643 545.672119 1868.841919
-1127.538818 474.175079 2076.525146
-915.597839 524.184570 1860.321045
-740.321777 281.087952 2228.717041
-874.302856 410.453186 1907.131470
-783.927002 220.031418 1970.460327
-718.311279 350.959106 1998.357056
-969.200378 412.211243 1852.461426
-877.470764 249.327576 1903.145020
-1075.595581 450.528900 1879.931274
-847.708862 583.081177 1964.018799
-929.987854 501.679810 1845.637695
-813.861023 527.803589 1938.116577
-1026.424316 528.556030 1948.226929
-1039.630249 552.908813 2000.105103
-855.687256 346.056519 1919.857056
-860.102722 577.590393 1928.178955
-643.032227 390.913849 2042.437378
-953.630005 540.089905 1863.867920
-1072.451904 466.636108 1937.968262
-879.174255 234.145294 1897.911133
-1028.838501 510.571960 1913.380249
-808.838928 608.762146 2001.097412
-1054.676025 518.652100 1987.080322
-1108.229736 466.919891 1973.350098
-806.747192 263.537201 1966.758789
-944.412720 433.220917 1844.866211
-707.304321 442.871216 2023.316162
-988.130249 470.353577 1830.120972
-1035.771729 601.271301 2093.333008
-891.970947 569.755188 1873.745239
-913.854370 419.293396 1877.426270
-718.843445 280.907013 1988.619995
-943.088074 504.501465 1838.287842
-767.839050 466.685638 1941.833740
-937.275208 414.781006 1937.086914
-1056.586670 540.983582 2034.989990
-812.012634 250.996124 1937.231079
-1084.481689 434.568817 1845.502319
-1020.453857 544.764954 1971.617798
-732.519409 170.604385 1995.334595
-999.972046 556.874756 1942.710327
-892.516663 345.924866 1899.780762
-1010.745300 376.742157 1824.736206
-684.158386 353.287537 1985.601563
-807.609253 412.679230 1934.351074
-1113.500000 450.199371 1969.425171
-803.865662 347.627502 1937.319214
-1045.409058 429.864594 1800.750366
-1042.617065 526.285767 1954.543945
-851.839294 633.415344 2036.641235
-1112.359619 476.953461 2021.895996
-969.741516 461.640778 1836.743774
-955.007080 626.220703 1950.148071
-934.713989 458.378448 1845.330811
-1006.051208 468.552032 1822.913086
-800.479919 440.432251 1943.923096
-971.878235 538.132141 1843.138062
-1209.572754 442.925751 2063.667480
-755.498840 360.666534 1967.384033
-797.062622 508.789703 1928.244507
-696.042847 268.891907 2140.473389
-952.868286 615.553711 2035.049561
-1103.024170 462.213379 1951.689575
-829.061035 190.669327 1929.666626
-623.406921 372.086487 2084.635986
-629.838135 293.082550 2025.624756
-1102.497559 435.705597 1869.420776
-841.477112 449.538086 1918.206177
-880.915894 258.483185 1903.285034
-932.089539 584.052673 1908.967651
-924.033447 286.692902 1875.523438
-766.255493 370.880646 1955.746094
-883.807434 589.879822 1882.562378
-814.264771 518.919006 1968.919922
-1075.780151 432.751434 1825.480103
-669.790222 380.313293 2009.817261
-951.658569 589.542419 1913.614746
-937.850098 433.860931 1836.387085
-826.205261 541.593811 1950.865845
-930.908264 615.578186 2000.321777
-787.549377 488.159943 1936.363525
-895.525818 510.694153 1859.738525
-780.666809 166.885101 1944.892456
-954.996765 622.853088 2028.122681
-923.697021 461.935211 1854.447632
-1028.540283 432.809601 1787.669678
-798.215698 509.126190 1945.075439
-865.943665 473.423187 1874.905029
-1086.532715 505.465118 1988.530029
-812.218018 548.857971 1966.029541
-1034.848022 543.883301 2003.032715
-782.999634 415.773987 1950.000732
-913.570618 277.177704 1881.827271
-1063.636841 463.174042 1913.034790
-822.363403 543.548950 1921.888794
-1056.268066 465.346313 1868.790283
-1061.784424 477.747528 1916.222046
-960.079346 636.771179 2003.914551
-1110.376465 461.980408 1947.006226
-1044.990112 528.465576 1957.956787
-913.737549 427.633240 1905.546387
-679.909302 380.649017 2012.158569
-760.417053 486.398926 1981.391235
-947.671936 564.731140 1882.479126
-947.087952 625.652832 2077.588867
-1117.437378 460.961243 2017.409180
-937.896606 627.614807 1949.702881
-807.513428 549.568115 1966.483154
-947.004700 621.435425 1948.239868
-829.929077 267.480164 1932.561035
-892.117798 666.028381 2066.060547
-760.794250 158.862091 1972.980347
-773.759644 419.691345 1949.473511
-932.945068 489.543579 1844.746338
-829.806396 397.164581 1924.266235
-717.936523 449.216919 1963.404663
-837.709656 601.648010 1978.422485
-964.609436 549.337891 1878.838989
-633.611328 321.435852 2009.354614
-1020.914917 646.639771 2075.821533
-687.065735 420.745850 2115.390869
-1047.868042 490.889191 1896.355957
-801.758240 459.784424 1934.747681
-782.323303 607.545959 2027.350342
-747.523010 505.677399 2019.665283
-1067.352417 562.753845 2065.740967
-1094.523926 516.039734 2047.537109
-751.331421 190.601440 1998.118774
-811.676453 373.380280 1938.402100
-996.019348 531.449951 1916.001831
-716.378357 186.143082 1993.355713
-808.749817 451.578033 1943.176147
-905.145508 272.938995 1889.604492
-893.558167 662.370056 2060.170654
-907.395020 314.217041 1878.669678
-804.455261 216.106445 1921.971313
-926.808777 619.534485 1978.150513
-1061.960327 535.238525 2033.004761
-780.642456 602.649048 1979.433105
-803.710327 467.566406 1934.025024
-1142.019287 464.414612 2030.937256
-876.028198 256.896240 1898.545410
-911.346008 593.984924 1871.064697
-750.141357 349.814453 1966.501465
-790.872559 164.424271 1950.283081
-1119.051147 453.272369 1976.437988
-1006.569580 599.890808 2034.134155
-846.472290 532.402832 1891.653442
-797.627319 467.417786 1935.342896
-695.631409 422.610626 2015.919800
-700.984192 272.085358 2156.331787
-1046.187866 543.784424 2022.691772
-718.030762 266.354309 1998.851563
-959.696777 542.809509 1840.647461
-711.637695 452.117828 1964.761353
-870.144531 544.585449 2045.028931
-891.440735 646.890686 2045.239014
-778.303833 619.235779 2034.058960
-1041.906860 550.262817 2056.466797
-849.012878 583.239807 1955.013306
-844.317871 193.557449 1913.843750
-1131.913086 456.214905 2041.328857
-1020.088562 562.656128 2010.559814
-849.868347 578.350220 1927.492188
-911.838318 272.188019 1881.286621
-1047.082153 493.700714 1900.702759
-1125.925293 439.223297 1920.456055
-930.844482 479.632660 1855.885010
-859.113770 444.343506 1913.814453
-664.796021 305.210846 2018.151611
-845.850525 515.901978 1896.532959
-1000.985840 640.449829 2080.558350
-675.868164 303.960571 2007.327881
-899.261841 593.090332 1977.125488
-825.479492 304.482147 1936.388184
-789.523926 290.011719 1954.170898
-807.770996 249.207977 1942.961304
-843.637817 513.069641 1906.628906
-930.503540 511.412231 1855.135742
-993.788269 398.664825 1838.302856
-963.337036 359.411469 1832.824097
-988.888123 570.627380 1950.870239
-916.960571 275.846863 1865.711792
-1020.482666 500.269287 1892.793335
-866.608826 342.324463 1912.409790
-825.551514 231.851425 1929.011963
-770.169067 523.036560 1983.181519
-800.461487 451.951813 1934.335327
-861.697937 589.383911 1893.458496
-1070.266968 517.861023 2013.567993
-1014.398682 435.671906 1832.711060
-1025.642456 478.162964 1820.963135
-928.152710 498.300507 1859.571655
-951.732361 366.316864 1851.468018
-853.348145 555.441650 1886.536621
-832.476135 437.406494 1921.384521
-776.007996 463.120331 1950.381836
-930.674561 543.317383 1849.649658
-679.977783 361.978851 1988.469116
-1014.070496 414.209229 1827.403320
-937.872253 612.503662 2010.682129
-820.809631 431.947632 1926.708252
-825.033813 403.380280 1928.788208
-1039.417358 564.429443 2049.061279
-934.527344 308.618011 1843.882324
-1004.663574 503.981232 1853.117310
-665.352966 368.117798 2000.225342
-895.035217 599.015198 1897.161133
-767.131470 437.314941 1948.072021
-715.136230 302.087982 1988.166138
-820.201965 179.919968 1939.723877
-914.524414 285.317047 1855.538330
-845.744812 658.609131 2049.957031
-840.555054 198.143433 1908.780518
-794.060364 620.285095 1982.167358
-1161.371338 438.927856 2018.485229
-987.264709 624.293274 2057.369385
-888.221436 616.941650 2025.214478
-995.708374 618.671082 2090.453857
-890.586853 367.688599 1906.015869
-791.835510 590.241638 1982.871216
-722.806458 499.824707 2001.924438
-696.950378 410.327179 1998.669189
-639.589722 412.002594 2073.474609
-921.044250 612.365479 1952.891602
-1147.232300 477.362396 2040.559448
-795.963928 624.454224 2006.502808
-675.797424 357.953278 1991.079102
-890.637329 573.074646 2025.291626
-1023.833557 414.548401 1819.750244
-1046.616943 431.267487 1807.495972
-1024.975342 559.530212 2013.338623
-1113.487183 486.668091 2019.418701
-738.129822 389.605347 1976.590942
-854.032532 573.319092 1947.036133
-693.053406 397.458160 1997.046631
-849.967529 591.441162 2009.776855
-695.275940 410.132629 1994.791992
-930.013428 544.172241 1845.318726
-840.834839 606.931702 2026.246948
-1136.631592 425.017456 1974.963379
-941.868713 515.404114 1847.071167
-1016.641418 371.088470 1839.239502
-995.723389 375.605164 1830.244873
-872.925049 383.315002 1914.572998
-751.385925 500.940857 1975.983765
-976.237610 569.778992 1928.736816
-768.475037 316.921417 1954.895142
-1098.649048 502.379852 2024.021851
-781.709106 324.862030 1950.921387
-878.701416 441.510040 1926.441528
-1089.615845 512.790771 2028.812744
-807.877502 635.260925 2036.613647
-662.985962 333.860199 2002.037720
-684.328064 390.881226 1990.156372
-715.298340 470.075745 2050.229492
-768.178711 454.509430 1945.983398
-814.773438 168.374954 1932.207886
-767.233459 167.420303 1955.245361
-829.743103 331.676056 1922.970215
-963.024414 488.181946 1829.277100
-825.997803 386.208008 1926.520142
-931.252258 630.085388 1967.227173
-950.188171 393.196716 1853.786255
-973.675659 623.204956 2032.018433
-878.728882 593.844543 1903.079956
-664.391235 398.702271 2029.598999
-972.358215 574.240601 1963.100220
-942.894226 546.945313 1845.233643
-849.056885 283.944061 1924.754639
-709.127197 275.504395 2002.009277
-774.514526 496.311188 1981.350830
-1075.768433 431.637848 1859.392822
-1025.571899 622.563293 2089.413086
-1052.434570 514.335938 1942.555664
-636.315979 327.070007 2029.721680
-889.765259 572.618408 2013.956299
-1016.933044 496.059784 1904.413452
-767.175354 571.605042 1996.457886
-939.601501 396.159607 1906.822510
-940.731567 476.166595 1849.962769
-1065.213257 520.468140 2038.311279
-919.454468 603.751160 1995.088867
-907.629333 445.059143 1863.326416
-874.477844 667.335022 2037.505005
-855.516479 274.454712 1911.442505
-907.559204 608.866028 1995.674316
-792.901611 426.007568 1949.717407
-945.011536 368.454712 1876.519409
-970.812866 601.185181 1976.260132
-886.554504 462.760132 1870.482056
-940.152466 631.350342 1971.142456
-705.152344 379.681824 1978.804932
-983.836975 347.761597 1837.146362
-798.158447 534.363403 2022.935791
-1020.409546 542.211975 1943.659912
-774.839722 627.999329 1988.583252
-760.812378 469.728760 1946.737427
-945.812561 591.070007 1900.028198
-1024.893921 542.089722 1992.919678
-890.541809 603.602112 2039.459717
-745.846924 216.125717 2006.323730
-1060.429688 432.795227 1830.542847
-881.426147 690.396484 2039.467773
-803.016663 581.702637 1973.804688
-752.669556 466.102631 1947.921265
-809.316406 248.443344 1938.764526
-746.014038 465.974792 2070.630859
-915.112244 632.648621 2043.730957
-850.699341 425.921326 1928.654053
-829.061157 361.221252 1933.902344
-811.011780 314.672943 1932.715332
-649.346375 336.786560 2019.783447
-1030.839111 535.576538 1972.410034
-776.421082 479.974396 1952.249268
-645.029541 376.479828 2020.915039
-956.954224 631.412354 1978.972412
-754.333984 654.216125 2010.848145
-839.232849 557.288025 1910.644531
-926.658264 438.576508 1840.368652
-1031.968628 534.243408 1969.710205
-640.213562 299.435211 2008.819702
-829.774902 347.018250 1927.699951
-767.758057 479.711670 1945.148560
-820.228943 258.665924 1932.677368
-820.596130 416.043213 1927.636719
-909.961121 592.199951 1881.109375
-800.799377 401.080505 1940.392944
-876.661499 460.718842 1894.161865
-801.196411 570.328186 1966.601440
-999.091919 390.757690 1838.867065
-640.513245 393.644196 2069.068115
-974.300110 527.989685 1843.694092
-802.544067 628.028015 2005.273438
-846.262756 638.637329 2038.904419
-784.917114 406.532379 1948.124146
-1081.211914 471.071106 1963.017700
-1085.101685 439.578247 1875.025757
-910.618347 284.179626 1887.780518
-947.300720 632.785645 1948.735718
-804.507751 189.961273 1895.020020
-1026.851929 503.045929 1895.591919
-903.821228 593.192932 1982.758423
-887.257141 552.101257 1862.791016
-719.558594 439.455750 1964.746826
-938.439331 376.720825 1880.316406
-875.523254 538.051636 1880.945557
-921.753235 570.108459 1853.064941
-936.424072 539.633240 1850.929688
-947.733826 610.525208 2027.935425
-767.408569 628.352661 1996.539307
-1135.390015 449.722046 1988.237671
-922.545532 589.713318 1875.744263
-759.260864 187.465927 1970.585327
-745.848145 441.267883 1959.191895
-1033.945313 532.744385 1975.270142
-866.856140 570.409912 1900.111328
-954.312012 560.433899 1921.215820
-1057.682983 444.324799 1803.087158
-1125.581177 456.670959 1980.216919
-803.202759 322.804962 1937.368286
-864.097961 581.125854 1962.202881
-816.973206 436.902130 1928.347412
-971.696472 633.129089 2005.244751
-722.878601 428.487213 1969.378540
-817.045776 409.155518 1933.196411
-1069.145264 549.086182 2071.377197
-854.268433 384.193634 1912.384766
-775.360291 505.110138 1956.327393
-830.940125 621.357483 2076.424805
-928.414673 524.181763 1842.990845
-804.962341 383.450958 1942.981812
-907.335144 614.407959 1885.779053
-1070.839478 475.608459 1918.954834
-1003.171265 381.077728 1826.430298
-815.212341 560.651489 1968.292969
-889.374084 302.156891 1884.380859
-1042.980469 586.107788 2068.604492
-851.093140 501.438660 1892.756470
-880.125427 551.684265 1881.417480
-836.188965 184.059250 1943.850708
-1088.416504 526.860962 2060.579590
-899.220703 668.615479 2053.669922
-712.254700 462.110535 2003.091309
-642.644165 343.825470 2024.415405
-745.930420 367.836060 1979.760132
-906.993713 561.033630 1855.068359
-978.351746 478.034424 1823.763794
-949.245178 368.363861 1855.246582
-843.872620 287.422760 1930.953369
-1099.503296 487.304413 1996.031616
-952.515991 418.646606 1841.528809
-906.030273 425.526581 1866.682983
-747.173950 424.016571 1965.442505
-994.227356 461.747589 1818.382324
-937.140686 376.566162 1862.151367
-762.185608 469.999786 1948.311768
-835.791199 533.586426 1908.878540
-744.542297 334.992554 1967.525391
-774.812195 412.971130 1956.614990
-1013.065308 605.453735 2053.697510
-845.267639 561.880188 1903.609985
-896.321777 266.144562 1889.147217
-1073.320068 436.091309 1860.337524
-795.945129 571.049316 1969.694580
-864.219299 325.302429 1916.243286
-705.893311 378.247009 1977.120605
-794.432739 510.909302 1934.062988
-802.036865 614.071594 1986.379272
-1040.045410 529.860901 1952.221436
-724.799866 201.517609 1979.146729
-1168.507690 446.033844 2009.986206
-821.663269 471.723633 1938.625977
-716.242981 277.915558 1994.967773
-812.555603 589.915894 1979.075195
-918.882324 603.106079 1908.149414
-854.426697 567.391907 1990.595825
-902.404602 334.940979 1888.018188
-880.802368 596.799255 1902.154663
-749.897583 419.634216 1962.620972
-977.864685 471.613434 1822.096802
-1010.387573 456.333679 1822.567383
-840.084167 551.466614 1935.159912
-953.670410 431.867432 1855.157715
-754.431824 498.334320 1949.810303
-961.990845 482.587097 1833.403564
-1054.187012 439.209167 1819.371338
-817.954590 262.354401 1952.603882
-885.728149 437.284607 1882.970703
-918.134338 639.112549 1924.171997
-1036.333130 540.860840 1992.470093
-882.510864 472.703278 1873.274902
-996.391846 352.733643 1846.825073
-928.272278 316.425262 1872.316528
-913.121948 593.789490 1883.071533
-650.340210 373.894958 2050.585205
-935.501038 548.372498 1866.378174
-652.926819 254.321640 2012.951416
-891.234802 580.368774 1884.113892
-1006.107239 452.836151 1820.462280
-865.853699 503.968048 1886.089844
-994.310852 531.117981 1908.068848
-638.581909 411.467194 2048.536133
-659.889648 352.444824 2026.499512
-1007.433289 557.330383 1955.569824
-978.191650 523.199463 1861.707886
-801.531311 203.902588 1925.220947
-840.625000 501.053101 1913.450073
-919.926392 337.480621 1877.417114
-937.713623 512.947937 1838.585083
-1109.789185 437.322388 1913.526367
-1060.466553 417.747559 1817.221069
-889.850159 476.301727 1878.074829
-736.870239 250.634094 1980.521973
-783.261047 494.817017 1937.043213
-658.092957 375.222839 2012.586426
-771.508911 476.931641 1939.584839
-859.106567 514.330139 1884.299927
-961.012878 558.713318 1905.243896
-634.981750 299.694946 2081.092041
-890.609924 584.273804 1977.041626
-822.963257 316.338531 1951.814819
-968.570862 433.185303 1838.709106
-849.337524 578.310120 1984.900391
-654.165894 305.507385 2021.363525
-706.319153 216.040329 1994.134766
-878.896301 610.927734 1880.153809
-1052.395142 469.780853 1885.405151
-1027.903564 391.579895 1823.910156
-818.346741 589.464539 1965.192993
-806.131104 274.684753 1938.968872
-996.276428 361.191467 1832.217407
-878.033813 236.779556 1885.641602
-880.466675 267.982727 1868.969360
-785.333252 143.073196 1954.528564
-789.757996 627.419678 2010.952148
-830.990967 536.216980 1936.536133
-930.683105 509.515350 1861.695313
-923.982849 378.591583 1889.129639
-892.101990 632.133057 2028.063477
-903.119812 317.957153 1878.787842
-636.899048 384.203217 2076.513184
-761.374756 509.496674 1971.923950
-1072.665527 418.227722 1844.104492
-1003.569092 374.901672 1846.220703
-1034.235229 464.296509 1867.398804
-876.161926 332.354675 1909.766602
-1001.636353 468.103546 1840.661865
-776.719910 461.110413 1947.764893
-861.483521 582.549988 1909.340454
-843.449280 492.191010 1903.677612
-972.041199 517.700439 1857.684937
-841.230286 521.325745 1893.436890
-789.419800 451.629333 1939.743652
-935.346008 328.951324 1863.324829
-923.115051 332.661285 1871.200439
-788.930420 155.686142 1946.029419
-963.250061 401.737274 1845.779053
-702.734009 446.826355 2026.120605
-792.230225 230.075714 1973.543701
-925.119507 376.291138 1915.325195
-790.305359 587.620850 1978.415771
-1003.501953 579.051941 2019.523682
-991.135925 443.461884 1826.235352
-913.950134 615.214355 1974.856934
-832.013245 182.852737 1928.397949
-936.429565 639.423828 2029.639893
-807.419006 572.980225 1975.579712
-779.190735 630.711792 1994.708130
-973.731384 545.181396 1903.895752
-966.554993 456.997833 1835.686157
-895.887207 503.925842 1858.599731
-666.478760 418.752838 2064.017822
-782.894653 641.282532 1991.825195
-751.998108 471.980804 1949.455444
-917.677490 647.891907 2062.040771
-1065.533691 483.248413 1960.046021
-958.098816 506.440033 1837.509277
-843.229187 566.715881 1990.776001
-837.292419 354.681793 1923.555176
-1091.981201 450.874878 1914.858032
-992.316711 362.150543 1844.286865
-784.059631 602.886719 2028.835571
-968.359131 626.575256 2054.849854
-1024.016724 590.415344 2068.968994
-925.386841 468.466492 1852.828369
-820.079590 530.162842 1973.149780
-740.096680 440.091187 1967.209717
-883.734375 596.163025 1882.161011
-991.678284 637.819946 2011.892944
-714.804382 450.831116 1971.717896
-905.830811 440.479980 1935.556885
-854.360779 209.286896 1923.136353
-854.030212 667.626892 2045.078247
-750.145630 302.850159 1973.080566
-807.138550 198.710876 1945.453979
-650.165710 362.037170 2022.998047
-812.389587 558.917236 1967.359253
-852.028809 275.156586 1920.040894
-873.918030 558.879395 1880.994507
-812.494873 367.363464 1938.351685
-987.997559 528.749084 1886.874146
-1025.425049 440.562195 1820.654297
-715.345215 286.772095 2195.417480
-997.030396 515.109436 1875.135742
-833.753601 556.337402 1907.571411
-685.959717 431.834869 2013.402100
-1027.411255 391.417633 1831.296143
-653.813477 405.633453 2036.008667
-855.713379 575.274841 2009.500610
-871.486694 574.405579 1881.618530
-836.015442 525.341064 1907.348389
-928.404907 605.534119 2016.109009
-892.793640 460.817749 1870.312256
-701.840271 261.160553 1997.281372
-868.199768 549.480103 1886.525879
-991.237366 537.737000 1908.222290
-892.838501 325.779724 1888.912476
-1013.514771 568.725525 2009.241211
-1113.495972 503.715576 2060.039551
-762.835388 488.430542 1955.619995
-912.531372 600.175293 2004.694092
-820.417297 617.104004 1985.165283
-945.409729 415.050262 1844.415283
-781.736511 622.390442 2006.243896
-705.268005 426.980072 2091.994629
-911.312073 618.589905 1931.102905
-822.371643 493.370575 1925.432129
-966.739746 361.575562 1854.199097
-750.975098 416.125275 1962.647217
-924.238647 634.353516 1977.420776
-719.317017 421.887787 1973.694336
-880.964722 536.187988 1887.644043
-891.625610 252.875015 1878.822388
-837.102539 566.041870 1919.747070
-1088.145020 454.307495 1940.626709
-711.340149 220.179886 1990.591553
-743.922119 299.786804 1971.244385
-901.101990 505.155609 1871.585327
-969.392151 340.170532 1832.852661
-895.473206 602.875000 1962.845581
-935.946167 586.262695 1917.557129
-802.060486 589.347290 1981.866455
-805.269043 565.377563 1980.990967
-941.405762 567.462097 1864.835693
-803.899841 206.765503 1924.061890
-816.689392 530.224182 1926.182861
-954.109009 489.347992 1833.257446
-981.569031 599.348938 1992.415527
-840.614746 556.593140 1914.922485
-908.172913 497.202179 1857.404541
-760.544678 483.048096 1950.176025
-950.727905 613.324890 1940.437744
-1039.000366 518.794922 1952.438965
-750.444946 339.278137 1966.683228
-623.307251 299.140350 2019.669678
-796.745850 193.390823 1937.588013
-1010.805847 435.471436 1837.436035
-678.564636 402.523102 2018.315918
-764.045410 160.184967 1956.287842
-651.526978 352.383392 2017.966187
-965.825195 581.190552 1950.743530
-984.918213 578.135071 1980.919067
-1083.532349 453.384277 1899.031616
-899.420959 639.671570 2043.396484
-904.755676 481.152161 1869.814819
-796.940369 256.794220 1948.164673
-790.044678 494.122101 1931.828613
-657.322388 408.066284 2027.764648
-953.013062 414.028259 1850.515747
-893.684753 361.818512 1908.374756
-964.976563 452.415070 1836.854126
-931.956299 368.732941 1869.783447
-992.549133 616.516541 2013.359619
-920.867065 523.032898 1850.512573
-1031.423950 485.588196 1842.337524
-650.031372 348.158691 1999.317261
-1025.560181 453.935150 1820.314209
-975.546448 559.240173 1932.446289
-859.018127 280.056824 1914.343384
-1114.339355 487.733673 2076.294678
-823.429077 572.256348 1965.509033
-728.279419 467.808533 2021.945801
-814.827209 538.808716 1919.225952
-1048.601563 501.118866 1910.495239
-724.687866 467.707489 1987.831299
-1081.859497 509.031219 2006.351440
-776.514404 422.661804 1961.056030
-1195.993774 447.856750 2029.504395
-1008.627197 478.050507 1835.901245
-739.940125 476.515198 2080.882813
-894.169067 525.653870 1880.494019
-812.522644 466.149170 1926.669434
-1166.398926 466.325470 2043.439453
-843.686707 343.101074 1915.402100
-1102.603271 502.830292 2038.902954
-772.507019 645.724121 2002.940308
-733.447937 465.298828 1964.954712
-901.662231 444.938873 1869.437500
-784.950562 315.971100 1967.058960
-808.087646 551.319824 1987.233276
-829.098267 532.434326 1915.759399
-936.133850 484.107727 1853.412109
-1101.039673 539.123718 2077.273926
-933.175964 308.074249 1870.884644
-791.073364 634.504944 2016.156006
-1015.546509 553.347717 2001.208252
-928.732666 344.095001 1871.032471
-985.738586 576.083069 1969.999512
-655.783203 418.764771 2045.018677
-921.495789 563.853455 1854.751587
-1007.289673 518.788513 1930.450562
-1036.360962 506.116821 1935.276123
-743.389404 404.156647 1978.425781
-1047.796387 539.486145 1985.966919
-859.314392 547.318176 1888.989624
-853.534119 230.557770 1910.493652
-918.760010 509.511749 1854.178711
-863.173218 631.696045 2051.906250
-821.467957 540.997925 1932.122437
-937.167603 548.944824 1858.491943
-979.427368 548.256958 1909.649902
-885.857239 624.412476 1889.931274
-677.948547 362.792389 1991.417114
-1000.024109 377.201508 1821.962280
-879.880859 683.561890 2041.658691
-945.586243 620.975281 2040.334229
-1028.666260 534.812256 1947.640869
-1123.281982 443.747101 1961.094116
-1025.003052 459.491943 1820.029541
-1007.085571 638.181396 2032.573730
-1065.404663 431.041382 1821.397217
-1048.670654 527.184998 1993.484497
-657.499634 367.334503 2008.284668
-810.725220 584.544556 1972.523193
-883.299133 599.663574 1885.478638
-1015.317749 637.642212 2063.652344
-1036.009399 495.110840 1873.921753
-629.990845 319.218750 2023.569580
-851.808777 295.058014 1921.054077
-1007.885376 447.196625 1815.633911
-885.227844 490.983521 1870.843506
-882.203308 464.765442 1875.596069
-672.435181 410.973541 2092.159180
-1077.450439 460.825684 1909.590820
-1038.902344 412.476898 1823.770752
-945.422607 629.337036 1940.770020
-1044.510498 471.748383 1805.154297
-929.950989 637.028992 2098.823730
-959.932678 545.923767 1866.677612
-845.526978 585.507385 1956.045166
-930.711609 351.314606 1877.894409
-966.627747 471.562469 1829.405273
-1028.107422 433.436981 1818.445801
-971.886230 526.818665 1860.616943
-1058.449341 435.970978 1835.962280
-802.810486 349.539825 1952.915527
-1024.662964 511.390106 1906.511963
-1123.435425 487.604034 2044.166382
-884.114441 670.687134 2052.600098
-953.778564 510.213043 1853.111938
-809.966919 462.599945 1932.182617
-912.149109 312.043640 1879.793579
-897.333252 522.355774 1859.826416
-931.660339 302.569794 1878.884399
-787.923889 639.316406 2017.357666
-1028.041016 479.412140 1847.562256
-837.288818 499.460602 1903.047241
-1072.546631 511.577820 1976.633911
-1098.340698 486.413544 1986.389404
-951.416016 599.908691 1941.257935
-993.511841 554.875427 1941.684082
-924.649841 386.558105 1897.817017
-1103.465454 490.299438 2004.721680
-714.371582 443.067139 1972.010620
-860.713928 407.632385 1913.036499
-897.072205 596.292480 2025.386719
-914.696838 444.208130 1869.312988
-627.570374 398.854736 2040.118408
-1029.824951 482.133087 1863.943359
-929.264343 392.361084 1885.753906
-867.634033 536.825378 1887.143066
-875.210632 559.921021 1882.311035
-801.978821 205.199738 1944.750854
-841.584167 679.407043 2031.169312
-756.734070 169.031708 1960.713745
-917.676086 657.851624 2090.452393
-1008.187378 581.134338 2021.880615
-1003.755554 440.812622 1819.225342
-648.862488 348.754517 2005.145630
-712.480652 457.690491 1980.898193
-1061.630981 429.713776 1802.977417
-996.818054 628.781433 2035.323364
-1012.182922 560.374207 1989.629883
-800.470825 221.092010 1949.416504
-687.506836 389.417023 1996.412109
-860.010681 548.644470 1891.822021
-814.877380 588.019592 1968.895996
-1083.187012 535.264526 2038.681152
-887.619019 605.217102 1885.016357
-881.062012 562.226624 1869.271606
-920.506775 572.515442 1868.261841
-679.763977 263.261047 2090.794434
-750.740784 150.761139 1976.964966
-671.749573 286.190674 2000.351929
-1020.579041 528.539490 1922.995972
-911.478760 653.099915 2067.614990
-896.936340 582.484619 2008.244385
-645.680603 334.218506 2007.702271
-614.326599 381.590881 2093.945313
-889.803162 262.005890 1907.876587
-832.159851 336.837982 1927.027954
-920.380737 576.983459 1881.674194
-935.417542 627.604675 1965.022949
-687.190491 420.684509 2024.991089
-875.262268 579.700989 1954.869385
-710.685181 213.289627 1987.794434
-922.345398 480.064728 1849.532837
-864.395325 553.443298 1982.346191
-806.055359 517.156677 1984.491699
-917.270020 629.415039 2048.397461
-854.599915 470.545441 1902.884033
-769.117981 193.054016 1955.085205
-726.517700 489.835266 2001.202637
-897.762451 322.668671 1907.820313
-801.376648 550.238647 1979.067383
-805.104126 430.962708 1952.193726
-741.962463 505.026062 2061.272949
-962.455139 466.107788 1831.806152
-822.384033 322.884369 1931.772339
-900.246033 304.122498 1897.988647
-708.072205 221.811142 2007.302734
-925.243103 363.082397 1891.970093
-882.940430 625.896118 2037.744141
-898.110718 505.967194 1858.893799
-625.087952 362.343811 2090.447998
-1023.107422 574.767944 2044.932617
-814.168274 617.391907 2027.217407
-805.574097 284.074310 1945.000000
-932.625305 617.891418 1958.040161
-978.176208 541.103210 1900.358276
-878.094543 566.927307 1876.634888
-765.561340 370.312653 1959.027588
-972.448242 633.100281 1991.946899
-978.742065 627.876953 2058.180908
-886.262512 262.505920 1866.263916
-964.639160 492.787079 1828.524658
-941.631897 448.289734 1843.092529
-1128.960083 433.708344 1960.184448
-859.431763 597.827881 1896.911499
-734.820923 473.469299 1994.095093
-1073.773560 427.683228 1850.471558
-909.634827 463.970184 1856.484497
-859.580933 214.797836 1895.100464
-760.353943 206.475479 1999.144043
-645.469666 402.939178 2040.369263
-736.693604 332.364105 1978.185791
-648.945923 294.241241 2012.645264
-667.134277 363.112671 2019.039551
-995.904297 393.597198 1820.636963
-911.232910 371.837921 1897.437988
-894.468384 470.953796 1871.001831
-684.944458 406.163391 2006.422974
-932.720276 399.200745 1879.955566
-937.105408 553.794312 1860.739014
-915.313110 279.738281 1887.918457
-877.534241 238.818817 1880.895874
-621.851746 339.173767 2038.016968
-849.630432 282.112183 1919.667603
-901.116089 500.768799 1859.685181
-1007.525330 474.104004 1825.661621
-707.825928 363.906342 1988.082153
-886.839539 299.699158 1891.886353
-920.496582 545.445068 1851.535889
-837.586975 503.615387 1907.653809
-617.071960 333.094360 2067.100586
-1033.638306 575.151733 2058.114746
-1074.923828 444.363403 1885.760864
-918.767029 528.064209 1851.453979
-1109.943237 444.678925 1966.022583
-936.385559 533.870239 1843.890015
-932.544556 615.178711 2003.700562
-791.623352 229.890808 1946.936523
-798.211121 264.394257 1936.780151
-884.356140 506.170563 1866.073975
-823.166748 330.138977 1934.178833
-992.376465 603.526978 2011.262573
-684.713745 305.114655 2181.016357
-817.068359 604.559875 2017.249512
-1024.866333 475.567963 1849.634033
-848.594849 389.503906 1915.195435
-836.253906 547.660034 1897.323853
-746.190369 267.064850 2208.939453
-824.200073 279.179016 1933.433350
-703.407166 392.672546 1978.173706
-792.570313 283.705383 1945.637817
-991.630554 448.710022 1823.222656
-1000.740173 559.678894 1965.900513
-912.454224 589.226746 1876.882202
-1007.781250 640.366577 2066.037354
-883.686340 594.521301 1917.196045
-678.081055 251.397568 2068.859131
-946.470337 367.669678 1857.505737
-775.031677 666.673340 2008.493774
-1023.922241 381.208740 1833.899780
-752.084167 451.753326 1959.814209
-812.799744 520.933777 1949.858765
-802.212280 332.668182 1946.573120
-791.104004 544.028015 2011.065063
-955.039307 328.549957 1842.006592
-865.782410 551.143250 1877.438232
-1026.113037 462.352081 1844.113037
-697.129578 458.728455 1995.725586
-889.600159 307.183380 1888.082397
-951.013550 523.347473 1831.786865
-1001.804443 633.383301 2055.528564
-933.768982 626.281860 1993.486816
-752.723022 356.114075 1967.965454
-1086.471069 493.894714 1986.094604
-722.165649 436.984589 1963.674194
-1009.467651 404.084778 1828.200684
-788.712891 645.708008 2033.583374
-1022.840942 588.230347 2062.341309
-776.445313 628.609131 1993.149048
-966.479187 628.841248 1985.070435
-1036.450073 594.416687 2080.373779
-844.623962 446.491333 1917.285522
-924.201355 498.232666 1857.981689
-965.375977 576.691589 1952.120728
-861.684387 213.037064 1906.800415
-662.580200 388.143585 2004.285400
-794.077271 567.027527 1969.145630
-943.376587 541.348938 1842.370483
-720.433960 475.578491 1981.263794
-1084.328003 517.865845 2028.803833
-850.205872 434.767700 1907.734863
-996.720886 501.306427 1881.322876
-1104.354004 435.941010 1883.108521
-934.532532 303.803162 1851.080078
-894.880310 599.828064 2035.785278
-1099.681519 498.586761 2015.773804
-779.661926 491.563263 1944.231689
-953.226074 566.831726 1905.842163
-678.661255 389.954590 2003.088501
-790.464417 511.070740 1960.963257
-822.311279 606.336548 2007.791626
-677.830444 272.191040 1985.513672
-963.462097 467.191406 1839.217163
-864.160706 495.779938 1883.123169
-994.140442 630.512634 2053.063965
-996.864136 393.570404 1830.266602
-1025.614136 553.642883 2021.628662
-815.674805 538.149048 1968.075806
-1192.774902 436.398712 2059.623535
-713.881104 274.934235 1995.896606
-705.876221 342.737427 1998.577637
-936.126709 513.159424 1853.028687
-841.066345 619.938416 2041.817993
-758.669800 506.412720 1969.120728
-828.459351 341.271790 1930.048828
-867.574158 570.977966 1879.470215
-940.483032 574.050049 1909.268433
-1046.630005 409.278687 1814.634155
-767.820557 385.219116 1959.662476
-871.984985 602.946167 2048.162109
-1093.721313 455.744293 1874.673218
-662.906250 281.498627 2008.936035
-843.599060 548.010010 1896.344849
-685.832703 397.760712 2000.191162
-875.161804 685.341003 2036.750854
-994.335022 370.069916 1827.809326
-946.459839 533.808838 1839.106689
-948.694458 460.672913 1845.209473
-903.376038 320.439026 1879.939453
-952.108337 525.870422 1858.482178
-972.399109 578.577454 1973.955933
-873.479492 581.214722 1884.395264
-892.904602 289.005310 1892.344971
-1031.146362 561.980469 2026.356689
-667.601196 373.012329 2002.397095
-896.749207 307.010010 1888.345947
-1137.343140 440.350281 1946.539307
-904.614807 643.695068 2046.776611
-1013.779480 498.493073 1877.596924
-1125.616577 461.639099 1971.334961
-644.618652 407.330383 2036.610474
-977.775513 437.634125 1833.169312
-812.736084 266.873627 1948.865112
-834.612976 583.272705 2017.963989
-938.809204 619.878540 1934.400024
-885.634949 355.931854 1906.801758
-864.584717 621.172241 2050.722412
-770.452393 491.831421 1940.313232
-1109.687500 514.780518 2044.576172
-982.605286 506.029175 1824.216309
-640.671570 263.737335 2015.864014
-1031.348877 464.824615 1842.219238
-892.201416 603.290771 1900.680542
-988.613953 634.486389 2028.120483
-1160.333008 438.014465 2065.382813
-1018.699707 546.204407 2004.079956
-972.256104 537.387817 1876.487427
-1053.556763 468.278900 1873.099609
-1049.502686 464.827301 1862.855103
-1010.011780 592.149536 2038.310791
-643.199280 386.387421 2052.361572
-764.292603 506.954163 2024.411255
-798.578064 514.255554 1987.785889
-676.432800 356.626404 2002.768921
-743.099731 482.058044 1957.630615
-956.602783 476.935394 1843.532959
-763.564087 435.984314 1963.352173
-858.629456 483.988495 1908.523438
-955.637512 633.194885 1934.585571
-879.274536 538.532898 1877.982910
-954.903259 636.347107 2007.233643
-855.800415 659.538391 2042.377319
-714.932068 333.166382 1988.713745
-624.813110 296.324524 2037.916260
-826.663696 471.498566 1932.418213
-884.125061 492.603424 1872.461426
-805.152344 579.670532 1979.448608
-685.127136 423.767151 2075.330078
-691.764954 328.780426 1995.321655
-1016.701477 572.744080 2019.343628
-1039.972900 505.187653 1959.987671
-685.716797 309.118195 1992.069946
-865.141052 371.845032 1927.803101
-816.270813 521.566101 1911.579590
-878.817078 658.157776 2044.527832
-891.600403 621.389709 1927.216431
-974.549988 428.484192 1833.181030
-985.622437 348.104889 1846.025391
-703.697083 257.470673 1988.164795
-1037.518311 523.249023 1940.344849
-628.928589 364.184906 2019.949707
-1017.144897 541.086731 1967.122803
-718.749451 264.429169 1996.847534
-877.851990 551.934448 1879.598511
-1007.765930 522.153503 1913.843750
-1115.475586 458.395142 1949.559448
-782.058289 222.583038 1951.149292
-969.493958 636.267273 2031.072388
-1002.074341 602.137207 2028.170776
-927.073669 537.616394 1851.121704
-815.777832 506.076477 1924.976563
-845.035034 403.615112 1920.649414
-925.792480 522.540283 1849.861572
-740.163696 446.245697 1969.052124
-858.239136 657.118591 2041.433594
-818.550964 295.652466 1926.394043
-864.193298 218.234512 1909.259155
-864.902283 409.302887 1913.884888
-785.137085 409.408081 1944.927124
-858.701660 644.839905 2043.101807
-975.902405 429.383667 1835.609131
-1058.099243 558.268127 2071.357910
-933.288208 621.854492 1987.624023
-999.738220 647.871643 2056.457520
-1059.293945 484.716522 1903.969238
-1031.073608 530.406799 1968.321899
-722.489563 459.953735 1974.044067
-847.858582 201.903595 1917.420410
-875.916199 613.443176 1887.218872
-802.177002 458.250946 1942.302246
-1075.857544 514.501221 1987.964355
-770.836121 625.511475 1992.052979
-1077.597534 474.612732 1963.951660
-864.552368 556.016296 1986.700806
-840.117554 214.650696 1924.847168
-947.345215 387.910492 1846.948853
-725.808472 422.548157 1967.783936
-838.730652 347.790741 1938.035889
-948.753357 504.768860 1847.544800
-830.380554 522.560608 1907.549683
-1088.418091 465.498871 1936.450195
-721.894043 479.477539 1992.030884
-993.023987 636.764343 2024.163208
-1026.115112 450.430786 1828.332275
-760.262268 354.037109 1964.198608
-812.862549 504.936249 1920.201050
-765.363586 438.837799 1961.994019
-615.512451 366.616974 2046.275879
-948.586426 633.756958 2023.510010
-852.134644 585.916565 1917.635132
-1047.178467 532.569031 2002.178223
-734.442810 484.071106 1972.547852
-661.135132 409.053223 2036.570801
-913.557129 653.438416 2061.402344
-1010.631836 565.935364 1998.242920
-716.798645 441.539520 2061.614014
-794.320068 222.121094 1948.795044
-724.618591 213.433563 2017.754272
-792.273193 429.209229 1951.585938
-735.167297 328.562164 1988.041626
-773.391357 231.765930 1963.542236
-944.222351 499.401031 1838.596924
-608.595825 397.202026 2052.971924
-844.765015 474.324829 1939.453247
-969.280701 540.579956 1864.431152
-960.000244 454.723663 1834.004272
-1083.625610 535.212952 2063.283447
-904.923584 467.216248 1865.539063
-878.092773 454.720459 1893.466553
-755.835144 447.302460 1952.199219
-829.736633 204.047501 1937.514282
-850.286926 569.455078 1893.493408
-1134.676636 444.690338 1984.405029
-751.742920 629.280396 1996.347900
-1083.659668 423.075989 1852.059082
-753.838806 304.142883 1979.018677
-807.034180 222.383530 1931.196289
-915.650513 542.332825 1866.348145
-650.557800 372.146240 2034.311523
-824.077087 502.038116 1918.405518
-979.063293 610.168274 2087.387939
-791.085938 649.187012 2010.887329
-892.688293 322.737762 1884.005737
-953.318115 414.901459 1857.235352
-761.134277 659.014709 1997.223389
-902.731567 545.976135 1862.187378
-956.621277 512.523865 1837.771606
-1017.613708 581.080261 2046.189941
-970.004944 349.534607 1857.769531
-1044.558228 446.244354 1806.554443
-1072.296509 472.817596 1931.150024
-1082.678345 439.263397 1873.172241
-838.641907 652.525696 2050.520264
-684.785217 399.971375 2003.266479
-686.132385 387.988007 1985.867188
-799.268738 268.630676 1946.560913
-814.356506 606.906189 1993.548706
-978.776855 448.487854 1829.489624
-925.604431 522.714966 1850.899536
-1145.066040 453.338165 1991.339600
-1036.294434 511.834442 1936.267334
-980.032532 642.537109 2009.645630
-909.103882 451.485107 1861.972656
-688.906128 378.033356 1986.581665
-838.129089 510.470001 1905.710571
-902.231384 256.986206 1894.334351
-679.924561 261.181122 2004.994385
-761.238525 401.259369 1960.571167
-745.963989 172.855942 1965.280762
-1160.278198 465.697205 2071.952881
-685.701355 266.328552 2106.565674
-638.717163 342.683716 2019.043457
-801.889587 560.403992 1993.948486
-991.361084 367.273865 1834.753784
-626.478271 391.455048 2074.658936
-978.709412 531.736938 1864.440308
-830.428162 533.412537 1908.499634
-820.675842 561.640564 2035.304199
-944.564697 488.894440 1843.214966
-1044.699585 423.365845 1813.600220
-778.672302 643.000000 2019.338501
-922.688721 278.215668 1882.865845
-785.397095 496.103180 1934.612671
-871.515808 541.569580 1884.407959
-781.295166 617.972656 1993.477783
-873.862122 650.619568 2039.897949
-914.583191 546.814880 1867.956177
-1086.777100 422.436218 1866.478271
-1076.559692 446.670776 1874.759888
-778.750671 328.043060 1952.125244
-779.804138 381.299805 1955.364624
-994.713135 480.645630 1828.297485
-881.467163 584.130188 1877.402466
-685.760742 232.995163 2005.503662
-1083.258545 506.206757 2012.693970
-817.093506 422.408905 1940.367310
-951.641968 556.250549 1859.893066
-799.416748 203.116470 1936.995239
-911.029907 499.298065 1847.729004
-693.941162 438.786041 2042.742188
-881.682434 509.794800 1882.675903
-956.026245 599.783020 1950.062744
-690.543701 442.626892 1995.855957
-878.205811 638.412354 2044.434326
-787.137024 514.754944 1941.688721
-721.529663 408.670654 1970.691040
-878.700500 541.909729 1872.930298
-751.484924 245.152267 1970.353027
-859.664429 653.353882 2047.504028
-954.475098 514.794983 1830.801880
-826.286194 565.341492 1987.252441
-924.930176 484.406006 1850.681519
-785.123169 444.900116 1954.351685
-1019.228943 582.379639 2044.596680
-964.029053 460.832245 1831.927490
-893.973877 621.437317 2028.354370
-935.021790 622.135803 2043.550049
-1015.338257 541.088440 1964.018311
-911.702637 331.021088 1874.885254
-894.466614 576.911560 2001.425171
-1094.949707 431.702301 1879.738037
-818.036682 361.269073 1938.334839
-878.657166 617.388306 1904.832397
-754.186523 427.057068 1958.710571
-747.178833 520.196533 2003.442749
-1085.470093 532.181213 2068.117188
-1020.069885 566.098206 1991.981812
-954.048218 429.067108 1844.190796
-1078.828735 459.615173 1911.177856
-705.050110 237.308960 1991.795654
-883.774536 488.284546 1862.166504
-1131.140259 439.477386 2001.805908
-685.855713 402.895935 2004.064209
-835.133667 344.537170 1942.150757
-877.995667 564.192627 1877.900635
-1007.188904 571.226440 2003.660278
-737.919373 480.926758 1968.255981
-853.578857 241.775620 1907.700928
-959.469543 573.769104 1936.346924
-874.302246 301.575439 1906.923828
-910.094971 529.010498 1863.160522
-790.285828 152.033356 1924.667969
-858.657837 477.482300 1885.921387
-1118.883301 457.661285 1973.273315
-759.118958 497.445221 1997.915649
-771.459839 178.548462 1951.254028
-875.281738 301.464203 1910.544434
-932.626770 515.972046 1845.761353
-965.399353 533.496521 1836.212769
-856.478699 556.849854 1895.084351
-897.252075 265.692902 1864.845947
-780.519531 637.477600 2027.417236
-620.835754 351.648987 2037.884644
-931.560303 508.300171 1846.157227
-922.685547 519.084229 1851.191772
-890.539551 598.101624 1881.189331
-863.731140 500.052765 1886.913086
-969.487732 340.231323 1860.703491
-909.879395 633.556824 2042.619263
-966.933960 622.441650 2019.728149
-930.990845 401.771362 1879.244751
-848.245361 517.836853 1898.410156
-875.495789 609.883423 2032.353882
-1016.307251 394.874695 1818.632568
-1057.684448 568.783997 2060.047363
-972.979431 544.431702 1893.755249
-1020.120056 438.283478 1823.987915
-771.211975 500.703278 1946.797363
-932.956360 640.117981 2071.518066
-792.104797 406.375183 1941.765625
-807.542114 455.661835 1935.571533
-847.994751 480.246887 1917.243164
-784.142151 628.250793 2005.754761
-898.983521 659.530884 2047.197021
-857.579956 437.689758 1923.198120
-703.817383 268.965851 2155.266846
-884.477234 456.929932 1907.095947
-774.106628 644.645996 2019.068726
-656.792725 396.666565 2033.402710
-882.067200 509.871521 1866.924561
-736.033264 405.944031 1964.473145
-821.103760 369.206573 1938.565430
-1022.257507 385.840759 1827.837158
-842.836365 580.667480 1962.046509
-748.025757 473.231262 2016.558350
-791.187622 195.189316 1947.500977
-901.003113 649.376343 2057.564453
-775.340820 344.682587 1967.163208
-848.729126 514.189636 1903.887207
-927.741943 551.882080 1856.550537
-980.677368 503.428986 1827.136108
-929.278076 553.245056 1851.453003
-658.429993 415.328796 2058.769531
-716.228821 293.933319 2212.955078
-1012.140076 484.422211 1848.076538
-903.376953 442.913330 1874.911743
-644.002441 386.478699 2052.767090
-629.596741 305.358551 2016.182983
-708.836853 434.306122 1974.213989
-1032.259766 419.639526 1798.097290
-892.232117 586.836487 1968.461914
-973.818848 627.887756 2021.293823
-983.273560 439.642761 1828.409912
-883.112061 248.465225 1900.898071
-899.021667 405.101959 1903.417236
-947.861938 484.100342 1842.864136
-1072.725464 448.901398 1872.559448
-1092.851318 512.078735 2047.831055
-1063.082886 544.800232 2044.365356
-844.289185 248.988266 1913.072510
-747.963623 192.195480 1955.725220
-635.249084 325.578094 2030.767700
-663.017639 257.241211 2049.654053
-887.016418 540.206116 1869.840820
-718.488647 468.738708 1990.427490
-951.481934 440.373108 1839.546021
-956.445679 629.513855 1956.374878
-1112.303833 476.435028 1993.107178
-978.216919 420.441620 1831.010498
-899.395508 465.055176 1870.306396
-855.464905 373.751251 1915.385132
-888.352234 336.382782 1906.103271
-662.424866 251.812363 2036.406616
-645.595703 351.151306 2012.526978
-802.144653 535.172913 1948.972534
-1026.659058 576.460388 2073.749023
-925.231445 526.051270 1846.981689
-780.293762 516.253296 1980.581055
-858.355957 570.605774 1891.382324
-693.942627 371.299774 1976.704590
-952.345276 620.834961 2041.812622
-651.783447 354.506775 2020.202148
-750.305969 391.835052 1967.580688
-787.859680 386.194366 1951.298218
-813.052063 602.664307 1971.210449
-1083.052612 441.037506 1815.812988
-996.265625 508.029602 1852.077881
-949.751099 380.581665 1847.665283
-1041.188354 547.132690 1991.399170
-728.584290 361.236572 1980.154297
-759.438477 202.717438 1952.322998
-1175.176758 451.669769 1995.210571
-726.699036 468.044922 2019.371216
-993.856079 609.546448 2018.696411
-898.331299 552.277588 1864.287231
-808.351196 539.222534 1988.948975
-682.886475 425.671326 2027.134155
-1038.955444 449.172577 1839.790894
-1110.032837 471.693451 1985.672241
-800.578918 261.696686 1934.982788
-1009.437683 495.406799 1864.263550
-807.983643 621.942078 1981.513916
-748.691528 654.207397 2000.499023
-942.083130 620.022644 1938.266479
-814.194580 391.881714 1937.438965
-771.921143 274.060669 1956.425171
-931.036926 568.396423 1843.820679
-776.954163 195.901642 1958.484131
-747.979492 498.621948 1959.486328
-932.659180 458.208130 1850.044678
-1070.333008 432.136871 1827.356812
-937.520996 518.593445 1844.159424
-927.010376 473.279236 1851.345215
-913.901245 654.296997 2066.461670
-859.697083 558.826721 1903.564941
-1068.002197 460.851196 1893.768555
-782.476807 580.301819 1972.008911
-994.512878 437.228271 1821.143677
-751.708679 397.283691 1970.073242
-786.398804 502.759552 1985.720337
-1077.622070 455.447205 1890.647583
-860.578369 213.827087 1910.814209
-1037.860962 506.316742 1927.590942
-977.226624 631.716675 2065.112061
-649.096863 421.033051 2070.416504
-633.616455 401.892090 2091.364502
-909.917542 464.216309 1865.037720
-756.539124 478.618164 1959.194214
-908.663086 658.669617 2072.341064
-1030.881226 391.394958 1828.413574
-1000.799805 399.826904 1831.545654
-652.479187 404.186462 2067.713623
-776.890808 186.148666 1944.294678
-864.247314 239.899216 1907.549805
-801.706848 519.587524 1934.604004
-1072.602173 477.743561 1924.275635
-694.535645 424.073578 2077.115479
-867.519592 334.768066 1907.785645
-884.098206 467.621277 1873.234131
-1118.209961 508.620819 2075.968750
-1089.232056 477.030243 1955.581665
-905.578735 416.350372 1859.044067
-1035.079468 526.440369 1994.478516
-1058.958618 501.520020 1961.388306
-615.395020 410.602417 2050.734375
-1033.067261 414.079071 1801.690430
-841.952637 513.785889 1902.833740
-901.278076 347.434692 1888.247925
-905.845215 531.568420 1856.054565
-775.570435 462.178680 1941.484863
-886.712036 527.372314 1862.906250
-916.636780 539.634338 1852.875732
-685.797913 246.998505 1993.657349
-743.928833 195.734238 2003.251587
-949.825439 566.479309 1898.111938
-857.702087 568.931885 1944.918457
-834.577087 563.707886 1917.577759
-721.407043 216.416992 2020.121094
-970.158813 489.242310 1829.558350
-847.855652 570.139587 1992.254761
-917.527405 571.651428 1869.249023
-915.981140 522.400024 1856.023804
-798.837830 299.059509 1976.870117
-967.954407 515.287170 1844.837036
-893.919250 254.185043 1881.197876
-1004.377258 507.985840 1877.349365
-916.255371 299.401428 1879.931519
