ply
format ascii 1.0
element vertex 1368
property float x
property float y
property float z
end_header
2129.816162 -260.930054 214.528824
2088.527588 -297.222260 386.932434
1999.154663 -508.694244 446.325317
2081.181641 -379.440613 159.283829
1991.025146 -547.614929 479.639618
2209.646240 -444.480774 633.772400
2135.182617 -261.107880 217.258728
2039.849243 -496.531830 147.977203
2042.930908 -497.039520 126.570404
2058.740967 -446.703766 318.281494
2074.743164 -639.010864 539.897888
2098.809570 -304.371399 247.307541
2014.316406 -533.141235 375.424286
2069.843994 -492.174072 189.185150
2125.541260 -340.603882 498.222473
2026.758057 -447.242188 563.997559
2126.522461 -306.358185 514.308655
2255.660645 -489.823517 634.278564
2118.688721 -321.309174 517.980103
1984.229248 -605.176147 550.201111
2249.451904 -624.417786 588.790955
1964.709106 -597.450012 484.818207
2092.140137 -304.347626 390.142456
2174.536865 -452.230103 636.772034
2173.056152 -703.655579 563.289673
1994.506470 -589.747925 424.560303
2034.341309 -466.235962 578.185364
2032.527100 -410.958893 601.963806
2015.808228 -446.543823 572.063171
2176.289063 -253.830292 305.311951
2127.345215 -276.198975 534.452881
1992.518921 -609.506531 483.634460
2084.113770 -312.896515 406.248413
2063.597656 -375.394348 466.801758
2008.604736 -446.474457 465.649628
2082.274658 -416.452179 166.713867
2024.955933 -416.440002 577.822693
2193.310059 -323.162781 576.980286
2077.686279 -323.537048 450.879303
2069.452393 -468.973969 241.998154
2180.768311 -461.904053 620.222778
2205.243408 -396.677094 594.707336
2009.267334 -576.440247 391.824249
2072.819092 -475.780121 583.886780
2157.770264 -480.491943 589.610291
2038.509155 -509.520355 560.417053
2211.520508 -350.501099 604.979858
2166.624756 -311.860718 434.894653
2045.536499 -378.358429 535.384033
2068.186035 -566.169678 563.740784
2036.803345 -442.311279 442.243561
2059.268555 -447.171967 249.017319
2053.954346 -406.961639 603.483459
2096.266846 -315.524658 235.383301
2062.503418 -416.667603 318.652130
2171.548096 -227.801895 281.587677
2099.823975 -309.690826 423.754547
2068.524414 -554.526245 561.882996
2114.627930 -280.394897 335.907379
2088.503418 -336.781433 259.788269
2092.760986 -300.868744 282.111755
2038.630249 -512.817505 289.755157
2012.585571 -504.153473 160.469498
2072.117676 -510.472961 422.911621
2092.651855 -333.648193 201.210800
2036.867554 -378.727509 580.243347
2126.284668 -279.017944 295.564606
2028.109131 -394.077881 517.545959
2044.016235 -478.205017 579.227234
1998.939941 -552.790222 313.495056
2006.278564 -547.918335 377.445282
2128.757080 -270.035431 298.266113
2036.652466 -495.187195 307.545654
2093.845703 -594.986267 568.096680
2153.543457 -643.859070 556.003113
2019.394409 -545.614807 367.614044
2080.074707 -383.103699 300.122040
2078.953857 -317.922119 363.841156
2080.572754 -338.871704 377.467194
2041.261108 -491.106079 140.352173
2167.336914 -597.753113 579.345581
2024.706055 -542.576233 557.862976
2044.004150 -490.788696 314.324615
2065.725830 -396.415222 411.161865
2103.868164 -363.016876 533.292236
2108.731201 -290.404633 373.975067
2087.848389 -310.175659 206.154465
2066.876465 -495.852997 428.145172
1992.690063 -611.484314 477.581207
1994.336670 -588.458130 478.069733
2066.004395 -381.135651 426.027039
2086.885010 -447.110138 150.202713
2148.877441 -627.465942 561.109497
2063.571533 -357.700928 504.290558
2173.507324 -575.419312 579.420715
1995.391235 -489.126312 564.437744
2065.062744 -369.768311 453.925629
2154.735596 -215.541550 546.528625
1982.394165 -560.984802 520.756653
2008.962402 -466.666473 555.683228
2100.387451 -277.925415 401.224091
2052.657227 -447.054199 373.934479
2010.839966 -478.851318 500.423370
2194.318604 -675.210876 553.018799
2118.295166 -334.969543 450.985504
2199.005371 -309.739899 623.558105
2007.759277 -472.113983 568.221802
2162.733643 -654.319458 563.171509
2093.781494 -338.076721 291.698151
2212.455322 -345.204376 617.347778
2145.227295 -399.002838 594.986694
2002.161743 -508.740143 552.375427
2123.589844 -483.331299 595.104492
2055.321777 -452.394135 270.962524
2112.611084 -449.945984 177.508530
2041.469116 -427.274170 606.813171
2141.287842 -240.201797 239.726761
2014.885742 -535.161743 305.118500
2031.577148 -635.735352 534.885620
2021.372437 -539.775024 270.564087
1987.480957 -563.812805 539.144836
2069.474609 -483.966309 251.683670
2033.155273 -491.953766 209.872131
2283.770264 -395.739075 176.004471
1991.734863 -512.729065 548.248291
2197.917236 -329.711182 595.998291
1998.729736 -598.832092 442.263184
2095.940674 -377.265625 574.820007
2223.516846 -720.911438 568.484192
2155.313965 -250.173996 293.125671
2012.361206 -560.335266 352.182129
2039.796265 -499.457306 412.515320
2186.345947 -438.544495 650.509460
2056.171875 -448.417786 276.856079
2117.508545 -288.167725 193.398926
2075.138184 -606.984497 552.251038
2096.965576 -315.139130 206.959396
2138.320557 -287.728455 331.198792
2258.422852 -386.342682 614.501343
2249.222656 -367.522644 624.900696
2058.931396 -514.712952 432.080444
2113.731689 -554.403381 574.055847
2082.424561 -391.884552 163.931015
2063.828613 -390.553345 401.468933
2202.821289 -614.795837 559.630676
2032.439697 -488.434021 402.764526
2028.212891 -394.967194 565.020447
2194.536377 -394.372101 591.710327
2014.675171 -495.192657 479.564362
2029.587036 -500.457214 205.751083
2269.475342 -535.763184 607.565613
2107.442871 -292.728180 431.514465
2074.914795 -336.503632 444.219788
2069.296631 -388.664337 310.847748
2094.032959 -305.111755 397.183014
2105.656250 -277.774719 352.009460
2028.750488 -527.623169 415.116028
2136.680420 -400.908997 649.169922
2219.857422 -278.621246 196.360748
2007.119507 -462.834045 553.144592
2206.875488 -628.002197 566.525146
2014.931152 -442.312286 517.204224
2024.807373 -446.434692 495.615814
2171.310303 -696.133179 545.574280
2074.144287 -413.734161 177.614105
2067.975586 -442.239319 438.338287
2061.584961 -472.316040 273.950500
2181.496338 -577.191223 588.915405
2099.445557 -320.748322 451.422272
2084.709961 -400.355743 615.739136
2049.937744 -516.690674 235.046799
1999.377319 -474.892029 550.565430
2032.525269 -486.893372 141.015488
2028.220581 -413.037201 520.149658
2027.653076 -439.456787 550.782227
2061.358643 -452.065979 158.991486
2195.883789 -530.426819 590.278076
2134.499512 -242.072632 246.047363
2119.032227 -277.252106 255.480774
2057.961914 -404.928436 605.368469
2192.717529 -502.112976 609.364014
2049.511475 -635.088989 540.868042
2095.451416 -448.731110 157.904861
2147.310791 -322.489594 564.235535
2155.366699 -224.346313 518.959961
2136.865479 -254.849869 289.872620
2046.008057 -452.876740 297.571472
2026.384277 -419.604431 597.352905
2173.842285 -233.288849 264.401306
2061.889648 -415.816895 372.144592
1989.200684 -608.354980 494.723419
2199.257813 -303.845551 522.976440
2100.550537 -298.142944 408.870789
1995.224854 -559.920715 396.538635
2013.619995 -552.050415 560.006531
2134.598389 -259.774963 518.048706
2068.290283 -603.764099 552.035217
2047.215332 -377.395020 551.981628
2078.362305 -350.928772 400.874664
2050.258545 -374.936615 499.063660
2195.396729 -342.526947 567.495239
1993.863525 -530.039917 534.114441
2101.773193 -308.164856 314.602753
1970.891846 -623.605774 537.204834
2197.322021 -341.490204 609.632507
2176.922119 -269.652740 314.051300
2047.348267 -453.904449 189.422318
1996.876465 -487.155975 534.954834
2037.478394 -468.461975 348.296967
2192.264160 -358.892670 167.206665
1989.490845 -516.936401 566.905151
2155.112305 -238.684998 267.730103
2123.739258 -322.841156 545.747803
2225.280029 -496.010712 609.806519
2070.188232 -440.042603 145.371399
2009.620483 -447.402100 565.349060
2012.788208 -508.651550 580.216675
2121.102783 -371.839752 533.618713
2103.789063 -329.900879 310.738434
2050.291504 -446.302399 267.899994
2033.045776 -466.499786 442.772308
2016.350220 -534.543152 320.186279
2077.405273 -528.545349 560.382263
2162.555908 -560.417969 581.510071
2088.398193 -294.173828 354.507813
2173.452881 -611.836304 569.330017
2208.558594 -618.294617 570.838867
2129.272705 -281.271057 551.691223
2075.397461 -381.062622 364.972778
2137.146729 -276.738373 545.360229
2213.983398 -311.253540 394.591766
2017.026245 -462.605225 496.484070
2030.551880 -431.938782 513.862610
2053.526123 -500.882202 172.958023
2041.044800 -516.749573 361.878815
2227.468262 -436.421906 152.416443
2138.165771 -347.668640 530.888794
2122.240234 -510.586823 574.330139
2041.849731 -390.875031 541.059509
2076.542969 -389.156494 373.029724
2183.269043 -328.407013 512.897217
2048.470459 -445.306183 433.312836
2258.409668 -495.911865 142.755157
2113.009521 -499.490662 594.703003
2092.651367 -386.964691 219.641708
2038.368042 -394.667603 600.536377
2141.406738 -379.252441 540.882202
2187.071777 -280.259064 360.535187
2201.683105 -299.769257 578.577515
2072.553467 -408.039642 374.450195
2020.961914 -456.247772 524.248596
2077.191162 -393.139984 285.144257
2109.368652 -628.923157 551.043518
2034.458618 -494.961578 439.472504
2000.997314 -560.490356 419.848999
2057.515137 -533.481201 564.552246
2046.832153 -378.428711 567.937866
2110.123047 -291.660980 230.435684
2014.499512 -562.473694 357.151794
2027.131714 -460.711212 549.044189
2099.346924 -389.871918 233.750275
2074.307373 -406.695526 190.203156
2141.444336 -299.065247 415.551331
2073.214600 -377.468781 391.921783
2200.730469 -327.537659 578.988281
2088.412109 -346.438446 267.349823
2061.333984 -442.904938 245.546921
2080.393311 -315.862518 403.547607
2100.475830 -336.401459 215.774826
2055.817871 -357.588013 513.491394
2021.130615 -517.636230 438.398285
2221.890137 -416.619873 612.589539
2112.282471 -287.009705 336.404175
2081.483887 -370.710999 411.387390
2017.861450 -524.194214 568.894897
2088.240967 -316.885437 401.306366
2247.886963 -560.671692 590.588318
2058.193604 -451.649994 247.466431
2112.137939 -271.841888 376.732819
2151.118652 -403.427124 603.878662
2137.416992 -554.731750 585.119751
2093.754150 -368.107544 363.583832
2164.368408 -380.111816 521.540100
2196.521240 -524.509705 594.792664
2060.178711 -496.537109 566.113464
2250.538086 -513.238525 619.158813
2247.301514 -570.622925 602.927795
2044.643677 -543.979431 560.735535
2154.472168 -317.399170 510.512085
2055.803711 -390.056091 574.443420
1973.317871 -585.420227 445.333588
2089.677002 -328.286743 454.559021
2143.917480 -378.653046 535.644348
2162.157715 -490.867981 592.877930
2114.227539 -270.733948 202.199005
2022.788696 -469.914032 502.379242
2153.104492 -394.818848 568.922302
2068.632324 -407.629730 262.764801
2130.239746 -312.445496 467.979370
2137.974854 -549.163879 578.933289
1985.515015 -549.640930 523.278992
2182.472412 -388.355377 539.927368
1977.723267 -602.755981 503.981384
2049.919922 -485.935577 384.712738
2155.112305 -308.544617 547.912781
2047.018188 -480.290131 310.043457
2033.965454 -503.621338 334.777374
2112.005127 -274.571136 203.124893
2108.951660 -319.929688 426.312683
2029.771362 -512.562561 321.722504
2048.056885 -465.489166 199.001572
2136.156494 -334.128754 465.690460
2119.997070 -269.943512 303.633514
2141.138672 -276.932037 351.008606
2020.520630 -427.064758 529.788818
2079.515625 -361.360779 400.543457
2045.477417 -466.681061 577.600403
2013.654663 -468.456696 554.239197
2132.601807 -563.011169 572.214417
2056.096436 -629.925903 538.262878
2082.042969 -373.620056 196.333481
2075.742188 -324.914795 391.448242
2074.176758 -445.221985 263.124847
2098.857910 -302.726196 331.105835
2078.823975 -364.223114 407.991302
2039.211426 -466.816071 384.408203
2020.269165 -411.573273 486.846924
2181.995605 -382.198944 573.132690
2015.077759 -517.771484 332.408051
2095.168213 -346.158478 479.235260
2201.482178 -256.079590 306.692352
2150.830078 -226.679977 534.841675
2081.007568 -399.647919 616.238098
2122.430908 -521.680603 580.703857
1991.318848 -593.642822 455.621643
2118.816650 -333.559357 502.562225
2035.326904 -499.543793 272.264648
1975.274292 -575.973450 415.212982
2128.057129 -314.357849 559.179871
2217.360840 -571.416748 587.660095
2189.269775 -357.641510 574.553833
1999.161865 -480.569641 514.210266
2159.152100 -332.019745 541.224365
2024.444336 -507.003296 263.533569
2210.345703 -383.327484 602.047974
2039.817505 -464.528778 574.324890
2109.756592 -382.728577 601.326538
2012.194702 -533.862732 445.128601
1994.404785 -539.030151 276.877167
2062.838379 -420.396271 325.384308
2141.637695 -586.549194 577.281128
2073.574951 -547.350586 564.812378
2105.518555 -275.642395 209.344177
1991.084595 -594.872925 459.490204
2201.526123 -485.273010 607.020020
2186.061523 -481.171326 602.764404
2095.243652 -346.144348 240.679260
2071.188965 -432.519867 596.482361
2081.978760 -317.067627 351.554413
2074.145508 -357.378479 409.183044
2018.578247 -453.688049 471.380951
2125.055420 -307.175995 435.750214
2116.215820 -338.040680 521.778259
2157.171143 -397.363281 585.116882
2145.370850 -655.162231 550.915283
2109.349854 -292.121643 234.289780
2257.550293 -672.619446 568.368286
2090.630371 -306.449402 337.536926
2197.726318 -696.669312 546.152954
2259.004395 -496.651215 636.959473
2114.317139 -266.584259 209.561050
1991.348999 -541.783813 554.241394
2123.788574 -317.679688 542.789917
2085.879395 -380.305176 222.650284
2027.406616 -414.327728 523.945923
2123.426025 -375.980621 549.445923
2192.401855 -251.551971 292.353912
2022.694336 -510.934143 278.957397
2042.357178 -484.291962 266.064423
2250.692139 -448.719421 617.274475
1999.663940 -507.021088 531.653625
2182.941895 -227.327789 275.099884
2129.397461 -334.686371 498.504181
2113.188965 -248.029785 223.185120
2178.567871 -493.636230 599.019958
2139.235107 -571.330688 572.863708
2080.083740 -374.988708 380.237305
2088.385742 -315.245483 439.213898
2104.914063 -293.621765 391.379333
2048.934570 -474.018585 416.475220
2113.038818 -523.948364 582.728699
2237.598145 -700.233582 545.380554
2150.386719 -672.193848 542.807800
2182.613770 -256.212067 296.889069
2064.837891 -532.687256 566.440125
2042.228760 -464.274292 438.097137
1998.056396 -573.880371 419.359009
2155.591553 -463.054932 606.762146
1994.074585 -496.408478 549.455139
2035.567139 -502.987030 197.239197
2220.958252 -352.321167 616.681763
1977.856689 -541.030518 573.503418
2096.274414 -590.137146 561.686951
2058.032471 -371.452362 537.862061
2017.160156 -549.393677 303.069550
2013.513062 -452.802551 575.785828
2080.147949 -318.494232 346.550690
2018.600952 -459.028748 506.297272
2085.127441 -301.551056 356.650269
1983.264282 -551.153503 515.205811
2123.378906 -463.534637 587.980225
2192.563965 -317.787689 617.514526
1991.065918 -602.141907 500.269379
1983.518555 -616.095581 503.596771
2191.913818 -294.329926 364.820374
2197.140869 -260.574310 543.700256
2086.557617 -393.923920 614.376953
2030.286987 -417.762726 568.890930
2018.734741 -426.572601 581.918091
2189.927246 -551.315063 596.613586
2054.685547 -370.442596 567.907227
2072.227539 -462.843933 190.229141
1986.385498 -496.922638 209.546967
2036.517334 -406.735748 484.530853
2077.264893 -587.380127 555.345764
2040.911865 -445.019318 583.036743
2132.928711 -282.222900 312.212982
1994.759155 -493.697937 564.183411
2019.598267 -529.411377 314.006927
2075.801758 -597.067505 552.949768
2165.601318 -475.527039 603.041077
2110.342773 -402.605957 621.774475
2080.139404 -341.135651 376.589111
2075.760254 -502.848053 579.744751
1962.488159 -603.247742 519.707703
2055.278076 -425.980499 363.305481
2146.863770 -230.568939 524.490601
2017.744751 -466.301178 566.862366
2131.494873 -382.556824 542.769043
2134.486084 -445.012299 613.681274
2028.149536 -423.897522 532.557373
2051.094971 -398.581482 600.083252
2082.226563 -620.378723 548.102356
2011.334839 -466.911987 474.931488
2107.006348 -536.088989 576.730469
2042.443848 -517.055725 181.631958
1976.929321 -605.200500 528.495850
2210.096924 -551.126770 600.903198
2050.215820 -483.783997 380.917175
2202.071777 -416.218750 612.203735
2032.024902 -636.267700 526.964294
2104.134277 -279.734680 199.738037
2007.487549 -467.155670 476.674835
2109.778564 -328.098846 499.622772
2004.086304 -541.271240 438.295746
2126.062744 -558.842529 562.565674
2086.528320 -510.671509 575.474121
2227.539307 -433.642242 627.773376
2064.052979 -414.294220 233.593979
2100.353760 -490.408722 594.732056
1993.678589 -540.397156 468.375580
2104.312988 -494.134125 583.127380
2069.127441 -371.485474 556.320435
2143.179443 -386.818604 557.790833
2211.837891 -305.521729 603.072083
2055.313965 -376.642273 487.212646
2224.103271 -506.947754 592.073242
2131.120605 -416.206635 649.485352
2026.307617 -400.453491 539.331299
2221.174561 -515.566467 610.704956
2030.706909 -523.275146 193.649582
2185.961426 -281.200592 561.608337
2096.162354 -298.132690 341.717255
2110.344238 -333.253021 495.833374
2077.832031 -325.847382 429.792053
2073.917969 -334.153595 423.601105
2086.229980 -309.394501 401.978638
2114.199463 -340.097504 534.574768
2228.177002 -496.130219 607.941956
2079.937744 -425.205475 586.300964
2069.642334 -347.479828 512.867249
1983.746582 -562.283325 509.312164
2033.567871 -400.888336 509.132599
2102.632568 -672.773865 545.952454
2231.398438 -353.529663 172.204544
2071.354980 -410.119781 269.087830
2110.825439 -285.868530 306.536560
2260.258057 -659.335754 577.244629
2127.256836 -243.338501 236.845612
2029.121826 -415.488770 494.368469
2093.933350 -585.638733 563.126648
2079.408936 -392.947815 182.992523
2088.299561 -370.458435 215.258728
2095.429443 -570.748840 563.407471
2118.249512 -548.094788 572.938843
2194.278076 -557.868408 584.564392
2161.905029 -672.880737 545.311707
2088.390625 -467.688904 594.042419
2141.040283 -287.171082 537.469360
1975.618774 -581.387268 532.484192
2074.627197 -340.695801 432.100800
2132.206787 -235.682877 273.987244
2254.223877 -468.847076 652.332520
2183.150391 -364.645447 556.977966
2088.495117 -337.612488 248.021881
2131.663818 -388.451385 581.142090
2118.392578 -455.611755 127.086166
2075.593262 -398.659027 354.838654
2250.874023 -640.263306 582.089417
2017.286255 -624.046387 531.085449
2042.192017 -475.543762 200.429352
2036.905151 -487.259369 188.259247
2141.428955 -550.600647 579.362793
2184.125000 -696.665894 556.413757
2094.151611 -298.979797 301.443726
1995.013672 -484.299225 566.596436
2009.188110 -455.045837 534.012939
2094.061035 -307.459320 411.188690
2038.541138 -390.757324 561.190063
2035.638794 -409.098907 495.315735
2023.779663 -448.711548 591.409729
2152.774658 -227.877899 551.447388
2176.273438 -414.034668 603.785278
2031.029663 -510.681519 358.206482
2003.204102 -513.794067 476.265594
2071.143555 -406.636963 364.359009
2024.870972 -409.710876 569.179260
2147.195313 -512.204407 588.424927
2121.781250 -286.023956 282.018738
2056.887695 -434.210510 375.912720
2032.967407 -396.116455 507.087219
2199.141357 -452.613953 635.223328
2268.152344 -595.447083 588.416626
2115.613281 -277.332764 313.412048
2043.106689 -391.878662 495.075989
2241.173828 -420.623138 612.298401
2038.603760 -397.257233 510.427643
2002.669678 -555.748535 418.484802
2148.764404 -264.134308 310.715332
2036.285400 -438.607758 595.009460
2050.533691 -513.896179 171.849411
2186.025879 -556.159607 578.549500
2191.634521 -325.941711 616.663757
2071.563477 -389.633453 300.467255
2102.146729 -658.038269 537.536865
2027.423218 -516.172119 286.908905
2056.029541 -366.521179 502.441376
2098.622314 -359.158478 186.722122
2138.629150 -252.684952 219.555359
2076.499756 -349.329742 485.534729
2127.383789 -312.600952 547.693115
2154.402588 -212.290375 274.181702
2196.127441 -552.352966 589.803955
1993.802856 -548.668518 464.446594
2036.780762 -471.755798 252.102448
1971.243652 -593.210876 471.683044
1989.557617 -536.495300 545.258484
2026.931152 -531.204041 414.279266
2056.544678 -471.889709 354.080719
2071.378906 -459.973419 255.400543
2001.431763 -498.183014 525.779114
2094.627930 -316.949921 181.968170
2143.246582 -659.919495 545.036072
2002.129761 -561.228149 447.467804
2086.127197 -345.059387 482.018463
2203.916016 -358.622955 578.291626
2223.225830 -527.177002 610.206116
2106.197998 -460.152496 592.007507
2061.131348 -389.415833 460.652008
2087.749023 -299.680145 411.968719
2070.123779 -365.521881 402.430542
2154.767090 -330.145447 540.797546
2086.597900 -329.143005 449.823822
2135.395020 -425.671265 635.578735
1988.084106 -532.013000 507.372223
2027.527954 -431.457642 485.513031
1986.285645 -570.769043 382.141479
2061.022949 -375.057037 547.570984
2084.442871 -316.468140 422.150604
2212.908203 -359.759064 609.798584
2021.120972 -424.974030 534.751953
2146.200439 -281.274261 342.179321
2028.223633 -482.671936 244.309677
2009.721436 -571.717773 387.877045
2184.141602 -395.031250 607.825073
1954.213867 -605.304626 566.878052
2128.273926 -500.277283 590.748596
2002.552979 -556.691895 323.312958
2043.592529 -617.795166 544.861145
2215.895020 -391.030945 601.160034
2028.936646 -406.696777 551.846436
1964.838989 -585.561829 457.752167
2098.356445 -622.318176 551.995972
2143.293457 -244.766510 531.546082
2071.110107 -373.835358 567.997192
2088.638672 -344.499084 330.125580
1995.205688 -553.193848 317.164185
2046.456909 -481.783356 283.100189
2023.449097 -453.460114 478.852997
2077.882813 -328.233154 431.623657
2062.615967 -413.631012 376.981537
2061.414551 -415.681763 362.093567
2113.307129 -341.520966 552.225403
2007.244385 -517.672913 490.343201
1976.351196 -583.668518 484.266632
2074.182129 -338.647858 415.605072
2112.559814 -276.846558 213.996872
2034.946533 -614.543823 543.548218
2143.908936 -498.563873 593.892822
2013.832886 -527.061218 331.342163
2167.867920 -407.234100 596.150391
2052.935059 -469.954163 208.510910
2123.632080 -302.991913 535.639343
2140.140381 -410.148499 626.292053
2029.331909 -411.699677 498.865265
2179.054443 -374.141235 559.547424
2212.826172 -594.097900 566.944946
1997.214355 -531.735474 465.621918
2043.215088 -388.998169 531.241699
2062.780518 -408.679321 396.690338
2102.893555 -362.921234 177.318817
1978.034790 -620.870544 542.860474
2084.465576 -368.286224 295.719330
2222.039063 -268.132874 308.393280
2079.682373 -353.556885 393.955444
1998.239990 -484.794098 513.129700
2063.057861 -420.438354 207.965607
2099.592285 -521.643372 588.311584
2079.869385 -334.908325 390.565186
2114.414063 -321.861603 538.270081
2053.873047 -562.880859 560.170959
2070.709473 -527.425171 572.205200
2126.323730 -314.576263 530.743469
2111.048584 -324.453857 253.776535
2007.902588 -455.445953 521.753723
2067.202881 -505.128204 581.672668
2154.391113 -250.654419 212.295319
1973.460205 -557.150574 567.398010
2211.883545 -375.341187 608.196106
2041.495972 -487.921356 144.885483
1982.872925 -590.883911 548.739563
2054.158936 -371.512360 506.374451
2085.193115 -585.475647 559.826172
2082.198486 -419.845337 255.322922
2078.470459 -327.717407 391.239197
1993.167236 -532.548340 464.409668
2061.388428 -459.888184 322.950836
2188.200684 -679.232849 549.582275
2111.203369 -315.095795 272.140533
2139.656250 -565.757813 573.935425
2087.560059 -355.783936 379.658966
2039.744263 -489.145996 272.875275
2136.846924 -393.848999 579.199280
2019.855225 -516.128540 382.352600
2051.174316 -394.531464 559.650696
2047.329956 -485.552307 331.929138
2015.108887 -479.447998 536.048096
2049.174316 -485.576874 395.194000
2113.451416 -273.660370 251.874710
2005.980835 -496.969513 469.598328
2123.283691 -262.619537 307.786865
1996.566162 -550.251892 469.246582
2107.609863 -401.530975 611.681763
2261.408447 -531.634705 602.114319
2083.213623 -292.197937 330.295410
2126.958008 -400.010193 601.209412
2040.016968 -388.836243 544.840820
2087.224365 -345.970367 357.276215
2037.876831 -616.214355 539.312866
2135.446777 -267.049408 547.668823
2055.701172 -582.495911 551.662476
2038.456787 -480.214905 209.146774
2107.066406 -334.871521 212.810257
2058.785889 -419.795532 322.236298
2091.704834 -539.638611 574.729553
2099.288330 -286.181183 369.168915
2057.186035 -538.741760 577.212891
2053.140381 -445.220154 343.169250
2109.346680 -336.461853 513.380859
2020.150635 -436.493774 534.939270
2137.507813 -308.534058 545.561951
2215.886963 -430.742798 626.091980
2199.367432 -369.899017 549.088196
2114.816406 -331.151367 487.425781
2270.367676 -279.385895 201.309067
2238.799072 -431.520447 603.210571
2064.024414 -427.942444 153.180771
2160.093750 -346.858459 549.911377
2099.787598 -361.702698 239.143539
2151.043945 -438.578308 633.424438
2053.186279 -386.992340 489.277985
2191.483643 -455.278961 637.263245
2110.060791 -321.602753 210.838501
2175.274902 -261.367310 567.711243
2249.561768 -699.268311 553.564941
2019.459961 -479.679077 582.890991
2179.486816 -574.986206 577.303528
2108.111572 -587.221252 563.111694
2084.882813 -362.147888 199.899948
2221.451904 -337.923798 629.294739
2146.510986 -244.464096 535.580261
2081.993408 -624.126831 542.674194
2075.671143 -360.783203 358.452911
2143.841309 -291.174408 377.318054
2066.987793 -409.085876 280.651306
1978.547119 -600.443298 494.124268
1972.253418 -607.578003 518.968384
2073.764648 -388.965942 197.614029
2101.126709 -289.051941 234.879242
2271.547119 -491.801392 635.698730
2012.966553 -551.197815 334.002258
2067.326416 -437.700165 156.280472
2061.996094 -590.438965 559.867737
2028.186646 -403.322327 574.329895
2139.348145 -391.553955 620.990295
1979.710205 -537.570313 574.646545
2100.076172 -587.921021 561.584900
2041.452637 -478.561432 159.474976
2069.571777 -402.488312 334.817413
2013.824951 -530.038696 377.088470
2107.505127 -351.772919 297.791077
2019.483887 -600.791809 538.866577
2109.486328 -528.108459 576.626648
2197.105225 -666.195984 557.315979
2191.072754 -624.141907 569.394104
2002.381714 -474.635223 565.288147
2033.280762 -393.605469 518.730835
2229.277832 -434.178741 622.308960
2044.563110 -408.500916 490.800751
2096.730225 -372.722168 231.929321
2073.514160 -336.942078 462.594452
2261.360107 -480.884796 651.637451
2050.549561 -459.299774 309.976868
1995.709717 -586.937744 420.830017
2132.390625 -278.060608 531.131165
1992.886597 -520.662842 543.702576
2135.939209 -421.775330 633.991333
2051.797119 -405.530396 594.243591
2011.076294 -575.291199 370.964417
2264.202881 -503.693146 629.972595
2082.499512 -382.164490 267.458862
2067.836426 -401.832703 151.172150
1974.817505 -600.976929 491.654297
2099.177734 -377.519653 164.327545
2088.542480 -449.427948 155.701096
2109.191162 -325.566376 209.613434
2044.388184 -386.150665 513.248596
1999.615234 -552.767700 308.243256
2120.677490 -332.387390 526.031189
2093.398682 -396.785828 219.549194
2076.602783 -379.449951 163.529846
2059.442627 -369.824219 521.480408
2182.485107 -255.879898 305.632263
2128.781494 -415.594299 638.871765
1988.412231 -551.110535 520.788391
2129.537109 -268.864594 249.409119
1982.868286 -611.790344 490.349182
1982.080566 -589.593811 449.291290
2205.147461 -696.027466 553.277527
1979.950317 -609.735962 498.525665
2034.646851 -545.355835 260.942352
2192.332764 -401.646301 585.536865
2012.189453 -560.410339 351.834991
2210.612061 -514.228638 600.639709
2050.906738 -479.576965 391.364563
2075.657471 -414.543732 288.348328
2055.192627 -570.315735 553.994568
2064.741943 -361.778687 566.618713
2096.277100 -403.913879 631.651123
2053.085693 -489.965790 222.996826
2109.134277 -332.255737 287.037292
2089.038818 -348.408142 227.879883
2134.341553 -555.650330 576.811890
2167.827393 -636.211670 560.040283
2127.716797 -360.172058 154.608200
2197.102051 -263.492310 309.177917
2059.097656 -453.691345 586.888428
2247.659668 -655.633606 580.171326
2088.727783 -300.934906 245.708786
2068.237061 -479.719421 580.027527
2128.421387 -446.131500 606.458191
2202.194336 -328.073730 619.980591
2014.285034 -461.062866 482.435516
2052.276367 -406.265808 607.883789
1976.143555 -584.231750 535.751099
2105.647461 -295.279999 280.039948
2041.868286 -487.536987 367.439789
2088.481201 -321.870789 330.360474
2014.755371 -458.984985 472.970612
2096.083740 -520.377625 580.836182
2144.974854 -415.309143 635.718689
2111.072754 -273.149994 288.378113
2165.345947 -527.725830 587.403381
2042.289185 -505.870056 189.596954
2137.860596 -466.727631 602.529480
2212.349609 -338.044006 599.614380
1994.130249 -577.344727 421.162903
2147.806396 -358.878845 515.190002
2070.767822 -462.036255 584.323853
2274.625244 -459.105927 643.595093
2074.597900 -363.829834 370.197144
2262.228760 -509.198975 611.152283
2153.762207 -316.479889 547.648926
1989.579346 -611.495117 498.505737
2146.145264 -234.806778 294.473633
2137.571045 -325.087952 497.712067
2110.640869 -303.164886 357.512329
2020.052368 -523.951538 263.470673
2225.698730 -498.449341 608.321655
2131.355713 -417.733887 638.005249
2124.304688 -265.149933 296.174469
2016.616821 -443.477386 564.214844
2016.186646 -618.729919 531.237793
2226.000732 -346.322357 616.753113
2090.427490 -321.810944 435.998260
1995.516846 -501.339203 568.367676
2121.295410 -583.025208 568.547791
2021.479980 -627.280640 553.846252
2086.455566 -356.006683 205.745712
2020.792236 -442.806183 548.212952
2047.637695 -501.744476 230.444168
1994.371948 -549.827332 498.275208
2005.994019 -533.238892 243.629654
2091.692139 -311.287018 308.673706
2150.603271 -260.039429 329.380432
2267.915283 -557.930542 598.639954
2055.151855 -412.805878 470.472015
2031.345459 -482.550446 408.901794
2211.336670 -410.212891 587.758423
2077.702881 -461.320984 183.989685
1989.130249 -588.627075 425.310791
2071.294922 -391.671021 255.861969
1986.676147 -575.493042 387.616547
2064.785645 -388.541809 436.165131
2038.376221 -386.068634 544.519897
2188.313721 -280.879608 331.222473
2181.948975 -258.534637 307.029999
2024.012329 -510.103577 333.090332
2007.827393 -529.210510 256.900726
2119.855469 -328.863037 518.341614
2012.605225 -529.759277 341.257965
2060.987549 -406.176727 606.223999
2081.800537 -375.154846 199.854828
2024.932495 -462.544220 587.623047
2075.367676 -485.769714 587.807617
2311.931396 -459.241791 163.403854
2013.408447 -493.490387 495.227295
2134.015381 -250.748856 251.671097
2135.210205 -516.507446 594.988342
2039.842651 -392.492035 501.882904
2072.769775 -458.428314 579.437683
2103.444092 -304.073792 277.467804
2098.247070 -417.948578 619.485657
2182.035889 -658.398987 554.712097
2098.549805 -315.042297 257.864532
2095.908203 -291.312195 230.044617
2069.564453 -464.082825 254.434021
2266.896729 -505.097931 606.662537
2133.336182 -283.819641 511.098602
2067.873779 -401.065155 342.331512
2037.688599 -552.808044 562.467407
2086.787354 -340.512726 463.199493
2088.154541 -295.521942 348.190369
2090.649170 -295.547974 414.786682
2061.540527 -613.871826 547.831909
2048.576172 -468.129181 326.800781
2011.694458 -461.392487 488.403137
2063.421631 -437.008636 286.019501
2055.953369 -483.620361 113.920998
2117.452637 -571.694519 576.588135
2134.048340 -266.470459 248.164505
2228.851318 -654.703369 564.904541
2176.578369 -600.049561 572.540466
2096.803223 -328.946289 289.626068
2175.211182 -412.636139 620.200867
2030.897827 -401.677155 578.170349
2009.670532 -485.747314 553.162720
2090.188477 -349.034210 309.114319
2078.490234 -320.519775 407.820251
2115.626221 -675.940674 542.431396
2118.110352 -309.729767 447.895386
2152.153320 -263.928162 196.938492
2055.959717 -385.382935 483.913666
1984.436279 -582.533630 484.456360
2107.138672 -674.654419 545.600769
2104.863525 -352.490387 502.692474
2179.856201 -254.311798 566.790588
2178.514648 -699.550537 546.820313
2128.359619 -251.020569 239.770279
2061.511963 -461.779388 456.154816
1977.941284 -599.036133 516.844482
2204.493896 -371.797333 581.623779
2081.512451 -665.346619 551.738647
2054.460449 -390.340271 472.166779
2063.161621 -442.788391 238.307739
2043.460815 -487.539215 447.356262
2010.741821 -537.115784 327.409180
2056.429688 -380.101929 478.105682
2091.338623 -348.683319 276.945923
2004.623291 -493.548218 486.137512
2246.360352 -381.424530 620.049316
2117.867676 -272.980530 205.631973
2055.753662 -445.331573 296.167877
2049.207764 -410.521240 584.742371
2103.102539 -303.378815 258.359833
2030.663208 -430.983368 527.901672
2135.788818 -333.733459 528.835327
2035.463379 -592.786194 543.847351
2215.885010 -326.302307 586.519226
2077.405518 -350.426392 522.814026
2151.879639 -609.678467 567.671387
2202.204590 -314.635223 594.866089
2049.032471 -495.805145 576.262573
2085.271973 -334.771271 458.763855
2074.875732 -444.308411 595.421814
2149.229736 -316.105103 543.393677
2141.393555 -494.212402 592.159058
2187.432373 -287.847351 335.771301
2097.388672 -360.004089 181.818420
2017.688843 -516.374756 304.583191
1985.020508 -610.576904 479.037231
2062.085938 -455.622314 340.291473
1997.116089 -550.602295 451.243927
2058.118896 -402.880493 416.865997
2169.421143 -267.206696 554.018799
2071.653320 -333.314667 428.584381
2028.473633 -512.940857 244.602646
2032.763672 -512.434448 368.280823
2244.937012 -524.420166 601.685547
2104.238525 -362.853912 508.803406
2094.529297 -430.331665 187.047592
2228.055664 -351.424866 618.089294
2169.641602 -431.725555 650.627258
2203.530518 -661.989380 560.851501
2013.129517 -489.144989 475.736053
2098.906250 -381.032166 281.413910
2034.210449 -499.008972 298.220337
1968.520264 -593.500854 469.935974
2154.962891 -634.458374 559.341919
2004.992554 -493.497070 502.738617
2223.420654 -440.276306 625.799805
2029.914551 -511.320526 221.288864
2102.741943 -284.318451 265.909241
1985.800415 -610.705750 522.212402
2126.626221 -387.729980 578.100098
2096.873291 -300.323151 440.861725
2049.259521 -473.592316 199.028778
2154.528076 -542.174072 583.188477
2027.293335 -409.118866 569.653259
2129.179443 -304.797302 410.642334
2054.163330 -425.281006 385.710724
2005.892578 -491.461395 454.938599
2098.919189 -626.466248 551.994568
2060.481445 -598.746765 546.260986
2021.833496 -424.795959 490.568451
2060.005371 -360.664673 519.762085
2099.598145 -290.857208 298.326813
2073.790283 -396.844513 335.580475
2104.990967 -295.774139 306.340729
1999.470947 -532.994690 467.394196
2295.917480 -454.989075 597.034851
2113.875488 -321.798248 427.524719
2027.728760 -458.565430 473.655670
2047.533203 -386.391083 521.277954
2090.330566 -292.318665 263.561401
2104.355225 -558.552246 571.559875
2172.497070 -378.996918 566.407288
2127.281738 -270.430389 289.644226
2215.299561 -316.923065 579.078186
2199.844482 -390.003723 554.440186
1995.685547 -576.757446 427.376221
2051.500000 -483.965637 355.157837
2171.082275 -672.840576 546.777832
2041.009644 -463.241119 278.634918
2042.855591 -490.215302 350.796936
2022.811646 -530.476257 428.113281
2097.927734 -342.798920 221.768661
2122.966309 -565.547607 579.242432
2059.035400 -373.093414 543.068909
1979.595459 -603.428345 535.125977
2056.052734 -404.457703 594.257324
2093.989502 -435.363220 184.911926
2180.426270 -280.859100 326.402008
2276.444580 -511.274506 141.804581
1993.176025 -583.586182 478.576691
2155.066895 -254.753235 557.297241
2045.697021 -387.722870 606.668091
1972.064697 -615.664978 512.135742
2067.700439 -420.872711 594.240479
2111.422852 -306.925537 382.616241
2123.836426 -244.578690 265.597260
2128.410400 -597.389526 564.671692
2089.437256 -478.070435 465.597260
2030.907104 -408.661163 590.908142
2082.275146 -358.015106 364.335724
2018.595215 -566.233826 549.831055
2205.792480 -315.834137 632.473694
2007.850342 -565.204956 541.295959
2251.170410 -572.210022 603.266296
2016.856201 -494.502808 566.277405
2263.694580 -515.503784 608.013000
2051.707031 -458.516693 175.061035
2007.260010 -455.265320 501.900757
2070.124512 -419.378540 346.345490
2054.865723 -453.142548 169.909286
2019.925171 -511.402802 171.285370
2135.889160 -395.224579 585.479248
2005.744019 -457.074005 590.079041
2177.548828 -429.327454 636.582764
2156.620117 -625.378235 562.303040
1995.832764 -615.913086 519.497620
2132.748535 -259.202606 309.892242
2108.049316 -284.859528 417.083832
2032.107666 -399.361572 546.134033
2065.544189 -410.669189 298.205841
2068.563965 -531.271362 572.601807
2084.568115 -301.452484 386.354645
2246.820801 -432.268127 621.695007
2093.508789 -409.983154 644.646729
1999.101685 -506.477325 496.496674
2141.135742 -283.492249 393.563263
2056.817627 -610.248230 552.717346
2045.571045 -486.309509 310.632599
2086.336426 -367.967072 541.521973
1998.419678 -512.693237 553.261780
2090.927246 -321.379822 463.458008
2062.433838 -446.736786 293.624847
2035.748291 -415.772736 554.297302
2135.064209 -338.678833 162.110733
2048.985840 -407.113739 476.700958
2082.277344 -372.264893 179.944504
2104.637939 -298.610474 314.662903
2216.347900 -388.285614 600.779297
1990.073486 -547.127441 481.412842
2135.263428 -321.620453 451.267792
2190.626709 -308.366669 402.098267
2046.019409 -464.525208 374.270172
1997.659058 -553.241394 514.534485
2088.031006 -381.896545 273.543854
2229.107910 -605.152405 581.271545
2197.735840 -298.203857 614.019409
2182.574219 -564.244080 579.971313
2121.437988 -304.396271 409.012787
2208.350342 -683.740051 553.093445
2131.549561 -268.397308 350.372284
2115.496826 -649.739014 541.683960
2175.048340 -432.327545 663.055237
2094.528809 -332.732910 471.913818
2070.475342 -394.989685 373.061340
2145.216553 -519.317993 585.897461
2005.326660 -524.614624 219.981216
2044.863770 -369.362488 521.913696
2030.418701 -525.139587 211.067184
2120.284424 -374.765289 583.540894
2024.785400 -410.029388 550.084595
2011.004028 -552.325623 346.261841
1995.115356 -524.702332 500.693451
2093.079346 -321.286499 169.522659
2174.722412 -279.430328 317.800659
2135.969727 -399.146759 641.913757
2132.151123 -283.035889 537.640259
2105.460693 -337.781342 209.940216
2077.468506 -433.612335 594.361389
2138.670410 -378.532837 559.185486
2084.669678 -298.163147 426.835876
2041.731934 -405.438690 476.345398
2075.093262 -460.768707 265.022369
2064.455078 -441.675140 414.649719
2027.336548 -421.770508 489.231171
2060.420410 -397.002319 597.754700
2050.761963 -454.050598 334.399994
2012.909058 -541.315979 424.893951
2166.391846 -505.391785 584.816833
2084.299316 -418.691589 628.023132
2024.617065 -538.224182 342.603241
2164.802002 -266.341400 558.201904
2017.878052 -496.779541 556.778259
2060.538086 -460.770599 585.540955
2201.739746 -280.364594 311.188812
2119.661377 -261.535370 244.139847
1984.715332 -534.159485 518.741516
2256.336914 -577.203491 593.894409
2017.528564 -553.303772 556.913086
2054.567139 -429.054779 438.315674
2182.328613 -266.155487 318.519012
2015.239380 -492.813293 454.810364
2104.411865 -668.339294 548.596436
2093.238525 -304.105804 444.691132
2080.920898 -319.139221 441.824738
2081.228271 -521.092529 576.506836
2086.674805 -300.944580 283.363464
2107.049072 -354.349060 483.674500
2070.991699 -389.487793 279.826630
1997.378784 -478.156616 552.544067
2119.533447 -341.202576 531.101563
2077.091309 -337.297150 466.812103
2086.419922 -413.163422 403.347961
2153.057861 -405.465332 604.234253
2055.500732 -432.406708 388.802856
2124.914795 -296.463623 391.935364
2144.527588 -290.270294 564.961243
2143.909424 -256.776947 234.593307
2072.230469 -653.506836 525.887573
2227.501465 -622.297607 564.896912
2227.342529 -437.727478 627.563416
1972.352295 -622.925171 533.134888
2089.411377 -387.235962 593.226990
2084.042969 -364.436920 317.323547
2141.887939 -524.996094 114.670723
2088.434814 -318.528625 390.013306
2069.247559 -353.808716 421.126068
2126.804688 -303.631104 503.952026
2042.330566 -621.674683 535.100586
2050.473389 -453.787048 413.995575
2010.160889 -451.350342 549.046143
2037.297607 -491.887451 310.025482
2073.014160 -333.834564 434.908234
2220.286621 -703.806763 547.474976
2013.200195 -468.358551 549.723389
2090.942139 -346.221405 475.950562
2046.343140 -501.690491 174.691696
2147.483398 -255.016129 279.007751
2035.000000 -476.776123 161.763443
2089.228760 -337.326111 288.966797
2057.577637 -435.328247 321.089020
2067.076660 -502.409363 216.266617
2221.170654 -341.972595 625.862305
2223.282471 -718.220947 567.623413
2072.300781 -645.761780 542.193298
2002.379639 -572.023132 370.210571
2227.457031 -541.271240 595.809753
2104.395752 -290.351044 326.482361
2112.527588 -360.236816 532.689941
2006.918091 -463.606476 560.039307
1986.495483 -558.529541 495.345001
1991.061646 -504.783539 579.791931
2186.731934 -322.762421 176.564209
2235.939697 -458.049927 645.334961
2195.273193 -286.985321 333.811890
1999.312012 -472.732056 568.738464
2028.662231 -524.955017 364.825745
2009.337036 -554.812927 315.471436
2012.550415 -468.839630 527.702576
2000.949341 -492.264954 474.083038
2101.602295 -267.613403 256.236053
2036.520874 -493.828644 221.638733
2135.676758 -242.606949 267.511566
2021.895142 -446.230133 463.290619
1991.158813 -603.041260 540.626465
2012.254517 -551.834778 328.048706
2119.898926 -278.927856 234.670227
2180.610107 -425.018127 638.123596
2054.574219 -479.418579 368.232025
2109.245605 -276.171753 253.181641
2103.272461 -467.521881 591.024048
2038.215454 -410.183868 590.752991
2109.984131 -534.401978 587.280762
2147.656250 -246.559921 218.043701
2189.954590 -255.671295 216.591476
2049.166504 -603.610168 548.516968
2072.429443 -392.469299 341.391907
2196.965820 -389.300262 599.650757
2111.614746 -272.380249 215.710724
2143.014160 -299.685425 397.405914
2226.743408 -431.466339 622.597656
2111.898438 -326.604126 541.155579
2146.939209 -272.501343 559.957153
1975.925659 -577.077881 462.371887
2023.914185 -551.297302 273.226105
2119.593506 -594.733276 561.016418
2080.019531 -426.602112 168.697601
2116.307861 -286.641113 330.670837
2170.637451 -610.960693 570.450256
2020.304199 -413.032562 561.848999
2023.970703 -425.943939 536.857361
2121.125488 -444.080017 606.953308
2083.072021 -508.917786 576.475525
2045.715576 -467.231415 361.685120
2135.684082 -270.684723 306.990906
2013.492920 -540.890564 337.026184
2096.391846 -327.262329 371.645996
2020.636475 -521.794617 344.498596
2052.516357 -605.175232 548.733276
2025.810181 -413.194427 581.021484
2125.195557 -287.524384 363.133698
2024.902710 -507.292633 356.033600
2121.622314 -561.929443 569.982544
2087.029053 -440.768677 196.599625
2087.333740 -342.933044 223.283463
2051.122314 -356.148560 526.101013
2047.653320 -381.720886 498.703400
2126.561523 -323.183746 500.918518
2124.052490 -290.832123 529.506958
1999.190796 -544.691650 569.263855
2017.063721 -437.254639 548.790222
2081.593262 -348.636383 498.995056
2112.436035 -285.241089 249.644211
2005.956177 -518.465820 470.073090
2169.800049 -369.877380 530.578247
2257.698975 -549.586121 598.799561
2107.046387 -297.508850 347.602936
1995.460571 -560.626953 456.107849
2099.923828 -594.304199 566.870789
2087.216064 -370.475952 327.210510
2056.224365 -462.793701 233.538025
2086.400635 -301.152313 298.170135
2090.273926 -517.512268 574.172485
2085.112549 -293.105194 374.912872
2056.430664 -410.782410 419.667755
2153.009766 -318.028320 545.368042
2065.984131 -372.227325 587.104248
2049.505859 -579.448975 557.792908
2034.579224 -414.627106 543.776428
2081.891846 -361.011627 337.540070
2105.427246 -329.834869 192.766418
1984.749512 -617.416565 509.457947
2025.525146 -510.772614 213.563599
2175.431641 -315.612854 509.107941
2034.881714 -403.974915 513.278931
2079.259521 -403.750031 198.826736
2166.129883 -276.483887 566.544312
2149.068848 -399.809326 586.637695
2048.840088 -463.436462 420.077911
2026.429565 -416.038208 536.340149
2054.584229 -454.883484 199.710876
2127.793701 -302.687775 544.085449
2098.554688 -319.280640 447.898987
1962.875610 -594.499084 523.641968
2003.759155 -502.555511 463.169189
2133.468262 -415.486450 637.526428
2172.784668 -301.064270 179.005188
2066.218750 -396.722992 384.444519
2066.210693 -423.701538 306.491699
2079.112793 -340.924896 337.558655
2026.880981 -525.655212 247.478653
2019.995483 -519.647034 341.885254
2114.584473 -406.012268 625.517273
2090.555664 -292.598236 384.233643
2047.851196 -461.532471 176.446655
2066.854492 -427.119598 147.921005
2178.403809 -528.532776 592.443604
2228.708008 -551.703857 585.331665
2075.443115 -387.465271 406.042450
2031.476196 -396.494385 572.129089
2172.311279 -288.779663 560.286011
1992.638306 -611.263672 533.561340
2077.864990 -346.453186 349.622375
2114.254883 -410.090179 628.769287
2203.456055 -412.263306 602.821777
2088.925049 -384.642548 308.543701
2059.339111 -436.544403 243.765533
2106.995361 -335.052826 445.243073
2209.590576 -383.585754 597.607239
2117.564697 -283.825470 366.754974
2055.030518 -453.246552 370.927765
2006.967651 -548.550720 372.393738
1986.591064 -522.797974 543.514221
2219.285156 -335.422821 625.103760
2136.370361 -314.254395 450.473297
2051.098877 -633.551392 532.345276
2176.100830 -295.197784 377.626038
2005.086060 -545.250549 341.891754
2019.445068 -526.247192 347.285980
2070.323975 -349.136810 519.646667
2083.701172 -382.841217 235.773483
2263.908447 -499.199249 637.137939
2251.176758 -465.189606 645.096802
2015.376587 -474.351166 555.878113
2074.791016 -362.932251 589.426086
2008.174194 -474.639252 535.467712
2043.507568 -381.769318 555.675293
2155.416992 -354.001770 524.878845
2027.007202 -542.691833 560.125244
2103.864502 -464.433258 601.583801
2038.425049 -491.133636 165.827911
2174.615479 -414.315338 607.101746
2150.061035 -466.274567 594.887329
2130.603760 -331.218994 471.120361
2057.808594 -389.982544 468.189880
2103.645020 -654.493469 542.834412
2043.122803 -372.620026 575.510559
2079.840332 -318.352203 382.648926
2123.997314 -275.706604 556.545227
2107.701660 -411.787506 625.008667
2051.700684 -435.479797 432.982391
2041.747070 -387.888031 543.927002
2205.628662 -363.099731 609.606018
2042.872314 -374.641296 525.300659
2002.004761 -457.795166 521.366760
2150.345215 -288.067261 352.351898
2029.713745 -508.075104 392.390625
2028.612793 -517.010620 393.687134
2092.533936 -345.551392 363.464996
2131.007080 -460.682373 595.846619
2144.708252 -395.299988 578.731689
2148.140381 -230.571945 551.711792
2091.447021 -318.887970 214.903931
2208.263184 -394.163727 598.590576
2227.936523 -662.778992 560.198853
2089.706299 -362.728851 169.667938
2020.223267 -419.727844 557.554565
2184.834961 -565.028198 583.186707
2076.547852 -368.749695 378.302216
2004.890259 -475.503326 478.044373
2108.797852 -574.666260 565.065674
2230.901855 -685.147644 544.408203
2030.289917 -438.014191 442.536407
2170.083984 -253.239227 207.565262
2016.625488 -431.893311 564.964844
1982.179077 -551.569275 565.892029
2100.153809 -415.947021 626.182800
2029.751953 -404.281799 550.910767
2100.104736 -458.123718 595.748108
2159.335205 -324.555481 482.138611
2264.852539 -432.442352 596.277649
2074.389160 -399.559265 300.079742
2013.898682 -450.695068 558.677124
1988.101074 -532.087708 553.807251
2252.848389 -504.772583 611.282349
2077.387939 -341.459198 372.477844
1989.003418 -541.302368 482.255280
2091.750732 -356.492584 245.836517
2106.137207 -568.288696 568.926636
2147.232178 -235.254471 529.713013
2021.288818 -560.962280 553.915100
2037.721436 -392.014984 564.996704
2198.783447 -435.533478 648.889099
2016.769653 -511.537872 431.296906
2002.031860 -460.867035 469.196259
2101.629639 -304.948517 441.471558
2252.140381 -497.949615 613.711365
2026.222290 -529.091370 362.079468
2187.038818 -619.667419 577.628540
2015.751099 -530.417114 301.131714
2023.472900 -514.733948 258.808746
2043.815674 -407.132629 554.909851
2020.840698 -510.875854 275.756073
2075.392090 -334.574860 464.766541
2030.475830 -522.295776 569.864197
2145.794922 -634.192322 557.538940
2075.465332 -451.396576 291.959259
2047.413452 -472.557404 334.650269
2039.040527 -527.367676 413.552094
1998.106201 -543.877808 460.149170
2106.381348 -356.042633 549.110413
2111.594238 -621.131836 553.668396
2101.858643 -289.909576 211.372360
2003.807983 -496.793640 489.150787
2044.199341 -390.437897 614.601135
2119.436768 -644.370056 548.852173
2117.052246 -397.233459 614.195129
2127.132568 -532.180176 581.594910
2206.239746 -353.276062 606.540161
2080.542480 -370.418152 380.602173
2193.769775 -406.049866 599.905640
2004.911499 -575.021362 397.126373
2200.049561 -264.519714 311.161285
2097.933105 -365.557465 341.147003
2143.695557 -623.613770 560.338196
2105.883301 -521.330017 589.725708
2027.930054 -487.310486 319.151611
2070.592041 -406.841339 337.008728
2039.294067 -401.355682 583.053772
2143.322998 -595.984497 575.261780
2084.631348 -312.370728 417.969177
2082.466797 -351.438263 490.744629
2113.883789 -250.307373 237.435257
2079.782471 -372.286407 409.187164
