ply
format ascii 1.0
element vertex 1384
property float x
property float y
property float z
end_header
972.923096 1905.809082 435.031189
881.101868 1864.767578 146.705093
916.004211 1904.429077 357.594513
1174.773438 1847.284058 357.717651
854.573486 1940.894287 298.191803
904.903503 1894.927856 412.379761
1090.981567 1836.692383 144.045364
881.475525 1941.053223 430.849274
1193.096313 1949.948608 282.733795
911.976135 1905.284668 138.388672
917.541382 1905.394287 270.900970
1195.441772 1891.322266 368.639648
910.963989 1915.050659 430.616028
1196.804443 1937.196777 106.132713
1171.962524 1910.324829 279.668182
835.356873 1924.539917 131.977310
1053.641479 1827.146973 219.296371
1030.783813 1854.067627 324.408386
1195.208008 1987.464233 408.196289
1066.763672 1890.154053 542.384766
798.153503 1985.119141 450.514709
910.894836 1893.336182 381.219727
1048.690308 1850.544556 114.379845
1033.969849 1849.164063 365.445038
926.126221 1957.816406 444.034882
1094.332031 1909.370239 524.067871
1072.421387 1835.744751 352.020264
1116.767700 1800.457886 292.578796
1116.437866 1808.609741 136.673477
906.597900 1923.991089 257.237701
895.031921 1917.787476 265.281311
727.191772 1983.190796 174.386185
914.414612 1912.991699 272.949524
1191.736450 1886.312500 348.836243
767.958496 1964.970459 414.520538
1217.957764 2003.424683 280.753326
1175.830566 1942.501953 226.261475
901.710083 1936.094482 423.483795
843.976929 1937.750977 207.915756
784.472717 1963.233521 427.073029
817.394043 1940.016602 425.689911
761.746155 2038.629517 433.347870
1219.604980 2016.615723 265.741943
792.711731 1961.268921 431.580994
1014.400757 1888.960083 412.069214
905.816162 1911.186890 388.801819
815.538818 1939.236694 275.911530
825.277954 1949.747681 413.722748
989.432312 1886.174805 396.978271
1031.013916 1821.052124 233.784836
1146.444580 1840.139160 114.271103
1005.308105 1875.097290 387.706604
1050.878174 1848.422607 374.616852
950.158142 1888.805786 274.428131
856.150330 2008.255127 452.194885
1010.247253 1853.770386 348.813416
1074.585571 1893.768555 463.979797
1035.576294 1878.939819 387.908752
1000.119141 1911.166504 411.957825
1190.377441 1972.997925 127.844017
1183.612183 1943.138428 193.578430
1213.952026 2010.947388 386.278503
855.235657 1925.273438 223.799118
1093.763184 1812.019775 331.247498
1201.257690 1971.400513 384.849243
1182.129517 1903.596558 287.814270
1064.240479 1805.259521 134.935867
853.471985 1990.078369 446.020355
1156.768433 1865.504761 225.638062
1003.128296 1856.182373 152.883713
1105.043945 1803.603760 292.196533
877.899353 1933.626099 217.156189
1043.241455 1903.234863 429.287231
880.746582 1935.269287 316.534210
1081.441650 1905.766602 469.002380
1172.028076 1884.846558 261.733032
1150.739990 1843.762207 281.217957
891.134705 1917.009644 192.086090
1132.821289 1827.408936 374.393188
1087.309692 1808.724976 247.539474
1144.109741 1811.410400 109.672981
999.543945 1889.993042 391.878235
1046.565674 1903.403076 458.856293
963.800415 1870.932861 170.799362
769.175659 2103.289795 277.968933
1051.640991 1891.175293 449.405975
913.094238 1908.314087 311.483673
869.052368 1918.786621 200.923279
765.347961 1968.136353 401.994659
1078.052734 1885.078003 381.978088
1215.246094 2025.937134 131.154938
984.575317 1882.967163 360.573608
1116.370361 1810.130859 376.966248
897.603088 1912.775879 426.672943
1151.764404 1929.731323 495.543701
1193.872192 1980.695313 119.041016
1078.009277 1891.674194 524.497192
957.018127 1879.771362 165.962097
1068.704346 1843.130493 379.984070
776.671631 2116.406738 373.023041
1103.075195 1913.275513 387.226929
1030.231567 1803.545654 137.894104
1041.693481 1838.452515 118.476212
1117.087402 1797.010620 210.925034
1132.298462 1834.442627 118.321205
1153.185669 1961.636230 411.043335
1145.282227 1954.674683 412.861694
1065.801758 1899.303223 535.256042
970.131104 1880.230347 377.579590
1055.243530 1831.575073 194.851486
952.894165 1878.749268 379.754913
847.917969 1928.363525 211.672852
737.429810 2012.918091 377.050964
1156.656982 1825.496826 351.465729
1163.484619 1859.685913 342.484100
1017.681213 1932.151489 411.700867
1173.844238 1936.575684 108.121918
831.331116 1924.795898 131.997452
1090.120239 1811.086548 196.458801
1207.129028 1915.858154 366.597687
1066.842285 1890.911133 483.547882
1036.750244 1848.177002 345.816895
858.958374 1931.329956 342.644562
1048.945679 1822.246582 233.258835
800.154846 1947.273315 143.659317
1149.927124 1956.001831 458.736359
924.858337 1897.914917 362.094269
913.914429 1914.294434 299.058472
1060.087646 1832.859497 363.754364
961.682983 1891.817871 416.576172
1205.650024 1953.977051 304.236847
1178.797729 1867.702637 364.248138
1151.434937 1845.349976 315.991364
953.198853 1886.604492 332.192108
1064.823730 1890.922119 531.893982
1067.947754 1835.539307 360.884766
1184.103271 1976.544800 388.536682
833.335266 1936.906250 312.297272
1167.555664 1869.903320 308.830658
1137.832764 1833.476929 158.670074
1176.947266 1883.102051 341.349304
808.004822 1933.176025 194.842484
765.680420 1959.961304 139.403519
719.228333 1979.491089 155.804993
928.408875 1889.135254 130.886398
1176.285889 1964.556152 432.609314
974.974609 1886.353027 405.171173
1227.539063 2035.091553 121.564011
874.137329 1926.489746 352.035309
830.453613 1946.302490 444.093689
1123.812256 1893.696533 383.366791
1061.485474 1817.963989 223.661148
772.593994 1964.674072 421.713562
1247.817871 1970.768799 364.732849
873.144714 1985.903564 441.141144
1210.437256 1897.734497 362.182770
1137.736450 1854.529907 107.479309
816.000488 1928.305786 378.751434
900.285706 1930.780762 440.444824
1098.101929 1831.523438 383.430542
906.756836 1913.756348 272.325684
825.467346 1926.197632 164.350296
851.483337 1948.371582 407.484100
975.345276 1873.379395 171.497650
1083.087524 1815.925903 255.549026
836.732788 1973.163696 448.297943
1072.692017 1828.213623 115.907143
914.678162 1892.628662 377.181702
1074.794312 1900.233398 493.902161
1182.916748 1967.711304 469.447083
745.208130 1958.695679 158.540039
796.697266 1969.631104 248.396088
1121.217041 1814.443604 151.921585
866.532227 1937.275635 211.396805
1129.236816 1817.535522 238.831039
883.428223 1914.114014 134.051529
967.183350 1879.447266 401.021667
1191.153320 1957.269531 302.659729
970.286194 1885.503540 272.808838
1162.060181 1909.874390 127.454361
1215.620972 2064.037109 175.982513
900.701050 1915.650269 203.418320
1149.045288 1953.143188 434.347626
1092.855469 1893.511475 520.813904
926.351013 1902.673584 206.590561
1021.635986 1898.613403 214.796631
1030.825806 1845.512451 301.701111
1140.680908 1809.566895 273.214752
1133.853149 1827.441650 114.917137
905.801697 1917.857910 343.321259
924.359375 1891.888794 428.177368
1179.285034 1926.975342 189.080750
905.945923 1910.920532 292.171692
812.128784 1940.635986 284.184601
723.085571 1972.037109 311.590210
1153.655762 1815.443115 344.966003
950.950867 1904.822388 234.425415
779.552002 1955.578247 150.406494
1148.522949 1858.630493 244.994110
890.548645 1899.843872 186.710617
1062.737183 1828.996094 281.033051
1026.861694 1844.622925 321.077118
1069.887939 1909.363525 421.228973
730.280151 1969.836426 233.890778
1229.858887 2006.833496 309.278564
1210.407959 1949.343872 375.012939
1192.760620 1940.355225 299.733459
1143.381470 1825.755859 303.003204
888.114258 1908.770874 151.521103
1132.906738 1838.183472 378.293457
1157.410278 1864.351685 315.757477
932.947693 1901.219604 416.334198
775.191101 1948.840210 376.224030
838.828308 1926.366821 222.571762
899.137268 1930.673096 320.743317
875.816589 1924.125366 214.003998
1203.799316 1952.847534 379.771576
814.752747 1940.266968 392.848633
1181.754639 1919.258423 305.408112
757.092224 1953.110840 328.474579
1064.994019 1831.679077 112.781456
1053.061890 1834.670044 335.702301
949.389099 1895.096802 201.412903
1036.728516 1831.786621 245.769806
1125.160034 1813.265747 110.064072
1136.138184 1827.496338 223.389618
926.879395 1897.171753 336.655457
1091.239014 1809.745850 268.539032
862.422913 2021.441528 452.330933
921.992310 1890.835205 143.898651
1080.712402 1818.277832 262.814026
800.661072 1953.296509 311.615906
825.008484 2002.611816 466.131592
1051.009033 1834.171143 325.500214
1076.638550 1903.615845 443.781799
976.014709 1871.818970 369.631104
964.954712 1888.937988 271.599182
936.439575 1898.628418 314.139313
1224.890015 2044.333740 148.029221
1082.526367 1817.334229 173.684174
1141.118652 1891.491333 382.233643
859.349670 1924.946899 296.506775
1001.968445 1901.817017 285.615997
782.478271 1967.138428 348.982117
1199.025757 1877.571167 369.098602
925.513245 1900.677368 416.985962
1024.046021 1903.019531 252.924698
1198.317505 1973.780273 163.203644
719.854858 1979.368652 241.538864
1152.738159 1860.202515 185.969086
1184.202393 1960.797241 443.176208
1151.810425 1859.344116 382.935272
1234.060547 2031.775513 327.327820
1015.865906 1866.922729 336.966797
1033.786377 1853.536621 138.183365
784.529053 1950.115112 148.926865
967.228271 1895.548828 288.929932
1207.601929 1984.566650 242.414749
920.647034 1900.365601 130.782089
1090.016724 1811.842529 188.121277
1218.864868 2017.007935 284.421204
1048.540405 1832.105347 296.261780
824.416565 1951.206665 429.985291
1096.358154 1830.557617 133.381378
895.443054 1902.376221 214.834030
1241.289307 1994.911255 353.084045
1196.675781 1977.890991 459.935791
1102.962646 1838.952393 377.182434
911.140808 2017.016235 433.065552
941.016663 1887.728638 363.864960
1072.837891 1912.024414 453.206146
970.837402 1870.208374 378.646576
926.408203 1945.004517 428.652588
1070.279785 1899.256348 469.972565
760.169617 1980.933594 308.344788
1021.912537 1858.187134 389.530579
831.469177 1957.288208 437.355072
997.502075 1862.195923 171.332596
779.924133 1955.692871 310.981903
953.579468 1920.838013 430.846222
902.850586 1908.092041 285.682739
897.161987 1920.521851 302.649963
867.479492 1911.880371 393.398376
938.772644 1903.940308 346.459747
1090.260742 1827.283203 389.473053
1052.405640 1825.242310 276.710602
818.529846 1940.933228 418.997406
1046.591675 1840.511353 256.685394
843.498962 1952.488281 417.331360
1140.404175 1823.809692 313.708679
842.506287 1932.487793 258.286957
1108.714966 1808.662354 144.479614
923.571716 1890.840820 379.846924
893.970825 1906.197388 389.658936
1052.994385 1900.541016 432.697510
1084.494751 1916.352661 463.143311
840.833496 1937.224487 425.826324
915.283691 1902.695435 326.257538
1087.478149 1887.029053 483.360229
917.490112 1905.725098 274.992218
942.938354 1903.560303 430.363617
1093.034668 1927.962158 476.429443
1199.839722 1976.536133 221.142624
1079.421021 1839.452515 117.015663
1216.860840 2025.139771 103.702980
1052.302612 1889.960327 520.139587
819.941772 1958.365723 418.571106
1081.288940 1828.787720 132.496826
887.996704 1876.158081 132.680084
968.242737 1881.186523 300.806671
978.994385 1873.546021 361.188629
1005.704895 1860.658081 365.402710
1053.411255 1841.489746 374.955963
1218.670288 1980.436157 326.263824
1138.427246 1912.731812 383.005463
1050.004272 1831.155396 370.331085
1112.416870 1804.715210 123.253334
803.742004 1965.779785 468.269012
774.145630 1954.797363 166.489090
1072.028076 1821.813232 218.651642
1038.908325 1854.330811 118.149704
1055.637207 1883.603149 525.167114
795.109192 1948.058960 204.827469
1179.957886 1971.225708 387.871368
1227.420898 2028.722290 135.074066
1093.552612 1812.715576 250.220993
1073.053223 1820.266357 247.476013
1155.268921 1872.077515 109.266235
798.628174 1941.719849 378.817932
761.409851 1966.505859 172.953079
1110.037354 1797.874634 287.813843
758.731812 1953.992554 228.785278
1183.320068 1977.687134 399.334442
1151.361084 1866.898682 378.955566
937.646606 1895.610962 246.863327
1145.319214 1852.262207 230.555267
1221.666382 2045.986450 119.298393
913.326416 1909.750854 261.535828
1026.747437 1904.281250 500.306610
847.898376 2016.282715 463.039520
989.943176 1866.640991 307.055420
1074.717407 1905.461548 500.938080
741.994873 1991.183105 212.714600
1213.162842 1999.961548 286.726746
1186.781494 1945.496582 168.362747
1107.698975 1822.589478 252.207764
1096.773682 1927.444458 486.252533
1048.442017 1823.345947 285.782379
1049.692139 1847.830811 380.167938
1234.744263 1931.889160 358.162903
1123.164551 1822.083252 129.155655
1226.348999 2029.038574 237.517624
979.500854 1881.382080 260.154480
1076.995239 1809.000122 247.282974
1150.573364 1854.282104 281.342621
1098.990723 1806.522705 258.274872
797.855713 1940.594849 189.661957
839.362732 1924.641357 373.249390
1052.679565 1856.348511 121.927361
876.488892 1930.337402 409.189606
780.777771 2003.995728 254.159805
858.961365 1914.874634 398.099762
1084.301514 1908.501831 420.125946
802.751465 2181.917236 254.492996
1066.098633 1835.329468 207.377441
999.088806 1862.690308 364.427216
984.060486 1881.343262 246.900223
1000.965149 1889.679932 278.947998
1180.072021 1936.396362 140.865555
1191.262085 1974.708008 462.561554
888.890076 1916.696777 190.848434
1126.325684 1875.433350 390.836609
1098.507690 1815.316284 352.354828
899.173889 1909.975220 424.930878
968.196167 1881.080811 309.271820
1154.300049 1867.700928 270.590118
1227.641724 1942.149292 352.782349
1053.559570 1830.510376 227.429977
1093.727051 1933.904175 398.368256
1182.905273 1862.687744 370.764130
965.477295 1887.234741 276.141144
1039.265259 1834.111206 216.799011
1095.601929 1827.270386 138.116852
1045.085327 1908.993530 434.542023
925.439392 1898.583862 282.740021
1021.121338 1853.658691 183.779327
810.742249 1950.018799 239.712082
1073.047119 1819.441284 313.778870
1101.564819 1902.761719 458.170563
760.194946 1957.644775 140.916641
985.477051 1879.385620 285.411987
879.120605 1906.404541 399.026459
1191.848145 1984.676636 201.408600
856.365051 1916.770752 173.585709
1149.781738 1844.197754 331.097748
1085.999512 1926.778320 454.853424
1046.973877 1838.620117 317.981323
1081.802124 1815.718750 293.004486
1213.230835 1981.161743 233.523804
1054.657837 1902.499756 457.432373
879.002563 1930.522095 429.978455
855.771729 1927.294922 208.449188
1001.744873 1932.178833 414.164520
1173.852905 1919.186890 195.520050
1213.348999 1979.700562 221.089386
993.637817 1881.913330 219.445999
1116.165527 1804.069702 157.472839
786.007446 1962.190918 197.490631
898.686279 1912.971680 392.660889
733.781494 1973.003662 157.137726
1019.394104 1872.585571 318.729187
872.370972 1921.037720 203.293747
1169.539795 1865.027710 342.341461
866.275696 1928.059692 333.386505
1025.184448 1849.924927 370.031372
1080.360474 1899.094482 464.846069
1009.435669 1868.947510 383.375488
1131.779907 1813.440186 371.416595
1068.424316 1898.728516 459.650696
1070.261841 1831.966797 347.805481
986.642700 1912.676514 423.235718
1189.487061 1946.113770 334.494019
783.195618 1945.260132 183.372894
1204.919312 1898.694458 368.003906
1094.176636 1892.852173 381.781952
840.031311 1925.833862 182.428329
1194.501831 1959.431274 225.231949
757.639343 1965.057007 171.369904
1094.276978 1806.610107 216.571548
1143.708130 1851.615967 188.213089
955.396851 1891.381348 322.333618
1008.720154 1858.207031 122.044388
864.198425 1924.237061 255.612900
802.316528 1953.581177 267.844391
1042.690063 1897.191162 416.300537
1082.188354 1814.941650 319.573914
755.997437 1952.297607 186.660904
1122.080200 1815.504028 382.689148
789.827515 1956.945679 321.378754
882.640503 1928.379517 304.700684
808.126770 1951.320801 294.031097
853.739136 1937.582153 405.277832
884.029419 1902.803711 162.203232
1013.088623 1861.278198 351.136322
1207.750732 1936.403076 344.889801
999.247559 1888.254272 407.171509
1212.698486 2017.503052 154.139969
1189.680420 1870.756104 361.211365
1120.756348 1882.499878 392.307556
1149.163696 1849.129639 294.202179
1031.159546 1900.655029 431.348328
797.717041 2045.716187 459.984985
927.775696 1909.667725 209.304977
825.048706 1951.535889 285.274292
1109.388672 1809.863770 142.721863
1163.220825 1871.598511 306.714417
1228.626831 2001.886475 321.481903
985.363647 1885.686768 339.079773
843.138977 1945.312012 416.385651
887.522034 1915.666260 419.186676
1238.247437 2020.212646 367.901062
881.607422 1924.183228 410.164459
1030.800171 1856.582275 131.531723
1131.052368 1864.311523 382.698242
1162.483032 1885.204224 198.230881
815.981018 1933.181641 378.857880
1138.213379 1813.512207 337.823792
1026.240601 1884.881958 390.652557
1076.115845 1819.385864 341.419556
1080.476685 1816.388550 169.650787
904.613464 1909.360474 368.809052
1063.921021 1834.343628 360.150146
1051.531982 1822.462646 276.330780
891.834595 1850.278564 146.184235
1014.512207 1890.071289 232.069901
764.033752 1995.382324 246.099670
811.090820 1965.530029 421.301392
777.249390 1950.325195 376.515533
920.987427 1911.397217 295.391296
1211.587891 1968.155762 290.578735
1174.850220 1900.155518 302.688110
883.402405 1930.220947 289.284210
1060.710327 1838.754883 371.074768
955.233276 1891.047485 318.453735
932.274963 1883.684570 414.728271
1074.602783 1813.939575 196.377136
1156.152710 1844.153076 362.721375
977.222595 1880.809814 391.867584
775.360168 1974.129761 413.124115
1153.989502 1833.535034 368.901642
1113.850830 1901.400757 386.275604
1204.348022 1979.821289 200.614929
1114.286499 1805.239380 340.943329
719.796570 1983.548584 196.900040
930.859619 1898.187256 402.207611
1164.588379 1860.531128 375.678314
1008.415771 1859.292114 140.224472
1219.618286 1959.098022 346.603943
727.090393 1977.849609 370.033875
952.385315 1908.807739 418.593262
842.929138 1935.592529 226.533203
975.937256 1877.398438 390.025909
1030.126221 1849.679688 141.925156
954.408203 1896.520996 234.023209
1134.605713 1785.469360 124.103943
1030.116089 1839.892700 358.101654
1189.233032 1953.068481 156.396591
902.913757 1882.532104 129.213455
899.368835 1912.846436 221.636765
1073.873413 1816.938110 234.123444
914.163147 1911.169678 252.614395
1202.603638 1967.061035 283.126373
1222.283081 1999.018677 380.988892
919.080200 1905.087280 338.321594
1223.811035 1944.307373 355.677765
1182.305908 1949.193481 129.209137
1066.814331 1829.256226 146.896851
941.891418 1896.385742 328.813446
760.799500 2005.198608 212.105591
1098.085205 1894.259155 418.691040
1136.427124 1822.955688 323.812042
1065.107544 1830.701782 308.531952
1079.683594 1831.010986 126.118462
975.880371 1875.604248 216.730576
1047.082642 1831.630615 199.510498
786.641846 1987.430298 454.643097
1049.733398 1839.011475 223.547943
794.060852 1991.594360 450.223633
1062.027344 1896.982056 528.425049
1114.304932 1803.496948 333.252502
817.063904 1991.672729 451.935211
1231.552612 2025.434814 380.446533
1052.656616 1844.097290 125.499268
1188.313477 1902.812500 108.048256
1237.713989 2069.909424 211.127823
938.876770 1890.817383 359.325134
940.754028 1894.941528 406.142700
1083.758545 1851.714722 380.676117
869.388306 1918.702515 350.064545
890.431763 1921.069092 249.707367
985.309265 1878.770630 239.084595
1220.281616 2023.640503 181.387680
849.792358 1970.091553 262.909119
1075.805176 1837.793091 377.435455
947.157837 1889.017944 249.810959
894.443787 1918.191650 287.311523
1029.746948 1850.942993 374.571930
967.898865 1879.311401 347.187408
1078.157227 1895.226196 467.802185
1222.353882 1941.784302 363.031952
960.121460 1893.470703 345.041138
1208.399780 2019.503784 115.372894
990.075806 1866.200317 294.750946
1015.192566 1860.836792 373.182098
1079.466675 1918.465088 403.628174
1228.415039 2045.087524 211.991730
864.015686 1926.011963 320.533875
1084.442749 1919.282227 444.083557
1056.604614 1857.520386 387.107513
774.217407 1946.781372 379.973724
1149.390137 1855.680420 209.218445
1134.623413 1806.998901 236.265579
1107.922852 1801.960205 319.367523
1045.072876 1825.327515 281.276764
865.161072 1924.808716 304.606232
838.796265 1930.587891 370.917877
1008.311096 1934.722656 422.333435
1136.942017 1808.559937 107.043129
1151.256226 1832.149780 187.785217
808.952759 1948.278687 400.759796
948.005859 1895.991211 294.041901
1172.996338 1883.723633 285.233215
1143.091553 1841.188843 241.021255
1178.853760 1891.656494 330.360413
1077.154663 1829.228882 345.986084
880.815430 1893.174072 128.894699
1153.279419 1946.615967 429.319672
962.897705 1874.963989 129.492905
874.670959 1964.745239 444.792450
912.749390 1894.535522 398.515442
1101.012817 1812.123413 292.168427
1088.307007 1913.589966 516.916748
1084.903564 1821.286987 120.773331
735.447449 1981.823975 316.414154
1064.910400 1815.670532 218.562332
940.727905 1882.046265 172.921829
1159.704590 1864.789673 307.643127
1188.516602 1968.278320 263.963043
880.713135 1915.219238 220.684677
990.419739 1937.247925 416.357391
1237.921753 2003.659790 372.715027
899.144897 1970.726196 426.361969
1059.106934 1886.689941 452.746796
1135.203735 1823.076416 329.261475
1070.699463 1823.734253 183.904877
996.447388 1869.968384 389.949341
899.538147 1980.539307 434.017700
1033.119141 1848.608154 361.156219
1229.005859 2001.546387 106.877350
1136.616455 1803.698242 258.480011
1137.113770 1944.262939 403.083740
1024.701416 1840.412476 164.373459
1029.073730 1895.147461 385.466125
1057.969116 1837.968262 363.019867
825.544739 1951.759033 300.906616
1212.319458 2002.625854 189.155777
1035.756470 1853.111450 127.355904
1035.869629 1841.085327 242.818802
823.636719 1964.161865 429.187927
1165.197876 1875.440674 282.819031
892.310547 1907.218506 162.888138
812.363403 1940.600342 300.577942
1175.445190 1935.025146 490.039093
806.905457 1964.236450 453.502045
925.466736 1910.413818 274.347961
1052.608643 1945.238281 430.766235
897.587341 1912.859985 312.880615
876.032471 1912.825684 380.360046
812.036072 1939.309204 344.506653
1094.376099 1815.802734 271.329529
1234.671509 2051.124268 297.485382
1188.161499 1933.220703 291.114044
977.075989 1879.024780 231.977936
1235.869141 2055.515381 249.282639
1096.193604 1811.326050 155.123779
1108.513916 1826.933105 352.697113
855.022766 1932.325073 319.531586
808.806885 1935.880249 376.486053
1105.712524 1932.352417 387.866364
951.696716 1879.804321 392.305756
1111.519043 1813.260010 285.258453
1031.697632 1847.635132 322.514465
1196.150146 1894.555054 364.335663
727.532288 1968.473389 201.113113
1120.769653 1824.302856 348.697784
1046.867065 1895.258423 454.211029
1095.561768 1910.895142 422.238831
1201.873413 2015.208008 134.393356
1174.875732 1852.715698 352.801147
1185.215088 1946.527100 183.860733
823.144470 1936.734009 316.589355
1119.032837 1795.540405 294.254486
1077.443359 1842.773193 123.800301
1127.854736 1813.543457 140.200882
1218.966675 2022.758423 175.691650
1090.958862 1887.321167 410.968048
1185.080444 1912.921021 223.690292
874.633850 1919.448120 143.124481
953.185730 1886.101685 340.641022
1233.837280 2064.417969 184.744492
946.807312 1890.090576 270.307434
1071.022461 1873.491211 412.043823
1089.961548 1830.562256 347.968079
1067.421387 1821.980225 235.533829
1152.150513 1869.860962 137.784805
1117.248047 1823.033081 315.381561
1190.576904 1932.020386 213.299927
1176.625732 1923.438965 154.735123
1022.315796 1838.026245 266.252075
1157.320923 1939.579468 422.823914
746.470093 2004.462891 258.591248
1218.874268 2011.754517 101.000175
1216.740234 1909.719727 371.848419
789.892578 1963.844482 433.618622
934.592407 1891.473267 383.864410
812.433777 1940.625366 304.629272
899.188293 1898.581909 394.134918
869.617126 1926.552979 313.401672
1150.901367 1868.947144 186.655548
1051.849121 1823.345093 284.946930
1174.114868 1940.715942 106.317154
851.016357 1945.561035 415.135834
885.517944 1909.037109 178.433655
1157.673340 1855.072754 378.598114
1074.047485 1815.495483 230.624817
849.810486 1931.973755 221.454163
839.504883 1987.944580 451.229065
1222.541504 1995.979370 269.618774
1006.794189 1839.314575 262.107544
1151.576172 1861.727295 274.727966
1137.983398 1808.404419 240.331314
835.183411 1931.499634 136.912323
1147.069092 1854.553101 228.735916
789.549927 1966.834961 319.467590
1150.927246 1855.214233 311.532349
1164.197754 1887.171509 179.389359
761.804138 1957.610352 161.571121
1085.124512 1896.825684 535.067383
989.560303 1876.581543 400.070892
1003.159485 1877.683960 185.770523
1232.509888 2001.883667 365.469086
1081.109741 1828.379639 254.168259
1073.257935 1805.803345 228.111664
1170.975342 1951.102173 465.984711
1167.736328 1882.838867 277.900909
839.556396 1952.744141 429.396149
1169.184082 1892.785156 114.575951
1248.550903 2065.969238 178.251541
1116.703125 1823.680786 215.420486
1189.533081 1949.590454 163.724350
1124.655762 1817.070068 213.926544
771.361450 1953.302856 138.725266
755.750000 2000.215088 210.718643
1047.682983 1840.448120 120.703125
802.535156 1946.957886 412.468536
775.847656 2118.557861 346.931854
846.168945 1937.882324 348.295258
1211.529541 2007.484253 217.930405
1072.874512 1821.828857 168.879791
1056.502075 1895.518921 386.626373
1183.749023 1932.208496 233.673828
1026.350952 1924.181030 409.069977
1124.735962 1854.401611 382.788879
920.262268 1888.889648 388.856750
861.648682 1925.942993 321.149750
897.884705 1899.566895 407.138153
1162.271973 1885.071289 301.886078
1156.390625 1861.312500 375.699036
1130.740723 1820.904907 383.827789
838.656494 1958.002930 426.648804
916.599426 1904.390747 326.766296
1052.527466 1881.128052 499.155731
1196.197510 1982.899780 291.728699
1108.739746 1801.017334 208.610825
840.682007 1972.177246 439.356415
1030.654785 1823.540894 275.727844
1111.323486 1903.128296 383.179840
1158.073120 1861.267944 308.171906
836.250427 1939.427246 354.367645
1251.485962 1998.189575 370.206360
1083.889404 1825.763184 368.394989
1013.982727 1851.932129 246.530411
810.878479 1964.299194 468.152527
980.663147 1879.772583 280.775665
781.194153 1967.918701 229.250229
1035.454468 1833.385742 285.678345
1192.369385 1948.177246 260.552155
1111.983521 1801.979614 298.950562
1235.868896 2040.561035 187.508911
1155.000122 1861.344238 274.904358
877.043091 1928.279175 399.021301
914.363770 1903.750122 269.962799
1064.169922 1840.085083 390.902039
1054.624512 1875.658691 382.091187
1079.008667 1833.353027 364.066376
851.359802 1926.225830 136.309448
1215.241821 2001.747437 266.674835
1140.355591 1800.775513 326.462128
780.275085 1952.620483 288.651886
1154.123047 1858.191162 301.277283
817.536438 1941.054443 410.762787
1164.258423 1899.705322 209.739227
935.486084 1898.647461 292.101715
836.268799 1939.405273 358.257385
1148.250732 1830.310547 381.675262
867.566895 1933.907227 368.974060
1080.207397 1813.501099 279.768066
1072.843262 1824.149536 329.521149
1017.626587 1862.844116 377.375458
1033.858398 1891.575562 270.524170
752.284607 1937.904175 144.771835
999.285889 1866.067993 361.252960
1091.746216 1828.701904 122.886650
1050.875000 1833.345459 221.576553
1015.269348 1855.560913 168.432236
920.757813 1893.543091 218.587158
1192.759644 1980.442627 425.396393
1006.229980 1866.256714 341.346832
1167.044189 1959.677124 431.994690
1077.098877 1916.730347 497.748871
840.415588 1933.991821 319.567444
1197.052002 1987.451660 169.009125
1188.632324 1946.895264 215.100845
899.218384 1913.236572 214.879440
810.779358 1950.273560 323.132660
1104.128418 1802.042114 284.164856
899.641968 1947.292114 424.484497
961.236450 1900.318115 420.718994
1048.428467 1895.486084 468.425415
738.681580 1973.795166 299.448669
758.704468 1982.143188 320.319489
861.167480 1952.464844 424.524078
1195.347168 1905.909180 379.326477
1176.108521 1947.650024 186.490646
1031.366943 1849.029541 381.609314
941.382019 1895.247070 414.349976
1147.257080 1852.428589 181.676376
1141.484741 1801.210571 361.122223
1064.381104 1838.422607 385.391266
1206.469971 1993.608276 161.507706
1094.031860 1813.345093 324.523834
884.077515 1916.799805 169.251404
1150.636597 1852.425171 308.704651
1004.393311 1922.154663 274.792328
890.979980 1901.074585 377.651703
823.798889 1971.694946 450.088318
1158.825073 1868.192505 107.624542
1220.742432 2065.233887 122.740952
860.766418 1926.505371 228.482025
1032.633545 1836.176758 174.276855
852.780945 1899.556274 133.057922
941.431702 1903.229370 206.733765
1049.830566 1836.374390 290.976715
1181.925537 1927.808594 381.502930
1086.439575 1892.798950 512.682434
1152.470459 1944.280396 416.439545
1159.876587 1831.901245 106.524155
814.353210 1937.574463 234.692581
1102.325806 1803.764038 281.533508
980.049683 1877.593506 385.230835
1073.953979 1822.379395 161.243744
1070.574097 1832.978516 189.750809
1192.456665 2018.672363 392.937042
1148.251709 1852.308350 151.673767
1049.831055 1829.271729 204.456024
1106.993896 1812.355957 367.726227
1191.255859 1875.774170 357.557007
896.498352 1909.230103 315.688965
909.744141 1909.357788 287.501892
1148.532837 1835.613770 290.502716
895.220947 1899.527954 163.714035
1054.396973 1908.529175 419.500122
894.164185 1904.282715 390.096588
876.328308 1933.305176 301.233429
849.244141 1940.829346 413.328918
1176.620239 1925.146362 321.624573
901.037476 1909.393066 199.602692
1076.998047 1825.686523 331.445251
910.264771 1906.214478 125.744209
1078.822632 1812.881958 211.184311
824.546265 1991.225220 272.545990
1098.299927 1822.330811 153.000427
977.636963 1879.523682 163.609131
932.479492 1898.040894 317.508545
883.249268 1935.138672 421.665894
858.743896 1988.846436 432.428467
1087.880249 1914.034668 472.451538
1209.346436 1977.637329 370.771423
1086.404175 1893.548584 509.565247
792.308533 1995.269897 449.958344
1171.003784 1956.356567 479.931183
1188.548096 1947.184570 210.820587
1066.364868 1889.114014 431.162567
1016.704224 1846.589478 273.651886
1216.393433 1980.553589 278.853027
764.892517 1978.776001 405.454529
800.781860 1957.210815 204.794220
1060.897095 1826.102783 217.176651
1032.809082 1848.266113 359.236816
1176.312622 1928.319458 210.216492
759.346008 1978.805420 435.896545
1011.296631 1904.300537 196.657104
1205.278076 1898.573120 371.993011
1070.716431 1820.651367 168.288773
1055.481689 1831.334595 337.585297
958.647400 1895.917480 124.865768
1141.018555 1823.534058 277.108398
1141.225708 1831.844849 279.091461
841.500122 1969.226440 435.608551
1224.310181 2026.649658 220.813385
1106.843018 1810.409912 169.437378
1034.770142 1855.461548 383.935760
985.922302 1887.508545 220.280487
1078.249268 1910.453369 433.858368
792.505920 2012.026489 457.148285
1147.369873 1892.855957 379.785736
796.329224 1949.128784 143.021667
1127.934937 1819.379761 119.788208
1035.558838 1850.513672 341.027161
1065.393311 1879.274658 428.073822
805.357361 1938.564575 396.229218
1123.689697 1972.812012 393.546753
992.240723 1870.762939 350.563202
1010.537598 1856.074219 309.985168
826.174500 1925.166138 139.737488
1214.793213 1977.181030 278.517365
1086.824829 1814.693848 328.057861
782.102966 1982.127563 244.405014
1185.184082 1925.955566 288.064209
1107.122314 1815.746582 292.645782
1098.233765 1806.904175 336.328613
1173.654785 1915.353394 227.836914
1210.503418 1914.293335 366.469116
1128.213013 1835.186401 123.098221
1199.457886 1959.465698 322.260651
1058.795898 1829.505493 151.971619
800.123108 1964.593140 272.368286
865.877625 1898.849731 128.576431
893.600891 1899.480347 400.261536
1075.900024 1896.077148 415.660370
1214.631226 1995.962891 289.123383
1170.016113 1904.458618 289.375305
1176.466309 1906.989624 372.883942
1208.701050 1995.725830 188.432098
1138.689087 1958.443359 448.882141
1160.169678 1889.529297 221.285004
1098.596191 1831.981201 367.779114
989.792786 1871.189941 381.965454
793.309937 1955.531250 249.356216
1065.631714 1892.958008 446.685822
1060.041260 1822.485352 303.518463
1093.062256 1926.853271 498.612305
979.920349 1890.342041 306.307007
1110.491211 1808.347900 354.169739
1203.756470 1970.800415 110.147369
850.905396 1921.974365 386.590363
1031.094727 1841.019653 304.797577
1151.792847 1860.456787 275.360565
1138.471558 1806.446411 382.112427
997.252258 1862.090332 382.177094
1018.561340 1915.674927 407.136688
758.719360 1990.148804 428.132965
899.167664 1901.618896 395.443939
1039.820190 1857.154541 376.094666
780.987366 1951.544189 325.507294
797.180176 1948.285889 412.895630
726.466675 1966.356812 292.731354
1063.098999 1886.674438 475.125153
972.510498 1874.910034 380.980682
1184.935791 1942.213623 160.142334
1061.383423 1812.593262 124.048431
1112.663696 1921.897583 385.704346
932.400208 1884.182617 418.241516
987.511597 1866.381348 158.078674
814.658630 1944.929810 421.414856
970.528137 1874.944946 397.395996
956.838867 1893.334595 235.270828
779.341614 1950.039429 363.646942
926.364685 1868.453857 128.046158
975.757568 1934.784424 427.006165
935.432434 1902.140137 410.682343
1171.563354 1888.842529 319.308472
894.411133 1912.362183 255.677750
1070.981201 1826.633057 223.433090
1083.125732 1829.864014 371.293030
1048.312256 1826.360229 289.287262
949.580566 1886.525879 413.673401
880.114685 1937.273438 430.233154
1101.595337 1816.032349 346.005890
1152.526855 1863.943726 180.919739
868.083008 1932.061035 349.043579
904.926086 1866.354126 135.810837
1004.463806 1884.758179 335.747162
869.396301 1929.934692 198.474319
1193.226196 1933.395142 245.994781
1228.128418 1947.950806 361.007263
1236.632324 2070.412109 221.543472
897.787354 1913.240479 332.710022
1171.948486 1887.453491 193.084641
793.962952 1947.073975 357.481262
791.013062 1970.382935 182.937363
1196.850830 1883.989380 371.582611
1121.387451 1813.390381 151.290787
1077.036255 1820.581299 164.282501
1142.343262 1851.215332 156.471649
1039.225098 1845.078735 358.205688
873.801147 1916.529297 396.068512
782.826599 2060.047119 441.549896
889.313538 1908.236450 413.761871
984.265808 1898.667114 316.453888
1168.862671 1886.819824 269.492249
1215.387695 1914.997803 397.593292
822.562866 1992.965942 444.942017
1172.208740 1853.305786 386.964325
1114.435181 1832.056396 125.617050
1227.186768 2033.050293 263.488190
791.232910 2005.161865 279.938324
1153.352905 1844.328979 352.921631
738.141357 1964.656616 185.634460
1221.517334 2042.885620 107.678894
997.058838 1969.296509 431.362274
1235.547729 2075.251953 193.350769
727.859558 1978.209351 377.228149
1108.262939 1828.402100 374.801941
841.994202 1946.191162 400.089539
1103.891113 1805.950317 328.735931
1003.806030 1856.315674 163.219757
853.443542 1890.837524 146.926712
1019.870850 1857.818604 343.596863
886.046814 1932.994507 428.351807
754.934753 1976.211792 304.526306
825.816406 1973.146484 180.080551
1198.596313 1885.121948 384.699738
1100.493530 1807.714478 349.233154
835.139954 1940.937622 437.041168
1128.992554 1846.224854 130.812454
951.050903 1892.611328 401.138733
851.747437 1928.973511 364.476105
1208.752441 1923.849365 371.655792
1028.188721 1901.849121 464.563599
1138.693237 1844.755615 302.820435
1093.298462 1891.184448 522.201050
1070.846558 1820.010986 207.026443
1228.911499 1985.097778 365.839996
829.893433 1916.076538 130.594269
739.480286 2014.504883 387.504181
1110.093994 1810.494873 144.732742
1082.947632 1823.691528 293.910858
1031.232300 1893.758423 386.755524
790.391174 1943.094849 384.305267
1157.464966 1871.797363 183.066574
848.322571 1992.108765 453.575623
1213.175903 1959.994385 338.152130
1039.148560 1836.273682 176.318787
1166.301636 1945.780762 383.379883
1127.956177 1869.467896 377.172791
1133.016357 1802.834961 145.476547
1025.984741 1849.457642 186.477280
1031.779175 1844.958618 147.689392
853.801331 1939.798340 262.455353
1169.240356 1909.192261 176.775970
846.621765 1965.689331 437.988708
899.958801 1991.533203 447.784149
1146.977905 1844.719971 181.957764
1099.538818 1803.134888 272.102753
1052.338013 1832.128906 353.906494
1149.208984 1872.520508 293.970886
1071.216431 1888.113892 509.987213
1063.263184 1825.416260 175.737671
1132.570801 1921.189575 394.084076
983.081177 1982.399292 453.870972
1064.491455 1818.250854 315.954346
1141.660278 1833.866943 147.386490
1204.959473 1954.382080 308.092957
1208.050415 1974.042114 370.913666
1024.738037 1842.397095 205.991898
887.151489 1921.258301 314.594238
775.981079 1942.323608 387.407135
1068.855347 1810.302490 123.681160
1073.493286 1897.833984 415.881500
948.084717 1990.140625 435.645294
831.825500 1934.714600 200.433868
1158.944946 1876.125732 267.600769
926.126160 1902.109985 215.847610
1067.018677 1849.613037 388.259460
1172.071533 1893.189819 292.038208
999.562012 1891.367065 209.528687
1160.696533 1903.859497 257.808472
1143.193359 1814.381348 157.768738
1189.465210 1902.399902 344.774414
784.643005 1950.055054 333.480499
1137.624634 1943.281982 432.647980
979.499207 1867.259155 158.916534
1122.001099 1806.230713 158.111816
1065.353027 1825.848267 167.246964
903.053650 1974.654297 438.866364
1204.551270 1984.539185 205.127823
833.109741 1920.947998 379.022980
1196.449341 1983.980957 282.291656
846.080750 1933.930542 136.439270
957.265625 1894.456665 308.122162
1011.673096 1851.777222 271.670807
869.962769 1926.511108 332.775360
1232.332275 2040.565918 135.246078
1045.188721 1825.161743 213.675674
1089.152954 1821.695557 176.099640
1165.371094 1944.404663 387.014648
1100.912842 1818.904175 367.235870
1175.508789 1918.561035 294.356598
1091.153564 1969.983154 389.929260
971.790527 1875.463989 171.981720
786.073364 1973.414063 445.157532
843.974548 1933.373779 225.373611
1083.452026 1823.386475 300.707336
1202.559814 1976.257080 192.701492
1158.043701 1860.690430 326.818451
1085.750610 1814.617065 301.743927
1148.428101 1838.651855 275.580383
1078.207031 1832.980957 116.948792
1134.282104 1809.747681 201.117523
998.921997 1870.229736 318.569641
892.180603 1934.137329 328.220428
1174.560547 1937.402832 462.056580
878.923279 1993.902832 432.489105
912.098511 1926.304565 420.577911
789.799011 2133.593262 382.315826
1126.120850 1821.658691 384.506104
966.821350 1902.283203 194.181503
951.297607 1892.784302 263.663269
823.781738 1929.756348 134.652954
1011.539795 1864.879517 280.572632
961.771362 1894.575928 220.856171
1055.547485 1830.961670 199.698517
1186.717163 1898.354126 388.466064
1054.888916 1890.312988 506.034302
1110.386108 1800.095947 307.874573
764.084534 1916.755493 153.360245
802.968750 1976.557739 427.279236
1214.732666 2030.152100 236.191986
1018.032166 1858.272461 370.125854
827.020996 1954.281982 414.568665
866.101807 1923.595093 261.584686
1158.530884 1857.522217 107.610039
1009.468811 1869.051514 128.242538
919.744385 1891.340820 417.823944
1139.929443 1941.875244 496.382996
1122.991089 1962.970459 427.298798
1205.786621 1979.473267 307.621307
1058.939453 1885.432617 532.512878
774.889893 1951.578857 138.223938
988.405701 1946.031372 416.895233
1227.860474 1932.532471 357.781586
740.119568 2007.995972 405.269409
1080.670776 1928.857300 413.924988
1011.303589 1904.425659 389.400116
1151.853516 1867.508179 217.447784
1011.015198 1854.303711 146.165085
1136.435425 1943.962158 460.555023
1234.717041 2029.430420 232.178558
982.643066 1872.041504 134.404465
1184.355469 1936.255493 171.449692
1250.834595 2035.934082 105.138496
1053.279541 1894.857544 493.465790
1084.376221 1840.511597 147.102798
1032.281494 1842.948975 257.165009
1132.877197 1798.745117 330.716095
768.187561 1947.349365 408.910583
1087.383545 1879.282837 402.802246
993.773682 1862.428711 175.011292
1122.480957 1812.500000 108.305786
818.599365 1952.773071 413.699921
1176.938354 1913.951782 304.364746
1188.101929 2008.827393 393.990967
754.204590 1960.082153 424.659424
763.625977 1964.338501 406.540894
1165.719971 1849.767700 320.251434
1198.210571 1958.035522 150.735138
1197.874634 1997.201660 450.081848
777.762268 1985.999023 417.177887
1138.980225 1832.209351 323.589386
1206.749634 1983.898193 280.421082
1062.976074 1827.230347 194.959167
951.739807 1912.713379 428.373169
1055.391968 1843.267578 139.778397
796.509521 1952.223145 246.267120
982.784241 1877.432495 330.347931
849.948975 1945.125732 410.822601
1167.104004 1895.119629 217.180756
1137.708984 1800.150391 135.367935
939.991150 1922.540161 426.334290
1033.086304 1840.118530 185.594406
1173.813354 1907.713379 293.693390
1043.922119 1835.304443 139.380142
1090.722168 1927.336792 464.548370
880.436829 1920.677612 233.247101
1024.202515 1851.583374 295.281952
980.114380 1879.581543 225.945282
1083.750000 1809.900757 236.899612
1229.437744 1935.758545 357.692810
844.555969 1938.113770 256.371857
1193.945435 1956.826660 234.737122
907.913269 1907.461792 254.507233
1084.889893 1811.370605 256.038452
1163.971436 1942.928467 383.356384
1100.776733 1800.355469 240.758545
1066.721802 1832.864136 356.173279
773.642883 1960.377441 200.555344
1088.053101 1961.997559 388.364441
810.774170 1939.720825 363.613617
906.408691 1895.252197 392.732666
1208.753174 1905.808838 367.658325
1102.249878 1891.599121 401.051819
1184.041504 1926.871460 274.108612
1036.011963 1827.733276 238.020187
859.574097 1931.570435 261.053101
844.290771 1918.159912 407.272095
1051.566162 1889.165771 434.787048
1076.249878 1825.971924 210.371262
844.192993 1928.890869 355.920441
1147.153198 1832.275513 280.183258
857.999207 1939.395142 315.171844
726.622620 2004.109863 258.822205
873.773499 1936.849365 396.097168
825.634460 2007.015747 458.511383
932.663574 1881.691406 168.891571
978.583496 1885.958618 405.011230
785.057983 1964.920898 309.453857
925.741150 1896.917969 250.084717
806.646973 1939.308960 226.737762
1011.573181 1872.546143 396.025940
851.760071 1974.042236 441.633942
1189.442261 1932.231079 301.044006
1143.067139 1821.198486 313.393921
807.857910 1987.772217 444.427185
804.025696 1950.616821 406.083801
769.724609 1972.685669 184.256882
1101.722900 1987.900635 414.683105
848.107544 1935.599731 279.690369
1106.348877 1826.984741 143.565796
1072.160278 1824.205078 376.302521
831.553040 1921.420410 140.293396
1182.926025 1922.733398 308.896301
1110.893799 1824.484619 290.911469
854.939331 1951.340454 439.126678
1174.381714 1861.820557 348.445221
1093.568359 1932.689209 479.539764
1142.354370 1843.174194 246.728455
1167.473022 1909.853638 139.342789
906.094116 1907.723511 250.479950
855.400635 1923.481201 395.195068
1093.671143 1905.444336 509.272888
988.810059 1875.833862 289.812927
840.415710 1939.081665 268.537201
854.743835 1924.804321 271.211548
812.544617 1933.901367 383.609955
987.314636 1889.597046 389.116364
1143.528198 1946.707642 398.208069
1089.133789 1821.069092 279.188324
1203.574219 1988.323120 195.044632
1224.220825 2035.542725 197.799362
1234.306396 1989.991821 340.026794
1154.307739 1873.645630 205.122986
1192.401245 1937.382568 107.060760
1101.567749 1814.836182 157.738159
1059.523071 1829.305908 259.767090
1208.492188 2010.754395 241.385254
1185.454590 1961.145264 411.105682
866.137451 1930.940796 408.871857
1215.221191 1997.437622 128.565552
896.773315 1898.247437 130.823624
1028.075195 1839.079346 176.689056
1189.573242 1935.429688 309.597412
748.233398 1956.761841 373.191345
1059.916626 1828.914551 348.456604
814.308533 1963.143311 464.480255
1017.267578 1853.672119 219.762833
745.630615 1974.019653 324.742310
974.920227 1880.956299 191.626465
1244.446411 2082.120117 122.889755
1073.115845 1819.439575 240.070358
737.316650 1971.297607 323.280670
1033.728638 1844.484741 365.223450
1107.412842 1804.373901 172.000732
1245.861572 2043.968140 296.002563
858.394226 1922.872070 181.174210
1053.651733 1933.607910 434.292206
893.653503 1908.234375 406.729065
1088.200195 1889.771484 504.443695
932.255066 1906.192139 283.625458
856.684326 1947.437256 260.641083
1208.559326 1974.837158 401.085785
821.508789 1943.843018 393.158295
765.751892 1963.674805 197.076141
1165.218628 1845.346924 373.233887
1030.273438 1853.604614 369.323517
804.897278 1937.324585 175.158936
1064.385254 1883.483398 396.500641
1142.517334 1839.348145 203.237381
991.124023 1884.029419 194.221893
1082.725952 1895.509399 454.734161
894.356750 1926.596924 272.806091
1127.776978 1936.738647 401.698517
1202.715332 1980.846558 178.888260
1171.485107 1890.716187 209.009369
1128.098877 1799.514038 203.861877
951.374023 1895.467651 172.753052
756.468079 2039.333862 418.852722
1163.719727 1880.097412 377.850128
1113.413330 1818.060303 121.445145
734.213257 1980.615967 231.184540
785.609680 1958.096313 391.714508
871.832458 1921.162842 193.184509
807.728760 1960.804565 298.966492
819.711731 1933.023682 176.873718
1075.026367 1827.126465 323.352234
1124.964478 1812.149414 331.330322
1176.788330 1917.867310 270.194794
893.953125 1909.171875 371.705841
1202.197632 1972.839722 231.994705
957.095459 1892.284790 202.642639
1158.284180 1855.670654 376.399811
928.057739 1900.002808 412.945465
1197.938232 1898.053223 377.191498
920.500366 1902.046387 429.661682
1062.275391 1845.134277 128.905701
969.763367 1963.835938 431.233887
992.842712 1896.101929 216.701050
1140.599609 1827.127808 310.706390
1207.900269 1904.919800 371.349457
841.688416 1938.630371 135.424973
1152.326050 1873.765869 172.223251
1131.521240 1840.024170 123.688065
882.152161 1927.897949 321.483215
1248.386230 2021.140991 358.970917
1110.487061 1799.658203 271.946442
884.149109 1932.684692 404.969727
1004.822327 1861.306030 384.715790
1128.974121 1803.967407 194.434280
786.258545 1950.895508 362.896851
1132.232056 1803.699829 309.059326
776.650574 1955.598267 213.043793
1186.441284 1964.056641 435.969727
756.552795 1960.844116 361.668884
1203.233887 2015.084351 103.509674
1066.967529 1895.325806 513.286560
1001.280823 1865.808594 385.935303
793.422363 1938.549194 195.008163
1126.854614 1949.794800 464.150391
886.977295 1937.827637 424.802704
1083.728394 1895.862305 467.908630
1182.838501 1941.136963 480.475464
1151.731201 1832.684448 341.493958
1173.591309 1919.772217 170.803558
807.055969 1951.748657 319.815674
1113.801636 1803.549438 352.549896
1247.975342 2060.354492 103.590553
961.365845 1896.930664 428.096954
870.471863 1922.592773 378.635254
949.386780 1892.211548 243.816605
1135.534912 1781.209839 121.512268
960.686035 1895.425659 330.537903
1092.657593 1893.562500 524.578369
1172.915649 1841.178955 361.470367
788.611755 1977.584595 429.968018
1107.899536 1945.014404 493.231964
1055.944092 1837.126831 268.414917
890.137817 1925.396729 252.443542
1086.534424 1884.051514 395.691895
1162.912842 1938.703491 456.952698
1133.746826 1909.957886 382.947998
828.813538 1935.632324 385.590729
959.891418 1903.026367 258.995056
1075.232178 1819.578247 348.840118
945.642700 1890.311035 309.880615
1009.270020 1859.035767 364.991150
1052.320923 1902.048828 451.579346
1121.473877 1813.855591 367.025116
1185.494019 1926.601074 281.963715
903.140015 1902.159668 406.701904
918.710388 1905.451782 143.676254
1034.770264 1890.309692 440.815796
952.860291 1874.037964 155.040863
1179.368286 1876.016602 393.725800
902.057312 1912.461792 428.256744
1070.061523 1895.589355 396.378143
1211.053223 1940.377808 371.517426
1183.153076 1925.853516 249.620575
1133.951050 1902.904419 383.137329
1018.039124 1929.578491 415.547363
1104.437134 1805.355469 307.283478
1163.898560 1888.118164 166.258240
1061.730225 1824.378418 326.822083
1200.026733 1958.267334 322.129852
802.023926 1891.690674 150.457977
1105.849609 1809.395752 240.745773
784.003296 1987.431152 432.077423
1219.413696 2010.108765 277.702515
1011.017761 1852.718506 141.974152
937.598755 1898.976685 227.057816
1099.931885 1876.072632 390.658813
1166.305542 1900.263550 244.199387
895.385193 1906.486450 147.665298
1087.204712 1883.703735 541.151306
923.582581 1914.257324 255.626556
1174.375854 1940.146240 484.406647
1080.636230 1820.755737 278.569031
867.028809 1920.385010 364.712006
770.533081 1956.740356 400.994812
1023.604248 1854.388916 353.000031
839.863831 2022.771484 458.767303
933.796265 1895.023804 339.690491
1177.557007 1929.579834 165.704437
1026.788940 1846.675415 124.343765
1144.529907 1958.158081 450.449249
1068.599976 1886.239014 413.816986
923.313538 1892.653198 173.825256
1136.445557 1853.373413 117.122383
823.252563 2005.543701 457.772217
1210.529907 1964.151611 307.619080
883.673889 1918.420898 198.916672
834.921265 1970.783447 443.270386
783.253723 1945.745850 166.498383
1107.290649 1818.143555 366.199493
1046.730957 1827.242920 319.543793
1238.882690 2016.574829 331.878906
978.016846 1889.269531 327.217865
804.315857 1969.913696 170.968399
1166.377197 1905.331787 199.338654
1066.781494 1880.804565 438.835022
1070.893555 1816.824219 252.067169
1236.976929 2030.998291 261.107880
731.273682 1986.347290 396.842377
912.679504 2003.203247 432.344086
909.289429 1913.949463 341.952972
