ply
format ascii 1.0
element vertex 1405
property float x
property float y
property float z
end_header
780.434326 241.500610 2131.609863
883.825684 216.601563 1921.224854
764.579346 271.090698 2140.116211
924.883179 296.406525 1890.718994
745.783447 351.906799 1977.447388
783.292358 392.639496 2201.219727
943.747314 389.141479 1871.606201
772.936462 136.227661 2045.359009
964.234131 270.946899 1867.453369
797.186035 397.516388 2073.755371
938.918213 314.835754 1884.671753
787.264099 179.866638 2099.503174
770.826111 382.721985 1976.170654
953.727234 485.264038 1871.017700
708.215393 344.261658 2025.087158
760.049133 217.053772 1966.797363
700.027954 290.441559 2003.535645
1062.324585 324.708435 1807.605469
949.868286 388.874298 1874.734741
842.568909 289.749420 2016.145386
748.772522 525.993958 2033.566284
912.459778 488.663788 1931.208618
1018.071533 443.769867 1834.894043
784.269714 119.902176 1978.154663
755.211487 498.252502 2033.266357
892.116882 392.642090 1907.340942
829.469177 155.370483 1944.790405
749.886047 385.990997 2175.014648
727.271240 228.354187 2028.122559
767.523987 297.521454 1960.379150
813.124451 407.038666 2125.572998
828.663208 258.610077 2220.012451
788.368164 249.985687 2149.342773
791.536133 410.347321 2000.627441
801.446289 365.199951 1961.530518
790.672852 403.458282 2008.448853
732.964172 301.376770 2089.565918
748.614258 209.894791 1977.232056
956.191772 191.596832 1862.174805
759.702454 145.535110 2015.898926
797.907043 400.971954 1983.872925
891.416199 233.497955 1926.140503
1079.249878 446.652924 1842.321289
774.867065 352.296295 2233.234619
845.794495 137.267899 1950.448608
1007.250122 501.864105 1828.297485
796.924927 106.649857 2045.222290
915.305969 404.697601 1891.544800
1063.185059 393.219971 1798.581421
981.424133 464.854309 1836.996704
747.815918 162.772690 2019.384888
770.203369 205.339661 2081.603271
749.887512 308.658478 2124.364502
986.247314 208.700775 1829.408813
1000.085449 531.363647 1850.000732
960.665100 448.387512 1859.958374
803.162720 264.827942 2168.951660
751.391541 400.278015 2153.822266
897.874939 408.090729 1903.444092
771.608032 96.087463 2038.725220
892.267700 116.773926 2224.182617
821.286194 431.705658 2019.906616
1051.565796 240.077896 1807.202637
850.004089 456.408478 1924.500732
788.679932 409.305328 1974.905762
1012.213257 365.971405 1836.859863
1027.762085 385.922791 1818.738525
919.785339 477.767426 1899.118652
688.211243 330.440399 2083.871582
922.420776 186.071457 1894.046509
841.551575 451.560181 1916.965454
948.147217 189.891510 1878.670410
771.925354 351.889069 2194.476563
790.586853 134.965256 1969.250732
753.958130 352.799774 1980.523926
952.672546 403.719727 1872.575317
735.220459 373.643036 2001.746216
942.823181 496.229248 1940.957153
787.319702 102.194931 2051.128662
763.131775 216.687729 2077.303467
897.807556 466.858337 1987.333740
858.739075 286.600677 1946.304565
779.747375 300.758728 1958.421021
691.046082 324.867981 2115.116211
711.351196 300.752045 2078.139404
1047.945435 452.147858 1799.789185
725.504089 359.695160 2085.716797
763.473206 344.765778 1966.003052
802.726501 416.017792 2070.502197
740.208130 174.007294 2023.158569
848.192261 391.487732 1924.509766
761.830688 168.064743 1975.793701
799.812744 333.439941 1947.900391
748.699829 433.534454 2060.216797
782.327759 292.267853 2155.085449
800.659119 398.760437 1964.226440
927.540527 346.301880 1885.083008
1012.911560 258.008148 1822.381836
721.960693 223.916565 2010.741455
754.373413 266.852997 1973.171143
754.795532 432.127563 2135.030273
750.139099 254.389526 1990.238770
760.570374 239.205200 1974.790649
764.290894 417.522888 2128.579102
766.019226 333.099731 1964.423096
861.297974 160.444672 2202.480469
995.924683 453.502686 1818.894165
895.275208 102.321297 2224.128418
837.743774 148.203171 1951.387329
747.670715 311.386932 2130.893066
954.881531 473.064667 1851.824707
827.040100 257.240875 2209.704834
744.069641 369.528198 2110.467285
774.116943 152.776062 1980.753906
877.084106 137.640656 2211.632324
731.934753 218.714554 2028.498169
698.184753 303.837616 2006.598755
769.379761 418.739838 2017.891235
710.420593 355.287354 2091.752686
954.874207 477.267212 1872.167480
782.052002 194.461960 2101.790283
782.315674 416.786652 2015.546753
925.753235 181.241211 1903.635986
991.468201 546.741028 1928.256348
946.340393 187.436508 1886.776367
798.882263 133.226456 2060.657715
787.678772 335.839386 1956.424438
754.429443 448.397736 2035.424683
815.691223 219.927231 2189.331299
864.300903 379.316101 1925.705322
860.018311 379.189545 1923.075684
868.054565 209.218872 2241.477783
853.218506 434.078461 1941.056641
740.824707 261.761047 1993.576172
721.629395 248.636322 2032.376343
1069.378784 264.077545 1791.209717
756.972290 536.990723 2024.550537
752.563049 444.453156 2153.180664
783.778931 396.616364 2007.486328
799.968994 100.809799 2075.000488
875.177185 367.574188 1917.697754
764.029297 391.336426 2142.629883
932.530945 487.302063 1888.959351
994.991028 212.631836 1817.972290
790.712219 180.847961 1959.829346
834.355774 362.146332 1952.514404
763.621338 370.172119 2126.954346
869.854370 459.548676 1903.960938
743.979736 451.248810 2176.901855
731.312988 283.170166 1985.457031
978.212891 238.464554 1844.348022
774.659241 236.336319 2093.054688
975.703918 205.753098 1859.079224
901.565369 186.518784 1902.844849
799.305786 172.757904 2108.581055
802.504395 281.952820 2210.029541
764.905945 214.370377 1967.367188
842.110352 149.419754 1940.704712
971.729675 250.483749 1880.753296
1014.399658 312.549072 1836.536987
786.650391 288.811188 2191.874756
758.350708 418.424225 2158.053223
761.498291 358.411163 1970.335938
820.556824 439.007324 1968.446533
946.769226 332.772614 1875.486328
695.855713 296.213196 2004.384277
716.718872 259.175964 1987.287476
1010.034424 409.600555 1845.520508
785.930786 187.964737 2092.233887
724.038452 273.788818 2060.193848
803.799500 250.670624 2174.233643
768.893616 441.463898 2036.181641
744.639221 494.023376 2054.876465
743.036926 286.062927 1989.139526
752.374878 528.996338 2040.616821
779.406921 344.614655 2223.613525
753.593018 168.524261 2009.522339
853.560608 176.942139 2200.633545
964.814148 533.867859 1884.330200
746.454102 294.546570 2107.882813
775.891846 367.830414 2189.967285
887.483215 304.779816 1915.589844
770.610596 289.725616 2142.509766
791.792358 140.541550 2055.526367
1066.998413 331.699554 1806.783203
811.062683 423.784729 1952.896484
777.593689 388.569855 2182.562012
765.524841 260.922180 1963.446289
791.220764 312.572174 2183.650879
1175.967163 304.162872 1901.967896
855.564331 218.050140 2231.658203
736.936890 345.472443 2159.090088
775.099060 274.878296 1952.554810
698.688904 328.654755 2035.890747
1079.006104 342.643860 1836.732178
739.161987 266.471375 2079.488525
745.329407 334.448486 2188.243164
878.159363 353.891205 1914.123535
1004.174927 465.187592 1822.182739
796.076538 300.990295 2194.646240
732.427063 353.236816 1981.940552
871.457153 292.828918 1962.855591
782.839661 384.708740 2078.312012
952.270935 313.408661 1871.976929
837.321106 433.786591 1922.099365
742.669922 266.343384 2085.574219
738.028748 203.605179 2011.609253
850.631104 231.431885 2240.131104
735.616028 324.571411 2129.573242
870.633118 195.840668 1925.893066
821.794373 285.883148 1942.941406
949.553955 430.294128 1873.547241
708.041504 335.089325 2131.408691
986.156555 343.474762 1867.470581
823.528320 157.666031 1952.387695
904.669312 494.914276 1921.859619
861.911438 312.274292 1992.374390
737.699585 155.636642 1988.771362
786.469299 283.125519 2169.386963
773.546326 315.379974 1966.569824
911.045288 285.783020 1906.916626
936.960632 376.902283 1879.211060
769.902588 129.046707 1978.635498
1004.106934 215.362839 1849.308960
762.634338 311.773804 1974.294434
711.867920 240.720673 2039.080566
783.954773 208.399887 2114.092041
753.050598 332.278107 2227.568359
757.314880 290.738525 1967.439697
937.971069 426.205231 1873.078979
800.228271 278.592163 2185.824463
964.882385 271.476105 1865.707275
745.987671 268.484955 1982.339355
957.679993 508.263306 1873.133789
734.931152 531.642822 2045.227295
762.789429 289.470184 2123.144775
772.390320 290.667419 1968.731079
1084.302002 501.994659 1893.754639
763.380737 455.503479 2051.924561
756.895264 466.099060 2022.132324
884.254639 259.153687 1943.705811
730.994263 279.285767 2086.646240
801.265442 315.698853 2234.739502
741.680908 261.050446 2054.223145
769.379089 316.976929 1955.020264
744.509277 362.324890 1982.967529
838.992981 129.214569 2144.170654
731.326172 425.566254 2164.068604
756.045471 327.146790 1976.086914
717.093262 360.909760 2153.660889
848.167236 342.905273 1932.625366
959.204590 513.040344 1883.429565
762.717834 389.395935 1982.261841
853.953125 444.675415 1909.647949
798.541931 400.268951 1992.412109
854.549622 457.126282 1951.296997
876.397034 401.417328 1917.479370
887.630615 249.847855 1924.640625
791.647339 222.288773 1955.405396
1051.426880 386.024475 1801.296143
924.259277 302.302612 1893.466675
833.129272 260.400665 2221.122314
705.444641 243.923035 2002.900757
823.843201 442.917358 2051.261475
764.075806 408.697449 2149.986572
903.962891 482.043427 1909.592651
732.902039 221.658508 2032.477417
990.080566 416.986542 1850.921509
1053.203735 244.927261 1814.450317
1026.186157 490.634644 1833.880737
731.218933 226.653625 2013.130737
766.285645 387.082153 2180.315674
746.848328 269.194519 2069.359375
754.634766 375.104736 2080.891357
894.218567 373.521179 1926.423950
861.893250 173.888367 1924.973999
770.608093 391.600342 2103.178955
763.500305 184.175262 2066.513916
821.571106 137.382797 1936.169800
751.605164 146.168472 1987.595337
801.858948 230.916962 1939.736206
755.949585 211.904556 2070.941650
697.652344 338.533783 2048.030273
824.846252 101.097740 2088.849121
725.412292 344.211029 2151.916260
743.055969 519.035522 2036.983643
807.720825 110.611435 2072.814697
810.592773 424.329376 2109.715088
750.682617 257.968048 1990.406494
747.610352 487.377136 2048.619141
927.272034 238.705093 1889.939453
943.423401 457.817078 1857.793213
876.387756 100.167542 2216.903809
761.483093 206.307495 2066.630859
803.899109 437.267853 2013.285645
851.617249 101.586723 2136.581299
1017.598816 246.720154 1824.724365
704.316284 349.733063 2006.329468
967.418274 514.401123 1935.192749
985.588318 395.823517 1851.734375
882.123291 445.638977 1909.070679
1049.530273 237.051651 1809.801758
899.259216 222.481796 1909.204956
790.396606 387.193848 1956.087646
925.148071 463.527222 1896.627197
856.877441 190.671295 1924.912720
809.460449 274.034393 2196.247070
880.120667 475.381409 1966.995361
852.567505 225.509430 2233.409912
853.173828 238.108276 2245.235107
688.460815 290.912964 2036.646484
1074.637817 310.862671 1794.197144
872.531555 457.195374 1907.390869
887.027771 105.763336 2228.532959
768.992676 377.678986 2074.737793
684.281433 361.412262 2038.757935
770.580383 274.452484 2133.876221
868.326416 352.714081 1919.945313
773.866028 371.332428 2180.761719
784.468933 283.871368 1957.529907
863.885498 412.759155 1916.276978
859.838074 146.569443 1945.779297
843.819031 189.803711 1937.122803
748.325989 383.913239 2053.008545
839.751465 452.801575 1940.169556
962.988708 390.592743 1861.573486
1132.964111 475.743103 1944.890869
728.726257 325.282562 1979.519531
862.552063 380.701385 1925.894165
1013.238464 513.253967 1837.431152
810.910767 364.561340 1948.231201
905.110413 320.212158 1900.380127
769.533752 410.381622 2047.626221
797.122986 428.415009 2079.672607
949.025818 208.052734 1854.165283
751.309692 234.281464 1976.180786
747.801941 435.273315 2154.953857
948.372070 473.522675 1863.911377
847.726807 127.712234 2157.464355
813.669739 203.327057 2157.122803
833.391907 156.174606 2173.305420
925.741333 493.767395 1904.658936
781.129211 397.948730 2019.401489
787.519409 392.967407 1956.071411
966.983887 457.388855 1843.857300
1137.025757 526.699707 1993.540894
1065.762207 343.598480 1800.407349
884.449097 408.836548 1907.610107
740.321655 127.657867 1991.901855
986.826111 496.421753 1837.535522
747.821838 245.011353 2081.233643
739.673279 362.752411 2101.718262
976.191711 349.383301 1861.648682
990.201599 478.674744 1848.025024
848.963989 460.225586 1951.401001
763.916809 413.403290 2020.943237
776.016968 349.685760 2232.004639
747.118835 110.971031 1991.587646
709.792847 365.785736 2133.163086
857.070984 229.449738 2240.767090
852.525696 142.926117 1943.328857
768.812927 410.256500 2157.198975
815.340515 91.278130 2122.939941
799.003845 176.912674 1954.454956
851.535522 473.170776 1955.304321
1001.311523 544.044189 1855.189453
720.547424 285.364410 1986.806885
996.553406 349.657135 1843.470581
839.200378 441.002472 1938.200562
755.374207 210.487228 2058.254395
867.263977 331.646698 1928.650513
916.767944 195.034760 1890.685913
872.146484 462.772278 2033.534302
753.776123 149.691681 1984.133667
837.400696 101.876015 2112.676514
727.403992 517.230530 2062.029541
795.283020 394.509308 1964.128052
1064.555542 374.877380 1801.666870
912.805725 227.858643 1886.358643
698.169678 327.150330 2056.360840
743.903198 495.752472 2040.712891
795.395142 156.497330 2113.082520
774.008728 161.978104 2056.512939
813.331177 137.953629 1929.219849
764.464172 447.705109 2021.624023
766.466064 412.172760 2135.264160
967.474976 433.872314 1843.020630
823.041321 301.172394 2245.857666
898.986145 384.949341 1899.006714
772.339417 359.086823 1967.213745
802.775940 390.217621 2100.562744
909.426208 453.850281 1893.240845
969.944275 236.853439 1866.159668
1064.140869 364.262909 1790.114624
953.211121 412.589355 1862.685913
900.289185 445.775238 1883.201782
774.384033 127.386749 1973.045044
1051.448608 397.948883 1802.939087
720.498291 260.228271 2039.014282
739.755005 533.368896 2036.814941
766.518433 180.915497 1991.538208
703.283081 347.641846 2002.679199
969.023193 405.972015 1870.391724
767.341797 265.469849 2125.577393
761.116516 466.294464 2056.786621
782.549744 402.061615 2131.072266
1019.084656 384.998962 1833.482422
1033.733521 369.509338 1807.854248
778.656006 402.260651 2106.521484
790.947205 215.053421 1959.731934
855.591309 225.856155 2236.279297
755.598206 235.992569 1956.944092
729.706604 195.972153 1988.419434
855.389343 155.377365 1933.715576
862.782471 156.346008 2202.056152
834.025024 275.679352 2243.802979
821.245605 382.714386 1943.099365
978.823059 431.036835 1845.222168
959.921265 198.260330 1844.891235
856.837463 299.250549 1948.514038
771.132263 129.892807 1979.291016
955.444641 205.845413 1884.025757
814.426208 92.861443 2118.140625
863.292358 204.138687 1931.985474
1032.759399 369.567505 1798.888062
739.143555 534.428223 2050.197510
853.350098 185.512558 1925.382690
718.736145 457.879578 2161.672119
808.587463 266.671600 1932.187988
721.798889 268.578094 2014.041138
875.478394 462.298553 1910.031494
782.947876 205.055252 2110.092529
811.485535 251.376251 2183.672119
767.200439 371.197418 2149.419678
727.010742 242.547653 2011.504517
773.516541 130.983047 2005.820923
766.902527 158.025223 2039.384521
855.342834 452.579376 1925.414429
753.855713 236.026199 1972.979248
832.344666 223.536285 2179.005371
977.394409 345.403076 1861.199829
771.087708 256.712708 1975.266235
849.675476 410.752441 1924.691772
1019.387939 413.652893 1839.482300
849.154724 423.204559 1920.480591
836.429321 354.244934 1952.248657
993.356079 228.589752 1847.682983
732.869141 308.609924 2097.182861
815.452759 248.226929 2188.208252
766.612976 247.977173 2113.614990
772.946960 119.723152 2006.481323
972.533081 528.037537 1906.335327
756.673340 182.274872 1998.956177
929.909424 477.631104 1909.943359
720.265381 256.423279 1985.012451
879.954956 293.452057 1918.191650
853.022034 203.544754 2213.896240
799.723816 158.721146 1956.139893
956.888672 522.649780 1916.230713
817.794128 317.409088 1952.927246
803.544983 475.420319 2068.338135
1127.366699 273.864319 1800.568237
823.348938 458.685211 1997.731445
914.558777 290.590820 1901.971069
742.883423 325.670898 1977.574341
956.005127 197.247620 1886.629517
958.612854 538.734558 1922.803467
786.229675 340.787384 2241.579346
925.903870 348.867065 1891.166016
891.478760 273.107971 1917.761719
874.782288 263.660889 1964.241943
716.423462 344.676727 2121.332764
893.764526 419.332550 1893.284058
1019.991577 222.640610 1816.214355
744.091553 534.185547 2043.828857
763.872803 300.334198 2137.680176
760.320251 426.876068 2027.874268
721.800354 291.433380 2060.877197
936.023315 280.462860 1897.056763
836.710327 449.008148 2018.406738
976.424255 484.958740 1840.758911
695.564148 267.415710 2010.637817
779.318420 386.887390 2144.818848
896.337585 299.068390 1913.021118
858.988770 394.113098 1923.570313
812.111084 289.420837 2198.777588
702.434204 328.115448 2062.826172
702.872925 365.887329 2013.675171
943.695313 462.040710 1858.836426
790.959900 344.753632 1963.953125
790.718750 116.736847 1985.446289
692.340759 316.425995 2015.075928
803.438660 427.182953 2018.655518
837.633972 157.668091 1941.904907
970.082581 389.852966 1882.074341
930.956848 476.806335 1893.023315
741.089050 380.782745 1980.316406
1011.421509 536.244873 1884.535889
716.759460 200.857727 1992.259277
791.770630 137.999405 2084.721436
1158.804688 347.326080 1903.307129
971.754456 462.384827 1847.113770
859.545471 472.194122 1909.433716
797.410217 432.802277 2021.179077
907.857300 227.784149 1911.004150
779.557861 135.286285 1974.489380
885.752014 230.315384 1921.148071
777.426758 185.053864 2059.239990
1040.325562 228.248505 1819.642944
741.028625 133.123932 1999.343506
750.380798 410.539886 2036.663452
724.357788 350.405914 2131.060303
1036.818359 457.935211 1802.507080
914.762451 484.339020 1968.876831
783.377869 117.757278 2019.223267
960.179321 212.964966 1858.069092
758.359253 340.120789 2198.005371
753.305969 202.156250 2059.435059
998.047546 377.169037 1841.474487
826.931885 104.085564 2130.141113
752.196716 109.685860 1993.727905
806.951660 191.563522 2128.742188
784.429077 427.272888 2014.979614
1041.601440 406.662567 1817.518555
718.208435 323.265503 2112.626221
932.144348 443.604004 1878.169189
1047.862549 352.233673 1868.372437
789.241699 418.039581 2060.632568
766.917969 432.435822 2101.985107
759.151550 432.197754 2022.755493
736.897217 349.692108 1980.719604
1092.570557 430.787750 1852.633667
773.060547 418.892914 2190.888184
1015.612854 395.767151 1847.419312
680.641235 331.613403 2024.379028
859.780762 167.869476 1933.765625
854.610596 218.173462 1959.395996
779.140625 396.646851 2030.958496
781.706360 131.425201 2053.265137
697.991394 354.147888 2021.856689
744.606567 311.625916 1974.208130
727.958496 497.098480 2071.024170
776.690857 393.226746 1991.680176
699.668213 317.984161 2004.080811
747.536011 370.788910 2090.732666
805.482910 409.544830 1995.369019
872.785706 468.526825 1959.658569
751.670166 459.345062 2159.542480
1039.960693 250.643707 1821.413696
721.665588 248.706116 1984.197510
807.487183 406.091522 1970.778442
764.761780 163.732910 2051.890137
902.622498 458.468781 1884.715088
734.741882 231.024490 1979.107910
1007.929565 390.579010 1838.233032
836.794312 457.809784 1975.313232
1067.312622 407.251282 1800.233154
812.134277 158.663055 2138.456055
796.343994 263.669220 2170.745605
786.398010 384.145569 2108.190430
1024.656006 328.377777 1819.490234
866.612610 251.095566 1929.319702
780.125916 173.590485 1967.316406
749.624634 320.146606 1974.999023
710.389282 211.190353 2007.066772
815.541992 121.937675 2096.723633
949.623474 352.815277 1876.824829
777.980652 108.973656 2015.446533
870.851868 454.091766 1962.460693
1005.317261 549.395874 1865.004517
979.365906 205.967072 1854.381470
739.242188 303.997925 1979.482178
1084.154663 319.872223 1782.259644
738.448669 307.927094 1977.823975
801.538574 426.135864 1974.612915
839.804260 269.863525 2006.522217
732.468445 374.305664 2014.936768
811.715637 227.590714 2189.798096
1077.107056 249.658356 1779.444824
721.279663 367.719452 2004.014526
882.888977 212.278046 1905.670288
751.306824 356.953156 2181.310059
1017.608521 376.163940 1843.948975
784.931152 402.675659 1971.630005
765.857117 281.724457 1964.319946
763.544739 435.672455 2031.088745
707.660095 267.631439 2007.521118
710.425720 337.476196 2020.882690
739.391479 236.602615 1977.955078
984.144165 488.501801 1842.543945
834.352356 106.903908 2109.409912
928.138428 211.253281 1897.007935
695.747498 315.936829 2009.479004
936.528870 386.064392 1882.859253
963.063110 526.835083 1891.012085
761.452087 424.980560 2022.328979
784.835754 97.151634 2049.930420
739.320557 307.591888 1973.896606
910.222046 318.819031 1895.377075
1023.617126 264.165070 1815.704346
829.139648 136.085693 2136.039063
787.690063 293.586395 2155.599609
801.923340 191.765137 1956.211060
893.315674 333.784668 1905.990479
871.327332 396.311951 1912.803101
756.044617 153.521133 2021.650269
928.106506 234.090317 1884.588989
701.611755 353.754639 2010.337036
782.614380 267.553040 2149.801514
743.151917 451.768219 2059.437988
855.010925 171.883423 1935.069580
789.862549 387.481323 1956.857056
1077.976074 376.888062 1796.182251
879.601807 245.125824 1945.409912
853.443848 430.848511 1908.268555
863.254822 228.464417 1970.953735
978.732605 530.321716 1862.998901
728.177246 189.519226 1992.034180
672.092346 342.151001 2075.142822
876.671082 147.262589 2216.012695
883.917847 368.915894 1909.402832
725.607605 507.909607 2071.218506
1033.370239 332.190186 1812.901611
997.280701 228.304535 1832.577148
955.340881 404.150848 1865.412476
790.217163 421.764099 2064.180176
842.500977 144.402374 2147.600830
737.989380 323.463715 1984.399536
1006.718140 300.869965 1861.179443
858.532166 196.595703 2222.657471
719.525085 326.693604 2115.606689
905.634033 471.620758 1896.781006
806.059448 295.915497 2230.335449
770.143616 98.044907 2029.234619
1048.722290 364.952271 1806.232788
948.293030 210.402878 1874.546875
861.463684 296.076019 1953.525146
1026.333008 497.785950 1812.842773
769.625122 231.917755 1956.991699
1091.861450 330.044495 1790.047974
710.542969 221.313660 2007.263550
988.686279 392.745483 1840.641479
965.310669 414.050842 1857.655640
768.016602 181.560410 2067.102295
778.574707 308.710754 2171.822021
837.744080 154.294159 1944.930664
769.475830 306.905853 1965.947876
911.945984 341.687897 1898.089478
737.320496 543.541443 2037.134155
804.996338 393.389038 1959.653564
785.737305 392.270386 2042.218994
836.303101 468.157013 1943.257080
832.291321 398.026886 1932.229004
703.330750 332.725525 2018.819336
866.973938 461.553864 1982.025879
946.256897 445.712982 1880.364258
804.421814 103.668083 2069.266357
715.888672 365.880005 2016.268311
728.289185 321.678558 2132.158936
845.593750 329.515930 1938.383911
898.641235 196.180588 1901.626587
771.636536 482.784790 2019.198608
831.998657 149.860474 1911.461792
989.424072 425.696625 1844.994629
717.773865 278.434357 2026.455078
846.664185 206.286224 1945.572144
742.599304 194.545486 2027.004395
1034.020508 440.797882 1807.630859
912.298462 253.080475 1908.876953
891.309753 245.090988 1928.216553
922.452576 183.917267 1896.976563
1071.838989 247.377136 1785.758423
698.499329 340.532532 2008.291016
730.823242 315.446014 1984.114380
771.130737 235.849365 1966.000977
792.754211 405.517700 1993.938354
761.434448 202.500687 1959.827393
745.714050 223.350082 2064.975098
760.770081 423.708191 2147.743408
780.306519 393.980713 1995.585693
729.435364 216.136963 2030.671997
756.542664 190.756760 2050.191406
813.676025 288.594604 2211.787354
858.635010 458.700897 1930.652466
790.788696 208.189178 2120.031982
927.913269 230.251022 1883.512085
784.874329 399.281403 2024.458984
753.480042 415.740723 2153.621826
762.246216 318.400970 1953.041504
942.052979 316.530121 1882.807739
748.712341 297.560791 1977.426270
904.723328 435.377350 1895.192017
840.655029 445.767609 2014.627808
801.777344 392.737732 1960.807129
858.847595 365.552887 1937.029053
776.388306 285.351501 2171.327637
784.834778 398.018585 2195.986084
979.964966 527.004761 1879.488403
758.192017 193.821365 2062.080322
944.926697 188.744293 1880.689453
755.374756 501.227844 2081.528076
744.615356 207.254974 2001.124512
692.839539 363.725952 2026.175537
1057.410400 290.476654 1798.577026
758.704773 474.317322 2051.533203
783.179199 123.627541 2048.625244
954.659119 242.072662 1854.358887
1026.153320 307.942749 1816.780640
805.163696 408.869690 2069.355957
737.739075 319.060150 1978.238647
731.753296 334.916870 2167.304932
779.329163 383.313995 2187.050781
806.684631 414.575287 1958.027222
801.257263 330.750366 1968.327148
867.045898 459.264740 1937.726440
916.217957 393.925262 1887.618164
801.484070 163.810226 1954.064453
754.627014 392.176361 2051.718262
734.217651 297.183289 1976.046631
819.936157 448.461121 1958.864990
953.708435 449.929749 1846.680542
837.930786 207.462280 1950.621826
829.421570 140.882599 2154.039551
818.856262 317.143463 1981.204712
815.564270 415.475159 1952.503662
759.354004 433.544189 2189.422852
715.989502 342.833710 1992.545166
693.604248 358.342804 2025.790283
767.060913 382.500763 1965.729858
681.335999 348.222778 2036.127441
840.424377 426.121185 1929.821045
875.174866 420.094055 1908.861694
883.025208 190.626022 1917.913940
1088.698608 331.709564 1785.958130
823.455139 175.265350 2146.779541
765.926697 171.493866 2066.187744
945.285706 276.513489 1885.422607
694.173218 300.577972 2004.820801
822.100098 212.241302 2154.368408
875.325928 475.202515 1914.014038
949.548462 538.606384 1896.164307
929.980591 435.849792 1868.294434
945.839050 190.671036 1880.257080
982.096680 384.287262 1863.112183
852.588867 190.511276 1946.563599
696.782837 304.294312 2002.522949
770.602661 384.362457 2166.676758
752.144653 412.399689 2041.460938
764.490601 170.913559 2052.984863
703.767883 329.592743 2094.578857
746.564209 501.941376 2059.523438
805.024658 277.244751 2215.030273
855.274658 303.756714 1937.059326
863.013916 285.845947 1936.745117
748.611267 485.957397 2059.337891
930.578674 179.939224 1871.106812
792.775269 432.448853 2011.509399
826.644836 271.030243 1966.476807
1017.890869 346.924744 1846.068848
824.176636 442.362335 1989.915649
741.772644 167.920166 1986.338745
854.066711 335.492432 1938.275879
993.233276 212.344711 1847.558838
774.563416 100.248032 1997.848022
701.082764 334.663177 2001.848755
739.859741 521.962830 2058.838867
1029.309814 323.835815 1829.863647
772.009216 322.981812 2231.585693
707.325012 328.353149 2073.194092
773.493774 328.784454 2218.177490
819.545898 428.483337 1953.756226
795.867981 326.221375 2251.340088
747.606506 381.567139 2000.121948
784.766418 141.861771 1923.989380
791.535095 91.536926 2086.807129
779.151001 278.277557 2140.869629
965.032959 485.857422 1857.127075
916.578979 366.082428 1893.205200
802.188599 406.945374 1950.630371
712.390015 317.617279 2088.796143
772.167664 162.587830 1968.564819
760.672729 329.764313 2203.421387
874.111206 455.513123 1953.689087
757.132629 209.806854 1990.527344
781.556335 442.296143 2103.043945
755.325317 157.117020 2014.114746
871.721375 180.651978 2228.169922
757.317932 459.969147 2023.899658
811.289917 407.642853 1967.522339
732.472595 211.185806 2034.515991
813.784119 129.344696 2090.125732
788.916504 388.683868 2048.571289
829.777222 393.214294 1933.969482
820.304321 234.701447 2191.031494
800.408264 174.705322 1950.730347
739.080261 338.038696 2198.838379
798.968506 429.963470 1991.221558
721.406311 300.381226 1985.790527
953.691162 515.327881 1911.963501
795.608582 390.071381 1948.646851
1077.258911 450.924225 1840.968506
990.755920 517.085938 1990.016357
811.887207 227.067062 1951.475220
842.565491 220.965469 1936.585938
751.605042 142.367126 1988.668457
1031.529541 435.088989 1827.170288
880.814270 218.800049 1943.865112
688.901306 309.320129 2013.159058
1017.836243 255.619537 1826.935791
775.310120 247.722305 1958.218750
711.036377 217.651947 1999.865723
738.380554 330.075012 1975.592407
856.760071 409.239960 1925.226196
972.878418 452.439545 1840.813232
1038.214844 424.195496 1803.987305
910.405212 199.847290 1894.853516
979.144653 483.301178 1841.144165
746.396362 115.922531 1988.566406
814.914185 295.596069 2223.432617
741.041931 354.215057 1994.433716
797.906311 396.284546 2075.080811
953.102661 507.288239 1943.434082
725.003235 327.956665 2152.974121
796.635681 314.864624 2197.549805
781.564514 246.963699 1965.361450
761.786011 538.192932 2021.079224
789.939880 125.348869 2032.984497
955.816833 279.246216 1877.498169
756.312988 217.378357 2065.394287
1056.787598 471.569489 1825.250610
898.070068 442.292328 1877.300537
950.173218 249.424835 1881.861328
1028.596313 452.769287 1808.335815
695.209473 285.672638 2034.424927
872.540955 440.255707 1917.553955
695.065735 313.149353 2010.379639
777.114258 378.569427 2164.052490
742.349548 356.566711 1987.015259
1041.485352 298.701355 1813.078735
781.970886 394.633545 2009.986206
823.195129 124.626266 2088.921875
839.552551 224.593353 1948.986816
798.493591 164.080002 2118.439209
941.322571 429.157776 1875.389771
858.248535 231.147324 2226.434326
960.337646 454.377716 1851.108643
967.600647 466.682526 1861.301025
768.819946 88.994644 2049.646973
859.613586 152.923843 2194.739258
715.206116 377.964386 2013.769043
880.631592 145.096924 2225.545166
828.497070 381.931580 1941.552490
806.531006 412.652191 1946.068970
821.029480 252.356613 1948.649658
939.977478 491.283539 1903.939941
705.098511 326.095032 2111.027344
855.403442 373.639801 1931.275513
776.282715 153.873566 1968.096191
886.546265 194.288986 1912.285522
784.870178 138.496490 2063.861084
993.855103 249.847046 1835.611694
776.121948 162.849487 2078.224365
792.848877 313.176849 1953.158936
985.006104 240.145279 1842.707642
761.650391 249.006592 2106.446289
706.790222 289.379883 2048.139893
826.145203 434.819244 1944.541870
1082.155884 314.622833 1782.636353
769.671387 212.068985 2103.898438
773.689087 348.960724 1968.813843
872.892029 463.998779 1947.612671
767.796387 382.133270 2088.524414
1041.457275 272.862976 1807.311279
958.222290 491.325470 1874.311646
889.230164 450.990234 1894.306396
709.572205 238.527527 2018.317505
853.688354 419.898346 1913.741821
793.095215 364.555420 1962.077515
875.830261 466.598511 1998.537231
736.681519 256.009064 2065.419922
974.536377 284.233490 1857.819336
783.678772 257.555817 2146.987305
886.345154 177.312332 1909.530884
824.189026 160.043564 1898.947144
889.471619 117.679665 2219.747314
914.523560 219.438080 1894.166504
708.171509 323.345978 2066.435059
745.744934 473.532593 2029.509766
726.746094 514.814697 2044.126831
853.127075 107.281815 2147.469482
902.596436 256.785492 1917.521973
763.904175 255.648895 2108.146240
748.002808 455.271973 2031.927612
730.821472 215.805161 2024.535156
926.944275 440.802551 1872.605835
764.141602 431.250305 2041.804565
819.122070 458.118073 2082.278320
900.723083 352.368958 1918.478394
727.352783 229.473999 2028.509888
923.223145 418.434296 1887.488037
687.490479 349.576630 2028.249512
748.358459 499.393372 2063.566895
1032.302856 556.498474 1889.848755
928.580750 340.150452 1898.974243
1033.194336 334.492218 1849.794189
921.095825 452.435638 1889.088501
1005.138733 218.902496 1840.004883
1069.852539 297.485168 1790.141846
748.088013 241.216644 2075.659424
774.556458 459.002808 2071.658203
742.604736 180.735886 2029.798950
933.847473 293.660065 1887.923706
751.613342 487.121674 2058.680908
798.121887 379.087219 1956.055542
1058.467529 372.900482 1796.182617
988.670227 422.556671 1840.925903
849.402039 452.617859 1921.450684
1066.858521 313.962494 1848.351563
891.690002 183.062195 1908.526245
967.435547 482.919891 1850.179443
791.895508 410.962463 2013.267090
742.395386 232.313110 2071.082764
870.210144 224.688522 1928.359741
931.924683 256.546814 1895.824219
730.767517 178.290405 1997.903564
926.528442 177.602127 1882.258301
738.233032 295.082977 1988.178101
745.469055 192.235458 2008.434448
999.239868 492.263672 1827.181152
796.070251 175.814468 2123.132568
762.445007 316.990112 1977.629761
931.151733 488.722046 1906.416626
1126.117798 423.095276 1896.486450
990.272217 536.948669 1879.023438
829.773438 257.448700 2241.923828
1062.956543 365.930084 1851.345215
799.039551 120.192970 1980.486572
704.296997 243.212051 2015.275513
797.965454 216.826813 2135.654297
877.764038 433.729919 1896.477173
888.694519 253.720016 1938.742188
1036.127075 297.226563 1827.496948
1021.096619 444.681000 1820.998779
778.222656 399.055908 2189.932373
692.913513 318.240784 2007.803955
958.366272 213.224823 1864.090454
805.543762 180.781601 2119.071045
823.753540 311.258392 1956.088135
801.558167 408.432831 2066.922119
802.267578 181.989288 2114.514893
1038.742065 330.911011 1828.205933
1019.575806 263.360504 1821.884155
767.238647 297.659515 1967.586304
726.461060 455.789276 2154.106201
845.132629 418.205109 1931.480469
761.073669 192.256531 2055.334229
812.482666 150.184448 1956.082520
821.388367 273.007355 2239.365723
777.491760 283.493439 2170.501709
726.421692 210.174515 2042.083862
834.470215 439.841888 2011.292725
765.281921 495.209259 2060.318115
718.523132 291.486694 2054.931885
758.857300 339.622894 2219.443359
815.382080 299.200684 2227.175537
995.554993 263.575317 1869.353394
813.427979 188.032440 1947.021851
773.405823 395.198212 2045.725708
894.165771 289.358978 1910.923584
695.869629 343.082458 2015.834839
781.047791 377.940613 2186.349854
716.635864 249.175323 1987.936157
749.870117 506.074860 2045.884399
686.972839 350.906219 2014.589966
989.966187 492.017517 1845.901123
868.478088 158.691681 2215.736328
1036.746704 441.831177 1809.801392
789.853394 378.188202 2207.432129
982.970276 260.688477 1850.459595
977.241760 318.854614 1857.391968
723.718323 174.500168 2016.348511
824.686584 131.665649 2121.171875
887.177429 148.379211 2240.919434
811.529297 350.425018 1954.272217
745.382019 376.533691 2018.628052
858.015991 133.136124 2196.509766
946.545227 423.952515 1878.768921
760.170288 366.618805 2150.153076
959.244690 445.130981 1850.634644
799.600403 369.813690 1959.138062
895.561401 106.401131 2220.176025
965.829529 490.379486 1865.166138
853.419250 305.433472 1936.467163
1035.675903 277.805450 1823.933228
725.750305 309.435760 1981.339478
771.502319 169.524521 2057.768799
923.320068 498.824707 1943.335327
919.481323 214.839828 1884.442505
797.864990 396.046875 2051.026611
818.546875 181.888580 2149.007080
744.730347 364.545258 2102.112549
826.180847 422.914825 2115.673096
745.924194 449.112457 2167.760254
985.012878 479.881531 1854.350708
807.680664 239.701309 1947.386597
904.648315 461.370911 1888.474243
835.273438 291.933044 1948.431519
814.294006 274.579102 1941.915649
1006.799805 332.046875 1841.997314
749.027405 498.142548 2057.932373
900.264526 445.921631 1889.215576
936.899414 489.363190 1941.755005
850.286743 368.876282 1947.156738
761.909729 197.825378 1972.076294
1001.921875 324.194733 1845.403442
917.905212 446.511444 1878.106567
770.743774 193.885620 2083.472900
743.284180 332.728851 2181.018311
974.817261 523.180664 1857.159180
727.147034 537.440857 2045.599731
746.998474 132.456619 1998.601196
742.840820 330.950256 2204.516357
708.034058 292.300018 2005.283813
774.082764 177.498672 1973.282227
725.548218 277.809631 1999.303711
782.986572 274.202881 1952.319580
820.673279 132.352356 2114.705078
780.025635 227.915878 2115.656250
750.228699 340.216766 1971.878052
740.818909 349.102386 1989.282837
764.530090 429.165924 2133.197998
797.023132 368.213745 1963.970703
793.736877 223.696899 2138.651367
904.722046 271.507599 1920.360596
897.340576 158.705933 1922.907959
775.128601 201.227631 2087.023682
758.615295 426.075806 2181.790039
917.216431 419.282837 1887.801025
781.671875 251.129791 1964.406860
928.289917 375.964478 1888.706665
763.903503 462.378662 2026.150146
708.547852 282.385101 2029.760132
966.410889 211.410599 1860.712280
992.526062 429.541290 1836.706665
868.643799 463.976288 1917.692139
859.692200 188.550034 1925.265381
747.780334 207.828583 2043.191284
980.160583 223.680756 1822.401978
716.296265 278.426514 2055.543213
726.859558 374.579102 2020.307739
931.322510 191.372025 1891.958984
826.285889 390.609283 1934.872559
946.197571 327.656250 1880.573486
827.600159 419.829407 1994.292114
873.248657 139.965561 2202.117188
710.802673 314.386719 2062.897217
922.437012 365.578339 1907.625610
752.755981 272.578918 2101.905518
857.491028 231.842880 1993.138672
774.143127 334.527344 1961.997070
796.804321 132.482513 1977.053711
847.808533 243.247894 2244.740234
697.491821 321.320435 2043.251221
754.970520 285.240845 1966.458496
790.044128 397.127380 1974.944458
726.215088 344.827393 2133.122314
859.012451 341.669037 1971.207642
728.466492 198.268219 1996.597900
863.312256 470.213043 1964.892090
735.866272 112.080353 1992.060303
793.661560 107.417068 2056.656982
758.047852 98.623459 1999.580933
705.830566 300.087250 2005.553467
861.908447 199.067993 2230.967041
705.684021 303.883575 2032.549194
1008.092590 492.289673 1829.156738
750.378479 192.144760 1979.538086
867.507385 380.987457 1930.034668
819.265747 139.912491 1947.195068
1004.776123 367.135742 1837.988281
725.087341 512.355164 2063.083740
724.172363 238.551208 2018.245728
932.372192 227.891068 1874.874268
822.183472 195.439774 1939.172607
760.290894 186.967072 2068.273926
888.975647 170.211823 1917.332031
828.494812 126.812294 1958.640137
954.848694 297.751434 1864.699707
1102.286621 443.430054 1874.125244
967.928894 385.769775 1863.505249
788.761108 337.347260 1965.489136
900.206116 391.783630 1906.306030
908.731689 218.003998 1900.369629
775.787231 417.179291 2013.418213
960.218445 518.575867 1887.641602
685.282471 343.462616 2061.288086
906.890320 491.995789 2010.145874
836.120667 92.906372 2153.839111
905.582947 478.789307 1901.717041
955.206238 508.370880 1960.831055
731.199402 330.822021 2181.951660
868.611694 443.415314 1903.577026
721.743530 244.884247 2029.744995
1000.625366 467.966339 1828.386841
929.647278 351.188263 1883.268311
702.930664 275.923523 1998.594971
1016.794922 321.677704 1834.985474
1034.586304 238.731628 1791.748047
939.856506 272.078674 1871.156860
842.273804 174.558823 2186.986572
849.019287 430.441498 1928.989380
918.241028 219.636322 1890.481323
931.173767 466.621521 1881.081421
956.972961 196.949829 1847.122437
987.246704 524.408875 1845.461548
961.192810 306.089447 1890.832153
921.710449 353.842743 1900.381592
770.382874 423.505005 2141.682861
780.149963 420.874207 2050.835205
844.718750 193.056595 2194.141357
959.112793 503.173767 1865.952637
899.203613 248.657288 1930.421265
803.225342 243.605423 1947.371948
925.176147 203.220825 1895.911011
1021.771667 389.692596 1836.307861
832.822266 444.593719 2022.415771
744.682678 345.489563 1985.140625
755.292786 94.417786 1995.662964
764.296692 233.980713 2072.468750
711.699890 332.612671 2118.966064
728.466003 230.402069 2023.797607
774.955383 377.733643 2170.845459
908.975098 216.912247 1889.685303
731.039978 311.035126 1981.210205
773.498718 392.519928 2100.650391
700.108154 357.332672 2061.835938
752.255859 223.459961 1970.417114
743.875305 278.370270 1968.313721
735.844666 491.489929 2037.319336
915.058716 492.936707 1923.654175
1023.668640 514.860657 1845.464600
790.945862 267.153046 1950.037598
749.763000 89.583031 2014.806396
838.101013 234.298981 1942.521973
737.114136 492.569916 2048.307861
746.948792 180.044434 2013.247559
952.881287 222.632751 1880.751831
700.483337 313.853455 2002.861450
751.926758 181.868591 1997.664063
813.900391 422.291351 1980.646118
1033.128418 245.000061 1824.906616
698.557251 292.396637 2008.314331
709.201965 343.780365 2160.723145
747.599365 496.427155 2065.673340
757.649109 157.078827 1988.489380
1019.618103 494.814331 1830.677612
889.017334 458.192535 1908.846924
714.619263 331.908875 2002.285156
780.467468 397.651031 2134.221924
915.433594 370.352112 1890.424316
729.554932 197.442184 2023.653198
802.716064 240.103210 2164.821777
761.036804 408.878143 2035.470703
719.216309 327.658356 2141.911133
718.843933 261.960266 1992.386963
832.880615 184.668671 2179.157227
1004.575439 543.654358 1901.430176
820.653625 119.361908 2105.461182
787.634888 233.172684 1948.368408
841.512939 465.166931 1968.658081
720.946716 300.570160 2082.847900
905.215393 362.639252 1908.786133
1038.267578 413.158081 1829.328735
736.785278 224.902649 1986.280762
711.725037 356.336975 1998.644043
890.375977 434.407990 1889.028687
798.953125 353.946167 1959.072021
759.572571 279.696747 2116.878174
742.381165 228.591751 2055.749268
942.202759 430.754974 1886.841675
718.163147 287.914581 2063.329102
921.989136 236.249222 1895.992065
761.873596 424.450989 2165.161621
782.944458 172.894897 1960.897339
928.523193 210.068207 1885.880737
904.008606 173.671310 1875.332397
824.108276 124.956924 2113.279053
758.122253 169.242462 2045.519287
911.187744 299.722015 1903.158447
840.486206 396.878876 1934.765991
756.968689 156.898819 2050.551758
755.288696 157.811157 2015.278564
755.884277 356.644287 2174.989014
724.313354 282.330505 1990.255859
742.001709 213.222748 2050.570557
784.015015 201.125977 1955.242188
909.986084 481.236084 1936.238037
698.208008 314.995605 2001.572754
708.708862 294.332275 2000.208984
678.417725 325.313477 2026.359131
899.835144 366.514618 1903.553833
958.386414 278.949921 1859.276245
812.123291 412.596863 1969.362061
891.646118 451.861115 1894.542725
731.167419 521.840759 2069.821777
917.399963 498.214020 1930.872681
774.959778 288.655273 2157.385254
932.559631 499.789246 1895.935913
723.454041 277.925568 2048.904053
732.973389 270.708374 2062.299561
844.618042 347.959198 1948.459229
931.821716 399.859314 1877.589478
955.216675 327.808594 1879.192871
820.454407 227.226440 2186.080322
724.252747 234.960068 2054.121826
706.794861 301.781647 1997.502686
781.608704 464.792664 2008.810913
845.376038 331.045837 1939.727661
781.015442 254.073975 2134.570068
718.438416 279.449493 2056.058594
753.937622 474.427582 2044.238281
1033.278931 222.439484 1832.551270
915.468811 242.304276 1907.765991
736.353210 477.004547 2047.386597
1102.703735 474.975433 1904.465210
813.727722 360.118195 1965.291870
971.495117 374.100647 1862.348877
748.060608 198.709610 1976.266235
840.244690 101.956558 2119.311035
823.515442 447.440002 1943.832275
1090.869873 530.483215 1925.569092
848.766174 319.420746 1933.472778
791.525085 363.926453 2230.287842
702.682800 308.018280 1998.136108
870.676636 209.467834 1923.387695
868.319336 194.573242 1936.661743
703.475647 283.464203 2005.608398
733.393860 336.676575 1985.495850
766.416382 460.532898 2106.120605
850.664246 193.492477 1929.879639
715.023743 263.072357 2025.283081
1031.340088 524.107178 1851.279907
726.982910 333.377197 1989.305542
938.196167 487.347870 1910.176270
810.369751 105.615105 2121.514648
786.578796 332.405731 2240.681641
773.905518 300.155853 1966.192749
794.510132 411.621277 1964.602783
973.757629 416.196228 1858.985718
815.759460 183.366699 1947.807251
760.664490 431.631744 2188.626953
800.979553 300.968628 2180.005859
753.729980 485.726044 2064.186279
743.662231 370.200439 1979.596924
778.384644 341.023193 1968.738037
780.336182 374.797119 2177.819580
813.883850 432.230591 1978.428589
1047.983398 278.680695 1801.815308
743.110352 188.871124 2012.177734
742.557373 148.334961 2007.077026
787.275940 349.693878 1962.194824
1061.458374 369.146576 1809.963135
943.219421 289.424347 1871.504761
959.307373 384.024017 1885.591797
749.977478 472.846313 2039.185303
887.929016 407.519592 1909.313965
927.834106 245.943588 1891.740601
781.982666 139.533798 2064.097900
696.892761 330.151703 2011.291626
960.493958 297.505249 1869.360107
760.695007 438.546204 2026.344482
834.267700 100.363831 2119.556885
717.264160 357.708862 1994.591431
1069.587891 294.293671 1807.963013
791.421570 202.998779 2114.848145
879.519409 152.950546 2225.460205
734.311768 360.994598 2001.211060
804.715210 193.321152 2112.942139
775.002502 206.781876 2091.472412
726.470947 148.382278 2015.863037
777.067444 282.621277 1950.284180
704.500854 275.310822 2030.506958
763.861694 491.484039 2079.114990
878.564148 163.762100 1917.759888
704.567627 290.864441 2035.730591
744.577026 343.921082 1970.683716
741.837708 297.544922 1987.970093
938.017456 474.982605 1878.245361
755.627380 255.891266 2115.859375
798.909485 197.452576 1952.815186
759.214233 322.970490 1968.740234
734.224548 267.266998 2061.652344
991.238525 303.680389 1870.876343
794.178101 234.111298 1944.278320
842.385620 461.238129 1929.939453
816.342651 112.473984 2087.086914
934.346497 490.631317 1920.824097
728.614319 349.455780 1994.073120
732.824951 228.351212 2036.939087
737.882507 256.514984 2087.772949
1040.451538 266.287842 1805.827393
751.479431 374.990356 2130.825928
727.157654 355.586060 1992.911865
1066.210205 310.941559 1796.181763
837.690857 237.217285 1931.797485
704.179016 360.937622 2010.413208
1066.685547 306.267639 1819.915161
819.555847 158.529938 2136.111084
1086.869873 385.857849 1812.564453
808.062012 381.399353 2207.230225
772.306274 215.765991 2092.188477
996.911011 469.155273 1844.272461
733.227417 462.937531 2128.835693
930.338440 451.605804 1874.769165
751.960144 486.433350 2032.978516
780.936890 416.872833 2054.260742
861.662659 228.399017 1947.336792
698.326111 349.421875 2017.761719
761.407349 462.590881 2047.531006
785.604797 494.074158 2013.724121
958.113647 505.787323 1908.211426
1048.243652 318.877716 1797.966675
880.063965 228.708084 1926.347412
740.129028 178.488083 1984.792847
748.531128 380.954590 1975.055908
765.641174 374.855347 1976.451050
923.732178 239.523682 1896.196289
900.676880 409.678101 1901.249756
865.557312 376.189880 1931.649292
979.167542 314.374115 1869.033936
1021.177979 238.293701 1827.238037
765.428040 386.262878 2030.226807
815.531372 121.241371 1969.043945
777.889343 120.395569 1977.143066
691.799438 356.704987 2062.691162
834.199158 450.606781 1938.063354
710.820190 320.969147 2104.861328
762.393494 368.314880 2140.970703
1066.800171 352.279083 1797.137695
778.631287 440.704041 2019.284180
1014.549011 512.466187 1844.864014
768.126099 425.991669 2027.173462
788.022461 210.625076 1951.630981
837.217834 143.839279 1955.084717
885.043518 256.533386 1931.891968
1099.865479 349.834595 1808.588135
767.863953 445.875305 2055.419678
765.358154 133.291214 1986.977051
810.904602 275.275665 1954.978760
708.513062 356.650787 2004.274170
727.931396 355.609070 2122.300049
768.370483 119.849380 1980.047363
749.664490 502.915405 2038.458496
891.577881 423.562347 1903.465210
762.655823 98.957359 2005.419189
782.691345 199.335968 2105.030273
845.896301 195.366364 1936.798462
730.695984 273.985840 1996.690796
804.273560 140.890167 1971.168823
821.907837 230.493149 2190.791992
734.210815 256.429321 1989.292358
745.404236 503.806824 2066.286865
734.112000 316.548187 1997.710449
742.054382 247.537842 1975.622925
749.087769 197.669022 2041.909912
757.582764 389.855377 2137.071533
995.852661 544.374939 1925.460815
940.136536 434.926300 1886.238281
1072.402344 408.701965 1806.701172
775.508972 113.097122 2012.095337
802.467041 266.642914 2175.510254
862.348999 187.572205 2222.336670
755.281860 220.531769 2085.576172
767.532349 378.961823 2179.349854
1065.540771 271.247070 1808.650757
1032.472168 524.065552 1868.577515
811.477600 417.923950 1979.433472
771.034546 417.438232 2035.336182
922.828735 227.072296 1892.807373
1059.077026 250.074051 1771.176025
720.065430 237.841156 2030.486206
768.492981 384.991852 2022.636230
705.131958 301.549866 2029.538696
716.271729 278.588043 2071.701416
740.374207 512.586853 2078.190674
793.949890 152.338806 2088.097656
744.753723 232.002808 2065.999756
806.878479 110.187454 2095.114014
1061.578979 280.027588 1798.651489
751.270386 500.494720 2033.895996
1016.918213 476.327698 1812.053833
1065.579346 326.012115 1808.282104
915.877014 485.977509 1968.807129
694.273254 291.854584 2006.729492
961.184021 434.688293 1856.164307
811.557861 150.949417 2130.607422
715.005188 358.120483 2019.084229
989.164795 444.075714 1845.379150
887.863342 247.114212 1921.762207
877.645264 208.414047 1933.093750
777.125122 402.523132 2040.857666
793.368286 411.697296 2121.844971
779.533813 456.702606 2030.682617
755.173035 121.417542 2018.120728
927.291809 480.215759 1889.592163
