ply
format ascii 1.0
element vertex 1372
property float x
property float y
property float z
end_header
2011.103516 -50.396736 -743.434265
2132.743408 173.354553 -715.739319
2186.016602 80.060829 -583.633118
2012.322998 -60.510464 -720.487732
2087.087891 -83.986671 -508.375061
2059.682129 54.522957 -732.210693
1979.805908 14.188710 -817.400024
2054.100342 -10.815078 -587.419739
2061.688477 60.050297 -751.378845
1958.074951 -109.470879 -823.864319
2100.955811 130.011841 -706.619385
1913.715942 -48.369255 -958.941406
2078.874023 21.439884 -579.860901
2083.894043 -131.004944 -495.175812
2156.186279 -126.716873 -529.699768
2274.950928 -56.904224 -608.334961
1954.376831 -1.729398 -890.502747
2175.785889 -44.914528 -565.482300
2262.864990 -74.954521 -585.542053
2101.359619 -158.305161 -484.127655
1950.192871 -180.558884 -880.860229
2119.604980 170.787140 -727.356079
1927.764771 -110.231598 -897.554138
2058.914795 -143.061478 -478.895447
2011.336914 -13.324062 -743.538879
2023.032593 -103.263077 -654.824158
1927.278198 -184.601440 -856.788818
1994.814575 -225.848587 -941.555786
2040.371338 36.673424 -646.621094
1982.125854 -163.471146 -727.067749
2029.015015 40.393730 -833.683777
2113.613281 63.528255 -564.208496
2285.422852 58.371799 -604.708374
1915.635132 -118.599869 -991.030945
2047.704834 -96.917625 -540.992188
2039.708984 -13.839778 -625.399597
2045.540161 66.005814 -672.530640
2185.118164 68.945923 -656.128479
2118.113037 100.482162 -704.182007
2266.447266 81.203186 -675.130005
2022.630371 -64.115669 -620.784912
2062.274658 75.958359 -656.167786
2065.489746 -9.468081 -545.840942
2010.968262 9.383693 -746.072388
2201.604736 83.317497 -672.061523
2096.785645 -140.897827 -505.879578
2210.855957 109.453423 -675.725708
2042.498169 -41.774754 -580.031616
2051.940674 -150.329163 -549.200134
2046.023315 67.341995 -664.223633
2260.547363 98.344482 -683.149414
2075.373779 -61.782547 -512.894958
2024.741455 -95.274712 -668.458740
1952.348145 -185.639221 -805.990723
2026.720459 15.440520 -714.148804
2103.281250 81.657982 -644.302612
1957.512939 -128.431076 -804.345093
2139.072510 58.793110 -695.861450
2016.806274 -81.628639 -614.739441
2295.531494 -194.699387 -564.112427
1952.204712 -236.162750 -752.304932
2057.328125 -112.217125 -527.628540
2238.325195 95.421669 -606.893738
1960.982910 -219.802902 -695.385437
1958.209595 -123.479912 -814.385803
2030.540405 -0.311836 -653.234924
1978.968994 -121.201317 -774.107788
1993.751343 -74.125862 -755.134949
2261.685791 -15.169590 -615.977173
2237.712891 -9.371010 -608.132202
2088.616211 68.310944 -665.983826
2193.349121 -98.768600 -545.356506
2061.268555 -2.695963 -555.186279
2142.625244 84.542664 -575.193787
1950.506104 -23.751251 -969.226929
1953.940674 -86.492012 -877.272827
2319.354248 49.445435 -652.452087
2035.745728 6.677953 -676.634888
1964.178711 49.979000 -954.280212
1995.662964 40.202686 -782.684387
1998.829834 -91.805115 -750.249023
1971.198364 -85.809204 -850.688660
2024.869751 0.573445 -667.216980
2001.430786 57.398186 -774.355957
1973.085327 -201.165039 -708.337280
1929.992310 -100.516335 -888.849854
1968.785522 -30.648441 -840.820496
2176.925781 -170.979843 -519.937561
2092.483887 131.348618 -713.144775
2105.456055 138.770935 -700.014648
1972.677124 10.128329 -954.941833
1971.168945 -18.231310 -826.559082
2136.916748 -25.123114 -561.220825
1965.156372 25.427374 -919.618774
2212.100586 61.385555 -586.997131
2090.054932 80.880119 -699.740417
2127.992432 9.364814 -570.936462
2016.569824 45.161667 -734.438049
1936.498047 -28.657927 -939.528870
1963.297363 -230.920639 -729.640076
2034.962280 -128.259079 -567.571289
2139.685303 -37.343632 -557.512024
2195.037842 117.775787 -689.392761
2053.014160 42.527287 -593.606079
2043.453735 -154.497772 -573.554443
2180.041016 -74.151505 -557.114746
1976.801392 -177.986618 -721.203308
2177.553711 79.563568 -584.705444
2223.146973 24.743031 -613.268372
1978.682861 -181.089645 -706.935486
2066.145508 -49.420334 -524.260620
2219.482422 139.063400 -680.716858
2020.655273 -4.191629 -651.316406
2068.494141 -166.719650 -523.351013
2089.179688 -76.074760 -502.125305
2154.223877 77.052879 -618.849976
2202.823486 -167.656479 -532.615112
2158.709229 48.193905 -584.077332
2176.956787 -18.695864 -581.548584
1962.392578 -19.745415 -845.753662
2082.706055 74.833221 -690.114868
2100.935791 -78.877777 -518.205933
2258.665283 81.518219 -673.476746
2127.744873 62.766552 -696.644775
2090.157227 95.014961 -578.746582
1904.993286 -224.376617 -872.256653
2056.145996 57.065052 -635.902405
1992.070190 27.383410 -791.135376
2268.490479 61.295559 -612.796265
2215.308105 -54.313976 -572.565613
2093.123291 181.562042 -744.883301
2017.630981 -19.017290 -718.614807
2091.308838 61.944866 -738.780762
1984.796631 25.984041 -793.049133
2017.853760 -16.573446 -729.779236
2114.643799 92.840523 -621.464355
2181.287598 -13.259185 -570.647095
2002.718628 -32.426750 -765.304016
2018.893555 -65.696457 -689.461548
2244.525635 -154.593674 -548.299072
1985.281128 45.384308 -832.372681
2025.629395 -165.715988 -600.929016
1987.506470 43.284039 -800.183411
2021.016479 -153.352036 -675.650940
2252.185791 66.203964 -663.761780
1950.898926 -221.079941 -703.728577
2045.803711 36.346615 -912.104736
1998.162842 -144.160553 -720.061157
2033.682861 -73.861580 -650.050171
2060.433594 74.902061 -618.154846
2029.657959 -138.754639 -679.402344
1996.722412 32.080383 -770.306885
1980.173096 25.480543 -890.103210
1963.466064 -163.819580 -774.805847
2120.653320 -47.900745 -546.509521
2108.068359 -55.034508 -530.170837
1968.888672 -220.728531 -726.778809
2267.903320 -51.189938 -607.313599
2322.270020 -158.952454 -608.272827
2094.719971 134.427277 -739.022705
1902.408325 -208.806198 -892.983032
1933.204346 -26.509956 -952.547791
2103.461182 -156.261658 -491.484070
2052.103516 18.972029 -583.671570
1976.153198 -179.773865 -716.204285
1929.689453 -81.354462 -895.522095
2221.126709 97.676712 -673.887085
2073.260254 -41.273773 -534.287659
2040.896851 -104.990082 -565.062927
2056.807617 -156.101868 -504.304779
2000.633423 -128.718948 -714.814697
2321.042969 -74.436134 -623.777344
2087.464844 -41.186436 -537.555359
2112.366211 -74.257622 -533.082520
2095.569092 -156.615356 -480.161133
2225.635986 60.410484 -602.149963
2195.848389 -180.964966 -544.946472
2146.784912 -106.611671 -526.803589
2050.593994 -9.744817 -567.606506
2081.266602 -4.495959 -558.710754
2215.290771 -58.136696 -571.168274
1973.061401 -188.709579 -737.283752
2087.012451 -159.262421 -489.088379
2076.518555 64.558372 -567.594849
1941.939819 -87.794746 -886.838318
2100.037842 174.814774 -730.533447
1903.086914 -170.503860 -911.349976
2201.667480 -176.348206 -526.943298
2054.676270 0.559126 -597.689026
1974.275269 37.484287 -905.321106
2089.785400 73.843361 -728.452026
2223.128174 -35.291569 -593.522583
2022.009888 32.052788 -703.635132
2038.926025 64.311951 -752.095093
2013.116943 44.092506 -762.464172
2097.839355 154.241806 -725.174683
2038.592285 58.613510 -662.116638
2162.685059 74.440422 -616.008911
1982.400635 -48.146679 -796.521118
1944.448608 -205.087051 -790.208313
2057.609131 -116.681503 -538.663513
2037.957520 26.899368 -647.000061
2222.034912 -56.854130 -572.977112
2080.071777 -82.863304 -507.344574
2048.670898 -68.343262 -559.206299
2015.999146 -79.938942 -694.587646
2186.597168 71.948875 -620.205750
1957.252197 -185.496185 -865.645630
1986.997681 19.466017 -786.015076
2106.892334 -34.856655 -526.712708
1993.697998 29.106806 -858.493164
2340.885498 -209.489212 -607.168579
2100.900146 68.256142 -673.375183
2148.598389 100.460312 -709.878723
2128.750000 117.353180 -709.759827
2048.151855 -69.582596 -565.786865
2040.428589 -38.991917 -606.839233
2120.228271 5.258790 -572.531799
1964.837524 -205.176666 -729.030151
2020.568848 -137.982635 -634.704224
2213.166748 -85.688179 -569.713318
2294.648682 -99.629623 -599.184509
2042.364868 41.013481 -662.130249
1958.427246 -2.245490 -872.522278
1965.859497 -15.519088 -834.467224
2197.654297 77.747177 -631.993408
1964.504395 -174.668182 -821.176086
1940.984253 -3.601513 -956.654480
2007.436279 29.273907 -919.595947
2039.641602 37.378742 -667.826050
1967.001831 -20.281389 -840.958008
2134.239014 85.734848 -599.082581
2037.978882 23.444431 -668.463623
2199.922852 144.655655 -698.970886
2062.343262 66.170593 -611.403992
1980.980103 -98.364586 -798.528076
2062.167236 -171.314163 -536.696411
2318.165527 -207.876526 -566.980164
2091.326416 140.459137 -729.011414
2012.821777 -43.465443 -751.058411
1956.687500 -191.512634 -830.213013
2048.986816 -24.388474 -576.531738
2077.653809 72.844414 -651.667297
1991.107910 -121.998871 -741.316345
1945.935059 6.470157 -940.302002
1982.815186 -84.138519 -771.533752
2240.709717 -148.463867 -560.449158
2042.848267 -84.059898 -570.916931
1982.417114 38.084133 -816.653503
1985.276367 33.896080 -838.497498
2079.313721 56.449280 -810.137756
2256.522705 65.456154 -651.743591
2139.564453 63.454041 -698.059998
2009.037964 33.467800 -786.409058
2310.030518 -134.779099 -599.543152
2240.875000 100.518616 -674.384644
2091.437012 82.038933 -699.972656
2134.727295 127.790352 -712.061279
2116.895508 104.782745 -704.841858
1966.124023 -156.472534 -783.039978
1916.259277 -76.554756 -931.223755
2040.839722 -171.589691 -576.274353
2309.858887 40.772083 -621.114502
2168.446289 -88.866028 -541.689026
2098.461426 81.359245 -578.774170
1965.775757 -7.810056 -889.036072
2117.974365 190.879608 -744.748352
2125.734375 90.567482 -696.076782
1976.940063 -37.870705 -853.705627
2010.880371 -57.561901 -721.533936
1942.815918 -132.403809 -883.820984
2163.411377 88.387360 -657.727722
2198.250244 113.434883 -679.889038
1958.096436 -225.755157 -714.442749
2037.791870 -31.329639 -593.119629
2078.700928 -9.094981 -528.439148
2145.095215 -139.537888 -520.755127
1999.726196 -23.087677 -757.831726
2072.387207 -87.968300 -492.761444
2250.345947 -51.609837 -596.396606
2065.543457 45.204498 -568.804504
2128.843750 87.333122 -588.860413
2002.255859 21.429823 -763.395020
2015.423950 -161.306885 -618.608643
1948.184692 -31.636179 -886.230408
2119.843994 60.127182 -680.838745
1974.778198 9.774674 -860.991638
2221.755127 -163.941895 -540.520508
2015.339966 -206.636353 -643.612427
2050.226807 58.523029 -663.620056
2044.936401 -41.778011 -658.100220
2143.778320 163.734039 -732.957825
2072.390869 79.642921 -664.924988
2142.964111 -86.720329 -534.952759
1962.269897 -192.143723 -763.271545
2045.688110 -177.325607 -564.336853
2288.822998 -116.330658 -594.227783
2077.486328 48.528435 -590.957275
2009.034790 -62.172680 -731.606384
2053.026123 -163.639893 -557.529175
2118.359131 56.235420 -582.930237
1969.141479 -58.925011 -821.741150
1975.090210 1.291607 -818.550659
2083.745605 -97.545029 -497.248352
2180.390137 -150.554749 -539.902283
2139.910645 -2.955519 -569.927490
2224.818604 70.519173 -620.110901
2011.672119 -37.651428 -719.826111
2054.984131 -90.790199 -528.804260
2088.854004 99.847374 -720.867004
2174.330566 -108.595657 -544.094788
2125.731201 -148.570740 -513.887695
1915.544556 -135.605637 -917.585571
2020.190430 -53.638302 -677.483154
2084.233887 89.147850 -694.499268
2269.737305 103.669815 -687.609436
1938.317871 -209.469666 -816.630432
2020.613037 -142.685623 -627.892883
2023.254028 -25.441595 -732.966309
1996.360474 45.626675 -862.899109
2109.503174 87.223549 -582.396240
2076.255859 -100.153511 -468.769714
2226.067871 108.255692 -672.872375
2017.705200 -113.863594 -628.578064
1975.739868 -5.844510 -803.092224
1952.419189 -109.748741 -849.545288
2002.238892 -129.090897 -703.650818
2096.067627 84.091194 -600.418152
1930.382080 -219.142365 -746.658203
2039.290283 50.495354 -666.894226
2020.766968 49.123802 -744.505676
2072.031738 56.843544 -604.054749
2062.684326 -50.810051 -563.670227
1960.557617 -57.819363 -856.371338
2298.296631 -80.323685 -607.239502
2110.514648 195.556732 -744.240479
1997.793457 -204.047607 -671.156006
2136.958008 -36.713287 -553.271423
2138.425293 55.986904 -678.995056
2151.472900 75.840752 -622.472595
2109.341064 107.792984 -707.862000
2109.179932 57.653641 -560.960632
2009.573486 19.750275 -743.583008
1982.132324 -87.971535 -808.056152
1928.292236 -236.285080 -840.017273
2220.210938 147.279770 -694.702881
2118.093262 -37.964561 -531.145569
1937.338257 -17.217607 -943.826233
2012.933228 57.913742 -746.556763
2090.886475 51.542023 -572.449524
2059.658936 74.882042 -636.579468
2022.239746 -173.912552 -568.183289
2019.846558 -131.873367 -628.311218
1936.277100 -174.037277 -821.535034
2012.045410 -5.873368 -1002.924805
2306.147461 -42.133926 -630.156006
1985.887207 -162.886719 -737.057739
2194.460449 -29.641140 -580.426941
2050.563721 58.901688 -671.986450
1957.536621 -207.495346 -760.306396
1924.891846 -233.738266 -829.704895
1997.435425 24.792080 -930.426758
2016.064453 -194.581421 -639.214355
1998.776001 -121.102852 -733.246338
1946.112183 -17.538822 -921.210449
2036.959595 -38.249588 -614.044800
2036.486938 -14.527760 -605.561890
2031.011230 -84.421989 -602.528076
2129.270508 92.759949 -700.834290
2045.022827 -145.371246 -563.314453
1986.127686 -176.608932 -688.138916
2049.591797 -35.836376 -584.381226
2202.493164 -180.446030 -518.715332
1974.393066 -77.234337 -826.757263
2330.377930 -111.872757 -612.828918
1946.506348 -96.396286 -847.367432
2058.064453 -97.391029 -524.617859
2083.024658 -155.932114 -482.125061
1943.680908 -3.132044 -923.075806
2224.333252 87.445038 -624.562439
2262.622314 70.789192 -612.145691
1974.033447 -218.475082 -703.760803
1966.530029 -58.303238 -840.514282
2175.961670 -71.119370 -550.625488
2152.201660 66.668541 -575.650818
2218.811523 -70.850006 -568.318542
1932.162964 -42.762424 -911.347595
1994.535889 33.280205 -957.932800
1918.216309 -180.165237 -881.945068
2055.395508 -2.887602 -564.283813
1981.513916 -7.020940 -815.507751
2220.750977 124.020699 -673.039246
2022.072876 46.476395 -796.637390
2262.083984 114.864990 -682.469727
2206.150391 72.251617 -613.649597
2178.885986 -182.201706 -528.919861
2027.284546 -50.598354 -682.155212
2313.007568 -75.114830 -618.809265
2093.123535 8.885544 -541.488586
2056.393066 -50.163326 -544.298340
2067.945557 58.190487 -692.432007
2103.910645 77.615479 -655.575317
1990.294067 52.019333 -930.849548
2045.246460 -158.166809 -521.375549
2057.265381 75.966293 -633.368835
2203.039795 13.735102 -589.195679
1970.156128 16.213375 -816.397461
2046.254395 -162.909668 -558.751953
2213.633545 140.940979 -684.743713
2254.874023 -180.721390 -555.884827
1902.751709 -234.416992 -876.366821
2099.605469 96.157631 -601.866394
2218.137451 80.194275 -602.727295
2008.712891 -198.303009 -631.120850
1977.248413 -41.648964 -800.721924
1950.718628 -200.838364 -765.982300
2211.270752 -179.050308 -522.988464
2144.481445 -148.451797 -518.376953
1963.911255 22.830656 -897.281860
2301.270264 -105.097061 -618.362488
2013.719727 31.572636 -774.012024
2057.190674 -48.060902 -533.467468
2039.459717 21.838388 -605.376282
2029.077271 22.942286 -650.221436
2228.264648 109.875931 -670.620483
1926.808594 -213.876541 -883.567200
2215.011963 -165.578506 -545.972595
1943.747437 -21.956724 -934.404541
2187.771729 99.284988 -690.069397
2100.153076 14.398425 -563.987854
1958.547119 -65.459885 -834.432373
2125.846924 19.063074 -553.673279
2121.201660 -160.361816 -497.949646
2090.263916 90.897682 -720.705627
2218.182129 78.767540 -669.022644
2095.357910 102.687088 -718.064270
2041.866943 65.143829 -752.890015
2027.935303 -134.886978 -631.439026
1999.950684 14.962469 -768.547485
1902.423462 -147.732483 -911.753235
2195.680664 94.286148 -672.259827
2050.261475 28.422459 -605.968750
2103.574707 78.991455 -651.029175
2097.051758 66.099289 -791.805054
2027.516968 -147.391205 -662.183044
1972.113647 -161.517929 -777.589783
2175.513184 83.714607 -607.651001
1950.461670 -3.030012 -863.983765
1958.886108 -8.651564 -860.014771
2108.638428 -185.000183 -1002.315674
2006.428223 41.019188 -752.234497
2054.705811 -30.153099 -550.474426
2302.466064 -122.764496 -595.039673
1933.896362 -221.687027 -752.731873
2004.875488 -163.309097 -585.681763
2044.744263 27.160461 -638.395142
2062.638672 -91.413422 -518.694092
1942.208740 -162.026321 -843.867554
2020.693604 -53.327663 -691.644653
1902.068970 -170.823334 -903.349121
2170.798584 80.841423 -694.396423
2152.815186 -133.499481 -521.114258
2103.640137 -75.693527 -512.151367
1975.681396 34.554108 -943.162415
1966.123901 -43.409134 -846.695435
2259.562256 -9.255313 -624.576355
2030.375000 36.344456 -694.016602
1976.012817 19.342266 -902.875488
2019.567627 62.052567 -760.769958
2025.974121 -185.161057 -588.693604
2098.469971 151.524780 -713.254272
2070.311035 -54.169044 -496.421967
2132.821777 135.455948 -707.643677
2251.831543 -127.815727 -569.194275
2079.015137 78.104767 -591.251160
1913.049316 -213.737808 -831.333313
2016.964844 13.782267 -725.079590
1918.845337 -117.899605 -904.973999
1921.980469 -104.421165 -913.291260
2070.085938 -111.249634 -510.929382
2053.870850 -91.940834 -532.515137
1985.410400 -25.678020 -802.307068
2103.766113 83.089561 -580.424988
2012.265991 -183.953949 -962.982727
1982.973267 -194.718384 -699.678711
2043.934204 10.205470 -619.310364
2183.859375 87.824814 -585.997375
1968.956787 -71.422012 -827.156250
2300.755371 -110.207535 -603.963745
2023.294922 10.391208 -738.338013
1904.077393 -114.575760 -923.936890
1913.750000 -236.330048 -865.080750
2131.324219 68.796417 -701.871155
1930.458374 -246.171494 -804.565063
2028.855347 -162.049103 -591.449951
1931.812988 -139.930374 -885.938171
2199.994141 -87.365364 -567.857971
2157.950195 -64.627914 -549.753540
2174.529541 71.296326 -654.396851
2057.747559 -74.210228 -524.481628
2107.516602 193.562561 -719.211243
2040.653076 -61.414757 -569.760803
1999.769409 36.950375 -885.661133
2221.382324 122.901825 -675.185181
2045.772705 68.480133 -681.408630
2010.971313 -50.199673 -775.069885
2148.185791 -168.775223 -506.833374
2105.718750 160.360672 -728.038635
1927.886108 -136.154785 -879.739197
2017.799805 -99.075356 -679.201599
2055.472168 -15.641549 -664.852173
2056.078125 -134.444290 -566.538879
2029.890503 -130.135437 -598.907959
2118.554199 64.714897 -581.690857
2012.877075 48.976372 -768.838989
2164.639893 78.569145 -615.239746
2046.564453 45.824589 -644.494812
1917.654541 -228.386490 -773.919922
1989.321411 -16.071579 -803.234192
2238.319092 81.760780 -638.813110
2191.161377 -4.946587 -590.110901
1966.690430 55.085567 -943.815308
2090.387451 139.266037 -725.188599
2106.786621 -148.514877 -480.593994
2224.118164 78.570671 -611.355896
2036.691406 12.375163 -705.467712
1953.736206 -0.603974 -884.245728
2025.221680 -54.376793 -709.963867
2319.518799 -45.038063 -643.980408
2022.390869 -157.823334 -610.751099
1983.684570 39.730797 -817.726685
1989.049316 9.393824 -849.974670
2050.625977 -88.680664 -548.521118
2212.621094 60.915203 -675.372192
2300.627197 -130.587555 -582.739136
1993.231323 54.857132 -795.085327
1949.797241 -154.371460 -803.921692
2115.163574 192.531052 -733.743408
2064.189209 -147.853714 -505.784790
2095.295410 -140.414276 -511.177612
2150.432861 -77.477638 -541.541504
2102.159424 155.847763 -729.079041
2081.448486 79.360260 -566.507446
2170.299072 77.651474 -620.999023
1943.226807 -235.054611 -798.958923
2131.834717 -69.200172 -543.402344
2065.581299 -134.256989 -477.623291
2111.222168 151.570313 -726.741699
2087.948730 118.479950 -718.106018
2311.799805 -194.157333 -565.430237
2034.572021 -15.843281 -617.027710
2054.682129 61.822853 -674.295410
2220.714600 71.987617 -622.986145
2038.332642 0.478453 -617.054382
1973.520752 -175.827911 -806.925720
1981.638672 17.711258 -807.607849
2090.062500 138.875977 -718.106628
1999.160400 -104.997498 -712.105652
1948.945313 -227.585236 -722.689758
1989.905884 -133.725708 -811.163086
2050.688477 -119.360786 -552.852173
1937.673950 -3.394400 -947.735229
1943.582886 -152.263229 -845.980957
2000.122681 -183.555038 -660.624512
1954.107788 -81.467117 -884.206848
2198.009766 -92.019989 -560.009216
1923.342163 -263.959442 -830.026611
2298.971436 -26.066206 -638.506470
2298.339111 9.977513 -628.153625
1989.591675 16.838612 -781.886963
2253.305908 56.184078 -647.374146
2029.835571 -89.410759 -679.050415
2114.337158 182.701584 -725.619019
2098.613525 103.688461 -588.315247
1990.154419 -152.867432 -747.012085
1986.624146 -16.995533 -802.576172
2100.037109 90.728676 -683.086975
2103.769531 146.450073 -721.958923
2154.479980 80.219200 -562.695068
2047.534302 72.416115 -648.088135
2310.543701 22.549681 -625.028625
2077.714600 76.714867 -587.724548
2235.684814 137.732925 -687.464172
2046.646606 17.719843 -604.798401
2056.476318 15.915826 -578.210571
1946.759399 -55.610794 -863.737732
1972.041626 10.595372 -872.709106
2193.969727 148.526886 -709.752747
1993.942139 -61.674026 -802.306030
2196.240479 70.482162 -579.873169
2048.128174 -38.212852 -567.050964
2307.083496 -63.077293 -623.974670
2055.012207 47.028202 -609.873047
1993.762451 -5.250360 -808.292725
2044.726929 52.250050 -817.754700
2032.860107 -1.982126 -647.817505
2111.403564 -75.773773 -525.114929
2254.372314 -169.143921 -569.792542
2305.777344 46.163029 -654.780151
2160.642334 -56.975105 -558.589172
2172.641846 -83.771324 -554.391052
2033.767578 -57.833660 -645.194275
2054.412354 -86.584862 -531.226990
2194.201904 -150.132050 -540.808411
2245.248779 -106.039757 -589.596069
2113.247070 47.248756 -571.961914
1993.040771 -115.785347 -718.169312
2201.336670 143.375900 -709.657837
2089.182129 -1.874217 -537.496704
2064.741699 -128.220474 -497.758270
2279.934082 13.990524 -622.144714
2093.129150 64.983490 -689.131470
2203.556885 -70.513138 -570.586304
2261.963135 2.472548 -623.019226
2214.677246 -20.410450 -590.924316
2040.564453 -144.006882 -557.525635
2001.718872 47.643337 -799.035461
1979.887451 15.788459 -909.079102
2105.589844 34.654408 -560.705383
2045.895996 -41.488602 -569.616821
2301.909912 57.423145 -626.191895
2182.548828 24.512678 -592.395630
2061.192383 22.443104 -572.570618
2138.209961 137.666763 -718.384277
2147.538086 71.080070 -650.626160
2070.851807 68.502228 -591.927063
2093.673340 32.853149 -545.787292
2071.132324 68.375916 -669.641296
2040.812378 -8.443517 -633.076904
2079.684814 14.360666 -544.486816
1932.071655 1.295118 -943.024292
2027.464966 -131.185013 -623.589905
2073.423096 -139.078537 -489.004272
2041.779663 -141.798874 -567.540100
2175.179443 133.731964 -708.149048
2227.510742 77.963615 -612.389404
1959.393677 -187.782394 -777.055420
1948.795288 -104.343391 -882.066040
2114.688965 161.706894 -711.931152
2001.302002 47.983925 -782.559204
2050.796387 -166.720871 -549.295654
2000.782227 -100.812256 -733.482788
2022.959961 -67.471931 -681.300293
2098.489746 79.386192 -692.649597
2314.435791 -198.390366 -570.916321
2061.590332 35.766045 -618.113220
1921.119629 -36.122261 -922.029236
2083.546875 66.742203 -583.314575
2289.741211 -148.966751 -585.171448
2084.564697 155.885620 -744.344238
2312.196289 -40.863468 -640.596497
2240.063721 140.522369 -682.079468
2013.919312 32.693264 -736.632996
2000.314697 -177.620926 -653.847046
1936.835571 -120.113983 -885.888367
2086.835693 -16.398174 -546.862488
1985.502563 -163.759186 -738.118042
2155.417480 17.355001 -569.154785
2057.851074 51.066219 -617.706299
2036.360840 13.185170 -677.873779
1973.829834 2.671710 -816.149902
2110.944580 96.141029 -674.718628
2078.368652 40.521229 -572.028503
1917.907959 -110.838860 -924.807617
2105.664551 -1.045592 -552.469482
2003.819336 -111.325233 -718.705688
2334.021729 -92.558655 -620.842224
1985.297119 -167.842590 -708.618713
2036.165649 -32.480892 -596.193054
2106.845459 -156.614685 -507.101532
1922.132690 -72.514587 -920.169861
2039.371948 11.783528 -677.965027
2288.892090 -17.330421 -631.357849
2035.527588 -77.457443 -603.331238
2138.207520 68.012756 -694.228394
1975.250854 29.433300 -893.709290
2201.778809 -93.367844 -561.256775
2134.833740 38.814026 -578.746582
2289.742676 -89.555328 -601.310364
2283.130859 -195.050232 -539.770020
2305.514893 -50.607586 -620.738770
2177.483887 -117.541313 -542.364380
2091.681396 -120.337341 -505.154999
2032.908325 -65.851654 -653.775024
2317.245605 -85.506424 -617.999329
2143.051758 -110.033669 -524.709229
1940.551880 -198.059280 -803.519348
2063.645996 16.165630 -567.504150
2217.317139 115.886032 -671.429932
2184.278076 170.448120 -696.242859
2005.046021 -143.130753 -706.720093
2096.944580 56.253712 -576.392334
2048.821289 -17.781414 -562.773010
2089.351318 69.044083 -714.450928
2143.802490 82.117607 -618.918945
2033.575317 3.497076 -635.045532
2114.226563 63.324772 -689.800171
2041.201294 47.292229 -721.468750
2201.984131 124.985069 -681.578979
2228.683838 -185.091660 -523.690552
2281.585693 -28.956585 -618.373352
2025.925537 44.884216 -705.384888
2116.314453 139.631989 -715.240112
2140.356934 106.261711 -746.715332
2065.248779 19.772070 -560.781250
2107.384521 -22.246811 -549.202148
1998.077637 -189.619644 -682.526611
2234.238037 66.581902 -609.572144
2095.231689 97.782646 -699.695740
2012.737915 -68.322044 -632.566345
2076.671387 -79.033234 -508.716949
1966.230347 -7.759461 -841.796570
2264.592773 63.319645 -610.516052
1983.918945 -180.554626 -634.250305
2062.581299 -42.051823 -525.802368
2017.155396 -33.584385 -732.241455
2261.916748 -87.913002 -598.599792
2188.209473 146.259964 -714.874390
2056.186523 -94.770615 -554.234558
1957.132324 -0.681444 -871.324524
1949.102295 3.182259 -897.953125
2081.572021 -116.025009 -648.182434
2261.218750 -34.023468 -609.935791
1997.530884 -56.119125 -774.533752
2079.111328 -65.509949 -509.319092
2061.801270 -7.860082 -571.561707
2006.628662 -163.948044 -653.029785
2025.107056 38.431122 -704.727600
2042.495361 -4.955228 -599.909973
2216.531250 75.335403 -658.396118
1969.153442 23.244068 -830.051270
2029.407715 -171.127945 -590.013000
1941.198975 -183.445267 -839.466003
1995.718872 -43.206116 -770.911560
2078.405029 62.913868 -563.173523
2134.778076 86.469414 -591.634827
2036.231567 -22.716087 -626.098938
2096.215576 108.338028 -693.170837
1973.185913 -72.394066 -814.773987
2286.343994 -108.954285 -592.482056
2047.369995 -8.424017 -590.972412
1919.707275 -47.266483 -946.930725
2115.761475 77.211655 -648.409729
2329.552002 -156.123749 -600.128418
1931.235962 -52.839367 -900.050171
2100.524170 75.270645 -661.882751
2020.518799 -153.199188 -652.026184
2215.196533 -69.923706 -567.195557
2197.525635 -144.591965 -541.404419
2187.935303 103.375305 -683.514465
2185.535400 77.773460 -670.214600
1904.226563 -263.206604 -882.300781
2133.076416 92.302666 -700.340759
1925.590210 -251.182831 -785.924866
2059.058594 71.208038 -645.253235
2033.295898 27.534115 -938.406128
2061.574951 -4.663987 -540.748596
2098.398682 103.502296 -681.693542
1951.685425 -8.148831 -903.627930
2030.947388 -80.916435 -583.005859
2069.281982 55.271713 -611.218628
1939.543823 -143.758087 -923.755371
1986.700562 29.854183 -794.119507
2053.453369 -47.622662 -558.172363
2270.546875 72.577583 -615.491516
2146.196777 -4.286723 -571.681030
2331.392822 -124.089134 -599.756836
2119.255859 83.056252 -576.673706
2208.194824 -4.136614 -596.468384
2041.780029 -28.593330 -573.308899
2070.057617 43.704571 -580.064514
2050.423096 -39.746536 -702.449768
2033.503784 43.765862 -698.836914
2204.010742 74.478828 -662.314148
2238.672852 59.294559 -641.129211
2013.035645 45.522453 -944.767029
2008.317871 62.023861 -777.743652
1965.463623 22.677406 -911.012756
2108.344482 196.789429 -742.867615
2197.783203 3.773479 -583.430664
2308.219971 -89.847229 -611.538574
1964.748413 -167.029510 -948.687073
2052.322754 -72.722771 -544.823364
1985.061890 -214.408279 -691.774536
2231.043213 -26.334095 -596.179993
2058.255859 -97.445206 -549.244141
2242.969482 -16.213299 -606.908875
1968.532837 -171.802628 -882.546570
2318.241455 -74.626732 -635.852173
2126.040527 -121.617615 -524.055054
2063.076172 28.943045 -944.875610
2041.369873 46.367432 -722.335327
2201.316895 -109.112465 -568.507813
2037.210083 -145.193542 -620.051147
2231.578613 65.394997 -600.518616
2016.364746 -113.298172 -684.971985
2147.851318 28.413614 -574.354187
1989.888550 -202.804077 -700.221802
2144.842773 -62.822403 -540.843018
2062.897461 -53.755383 -518.518372
1979.353149 2.610785 -974.514771
2046.527466 -74.497307 -582.861389
2232.667725 68.836975 -637.707886
1972.438110 -138.098419 -753.359436
2028.914307 -131.871338 -684.445801
2104.759521 70.984566 -580.320007
2052.627686 40.774567 -612.153564
1968.742432 -82.928917 -801.327332
1962.040039 -211.041107 -769.850525
1988.778442 34.527821 -808.362366
2193.291748 -94.860397 -560.149597
2031.581299 -46.906918 -599.763428
2175.439941 83.276642 -686.579163
2307.755859 -58.393696 -609.353821
1969.207520 -233.870621 -732.924500
2056.806396 -41.350731 -552.087463
2121.862793 -11.560715 -556.703064
2291.460693 -78.137794 -611.225098
1965.433472 -229.217758 -732.619934
2067.968262 54.127193 -577.635742
2002.972778 -24.593855 -765.883667
2076.118408 -141.614624 -481.350403
1916.518799 -183.667191 -900.544800
2061.779297 59.687065 -615.772705
1928.046265 -221.418381 -811.659424
2062.510010 34.389206 -592.438354
2013.075806 -119.791748 -690.670288
2046.029297 -72.884880 -552.453918
2105.808105 74.834419 -664.876282
2074.269775 -91.722359 -512.906006
1993.601563 33.701290 -840.238464
2150.058594 -139.749649 -525.987549
2088.843262 37.836246 -570.130371
2034.327271 12.475365 -685.775757
2189.328613 64.050476 -584.505737
2096.299072 86.355705 -681.893616
1963.737305 10.355275 -910.110840
2059.420654 14.601082 -562.110352
2006.688843 34.926239 -916.321899
2241.254639 140.806427 -682.229187
1991.347656 -61.692547 -772.187317
2110.312744 63.548180 -777.663574
2142.622314 80.300621 -638.784729
1915.541260 -92.310295 -948.384827
2029.886841 -19.216478 -667.729126
2104.940186 -156.044266 -480.382172
2249.203613 -88.460823 -584.208679
2343.495850 -208.024002 -561.265564
2051.716064 65.357094 -682.731506
1972.597900 -15.770459 -818.028992
2215.292725 -40.276569 -584.520508
2266.738037 -117.291245 -583.895203
2247.048340 -185.695755 -531.022156
1932.785156 -22.016586 -971.454651
2064.570557 29.596788 -882.632324
2067.368896 -84.625023 -521.343384
2022.663818 -26.992691 -1017.568604
2153.246582 77.227531 -630.038086
2215.341553 80.048676 -596.841553
2036.072998 -141.843765 -640.239868
2019.042236 -139.000748 -638.312073
2327.795166 -151.052795 -603.396667
1962.420044 -101.894272 -847.907837
2138.160400 73.706314 -572.853210
2064.541016 -14.727097 -576.320374
2179.379639 -176.869019 -519.401550
2081.056641 120.080269 -716.122070
1914.938599 -250.658798 -836.008362
2033.931396 -27.604628 -703.106689
2071.451660 48.831165 -718.089600
2100.908203 29.044521 -567.418152
2036.715698 2.344749 -626.919922
2027.717041 1.581404 -634.731506
2296.492432 -82.400505 -608.896118
1976.158325 -147.843338 -776.085205
2040.618042 -118.580948 -562.079285
1955.231812 -166.207993 -808.172180
2096.597168 58.315205 -577.432617
2103.647705 12.698988 -560.020447
2185.117676 -139.115845 -532.534058
2312.835693 -16.368206 -646.960205
1997.250122 25.649097 -848.654724
2055.255615 41.864578 -595.990845
2044.342529 -38.409302 -689.865356
2273.863037 57.413692 -633.091125
2009.008789 -24.869783 -744.863159
2047.920532 -108.040619 -554.834229
2145.709229 1.511598 -569.800781
2033.634644 -73.842812 -591.633606
1986.637085 23.756832 -847.177124
1938.829956 -155.900177 -851.092468
2035.785889 53.695374 -724.898193
2204.513916 137.855057 -703.819397
2142.692627 181.960968 -732.739624
1962.851440 -12.878029 -840.971802
2044.861816 -92.520706 -563.032349
1947.296631 -8.025747 -890.307068
2013.628784 -156.978668 -637.320679
2177.223145 -172.367310 -517.249390
1958.435181 -173.981339 -853.222473
2067.855957 -78.720032 -511.758575
1910.609863 -211.258347 -844.855835
2198.008057 -155.264633 -539.946472
1960.482300 -167.600021 -753.830688
2284.974365 -135.023926 -585.483948
2259.083252 -4.821715 -625.770874
2184.229980 128.288391 -705.991882
2224.706299 -28.771172 -595.155823
2121.218018 -136.011490 -511.880402
2163.873047 -166.739960 -524.803040
2189.434082 -110.647774 -542.695557
1989.752197 27.745655 -859.164185
2080.688477 61.212166 -715.098083
2035.847290 15.362637 -672.688538
2146.680664 60.754299 -568.536560
2244.762695 17.040733 -616.270325
2142.614502 164.584763 -727.640930
2122.790283 68.506874 -694.357422
1970.425293 -166.612976 -758.440430
1942.392090 -0.598149 -872.869202
2001.302490 -14.323112 -779.399231
2341.322021 -158.053696 -609.693604
2269.076172 8.465719 -627.348022
2221.428223 -38.534992 -595.762878
2135.964355 -112.334290 -531.598389
2209.413818 -55.717518 -577.536072
1998.230469 -85.697464 -729.127563
2178.952393 62.369438 -670.542419
1974.320679 -177.807434 -731.663025
2065.595215 84.671707 -620.221497
2090.003662 61.888470 -691.286011
2047.484497 -15.206549 -586.736389
1979.966919 30.403904 -841.063293
2158.917236 76.192451 -608.580811
2084.213135 82.446251 -715.250061
1956.599243 -208.173508 -758.086243
1922.219727 -47.211094 -920.967041
2027.346191 76.380913 -779.976685
2068.661377 -1.953673 -530.190308
1984.693237 28.663054 -931.277283
1978.417725 16.148697 -844.970520
2137.129883 73.547798 -635.477295
2208.519043 78.982506 -606.823853
2093.834473 -84.940315 -528.417236
2031.223145 -105.509926 -591.446655
2037.485229 -30.051216 -600.427917
2067.550537 -2.371404 -551.087646
2033.861816 -3.606580 -605.656189
2013.265625 -147.384171 -538.168701
2106.351563 95.132736 -581.212097
2019.219238 42.086197 -751.869141
2045.903687 44.725399 -653.586243
2054.450684 -12.064214 -564.580811
1953.095459 -31.245920 -875.669861
1991.272949 31.982979 -898.674438
2298.792480 -89.282112 -606.008545
2211.125732 -15.256304 -594.019775
2240.166748 -165.258270 -554.958130
2027.872803 33.453239 -701.175476
1945.598511 -203.384308 -847.242493
2066.040771 54.871040 -579.965637
2116.467529 204.405807 -728.185974
2125.164551 156.949585 -713.195496
2172.732422 60.470306 -583.596252
2272.692871 53.859287 -650.428223
2013.987549 65.113083 -767.611206
1997.028198 -35.836796 -782.885620
2159.957520 -107.901672 -550.559143
1961.307861 -156.608322 -952.076599
2036.347778 -69.242210 -589.792664
2043.554565 -85.414108 -562.676453
2101.174316 -79.928970 -523.901672
2082.847412 71.076393 -677.040527
1956.483032 -154.747528 -904.519165
2216.354004 -108.605682 -568.123901
2119.763184 117.126022 -708.992676
2033.421997 -30.338100 -675.430664
2043.296509 -171.332886 -565.807983
2190.112793 93.385628 -697.062988
2178.089355 -173.877930 -507.746246
2305.887207 28.496330 -626.021545
1932.963379 -217.042511 -803.188660
2061.495850 42.408470 -580.117432
1925.715210 -133.462997 -899.702515
2308.943604 49.283443 -639.236511
1953.921997 -108.052780 -869.383545
2288.668213 -190.102585 -536.374756
2076.211914 -127.656227 -516.664734
1974.398193 12.339906 -902.906067
2036.467651 -41.477589 -573.076538
2109.892090 -157.351837 -1011.677551
2008.623047 47.197609 -760.336426
2018.426392 66.960892 -767.973755
2147.440186 -172.104919 -508.959503
1995.723633 -150.194305 -726.553162
2095.310547 73.519958 -668.221741
2033.059204 -77.237244 -660.630310
2176.571045 69.964447 -669.278015
2164.785156 -14.012959 -572.293762
1986.012329 -206.507736 -659.802368
2012.977417 63.441433 -781.748718
2055.574951 -106.914619 -555.751892
1977.612793 24.596624 -949.411743
2029.888184 -84.283463 -610.562744
1949.366455 -12.959739 -896.834290
2065.286133 76.896851 -655.053101
2292.940430 -65.674232 -613.002991
2046.112549 -15.743838 -584.664551
2085.463867 73.855354 -700.561035
2021.050293 52.216125 -821.854431
2046.180786 29.005808 -617.207458
2016.266846 -43.537502 -705.304016
2143.575439 -67.052513 -541.928894
2005.070679 -65.792397 -723.332458
2055.928223 49.000122 -620.650085
2061.942871 -13.613909 -545.510071
1934.316528 -203.957031 -888.100952
2059.862305 -26.253511 -540.989990
2171.705566 -95.030800 -552.329468
1919.862061 -133.543823 -938.177917
2143.922607 170.747147 -735.272400
2074.610352 85.320076 -602.074280
2121.149414 158.887039 -723.459595
2087.393555 102.885582 -698.483704
2072.368164 -79.664803 -505.190857
2140.398193 -54.464336 -545.131348
2070.250000 47.804123 -885.882324
2059.789063 -115.665260 -521.524048
2255.550293 -191.628433 -559.480530
1906.728149 -236.335510 -798.303528
2265.462646 5.183242 -625.547546
2006.612305 5.100285 -752.193176
2011.693359 -198.681580 -637.730591
2311.336914 -178.041626 -583.213745
2092.188965 80.641815 -674.619812
1983.177002 -64.357643 -776.055481
1944.706543 -149.758682 -844.921326
2061.630371 73.913582 -666.504944
1920.302246 -256.638336 -824.992615
2060.114746 12.055403 -556.477234
2339.531738 -129.448380 -616.819824
2072.321777 -96.276016 -502.404449
2011.618042 -158.964386 -643.623413
2093.909912 161.118103 -724.749878
1954.463745 -208.530075 -762.145508
2271.482666 -151.255310 -562.873779
2036.068115 54.258476 -733.062256
1962.896362 -145.002029 -786.335205
2102.987549 131.940399 -694.141663
2078.683594 -103.359596 -501.004883
2035.527344 -34.893326 -677.297974
2026.780762 -25.016329 -642.987244
2040.038452 35.979385 -933.288635
2305.688721 -186.227890 -577.465942
2092.630859 69.775589 -653.844421
2069.907471 17.948891 -575.288635
2302.584717 -53.094193 -624.777100
2080.704346 -111.898651 -476.499329
2299.250977 52.801826 -619.563782
1965.836914 -213.636337 -701.403625
2136.062500 104.353851 -714.654297
2034.618042 43.655003 -682.797546
2150.182373 -39.868259 -557.255859
2067.690186 11.244186 -577.295776
2233.947266 71.782425 -646.552246
2032.755493 -144.086517 -598.797241
2144.145752 11.563427 -561.551697
2006.618408 37.709255 -747.734436
2101.135742 -6.859146 -543.304993
2037.118042 -144.785309 -525.983582
2052.767578 -67.895981 -563.837341
1945.506348 -12.591312 -934.870544
2180.390381 -83.094185 -558.467834
2034.616821 40.010582 -707.521912
2049.443848 -85.525574 -539.306641
1976.653931 -21.448317 -824.839600
2043.069092 47.676830 -661.541870
2260.784668 -126.198677 -574.873413
2137.135986 -150.900375 -515.435303
1924.804077 -163.936707 -881.518372
2043.994873 -65.641426 -545.596069
2283.515381 64.210281 -648.379333
2002.142578 -37.618221 -744.114685
1990.630371 42.614899 -794.858826
2155.822754 70.087692 -673.352844
1955.669800 -88.407677 -844.390869
2140.094727 133.424057 -719.384949
2209.492188 12.639612 -601.968872
2072.713379 52.013451 -778.180664
2057.720703 -14.560648 -584.050415
2046.500610 55.895439 -734.429138
1993.557739 -167.926300 -671.170654
2039.301880 -128.804626 -562.543335
1941.118774 -205.710556 -803.798523
2199.083252 44.454716 -597.623291
2227.000977 113.030014 -680.004578
2039.012939 -1.975663 -597.321411
2236.235840 -186.024734 -524.813232
2030.462402 71.083733 -768.914001
2250.730713 104.647133 -684.915283
2098.389160 96.123543 -713.651917
1976.751343 -217.371124 -694.231812
2220.590576 138.458542 -665.600281
2006.020020 37.475300 -856.156921
2018.923950 -113.352753 -668.908447
1991.191895 -146.470734 -711.501892
2119.184570 -115.157867 -517.845886
2288.942383 44.121639 -614.662903
1930.718506 -77.929314 -890.498413
2131.570557 179.964325 -733.117737
2113.491943 -164.294540 -507.640015
2050.243164 -46.631104 -543.838867
2072.217773 3.823517 -547.989563
2014.992188 35.449272 -863.601379
2022.242310 34.665451 -953.646851
2002.866333 33.994297 -901.274292
2196.650635 101.503395 -696.203918
2342.686523 -168.311798 -596.140442
2030.631958 -96.051155 -598.438049
2121.661133 -150.484909 -505.132568
2339.405762 -146.510696 -607.394470
2232.514648 -27.813274 -601.057129
2108.998779 -99.765526 -517.691162
2222.476563 72.725731 -615.898560
2072.205566 60.362251 -586.427856
2255.347900 75.656563 -673.438599
2031.516357 -91.725952 -661.114868
1995.269287 -186.448471 -955.089600
2049.866699 40.463505 -852.193848
2240.640381 -64.944717 -579.521057
2076.322266 -160.219574 -509.152802
2341.597900 -125.298347 -610.440308
2043.573730 -27.162994 -617.292175
2106.114014 -116.923592 -507.476501
2094.074463 64.956856 -742.655273
1955.454956 -3.971098 -869.349487
2213.431396 -188.443344 -538.957581
2108.483154 197.679062 -732.811279
1953.170654 -4.305531 -849.859436
2144.853516 -108.220131 -536.846252
2047.911499 8.648382 -596.280457
2123.237305 45.117767 -574.528137
1995.248169 -165.860687 -698.619568
1998.761353 -135.863953 -740.053467
2259.697754 -126.773010 -566.266479
2064.513916 24.772184 -590.364075
2145.741211 -105.510315 -522.821777
2018.438477 -159.254776 -656.770142
1931.059326 -151.622360 -912.791443
1936.619019 -38.041183 -907.257568
2144.255859 -78.344467 -535.523987
2013.850098 -84.487396 -691.850769
2091.440674 100.730957 -575.288574
2087.759033 127.400871 -711.549561
2264.983887 15.312138 -627.619324
1991.899292 -42.201748 -818.174194
1965.310425 -222.508163 -824.064209
2038.148804 -24.368916 -596.831726
2062.964600 -18.560801 -555.213806
2056.593994 39.473904 -606.123718
2053.312012 65.762756 -631.215820
1977.648193 -211.773361 -668.274719
2237.902832 61.332638 -657.082947
2009.177124 -11.817647 -749.042847
2210.104492 68.323814 -672.177856
2190.273682 -134.694855 -532.246338
2015.930542 -112.398491 -616.774902
2038.765259 -111.808975 -576.419922
2030.121460 -61.579311 -603.324097
2003.834717 -105.241188 -988.349792
1997.449585 -103.048233 -738.012146
2138.269043 129.909805 -708.022583
1993.604126 -174.793411 -688.281982
2223.260010 -131.060989 -559.494324
2042.934448 -163.702316 -540.270630
2089.439697 86.395531 -747.781189
2238.662354 66.167755 -658.669678
2074.654541 3.549435 -536.065186
2069.505371 73.503578 -668.216492
1950.823486 -221.231064 -763.373047
2010.288574 -155.487488 -633.898804
2301.481689 -28.025272 -631.825073
2253.165527 120.128029 -678.639282
2302.834473 -17.243368 -633.176697
2030.506714 -129.283890 -576.200012
1928.282104 -147.405441 -886.830444
1948.465210 -211.268478 -767.397827
1991.261230 -98.064758 -738.441772
2023.722046 46.362358 -714.318054
1977.357178 21.585434 -810.877502
1949.543335 -200.975555 -836.895752
1944.540894 -63.343842 -882.710571
2041.251587 21.160759 -642.209167
2212.403076 94.940063 -674.250427
2207.854004 -61.560608 -574.267090
1979.818481 -193.003433 -698.508179
2124.403320 -9.228987 -562.067627
2024.644531 -65.042404 -684.434387
2102.949219 124.828262 -690.821411
2028.249634 39.226746 -914.169495
2145.146973 -55.081413 -543.427795
2086.374268 -5.160991 -549.415466
2127.187744 -103.102646 -539.361755
2340.149170 -189.572098 -616.005676
1977.596802 16.044331 -833.042847
2058.923828 -103.534760 -536.244019
1982.319946 -49.428909 -788.713623
2314.419189 -93.648605 -613.619751
2114.585938 161.023529 -728.986633
1994.003174 55.715969 -800.010071
2070.328125 32.932518 -559.684326
1999.734985 10.290695 -766.727112
2310.706787 -168.857773 -584.346375
1985.747681 -100.943871 -756.926514
2281.170654 -141.988708 -581.363770
2129.621582 84.242310 -699.374512
2058.542969 53.524765 -612.444885
1962.005127 -57.328411 -835.854309
1927.031616 -229.416626 -822.721497
1936.662354 -182.587570 -905.005249
2006.704712 40.409241 -845.563843
2063.240967 6.683716 -550.937561
2020.979614 -186.886627 -612.441040
2205.849609 135.763901 -665.126526
1994.927979 31.233559 -773.576477
1990.062622 -95.592522 -757.134888
1963.739014 -167.332504 -778.363708
1933.606445 -240.441299 -826.634216
1962.450684 13.754185 -897.270508
2033.422974 42.780792 -671.546509
1945.318359 -196.086411 -792.109253
2017.990723 -193.672653 -623.118774
2020.013184 21.032028 -909.857910
2269.570801 95.941116 -678.817566
2005.318848 -21.571169 -743.669739
2228.792969 -18.106052 -600.159180
1948.673950 -136.897964 -871.542664
1965.579590 -211.187363 -740.673889
2110.681396 91.541519 -704.858154
1984.638062 -173.371216 -693.798401
2105.332275 12.809672 -553.136597
1995.384033 41.207455 -857.948486
2066.261963 -101.381264 -516.126404
2186.246582 -137.315948 -538.884460
2045.213135 -78.128372 -582.079529
2222.638184 -10.591350 -598.965942
2226.657227 31.626867 -610.298523
2316.701660 16.165112 -633.356873
2138.545898 96.644417 -612.313110
1991.438354 -34.904430 -791.927246
2151.055908 30.382160 -775.912048
2292.586670 -113.231125 -596.665039
2212.681641 86.000648 -631.936279
1895.632813 -258.783417 -865.324158
2121.651855 81.546249 -627.628113
2070.686279 47.065384 -587.643555
2130.170166 138.747360 -716.482361
1926.810547 -158.435226 -882.587341
2027.637695 -111.034431 -687.754700
2088.109863 66.983459 -712.660034
2099.633789 156.392288 -705.330078
2061.268799 -104.688644 -516.951965
2178.156738 -132.037796 -549.404663
2189.604492 -33.714214 -579.899841
2194.624268 -46.535175 -573.579529
2327.052979 -137.169449 -607.290100
2326.941162 -62.730671 -627.912964
2018.639282 -34.584808 -657.244141
2031.813843 -61.140099 -598.822388
1990.234619 17.048126 -958.037720
2302.893066 -160.646484 -572.788574
1993.310669 -158.207916 -712.079590
2076.011475 62.352989 -607.441650
2013.188599 -37.012753 -735.010193
2063.453125 59.558163 -608.518005
2278.907715 -56.296787 -607.814087
2056.638916 -73.584991 -529.460938
2082.706543 68.773041 -604.373169
2031.103271 -136.924088 -585.768677
1936.126953 -94.608551 -899.441650
2075.804688 79.307518 -724.262939
2076.959473 29.024206 -567.498962
2080.769043 23.565496 -555.592102
2277.438721 -31.488882 -615.653809
1977.909302 -103.471931 -814.157349
2102.952148 172.896423 -735.536682
2331.748291 -200.660782 -595.373413
1939.158203 -225.074265 -839.003235
2004.941895 -33.985847 -756.625366
1989.173950 -170.121750 -712.308167
2033.807739 56.818874 -678.603882
2324.725098 -63.174671 -629.278564
2042.406494 75.806175 -783.401794
2219.990479 144.977936 -686.177307
2045.031006 -79.191933 -590.931396
2016.505371 18.690880 -735.833984
2220.052490 77.801208 -617.995789
1934.942871 -250.288971 -791.816895
2046.933105 52.551308 -819.433228
2115.453369 -37.758617 -541.075806
2046.911743 -181.125671 -576.114624
2013.645142 26.846373 -885.806152
1977.379028 24.211729 -951.857727
2118.900146 145.450256 -708.820862
2084.462646 64.327461 -671.891296
1979.792236 -92.377869 -839.702454
2214.547119 79.118050 -631.720703
2086.391357 -68.783569 -529.143799
2254.014404 108.351601 -676.199951
2117.741211 16.300520 -564.298462
1999.508911 35.066635 -768.280823
2085.273193 55.343185 -719.475708
2047.538208 61.942497 -719.986328
2136.927246 159.891068 -730.481384
2040.624512 38.060574 -648.634583
2036.352417 -125.324753 -621.148315
2257.067139 68.049591 -640.557861
1993.410156 40.943024 -802.001770
1975.078125 -27.164968 -823.655518
2160.391846 -139.100281 -534.081543
1985.787476 45.985115 -792.279785
2051.348877 -157.511063 -506.670319
1948.547729 -163.148956 -896.998779
2326.739258 -139.832260 -601.915344
1921.707153 -121.833786 -903.206909
1939.002686 -215.467041 -779.818054
2106.348389 -35.778049 -543.514404
1962.789063 -218.417831 -757.313721
2188.055420 140.913528 -699.506226
1969.737183 5.736182 -837.087646
2088.983398 -125.456596 -511.737122
2007.178955 33.846405 -749.029419
1975.001099 -75.760406 -809.299805
2084.015137 179.285629 -768.111023
2112.126221 112.191017 -712.802063
2019.163696 29.112812 -720.788696
2098.581787 -8.152605 -553.699768
2001.777466 -146.779617 -704.195313
2165.310059 -58.526230 -562.531372
2052.024658 49.657055 -775.080139
2008.419800 40.906025 -762.951477
1959.254639 -75.449562 -837.254272
1917.190918 -78.387230 -953.523987
2312.625732 -92.145721 -600.182495
1948.044312 -123.528931 -875.438599
2001.901978 -167.951584 -649.904236
2335.237061 -64.636360 -618.781128
2233.400146 -162.879562 -554.893188
2009.415527 -211.555267 -654.332886
1932.117310 -79.306885 -902.045349
2052.550293 -27.188559 -555.059143
2038.760254 58.411636 -716.154053
2102.600586 0.401170 -547.470703
2128.568359 5.381567 -561.221130
1958.528687 -202.629852 -741.608704
2325.468506 -209.848053 -572.846130
1989.153076 -117.177841 -977.858276
2112.605469 -70.780479 -534.592102
2025.195068 -145.732040 -593.275269
2012.614990 -1.525734 -1012.716858
2051.659668 -12.063723 -576.409058
2331.739502 8.655171 -626.388611
2205.441895 -136.143921 -547.971680
2230.748047 73.876091 -650.517212
2063.656006 8.414751 -555.104187
2215.856445 127.613327 -692.419739
1987.517090 28.602829 -903.959106
1981.408081 -156.160263 -817.894897
2012.249634 -179.567474 -964.470703
2176.343994 76.705116 -640.593140
2004.466431 -181.828125 -642.755127
2238.417236 -96.893051 -578.907898
