ply
format ascii 1.0
element vertex 1413
property float x
property float y
property float z
end_header
561.479614 2036.808594 -134.097382
849.008057 2144.660400 68.286705
849.910522 2250.880859 -53.270393
800.326294 2062.358887 -21.735430
563.244446 2047.671753 -129.576187
570.088562 2030.634399 -107.340363
653.306946 2048.988770 140.768341
602.603027 2058.420654 51.446938
606.315735 2054.529053 -23.871517
694.812744 2056.806641 102.313301
528.878540 2065.990234 44.604885
808.319824 2087.960205 162.031464
696.777161 2010.556763 -31.803772
706.552979 2065.405762 -163.122482
554.748901 2074.300049 134.218048
491.778503 2091.323975 253.248489
593.295715 2050.862061 182.836990
584.692200 2045.390137 -72.907646
789.741516 2065.813477 140.454193
563.844971 2066.034912 -70.868355
689.023804 2123.164551 -231.480774
668.777283 2028.126221 -201.452576
641.497681 2056.836914 146.258469
620.214539 2045.929077 116.527641
604.622375 2026.252808 -114.058411
543.722046 2056.315674 -51.966347
419.008606 2085.637939 127.437302
729.330750 2062.759033 -124.064766
365.262634 2072.066162 18.811401
357.925262 2070.626465 -8.457309
478.902374 2069.252441 207.776489
464.684296 2078.848145 16.325644
718.681396 2266.709229 -224.221069
780.044434 2181.250977 -92.613670
578.028015 2062.846191 61.270889
541.099976 2083.223389 229.082123
719.735657 2081.936279 -155.896393
395.636749 2073.718018 155.773361
791.954712 2006.106934 -5.237198
750.382568 2040.342041 -92.306564
561.918701 2058.208984 109.742828
647.142822 2024.639282 -175.217896
445.046967 2078.209473 205.038071
746.038513 2028.071777 34.981415
363.872559 2081.496338 -11.510477
405.452911 2087.175293 146.562042
662.771912 2038.525757 69.465004
532.375427 2088.886230 223.086548
436.859222 2075.892822 194.368515
521.391663 2074.970215 58.342667
843.832458 2114.145752 -11.791069
730.405151 2000.625977 -49.972179
485.254944 2055.698975 -35.210545
811.422180 2076.126709 179.824081
580.657043 2067.423828 64.249458
445.178925 2074.369629 83.495491
700.407166 2072.395752 123.059387
466.405762 2053.109863 -52.789471
602.438904 2045.166748 -91.228699
670.878235 2037.295044 -194.199158
813.984497 2150.500244 18.543554
552.822021 2057.031738 78.302689
503.010681 2058.210693 -5.035525
805.943420 2263.631836 -80.914955
400.972260 2109.024902 54.687073
793.382141 2156.680420 156.942841
775.116150 2072.802490 119.147018
644.930054 2017.517822 -188.818863
552.662720 2080.474854 235.726547
803.008789 2272.559570 -105.023056
636.443909 2049.830078 122.637169
702.502808 2052.296387 -167.333694
701.853088 2031.554688 -151.186310
526.760071 2059.852539 29.352465
576.949829 2055.779297 95.495018
657.126404 2023.266968 -16.738100
786.013062 2020.940186 32.648129
616.457886 2045.973755 162.233627
719.061523 2018.828003 54.191746
843.508789 2097.304932 -17.942305
366.804657 2043.093994 -4.328877
436.914551 2067.888428 169.321365
729.977478 2050.011475 68.586220
677.415405 2088.601563 -216.703659
763.692993 2221.995361 -146.922943
510.150360 2099.658691 249.731674
574.565674 2053.142822 155.300018
491.460083 2060.658203 -11.629330
772.427490 2010.739258 9.186200
508.797913 2074.142822 139.941040
484.583649 2057.480225 19.589943
827.302307 2082.616211 -17.760862
524.851318 2066.400146 66.371582
578.814209 2045.279419 -91.620270
463.260956 2087.783936 65.521820
744.643860 2113.378662 -121.556709
790.478760 2099.246826 123.726089
843.611206 2164.457031 82.192726
670.702576 2057.143311 117.541748
438.421356 2090.912109 93.563591
697.006836 2217.709473 -223.842041
423.946594 2079.768555 73.296272
699.540833 2200.730957 -215.776794
623.505188 2018.793945 -38.081028
849.690186 2162.721680 -16.861717
667.698303 2028.963989 -158.438538
664.642090 2078.063721 -215.128891
637.916443 2075.926514 159.125153
677.317139 2034.477173 71.005592
456.367798 2080.531494 238.161438
779.465881 2091.504639 100.718246
701.841064 2096.001221 117.737900
565.939575 2058.289551 -9.221692
750.154541 2187.466309 -155.718170
752.894531 2002.894531 -37.539745
593.853760 2050.845947 131.539230
727.910889 2006.451660 -23.544199
587.055176 2137.307861 207.242691
786.991089 2191.250977 -101.892586
562.728333 2071.962646 125.874756
545.448608 2067.064453 -26.300047
844.779968 2140.331543 -20.756495
720.378418 2237.917480 -204.204193
623.216980 2068.183350 175.007538
662.753906 2049.809082 62.713917
543.776794 2085.678467 242.955460
664.815369 2020.777466 -169.374481
756.326172 2094.125244 -113.789040
715.952209 2005.625244 -142.131363
722.422424 2176.056641 -182.453262
497.292938 2075.382813 239.493881
670.206116 2154.071045 157.273376
711.259399 2003.668701 -28.715576
673.624817 2076.970947 132.051208
704.266296 2010.845215 4.700312
705.489380 2033.745605 70.758163
421.216675 2059.524170 -39.188538
635.941284 2017.848145 -60.690845
552.552490 2062.288086 139.132736
795.236938 2071.564697 21.516619
591.612793 2127.788574 198.981949
633.443909 2109.012451 190.442871
594.184143 2045.784058 159.178528
518.997742 2077.495117 116.462410
456.683777 2070.113037 217.249329
799.560425 2078.070801 160.898117
626.600952 2034.608643 -58.356297
824.440186 2146.835205 39.911503
851.120483 2188.850342 -30.908381
613.297974 2011.691650 -92.527176
721.861816 2015.630371 -32.216393
680.320801 2099.482178 -219.168121
772.741699 2111.532227 -85.243515
845.663330 2067.958008 0.679530
519.756165 2064.087646 182.855530
555.529785 2022.260986 -135.183624
799.792053 2017.138794 11.270184
703.110413 2028.831177 52.467369
712.840820 2282.925781 -221.135086
420.430206 2075.046143 39.987385
626.547119 2052.714355 146.053986
712.522705 2261.755615 -240.869476
511.152222 2052.219971 -48.108795
705.193359 2014.968872 -150.411942
830.733704 2092.709229 -3.654701
509.635254 2097.090576 245.165405
539.799805 2114.881348 264.994415
742.649597 2000.662964 -25.397806
697.789307 2021.586304 26.716742
621.711365 2004.741455 -171.955383
374.808533 2080.146973 140.303680
378.087189 2081.457275 47.766361
592.501282 2060.981201 121.389915
732.014404 2086.238525 -135.539841
785.557068 2077.375977 130.483444
499.142212 2073.260498 2.111851
696.863892 1997.866211 -92.406830
732.284119 2003.656616 -41.771214
661.816467 2010.250488 -40.981522
578.036377 2052.515625 -13.150291
602.242065 2056.027344 112.289513
777.295349 2032.434448 32.555222
765.166260 2005.173462 2.798300
583.967041 2050.534180 -19.609192
347.001740 2033.490845 21.348915
860.943542 2148.875244 66.683037
755.997986 2061.669434 132.660934
743.482666 2196.784668 -151.817230
486.022614 2052.586670 -37.342903
694.613342 2096.938721 -204.299881
709.408997 2106.496338 -188.196503
637.822388 2043.770630 65.532440
789.660034 2077.173828 212.877777
719.275330 2000.508057 -58.163963
835.771362 2200.735596 5.183672
702.475098 2190.360840 -241.235245
469.989471 2056.783447 -53.740639
646.824158 2057.372070 46.925007
481.926697 2039.089600 -75.224739
429.958466 2057.437988 -7.912103
717.920837 2138.563965 -179.104950
850.953491 2182.111816 52.621056
721.439819 2027.088623 66.830948
527.422058 2070.743652 150.254639
619.153809 2033.313232 -112.747353
783.790771 2215.773438 -100.816635
488.277649 2081.621338 71.565948
596.302368 2038.782471 -84.114052
797.019165 2080.607422 136.568680
828.300720 2085.594238 -18.258356
731.902649 2008.870850 -10.526135
701.605164 2170.855713 -233.167206
854.355774 2143.339355 88.622833
747.658264 2070.011963 104.457909
822.137085 2131.598389 14.886374
471.599579 2055.123291 -73.217163
534.028931 2062.209229 14.152266
848.258911 2140.054443 -21.704035
761.500122 2004.843262 -76.642258
585.460815 2065.422119 137.877335
750.450928 2207.782471 -162.564957
738.033813 2070.948730 92.335686
618.420532 2057.194092 -23.147394
764.321838 2173.295410 -111.094345
742.703796 2008.085693 -1.003596
843.893311 2147.406982 99.255722
569.505005 2063.730469 -24.910631
780.572449 2255.193848 -96.037415
576.765869 2036.027222 -121.928345
866.671570 2171.845703 71.910698
663.565063 2031.155762 -190.930115
685.741028 1993.909058 -211.467224
788.692139 2037.275391 -32.160717
418.089447 2082.145752 58.335209
705.099426 2017.256836 -27.788507
703.513916 2028.016479 45.960854
712.012634 2269.199707 -238.732346
718.242065 2169.232910 -182.566162
786.020691 2119.479248 -66.003304
591.641602 2053.866455 85.454742
547.072449 2059.395020 33.619068
524.899902 2085.792969 237.890137
694.616943 2005.472534 -96.682228
811.093323 2055.641602 -15.136787
736.411377 2181.319336 -150.476059
501.378845 2064.099121 30.826483
825.285156 2210.213379 -50.058464
662.164368 2018.205688 -64.692627
593.631775 2049.442139 159.084122
629.729065 2024.029297 -126.462807
785.495483 2141.177490 33.430428
694.108154 2037.894531 -171.729477
395.953644 2063.694580 -33.391064
583.896301 2068.724121 181.266724
739.706055 2234.764648 -188.884720
377.224335 2088.958984 121.695847
538.486389 2065.508789 89.114426
543.078796 2056.077393 182.184341
783.657166 2007.667603 -5.787179
791.474976 2076.443115 167.604568
803.618896 2076.430176 180.465302
509.035522 2056.068848 -32.902355
379.750824 2077.673096 120.527122
795.588928 2031.550049 -42.217613
678.964478 2006.939453 -161.440689
651.928162 2071.264893 156.379837
729.914917 2008.234497 -23.663286
814.618042 2136.458740 11.141682
799.039917 2161.523193 71.316856
758.196533 2012.569946 30.783607
535.044006 2057.014404 -59.759518
530.828125 2073.666748 43.644440
742.098206 2152.990967 -137.996964
736.063171 2016.288208 14.103914
772.179138 2072.250488 149.647659
447.509155 2089.291260 123.905495
750.502136 2206.893799 -147.166672
683.391296 2049.980225 102.559845
616.939453 2066.320557 76.398048
399.662048 2092.098877 115.849518
637.039612 2045.497314 117.767555
779.475281 2067.682129 -63.886715
865.291443 2134.408203 116.687576
661.332336 2033.697754 -202.820084
623.485840 2050.407227 2.935169
729.457703 2011.163452 27.019415
658.987671 2014.380737 -45.335369
722.300354 2123.137451 -166.376160
653.559570 2017.999512 -64.052261
752.202515 2257.800049 -157.784332
532.079590 2062.960693 186.718506
659.136536 2036.351318 26.925007
562.593018 2099.051270 226.449951
716.648987 2263.819092 -252.808228
703.669250 2093.968018 123.276588
523.398926 2061.172607 41.681499
854.695190 2175.596924 77.721657
585.735046 2054.029541 100.454140
631.804077 2050.528320 170.286560
632.537781 1991.742188 -168.894150
516.131653 2079.682129 197.574600
732.184875 1999.998535 -73.057533
672.912720 2051.677979 -195.160416
632.069946 2024.376831 -101.219147
735.177063 2149.771973 -147.648758
698.348938 2029.309692 58.385532
549.932129 2063.125244 -63.535736
466.061035 2067.532715 214.160126
651.926086 2016.339844 -51.812603
796.692444 2202.346924 -75.331436
607.615173 2053.364990 23.486898
764.835571 2042.423462 -76.237793
615.478638 2059.434326 86.367981
516.985046 2077.414307 112.930733
686.176758 2053.790283 120.417030
706.257996 2064.742676 -170.064758
480.965179 2061.331787 -18.713068
492.775391 2050.430908 -52.184757
348.507111 2079.828369 2.258195
776.364380 2215.115723 -110.731316
384.027740 2070.078125 75.427673
776.307312 2035.234497 38.580090
498.957611 2071.927490 91.698738
673.352539 2009.256226 -179.230606
639.659790 2018.285645 -130.223480
759.663513 2279.491455 -152.166931
827.146912 2075.998779 184.183029
399.686310 2082.764648 95.575760
772.512573 2187.419434 -103.245537
599.341003 2053.843750 -84.392311
801.100159 2018.543945 5.848738
762.478210 2085.333252 122.555244
791.112305 2014.173584 22.600704
762.794617 2167.665283 -105.057083
458.736481 2088.615479 127.425514
519.831970 2057.122314 192.470474
596.703125 2052.543945 33.208973
417.367523 2075.775146 42.393044
819.401489 2070.805664 8.963263
501.743988 2075.783691 248.336502
775.213196 2103.783447 104.316391
514.032166 2067.171387 35.495327
810.368286 2145.468262 -37.754894
452.925995 2065.081543 4.361066
459.339111 2053.071045 -7.103132
788.919739 2020.656128 31.046383
421.881714 2074.144775 -21.305752
614.002075 2026.737427 -71.853233
777.792725 2257.951416 -111.653809
715.534241 2114.175537 -167.803665
605.978455 2060.646484 148.112701
771.783569 2081.823486 -85.673454
791.756470 2030.380493 -30.277052
398.123047 2056.372070 -34.552811
636.128357 2041.896729 85.047791
495.036194 2063.338135 -18.361902
575.816345 2056.955078 -67.615158
564.898682 2051.798584 -74.841194
743.498230 2268.539795 -194.607285
719.854919 2079.227783 -162.305618
780.284973 2265.635986 -121.403137
747.174133 2087.559326 65.608284
851.218262 2141.532471 96.383247
518.895569 2145.496338 270.096771
491.944275 2084.990967 221.363953
456.018463 2291.278809 207.432220
583.806702 2039.204712 -85.177589
683.210632 2162.845215 -229.806198
648.615723 2011.711060 -136.555740
485.085022 2076.173584 207.682297
746.539246 2095.398193 69.069206
718.817078 2020.036621 17.098005
727.787354 2065.445557 90.558365
722.082581 2235.375732 -250.102234
609.390015 2050.845947 18.669741
827.750061 2205.597656 12.423256
636.417969 2019.625366 -56.219791
697.908081 2028.363770 50.794353
851.302734 2204.141846 -29.163868
700.442627 2007.443726 -31.191036
425.238800 2082.420898 101.236137
768.486267 2056.639648 -75.466782
706.744141 2012.993774 7.766454
758.080139 2129.251221 61.066326
743.425903 2067.722656 95.688828
552.234497 2045.967529 -119.721352
674.970337 2042.798584 95.454041
449.151794 2079.000977 167.684921
552.972961 2117.187988 227.562744
711.928162 2143.341309 -183.627304
609.069458 2039.236206 -84.278595
814.946045 2028.793091 -11.010183
640.624390 2052.615967 145.233246
704.230103 2010.909790 -148.093796
684.667603 2040.273926 83.251938
631.593567 2015.719727 -181.018723
679.279053 2017.625854 -49.246109
813.708801 2072.460693 191.222549
514.063110 2078.072510 99.974838
706.465881 2026.983032 60.326931
770.731628 2070.064209 183.310471
839.087219 2254.661621 -9.102825
696.823303 2002.529053 -196.988312
503.117798 2080.226318 220.702927
682.249695 2066.207520 -200.728912
795.238281 2102.852783 -43.925056
785.461121 2112.827881 42.844685
574.347290 2052.535889 36.458439
493.405243 2030.808838 -87.778389
715.249695 1999.762085 -56.877045
435.688354 2119.699951 233.173798
431.882202 2081.038086 225.348160
371.741730 2059.408203 -18.712576
492.053253 2068.075684 -10.299500
663.041809 1990.632080 -198.496109
416.207520 2085.382324 146.337555
676.211182 2011.936157 -173.384216
518.052429 2095.450195 270.000092
684.810974 2059.130371 114.080742
577.070557 2059.377197 110.257492
465.602997 2111.342529 250.734406
581.213562 2063.097412 67.719719
383.480286 2078.796387 28.796190
784.896667 2010.921997 -3.723362
586.079407 2045.174927 -42.222488
672.247009 2041.299561 55.962906
653.068848 2017.377563 -43.671017
543.600220 2042.245483 -68.857193
704.120422 2025.983765 39.993965
588.730591 2049.440918 -11.559104
549.008850 2077.441406 207.392410
623.933655 2039.319946 148.454422
561.414917 2036.621704 -86.764595
541.865112 2044.452637 -101.535393
751.255554 2065.483643 80.841820
383.785156 2087.552002 132.739670
823.071167 2256.943359 -52.871387
589.178040 2051.638916 175.237686
559.036438 2055.519043 -45.434551
691.494141 2074.507324 108.151413
461.672302 2051.981201 -34.561932
835.388916 2158.359375 107.710648
804.986572 2062.734375 -30.338383
525.648926 2062.943848 178.418915
738.454102 2182.359131 -158.373581
713.616455 2007.091553 -101.302391
477.315460 2070.120117 224.646393
733.638306 2052.095215 -100.894424
759.713013 2134.914551 -123.294838
591.374451 2045.300293 -159.736359
677.686340 2006.642090 -57.857643
696.158508 2057.830322 -188.373688
577.056946 2053.298584 149.238190
633.161011 2044.799805 91.439346
825.074280 2065.990234 181.389984
825.082275 2180.135498 19.591650
744.309082 2279.523438 -171.250412
760.260742 2089.038574 -88.735695
635.982422 2134.176758 185.774551
729.153809 2011.260254 -81.981743
480.612457 2052.763916 -38.436409
796.222229 2085.118896 104.026497
542.961426 2046.518555 -76.446365
753.671204 2085.514404 -106.160217
737.918640 2018.104248 44.484028
817.512024 2163.774414 6.242111
574.907043 2050.740479 -99.490990
731.731506 2080.093262 -127.782829
680.387695 2033.500000 79.752739
650.413513 2034.188599 -198.541595
717.896362 2002.095947 -107.586548
670.502319 2057.588867 29.755514
741.997986 2244.265625 -172.685242
738.372070 2023.401611 -57.129208
483.098175 2078.411621 105.493103
695.329895 2058.309082 -176.554947
781.956177 2115.874512 -72.102921
698.784973 2049.728516 -183.009644
733.879822 2010.545166 31.495855
768.374756 2000.084717 -22.803596
595.763184 2062.891602 -63.405338
725.271729 2175.114990 -189.575439
734.401855 2017.853760 33.215919
686.880554 2019.873413 2.584493
683.272522 2031.665527 77.161079
376.235992 2083.036377 87.628265
759.340393 2105.350342 -103.995979
782.064270 2197.768066 -74.753174
564.396851 2064.541260 -6.398829
734.097534 2000.218872 -77.628593
757.826294 2003.367188 -40.314980
729.088806 2210.755615 -179.553894
844.091248 2121.209961 -12.214210
850.654175 2165.787842 76.703735
725.424438 1996.804810 -71.770699
715.281006 2086.666260 125.291428
571.750000 2048.226074 -148.907120
549.908386 2063.137695 -22.707846
713.657898 2021.239014 -81.575081
708.681458 2176.003418 -245.962524
520.159912 2061.508789 88.281487
379.269989 2073.930420 -23.218943
429.954285 2077.772949 94.353004
527.483643 2059.792969 173.961807
541.943726 2027.464111 -126.345596
839.972168 2189.025146 37.054451
685.647034 2017.883911 -159.437088
773.361450 2224.275635 -133.139359
821.697205 2063.005615 2.185271
506.966095 2078.785400 79.531715
797.027405 2270.862549 -97.651787
860.983948 2137.016113 -25.208950
503.421844 2060.289795 -50.118298
718.948303 2006.568970 -116.069092
813.701355 2065.689697 1.431413
573.495483 2065.532471 118.486427
510.304810 2063.848877 61.066498
851.804199 2258.843994 -6.516223
492.890778 2063.075195 -89.262825
374.153778 2073.868408 20.015152
701.604614 2140.417480 -198.266006
801.846497 2010.870728 -0.824061
432.702545 2084.255371 29.013237
602.607971 2064.260010 -3.018408
795.164246 2146.465332 63.618690
783.887878 2062.605957 -44.188366
783.874512 2097.348877 -41.513092
796.723450 2270.786377 -89.121155
473.336212 2055.449951 -71.058800
853.008972 2150.635254 -34.805664
538.374939 2062.015137 -19.912470
589.361023 2045.450439 -81.797256
770.714966 2096.806152 -77.100517
748.019958 2024.393433 -77.326576
835.820923 2158.166260 120.035652
419.535767 2076.427490 203.837372
751.205933 2105.602295 67.101067
734.085754 2272.443848 -185.190399
657.776917 2024.410278 0.719027
823.110474 2163.471924 15.294028
449.855957 2079.701660 115.140289
415.594086 2078.998291 100.420441
764.601685 2084.370117 151.205139
541.028748 2130.417236 246.736694
450.654480 2061.991699 -72.504875
652.278870 2076.197754 182.803787
534.314941 2060.990723 181.996246
806.083374 2065.521484 -23.088219
823.660583 2103.079590 4.751618
727.288452 2008.620361 -5.964972
726.649658 2307.386719 -211.978485
537.064697 2053.697998 -25.885639
622.418518 2032.180786 -186.715973
693.967529 2021.037842 -20.855122
710.929260 2015.319702 30.257643
614.278076 2092.688232 -61.498493
829.347473 2186.453857 -40.862461
805.154358 2075.429688 149.176529
643.476257 2053.221680 150.783508
400.812561 2073.153320 -34.937023
702.828613 2001.346313 -153.634430
493.241364 2053.624756 -92.612801
416.750732 2080.538818 150.710205
814.606995 2196.987793 -47.093872
535.039368 2057.974609 17.285748
808.640076 2099.562256 154.479843
617.951172 2023.184448 -113.035995
718.995972 1997.921265 -100.843376
455.029816 2073.043457 194.909042
710.106201 2052.918213 -165.949783
577.246399 2042.398193 -75.066742
747.954651 2273.661377 -168.885361
775.829407 2003.329468 0.519457
722.717041 2046.334351 -135.553818
786.273621 2106.580566 113.652016
554.945984 2049.426025 170.956436
650.529053 2052.827393 64.748672
466.372162 2060.433350 -19.847593
557.223022 2090.090820 213.874161
795.698853 2049.244873 26.304649
720.352783 2090.359863 -151.440140
819.490479 2079.463135 171.305161
401.603882 2092.664795 26.022453
649.964661 2040.735840 108.215866
855.932556 2151.214600 71.298904
637.307922 2030.188477 -162.175644
738.976135 2091.645508 -131.474197
713.670105 2029.291138 63.033363
456.498718 2074.443604 229.319580
641.760376 2025.310547 -199.286850
677.425781 2129.010010 -220.071136
796.645020 2023.362915 3.233241
724.534973 2099.363037 115.187225
432.717499 2074.915039 55.865402
463.006897 2064.650879 -7.706774
579.126465 2016.781494 -149.182220
688.975586 2020.602783 -139.500458
581.847107 2065.894531 184.152145
701.929504 2229.013916 -230.953003
464.078339 2080.455811 156.901535
521.969788 2124.854492 257.678162
746.720032 2030.963623 -92.085030
824.503845 2172.977051 21.685976
708.492676 2052.448975 -157.291550
698.040344 2089.243408 -183.712479
613.176880 2078.641357 184.863739
742.166321 2019.963135 19.322157
536.078613 2062.695801 -8.125490
696.355652 2023.410034 26.523912
755.682129 2003.390503 -8.750834
744.783997 2021.882324 -29.236805
784.567261 2043.098877 -32.822472
635.525818 2041.943115 -16.340712
413.792908 2085.374268 180.142395
846.859131 2157.456299 107.175774
751.177185 2142.709229 -142.990189
555.787964 2067.772705 217.685822
623.401917 2059.726074 63.803196
648.450745 2018.988892 -45.898472
455.435242 2067.423096 217.334564
675.772156 2084.541992 -211.386734
665.706604 2011.988037 -55.590824
711.965515 2147.065186 -185.469223
728.636963 2078.222412 108.422928
536.969849 2078.154785 93.667580
822.438965 2094.039307 178.608124
734.455688 2088.081787 -137.500824
777.203674 2245.144043 -116.992363
460.335815 2068.320801 -34.369621
750.235291 2031.408691 47.823204
639.681152 2044.481812 167.096039
770.331909 2103.544678 74.733345
790.415039 2146.069336 -62.023842
395.140533 2092.371338 134.942841
740.708740 2296.157959 -206.782013
789.154724 2133.839355 -63.854885
838.549683 2149.649170 84.138084
718.067017 2098.300781 108.109108
698.070313 2239.023926 -231.302261
451.540985 2073.833252 14.256626
612.518372 2035.002319 -110.084068
799.768921 2030.689575 -35.319656
533.964294 2047.400269 -72.457100
611.838379 2053.716553 129.867249
813.533142 2268.267090 26.505838
764.521912 2089.012207 129.021896
478.056366 2088.571533 122.663803
558.937317 2122.312012 270.836426
752.936829 2063.940918 69.424797
685.798462 2038.845337 99.923103
578.764282 2052.280029 43.924553
724.706909 2046.017944 -129.897614
586.142212 2030.614258 -109.850098
770.791138 2172.722168 -101.100266
736.912842 2202.282227 -163.919540
553.775269 2083.047119 194.446136
724.975098 2102.514404 -169.177139
693.000977 2092.836182 -236.613983
747.400574 2023.934204 -66.296425
377.711639 2064.028320 19.514961
712.294800 2056.687500 -163.210556
676.587463 2011.378296 -33.443516
626.489014 2020.583618 -106.426941
815.179749 2115.046875 14.649686
759.632629 2099.282715 87.551498
743.253235 2064.936035 115.012772
845.999756 2141.136230 -15.074594
584.078369 2087.273438 182.206055
635.275391 2027.369141 -179.723602
579.636353 2055.594482 -64.583054
552.671997 2058.501709 150.066162
511.233673 2036.564819 -106.372871
818.594482 2069.303711 -19.646221
707.043701 2143.662598 -191.862198
532.220642 2073.679688 116.586411
691.185547 2019.890015 -179.331635
381.864380 2065.817383 43.114471
791.504578 2134.516602 -61.755154
513.303589 2099.843506 236.756546
806.985046 2164.191650 -46.524559
542.255554 2049.290039 -9.673725
703.603821 2020.939087 -15.160726
718.242798 2008.250000 -150.589737
688.415344 2080.953125 120.226883
625.693970 2020.112671 -141.224960
574.287537 2033.893677 -96.181244
620.487183 2021.275513 -180.137314
772.313660 2062.856201 -63.926346
675.107422 2034.486450 88.166443
441.454590 2099.606445 244.521744
736.947449 2052.892334 -111.623306
477.246246 2084.688232 74.104218
802.470398 2083.264893 197.166809
620.106018 2047.864746 155.882156
600.499634 2032.499146 -162.957748
341.306824 2297.079346 29.330935
640.818909 2025.854370 -197.847870
569.230835 2023.973267 -101.931168
612.769104 2058.755371 65.238747
837.188843 2256.551514 -4.046374
720.049316 2077.162842 111.247963
492.603363 2068.142334 151.287903
554.479736 2040.270264 -86.552544
765.172302 2075.724365 54.241974
771.038513 2017.219727 -47.986851
709.764648 2189.357666 -202.484299
539.443420 2058.843018 15.216758
509.247955 2068.215576 170.631943
723.970764 2002.198853 -109.429283
759.200928 2117.572266 -83.463432
702.347534 2173.241943 93.082794
729.088074 2058.280518 -127.189468
749.253662 2264.830566 -163.616440
595.614990 2053.820068 39.082596
828.108826 2086.571533 0.123983
739.371643 2101.282227 118.364502
705.402100 2266.592285 -228.230194
509.154602 2064.653076 -15.124440
710.263367 2027.598267 67.842392
753.505615 2089.344482 90.688660
515.250488 2058.233643 33.953419
743.092651 2138.013916 -134.000275
535.231201 2065.369629 184.070694
807.331421 2138.855713 87.492554
619.992065 2047.899902 80.343948
735.975037 2275.660645 -187.453568
522.730042 2047.838867 -53.951839
568.441040 2058.703125 9.935963
510.855438 2047.929443 -80.886650
734.119812 2094.619385 -128.537918
518.734131 2080.930176 138.694092
715.481934 2065.930664 -159.527512
618.635010 2060.259766 168.703156
709.368042 2020.775757 -175.307373
507.529510 2059.921387 43.270912
785.843079 2217.378662 -97.064003
542.505066 2042.002319 -46.611904
766.164795 2098.010010 -92.438553
825.105530 2147.697998 87.177917
575.855957 2016.702759 -150.491074
479.922668 2072.934814 215.874542
711.204346 2080.695557 111.864662
658.130127 2064.017090 124.308907
729.389587 2028.778442 50.318016
738.462036 2250.651367 -162.270508
724.739014 2009.346313 -140.270157
824.678345 2077.802246 -26.675339
684.081116 2009.165405 -26.220737
763.378235 2290.340332 -172.228821
657.843079 2082.456543 -24.967489
533.745178 2121.245361 276.897430
551.271301 2063.382813 81.863129
557.742249 2055.189697 2.891958
408.775848 2085.258789 64.363968
693.953979 2163.082764 -219.504288
663.325684 2032.039185 -2.377534
555.201782 2040.626953 -84.183929
748.345398 2069.444580 75.296402
786.202454 2071.396240 112.469589
628.890137 2082.369385 176.212555
665.747925 2078.041016 149.235260
760.499207 2064.572754 51.578789
747.585754 2185.313965 -144.678391
612.403992 2053.208496 -34.036537
733.450500 2068.702637 78.046288
661.985840 2013.640381 -147.541138
585.664063 2071.163574 189.003723
689.035278 2002.716431 -137.858414
823.023254 2094.091553 164.789810
771.701660 2015.313110 22.136278
793.874634 2128.045166 -52.995407
824.278992 2148.654785 31.413151
537.356812 2089.429688 273.064178
809.211548 2167.014893 -41.345619
727.114868 2028.435059 -121.388527
391.848877 2083.973633 138.911957
787.907104 2080.526855 29.721241
588.291809 2065.782715 184.000504
585.939758 2055.034424 50.426758
819.892273 2266.062012 -78.686111
748.452881 2107.117188 -121.439949
709.349854 2264.056396 -228.636551
835.931824 2198.734375 7.069781
637.426941 2153.989746 171.652222
788.785583 2236.844727 -90.694229
815.325439 2106.314941 162.998703
419.906311 2090.944824 192.511673
681.600159 2051.147217 -201.327042
750.163330 2043.314453 -88.105934
823.024353 2073.070313 -6.540594
452.010132 2077.969727 196.490982
744.078796 2192.410156 -167.256638
375.877747 2076.246826 -14.226492
566.343079 2065.706787 94.773651
796.173706 2078.835449 31.602520
428.826508 2071.144531 -42.913754
606.158752 2079.572266 -52.218147
793.380554 2230.597900 -86.214035
518.675110 2100.385254 236.962006
455.963715 2071.589600 169.297424
751.716675 2013.406250 -105.829247
770.785339 2151.852783 -98.776588
526.778259 2059.667725 5.099082
650.045715 2023.973022 -203.657608
693.949768 2026.203613 36.015736
778.716858 2086.990479 -61.215195
797.287903 2099.765625 23.275803
632.682556 2029.303711 -180.916245
765.079895 2161.313477 -99.717194
514.331665 2061.856934 173.168076
709.770386 2055.362305 90.938499
709.925598 2029.087891 -170.588882
578.108459 2102.164307 200.287628
811.725647 2072.427246 165.632919
531.898438 2051.760254 -65.733124
766.757874 2099.752686 142.303864
499.181885 2096.295898 263.235809
397.575073 2050.756836 -36.256477
414.110992 2092.159668 38.254089
676.349915 2125.189941 -225.449326
735.923889 2201.918945 -183.312103
645.582092 2066.315674 180.923019
532.579590 2042.607544 -65.584373
694.300415 2009.150269 -47.310181
451.756927 2089.665283 45.624805
473.917023 2075.582031 111.626732
468.336334 2199.383789 260.900940
612.024841 2054.559082 120.215187
746.080017 1998.588501 -56.647713
399.108124 2120.843506 34.710541
739.875244 2068.826904 85.204865
763.147949 2056.910400 -76.379456
812.820313 2122.927979 14.068642
528.717407 2041.921265 -78.353500
541.313660 2071.555908 87.099518
800.503967 2151.547363 -50.662476
378.928741 2083.126953 128.779236
715.243408 2162.267090 -186.211716
334.772949 2077.063965 28.030260
559.067322 2057.083496 35.163002
530.570313 2054.099609 -20.555122
726.137878 2096.204590 133.817871
511.270477 2055.230957 -21.446918
851.294189 2168.357422 72.171745
428.787933 2080.919678 95.740547
573.455139 2052.661865 121.026009
372.894562 2088.408691 82.233421
546.894043 2044.331177 -76.737175
461.398285 2053.922852 -3.832260
799.474976 2033.648071 -18.424839
761.669861 2253.792969 -119.247696
400.433044 2064.816650 36.241436
401.727875 2122.091553 155.542206
857.881592 2179.806152 52.412102
532.065857 2037.034058 -100.524956
624.484314 2047.580811 100.863335
535.401855 2082.812500 211.655563
478.959381 2086.277100 183.299789
750.198792 2004.706055 -28.182859
521.907227 2147.227783 286.586823
579.323181 2060.827881 120.477737
819.445251 2079.446045 176.025391
651.328125 2038.198608 88.363533
659.841492 2015.143921 -154.700958
496.643494 2167.969238 269.009735
747.324097 2000.360229 -31.745190
504.044098 2070.623291 76.713753
818.167480 2075.612061 159.325684
738.411743 2125.018555 -138.707428
859.307739 2132.775391 6.642184
680.001038 2006.046753 -151.573242
649.916565 2024.736450 -41.544708
697.835327 2164.071045 -209.093750
694.206543 2007.466187 -109.415108
766.945740 2023.688721 -38.718441
687.401550 2048.762451 -195.292664
432.811890 2085.325195 141.489868
750.785767 2135.138672 -123.225945
719.358215 2025.559692 39.949371
673.540588 2021.307983 -48.627739
768.897339 2145.603271 -100.423149
790.265137 2055.705566 24.623533
371.776031 2093.181396 64.648102
718.452881 2075.288818 -160.126389
797.541687 2132.039795 -44.414856
828.080811 2145.220459 72.743591
827.016418 2167.567871 35.679115
548.674133 2068.755859 -3.902577
807.347839 2184.240234 -47.757305
461.848083 2073.819092 83.915268
726.811157 2016.355957 3.939245
737.014282 2014.534424 -40.537518
544.420959 2065.093994 -34.592999
426.589203 2078.293213 162.213165
784.416809 2069.437256 139.077866
751.172180 2017.395752 19.978535
705.400391 2006.558838 -67.454590
555.097107 2043.994507 -114.564171
562.258057 2131.131104 256.792572
791.731323 2083.853027 146.169250
669.052917 2020.311035 -5.396798
545.922485 2059.860352 -28.014664
512.714050 2063.649170 64.873497
739.882141 2091.800049 -104.211746
851.100891 2141.295166 4.900199
842.792297 2204.778809 39.703430
785.293152 2155.233398 -78.384438
484.998047 2079.497803 236.764038
608.830139 2046.750977 23.050936
680.910400 2028.062012 -0.844058
401.338165 2058.606445 23.973593
722.026123 2102.837402 -149.320313
676.503723 2103.726318 147.638947
691.965820 2009.598511 -152.249146
697.736938 2048.931885 -173.399139
664.134460 2009.483276 -108.964928
798.370972 2211.238770 -75.549225
482.714691 2098.634277 257.577484
827.528320 2197.990479 5.039315
582.843140 2062.063232 38.749477
730.419678 2071.500488 -140.184952
772.120850 2049.744141 -58.000725
809.710083 2228.425537 -61.494892
481.846497 2069.939209 -12.596932
627.712280 2045.353638 -41.420090
812.595520 2153.914795 23.847412
846.068604 2160.350098 69.940910
431.017395 2074.012695 7.439370
432.968323 2079.862793 84.007729
772.533447 2042.913818 -54.883846
731.010742 2067.762207 80.663689
637.637573 2094.398926 -65.881676
769.453064 2072.123535 101.193588
424.460754 2081.149658 88.601242
446.951813 2063.642822 -1.366558
551.237671 2046.055420 -70.697647
693.028809 2023.288940 52.131184
817.516907 2255.624512 -56.124241
389.983154 2114.259766 113.276009
867.071655 2145.704834 79.148384
732.026917 2251.418457 -187.313965
575.316711 2047.785034 146.226456
753.368103 2093.636230 128.702194
559.785034 2101.743652 251.879288
569.714111 2113.694092 210.518112
827.650513 2143.872803 -34.475224
528.488708 2085.086914 244.335068
743.322876 2198.718506 -173.186386
747.615234 2003.302368 -55.159508
804.780945 2067.971924 149.021133
792.864441 2083.494629 158.403641
813.546082 2156.790527 30.145311
492.020966 2077.366455 220.899673
814.568726 2070.459717 179.914398
322.552856 2163.224365 45.541859
724.708618 2301.046387 -188.516388
608.633972 2060.003418 80.971535
642.372131 2020.248535 -109.965569
434.593750 2091.606689 125.414398
818.942444 2147.262695 38.814667
681.983704 2034.727539 90.986366
715.102295 2237.175293 -209.240509
767.096741 2025.265991 -66.582603
363.310089 2078.481689 60.728310
556.937317 2049.506836 -128.882813
317.686066 2087.059814 24.585857
418.071014 2063.522461 -44.489029
512.185242 2064.076416 197.969391
443.852905 2078.208008 67.089111
723.460999 2264.771973 -204.009720
702.272522 2167.109863 -206.102463
610.935852 2049.448975 115.147667
848.604492 2205.670898 52.380127
570.117737 2068.012939 3.913294
685.114868 2038.504883 -182.049454
870.600708 2137.526123 109.247414
688.253723 2033.091309 -178.441803
479.815186 2066.988770 93.008606
764.085938 2064.698486 81.863983
839.147400 2152.316650 -34.994743
447.855896 2088.158203 236.534653
827.875610 2075.615723 -22.732153
583.932617 2054.307617 166.678802
625.385132 2064.496582 189.095810
832.229553 2177.763672 38.086948
485.298889 2076.173828 203.332230
808.566223 2057.301514 3.569865
664.428650 2012.889038 -39.545399
847.225281 2211.544189 -20.943403
685.257813 2024.822998 -193.454559
720.074768 2007.274292 -142.064636
593.461487 2060.954834 178.782700
524.047302 2062.839600 25.280628
643.025757 2095.946777 182.808319
759.166138 2064.527344 -93.244545
529.109924 2070.035645 128.623138
444.586426 2173.373535 231.773148
721.905884 2023.374268 51.643036
733.763123 2055.492432 59.832195
564.496887 2025.606445 -145.633530
635.502014 2043.083252 -38.946491
819.400146 2095.353027 143.533112
590.575745 2054.558594 -2.701236
491.573242 2065.375000 90.859230
687.952271 2032.669800 50.815685
732.205933 2003.778442 -44.146130
476.358307 2077.663086 242.523911
400.644592 2042.564331 -17.126163
439.966583 2084.380127 145.897797
824.236694 2052.283691 -10.514916
727.752319 2095.316895 -162.142563
681.477661 2027.881104 30.544622
465.219818 2057.798828 -47.122398
690.746277 2108.594971 130.393036
710.452087 2236.514893 -198.611023
547.104065 2055.472412 152.818619
605.703003 2026.020996 -145.503815
819.731567 2087.486084 130.499741
545.034058 2088.218994 264.523865
816.419312 2248.764648 -57.473679
830.717834 2114.514404 1.988224
796.558472 2095.713379 117.812836
582.861328 2056.019043 78.203110
703.300232 2002.655518 -143.146225
785.523315 2082.933105 -37.830017
842.530212 2142.527588 87.122719
654.855164 1993.734009 -183.686417
627.755066 2023.838989 -135.390167
742.820435 2078.045898 145.963974
813.114258 2206.625244 -63.860085
663.020813 2007.139282 -85.964127
655.346985 2081.050293 168.472977
804.035400 2088.518555 133.830185
703.094238 2003.392090 -62.452049
619.983215 2034.359131 -84.893631
835.729980 2255.531250 7.304817
633.477539 2043.487549 134.078629
624.182800 2040.331909 -45.854813
657.469604 2046.420044 124.425133
833.337769 2077.252441 -11.192070
727.123779 2211.859619 -199.676193
763.692627 2218.793945 -132.343124
721.129517 2011.209106 2.017708
537.262512 2067.676025 205.635956
633.917603 2033.910645 8.573358
452.849792 2088.493896 155.165848
828.132446 2165.036865 45.445980
701.795349 2017.838501 -9.494401
736.845154 2022.337646 28.893528
492.052582 2070.386963 23.205570
751.457520 2008.382568 2.075219
749.937012 2084.140381 -109.144066
655.767212 2017.558472 -127.238831
781.327881 2144.438721 -82.088020
701.088989 2018.326538 -183.211578
589.972961 2065.341064 49.422871
778.490662 2209.642090 -106.040466
607.781006 2064.950439 -31.375040
717.385742 2042.453491 82.000885
433.532990 2073.657227 125.568314
862.576782 2181.114990 82.302376
793.106873 2127.114014 -69.003075
461.061401 2077.949707 27.357565
738.653625 2225.807373 -171.902451
442.447571 2064.697998 -38.215500
756.487183 2014.128906 -56.623215
760.557312 2123.820801 -97.267464
692.086182 2003.461670 -112.760811
790.339844 2107.070068 114.888794
817.188965 2239.734375 -51.200012
403.523041 2073.883545 26.810106
365.654327 2072.193604 6.461245
734.779724 2075.244141 79.420158
442.148010 2081.394531 113.135414
397.483032 2073.755127 42.446198
774.573792 2193.324707 -92.946869
413.776978 2079.145508 7.479438
460.302734 2066.815186 1.361176
736.796753 2073.135010 -126.203308
551.103882 2052.965576 176.115753
770.480408 2076.293457 -91.612045
643.652039 2028.408447 -98.144524
612.049500 2044.231934 147.331802
497.352112 2076.005615 72.735420
687.394104 2003.213257 -76.917992
714.582031 2024.451660 63.806057
765.246521 2126.645508 -111.920250
789.091553 2038.121216 -35.044514
642.088257 1992.687866 -175.303619
615.941956 2063.510742 82.874794
775.095215 2118.120605 153.761414
461.957367 2057.946289 -12.580416
826.451294 2194.635742 5.557243
688.068787 2071.124268 -180.419373
830.513794 2148.628906 119.743675
626.072205 2013.112305 -179.933838
774.400635 2019.666992 11.516041
773.846313 2220.206055 -131.881607
460.327332 2147.474854 253.830215
746.524475 2090.799072 126.901222
715.886292 2282.095947 -214.429733
656.411194 2053.461670 61.049919
753.235046 2257.988281 -159.575012
664.079346 2126.082031 171.804672
549.626526 2058.630859 152.395737
726.048767 2054.038086 -112.426292
764.762939 2090.615723 97.023430
697.378418 2083.007813 -222.111435
453.808807 2071.646729 199.497055
774.559570 2119.100342 -77.301247
527.977112 2063.215088 57.643406
752.648560 2149.967529 -125.460678
766.794556 2122.728271 83.493912
654.903076 2042.870972 125.895424
529.090942 2068.023682 200.016983
441.842194 2076.790039 46.594383
866.787354 2192.044678 -37.397713
762.607788 2160.889893 54.344997
493.094086 2066.274414 58.198689
747.772278 2038.636841 54.296124
772.187073 2005.007813 -3.283051
775.932922 2014.035278 15.920979
516.005676 2076.075684 15.961217
471.290985 2069.591797 56.850395
477.259216 2056.794922 -45.290405
823.433105 2107.221680 164.075958
831.140137 2179.871094 44.740864
690.727539 2108.305176 -202.366959
617.527893 2030.402710 -176.560440
438.814880 2078.692627 23.779110
700.835754 2250.230713 -238.978775
743.148071 2014.825439 -53.392799
792.797485 2023.302490 23.827095
573.827332 2067.581055 177.840118
746.541138 2109.646729 -118.446396
625.474548 2033.379272 -46.951725
728.457886 2012.041748 -6.345082
774.540100 2121.271729 40.998772
450.221466 2080.344482 145.823761
468.498840 2083.210693 19.031651
650.873291 2017.986572 -105.313301
695.772095 2002.568359 -106.061172
685.104553 2046.984131 122.944954
728.682434 2007.995361 -11.210938
617.690308 2044.103271 137.353851
806.406921 2119.701904 -37.653561
797.802307 2042.043823 35.247303
782.707947 2139.940918 -65.542007
482.127960 2070.934570 6.843496
463.857971 2090.384033 258.016052
683.260864 2011.918091 -176.085098
709.281677 1998.321777 -107.554703
693.360474 2111.636963 128.609787
691.327515 2006.272949 -94.159523
613.355957 2035.046631 -142.963074
802.450439 2077.318115 16.269945
453.685242 2072.516602 33.585480
532.584351 2066.708496 68.477165
721.937988 2265.729248 -220.265350
702.839600 2057.559814 83.395401
574.054199 2102.778076 232.798752
842.024414 2162.760986 -8.023189
778.708679 2073.666260 191.856186
793.750122 2240.099365 -84.257782
852.503418 2214.857178 53.908199
611.487122 2057.575439 7.684883
581.896301 2068.434570 -54.410053
699.588196 2092.916016 -170.031570
794.129883 2095.573975 -34.679249
655.731689 2038.358643 72.537605
501.988098 2052.141113 -93.857239
693.101990 2104.534668 -198.109833
545.532471 2061.554199 -61.587933
581.928101 2149.519531 210.415024
807.595215 2029.457764 -6.030177
751.460449 2220.515625 -145.719193
715.450073 2073.878906 -134.856613
452.685181 2080.890381 130.446930
764.872009 2016.747070 7.845746
456.637054 2056.189697 -22.345257
566.422668 2062.779541 50.064316
629.232971 2038.958252 17.364384
630.664978 2019.663452 -91.749763
551.125061 2065.016113 123.644112
513.774841 2057.647217 186.637848
352.262573 2073.113281 43.103661
764.249817 2197.417480 -119.554886
685.878235 2013.213867 -31.630135
671.498779 2015.440552 18.204742
598.044373 2052.167236 42.237614
368.262177 2072.097168 42.246799
799.691589 2174.092773 -55.955784
734.058044 2020.560913 51.390305
547.170593 2077.599854 219.425629
677.027405 2092.804932 144.789520
532.707458 2064.748535 -34.083664
694.013611 2022.902100 11.931447
838.447083 2133.682617 -9.915998
578.359314 2054.569580 46.754276
448.981537 2069.280762 39.956402
719.507446 2114.126221 -161.962234
475.786774 2057.606445 -26.144396
805.973694 2116.652832 -52.184841
747.571106 2055.531982 -99.877388
741.058472 2087.924805 -115.784462
532.682373 2126.223145 257.995300
780.507935 2083.958252 41.958233
755.609070 2004.102539 -52.611481
566.648499 2080.132813 181.463242
746.648254 2173.881592 -121.631035
681.470581 2057.129883 122.925468
783.708984 2074.937256 138.231293
617.556335 2029.680542 -113.724007
712.216675 2013.787842 -43.737736
712.649353 2135.247314 -185.507675
442.964783 2077.232422 231.435425
736.188232 2005.177734 -24.837074
710.474060 2259.270996 -223.190903
661.975891 2155.969482 176.199158
585.541504 2056.162842 160.533066
637.731262 2068.683838 -47.314556
484.540497 2050.100586 -17.251051
725.429504 2021.789063 -124.345535
595.294312 2009.925659 -154.467926
485.496643 2065.064941 195.374359
519.143066 2069.689453 0.936455
435.351013 2060.797363 -32.794064
865.102234 2238.396240 -30.217464
516.028320 2066.307373 133.509064
370.141571 2079.856934 63.026737
339.710266 2075.951416 26.493359
586.309814 2053.095947 132.094223
654.642578 2025.827393 -188.157578
763.700684 2029.066772 51.145351
686.287292 2159.897705 -222.446609
705.917480 2298.676758 -222.600143
775.351624 2025.207275 9.747716
756.758972 2130.154785 56.292343
421.516693 2099.048584 157.028564
833.158142 2190.420898 20.819269
743.246948 2148.669189 -153.036240
534.636230 2047.981689 -58.889145
704.177734 2064.084961 90.043594
812.299011 2051.751221 -7.932154
792.483643 2091.852051 36.847202
708.080505 2066.510254 -169.247070
681.833069 2055.733887 -205.968033
678.189148 2067.855469 153.789993
848.645874 2230.632813 -18.940575
596.242493 2023.328857 -164.454025
577.466003 2068.483887 -62.548080
688.852417 2008.564697 -150.115295
548.294312 2105.881836 250.984055
841.858521 2118.507813 -21.421301
437.845886 2059.209717 -2.363613
742.863770 2058.956299 58.619755
533.383362 2066.149170 -23.726400
712.999573 2040.690186 82.288391
853.745178 2170.998535 -9.366643
584.294495 2051.086670 37.188244
735.535461 2022.794312 -78.362381
624.725464 2028.123657 -149.460831
795.372375 2192.595215 -59.679939
681.810120 2062.285400 143.624664
784.671631 2246.889160 -99.277176
692.717102 2009.129517 -91.316620
328.873779 2082.468506 53.941738
753.180786 2005.676270 0.981541
840.868530 2151.478760 100.748894
772.086731 2160.194824 -113.440239
744.207092 2202.989258 -158.940536
775.456970 2076.548584 34.637829
746.266846 2027.014404 35.300209
618.043579 2046.470825 44.626339
626.967712 2046.879639 -24.265196
778.170532 2084.997803 123.379128
778.553040 2136.265869 -83.744797
763.917114 2021.495483 50.448658
761.292236 2064.207031 97.300835
709.096741 2279.935059 -246.667450
569.747070 2031.001343 -136.658020
641.690186 2017.846802 -124.561310
508.377899 2073.289551 59.710941
778.911621 2266.637695 -113.192123
775.894409 2085.431396 -63.253117
577.212402 2050.813232 -43.579250
431.883728 2081.639648 145.710373
785.424255 2069.798828 187.899307
763.642822 2009.708008 19.406424
489.145325 2065.580078 46.161919
720.702148 2011.744507 39.695591
548.623108 2049.531738 -121.336113
564.343323 2036.046387 -98.225616
725.220337 2023.982300 -109.842964
430.751495 2082.119873 136.054108
801.470886 2079.675293 119.958450
732.334900 2045.654785 -145.255005
735.809998 2150.758545 67.804916
510.184174 2064.203857 50.719933
685.455811 2013.063232 -41.116093
524.310425 2098.136719 232.876724
774.667664 2119.437988 73.575455
526.432983 2065.210205 153.686050
572.196777 2066.745850 8.369595
831.717468 2078.368896 -11.055551
752.944092 2080.438477 147.896637
802.581055 2198.603271 -61.178345
423.080688 2067.080811 50.570431
791.026184 2236.342529 -87.124138
798.141968 2076.778564 157.973602
753.599670 2032.164551 46.245605
698.764893 2029.382935 68.476891
575.169128 2117.293457 209.316208
642.231018 2016.214478 -85.069565
448.618866 2072.940186 229.562088
841.638611 2166.051025 66.756149
637.317200 2059.163330 175.091354
600.265625 2050.849609 73.445198
600.421387 2055.491699 40.184502
753.504578 2085.181396 124.891068
483.530731 2069.956055 14.193418
842.559143 2177.978027 45.092915
533.573547 2089.494873 248.462494
680.575378 2010.540649 -61.910332
788.455872 2020.416504 19.661043
720.521729 2020.836792 -7.490336
566.269836 2088.548584 191.986572
463.739807 2051.184082 -29.422249
804.687805 2117.811279 149.641068
709.053772 2226.587158 -210.393967
794.060303 2108.763916 -60.088745
790.276611 2032.939087 30.431746
776.162781 2086.505371 121.208778
681.877197 2035.698608 21.733274
477.662415 2065.402588 -15.699960
682.137573 2093.791260 -225.375656
558.412659 2056.157715 9.507430
484.127075 2068.763184 165.963242
433.684814 2044.946899 -38.365799
447.943481 2077.861084 191.506912
741.387817 2173.961426 -140.658676
644.026245 2015.583984 -116.033226
719.242493 2142.101807 -171.954666
864.862976 2165.928711 94.322556
731.181213 2128.104980 -147.374680
518.074341 2062.772949 185.768616
477.430511 2076.625244 139.408173
445.214783 2067.326904 3.667698
756.464233 2085.127441 138.429855
842.251770 2124.144287 -25.628223
599.751038 2023.408813 -121.341354
601.215454 2041.605591 -174.423538
648.772278 2016.974365 -132.334106
703.137390 2191.474365 -225.692276
794.301758 2060.701660 -25.405857
835.324341 2173.044678 49.369526
615.552612 2023.765015 -97.345612
724.890564 2131.091553 -164.385910
500.407349 2063.105957 -19.957951
738.237427 2000.879883 -71.057037
575.460876 2062.566650 47.372959
667.339844 2011.341919 -214.426315
784.453735 2232.091553 -119.855530
711.308105 2018.868408 36.686699
553.378357 2065.482666 124.315613
854.781433 2207.196289 -38.474567
397.556793 2055.571289 -35.914021
691.040161 2039.513794 92.466698
669.399902 2038.235352 63.184326
743.448853 2084.597656 117.056755
824.650391 2157.016602 100.908882
619.350342 2045.830933 39.271004
780.858826 2171.440674 -91.079262
450.475891 2076.349121 119.976120
799.803894 2083.124756 158.442322
378.495544 2025.894165 -1.609662
668.441467 2055.372070 147.046661
792.032898 2272.067627 -96.370941
368.649170 2095.396973 89.574287
818.845825 2239.695313 -70.128761
830.735596 2133.178955 6.113573
499.916687 2060.694336 -48.387394
416.157166 2089.524414 37.248066
491.977203 2066.984619 128.532257
665.563721 2061.189941 143.911240
529.718750 2089.143311 260.367493
862.452087 2244.918213 -34.151989
661.575256 2047.234253 146.836716
540.629150 2061.483887 131.756607
607.113708 2057.703125 171.930695
643.345032 2122.761475 185.453506
736.131226 2274.510010 -202.599274
356.068756 2078.054932 99.158478
760.794922 2082.085449 83.826401
692.766357 2019.413696 -190.384995
535.101013 2054.927490 183.299362
643.018799 2014.009888 -121.424194
790.967468 2150.980469 -70.109863
599.563782 2051.130371 -85.837425
544.139099 2070.336670 235.913742
421.211456 2060.704102 4.288962
613.053650 2048.958008 148.039749
741.739502 2004.893799 -75.352859
843.933289 2102.368164 -18.354670
400.537170 2073.225342 39.676796
532.741272 2083.940186 214.510757
706.038757 2259.664307 -225.336411
663.746094 2027.580444 -175.645416
366.596100 2084.368652 56.626347
454.664856 2046.577759 -69.083656
762.518066 2114.241455 -101.863884
552.694153 2131.580566 248.668701
683.341309 2008.248779 -149.002884
