ply
format ascii 1.0
element vertex 1404
property float x
property float y
property float z
end_header
201.330185 1884.914917 934.452576
580.943237 1909.992188 933.340576
530.097961 1963.959473 642.795105
533.655518 1922.013428 964.526123
628.683594 2107.374023 824.129761
291.480042 1881.494873 971.052795
298.053558 1931.021606 801.616699
453.084473 1854.568359 981.839172
547.778320 1970.649170 682.770081
357.739075 1855.526733 1025.034302
466.448792 1876.636475 939.476624
581.099121 1934.755615 918.443481
675.792419 2095.937744 922.647888
244.403305 1935.011597 896.036377
617.061218 1943.004150 894.093079
560.111511 2059.086670 709.664978
472.401276 1911.152466 745.529297
603.147949 1906.967285 988.584290
629.870483 1986.938232 945.751953
411.330170 1916.163208 864.760315
374.167389 1951.786865 715.421143
259.880493 1859.552612 1034.413452
624.061523 1883.705566 838.293152
530.808533 1881.311523 891.185669
516.192505 1954.227417 639.980957
517.596252 1878.476929 825.599121
559.158813 2125.933838 727.951782
568.851379 1990.739868 704.551941
589.481079 1929.187500 752.059753
441.198883 1865.630371 974.567261
572.719543 1886.194702 971.257507
607.075928 1881.556274 827.934082
370.155273 1903.124023 909.612976
238.409546 1890.582397 919.022583
595.944580 1949.850952 1023.269043
524.562500 1933.657471 714.695496
608.814087 1976.801270 792.245911
605.134338 1974.713379 785.054260
669.665344 1939.590820 855.337524
383.495667 1933.995117 809.360107
568.698608 2143.145752 734.599976
310.049683 1876.177856 990.543762
668.877075 2134.832275 908.473511
622.583801 2120.377197 830.393433
441.877075 1895.700684 890.205994
563.744934 2124.555420 720.155090
449.231812 1915.290527 837.649902
285.682831 1898.037842 948.572205
333.238586 1908.408447 873.941589
473.627350 1949.166260 1042.622803
418.332733 1953.324341 760.430481
610.645569 1904.239990 981.454956
505.538635 1866.902710 974.309448
510.733521 1872.876221 934.417236
457.662262 1878.576538 999.689514
313.144928 1933.260864 790.005005
675.909241 2038.544067 968.305359
476.498444 1857.483276 955.814148
373.723480 1943.065918 773.805786
599.223389 1892.570435 791.573853
301.275421 1940.079346 901.720032
534.053528 1881.096069 879.205261
391.948730 1878.693970 1039.259521
370.123413 1862.611450 963.089172
634.452820 2144.798096 861.789673
679.438538 2041.111084 890.175964
526.695618 1887.453003 843.644104
596.682251 1973.427490 757.590332
370.022217 1934.480591 749.223145
523.609375 1902.054932 777.006714
426.503448 1866.841553 976.874695
591.306641 2149.958008 778.682556
195.226089 2131.673096 991.125366
557.310791 1920.722290 734.312988
335.704590 1943.722778 756.479797
413.879303 1855.107666 986.608459
617.555298 1924.743042 812.100098
403.034576 1850.778564 1002.922485
550.304626 1919.568726 718.064392
319.541168 1933.458008 770.506409
259.297424 1872.605591 1059.975342
311.723755 1894.406616 915.220642
596.825256 1989.829468 946.565186
639.047119 1900.722168 846.818787
488.196930 1912.491699 811.782410
365.747925 1913.070557 724.979614
627.931091 2089.481201 835.580566
651.174683 1909.748047 854.267395
567.532898 2197.654297 727.120117
363.390656 1850.323853 1086.006836
383.860809 1903.104492 893.377197
584.083130 1898.053589 955.866699
538.940369 1945.082275 676.716248
297.063293 1876.027222 1077.377686
273.633118 1974.653564 1121.741943
569.526062 1980.612915 685.913513
551.579346 2115.030762 678.682922
582.348083 2050.147949 751.091187
650.009827 1870.059692 1031.470825
528.829956 2010.618408 654.195923
644.655884 2081.615967 870.661133
330.780670 1871.944702 987.656982
549.708191 1922.697998 731.286011
402.092682 1926.798340 697.156677
671.880127 2026.790894 862.805847
323.621948 1866.143066 1025.360596
608.986145 2047.414063 819.486511
347.842285 1918.089722 858.290894
676.934631 2017.173096 882.269775
619.720825 1896.321777 804.089233
612.116699 2096.640381 812.328552
391.276367 1881.964233 932.273560
575.107117 2071.350342 740.877930
625.322693 2042.893555 838.578064
661.171692 1966.040771 1003.335510
661.730347 2115.238525 925.662537
552.463379 2169.385742 717.455994
233.272186 1905.952881 786.947632
310.059479 1851.672485 1045.924927
625.017151 1894.717773 873.945557
540.981812 1926.827515 716.114868
680.938049 2028.987183 891.819214
563.883850 1893.420898 809.878845
174.122879 2023.496094 935.710815
596.821899 1950.323486 765.300354
445.896759 1947.500854 695.646301
396.089874 1932.230469 753.633545
354.460663 1858.498169 986.390015
520.946777 1902.703613 797.727234
377.036163 1934.603027 726.839050
574.662598 1977.649902 727.309265
393.931030 1945.549561 757.792786
436.643311 1882.596680 1031.124390
495.100739 1864.022095 962.757385
294.507385 1935.483032 787.700500
330.951874 1891.874390 922.997986
381.854065 1940.164673 765.765198
382.923706 1933.201904 818.576233
422.659180 1861.202759 971.551453
610.390259 1921.014282 982.060913
581.328857 2038.683105 742.778625
554.328552 1982.478516 673.291687
288.151825 1920.163086 851.572693
457.290436 1913.631104 777.833557
519.418884 1916.377197 748.693481
364.842407 1851.116089 992.814209
396.539001 1947.912109 736.790771
427.596680 1855.784790 989.800171
537.205383 2079.277344 668.936279
639.315918 2139.770508 847.791626
579.780701 2193.133789 768.793701
340.234558 1936.617432 785.007507
677.306885 2033.945801 975.977844
593.914124 2004.955933 931.949524
194.894272 1895.371094 941.749146
599.378723 1915.618042 969.095520
444.184082 1864.636108 990.892578
479.748199 1896.340942 903.588013
317.652740 1949.810303 748.950012
637.948669 1894.064209 877.398621
480.153992 1868.254761 951.699524
250.538284 1924.982056 819.806213
383.143524 1910.471069 884.410278
353.790375 1862.146973 1022.786011
586.506897 1899.525635 947.141541
600.946716 1980.326660 761.754639
441.513672 1890.175537 911.887878
508.466492 1915.977417 722.837585
499.701080 1936.392090 870.128967
467.247620 1925.948608 805.527649
366.611511 1866.717285 1051.789185
432.999634 1860.594849 1007.397339
528.483276 1886.791138 860.302551
652.153320 1965.546509 1017.144653
636.551575 2061.857666 856.501526
333.961243 1911.424072 878.453857
444.961914 1863.719116 962.041504
513.302063 1892.929321 810.398682
322.675262 1889.444336 971.357849
579.445801 1900.602173 945.189636
582.696167 1907.158691 811.460449
405.201935 1910.574951 856.903931
274.207275 1857.773071 1036.551758
431.146515 1865.376099 984.833557
560.608521 1880.891724 901.857910
495.260925 1875.232910 957.323914
628.074158 1897.135620 844.968140
574.074463 2123.936523 725.500000
614.341736 2113.107422 820.839417
435.480682 1943.146362 767.711609
670.031250 2032.297607 866.159729
237.792221 1925.201172 901.253357
426.698273 1892.654541 917.580872
589.443726 1894.015991 977.279114
221.477783 1920.361816 808.968384
272.601898 2061.814697 1132.454834
573.336426 1907.729736 981.437683
320.102722 1915.642700 868.517700
449.862854 1923.705933 817.110352
291.147308 1863.231689 985.938660
560.585876 2031.730591 697.360535
517.418152 1980.918457 652.293335
656.868286 1931.244507 863.511108
238.844864 1916.861084 826.661926
509.801147 1871.539673 926.494385
331.107574 1863.919800 1005.171936
464.249939 1864.840942 1011.443298
291.581604 1916.020752 811.290100
651.165710 2033.173950 920.711914
619.195618 1898.857666 989.003601
450.434357 1911.856201 849.574585
636.691223 2150.954834 867.126404
558.566833 2040.496460 698.356506
578.528564 1983.742676 721.607727
584.171204 2019.991211 731.551941
547.486633 2161.861328 692.974243
343.783722 1857.353760 1051.802856
288.410431 1854.556030 1007.912537
545.651428 2005.948730 627.988037
289.110046 1848.414795 1029.640503
536.035583 1901.058472 776.286011
316.293671 1895.018433 948.901428
515.033081 1886.054688 979.342102
308.377502 1849.103760 1032.487549
391.928406 1903.243408 895.551941
560.533569 1905.542236 936.795105
571.605713 1906.402344 952.109924
347.243988 1850.938477 989.202820
654.856140 2042.251709 902.840332
224.190002 1901.003784 790.254395
449.513367 1870.214600 940.375122
644.757202 2019.973755 934.437744
586.924438 1966.440918 941.572266
260.595367 1875.195068 960.194458
640.953674 1956.674927 880.269897
328.140259 1948.264526 741.234619
638.806946 1918.969971 1023.868408
335.725159 1894.208618 915.760254
604.886963 1889.683105 1006.508545
362.396912 1861.215698 1015.264465
537.403198 1924.392944 732.739014
673.480896 1975.053101 861.139954
685.150818 1979.453369 983.433777
250.604706 1935.446167 843.403442
455.187042 1963.110718 680.117554
678.879761 2006.453369 876.456970
313.791473 1941.125366 747.146179
636.117004 2153.348145 871.017883
285.861572 1908.606323 861.582886
465.703400 1860.831909 961.419678
632.268005 2142.528809 857.565125
553.711975 1909.145142 768.584534
541.503235 1883.491211 905.658142
554.034729 2026.003662 680.302307
561.660034 2159.672363 743.067078
553.242859 2227.217773 753.379150
372.363373 1880.630249 1072.471558
615.524597 2126.435791 846.649048
379.466675 1908.822144 889.760071
538.671509 1888.186768 815.704163
424.850891 1938.686035 809.621765
608.830566 1904.930420 963.047974
566.103271 1885.810059 861.598816
446.904022 1945.285522 728.443909
453.810638 1883.764893 911.221375
333.635803 1937.752075 741.178589
577.121643 1924.721924 928.064392
591.232605 1907.338379 947.291809
541.236328 1872.530762 900.702393
657.648254 2079.674316 870.433716
337.992371 1923.893555 833.335876
293.266418 1932.340332 839.855835
551.458679 1927.477173 703.910034
217.927200 1877.705566 959.040100
326.784271 1913.267944 862.632996
475.210388 1906.788574 1020.270752
602.741882 1919.221924 975.528259
532.545471 1951.236450 669.478760
372.614075 1955.523560 750.306213
482.423370 1954.681885 651.495422
296.038208 1932.268066 797.316589
526.236328 1909.911743 758.590332
234.994888 1879.062866 995.431580
496.812469 1901.549194 892.048828
277.246429 1947.003052 803.814331
494.808228 1876.326172 937.087219
226.299210 1947.814331 1021.119629
157.393494 1928.648926 836.492432
333.089539 1929.937134 871.996765
409.883789 1873.077515 951.931091
386.485352 1859.488892 1000.072937
441.248383 1937.080933 732.856873
557.177368 2174.072510 721.527588
403.788086 1959.372192 709.365417
643.375305 1996.452271 846.676880
511.249878 1880.079224 920.264771
677.905273 2014.675537 869.360901
678.790649 1948.840820 865.070801
570.726074 1879.617188 879.287109
554.474670 1895.442505 818.435913
608.206177 1892.117065 804.590576
602.948486 1915.560303 724.302917
580.933777 1959.791626 720.501343
570.191101 2075.113770 735.808716
491.117371 1867.508057 927.677979
557.973450 1989.028931 697.591309
568.570801 1881.786499 846.613159
488.800995 1899.727295 856.365417
294.702850 1933.494873 876.570251
667.002686 1960.682251 865.656494
657.957397 2082.531494 930.386292
219.588409 1879.294067 975.829895
457.218079 1890.546997 905.085388
493.920380 1925.902344 751.296143
250.965607 1927.857788 772.986572
580.965332 2108.952637 752.174744
335.897430 1936.645508 797.307678
608.861511 1943.147583 773.486328
462.876282 1923.734375 844.096191
375.952118 1928.677002 851.849609
472.145386 1891.755493 890.362915
254.667892 1858.737915 1051.098511
608.930725 1885.323608 860.196106
570.609497 2065.412842 712.116333
607.937927 1883.105835 852.396423
382.609406 1865.215332 963.808044
560.362549 2128.921631 717.725342
625.921143 2100.690430 838.982117
336.285858 1883.855957 954.120728
582.820068 1914.983521 900.722168
320.880035 1893.580688 920.034851
433.669525 1878.720825 992.200806
661.880554 2012.142700 892.003235
491.712219 1918.228516 752.025391
588.410706 2102.965576 765.977295
603.995789 2147.861572 800.027466
315.600006 1877.966309 969.352356
366.989044 1916.567017 861.387573
605.928772 1946.204468 796.902222
542.381653 2169.129639 692.789490
359.056488 1852.145630 1073.808838
692.748352 2111.221436 881.769287
617.993408 1935.547852 816.959473
239.489990 1864.173340 994.372375
270.806213 1862.673828 1012.019836
615.518799 2024.404907 801.546814
495.885651 1866.168335 955.114014
605.626038 1894.089355 989.317200
579.261414 1887.683350 823.387451
329.419922 1879.882324 956.466003
647.957520 1956.517822 838.582336
536.071655 1995.199951 965.392212
406.405548 1886.099976 1028.271606
344.262756 1931.845825 816.356079
663.481934 1973.760132 875.367310
633.152161 1965.674438 829.456543
615.214111 2102.147217 814.387146
416.400940 1862.330811 988.830017
552.275879 1881.305420 860.307678
579.827820 2055.821045 765.719971
600.232483 1981.572998 1023.572388
219.321732 1890.929932 915.005676
562.640747 2097.000244 678.705261
544.310913 2184.034424 711.085327
578.722595 2112.270264 750.776550
654.569641 1931.343384 852.378357
249.362610 1918.962891 845.873535
411.553711 1912.327271 856.758423
468.839752 1937.847412 767.791077
616.749695 1944.665283 800.017578
582.218445 1943.209229 928.378601
564.905823 1922.018555 917.398071
538.049377 1924.718872 705.461670
645.184753 2007.640137 940.535339
261.541321 1915.994385 865.880554
509.860809 1883.165771 952.922852
540.485962 2120.314453 675.578186
553.047546 2007.996826 679.813110
276.431335 1914.095703 930.747253
554.874634 1899.347900 810.668579
560.652405 1918.994385 749.053955
645.652832 1921.332520 864.870239
469.364929 1936.825317 779.288696
460.783020 1851.979248 974.146240
277.358704 1856.167969 993.940552
434.109009 1942.804077 724.485779
381.130615 1881.644165 956.808105
598.767090 2074.492432 781.907349
578.477051 1982.173340 729.070801
571.289368 1910.049805 766.191895
557.549072 1902.858887 768.037720
495.489502 1905.994141 802.460083
310.950012 1876.484009 965.249695
335.276764 1932.732178 816.134033
362.287842 1867.521729 1017.337158
260.847198 1918.057129 860.058960
536.643921 1957.761719 647.502441
468.933899 1869.351196 944.255798
516.289978 1880.873657 919.128357
554.270386 2130.448975 731.067200
376.693390 1908.542969 869.106262
595.001160 1898.785034 781.148865
388.040680 1889.593262 948.932068
624.830078 2060.130371 831.559021
617.598267 1929.124390 901.107971
442.665070 1854.094116 964.781006
547.611938 1908.001953 781.142395
367.353851 1923.141357 828.976379
624.239319 2027.950317 826.279724
363.125549 1874.010010 948.695068
618.710449 1879.959473 837.275818
207.527588 1898.742920 927.534973
569.908203 2120.483154 732.837158
207.867783 1917.199097 805.588501
537.023621 2064.359375 661.096741
546.563965 2086.206787 689.040466
418.690765 1870.550415 970.800964
388.105469 1939.509277 736.238892
560.813843 1951.624023 671.925415
606.558838 2118.831055 819.617432
561.458984 1935.006592 688.509644
542.492920 2072.645996 670.777405
497.634125 1890.214111 965.429321
545.513733 1896.322876 787.145264
491.820404 1871.432617 922.846741
631.958740 2002.103027 925.506348
578.081238 2150.563965 751.161377
490.490143 1908.953735 824.655212
461.954163 1914.213013 836.040771
585.288086 1888.108032 853.684570
584.276001 1926.526855 741.819336
307.830322 1904.901123 887.237854
644.366333 2046.168823 847.025330
246.971222 1915.019409 882.831116
338.208221 1855.757690 1018.898376
591.245178 1922.583618 963.996277
690.665405 2133.012207 892.593079
325.856659 1911.449585 847.522949
384.425903 1866.456299 971.105530
637.255981 1887.073364 831.558594
594.407471 2101.310303 781.411926
498.332581 1872.244995 966.145386
584.941406 1896.152100 786.987244
622.511292 1897.914673 1002.564148
671.113892 2007.613281 883.441406
363.162506 1931.016602 852.134827
620.849670 1889.581787 860.490845
480.157867 1915.036987 802.962402
601.835815 1882.301514 854.890869
410.970734 1953.046387 777.826538
632.974487 1887.698975 1015.766479
304.701813 1937.566772 845.356201
636.721191 1883.675293 1006.666992
467.443054 1861.264404 941.773743
575.583069 1881.955933 821.509277
597.244873 1893.517456 862.992493
350.509399 1948.105225 728.453979
567.104980 1917.980835 961.663940
654.989990 2034.764282 944.893555
556.603149 2060.871582 707.427429
641.694397 1892.427002 838.053711
553.537292 2162.992432 712.843567
453.414581 1867.651367 1000.096436
533.347534 1991.079346 636.113037
585.011780 2021.454468 745.887817
607.826416 2035.253540 789.275024
369.618988 1858.762939 1042.118042
496.274414 1961.914673 646.704956
570.707092 2088.436035 734.051392
464.701019 1877.682007 932.804749
430.165405 1849.409302 981.386719
685.940857 2123.437988 890.388489
503.196106 1880.095703 905.934021
226.418961 1983.276123 1033.742798
330.959930 1909.164307 858.186340
610.614014 2048.721191 797.558289
634.186401 1885.495728 1023.407166
440.406860 1965.554565 684.139893
507.512878 1878.494751 934.757019
331.183960 1930.596924 805.549561
345.174225 1932.195801 772.034912
301.663391 1900.918457 937.654907
594.105408 1909.827515 978.230774
578.054321 2030.248779 730.420349
432.895355 1920.592651 1029.696045
433.650391 1910.359497 855.012695
628.598999 1902.754272 864.225220
511.611145 1896.704712 824.760132
533.075623 1944.594971 684.373108
319.457794 1851.258179 1059.236694
466.812317 1909.584961 1007.901489
583.860352 1880.229492 1000.342651
571.088623 2135.537354 737.962036
643.704346 2097.957764 871.947144
536.383057 1912.667969 748.697083
203.887222 1940.331909 898.875183
597.094238 1884.535767 857.492249
661.794128 2068.547607 929.235596
318.172607 1878.032104 969.777039
614.791931 1982.898926 776.640015
621.314575 1922.191040 885.925903
630.661011 2058.428467 838.793518
436.194916 1887.290039 1027.824463
371.469849 1937.004028 772.927002
388.039276 1927.591309 828.972229
282.035980 1886.253662 983.752686
562.426331 1889.727417 966.866760
539.894531 2030.071777 665.670471
535.413147 1993.001831 661.960510
658.169373 2067.183350 933.367249
530.932434 2131.403809 684.456970
268.764526 1901.715454 915.844238
582.997375 1953.685791 926.652588
569.791626 1991.071167 719.790771
574.231384 2177.259521 753.520447
301.329987 1926.415405 810.147156
594.584778 1968.048584 750.887268
389.434631 1940.643799 760.849548
546.963989 1933.559692 701.922241
538.339355 1910.947510 979.179138
661.444824 1975.986694 880.192993
265.076111 1925.765503 835.368896
470.420807 1953.955933 690.709595
634.089111 1992.767456 844.548157
264.843231 1893.242554 941.224609
590.242981 2148.355469 758.587097
682.949280 2089.475830 880.685364
339.943512 1938.496582 763.020874
588.978577 1923.117188 919.164429
590.161804 2179.412598 786.005249
326.367310 1930.833496 838.894104
463.652039 1868.272095 943.158447
580.352905 1941.972046 654.958496
400.736572 1883.458252 925.249695
543.971375 2171.849121 714.596619
611.300049 1883.011230 1014.450684
530.683777 1884.514404 878.295532
480.232178 1924.423462 730.688171
653.793152 2126.033936 885.086243
530.108887 2061.685547 664.370605
512.227661 1919.209351 979.369812
637.850098 2075.834473 860.419312
564.494324 2150.822998 726.816711
211.742447 1935.434204 808.444702
574.945374 2142.558594 744.606323
523.486572 1896.223145 785.900818
679.594421 2076.077881 882.348083
270.253418 1926.644531 1093.992920
601.372681 1916.378418 974.106506
604.299927 1929.849243 787.272095
369.172791 1879.604736 959.569580
556.230469 1893.985718 824.464905
343.331909 1958.067383 730.658875
548.094238 1915.618042 728.059082
544.457703 1894.528687 914.219482
236.238922 1873.123169 978.058350
304.531158 1864.449707 1056.552368
465.341736 1874.525391 931.242310
628.616821 1990.448853 810.194397
667.776428 1924.254028 865.035645
637.569519 2072.309814 859.422913
486.933594 1880.367676 910.478455
298.154846 1902.129517 886.458740
418.530914 1857.551025 990.689270
600.901611 1927.183838 923.717529
546.898071 1883.923828 864.646301
555.031067 1888.091309 851.204834
630.599060 1978.436890 823.418213
579.904053 1905.468994 960.620605
521.219788 1924.308228 730.482910
519.081238 1926.249023 712.946899
541.318298 2129.676025 673.937012
436.516754 1918.329712 834.207336
541.414856 1972.327515 627.818848
422.847534 1878.396240 930.357666
488.434265 1888.233765 881.433350
434.743011 1896.340820 912.341431
587.147522 2041.852539 754.635010
584.766174 2193.999268 811.193604
642.155090 2022.256592 934.618042
537.786255 1967.851440 625.789612
619.726685 1979.830811 799.284790
338.834137 1933.538940 814.683411
573.637939 1912.120117 732.033142
241.678131 1949.502808 830.775452
239.290314 1945.844849 838.048035
219.591965 1987.115479 1014.694519
587.408997 2100.621826 747.154602
607.255737 1919.953125 751.437805
613.596741 1904.748047 955.824829
499.924500 1976.064087 652.769104
601.859802 1963.246216 743.887573
540.357178 2100.125488 673.475525
337.626282 1850.173096 1053.654907
634.533386 2125.313965 875.887756
475.950439 1909.619019 894.161865
419.361786 1957.339233 761.043823
632.777344 2070.760742 846.518799
311.124298 1958.156616 758.214478
553.982666 2061.952881 677.755127
187.453491 1928.233643 820.351746
643.478638 1994.106445 850.952576
248.443039 1926.850830 1060.587769
587.332458 1882.716064 833.139832
563.712646 1911.376709 950.939636
623.569458 1880.038696 865.996216
560.079224 1878.852539 879.091431
371.864349 1941.927490 713.773132
386.520081 1917.596313 836.803406
610.614502 2044.720215 796.640015
623.510071 2145.200439 819.256042
496.337982 1886.727783 895.040039
576.965759 1912.350220 946.216003
569.787537 2061.036133 721.526123
468.369385 1966.949463 669.312439
625.427917 2058.865234 828.118103
370.814362 1916.228882 826.727356
621.651123 2018.363281 800.134888
653.667236 1978.132446 843.625488
486.798645 1894.486206 882.479126
543.264954 1988.981445 622.276001
585.631897 1883.425171 834.840576
562.598145 1892.541260 794.195801
395.506561 1913.179443 875.260742
621.078247 1973.753784 795.191956
367.914063 1945.294800 778.619568
631.929932 1932.907959 1020.297791
614.729309 1965.519409 789.882996
399.399780 1874.364136 956.335571
360.217010 1940.420654 793.757141
544.358459 1892.540405 824.764587
627.078430 1932.586304 812.279114
386.893188 1862.728638 998.903137
610.462891 1894.889648 995.626831
601.041260 2127.193115 800.392578
632.028442 1898.079224 844.248657
503.179657 1934.998047 712.241516
584.162415 1884.858276 823.481995
656.301758 1975.664673 996.032349
401.465637 1875.448364 1000.096313
670.329773 1931.531128 876.020386
635.144775 2014.391968 841.973938
680.323730 2029.502563 873.568665
343.316711 1862.873047 980.421387
489.682190 1904.854980 833.709473
404.218689 1876.153809 942.577271
224.418320 1915.123657 1014.016296
339.480927 1944.497192 757.542236
610.705505 2114.488037 826.898254
674.483887 2009.663452 964.803772
526.377197 1899.556274 784.132202
499.252930 1873.410522 963.616638
209.316589 1937.374146 804.400696
204.041733 1924.565552 828.597046
641.780518 1894.394531 1027.136963
535.244995 2190.947266 718.985901
521.497620 1897.467529 830.457214
475.089081 1917.339844 1007.770569
578.492004 1956.523804 727.182983
451.973267 1958.596191 760.749878
686.749329 2014.713745 970.336853
662.284973 1966.963135 873.671692
469.960541 1866.735840 970.220093
218.872742 1908.845215 906.993286
201.636658 1902.770386 900.284119
565.018982 1904.187012 761.647400
676.502380 2083.783203 881.513306
410.306793 1940.695923 738.005615
584.754456 1921.615723 772.727112
413.435577 1859.561401 999.320740
552.146057 2174.163330 718.294678
577.020386 1887.942261 839.947021
484.609833 1964.487061 652.518188
335.365692 1849.723633 1014.732971
358.447571 1867.470337 1080.772949
346.418335 1849.057983 1093.428711
346.215668 1868.644775 971.825378
556.741760 1903.067383 787.717957
189.233749 1930.245239 847.734680
559.911072 1932.464722 688.422852
503.752930 1965.274170 638.514832
612.188293 1917.601563 1030.411255
540.106934 1903.118042 787.622864
527.440491 1874.912476 904.086182
554.687866 1965.211914 692.977844
604.738281 1901.880127 775.381531
499.887238 1927.693604 753.744812
615.372742 2126.148438 801.628601
455.341553 1854.217651 982.281189
370.606415 1939.044189 763.178406
459.793365 1937.186157 727.932190
586.532410 2175.760254 783.440430
521.687805 1989.146240 646.818359
632.397888 2046.770752 840.490967
602.471191 1890.066895 983.076904
541.942810 2131.624023 674.687988
359.918365 1894.060913 900.926880
534.463501 1889.476807 853.328491
648.769348 1939.336304 836.651367
435.960999 1868.531860 942.089905
500.935242 1911.686157 751.578247
647.334717 1970.739380 1006.792786
351.329926 1860.524902 993.841431
304.910522 1935.941284 749.646362
565.046753 2154.441650 735.124573
589.586975 1950.827881 917.917603
547.825012 2042.448120 690.817688
518.640015 1897.378906 965.441223
428.256531 1863.851563 964.178162
358.795746 1909.098511 866.443115
557.190918 2079.507080 703.161011
281.462585 1893.086792 971.629333
539.570496 1907.426270 767.157349
576.457886 1958.012939 723.824585
616.498230 1973.643433 795.604614
656.206055 1951.234009 838.910034
541.640381 1908.664063 756.605042
387.900146 1913.715698 876.626831
178.931946 1915.900146 833.382141
570.434998 1892.858765 818.955017
260.957642 1947.000488 920.704773
553.463501 2170.839111 744.874207
497.247955 1914.561890 747.788757
471.980347 1865.746460 993.776611
359.902252 1850.540405 999.114258
422.126099 1870.367188 969.408447
490.948578 1962.065186 816.562439
675.853333 1959.930786 855.546082
318.664581 1874.403809 1109.438232
479.204865 1896.251831 993.788452
642.493347 1944.230957 835.800842
591.681030 1884.124756 840.550049
547.833130 1873.328369 898.956360
465.806000 1932.200684 777.640747
408.314819 1866.553833 1028.056396
376.265228 1914.637817 856.236694
466.134613 1868.713257 939.675842
568.500488 1930.452393 708.515198
516.999512 1925.301270 717.970642
629.691895 2004.979126 952.338745
568.847229 2104.512939 707.724426
527.778748 1887.834106 857.851807
595.430115 1931.420044 753.097107
561.922485 1873.703735 888.366272
600.838013 2035.773682 778.640747
402.612579 1956.862183 701.511475
228.081451 1933.474121 811.778748
374.539948 1863.319824 983.907166
609.462097 2190.046387 821.852722
624.789429 1883.278442 1035.676025
614.005066 1893.524536 874.072632
637.271484 2008.304688 921.739197
339.203705 1921.622803 883.402832
569.842468 1882.135620 839.588318
654.332031 2027.835083 914.116150
579.837341 1975.029663 722.700500
532.948914 1980.112061 642.247559
260.265472 1924.414551 835.828186
264.684692 1910.868164 887.576355
357.700104 1927.626343 717.626282
557.386047 1918.006592 750.434448
561.110168 1907.832275 962.588745
594.612976 2145.919678 792.899292
278.375244 1942.401489 773.544250
638.238098 1935.874512 873.651367
619.656067 2032.096680 816.622070
389.470825 1939.113281 808.524841
413.998291 1958.010254 712.917358
553.413696 2113.498779 664.738098
256.227203 1866.747803 991.455383
610.456421 1899.712891 999.844299
540.512695 1875.208008 904.793701
346.346466 1929.437256 723.175842
237.340790 1907.321777 901.064636
537.901611 1892.968384 803.671936
523.680115 1879.611816 913.997559
607.882935 1938.005127 968.394836
208.299286 1921.927612 826.373840
656.427979 2047.020996 910.453369
287.486359 1850.269897 1020.723389
370.109802 1929.395142 821.490051
622.591003 1887.703491 846.752441
621.077881 1890.469604 873.178162
542.822571 1898.598389 790.393311
583.231750 1905.908203 757.070129
371.321442 1870.792114 1015.917480
597.193115 1915.607056 796.220276
661.778625 2028.888550 943.636108
312.679321 1899.949951 750.776550
608.705383 2050.255127 794.250183
423.873230 1956.168945 702.402954
352.982544 1869.545532 970.654297
559.751343 1898.491333 976.709351
687.254822 2040.702881 978.855957
448.871765 1882.340332 940.185425
684.825989 2018.864868 980.452515
562.181030 1882.999878 845.474670
332.198151 1852.367188 1071.413452
638.105347 1998.730225 972.979187
588.452454 1917.700562 779.508362
621.043579 1942.419800 804.593628
295.077637 1864.923218 985.581726
231.078812 1917.022949 820.466980
359.838257 1909.417114 869.914856
493.555267 1873.478027 916.071045
350.398346 1932.494507 740.566833
568.005310 1916.317505 721.067566
304.925049 1901.721924 898.031555
483.987732 1938.415649 702.123840
564.831604 2234.182129 697.072388
649.410950 1961.687988 1017.258057
315.456421 1942.861572 759.177734
642.591553 1981.130737 826.314087
615.973755 1998.849487 796.748413
283.283539 1875.876709 968.533020
526.085022 1871.030640 910.142639
565.103699 2063.174316 738.257141
592.656311 2001.378418 766.433472
554.750000 2174.670654 688.166748
624.585571 1987.665771 1008.071655
436.285828 1955.486328 695.548645
468.903870 1915.524292 750.998840
268.739319 1952.326782 820.729797
662.267883 2083.143555 876.000854
541.263428 2087.619141 672.866211
671.652588 1920.734619 870.512390
407.922668 1890.652344 917.404663
448.847351 1950.253784 786.175110
577.753601 2220.628418 780.567444
436.095642 1963.196899 689.926819
260.542389 1896.473755 937.432983
667.002014 2034.539795 900.424500
316.004425 1846.300903 1023.779602
649.009277 2064.557861 868.430908
385.223938 1861.431885 999.516724
577.038940 2141.044678 750.264954
385.421997 1884.251587 925.923462
432.287659 1953.113037 710.868347
378.781586 1938.224121 791.348022
585.734253 1929.367554 752.659363
341.504089 1855.579468 1018.418030
422.007050 1883.666748 1009.159302
603.339478 1888.207031 811.541260
397.748383 1949.959717 720.467529
620.924500 1936.747192 1001.104858
368.704987 1855.534546 1074.411865
476.079376 1957.078491 682.937439
431.559509 1943.170166 751.533630
425.181244 1855.725220 967.164612
512.478027 1915.288818 745.010498
630.306213 1887.184692 851.679871
594.814819 1887.043213 807.372864
636.895081 1957.259155 985.823364
345.450592 1861.292725 1030.783081
566.605957 2036.834595 701.790710
464.448792 1937.100098 744.496338
318.035034 1867.688599 1104.459351
419.130310 1855.967041 991.062439
415.968109 1922.921997 839.686646
259.877411 1925.843994 840.961853
612.675232 2172.072998 829.294922
662.883240 2090.384033 875.169434
216.559677 1913.753174 920.862549
638.118958 1902.844482 858.456848
366.738220 1853.510986 1028.901978
388.840302 1889.952515 919.889832
368.459381 1887.338013 1091.966919
484.981659 1896.161011 974.961365
302.098450 1890.610229 919.325439
269.764160 1928.177246 806.470276
616.735718 1927.255249 985.568420
596.831787 1907.968872 792.177307
616.621704 2138.404785 806.134521
340.017029 1851.284424 992.374207
565.891541 1885.965820 831.121338
428.404022 1897.161377 1038.343872
207.796860 1922.826050 836.179932
656.919617 2045.470459 923.046936
489.830933 1924.854736 822.309509
618.051086 2099.932129 803.605469
490.604828 1943.746216 651.312073
627.186646 1973.019531 815.919495
611.763123 1903.037476 796.923218
555.286072 2053.389648 692.344788
556.421753 1891.754395 804.247620
633.643372 2088.825928 846.374268
467.784851 1877.711060 921.728577
596.279236 1895.439209 879.772644
190.439316 1931.612183 824.673523
619.786377 1992.337524 931.509460
458.793121 1947.441528 812.921875
426.935486 1872.929077 939.991821
228.965515 1937.375000 1028.255005
442.872925 1930.063232 805.561218
696.418457 2121.750732 891.794739
587.007141 1964.652344 715.393127
542.041077 1955.669678 674.276550
493.530792 1867.197754 934.602234
571.619995 1921.109741 715.591187
564.317444 1904.200317 939.175537
640.269714 1895.611206 1023.938538
615.553833 1960.714844 804.942627
582.461426 1890.001587 868.907166
546.701782 1901.355591 778.793518
640.675049 1887.723999 819.421143
586.386597 2177.657227 799.229370
585.799011 1950.130127 933.300903
600.584290 2108.198486 794.091675
438.367035 1911.842896 838.688416
610.481689 1913.401978 984.128662
407.437164 1915.509399 1057.800659
574.537598 2020.352417 721.740417
606.007629 1885.745483 838.147888
564.278259 2063.797119 717.180237
610.091003 1887.211060 818.443359
465.805420 1946.308105 706.494690
630.785278 2032.126831 847.905823
625.503479 1904.464233 973.554504
542.820801 2043.121216 642.243896
544.982239 1918.853638 736.149231
235.886887 1926.199951 792.808960
619.383240 2094.053467 826.576721
468.790619 1872.885376 932.128967
556.808105 2064.335938 699.821655
445.106506 1913.869385 868.185791
570.179565 2021.998169 727.603882
375.913788 1960.393433 727.436707
653.412415 2134.860107 887.512573
258.582977 1913.220215 880.380676
581.386108 2069.077148 732.024109
669.279358 2042.004639 952.648193
293.962799 1944.913208 822.192017
584.843567 1921.067017 959.761963
541.653381 2052.019531 646.827820
490.917236 1937.770630 700.010620
544.897278 2052.617432 676.947693
463.841003 1908.722778 1005.657227
395.093567 1951.523438 764.749084
322.708252 1924.023560 752.421509
492.024811 1928.096191 729.260437
193.282990 1907.700806 902.126831
264.792450 1926.431152 854.100891
576.815552 1966.271240 714.550171
646.860840 2071.725342 854.287048
395.320099 1946.684937 753.609802
603.655701 1977.206177 799.219971
504.257477 1879.017700 969.397156
575.560974 1878.972778 858.376221
264.977264 1921.666260 839.279114
567.886353 1934.130371 718.165222
680.265137 1954.983887 850.932251
559.079651 1909.208618 940.208252
360.370605 1856.636108 1044.525391
545.984802 1900.374878 943.266418
679.504456 2074.796631 912.428162
657.109863 2001.635986 938.127563
262.036896 1911.584106 922.552368
604.497498 1909.265625 812.630554
291.857391 1941.441528 764.088440
473.183228 1934.266357 729.901733
624.160034 2177.105225 842.065186
436.044464 1848.532104 1002.111450
492.587250 1867.724487 951.825867
523.011719 1932.076416 706.906677
275.446136 1907.736450 883.544556
491.480713 1926.979126 989.620850
437.339111 1882.658936 994.848633
218.650848 1889.906860 931.274292
324.235168 1894.017578 931.055542
528.888916 1960.117676 643.938782
677.226440 2031.814087 888.162842
646.727051 1990.946533 945.144470
459.700104 1863.601196 956.852478
554.759583 2122.936279 665.199585
631.136719 2113.982910 853.737976
436.983185 1958.217773 760.616516
580.998047 2021.335571 743.503967
472.697693 1944.151733 692.590210
621.507629 2041.635376 841.790405
430.888824 1941.734741 748.031433
479.642151 1907.437134 875.250366
605.785767 1897.757202 992.059204
407.055756 1914.560547 839.562378
505.265442 1956.122437 665.517090
618.330811 1943.095947 794.254028
583.798828 1972.387695 930.232605
525.987732 1924.807617 733.508728
374.912842 1907.041016 1086.306885
573.689514 2022.816406 749.167908
664.686462 2044.357178 944.522705
422.569153 1899.369751 1042.206177
220.926987 1886.771851 952.286804
572.219788 1999.279053 959.640015
340.239777 1937.999390 789.624146
417.129333 1897.849487 882.693970
641.997131 2103.941406 939.155151
459.416534 1865.645020 952.033447
676.676758 2047.076050 876.437988
678.921753 2075.247559 882.009399
617.157288 1893.983887 831.514893
229.429214 1934.718750 819.528015
508.708435 1930.819580 716.092651
595.652100 1913.059204 893.126953
543.021240 1913.821655 754.855652
575.846497 1957.387207 691.913696
413.559082 1936.478760 741.594604
586.111755 1930.996582 947.208252
473.711487 1965.091309 787.940857
594.330750 1950.621826 930.393005
596.898499 2071.963623 776.833984
237.737366 1921.700317 817.429504
256.608246 1915.215698 926.030762
481.495026 1870.586426 952.976196
394.106262 1914.910767 864.930176
170.769653 1878.684937 825.271118
374.096802 1878.192017 1062.129883
565.784058 1891.834351 969.117798
437.087250 1864.937988 980.917297
484.642761 1869.472412 960.240051
325.662476 1931.252441 771.851440
379.992035 1931.070557 823.831055
293.224457 1956.717896 764.309692
617.395569 1879.875488 842.676697
579.463684 1930.010376 938.285950
633.032410 2117.703613 852.459106
621.272156 1900.417358 972.480225
185.528961 1899.643921 898.132202
254.821762 1886.548950 982.203918
556.723633 2162.257568 686.408020
297.879852 1889.317627 973.112061
601.348999 1886.073608 998.366211
635.361084 2042.797607 846.544373
652.856018 1982.407227 846.717773
388.773010 1901.741333 887.176025
337.024933 1928.895264 822.966675
573.907410 1878.432617 840.419617
570.594788 1933.779297 742.242798
387.412109 1854.292725 982.229614
647.824890 1983.083862 974.015686
597.063354 1897.989868 998.273438
539.631042 1912.846436 930.450439
439.955658 1908.849609 857.642578
597.528748 1914.848511 1002.037048
443.043640 1974.563965 677.473389
627.008301 1914.701904 1005.890564
595.974731 1942.099854 757.920959
363.606506 1857.787964 1111.131348
483.769104 1937.040161 666.225159
549.161682 1888.690918 851.076050
308.294891 1950.880615 757.023743
372.038208 1906.083984 865.189453
231.385696 1931.389771 873.274597
198.924850 1924.746094 827.725281
660.963257 1924.552124 847.541382
288.250488 1935.568115 875.565613
245.366196 1922.375488 846.507507
588.404175 1964.153809 924.126831
572.066528 2045.151489 730.174805
560.142761 1904.364258 772.106628
611.227112 1893.212402 1001.211853
411.686096 1866.379395 959.168884
608.711792 1939.479614 754.319641
593.344971 1952.836670 743.829956
350.205688 1935.944336 730.291992
263.049561 1922.003906 849.406372
179.107422 1921.811157 851.701172
579.673157 1907.003662 965.953369
626.825562 1894.783325 1016.802612
376.658173 1871.813110 1030.983276
440.167664 1917.021606 832.392151
304.207855 1890.335938 944.546204
209.478806 1954.148315 892.790894
376.307220 1931.706665 713.523804
604.468384 1955.149658 795.604065
638.625000 1913.245728 837.282288
198.934479 1945.300659 821.303894
586.296936 1901.253174 904.316040
487.922272 1934.620972 721.456299
523.107300 1947.780273 677.750305
625.671082 2027.046997 826.469788
413.192474 1913.732178 837.359436
539.243652 2104.732178 688.644775
611.171814 1998.409912 797.912231
657.538330 2019.465210 906.830872
294.223724 1905.138184 886.291748
533.912415 1887.747070 862.226746
322.424988 1870.455200 1063.420654
503.262299 1925.770508 995.076477
517.576172 1920.605957 732.687988
605.186584 1961.138550 1026.929443
407.207001 1860.508911 1005.692627
333.256531 1929.556396 784.767395
418.800873 1943.187500 792.103516
555.776428 2084.383545 699.716248
446.915283 1929.395020 1050.144165
506.141754 1921.215332 763.776550
586.623413 2065.384521 761.908691
280.059906 1860.536743 1000.258606
553.015137 2124.222900 726.782410
380.242950 1946.010254 736.107544
587.157898 1919.157349 938.576660
633.635071 1968.943115 830.368958
539.703308 1921.748657 718.806030
629.998047 2144.999512 854.503906
384.403290 1859.681152 967.862915
556.036865 1950.475464 679.054382
356.772491 1933.409668 837.407104
399.877563 1874.205444 1005.253601
395.306427 1941.970703 761.553223
668.812134 2034.233643 892.894531
446.718933 1926.028687 746.589661
509.313477 1901.451416 867.604431
547.179260 2041.618286 683.319702
411.253296 1896.156006 903.039429
679.073364 2096.498779 888.083069
589.086914 1921.315063 903.605103
257.469879 1932.163818 800.060120
603.563660 1930.521118 897.742737
494.559143 1931.170166 711.913574
439.678833 1917.188721 844.312134
521.513489 1911.765381 756.831909
385.849030 1864.398438 1001.810364
313.983429 1915.562622 822.614563
566.574646 1964.643921 706.914246
635.074829 1939.123657 831.443115
635.275085 1914.071167 874.714233
582.493958 2188.698486 778.087952
585.674316 1986.666504 738.221375
658.561951 2046.598145 932.657104
279.253418 1933.285400 849.025879
469.480469 1969.795898 665.211121
452.967590 1962.696045 767.256104
519.497559 1925.685913 726.741943
429.652618 1896.533569 883.241699
593.201477 1918.233398 964.624329
424.270874 1854.847656 968.717529
378.927826 1901.804077 911.348267
625.117004 2048.517090 839.513855
512.253174 1871.293213 909.138245
548.288391 2072.157227 686.711548
194.715958 1924.148926 864.604248
461.914124 1936.747437 711.172668
292.599762 1911.296021 887.024841
465.933929 1890.613281 893.255554
628.640198 1905.067871 1017.345947
584.538147 1931.409546 948.912415
645.833069 1987.701660 926.021118
596.318787 2067.420410 772.875793
640.923584 1965.041016 838.939880
592.969971 2026.310913 758.961304
250.816116 1967.445557 1074.563843
538.317139 1935.444824 699.828613
617.002930 2162.692627 833.735718
393.483551 1855.558594 980.102783
574.713806 1934.563232 939.710449
572.475342 1893.605347 799.138733
174.739014 1910.945679 912.069763
619.507263 1891.263550 1010.062256
537.224060 2042.266968 653.245544
543.304443 1942.421265 673.353760
613.715759 2133.289551 822.398376
288.538208 1930.255615 858.920410
430.409271 1959.315918 702.247314
542.387146 1910.543091 754.618591
558.775146 1967.121094 696.907288
628.356201 2026.396729 829.698547
452.243622 1941.874146 722.437561
234.781738 1902.087891 912.128540
620.512390 1954.624268 897.865906
673.793152 2016.717163 957.847839
238.707184 1898.177490 919.164307
573.282349 1999.779907 727.224182
428.669464 1859.252930 1005.394287
319.710052 1887.645508 1093.886475
310.867371 1849.621582 1016.709656
447.775909 1901.744629 865.317688
669.987122 1972.925049 837.991638
419.019989 1860.453125 1009.266968
444.005249 1938.871826 750.280945
593.686829 2201.476563 798.920898
587.772156 1958.392334 734.571045
675.653687 2001.987305 854.373962
518.156006 1909.420166 766.094177
552.618530 1915.138672 727.392151
507.876923 1979.238770 646.260925
655.725159 2019.407227 943.078735
289.386078 1847.445313 1036.503174
252.656265 1965.655273 1070.771851
580.353333 1890.844116 803.054260
548.264160 1918.925049 945.979309
334.156952 1854.257690 1003.337280
541.672363 2170.247803 689.075439
533.231323 1893.413696 801.759399
565.108887 1906.393433 763.225708
604.717529 1892.684814 868.196228
610.541321 1885.814331 857.338074
608.183716 2102.989014 801.204346
679.419006 2082.098877 884.060547
576.729309 1901.006836 955.682678
264.921753 1898.554443 952.264771
515.196777 1930.584839 710.416321
330.724243 1933.812622 846.973328
670.080872 2022.502686 927.517700
624.518616 1995.815918 824.390686
535.998657 1913.950439 730.399597
528.893311 1881.155640 887.770020
667.558105 2008.421875 881.331116
489.232330 1863.405396 946.209473
458.734741 1862.265015 951.280701
574.843262 1876.003662 845.868713
418.971191 1860.484741 970.081116
349.266449 1879.752686 963.804138
370.784576 1857.628784 971.009827
415.568481 1890.492065 937.727661
561.075745 2208.299316 741.031494
206.382553 1927.541748 820.854126
461.003967 1956.123657 670.346008
495.622681 1869.288330 918.463257
579.249512 1986.182983 736.831848
238.502960 1907.795654 949.042969
611.222046 1988.747437 791.475647
527.325256 1887.171265 836.118774
635.119263 2063.074707 853.339600
619.591736 1896.653198 1009.760132
638.899048 1994.372681 943.106262
343.573761 1931.678833 805.033936
401.306549 1913.205688 705.144531
580.064087 1880.808105 1028.051880
418.038330 1946.602173 755.726440
543.198364 1895.223877 916.586304
632.181702 1916.919189 889.140015
645.042114 2030.291138 845.974976
657.843018 2015.693604 944.978577
441.838562 1948.229126 784.271362
620.910828 1975.963745 812.223572
505.307953 1888.781372 936.417114
607.306946 1891.281982 987.592590
512.689026 1903.999146 807.941711
583.999512 1931.311401 746.402222
436.728851 1950.360107 823.934265
479.150177 1949.739868 697.447876
284.594482 1912.404175 913.805359
622.617126 1903.903320 809.822205
644.907043 2009.675903 930.677734
603.142090 1883.286987 822.516174
676.984009 2111.847656 908.200500
577.167053 2209.648438 768.873413
542.574890 1979.722534 623.324829
284.311127 1927.182373 813.234375
203.076523 1909.799683 893.502625
231.368179 1914.099976 863.795227
444.072144 1956.897949 686.464233
616.857300 2113.180908 803.345947
181.709915 1924.036743 932.222717
643.606567 2026.802246 927.444092
638.347656 1898.032349 859.170532
672.354675 1991.272583 991.461731
586.554688 2190.688721 756.785706
500.602966 1942.294434 646.374939
652.234680 1990.142578 947.698242
508.944855 1876.911743 925.679871
441.385010 1880.125122 952.186401
572.628601 1888.129761 1009.143738
424.670929 1854.945313 995.190186
314.382355 1888.196533 1098.657715
230.537247 1913.162598 1023.712402
510.876007 1898.994873 942.471191
368.280640 1890.424072 909.735229
575.342896 2109.538330 740.788269
447.028809 1859.956909 982.455811
466.742004 1932.382446 746.706848
562.528870 2185.553955 767.174866
256.451782 1953.116211 824.801453
419.655975 1910.524292 859.017090
625.164490 1966.637573 803.790283
523.652893 1925.339233 715.702820
340.704651 1860.848389 1016.526245
622.413269 2059.404541 821.876221
233.247604 1895.144165 969.195313
625.155273 2124.080078 866.891235
593.201294 2038.493286 762.220154
624.827209 2086.250488 835.105469
384.646729 1863.392578 979.878357
591.674377 2070.677734 778.115234
608.300537 1899.497803 996.617249
685.663391 2048.358154 872.136108
475.896851 1874.630981 945.323669
560.397095 1887.427979 821.662842
209.475021 1927.616455 817.528809
484.664001 1897.736694 880.259827
267.865875 1927.595825 775.047119
632.352295 2123.706055 833.971313
558.264771 1900.827393 821.241272
548.766418 1888.453125 909.722656
536.030090 1929.944824 737.837585
200.673279 1882.153442 1000.505981
681.301208 2008.986816 986.419312
412.226074 1949.462524 801.585205
592.223816 1893.820679 803.224854
588.292053 1882.582642 851.381165
559.137451 1920.815063 919.044617
637.780579 1886.350952 849.943420
428.856262 1928.128296 683.205627
529.378052 1906.935791 793.506958
491.883331 1977.150269 662.802673
410.212128 1946.325195 1061.820190
225.611908 1942.639526 811.259949
248.362488 1922.283569 839.326294
676.294800 2000.026367 979.993347
650.851929 2001.866699 931.521362
668.198303 1997.976318 953.810669
644.689209 1980.907837 840.389343
261.584473 1892.470459 943.329956
610.372437 1905.338867 800.973938
196.119141 1938.440918 904.780518
573.662842 1892.662598 798.197083
570.437622 2119.773926 737.131165
562.077637 1875.553589 883.987915
283.707245 1905.887329 941.419250
652.363953 2051.765869 929.961121
548.863464 2099.569336 714.256958
612.194092 2143.371826 839.409058
534.923584 1983.984009 641.913513
594.820251 2193.223633 792.136963
420.255371 1893.265869 914.475769
330.861176 1936.603516 831.980286
544.417053 1881.286255 856.276855
296.782837 1933.980103 788.287720
292.929016 1946.245117 809.555847
696.824646 2085.583984 901.668396
610.184814 1939.685303 899.420471
431.677490 1921.267578 836.097717
513.900574 1883.635010 928.428284
352.928284 1943.907959 748.894958
520.868225 1942.568115 681.615051
576.927551 2012.499023 710.641479
243.735535 1869.970947 1037.267090
532.698547 1980.530396 661.993408
233.475662 1918.469604 845.040649
594.421448 1890.439575 810.324646
483.075836 1976.499390 658.734497
362.207855 1944.952393 746.517700
401.562347 1944.691284 735.571533
249.741821 1922.979614 838.459900
630.393372 1998.709839 967.325806
302.876770 1938.493530 934.406189
656.477234 2047.687866 904.627686
355.148712 1927.135254 833.406921
679.976196 1965.483521 871.071045
595.187500 1881.888184 855.907166
248.736618 1900.168335 1055.140747
288.153137 1896.095581 952.177795
577.927673 1999.706421 735.863708
605.139465 1887.564697 1021.459778
564.610901 2011.859253 715.557251
249.847137 1896.039063 908.985474
604.263611 2160.205078 807.571655
656.102112 2121.020996 875.484497
160.336334 1916.262207 844.059692
335.736176 1926.700806 820.520874
539.706970 2198.319336 705.225159
534.631714 2197.193604 705.122437
332.288940 1926.159424 822.782715
224.779877 1936.279785 816.514709
526.645203 1975.929810 633.727661
605.181702 2121.056152 781.038574
186.296417 1921.772949 835.125122
599.988159 1952.140015 971.884888
602.578796 1979.200195 937.546753
482.834656 1862.936523 992.857971
354.490173 1948.075317 735.505615
623.431458 1917.147339 831.057800
542.110840 1880.893921 873.259827
363.959961 1867.627075 993.001831
447.335480 1856.025635 1009.304626
426.749542 1941.596802 731.088379
381.890320 1936.090576 1091.688354
503.078217 1911.425415 838.201599
333.523224 1932.554565 750.415710
646.872253 2000.261963 947.086609
630.948853 1973.392212 823.306641
354.828339 1854.195313 1036.367432
367.481079 1860.726685 1068.919067
249.353699 1931.594849 894.701538
592.357483 1900.154907 970.563293
413.107422 1901.391846 885.183838
597.465332 1899.900146 830.483459
273.975983 1929.790771 877.193298
596.831787 1915.437378 918.458923
554.983887 1953.269043 639.781738
577.391479 1928.728027 708.130127
335.247101 1915.817017 847.929504
374.197662 1896.584229 936.600586
369.876282 1896.317383 914.234802
508.901581 1899.557373 817.716614
591.214417 1914.882202 759.975037
375.610626 1875.222412 1042.669678
351.833862 1898.172607 934.579834
541.845886 1874.793091 869.191040
582.287781 1897.573853 977.222839
588.011902 1982.770386 747.146179
233.971954 1923.408691 782.479126
605.437805 1933.124634 775.941650
405.009613 1884.694458 944.560852
