ply
format ascii 1.0
element vertex 1404
property float x
property float y
property float z
end_header
2145.587891 6.556656 396.960449
2163.097412 24.989750 179.932022
2153.838135 18.878319 374.174072
2141.119141 1.477151 226.722565
2294.955811 -218.444519 554.724365
2245.686523 -292.124207 557.569885
2255.513672 46.505642 481.720886
2149.005615 -30.692171 529.405823
2080.784912 -83.270912 459.924225
2170.214111 23.852320 241.387817
2163.306152 29.843418 168.003601
2062.720947 -100.299370 500.880127
2156.938721 20.535021 427.875946
2319.436523 -308.338989 575.712585
2222.785889 -13.716246 547.282654
2114.539307 -122.999588 268.113068
2080.705811 -211.419006 329.699158
2231.912354 -173.000504 544.867310
2321.289063 -125.449951 560.466614
2131.647705 -82.710495 519.822021
2073.887207 -247.760620 523.558472
2181.782959 77.015800 412.068695
2140.842285 -49.278976 529.667480
2133.048828 -41.456623 277.053680
2185.266602 -277.374420 566.615356
2079.005615 -61.722351 508.051056
2075.915039 -76.630714 501.876770
2135.994873 -210.723648 47.546597
2057.673584 -154.155350 540.517151
2307.599365 -294.067749 563.975647
2164.332031 38.469379 192.655762
2128.937744 -38.563309 222.637863
2200.230957 92.434654 435.729462
2090.962646 -234.281693 536.177612
2108.366211 -78.719215 403.639771
2216.749512 -212.971481 550.842834
2072.943848 -96.785004 450.353302
2335.241943 -135.392899 552.221558
2154.783936 15.729217 193.303543
2129.582764 14.641127 427.930725
2168.031494 -117.596703 538.491150
2242.955322 -123.609612 552.677490
2143.729980 1.572234 144.159973
2246.407959 -97.254166 551.318665
2077.651123 -240.098602 421.220215
2189.446045 125.013947 422.587830
2090.426758 -210.104416 362.155884
2132.657715 13.352040 311.735443
2173.739746 -74.091881 536.091064
2074.226318 -81.191895 447.647888
2156.576660 28.492025 341.032196
2178.948975 -124.820007 535.589478
2150.257324 -0.791445 396.595856
2327.689697 -33.236782 522.082214
2101.243164 -196.026581 392.990021
2047.849121 -244.909592 358.535034
2162.041504 27.135187 293.845642
2104.810059 -130.115601 300.635223
2221.266357 -24.015806 560.382080
2166.636963 -176.753326 530.554077
2148.083252 -107.117203 540.188904
2230.864990 -53.095417 533.627808
2127.525635 -33.825191 247.723038
2109.041260 -158.455093 94.427292
2280.531738 -212.900467 554.998718
2110.797852 -2.215291 400.256561
2158.411621 20.005411 185.175476
2146.353027 4.743090 121.922920
2128.031494 -34.995380 158.995789
2096.958984 -196.376755 211.088287
2208.712646 15.753612 429.406708
2124.075684 -43.280922 315.429321
2185.783936 128.757492 389.374207
2136.210449 -94.624229 102.277023
2314.754883 -301.641937 574.464661
2115.652588 -25.569775 520.902527
2099.512695 -41.315033 525.792908
2315.114258 -163.395477 552.677795
2119.808105 -172.598953 117.121063
2191.239258 12.793980 558.705078
2059.665771 -134.473846 504.231567
2063.467529 -181.327347 482.902588
2175.966553 35.153431 282.774475
2122.298828 -76.321991 257.363953
2090.771729 -38.253300 424.156494
2201.393555 18.493866 430.391205
2268.696777 -24.209341 552.045898
2076.760010 -264.173309 161.270294
2090.596436 -62.869621 430.658661
2252.930908 3.342758 504.952362
2116.851807 -117.619766 345.182251
2102.250000 -97.231720 359.730316
2097.733154 -175.803299 128.867493
2104.317139 6.374802 509.211060
2079.737549 -96.660545 408.611938
2261.025391 -22.060854 534.914001
2204.974121 -46.291374 541.206360
2077.493164 -210.852478 304.242065
2072.603271 -176.154175 511.456390
2211.298340 29.441647 243.291565
2130.511719 -43.897591 260.528259
2262.911133 -17.256687 542.059937
2222.229248 -0.715329 523.161255
2173.008301 59.745506 427.414032
2089.920898 -20.463892 501.979492
2317.416260 -67.333359 564.006653
2191.687256 18.154724 277.082123
2146.224854 -271.297791 564.170837
2074.247314 -81.023041 464.340881
2078.724365 -101.517273 441.939240
2181.453125 61.173027 455.217224
2140.093994 -100.085648 81.154106
2131.549561 -118.787224 543.934814
2084.960938 -268.929169 114.967148
2100.033936 -22.040211 452.012665
2037.296753 -237.655243 253.716827
2125.205811 -56.270847 246.655746
2067.960938 -248.008026 423.324921
2186.694092 95.342201 418.981720
2268.822021 86.353218 466.088013
2086.184082 -47.335747 460.617920
2115.394775 -162.734283 368.990295
2149.713867 -182.441559 546.112183
2102.220703 -103.039520 356.162262
2080.987305 -89.891922 465.887482
2075.224609 -171.993073 461.215179
2167.384521 3.216151 522.811462
2196.973633 21.452547 300.583008
2085.207764 -94.608948 452.563477
2081.830811 -218.254959 272.314240
2111.779785 3.714637 451.255432
2084.593994 -218.547989 235.182053
2103.045654 -155.990631 290.302216
2117.364990 -136.572372 182.484421
2117.128662 7.491847 416.954132
2152.262451 33.356537 274.428223
2063.269043 -256.472443 356.110718
2097.470947 -75.097672 511.120117
2134.077881 26.228321 309.350433
2127.961670 -74.408295 200.669983
2156.638428 7.317048 155.988586
2233.451904 -58.441582 542.085754
2123.289795 -111.927513 528.945740
2062.544678 -213.778732 439.260376
2107.569580 -148.310532 342.893433
2107.689697 -255.938782 527.605469
2105.653076 -261.361908 553.284424
2098.837891 -79.798317 412.577271
2088.416748 -24.841702 428.376068
2111.805664 -170.128143 141.711319
2107.106445 -115.349792 332.732758
2120.473877 -56.708935 134.561111
2163.727539 48.186443 430.118195
2104.204346 -235.524597 199.810074
2113.849854 1.472891 370.898560
2128.981689 -145.840668 139.890472
2113.356201 -42.067852 377.883026
2121.290039 12.214028 520.846558
2097.682373 -208.653534 318.658844
2089.512939 -72.307846 445.346497
2129.002686 16.739063 460.591370
2164.681885 24.681175 313.892639
2087.261963 -39.034592 471.295929
2113.937256 -124.058853 223.862778
2076.046143 -76.881943 523.558838
2084.341309 -68.696930 468.986847
2084.251221 -158.459503 524.565552
2081.702148 -153.808105 541.508850
2068.019775 -215.412445 409.336609
2070.648682 -259.387177 289.333588
2121.416016 -111.990044 378.504791
2124.156982 -24.348482 186.264023
2065.562988 -95.543144 485.405090
2125.016357 10.560448 261.223419
2108.196777 -105.656906 286.490601
2065.265137 -158.194275 451.893036
2124.562500 -227.188339 200.582535
2103.302002 -185.159271 289.496094
2104.045898 -112.155952 372.089081
2155.620117 -57.816299 526.576294
2088.819824 -126.776031 376.871918
2068.765381 -126.668167 479.012634
2083.177979 -251.506042 148.675476
2115.697998 -10.859586 342.375153
2234.762695 69.831474 441.065582
2127.318604 -44.976326 241.411987
2257.394775 15.205454 204.574112
2135.898926 21.564774 248.502335
2274.653076 -38.594616 565.755066
2309.537109 -303.282990 562.663940
2059.965820 -227.625839 511.300995
2079.044678 -135.061600 416.564758
2082.368164 -56.443420 464.434662
2240.799561 -130.494263 88.139046
2114.659912 -33.127094 366.478943
2105.063232 -154.372314 212.705139
2117.666260 -134.370346 191.907532
2111.050293 -2.111405 377.289856
2082.027344 -80.688614 414.246277
2180.604248 74.671883 376.696045
2119.663086 -27.630272 198.206284
2112.478760 -57.084873 538.654236
2084.813721 -244.527542 123.851974
2139.267334 -43.276859 522.406921
2093.726318 -17.475258 505.198669
2177.517334 -108.562355 538.729004
2065.132813 -122.338539 479.661865
2161.966064 35.108627 138.813278
2316.170410 -229.245026 559.165894
2146.854492 -25.577000 529.250732
2198.719727 115.448311 426.480682
2229.007080 16.616455 211.661957
2110.095703 -126.388252 226.958771
2329.873291 -280.092041 542.998474
2105.693359 -197.183945 246.115707
2125.836426 -103.526382 88.661613
2072.323486 -216.051361 240.504044
2120.582275 -142.385361 264.173615
2101.047363 -184.377121 275.774750
2246.875244 31.226465 517.605957
2156.970215 21.689032 351.832306
2133.471191 10.321917 399.462372
2193.793213 123.274590 410.772430
2156.886719 -270.165527 553.269592
2110.785156 -195.256149 97.521507
2099.088379 -213.476776 152.726730
2075.001953 -256.594299 321.123413
2192.067383 -1.754811 437.300262
2211.718506 -283.976440 553.215454
2110.861816 8.246355 424.057098
2190.240479 57.736351 424.871704
2054.101074 -225.701126 508.437073
2157.220703 17.148008 180.824875
2129.182617 -35.449009 117.236839
2124.840332 -106.063271 530.692932
2071.281250 -209.966583 402.863190
2320.812012 -100.378555 549.241699
2143.487061 24.224844 175.715942
2106.632080 -100.957993 318.821899
2239.574951 17.696415 520.703796
2192.283203 -241.976837 547.257324
2260.406738 -2.728621 504.252014
2208.619141 -80.274475 537.519958
2120.914551 -76.897118 93.666458
2104.152832 -182.656387 180.387573
2060.258789 -179.108459 527.953308
2090.600586 -44.638680 528.182983
2113.691406 -170.577850 122.708199
2140.262939 -22.998373 541.609924
2129.020752 -68.310204 258.289612
2118.543213 -24.955873 278.238037
2087.653320 -80.727783 439.975494
2062.889404 -261.501617 107.964561
2092.539551 -18.576197 489.474915
2089.103760 -97.402359 397.335846
2121.289063 -83.442604 203.194336
2120.510986 -181.885559 533.870850
2088.938477 -23.095053 502.562714
2082.152344 -217.925613 220.596390
2236.293213 -198.547699 548.715759
2067.791748 -264.338501 162.938980
2139.478271 11.836726 237.624466
2144.686768 -189.512878 546.169617
2128.204590 -72.096809 241.450470
2126.168945 -51.678642 188.663361
2077.940430 -264.696045 183.464371
2280.314209 -4.915409 518.453430
2064.507324 -166.073257 465.412018
2162.808105 29.647251 164.362808
2112.228760 -104.587738 281.345490
2074.277832 -102.625221 425.800110
2138.843506 -94.823128 203.126099
2218.004639 -275.134308 550.138245
2249.397461 -104.559570 552.158325
2141.700684 -207.084335 121.905464
2073.892822 -90.249611 430.218719
2252.306885 24.519917 492.928955
2137.699219 -181.258179 176.326080
2092.803467 -75.897385 481.678986
2069.556641 -154.528976 451.682190
2119.959473 7.175825 239.798904
2156.436523 17.251364 217.391449
2098.088379 -155.541260 322.900604
2132.684570 -11.068510 187.211273
2130.938477 -43.215675 212.233917
2333.319092 -204.306992 556.961914
2125.501221 -46.612934 160.170212
2068.135986 -231.934723 369.019714
2084.954346 -221.450317 353.536438
2143.348389 -29.063915 185.715240
2204.357666 31.176031 436.186157
2157.799316 -26.971813 78.712349
2065.884277 -248.303864 501.761902
2151.789551 -29.598690 538.053955
2258.721680 -296.985321 566.691956
2185.817383 27.995235 210.216965
2102.805664 -100.620285 523.328735
2317.037842 -20.360302 535.477356
2250.586670 47.221577 483.462128
2046.336670 -203.899063 556.261902
2073.456543 -94.737984 475.733246
2114.268555 2.470323 388.773376
2273.807373 -64.357712 549.238403
2103.361084 -141.373459 308.312622
2166.104980 14.407329 396.683014
2085.216553 -183.448441 403.888062
2104.384033 -184.728973 183.033600
2251.562988 60.611298 456.584412
2087.771729 -70.534393 438.666199
2203.718750 111.210411 433.648285
2083.733887 -214.807419 527.187195
2320.288330 -136.476242 551.057373
2241.547607 -228.038818 552.800171
2187.559082 -2.901507 526.312988
2175.488037 -176.445740 539.857727
2087.620605 -245.738785 141.920029
2214.216553 -4.622607 526.437195
2054.865723 -170.104630 501.427063
2120.323242 -2.680288 362.435669
2082.051514 -198.448639 394.651794
2274.568115 -200.222763 554.552551
2299.867432 -256.569275 559.709167
2097.640869 -195.943253 325.500092
2155.078369 -141.113892 122.080986
2132.236572 -17.083790 126.959946
2114.104980 6.230958 421.911774
2192.469238 0.833123 512.077271
2126.459717 20.442310 263.361206
2103.003906 -149.164047 219.106659
2089.886963 -182.235443 321.935608
2125.416504 -103.488670 159.512497
2131.489990 -119.148926 104.978691
2248.416260 71.262840 504.374603
2117.738525 -38.173985 198.244339
2203.380127 90.231461 410.829193
2049.750732 -248.549713 558.500916
2137.334229 -105.487396 530.085510
2109.556885 -134.289246 214.244675
2059.008057 -118.950783 492.875305
2081.270508 -261.611267 184.701630
2111.352783 -78.900124 390.710236
2069.908936 -180.401474 443.424927
2154.337646 -0.248767 121.985001
2062.606689 -253.898163 224.671417
2099.972656 -176.813110 331.893646
2201.591064 47.049919 173.227020
2200.982666 75.293922 432.663666
2167.121582 25.131502 276.607147
2102.274170 -252.492523 537.258179
2217.297363 -23.386414 84.824890
2163.561523 0.190667 156.570145
2057.599854 -196.297897 496.834656
2097.461670 -161.773544 335.587280
2127.995605 -18.702909 272.699402
2088.836670 -242.194977 299.598206
2077.941650 -221.523911 311.985321
2172.645508 16.748440 532.449402
2080.134521 -115.809586 429.293915
2120.906738 -2.007474 323.460541
2183.345215 103.248428 407.046295
2117.880615 -8.992695 344.023315
2117.192627 -136.562698 103.129623
2166.133057 -97.154732 543.961853
2250.821289 -1.666552 504.130493
2139.993652 -139.603455 116.689041
2091.423340 -142.267960 400.461761
2289.471680 -147.148987 542.414185
2140.561768 15.200713 465.445404
2149.682617 15.669141 232.994186
2086.102295 -66.621475 528.275391
2086.959473 -65.185692 407.748779
2210.684082 33.260723 184.107834
2115.985596 -44.392529 326.825317
2073.234131 -168.962921 492.637360
2078.606934 -254.644913 234.000534
2123.424561 7.402280 330.390961
2078.106934 -232.027206 258.896423
2087.835938 -105.044968 534.922302
2028.079712 -230.867065 524.627869
2077.300537 -103.903328 475.966003
2151.661865 -3.865270 551.163452
2107.127441 -198.941071 100.910324
2151.729248 -145.293427 539.103760
2176.250488 53.433052 179.820328
2276.871826 -233.578445 564.684509
2079.322754 -91.017654 480.021881
2074.309814 -113.543785 488.651794
2187.182861 20.127691 382.097809
2083.812744 -193.659424 530.097534
2076.811523 -257.509552 202.587341
2134.916260 10.575789 258.647583
2069.549805 -220.112778 342.858154
2199.573730 -10.931798 438.619843
2246.419189 -88.678169 541.919800
2081.936279 -85.671013 468.522888
2209.400635 -76.747131 536.809692
2144.612061 -44.232414 79.633858
2054.379395 -235.143158 466.685150
2128.771973 -46.817596 142.092133
2105.367188 -130.754349 534.094238
2324.925537 13.070370 505.612671
2118.493652 -132.254654 178.022552
2073.815674 -68.479752 448.047241
2253.369873 -170.943207 549.026123
2131.020752 7.240583 309.922913
2165.842529 4.199120 524.734497
2258.775879 55.709766 488.369171
2075.242188 -212.700974 309.040009
2193.910889 112.366302 417.411194
2218.057617 -4.434644 506.229767
2160.249268 -12.616728 563.105652
2144.997559 4.554083 392.500610
2123.411377 -36.947544 214.308914
2294.721924 -268.100525 567.549744
2076.610352 -225.637054 159.815948
2170.041748 -77.057968 523.096802
2166.255615 13.800637 394.142120
2135.141846 12.271923 326.974213
2116.931396 -62.157833 284.321289
2102.772461 -22.392311 454.267303
2159.877686 4.766946 378.736511
2087.033936 -226.406967 224.876617
2280.912109 -199.264191 562.585510
2148.403076 7.955642 163.620956
2146.181641 -39.435871 119.121368
2182.726563 5.717045 490.916077
2191.711426 -238.328247 546.071045
2097.952393 -6.983241 463.106262
2138.456299 8.849796 499.198242
2201.309082 42.200523 187.112350
2082.806641 -65.003799 432.253174
2194.889404 -208.241135 548.205261
2106.770996 -12.426234 498.579742
2101.729004 -25.124989 418.571381
2134.090820 -34.634502 155.384018
2131.994873 -124.791153 139.669052
2136.360840 1.606261 507.096344
2089.965576 -39.487450 521.122742
2278.531738 -195.918793 550.976746
2068.262451 -132.871826 509.499725
2078.986084 -141.109009 431.356842
2148.193848 22.053486 133.577652
2321.310791 -235.954773 558.465881
2094.389160 -27.248867 423.074860
2106.966553 -232.090729 528.754639
2185.060303 -183.762405 541.170898
2137.896240 16.857903 418.473145
2196.991211 97.146782 433.523438
2126.572998 -238.897369 536.731079
2092.684082 -36.732632 494.769806
2161.921143 46.453457 422.592773
2056.908447 -178.637787 504.186707
2334.281494 -103.252739 548.180786
2112.848389 -96.001595 349.665375
2133.314697 -108.050407 162.125626
2077.340820 -62.021606 483.628235
2064.086914 -168.696426 449.125732
2097.297607 -42.668941 536.163330
2273.619385 -266.029572 565.260986
2304.683350 -124.513611 551.514343
2141.037598 -4.161146 168.904083
2181.456787 26.951303 375.687073
2177.579346 34.150612 165.445953
2128.978027 -62.298805 268.756531
2089.407471 -25.226553 485.048950
2044.080933 -227.381058 479.415558
2125.231445 -36.252811 289.379089
2065.499512 -146.057144 442.051941
2206.811035 -244.393219 550.696411
2076.739014 -263.300781 340.871033
2062.344238 -123.179268 472.074585
2128.189209 -20.338539 525.992432
2116.946777 -140.007416 116.793839
2110.683105 6.996428 434.705566
2122.194336 -58.578468 360.648926
2065.463623 -208.756531 416.190125
2104.541504 -134.167694 244.299576
2153.539551 19.320517 172.891388
2073.178955 -97.790985 524.649902
2084.692627 -205.124069 291.486633
2101.809082 -131.118103 529.843018
2106.839355 -5.873955 449.234039
2122.161377 -63.958408 354.323914
2205.179199 26.334309 178.522263
2199.985352 33.635681 270.590332
2172.263428 -138.151794 545.313843
2129.610596 -7.418255 540.849304
2073.877197 -255.118118 435.602600
2301.161133 -204.510834 565.104004
2122.878906 -149.063995 216.377563
2235.115967 -240.210159 541.217712
2194.751221 17.674252 374.222321
2133.657715 9.027845 500.726318
2107.704590 -191.346680 107.151672
2113.154541 -23.979355 516.286560
2174.511230 -147.062546 546.341919
2240.378906 -44.563057 553.158569
2237.329102 -158.448593 545.926208
2174.758545 25.871037 332.252441
2091.089844 -204.384598 362.743225
2135.158936 -238.422485 543.050476
2220.747070 93.087540 404.552856
2111.789307 -193.873550 525.956543
2126.494629 -43.674862 198.954987
2122.399658 -0.403596 310.248199
2061.417969 -206.617310 461.163422
2112.277588 -86.154137 280.060699
2203.914795 -213.537903 548.357849
2216.183350 -259.396606 550.794434
2183.004883 21.308655 412.759094
2075.086182 -132.219299 522.981873
2132.860840 -4.358480 218.282761
2144.565674 -77.308556 527.083679
2100.666992 -44.946915 529.349915
2196.237305 -0.981959 506.704041
2127.608887 -101.437042 262.616821
2303.002441 -24.598705 566.671692
2084.756592 -56.559887 455.304321
2118.775146 -131.835785 260.656311
2105.503906 -9.112078 449.796448
2104.404785 -173.455093 314.148224
2112.001953 13.263205 464.980896
2162.612061 -173.369919 546.869263
2104.480713 -97.476234 360.855072
2351.552979 -56.640972 95.313499
2068.222412 -155.857849 528.000732
2081.331543 -62.460812 433.282867
2212.967529 -196.568207 554.673950
2293.381836 -96.965057 553.716980
2206.689453 126.931747 420.631683
2141.375488 -7.347899 236.101685
2139.138428 -142.766617 531.996826
2209.013916 5.049954 446.824799
2096.446777 -210.867661 214.418152
2062.299072 -226.701889 430.357147
2092.331787 -63.376732 402.315674
2074.972656 -82.650162 482.267303
2128.712158 -89.388969 238.136093
2070.708984 -251.725845 403.183105
2159.529785 -148.403732 540.198730
2069.309570 -215.744217 361.657013
2098.293945 -1.192252 498.181763
2261.648682 -50.353519 560.936951
2136.019531 -125.175476 123.249573
2111.624023 -7.671245 427.705292
2079.081299 -214.131332 338.632294
2284.294922 -184.705704 550.605103
2103.616455 1.045400 490.810486
2209.134277 96.521873 413.287018
2235.468750 -140.217072 544.694519
2110.462402 -135.220337 287.139008
2227.152100 69.746597 436.157593
2069.143066 -242.453247 504.773499
2184.181641 -126.956650 540.610107
2081.935303 -240.156952 254.108109
2137.060547 -187.244400 541.413879
2230.076904 30.216406 247.672028
2174.564209 25.822807 199.076752
2146.442139 -196.528595 87.425659
2086.570313 -26.413212 445.521729
2131.306396 -91.275993 253.728790
2157.972900 16.395864 380.537384
2133.918701 -46.547661 149.553696
2147.161621 -147.663376 539.008850
2250.096924 43.377731 474.823212
2156.614990 9.123827 414.488678
2125.367432 -47.922451 258.017395
2205.684814 83.915085 430.873932
2152.547363 35.497738 158.398392
2144.315918 6.007020 244.582321
2089.257568 -224.560257 535.803040
2227.353516 -123.224457 543.999939
2223.691895 49.065609 126.367279
2164.960693 20.824875 416.703888
2131.235352 -117.265907 536.249146
2218.004395 -205.245193 548.412109
2144.560059 -43.356087 183.106125
2077.075928 -209.353622 251.814987
2139.586426 -5.891602 188.508026
2062.996826 -212.890549 446.511993
2105.164551 -190.190552 312.261566
2143.872803 8.650591 353.915314
2246.942627 -150.899628 535.567322
2061.045898 -166.049271 440.719574
2151.257324 -266.743561 549.207642
2126.033936 13.458589 304.592224
2105.167725 -109.584061 319.612183
2171.667480 77.166603 413.365112
2076.764160 -211.187302 355.981354
2102.677490 -9.159631 440.613068
2122.670410 -13.453351 189.506744
2081.677246 -54.184002 518.738037
2332.995117 -182.384140 566.697083
2212.515137 -98.298149 537.580078
2132.296631 -149.874786 163.357864
2131.230713 -43.059311 208.215195
2111.865234 -113.674019 378.032501
2124.052002 8.221959 317.652679
2163.447998 40.397850 324.119232
2236.170410 -77.627121 85.373978
2165.148682 -221.880524 545.859924
2051.401367 -249.776321 256.771271
2128.579590 3.604437 362.915527
2316.416016 -80.328354 555.640015
2060.088379 -168.989014 465.795715
2250.181152 -1.391713 501.193878
2127.904785 -17.528601 185.161621
2178.952393 89.839653 419.191193
2084.743164 -235.942856 146.606140
2093.970947 -182.716522 195.215546
2072.220947 -84.381500 518.213074
2054.552979 -164.272232 521.268494
2136.171875 0.593650 402.456238
2115.403809 -89.941261 305.255829
2280.620361 66.613434 506.987000
2282.931885 47.205299 515.198242
2093.214600 -211.246796 142.301849
2165.765381 -11.963902 552.509155
2080.701660 -88.653610 472.598175
2116.535889 -67.980331 540.285767
2128.996094 15.185320 263.458466
2244.927979 -24.616920 563.166016
2119.994385 -32.973454 294.682129
2169.906738 49.477207 436.257996
2229.572754 -289.848450 576.670898
2178.621582 27.856840 434.794159
2062.355957 -108.398788 510.254669
2249.496582 -11.091034 479.455109
2324.928467 -290.098450 568.151794
2128.645508 -184.644623 152.952118
2130.676514 -188.642838 175.133347
2142.713867 -25.301510 134.819077
2069.680176 -90.221062 453.105743
2107.445557 1.921794 473.105438
2075.484619 -109.721985 424.829529
2073.910400 -121.012642 534.254089
2239.941650 -198.991806 546.662720
2311.651855 -26.798227 539.848328
2103.964844 -26.990007 455.561981
2220.044678 -124.147194 541.132813
2109.388916 -198.652802 139.262695
2190.045166 -267.940704 545.435608
2157.028564 -58.624115 536.421265
2184.269531 56.239742 381.594360
2180.503174 18.887758 142.328476
2109.882813 6.531848 476.273285
2153.441406 26.476753 294.155609
2143.325439 -89.387848 125.515572
2083.257568 -55.006901 432.119385
2255.387939 73.086845 485.296631
2088.590820 -18.120728 526.791504
2258.221191 74.847084 468.569641
2155.671875 0.827104 180.266129
2144.897705 27.443981 182.981949
2136.439941 6.989703 379.864777
2135.260010 -126.847893 531.315735
2092.340576 -28.275944 481.014618
2120.366211 -70.896919 219.602493
2094.058105 -38.798397 408.600281
2113.666016 4.574145 450.154297
2179.815186 35.479603 398.550720
2160.571777 17.368826 410.718079
2116.989990 13.127358 453.382233
2246.270020 37.238873 482.530334
2086.369629 -209.377899 402.288788
2103.853760 11.555507 467.862122
2063.971436 -236.030151 537.606323
2055.577148 -199.844421 517.182495
2114.341797 -73.359528 289.591339
2106.749023 -79.261978 406.585083
2115.372070 -72.115204 282.880005
2124.477539 -113.156532 233.135086
2171.697998 31.432041 145.962479
2072.594238 -248.970535 436.007568
2320.087402 -255.763443 541.923462
2075.356445 -250.452713 436.766144
2329.320068 -25.097870 538.663391
2064.575684 -225.579987 367.752838
2121.212158 3.677005 284.865387
2077.540283 -52.425888 497.520294
2092.337158 -32.731209 435.639038
2055.371582 -207.189087 510.573639
2164.481445 38.517715 293.454895
2272.885742 -180.064240 552.275696
2053.984863 -246.792465 436.930908
2123.989746 -56.252831 261.668579
2291.017578 -37.155235 563.163147
2169.070313 37.937046 156.233765
2154.601318 6.559184 520.756592
2307.005859 1.214856 517.093933
2217.077881 26.739115 201.059891
2279.396729 -286.493958 568.007935
2208.158203 -178.170746 544.417664
2109.680176 -87.161713 348.011566
2140.803223 30.270975 326.477448
2313.106689 -40.720306 583.521973
2073.167969 -103.445786 483.341248
2233.451904 -262.798187 544.947998
2185.344482 27.448101 443.683228
2068.680420 -138.806778 439.082550
2096.843262 -48.817654 498.107727
2266.142090 -68.620193 550.577026
2083.560791 -220.552399 178.001404
2083.334473 -251.784286 254.366516
2125.224854 4.707705 273.272766
2282.502441 -263.253540 547.394165
2130.494141 12.884718 354.393188
2129.961914 -139.729523 386.819366
2119.203369 4.083624 290.265564
2196.506836 -254.189438 548.160461
2297.899414 -143.652374 552.634277
2260.201660 -108.833229 88.276718
2062.050293 -164.258728 520.239380
2114.732666 -73.657852 312.943481
2165.135986 39.880531 402.389130
2112.319824 -236.663879 206.937164
2123.467529 -217.096970 540.591492
2233.670654 -15.338821 541.384155
2062.198242 -254.997620 465.617249
2315.370850 -214.239502 553.743713
2044.754639 -241.461670 490.467316
2099.128906 -32.111034 419.182220
2062.175537 -147.343506 496.478027
2099.943604 -20.108627 515.355896
2273.418945 -208.248886 541.507080
2067.105957 -253.743942 374.688385
2135.770020 5.109112 259.818817
2240.031494 -33.287937 568.919250
2062.166016 -132.236969 528.959290
2112.863281 -76.801140 377.970673
2064.138672 -235.515488 369.922791
2105.374756 -37.501698 381.514374
2228.146484 -117.103203 542.946960
2130.161377 -60.678204 116.469109
2085.328369 -189.663589 342.510773
2118.601074 -95.207756 211.866974
2157.641357 14.626461 423.589294
2128.073730 -26.984692 134.328751
2104.913330 -0.763535 515.187744
2125.343506 -164.601273 243.094742
2118.507813 -119.836403 118.301277
2109.930908 -9.152208 398.258240
2106.847656 -238.940262 526.159973
2071.418457 -88.031319 448.898102
2182.642822 39.209019 431.681702
2334.673096 -292.078247 572.033936
2158.728271 40.837151 284.635284
2114.244629 -208.793777 166.972763
2217.710938 39.048214 443.434662
2072.830811 -233.056900 371.415436
2156.350342 7.871588 364.440796
2119.551758 -128.738495 163.375931
2114.836426 -0.945087 533.275696
2105.264160 -181.343735 535.895203
2113.718262 -41.491974 349.292206
2183.374023 66.456131 418.700104
2142.662842 31.329323 327.251556
2205.530029 38.947289 435.936920
2259.600586 0.021833 499.423737
2075.269531 -257.452393 282.473267
2114.426514 -94.348373 289.736877
2249.421875 -225.425903 551.887451
2069.120361 -106.054443 511.998230
2125.825928 -45.668163 174.852280
2113.956787 -31.141525 382.362213
2203.076660 -243.251724 550.121765
2162.224121 -251.483521 543.892639
2225.589844 -110.922653 549.611877
2151.132080 -117.851120 371.128876
2063.905518 -210.727051 460.367737
2099.716309 -30.579981 485.691711
2079.690918 -261.627930 207.464096
2096.079834 -196.556107 379.761902
2091.760986 -224.802155 114.843575
2261.185303 -17.350138 547.288757
2087.348145 -201.100143 294.802216
2104.069336 -253.330841 104.347031
2344.381104 -96.987297 553.578613
2181.260742 3.293897 478.269928
2153.293213 18.766275 202.463348
2131.285889 11.512702 322.647156
2106.439941 -152.653030 296.087250
2133.899658 -0.866901 343.936981
2062.016113 -153.471359 454.481598
2095.187256 -56.198235 402.088470
2128.989014 10.721700 384.020294
2095.075684 -219.116409 161.620758
2068.357422 -142.888107 446.447327
2109.016113 -168.002762 298.940948
2194.966553 -85.078705 537.829712
2228.440186 -75.340797 538.902893
2085.137939 -37.975731 493.955811
2053.302734 -161.921478 441.351868
2108.858154 -182.576462 260.545441
2117.107422 -201.642609 178.193680
2164.719238 35.543091 165.398361
2196.427246 -152.734772 543.120178
2127.377197 -162.849319 152.604385
2144.438232 -13.407758 197.447449
2114.012207 -99.598419 298.914063
2256.659424 78.484428 481.578217
2236.107666 4.066165 523.235352
2115.914551 -8.030286 323.669281
2097.438232 -34.521957 438.229980
2316.175049 -206.231430 555.641235
2232.918945 -12.694723 431.182251
2122.415283 -36.177494 380.150787
2062.659180 -197.460220 501.611389
2079.676758 -252.072159 243.022797
2149.571289 25.275450 144.368958
2130.844727 -23.063459 527.801697
2049.681641 -212.753235 504.390503
2162.905273 7.981582 415.969452
2085.439697 -262.061035 115.788986
2129.029541 -56.291359 238.590912
2189.229492 -47.279381 535.909058
2256.852051 75.742378 505.213440
2114.332031 -51.166325 349.455963
2120.620117 -16.464247 289.819733
2182.323242 40.642673 149.247650
2067.681641 -247.491211 408.721313
2128.430664 25.923714 289.574738
2085.662109 -75.301987 415.898346
2065.674072 -232.133545 464.928650
2133.376465 -63.041988 336.995331
2054.382813 -258.218628 185.143341
2071.801270 -126.566551 437.307465
2177.877930 -230.864944 544.167847
2117.320068 -58.052235 529.545044
2135.314697 16.623636 275.728180
2124.660156 -113.460297 96.338081
2065.284912 -194.526428 453.395996
2250.946533 -3.759492 422.715149
2064.463867 -209.442169 441.273346
2121.973389 10.933437 295.487396
2187.984131 75.230652 409.161652
2062.981689 -191.800720 496.869293
2221.726318 -276.429688 550.658691
2170.284180 80.002029 402.638641
2187.530762 -276.566376 561.941406
2251.023438 -278.511292 550.273926
2256.503906 -293.342316 586.398560
2098.206543 -208.993988 181.586349
2087.167725 -99.123322 445.210999
2337.759277 -182.303604 566.593384
2093.220703 -63.009762 452.497772
2267.788818 -40.903179 570.328369
2060.633789 -121.606758 514.343933
2137.811768 2.971566 394.638580
2116.302734 -40.863926 357.482941
2123.663330 -44.121845 306.319672
2125.721924 -199.659561 115.518402
2133.826416 -5.208715 260.840668
2103.378418 -4.622410 427.761505
2131.875977 3.184423 284.845856
2194.959229 92.170387 423.707184
2080.191895 -124.636879 511.623932
2061.971680 -154.941971 494.391174
2346.709229 -148.310883 544.182495
2097.248535 -36.035210 427.216431
2317.668701 -169.358322 564.032654
2093.451660 -188.168121 328.551697
2280.620117 -18.368992 556.592712
2112.713623 -28.354050 372.110382
2308.778320 -99.964211 545.751648
2191.218018 -83.885445 537.512451
2132.904541 -254.209961 541.277527
2064.188477 -129.104904 463.692108
2058.912109 -99.970566 488.612793
2247.002441 41.169807 481.981812
2119.473877 -58.834675 303.761200
2218.803955 -84.525093 536.897705
2160.518311 6.176930 116.067940
2153.229004 6.856641 446.932648
2241.852051 -264.956635 553.839722
2187.274658 -252.766312 543.846985
2114.834229 -112.547836 271.434998
2094.855469 -57.137245 457.309753
2092.234131 -64.912491 447.306061
2176.057617 136.968887 398.894348
2089.326904 -23.601105 492.009491
2115.377441 -131.857147 165.513123
2261.760986 -97.583641 543.606384
2084.322754 -244.732941 131.534195
2243.092285 2.650268 521.058472
2044.490356 -250.788239 288.576141
2048.556641 -252.860458 282.171967
2302.439697 -87.428734 547.170898
2122.316162 -21.403563 247.024460
2209.108887 14.452123 248.167709
2084.102051 -50.205383 456.037018
2134.491211 -122.920982 131.311615
2133.250977 -185.699997 540.719116
2089.840088 -137.871780 530.812439
2096.405762 -64.911308 531.240356
2126.893066 -70.938133 216.310181
2171.542725 -221.255035 541.203369
2165.578125 41.311996 153.549774
2169.276611 -133.874664 538.336670
2168.701416 24.569569 114.375664
2128.218018 7.782281 516.171448
2100.226807 -203.465698 213.904251
2233.185547 -269.968445 563.218994
2156.882080 -272.762115 563.986694
2069.331787 -178.355240 440.357239
2132.136963 -89.062317 272.569244
2073.754395 -255.689697 243.992722
2074.323486 -70.247375 489.833710
2088.551758 -27.543018 449.801208
2112.618408 -9.572446 372.056213
2206.333740 -77.411026 539.359253
2278.448242 -37.747730 563.156250
2107.140869 -147.848663 360.284180
2165.923096 27.348391 416.675903
2044.190552 -231.664322 393.808716
2078.941406 -211.604309 343.942169
2074.169678 -227.796051 301.091614
2081.799805 -243.535767 215.508728
2107.570313 11.953237 482.790314
2324.782227 -209.827209 557.159363
2124.564941 -161.178574 240.948166
2074.123047 -237.274063 352.076019
2145.307861 15.174486 180.267776
2114.312012 -85.291916 249.882370
2125.000000 -40.238850 135.206573
2143.291748 -92.215561 348.167938
2288.048584 -27.546919 531.125610
2124.580322 -186.513000 534.342957
2335.282959 -261.049225 557.072693
2107.257324 -109.687576 325.769531
2166.665527 19.566614 177.518433
2070.938721 -100.873291 483.893097
2196.521973 -277.341339 562.020691
2060.903809 -238.689957 331.356171
2198.647461 18.260872 207.145508
2052.529297 -252.363052 425.983917
2244.507568 36.965771 478.941040
2066.672607 -176.930252 448.303192
2120.991699 21.437323 313.830750
2083.573975 -231.864227 173.603989
2123.189697 -186.246185 71.467819
2120.142578 7.902536 389.413544
2080.236084 -66.099602 433.876984
2199.988281 -10.709982 564.803833
2164.091553 -97.418137 81.858391
2057.081787 -219.258881 535.553589
2147.430420 -16.266838 534.467346
2203.870361 134.235626 429.487366
2100.202148 -108.778252 391.507263
2174.053711 -276.815704 569.814758
2212.111328 60.349609 433.626465
2165.581543 -186.297867 531.334900
2086.177979 -96.922028 502.852295
2177.328125 1.086744 487.782593
2066.364746 -178.402771 536.224976
2088.314209 -30.943285 526.419800
2117.996338 -75.249130 303.767273
2119.520020 -195.682526 199.096054
2256.934814 -75.242767 539.104553
2139.479248 -137.847916 535.469727
2154.290283 -87.278442 529.167297
2097.864746 -17.558968 433.087799
2088.347168 -82.758011 429.881348
2311.182861 -33.457943 580.623413
2133.960205 -12.305408 161.953445
2077.547852 -175.156586 523.738770
2074.265381 -255.085403 324.932892
2075.140381 -165.622223 406.744263
2142.460449 11.351759 368.010071
2120.541260 2.878598 448.565094
2162.927490 4.402874 534.054077
2246.824951 -265.432922 554.400208
2200.263916 46.573662 433.809570
2127.959229 -23.110931 518.259277
2182.411621 136.505341 412.180450
2074.879150 -200.216431 528.796082
2107.340820 -202.075394 253.783798
2212.983398 56.712353 435.405090
2223.634277 -177.922333 554.295105
2205.525146 136.450500 434.117279
2125.928467 -16.301979 224.409851
2070.821533 -167.275238 542.683411
2106.035156 -211.458786 254.697235
2283.397461 -26.302393 572.526306
2227.528320 -0.073532 500.344910
2101.411133 -88.273247 529.403320
2190.279785 -67.871162 535.409424
2325.329346 -218.422256 107.034676
2126.766846 -50.481949 311.560028
2170.231689 70.903755 403.671082
2208.132080 12.927309 436.810486
2162.308350 17.637865 166.253082
2054.399902 -144.436691 551.908936
2115.737549 5.716873 528.377197
2254.652588 -133.317993 93.356995
2180.853027 -201.887634 542.291443
2080.976563 -104.248962 414.425720
2092.573730 -82.249939 504.514587
2120.130859 -2.301204 279.742950
2341.599121 -227.219711 562.420105
2256.577393 -14.321838 519.692505
2127.258789 -20.581558 189.311447
2100.926514 -163.455704 300.633728
2120.963867 -16.482035 285.937988
2177.521729 40.901726 402.903015
2149.387939 30.479670 307.776337
2268.246094 -157.124481 550.168457
2154.147705 45.459522 293.525360
2188.225098 -229.041870 548.695129
2058.176758 -199.263992 490.747192
2177.059326 72.962181 421.522369
2307.479248 21.599874 517.802551
2103.352539 -28.996161 450.033997
2057.825195 -237.627930 350.376709
2125.537109 -110.150818 543.325317
2158.819824 17.441229 419.271393
2067.972168 -136.607544 466.443054
2080.341064 -234.361740 196.173691
2119.374268 -12.281906 297.670929
2084.407959 -97.263573 446.201660
2123.651611 21.355906 535.515869
2295.605469 -253.214401 568.194885
2197.609619 -119.870689 548.230896
2322.837646 -35.868286 537.127747
2226.623291 -276.603394 551.355957
2241.132080 27.886305 470.648102
2065.657959 -93.607658 530.127075
2211.541260 39.559925 445.574677
2110.871094 -1.194273 380.964905
2226.502686 -285.535370 571.707581
2189.094238 73.658592 421.645294
2076.417969 -259.773468 286.927094
2239.092041 -0.182728 524.203064
2127.393311 4.595942 440.553894
2280.931396 48.568226 515.111389
2125.281250 11.516539 309.283752
2138.752441 -37.797535 231.833511
2051.771973 -172.482635 495.160065
2113.953369 -28.280247 355.816040
2088.786621 -12.865009 502.426788
2059.061768 -185.083511 477.546844
2177.141113 -32.254269 538.794617
2138.333740 -61.475040 518.193970
2132.645264 -130.911423 100.049171
2141.490479 33.879364 299.784607
2327.970215 -200.682144 558.696594
2099.479736 -4.441118 479.551483
2257.247559 -134.533630 545.701172
2069.260498 -260.207214 267.150269
2246.585449 54.994339 467.672272
2251.981201 -286.906555 554.946106
2132.700439 12.850805 308.246552
2061.758057 -146.634384 521.056519
2155.031494 -219.282425 549.084290
2173.024414 -269.901001 542.684082
2183.298828 87.355278 421.879028
2123.351074 1.787203 397.983459
2071.304688 -241.944229 417.957916
2108.735840 -125.184982 216.613602
2068.993896 -167.784317 487.803101
2049.082520 -209.075989 536.404358
2341.681152 -62.073078 566.601990
2117.432373 -16.256695 324.981506
2101.617920 -157.183350 304.801331
2140.908447 12.531118 390.844604
2315.676758 -118.956009 550.971130
2097.927002 -209.284836 152.524811
2066.424316 -146.639999 498.073730
2089.987793 -159.467636 335.490723
2118.111328 -94.568001 160.631363
2282.128906 -274.849487 554.759521
2163.722168 0.948945 136.111343
2196.130615 50.956047 429.036591
2114.524902 -68.243256 300.056335
2127.377441 -33.104866 212.818817
2188.754639 57.725651 418.813293
2096.297607 -14.363707 460.568726
2126.645508 -69.456421 523.238403
2143.435303 7.451281 362.034149
2083.233154 -56.764030 429.835388
2257.337646 58.535305 508.346161
2250.120361 37.565300 490.211823
2099.839355 -0.294463 515.634460
2348.727539 -207.499191 555.053467
2262.186035 5.678528 495.140594
2078.279541 -196.073120 378.779541
2078.871826 -241.846588 276.438721
2192.356689 -158.870682 538.240967
2172.718018 -249.709518 542.279236
2075.287842 -227.180099 288.411682
2105.946777 -155.070389 257.329803
2082.267334 -95.686531 415.223053
2070.416016 -259.385345 274.127930
2099.196045 -163.692398 311.137787
2070.622559 -186.969421 415.193115
2249.903809 -19.587452 435.356720
2228.623291 27.035124 337.509399
2103.994385 -2.989222 411.893494
2132.560547 4.942912 424.092010
2234.541504 -179.163254 549.265137
2073.507568 -109.105286 452.856476
2235.401367 -153.426147 545.661133
2203.825684 126.030937 445.450134
2289.332764 -28.751917 541.803711
2133.526611 0.233428 530.937073
2266.434326 -169.019516 547.754089
2111.127930 -119.029099 260.594879
2125.412109 -98.956100 129.407837
2334.679932 -139.416458 552.485718
2077.547119 -69.341949 449.375519
2252.622070 41.869099 494.314941
2121.341797 -117.622681 178.289597
2126.932129 -0.828718 387.483398
2105.622070 -124.458374 364.173126
2163.475342 -261.447937 539.531311
2060.062256 -239.125305 323.598053
2123.863525 -85.119690 406.969543
2120.744873 -103.873314 163.513031
2130.875488 7.442560 351.676331
2072.006348 -99.904381 439.373322
2069.893066 -194.553467 517.810486
2183.113281 87.541412 424.569336
2061.699951 -163.980347 480.245789
2114.314209 -93.826736 541.832581
2073.730713 -61.690960 518.754211
2119.760742 -62.671417 243.471390
2116.824951 -143.379120 166.709717
2130.736328 2.506768 396.483063
2120.462646 -7.255690 331.103088
2040.948975 -226.170273 497.063202
2081.651367 -230.824966 174.434601
2234.990234 32.337936 169.577942
2270.188721 78.047478 412.736847
2055.946289 -169.725327 499.097656
2107.116943 -112.559769 341.378479
2341.277832 -98.487396 561.926880
2304.552979 52.980629 514.641052
2106.257324 -40.658321 403.428558
2126.955322 -92.322060 144.575623
2113.829346 -90.557632 305.402740
2076.579834 -80.722687 439.437103
2234.373779 -290.671539 557.281860
2126.940918 -41.018353 267.704254
2164.458740 -270.293549 557.311096
2098.961670 -34.643372 425.133759
2308.826172 -136.616882 560.949890
2225.692383 -96.228783 549.184143
2071.592041 -257.516724 173.881439
2067.118652 -145.564255 444.527863
2151.553223 0.758203 420.147095
2209.070557 -41.903221 544.420105
2161.301025 -226.114471 540.018250
2079.569824 -237.705353 235.387360
2121.882324 -29.594233 219.646683
2124.372803 -154.618607 202.183960
2219.314209 -207.260895 556.246033
2183.833740 78.175507 418.207916
2176.858154 28.886518 191.615768
2125.743408 -74.945282 220.560272
2107.745361 -201.975296 174.591324
2105.159424 -42.692101 378.206055
2235.740479 -212.933975 551.372498
2143.005859 6.651781 191.725998
2106.799072 -103.592888 528.027649
2067.445557 -246.350525 399.102173
2187.344727 104.044182 434.417053
2170.499512 29.309063 317.118500
2117.359375 -208.609131 535.468201
2122.781006 -34.831703 318.380463
2129.334717 1.857242 305.031586
2225.472656 81.023308 427.528290
2084.336670 -88.702873 424.705322
2122.494385 11.059160 283.658630
2098.755859 -196.062881 195.124557
2063.645996 -157.074341 504.177826
2119.604736 -110.346237 216.443771
2099.562256 -189.410599 217.056473
2157.108154 6.074341 166.175858
2100.208740 -130.054596 320.230865
2075.406494 -167.830673 492.887665
2071.973877 -115.243050 445.973450
2147.066162 -150.783386 35.509621
2085.220459 -259.895325 122.001427
2162.356201 -76.225952 533.211975
2113.909912 -48.839222 338.033783
2115.299561 -162.442139 538.301941
2250.625977 100.787773 405.695374
2121.908691 13.813679 461.664734
2296.443359 -170.086121 562.149292
2113.828369 -103.123222 230.031479
2106.579346 -139.143600 529.658020
2085.721680 -72.798447 483.588928
2112.833740 -134.997849 239.459045
2264.774658 -22.391411 566.595886
2236.172852 -95.568199 530.866638
2226.888428 -98.124321 539.189331
2133.456055 -63.221645 82.537933
2069.257080 -192.190079 498.261108
2259.134277 -70.999084 543.055725
2099.349365 1.143831 472.185425
2261.346436 43.308975 476.124512
2137.318604 -79.879448 233.089920
2135.403809 -101.032547 176.731827
2326.281006 -250.901199 561.786926
2078.335938 -178.240067 518.179199
2264.328125 -199.908051 561.770203
2080.149902 -210.108490 529.571899
2090.925293 -50.774902 457.373108
2108.890381 -39.944347 395.629761
2121.743652 -49.154839 235.772705
2097.356201 1.613398 475.436920
2291.490723 -30.475946 550.960205
2091.497559 -205.400574 286.087158
2188.012695 102.223000 429.757660
2086.616211 -255.657089 536.536987
2291.909668 43.068272 514.570557
2091.943115 -76.120331 524.423401
2127.644043 -37.738529 136.475525
2134.002686 -73.266251 213.231720
2060.924316 -263.171936 191.670502
2103.164551 -21.661196 514.573303
2120.306641 -109.984535 204.810089
2093.437256 -253.995346 106.188507
2073.743408 -241.794830 523.935120
2190.928467 -3.608353 527.183594
2292.002441 -94.688293 544.623901
2125.176758 -86.225609 205.844574
2118.527588 -114.231735 217.111740
2133.324463 17.167278 336.123291
2129.472168 -151.254730 149.468552
2141.159424 16.016788 375.035339
2121.969482 -35.327091 169.988831
2176.683838 10.660491 138.067856
2301.452637 -121.899330 548.552002
2326.846924 -208.328979 106.554634
2118.225586 19.426805 474.158234
2204.732666 -143.857986 542.458130
2138.697021 -9.524005 137.280273
2091.308350 -254.282059 532.345825
2194.110840 1.853141 439.482544
2166.136719 -99.991173 537.297791
2130.115479 -43.958599 151.462189
2102.867920 -76.931808 515.411316
2078.929932 -54.505676 480.971680
2207.840576 -20.915031 558.992737
2204.374023 76.564156 433.026855
2129.097412 -67.091438 129.970856
2209.139160 -19.663815 85.421196
2073.660889 -77.177536 476.843414
2095.936279 -189.060745 387.620483
2122.489746 -119.482796 135.245514
2268.939697 4.731210 509.154022
2154.556885 1.558563 503.346649
2200.222656 -8.507970 534.765503
2161.997803 0.483472 483.211304
2090.792236 -52.889523 420.650940
2121.134766 -16.804216 257.153015
2231.759521 -190.179489 548.380188
2077.196289 -54.014931 494.646423
2299.482666 3.037189 517.314819
2121.973389 -35.047729 173.613602
2145.991699 3.290971 149.405914
2197.502686 31.444025 128.255219
2121.298584 -82.973724 268.534363
2105.125000 -137.211365 530.453308
2097.851074 -173.240829 537.870178
2055.059814 -177.457962 517.374939
2131.900635 -16.712168 153.660889
2141.260010 6.932136 219.327759
2074.021973 -99.629761 448.630981
2106.422852 -210.786575 159.859070
2078.841309 -234.863007 247.176636
2161.423340 -108.057892 532.572266
2076.365234 -240.711227 241.363495
2117.014893 -67.803001 370.774078
2259.008301 -194.039291 549.288879
2210.861084 28.670887 431.275970
2119.100830 -92.446358 137.907013
2046.690186 -243.483810 542.249268
2141.426514 -118.908531 397.227905
2287.935791 -29.565607 566.617493
2085.176514 -27.749235 451.788666
2107.066162 -139.750076 130.097824
2254.157959 64.683411 480.540985
2231.781006 -228.739990 551.571594
2116.944580 -0.328571 317.310822
2056.292725 -188.137573 501.234680
2115.594727 12.893779 510.968201
2158.062744 -224.886215 549.536316
2106.776123 0.029216 521.941589
2099.656494 -12.825307 521.663757
2145.166992 10.062864 511.100647
2087.072510 -33.272480 470.445587
2235.389160 -157.160446 544.272156
2054.524170 -155.553986 435.359467
2096.662354 -47.900928 450.059082
2068.908447 -118.563576 524.676941
2321.534668 -157.037613 549.170715
2272.278320 45.277489 511.879120
2289.742920 -225.640747 554.920044
2189.479004 109.772881 414.658936
2101.440674 -154.027130 282.028564
2139.339355 18.359358 346.712830
2130.945801 -43.953178 224.727417
2086.716797 -91.458832 424.505859
2056.785400 -198.885254 457.158203
2136.292725 -73.641357 123.215309
2177.882324 -221.815659 552.011047
2118.545410 -5.728172 252.261948
2277.967529 -215.816238 556.154297
2101.968994 11.197601 490.214233
2118.066162 -9.951679 234.933701
2102.576172 -192.250412 253.037277
2089.330811 -235.762650 260.266907
2107.906494 -176.629715 170.757462
2110.037598 -111.554855 286.917877
2154.360352 -1.547669 384.940094
2125.151123 28.108166 324.218536
2098.432617 -1.613248 519.227173
2091.216064 -188.121246 398.469818
2064.310791 -186.895844 475.581085
2122.926270 -35.368492 312.799713
2145.152832 -7.925228 124.494469
2143.352051 12.824965 338.380249
2304.599854 -34.048058 549.435791
2218.481689 51.704411 427.697449
2118.873291 -96.615234 260.321533
2119.733887 -17.557190 248.611633
2162.747803 22.742651 411.922729
2191.218750 102.306671 394.767303
2074.397705 -237.413376 332.871613
2255.708740 78.523468 514.303528
2112.858154 -39.128277 357.061005
2130.361816 -17.633698 195.404617
2144.145508 -19.952509 117.608727
2085.641357 -205.632523 275.346649
2198.324707 -100.788795 527.347290
2054.160400 -152.036072 441.646301
2091.355469 -213.404984 184.349350
2092.814697 -206.272171 228.857697
2120.597656 -25.512253 308.839874
2053.623047 -236.449982 515.053711
2075.552490 -63.333767 462.415405
2064.080078 -158.242416 468.865723
2223.935791 -235.506088 552.661560
2114.508301 -27.055954 335.315155
2321.734619 -98.306190 550.861267
2062.937988 -156.507584 475.072998
2074.593750 -246.298828 361.044098
2206.991211 15.973556 211.960373
2077.225830 -208.984909 364.387573
2186.728027 17.812952 422.463409
2063.233887 -198.672379 491.043274
2123.120117 -144.410355 94.072372
2129.107422 17.524876 448.094574
2278.642822 -57.053432 555.303223
2165.121826 -136.198395 544.340332
2092.812988 -191.115555 133.848389
2091.558350 -5.987335 506.990479
2194.650635 -57.454971 534.232910
2242.468750 20.197515 479.985687
2088.867920 -120.252174 522.435364
2070.063721 -173.393509 425.904388
2126.345703 -94.160187 178.533340
2110.286865 -105.363243 248.525421
2098.189209 -164.639832 220.626389
2271.764893 41.658428 503.200928
2087.572998 -69.724037 405.292145
2065.135742 -162.150345 468.417938
2235.385010 -14.486578 544.094849
2067.851807 -141.919159 473.565308
2100.878906 -221.691788 106.035240
2070.397217 -129.818909 485.030426
2109.435059 -109.049484 252.777237
2113.116943 -59.704895 349.739563
2130.881348 -69.418686 323.386627
2279.832520 55.685753 502.872437
2263.332275 53.146572 485.868774
2147.486816 29.736357 254.516434
2063.504150 -185.934784 509.613922
2104.924805 -115.993515 303.086853
2128.323730 -203.378601 535.196960
2103.941895 -30.150007 527.193115
2088.882813 -210.257019 379.316925
2137.882080 11.722471 191.663315
2315.292725 -20.100172 529.848206
2073.653809 -131.529816 467.443878
2176.767334 -37.299381 539.419739
2130.748047 -62.749157 195.577927
2094.748047 -202.557739 214.286575
2123.017822 -80.282043 251.361389
2125.998047 -85.938988 197.840485
2166.593018 25.342772 192.084976
2303.021240 -86.401497 539.013977
2079.411377 -109.014885 530.159424
2111.539063 -76.553986 526.454529
2159.069336 14.261404 414.884308
2135.274170 7.307121 428.059601
2146.256836 20.986286 303.519043
2176.166260 -19.685722 552.134827
2123.045898 5.034233 486.769623
2062.767822 -228.057495 505.133453
2087.447998 -221.506287 302.293030
2105.188721 -148.302902 532.959534
