ply
format ascii 1.0
element vertex 1366
property float x
property float y
property float z
end_header
899.145325 1195.262939 1646.184937
778.320984 1220.331543 1580.783936
722.219971 1317.914795 1567.083130
822.707153 1484.569580 1335.354126
981.323486 1283.865845 1380.472778
934.657654 1264.801514 1416.680298
994.545410 1276.145996 1347.756226
862.751343 1132.316528 1585.148438
805.526611 1192.763306 1563.614746
738.461853 1327.469604 1676.944702
851.450500 1175.062744 1559.608154
881.435791 1505.176392 1254.611938
751.119568 1344.615601 1679.846069
943.312317 1183.327393 1492.216309
794.906311 1363.666870 1730.712158
822.224243 1272.874512 1490.873901
847.156311 1313.640015 1460.887573
767.092041 1428.365479 1465.032959
724.355164 1265.542725 1592.710327
823.863220 1261.308472 1650.803223
901.879272 1214.357544 1654.648926
902.055908 1285.877686 1710.798340
862.309387 1464.044189 1277.652832
771.137329 1362.666382 1692.966431
798.698181 1276.197021 1509.426392
869.194214 1280.512939 1464.255737
995.002502 1248.817383 1389.115723
757.049744 1395.990723 1466.896851
810.276611 1382.370728 1739.923096
912.890442 1138.705933 1565.356445
870.331604 1387.989014 1369.623779
890.113525 1170.141602 1619.374756
761.113281 1377.703125 1480.485596
989.584595 1235.435791 1361.741821
729.753967 1382.475952 1552.329956
700.590454 1454.373047 1671.392334
755.368469 1432.821655 1456.819458
1034.831299 1292.521240 1285.901855
949.027771 1233.014893 1425.218872
870.396912 1381.460571 1375.728516
737.889771 1396.604858 1549.330811
997.960510 1369.933594 1268.520264
740.465698 1264.274170 1582.424561
915.692749 1409.655762 1336.026611
799.365845 1388.169556 1423.717407
813.764771 1305.812988 1664.470337
893.438354 1389.662842 1350.482300
804.138367 1417.320923 1734.250122
925.195251 1442.321411 1274.234131
1023.504089 1240.476807 1780.538086
773.084351 1420.809448 1461.097412
918.109131 1383.528931 1324.058838
855.029907 1429.223389 1332.887207
765.625427 1413.777344 1478.637085
723.815735 1320.673828 1625.601440
894.629883 1224.939697 1478.872559
748.627563 1311.634277 1530.234619
788.647156 1381.743652 1451.599731
776.469727 1220.448486 1592.175903
971.596497 1408.259155 1262.640869
791.093445 1244.028687 1520.225708
902.796875 1136.457886 1582.946655
749.110535 1256.129761 1582.845947
879.972839 1126.488281 1581.740601
822.623657 1237.643311 1511.236572
930.249573 1178.262939 1645.538696
806.792908 1526.877319 1325.543213
875.220764 1204.661621 1506.354004
870.417542 1462.724609 1298.487183
949.788452 1297.595459 1388.238159
764.749451 1286.674072 1621.979248
888.364746 1556.057251 1297.391846
856.103760 1378.561646 1751.459473
896.404297 1321.060425 1409.471313
715.562988 1455.808960 1669.367432
952.296448 1246.424194 1415.558960
870.587341 1265.580200 1668.591064
833.247986 1407.570435 1373.685303
672.596191 1462.058228 1535.094849
950.422302 1325.965576 1381.727783
827.045715 1518.858643 1362.475220
928.115417 1329.964966 1363.418945
918.278564 1245.258179 1470.863159
973.208374 1246.017456 1703.807129
755.600037 1376.945923 1636.084229
879.962463 1261.928467 1673.640015
772.407837 1216.101318 1601.387817
805.659180 1477.596802 1376.396240
744.676208 1237.877930 1593.290771
857.832581 1318.642700 1447.023438
763.173401 1400.978638 1467.173706
888.477661 1274.736084 1532.940430
744.169983 1324.468994 1526.433105
760.409241 1410.392822 1643.521118
653.967224 1471.787354 1543.726196
674.475769 1474.644409 1572.889893
954.913025 1227.832153 1426.616821
817.849731 1277.270386 1488.658081
792.785645 1330.085571 1665.883423
761.453186 1367.684692 1603.058594
731.609680 1361.435425 1699.319214
728.060608 1337.547974 1560.174561
954.622803 1338.427734 1746.368896
682.786682 1459.450562 1523.709961
1027.200439 1296.264648 1326.332642
819.956177 1494.096191 1377.232910
870.686951 1227.540527 1632.592651
807.670105 1232.878296 1611.145752
795.429932 1211.583008 1584.891602
821.342407 1211.079712 1608.904175
775.299072 1403.662476 1508.495361
895.352600 1324.691528 1416.256348
783.778870 1408.338379 1425.697021
756.251038 1242.393921 1566.628296
961.873108 1242.893677 1410.971558
725.490662 1287.642456 1556.852295
749.989624 1309.208862 1648.180664
978.326172 1276.804077 1378.508667
734.440186 1302.024780 1566.867188
999.044434 1526.701294 1315.083008
760.520813 1434.583740 1543.868530
832.773132 1348.162964 1458.423706
784.170593 1433.607910 1690.452026
927.409302 1232.354370 1443.526001
830.268860 1415.319458 1378.050659
835.193237 1339.070801 1451.158569
820.478027 1410.969238 1379.659668
772.166870 1354.998047 1473.195313
929.019226 1177.221924 1496.105713
800.554321 1314.606445 1657.923584
902.704651 1245.072998 1673.062256
890.772766 1413.430298 1334.045410
846.032959 1309.674438 1686.145142
738.187500 1445.966919 1611.453003
914.797607 1365.461304 1372.315552
837.616760 1518.613403 1293.093872
769.113281 1424.262207 1677.254761
742.721924 1422.515625 1660.077393
828.286743 1349.249268 1698.233643
947.813965 1255.596436 1409.998169
778.540161 1384.620972 1450.934204
896.225830 1164.361450 1531.060059
977.887390 1404.865112 1298.135620
985.064392 1268.091797 1364.245605
930.807983 1250.180786 1435.841553
775.272888 1389.381104 1441.864258
669.359680 1434.842163 1553.115112
866.222412 1279.591797 1484.741089
846.756836 1442.915161 1340.885376
974.684937 1436.426514 1273.769287
787.724426 1418.967773 1407.956665
839.434143 1362.055786 1426.659424
790.637451 1196.608276 1597.843140
805.446960 1254.520386 1524.028931
864.696350 1452.194824 1296.652710
816.836609 1294.848389 1655.917480
890.415833 1349.023438 1731.133789
850.027893 1541.834839 1396.425415
732.389038 1336.027710 1547.183105
977.636108 1252.556152 1720.909180
944.618530 1341.025269 1366.840820
771.858093 1269.501831 1526.244019
921.558289 1181.258057 1462.150879
822.543396 1173.815308 1594.916016
842.582642 1238.843994 1511.039551
863.956909 1307.932251 1516.749023
757.377625 1284.994629 1539.649170
833.517456 1247.950806 1509.219849
688.695862 1464.149902 1579.682617
935.864746 1331.765869 1354.187500
796.905151 1323.650757 1681.337402
994.206360 1351.557983 1270.351807
803.843384 1192.504395 1563.385986
964.582886 1284.636108 1405.920044
865.091858 1261.284180 1650.775757
848.816284 1279.922607 1662.208862
860.519897 1214.917847 1499.878296
831.852417 1311.687988 1676.318237
888.327515 1351.719116 1722.309448
832.162781 1171.077637 1582.981567
735.391724 1439.274658 1652.956787
771.961243 1239.242188 1548.396851
918.207458 1140.301514 1599.536499
901.193237 1219.480835 1479.647095
944.143188 1347.209106 1347.901978
721.303772 1306.923340 1557.687622
768.393616 1376.291870 1603.190063
718.304016 1436.953491 1569.609741
746.688904 1253.682495 1564.538086
926.536865 1269.319458 1715.995239
874.099487 1555.350708 1308.232788
858.106079 1304.390503 1672.992310
853.365601 1276.103149 1489.666626
763.931946 1385.778687 1578.269043
691.245605 1431.737183 1552.839111
738.212524 1383.055420 1567.580566
800.920288 1431.088867 1377.181152
804.478821 1404.546387 1698.708496
939.085083 1168.635376 1644.258179
950.559631 1266.310181 1409.149292
829.120422 1457.941040 1343.319824
755.638062 1240.455078 1578.006470
932.064819 1449.201538 1258.951172
782.597717 1442.529419 1415.825806
896.233765 1243.347656 1680.787231
993.499634 1295.268311 1366.790649
962.672180 1325.598022 1345.840088
825.608215 1228.045166 1530.453003
886.805054 1170.319946 1526.124390
811.091492 1294.438965 1501.131226
700.415894 1317.100708 1616.614746
731.774658 1338.918457 1533.236450
1035.088989 1268.538208 1757.849243
807.837219 1462.362549 1442.054443
844.645630 1270.798584 1475.030518
865.221130 1254.900757 1670.468018
884.598022 1222.930542 1660.596313
751.276245 1303.304321 1636.658447
783.432800 1419.716431 1606.936401
824.134033 1351.284546 1694.307007
879.122620 1315.200928 1484.580933
844.875305 1431.325806 1339.867798
856.405457 1336.494019 1708.287109
941.362488 1197.820801 1658.805542
816.006409 1340.913330 1473.827271
880.818665 1158.227539 1608.896729
970.707947 1188.475708 1678.977539
947.322021 1343.683716 1348.879517
946.945740 1267.867065 1407.384033
810.424072 1508.643921 1342.072144
764.274109 1394.680786 1438.989136
938.428955 1283.345947 1730.009399
946.396057 1200.566040 1670.606323
901.431580 1299.925537 1423.540405
843.048523 1566.571045 1348.359253
812.441345 1486.502319 1343.530640
820.739380 1237.008667 1519.454102
712.963318 1468.000977 1593.352539
793.340271 1415.863037 1394.369873
759.327515 1425.151611 1626.205566
842.809692 1505.229614 1301.832397
764.211365 1324.315796 1502.514648
883.113525 1165.334473 1613.134277
1040.312988 1586.326416 1381.354980
726.627014 1446.780396 1669.546997
755.262634 1367.567383 1546.158325
965.401184 1208.555908 1683.482788
913.596375 1292.563110 1420.237427
749.658325 1354.400635 1576.020508
741.645874 1271.186401 1556.737915
771.824158 1353.879150 1474.190308
1014.174927 1384.828003 1309.949707
990.576416 1217.638184 1712.136597
856.237915 1196.243652 1624.219360
756.546265 1361.712524 1622.766968
702.821838 1452.579102 1579.078003
750.672058 1355.507813 1486.935181
867.615234 1383.650513 1381.033691
772.047729 1432.078491 1596.578125
767.237854 1318.313354 1494.251465
989.556946 1394.168823 1278.439453
902.684387 1419.903442 1302.419678
910.053040 1265.098633 1458.667969
793.283875 1390.914551 1431.188232
828.841370 1184.832520 1563.579712
823.408752 1488.276733 1423.610962
893.108093 1153.323120 1546.735962
864.482788 1435.887451 1320.608643
908.174072 1267.774902 1695.088135
865.907654 1375.785156 1389.826050
765.949036 1445.226685 1694.450439
871.526306 1376.989502 1739.228760
853.155823 1409.565918 1358.500122
841.510132 1311.738892 1681.174194
875.756104 1209.380249 1636.400269
1038.890381 1313.503540 1278.955200
909.199707 1314.262573 1718.349609
874.945068 1136.190308 1592.978027
854.735962 1229.913818 1643.640625
750.688660 1363.968140 1673.690552
827.438538 1249.700684 1641.356079
795.792603 1201.431396 1562.528564
762.096375 1376.358276 1460.413086
856.880005 1384.397949 1388.201416
833.182861 1218.129883 1523.843262
760.381042 1355.513916 1661.019409
829.584534 1524.594971 1344.883911
702.722107 1433.653687 1539.497192
959.634583 1253.088257 1392.176758
808.270264 1217.706177 1543.104248
1006.751526 1246.430786 1741.992065
951.594177 1195.166382 1465.697998
751.904419 1417.928467 1463.057007
909.650513 1312.157715 1396.703491
907.870178 1207.268311 1653.300415
774.332214 1272.715088 1539.290527
745.489136 1291.161987 1536.118286
831.017212 1206.038330 1552.836426
771.649231 1404.382690 1662.213013
719.256958 1464.405640 1555.473877
788.083801 1246.142700 1628.338013
913.741211 1150.269043 1511.577148
986.259094 1449.493774 1263.882324
918.041504 1235.250610 1479.942749
765.240234 1374.177124 1556.038940
739.571228 1443.603516 1669.280884
815.930481 1463.210083 1352.232666
821.632019 1420.669678 1359.631836
920.484680 1355.074707 1765.509766
989.180237 1244.891113 1721.586060
819.361877 1515.184937 1445.461548
881.690674 1387.593872 1353.539917
836.750000 1312.745361 1667.443604
772.270325 1346.221191 1482.660889
859.133240 1466.995850 1312.599976
860.896973 1142.014160 1581.241821
764.716003 1354.777588 1695.051270
852.341919 1356.195923 1724.767456
838.441040 1435.996094 1340.651489
862.143738 1306.298828 1456.922607
889.098572 1331.870361 1399.934570
784.968750 1366.905518 1453.594238
743.055298 1355.713257 1628.090210
833.526550 1345.409058 1437.119873
755.592773 1344.360596 1711.520630
770.711426 1381.790039 1462.305664
826.535583 1503.006592 1303.820190
750.855896 1285.906494 1534.368042
874.025940 1321.680420 1429.354004
951.766418 1323.116821 1748.580566
944.129211 1315.264038 1371.891968
803.869568 1209.154541 1583.123413
792.611755 1202.915039 1576.114380
765.827148 1373.650391 1690.851563
944.297974 1209.647095 1371.748779
829.095154 1503.036987 1310.897827
871.956238 1209.714844 1507.180298
786.000671 1323.783936 1491.789429
727.405090 1351.830933 1549.608643
766.577454 1358.795898 1709.494751
998.845947 1231.817139 1714.378052
877.973328 1370.381470 1392.849854
865.565796 1400.992554 1391.589478
893.935974 1560.320557 1294.403198
794.757080 1189.355225 1576.322998
966.936035 1275.724976 1355.873047
726.716064 1461.291138 1581.750244
749.493591 1335.009766 1504.496582
950.279419 1236.046631 1689.152832
885.460449 1390.538818 1359.041260
815.236633 1365.308594 1725.200439
744.258850 1342.652466 1663.185303
829.885803 1560.154053 1328.842041
874.749146 1182.379761 1525.022461
804.943115 1529.074585 1334.054810
995.895508 1487.898804 1292.990479
730.772461 1333.141846 1589.296021
849.679810 1238.322388 1639.198364
910.489380 1299.737305 1412.916992
754.686340 1410.706299 1662.035400
1029.841675 1329.693359 1273.363037
953.000610 1506.544312 1279.863159
898.511597 1208.982300 1490.314331
828.468506 1277.294189 1485.080322
835.375549 1478.671753 1330.350464
777.975769 1416.646362 1456.998413
956.537659 1301.076294 1739.308105
737.659851 1445.160278 1641.623047
784.358704 1289.710205 1640.097046
725.923523 1292.265503 1599.050659
864.388367 1261.358765 1662.734131
692.215942 1453.830933 1564.373657
930.653259 1159.417480 1532.263428
843.214478 1188.621460 1605.784180
842.266357 1140.636841 1593.381958
803.948547 1448.982788 1379.508545
782.899109 1389.056396 1667.142822
851.911804 1232.742432 1651.267090
767.711853 1294.572388 1520.973755
748.913269 1404.625854 1525.935791
768.166016 1417.625610 1663.322144
902.265930 1340.410645 1736.167725
907.780029 1144.144409 1552.216309
749.160645 1236.733276 1574.046387
923.208252 1298.327148 1716.421021
819.416809 1350.411743 1453.468872
791.726746 1196.853149 1572.089233
955.221191 1195.673584 1421.905762
807.352173 1232.575684 1618.762207
837.349060 1201.504761 1534.945679
1043.482544 1304.776367 1263.036865
733.562622 1327.740967 1527.492798
923.481934 1301.595459 1733.498657
842.687317 1357.082520 1455.975464
757.114380 1249.984619 1577.984863
921.919922 1356.689819 1351.721436
809.706116 1422.879883 1374.515503
740.401672 1260.786865 1589.883911
969.223328 1301.702393 1354.953613
738.138123 1424.656616 1532.682861
782.395691 1234.332520 1606.510254
832.386536 1258.631958 1641.819580
893.100708 1192.423584 1645.764771
924.048889 1292.421997 1718.300415
910.859558 1154.207153 1529.858521
955.771973 1327.614258 1353.410645
911.272705 1240.510132 1483.218384
859.352539 1318.505493 1697.981323
771.333496 1428.275757 1397.229004
758.695435 1458.109131 1701.895264
772.503845 1394.491699 1505.711304
1037.030396 1278.552124 1773.744873
838.741882 1217.058594 1515.787476
881.447021 1358.994141 1380.933838
904.507324 1140.240723 1534.747925
812.577087 1322.682251 1503.423096
886.004517 1155.537231 1545.909302
1033.120361 1312.926392 1275.779907
898.638489 1388.587036 1350.290527
755.252136 1296.928711 1532.987183
878.719604 1131.122925 1545.297974
867.285278 1472.269897 1279.177979
777.826172 1213.168701 1581.028076
855.564026 1184.403931 1520.646606
981.395508 1234.534790 1367.882202
807.305115 1263.790039 1638.882202
948.164917 1232.327148 1447.819336
706.008179 1304.633545 1584.809937
940.252075 1262.541748 1416.914185
969.838928 1209.014893 1412.922974
751.594543 1339.078491 1494.529663
987.906677 1309.071777 1322.411377
846.215088 1506.288086 1290.515869
867.173279 1230.068848 1500.126831
904.426636 1293.234253 1434.826782
719.920166 1314.200317 1617.906738
1009.396729 1293.897583 1758.243286
997.111755 1324.636353 1309.417969
852.562378 1461.930542 1304.088379
743.376465 1281.952148 1543.727173
974.232544 1460.559814 1264.295288
810.742737 1265.406738 1646.161499
981.280945 1377.989136 1292.361206
821.642578 1342.984863 1449.589966
775.611023 1348.942871 1480.031982
860.959900 1440.690674 1313.454712
985.413696 1396.531494 1248.243896
741.475098 1277.480957 1602.849487
734.497314 1340.526367 1516.288940
945.884094 1177.727173 1650.777832
866.971680 1469.171875 1299.567139
878.310547 1390.165649 1748.069458
796.250061 1307.113647 1656.580322
757.386047 1424.051758 1647.771851
767.929749 1378.119263 1486.559814
958.322266 1392.914917 1318.146973
891.611450 1490.053955 1244.500244
920.611084 1152.558105 1516.738281
982.093445 1225.121582 1372.838623
722.892944 1326.258545 1563.829834
755.594482 1363.977417 1614.516724
766.138245 1443.792236 1447.153809
771.299377 1397.900024 1435.437012
748.512329 1305.052002 1639.973022
934.663208 1160.848633 1530.001953
848.600403 1339.619263 1433.104248
732.524292 1422.321655 1542.746948
732.801880 1339.399170 1522.941650
757.272766 1251.322876 1556.063354
951.184082 1282.848511 1727.292480
753.898132 1349.081909 1486.274780
666.433289 1472.978149 1559.755371
859.862183 1493.606689 1290.250000
992.863403 1275.228394 1729.523438
860.560181 1446.885620 1305.078247
743.057739 1322.660278 1522.269287
815.780029 1339.012451 1685.741943
983.925781 1245.185669 1389.188110
714.414490 1327.618042 1575.892334
961.333801 1241.424072 1706.976318
894.629211 1315.440063 1415.888306
723.621155 1309.130005 1555.382813
739.222961 1243.849365 1585.123291
830.004089 1552.685059 1349.112915
944.720520 1310.776855 1751.017944
800.863037 1399.541260 1403.570068
913.420959 1152.191406 1552.921021
856.892883 1224.226685 1634.335327
824.655762 1419.350220 1761.995239
784.300232 1430.054321 1615.342529
837.822510 1513.546631 1395.316895
821.309814 1342.475708 1494.538086
708.866821 1303.076050 1564.498535
880.490112 1300.280396 1445.301025
888.005981 1151.362061 1562.545532
824.846802 1262.159668 1639.791992
1020.428223 1275.466187 1346.708740
797.288269 1255.092163 1513.672241
740.565857 1459.854980 1688.324097
853.757568 1538.187988 1405.138062
905.281799 1347.841797 1369.621704
848.374573 1357.596191 1726.653320
760.416321 1393.100342 1453.929443
773.351929 1390.838623 1492.682861
971.291382 1219.277344 1441.456421
816.767456 1366.902954 1430.000000
857.764893 1147.545654 1569.721069
767.637512 1287.683716 1518.658691
902.769836 1223.394409 1476.778687
920.806946 1370.959351 1758.346436
870.897400 1133.469116 1575.651001
730.904053 1310.472412 1543.474487
741.820313 1378.621216 1540.703491
966.375061 1210.887573 1398.841187
859.735229 1532.056763 1301.240479
885.932861 1232.384644 1487.053345
889.799194 1224.886597 1498.340576
887.520386 1181.117432 1631.689453
857.970032 1462.581543 1284.365479
949.665344 1404.632446 1291.370361
1019.220215 1562.059570 1354.043457
920.592529 1145.907593 1542.331787
742.896851 1341.576294 1516.835449
719.388977 1314.691772 1670.497925
928.317993 1349.618042 1739.963379
777.608093 1425.322266 1471.972168
788.641418 1381.913818 1429.481567
817.350098 1215.341309 1532.873901
842.999146 1232.143799 1501.061890
752.333862 1438.027832 1582.514282
744.020142 1315.600464 1660.291626
780.209900 1358.643555 1708.467163
799.129395 1385.593750 1728.325684
831.325562 1320.731934 1682.317017
892.784363 1274.595947 1467.843872
925.499146 1246.821411 1689.710571
787.154541 1232.463989 1594.220825
951.386047 1271.367432 1394.180054
836.020325 1370.364868 1412.154297
774.417053 1239.816895 1595.421387
817.854797 1505.189209 1346.906250
852.713135 1204.081177 1514.048706
814.203552 1505.304199 1353.118042
727.298462 1281.149292 1583.039185
886.610474 1150.248779 1608.281372
780.225952 1271.338867 1523.720093
830.176514 1536.032104 1361.915039
711.817078 1294.861694 1566.264893
808.874329 1395.745605 1754.348389
803.678711 1280.477905 1645.953491
957.891113 1207.730103 1446.032471
753.653198 1453.992310 1694.477173
925.891052 1195.871948 1665.039185
691.234985 1453.025391 1534.373413
792.069214 1443.767822 1383.272461
855.475891 1327.588135 1435.087280
924.878601 1291.776855 1417.610962
760.865540 1313.975708 1509.470093
723.273682 1283.301636 1583.567749
949.066895 1420.740234 1268.374878
810.314331 1305.576782 1661.958008
859.945618 1331.768311 1434.451660
760.791626 1313.258667 1649.628906
757.563477 1303.337891 1638.558105
890.078979 1251.667358 1674.956421
961.894104 1249.980835 1395.064453
737.999756 1300.940796 1534.122681
902.904968 1352.256958 1371.821899
736.889587 1413.634277 1529.818848
878.411682 1401.015503 1355.823608
911.545837 1138.723022 1578.835815
928.762085 1270.017212 1706.288574
899.861694 1355.287598 1753.297974
692.174805 1300.449707 1601.474731
841.780457 1226.808228 1507.708496
937.762634 1263.145020 1692.040405
951.348083 1192.543091 1652.766235
825.552734 1406.407837 1763.245728
737.731384 1329.894409 1671.688843
725.738159 1281.901978 1564.062744
912.361694 1476.116333 1247.120972
780.471924 1405.545410 1431.241455
748.325562 1437.517700 1629.387695
909.747742 1222.105469 1660.696289
918.063110 1307.834473 1404.607910
758.344421 1261.784668 1548.516846
946.473145 1319.898193 1375.717529
779.034546 1409.944458 1661.438965
782.795715 1290.506958 1636.936157
964.731873 1301.219971 1739.359863
833.181519 1396.007690 1401.266968
785.280457 1360.890137 1720.522949
904.300476 1147.518433 1509.285278
756.566162 1273.610718 1553.587769
919.645508 1239.271362 1449.404297
800.350464 1194.490723 1575.566040
797.251648 1366.469971 1443.434570
779.803711 1214.634521 1576.727295
1018.896973 1361.686523 1259.740845
744.456909 1290.141602 1620.400269
875.574097 1122.827148 1591.041138
772.470947 1426.165771 1687.997192
790.842407 1431.095093 1698.828125
761.025879 1363.562256 1514.768311
765.665527 1386.577148 1553.339722
757.244263 1256.892700 1547.584595
924.902527 1319.881226 1731.369751
983.929321 1256.109497 1708.859375
933.966064 1175.429199 1458.697144
854.294495 1539.427979 1284.253906
849.814453 1466.629517 1304.628540
1003.903503 1329.199097 1288.063599
792.955688 1471.749146 1415.018311
736.257507 1405.978516 1540.565552
733.209534 1403.029175 1557.897461
786.177795 1368.838135 1446.068115
914.255127 1296.649658 1425.539551
711.085510 1305.270752 1575.863281
799.131104 1209.972900 1560.037354
785.233643 1206.186401 1564.612793
868.936462 1114.470825 1593.893921
869.517822 1370.064209 1734.150879
704.568054 1299.665283 1583.553467
757.055786 1344.425171 1498.467163
785.480774 1262.083984 1520.189453
752.672302 1261.692139 1548.041138
659.272095 1456.564331 1551.805908
748.139099 1363.857056 1550.772095
768.986023 1312.093628 1505.141602
864.905762 1217.908569 1501.678467
766.149841 1423.161499 1469.254761
846.342407 1248.760498 1644.798706
843.909302 1445.519409 1321.940063
692.418091 1459.620850 1520.010254
982.834167 1225.543579 1378.496948
852.731567 1196.172607 1525.399292
1034.803345 1296.293701 1286.944580
780.642334 1376.486694 1447.705688
760.585754 1464.585693 1703.640747
777.996704 1240.732178 1549.267090
911.029663 1367.079468 1353.769653
786.695801 1228.386230 1566.811279
829.426636 1327.171875 1470.503296
778.944641 1239.857300 1585.973145
917.753784 1418.237915 1303.670898
743.826965 1302.546143 1527.996582
886.488647 1165.868896 1534.134277
968.097107 1283.952881 1368.648804
772.372742 1400.655396 1489.558228
1004.311829 1378.684204 1257.722534
773.246033 1423.329102 1576.083130
868.427734 1309.733398 1447.705811
894.385864 1311.671387 1713.224121
882.630371 1217.568970 1500.750854
821.133667 1201.182495 1576.554443
835.663269 1464.721802 1345.650269
780.018799 1413.718018 1652.224243
1017.992188 1264.310303 1340.309937
904.082153 1216.043579 1657.005981
946.525574 1227.221069 1687.987549
722.270630 1455.653442 1638.342529
733.936523 1402.856689 1553.605225
736.873657 1302.273071 1630.201172
900.363708 1378.666748 1370.987061
793.805420 1359.456787 1453.125977
762.179260 1258.927490 1597.042969
1032.269653 1293.347290 1258.140381
802.185669 1466.804077 1364.006348
784.063782 1390.537476 1427.036743
1024.658569 1259.498901 1744.910645
742.431824 1359.091431 1613.918701
802.630615 1181.342407 1584.158447
895.418945 1145.400391 1597.460938
773.633118 1413.394897 1494.024902
1015.236267 1386.855835 1247.858643
838.051697 1538.828735 1305.779419
769.415588 1371.982544 1711.469727
779.148254 1292.322754 1510.688354
863.591980 1178.220581 1610.465576
807.627686 1420.483154 1715.229614
826.947937 1187.792847 1547.880371
899.884399 1143.202148 1610.798584
800.715820 1291.186890 1507.540894
837.190857 1170.488159 1555.647827
982.380066 1557.536133 1325.065918
706.922546 1449.076660 1668.361938
860.082092 1393.963135 1368.230591
817.555603 1448.644165 1617.430298
742.796875 1361.716553 1678.824585
740.827209 1342.565918 1523.643066
836.649292 1325.407959 1480.703491
783.940674 1395.761841 1634.765259
823.701721 1456.299438 1360.426392
827.656738 1325.288086 1682.529663
865.009399 1351.373413 1732.411011
965.235046 1277.405396 1741.612549
1006.347900 1270.326538 1745.804321
775.134155 1418.294189 1421.900757
910.714783 1152.779541 1550.759766
833.942383 1390.738892 1393.346802
794.610413 1253.603271 1541.568604
937.272461 1337.075562 1353.729492
759.061523 1367.778564 1535.809814
798.904907 1407.780151 1600.975342
808.992493 1338.720947 1468.769409
793.045105 1396.489380 1721.518066
849.783264 1175.417114 1554.240601
753.567871 1268.456055 1546.451050
847.598022 1200.096924 1621.860107
829.898254 1203.039673 1606.423096
761.173889 1281.222900 1615.796143
794.639893 1412.568237 1385.316406
916.856079 1350.372681 1361.453735
713.268616 1312.550171 1568.434082
718.491760 1304.449829 1563.226074
805.948486 1234.959229 1529.882080
855.535217 1220.688965 1638.971924
787.804321 1470.633301 1396.591431
781.530029 1387.927490 1440.140015
852.006104 1355.758423 1420.911133
890.223083 1135.946899 1578.427246
878.227783 1476.820801 1261.780762
835.055847 1384.538086 1397.790894
905.086426 1121.179321 1615.801392
818.990723 1478.497803 1325.409302
760.009033 1312.987915 1653.786987
791.809631 1434.700928 1394.352661
933.589966 1179.376587 1651.074219
762.989868 1458.200195 1466.292725
870.700562 1515.891724 1273.765625
753.137512 1406.971191 1570.075562
748.696594 1377.915649 1541.382446
916.337463 1420.577393 1318.868042
807.001648 1364.687866 1444.319702
984.685974 1321.741455 1339.021851
894.575745 1271.524292 1681.319702
961.617615 1271.795654 1385.471436
985.978699 1407.032593 1244.117310
880.945251 1174.673340 1524.085449
828.068970 1164.551392 1600.441162
914.359070 1266.227051 1444.199707
781.944885 1414.995361 1460.436523
772.890564 1397.420776 1568.758179
784.685608 1445.771851 1451.563110
930.668884 1300.712769 1409.101196
704.898560 1453.801880 1552.283325
832.747070 1348.172852 1455.078857
1030.349731 1291.979736 1299.074951
780.764771 1306.469604 1499.612915
683.034729 1438.590820 1548.155762
716.588684 1288.906494 1565.385986
920.854614 1363.295532 1354.277344
659.779785 1463.629150 1554.033447
902.064087 1181.350586 1507.944824
818.297791 1402.631348 1747.073364
781.912109 1430.221924 1475.767456
829.076355 1201.389038 1541.437378
1133.323242 1528.917236 1395.072754
756.217834 1260.920654 1589.602417
899.993835 1173.910034 1520.706909
960.575867 1366.415527 1310.134644
800.618591 1399.543945 1400.023682
794.293152 1431.930054 1411.047363
981.118774 1353.459839 1288.510986
764.841980 1324.878540 1505.165894
837.581482 1351.622681 1439.668091
898.404419 1299.399414 1692.415283
970.131287 1406.360352 1278.850708
804.840027 1290.760132 1501.045532
836.467163 1195.493530 1608.766724
755.578430 1313.381348 1508.090332
825.246704 1481.184204 1366.484619
739.593079 1315.466919 1658.957886
821.742371 1195.263062 1597.645752
743.806458 1304.503418 1528.444702
731.186096 1440.306030 1637.390625
834.017395 1289.864746 1662.340332
769.744019 1233.001587 1584.093384
714.738708 1422.684692 1545.345337
908.081848 1137.789795 1558.508789
775.083191 1290.567749 1513.235962
725.251587 1276.854614 1568.620972
718.712158 1286.375854 1588.186768
805.176941 1406.679443 1389.029419
901.882690 1184.161133 1505.347656
782.715271 1231.938965 1555.274536
713.557190 1325.735352 1638.456665
736.882629 1367.307861 1566.078857
781.556824 1398.522461 1488.962280
802.141541 1263.881226 1506.397461
857.584900 1360.954346 1734.792603
917.847107 1264.005981 1698.554688
778.818909 1388.341431 1431.114868
909.021484 1406.077026 1340.466797
900.860229 1457.125366 1292.164429
846.935486 1326.192505 1452.662231
769.735718 1397.973022 1634.518921
973.227722 1188.830322 1688.490723
804.725098 1481.236206 1515.445068
670.164795 1464.820923 1534.908691
777.718933 1363.164551 1707.864624
797.128662 1236.992676 1535.493774
803.800293 1363.770020 1721.147339
713.566895 1300.747070 1560.589600
694.468079 1452.673096 1564.554932
820.973999 1250.289185 1636.046875
859.805176 1498.201538 1272.220703
918.867920 1247.668213 1457.224487
811.874573 1453.138916 1393.700806
803.192078 1364.331299 1719.150757
909.524963 1314.774780 1411.551514
849.900024 1458.935913 1307.306641
844.250183 1390.254517 1384.802979
710.514526 1461.842651 1553.911011
897.453735 1313.506348 1700.432129
760.286560 1281.821899 1611.376831
733.519653 1283.604614 1592.187744
1041.372559 1317.340698 1267.635864
813.977966 1394.310303 1744.887329
828.673950 1280.270630 1653.293335
905.194580 1293.380127 1704.258789
1018.352417 1327.375122 1316.974854
785.388184 1418.720825 1576.224243
840.247009 1221.105225 1628.993652
1023.478943 1236.965210 1750.156860
920.519470 1296.786499 1421.542358
954.969116 1305.178467 1365.345337
858.241272 1178.148560 1537.065674
726.665161 1433.260742 1668.277344
910.230591 1390.010620 1348.688965
702.805359 1319.301147 1588.984375
827.262573 1409.078857 1373.567993
961.962280 1204.893433 1435.387207
903.051331 1129.664063 1575.085693
811.014587 1423.149780 1393.889282
700.927551 1285.085571 1601.930908
934.540527 1402.858154 1319.119019
895.919250 1352.354004 1386.759033
769.015869 1247.312012 1605.986694
785.062683 1441.233398 1387.578247
766.963806 1393.570923 1551.240479
755.090332 1391.861694 1493.205322
875.447449 1220.685425 1502.667969
892.624695 1157.411011 1616.383179
782.779602 1381.524536 1434.739014
871.896362 1231.853760 1653.214478
780.059204 1257.637329 1534.305908
983.538513 1269.624023 1357.447266
801.926575 1350.407471 1479.344604
1005.088928 1294.790771 1322.924438
942.231995 1240.144287 1420.670654
776.302551 1416.860840 1501.962158
745.536926 1338.820923 1678.175415
768.554504 1373.212769 1475.015381
705.830017 1456.146240 1643.861816
760.808777 1258.843262 1548.763794
733.637329 1305.242065 1637.078369
797.772583 1364.878540 1730.019531
928.801270 1231.248657 1451.077515
777.884766 1297.567383 1633.585327
811.662598 1488.718140 1384.548218
740.300842 1367.053833 1627.186401
851.928589 1471.757324 1326.620483
911.670959 1365.783691 1767.447632
890.535583 1331.703125 1406.148315
987.890503 1327.105103 1314.657471
807.267944 1302.356567 1493.882568
772.813477 1241.688965 1550.866943
826.157349 1241.734131 1497.731812
869.338623 1305.999756 1695.602539
919.059326 1428.652832 1290.416748
700.409424 1416.296753 1558.419678
958.686096 1201.435669 1430.380249
912.914063 1140.970093 1533.364868
707.044312 1311.741821 1587.282227
909.976990 1140.529175 1540.825562
890.123108 1139.354126 1563.362427
749.230408 1324.122803 1510.937378
935.456360 1334.195923 1747.018433
854.350708 1260.488281 1656.598511
909.600281 1194.548584 1496.968872
726.005859 1305.414795 1638.775879
970.557251 1411.587891 1290.924438
729.950256 1329.876709 1534.882446
810.752441 1202.318726 1553.170410
993.338135 1264.762695 1365.871338
810.841431 1471.350098 1378.782959
833.566467 1196.917725 1605.885254
948.630310 1363.093750 1753.155029
857.668457 1495.357666 1282.147339
884.133240 1196.166138 1507.703613
822.405396 1324.045654 1666.235596
842.461853 1182.530273 1605.801392
844.078979 1523.104980 1310.812134
726.300049 1331.473755 1639.211426
903.580811 1346.221924 1372.591309
830.938293 1161.842163 1596.799805
782.990845 1409.383911 1416.855591
1002.436035 1247.565918 1370.742920
787.324036 1363.890869 1456.359375
799.767090 1389.724243 1726.718262
883.455017 1367.255737 1751.071289
813.405579 1466.151611 1371.068481
750.187805 1350.905884 1623.483154
784.047668 1446.417114 1516.530029
841.366333 1227.419312 1523.247559
803.232422 1237.505615 1525.413208
921.737854 1350.848755 1748.528809
946.746094 1236.629272 1419.726196
711.570923 1431.583862 1550.685791
835.460938 1195.372803 1542.657471
954.013672 1187.800171 1489.849609
780.575623 1302.344482 1501.818359
905.920288 1231.859863 1482.534058
1031.020264 1283.993286 1273.044800
822.536072 1293.791016 1493.621948
901.219421 1153.575562 1544.671875
833.382629 1525.609253 1301.812988
755.762573 1367.382568 1601.375732
819.240417 1232.166016 1541.135864
868.412659 1314.417969 1697.119995
845.692749 1219.853882 1624.576050
798.445496 1456.939697 1404.626099
894.865356 1408.283691 1327.287964
899.732300 1397.973511 1340.761719
985.557739 1221.494995 1433.102661
699.794678 1306.218628 1586.671265
788.569153 1254.009766 1521.469971
915.945923 1248.129395 1494.106201
857.815796 1274.314087 1670.731079
799.737366 1254.158813 1535.404419
781.292847 1394.679077 1616.252075
925.281067 1160.812256 1504.465088
688.981201 1442.210083 1556.352417
853.770081 1492.567871 1289.226440
828.175659 1342.112305 1694.021240
860.301453 1501.424438 1280.458618
830.733887 1462.588745 1332.854248
778.826111 1391.335571 1677.636963
771.699158 1349.902710 1487.459595
919.020996 1261.194946 1490.704224
741.309814 1455.277344 1634.807617
708.652649 1406.477051 1540.993896
923.791504 1151.703735 1532.308472
954.758057 1179.477661 1658.305542
765.894714 1298.408081 1511.870361
839.509521 1533.335938 1332.016724
740.683228 1313.054321 1535.439453
978.193542 1349.131104 1312.147705
855.910400 1152.253052 1570.536499
883.659912 1188.119751 1509.225220
981.695923 1311.782593 1758.364136
856.673767 1228.484985 1502.419556
945.601563 1389.391235 1318.060425
695.947815 1438.342163 1542.869019
757.043213 1345.885132 1487.511108
832.746155 1365.637573 1712.928955
732.587769 1257.485718 1590.082764
826.860107 1360.627930 1436.028198
842.910339 1190.224609 1534.455811
780.721558 1425.143677 1687.795410
713.785461 1420.277344 1549.284546
741.368713 1428.277222 1650.979370
738.840332 1260.776123 1600.711914
668.891663 1480.924927 1569.161743
745.403992 1255.702393 1574.992798
937.663757 1368.058472 1335.266968
1025.437256 1311.701416 1286.524780
728.353210 1428.226563 1538.144897
911.345032 1136.619873 1537.116455
732.103699 1386.335571 1547.954346
735.892273 1291.974365 1615.199585
779.680054 1204.254883 1572.935059
963.336975 1282.967896 1715.409912
736.833374 1326.729614 1672.134766
839.413574 1194.614746 1539.890381
757.912109 1235.918945 1576.105103
913.480469 1453.412964 1268.137695
757.108704 1388.641968 1479.727173
854.884399 1471.818115 1320.974976
941.659241 1214.062866 1460.909546
925.584167 1367.376587 1745.849121
839.918945 1296.037354 1484.583130
810.120728 1429.020386 1706.963135
805.941345 1203.436768 1555.146240
1027.911133 1248.015747 1784.951660
929.429932 1191.203979 1656.131836
917.734253 1443.650879 1281.236938
937.750732 1205.150513 1677.945313
829.665283 1400.606079 1764.554688
894.707336 1307.124634 1427.498901
796.483826 1413.801758 1402.341431
868.879211 1480.095459 1269.404663
789.938171 1238.850464 1538.294922
842.203186 1526.356689 1368.784302
924.614258 1144.694824 1609.732544
1000.173218 1372.497192 1310.197388
724.352783 1317.738770 1554.203491
907.588196 1412.056030 1312.559814
727.918274 1316.489014 1545.752441
789.602112 1238.573730 1565.140259
768.582397 1417.593140 1435.812256
857.425049 1452.836182 1305.344482
669.070801 1450.619995 1551.747192
691.654358 1464.901367 1581.639160
798.828308 1305.328979 1656.630493
893.992615 1339.466064 1725.448975
994.156311 1316.100342 1762.446777
773.075684 1276.782471 1519.247192
987.289795 1231.833862 1413.669556
901.972656 1367.582275 1354.291992
780.864868 1211.281250 1596.791138
791.350220 1444.328735 1396.364136
863.228088 1374.614868 1400.728760
972.595825 1322.722290 1357.752686
902.792969 1291.481445 1701.901978
743.822876 1323.249146 1532.619995
926.044983 1338.092896 1732.992188
716.271667 1286.448242 1574.666260
920.352539 1208.065918 1661.751709
783.935425 1448.026611 1493.351318
913.111816 1267.884521 1511.998169
792.900452 1434.004028 1705.375366
765.621338 1377.870605 1606.880127
768.365601 1308.332031 1641.227661
936.128723 1328.951660 1375.028442
922.660706 1368.617798 1344.341797
960.887390 1219.378296 1433.244751
1005.742798 1262.078491 1331.296265
846.538574 1184.768799 1612.448608
739.076965 1446.247437 1673.621094
945.458069 1241.439209 1697.747925
852.717407 1328.471313 1699.272949
960.994995 1211.969360 1682.870972
884.868591 1257.739746 1494.354004
778.747864 1235.588989 1538.016479
720.580688 1320.622925 1553.310547
780.221680 1453.859863 1412.418579
966.170959 1191.441528 1669.459595
962.457092 1320.167725 1370.801880
760.517151 1391.589966 1653.298828
901.536987 1126.907227 1609.286011
799.870178 1473.240112 1401.193604
826.952820 1171.714600 1580.334717
732.789368 1334.781494 1531.061035
792.963745 1420.955811 1406.096436
836.530884 1510.111084 1366.173096
806.813232 1248.722778 1629.342773
816.272400 1488.521362 1419.657959
709.845825 1408.779175 1567.469238
738.236511 1276.489258 1545.469604
815.814880 1271.329346 1499.190796
993.531006 1282.278076 1748.500244
779.567627 1443.216675 1400.378906
840.141296 1427.158081 1343.761719
1007.736938 1318.192017 1303.001709
899.311340 1252.574951 1680.914185
860.614868 1185.454346 1629.439697
919.825928 1241.468628 1683.942993
888.209595 1224.282471 1488.755493
851.127502 1200.797241 1616.449219
915.994934 1285.215454 1410.295898
931.204163 1174.419922 1514.850098
971.399902 1357.950073 1311.449829
917.422485 1156.069214 1498.625122
870.402771 1328.341675 1710.351563
814.651184 1370.624512 1440.755005
781.064636 1415.918213 1408.589600
768.448425 1266.451294 1611.131592
909.457886 1235.784424 1492.053467
978.407898 1394.980225 1301.057739
744.272278 1268.797607 1568.720093
866.285645 1112.340698 1595.249268
790.062683 1283.210938 1506.870850
765.638672 1394.960449 1459.974365
806.684631 1470.685059 1390.315796
848.654602 1491.568237 1307.570313
771.318970 1395.098877 1632.765625
927.127686 1280.787720 1425.744751
762.124451 1277.678101 1529.139038
1003.374634 1372.102295 1271.942505
968.060547 1214.943848 1436.122314
734.092590 1342.268677 1521.622314
722.508545 1414.190674 1562.463257
794.163147 1439.523193 1467.738403
764.632202 1445.976074 1449.538330
723.290222 1296.064209 1580.576050
715.711853 1284.443481 1575.453491
709.453064 1419.955078 1538.825806
815.517273 1485.639648 1462.408203
736.506714 1353.347900 1685.755859
786.442871 1248.326660 1559.369751
826.028564 1248.670166 1631.040527
892.060059 1186.924194 1515.998901
762.882690 1370.707397 1611.141724
1008.010559 1340.558350 1271.094482
877.816284 1197.761597 1511.401489
940.292542 1177.765991 1494.148560
1032.752563 1284.678101 1322.665894
835.260864 1396.154053 1397.476196
759.393555 1402.046997 1585.307617
969.579346 1226.865845 1428.210449
804.748352 1305.371094 1494.276978
898.322632 1327.126709 1720.564819
855.202576 1241.062744 1655.670532
770.079407 1460.836670 1615.351807
752.594666 1426.895996 1680.411865
900.975769 1298.088623 1705.620850
691.812866 1462.242676 1593.355347
1021.485474 1382.651123 1276.992798
931.069275 1333.882446 1392.199463
736.755493 1399.594360 1549.280640
827.640869 1259.563354 1639.667358
942.237549 1362.263306 1360.613403
766.398621 1433.941040 1510.725952
1006.769897 1384.013672 1258.721069
760.506165 1365.307251 1646.696167
933.327698 1149.813721 1655.103516
992.125000 1380.003296 1260.123413
986.889465 1256.794312 1727.938721
734.726990 1329.396851 1514.529907
782.074097 1338.567505 1487.903809
723.866272 1409.557251 1561.950439
759.705444 1400.244995 1439.121826
897.814758 1196.068970 1650.618408
716.981445 1419.827759 1566.742432
863.024597 1223.847412 1652.154541
775.996338 1388.862061 1513.010864
980.708374 1308.166992 1753.906494
822.846008 1524.263428 1365.687622
836.773071 1171.497192 1570.402100
841.910400 1324.314697 1528.360840
802.898499 1439.196655 1380.504272
866.887390 1553.712524 1309.842773
687.264099 1449.998901 1542.387451
878.531189 1369.149658 1734.938721
830.188416 1520.311768 1332.523682
873.121216 1191.674072 1522.059448
986.868835 1229.491943 1382.121216
810.296448 1271.061768 1643.535278
931.701660 1349.706543 1737.819702
897.782349 1213.488647 1656.850708
808.264038 1423.946777 1589.571655
682.681946 1475.575439 1572.631348
834.291443 1460.386841 1335.682739
753.407349 1273.689697 1543.564697
867.392273 1262.615479 1664.055420
749.232544 1372.925659 1580.008545
955.112122 1172.087646 1672.652832
900.306213 1316.149292 1420.553223
873.846375 1133.817017 1575.313110
858.065002 1148.047241 1596.225830
881.958801 1304.757813 1700.053589
962.143555 1237.129028 1414.317383
722.136169 1328.875854 1590.256226
729.489929 1446.496948 1518.736450
786.113037 1376.293213 1736.049316
877.331665 1318.400757 1708.036011
761.685974 1374.733276 1491.441895
913.111328 1257.348633 1461.993896
835.224182 1204.424683 1613.125488
1038.720703 1353.717285 1244.480835
1020.316650 1293.318970 1310.028809
935.931213 1229.795776 1442.807739
1033.232300 1246.280273 1775.452148
942.032959 1162.250977 1647.357300
905.048645 1260.963501 1473.441650
830.730591 1360.505615 1450.656128
720.191528 1313.336548 1634.480713
970.204468 1282.989746 1372.259277
1035.399170 1295.989014 1310.443848
819.944885 1382.469849 1408.178711
862.923523 1401.878418 1358.311890
893.692078 1183.206787 1619.468384
796.651428 1319.658325 1498.864990
831.256165 1443.195435 1735.172607
950.461182 1173.270874 1669.908569
845.712280 1333.655518 1437.531982
755.809021 1302.070313 1635.437378
730.933167 1275.821533 1562.509033
714.175171 1450.530640 1647.968018
993.498047 1226.091919 1723.821899
778.101074 1401.686768 1582.045776
759.692139 1388.904785 1470.208984
692.365356 1432.270020 1545.501709
857.037842 1223.722778 1504.810669
816.063049 1227.651367 1528.093872
1003.040344 1341.926392 1283.675903
986.801453 1226.305420 1703.734497
883.673462 1252.537476 1671.989624
955.309204 1309.709839 1369.960083
659.833374 1471.565063 1539.861328
769.453979 1215.949463 1581.340210
928.828247 1282.757690 1422.932983
887.949646 1282.392212 1683.831055
826.059082 1167.533325 1601.508667
764.150146 1340.553833 1495.079590
922.218201 1306.200195 1400.697876
928.308777 1188.581177 1456.074341
985.454102 1230.327393 1720.074463
755.080566 1457.979736 1702.736572
759.544128 1425.079224 1536.038696
963.892029 1415.385010 1245.763062
767.759155 1382.892456 1688.118042
783.165283 1395.000977 1423.497437
838.372314 1519.567871 1295.563721
803.732178 1286.696289 1658.759033
876.727600 1355.994629 1394.881226
977.925903 1316.045898 1345.284058
948.180969 1256.447998 1403.144043
874.719971 1384.717773 1365.054932
774.285461 1209.334106 1593.210938
981.619385 1268.098145 1370.440308
890.802307 1224.773438 1654.662109
735.782349 1449.604736 1578.335083
760.753784 1286.870117 1524.629028
877.360291 1200.580688 1631.633423
798.063904 1217.475098 1603.840820
855.537354 1407.846924 1371.751831
847.446594 1380.136230 1733.513306
770.196777 1400.018921 1448.857910
963.976685 1620.338623 1351.700073
1009.621155 1255.142456 1333.520874
934.614868 1234.119385 1433.731079
736.777710 1279.587158 1596.740479
832.476379 1248.423218 1635.850342
848.302368 1190.497070 1538.180420
771.000244 1308.668213 1503.772949
925.801453 1260.297119 1441.135498
848.443542 1163.772095 1563.473022
986.592590 1258.128174 1378.599609
728.216187 1316.181519 1558.324829
676.088135 1454.762451 1561.214600
718.709412 1320.965820 1607.803589
915.120728 1271.510742 1450.407471
767.837708 1409.052490 1488.756104
765.891907 1414.518066 1475.410156
932.657654 1230.755981 1467.146118
885.969543 1319.246582 1422.894287
863.357971 1539.304932 1298.795288
879.045837 1309.155518 1703.102295
875.245483 1347.871094 1405.295044
994.577942 1251.251831 1324.672974
697.853455 1466.869141 1582.926025
822.647644 1497.252441 1347.155396
900.318604 1354.826172 1743.314087
830.641174 1446.788574 1354.111572
1009.928162 1323.353271 1303.900391
992.151306 1291.226196 1364.763184
782.997620 1410.927124 1487.952148
812.393555 1176.956177 1589.380127
878.814514 1325.044556 1712.946777
711.443970 1416.526123 1542.309814
877.367126 1306.371338 1444.491699
963.317993 1280.620605 1390.044800
1020.269043 1328.063354 1337.937622
767.228455 1408.331421 1660.033569
724.889954 1388.588867 1555.984863
974.950806 1396.923828 1342.671143
782.099182 1374.359497 1446.030273
894.629211 1436.560303 1295.577148
778.601685 1382.384155 1456.413208
722.914185 1324.531006 1616.878540
934.079285 1219.210815 1686.100952
977.165039 1260.009399 1372.647339
751.906311 1356.270630 1661.266968
914.278259 1393.718628 1324.951416
989.980286 1235.799927 1384.755981
1015.647278 1355.929810 1277.000366
740.334106 1403.958252 1577.320801
863.252563 1321.170410 1454.515137
783.516907 1372.734985 1722.324585
861.948425 1352.767944 1422.053589
928.663696 1239.131226 1438.425171
713.991333 1408.680908 1573.135864
755.980591 1252.487427 1604.800049
1033.508057 1282.647949 1303.214355
843.261047 1327.485352 1690.852905
910.911926 1135.302124 1581.658813
815.660767 1437.302490 1365.686523
871.212524 1314.216675 1438.795654
775.328186 1240.693726 1558.589600
834.522644 1394.978394 1383.014282
774.262817 1384.732910 1504.159424
732.083801 1303.726196 1626.411255
812.751038 1355.967773 1467.336426
807.409058 1387.430420 1415.380249
732.642212 1343.052856 1595.203491
904.121216 1159.333252 1530.613770
916.190186 1531.714233 1278.870972
742.246277 1343.501831 1648.150024
752.946411 1392.874146 1520.737915
781.873230 1241.149658 1533.041748
813.890930 1505.480835 1431.693726
728.889343 1409.662598 1561.719238
777.616394 1249.997803 1606.821899
669.277832 1448.535645 1555.458984
810.311096 1193.598877 1585.870728
858.285767 1420.127197 1343.758545
831.057007 1499.070313 1310.951782
941.835449 1225.738525 1436.797974
1019.352722 1280.187744 1324.887939
767.092957 1285.350830 1622.506348
939.929016 1275.481201 1408.891113
812.328308 1479.688232 1348.337402
820.162415 1229.072754 1605.058594
790.859314 1277.477051 1516.276367
987.414673 1301.730469 1325.746338
896.684265 1152.835571 1558.922241
952.747986 1200.219971 1671.613037
820.792786 1264.168579 1645.828491
885.119934 1197.634644 1622.525269
905.369873 1144.111328 1624.538574
972.546204 1277.572998 1735.391602
832.309814 1363.677368 1420.763062
757.352112 1426.708862 1512.333740
972.050781 1403.193970 1253.732056
900.147339 1208.574951 1492.151978
944.458252 1230.169922 1685.707153
724.091003 1307.088745 1553.762817
1032.046753 1321.309204 1263.315918
767.894287 1348.852173 1475.066162
744.042480 1350.130127 1616.961304
833.818787 1172.194458 1575.699951
741.022888 1347.762695 1623.322876
888.713135 1219.378662 1650.095459
739.934387 1303.302246 1628.571899
722.468445 1318.778564 1636.311890
860.689880 1568.889282 1304.006958
758.602600 1240.840088 1566.071777
975.662964 1272.351929 1365.207275
724.707214 1292.923706 1555.408203
947.738403 1311.919067 1739.524414
764.057678 1343.956665 1488.042236
758.394409 1382.180786 1644.053589
817.987122 1512.547607 1366.054321
706.113342 1451.718994 1582.409790
773.491333 1382.429688 1559.444092
986.879944 1295.845337 1348.246704
899.966248 1224.382813 1495.436157
756.045898 1333.177734 1502.022949
979.259583 1233.600220 1709.421143
745.774414 1363.127197 1498.353882
874.515076 1247.089966 1647.739990
783.968750 1446.378906 1391.801025
824.531860 1379.211670 1739.558350
914.502441 1335.084961 1749.646729
835.093994 1336.885620 1443.658936
865.524292 1190.793091 1607.220703
859.425659 1209.207642 1520.455444
741.608154 1401.333862 1529.773071
847.591858 1518.994995 1287.809692
808.125000 1496.278076 1428.211304
786.405884 1380.183105 1711.427979
939.184998 1286.446411 1405.193848
915.448547 1227.563965 1458.099976
904.985657 1462.736694 1256.505127
847.188232 1502.260742 1317.264160
1008.005066 1290.859985 1321.601685
870.216736 1484.173584 1297.211914
891.658997 1208.838867 1633.997192
779.784546 1400.027344 1636.914795
775.988037 1409.830322 1576.734009
862.237976 1508.095703 1290.890625
925.720154 1148.340820 1617.526123
876.065491 1219.734863 1657.096436
