ply
format ascii 1.0
element vertex 1393
property float x
property float y
property float z
end_header
1093.670776 1819.400635 85.171951
1085.088989 1815.739136 114.231659
897.759216 1930.591431 232.674362
1149.427734 1875.624390 96.299110
859.996338 1934.911621 128.254898
1061.690308 1849.995483 207.738632
1112.296387 1919.510132 396.571106
1148.286743 1858.733398 154.202408
781.830322 1965.264526 312.096924
1019.498901 1877.835815 276.277374
905.856384 1886.430054 34.159576
851.477722 1931.039307 65.426277
870.344788 1929.726929 293.190399
1130.881714 1831.288696 159.588913
1238.820923 2066.853760 104.707924
1224.423584 1998.006714 197.194885
760.158997 1978.171143 111.002586
1078.659668 1905.217041 350.385071
905.225586 1924.226196 226.546616
748.657837 1978.327759 193.532822
1187.595093 1943.022217 168.155731
1061.395996 1845.484863 18.958128
720.620850 1962.715576 72.790291
778.572083 1973.832031 313.906189
1137.512085 1862.865601 51.035419
1133.707275 1864.635498 25.209265
1225.431274 2011.793091 253.667801
870.264709 1993.322510 367.236420
878.473633 1921.450928 301.104889
1131.763184 1849.094971 86.063309
1109.498413 1922.593872 391.982025
863.005249 1956.711426 336.897064
1092.812866 1911.205200 376.046906
1234.363037 1996.235474 227.033310
1179.228516 1944.434814 149.793365
1000.048645 1903.491943 86.580421
979.513855 1852.951050 25.945019
1071.800781 1827.700684 87.503395
1009.899048 1874.455811 120.600342
1159.297485 1907.720093 71.682503
899.232849 1927.740601 221.793030
1102.958862 1947.199951 328.488342
859.005615 1943.288818 241.758194
1193.292358 2047.777344 -21.722786
1065.464478 1832.067505 175.914597
824.818481 1938.867920 78.574486
914.197021 1956.174927 341.979645
1066.762329 1838.067017 131.868744
1143.470459 1860.860718 99.383087
1193.927612 2008.339355 34.076157
1077.074951 1833.036743 48.288792
938.430908 1903.942505 92.404922
1163.726318 1873.880005 211.978714
1188.639038 1979.408813 299.305298
993.526550 1888.753418 134.390045
886.337036 1908.255005 92.518776
908.241699 1921.446167 184.998108
966.556702 1981.669922 343.396667
1147.142822 1958.463379 294.622803
1030.012451 1855.539307 172.352524
1188.296021 2017.139282 -2.642175
1164.666016 1936.651611 39.519939
1222.773315 1937.941284 238.228348
1163.001343 1956.774414 323.355377
1230.968994 2065.829834 141.862762
1232.763794 1959.636963 236.762543
834.151001 1935.109131 98.775963
974.335083 1895.632813 84.284584
1205.588013 2062.536377 54.411091
1131.370239 1811.704956 222.654678
1188.567993 1950.201416 278.159424
951.179871 1908.270630 330.162048
1070.110107 1872.301758 283.465088
1196.772095 1990.459595 301.725342
1119.089478 1935.939697 270.785431
877.225830 1926.845459 119.366722
765.634521 1956.266235 57.475124
1126.904663 1814.630615 80.647888
1147.025635 1849.640869 177.764511
1254.567749 2026.041992 249.168259
898.858398 1935.368286 243.014084
932.568115 1909.096436 113.867096
1125.732544 1816.330688 210.416275
1112.063477 1911.880859 270.493805
1156.674683 1847.221802 145.904541
808.761597 2055.557129 373.979523
1149.130493 1861.561157 129.547470
912.111267 1928.515015 149.524826
1081.678833 1839.787109 5.068619
985.371033 1939.959473 317.102631
1103.656860 1916.006226 388.843170
1008.280640 1848.451538 126.448013
1133.239746 1846.493896 263.589325
751.606506 1978.227905 109.284698
901.252808 1922.365479 318.968048
1022.554138 1920.133545 309.606598
1091.113159 1923.489990 280.919128
752.375488 1977.414307 193.684402
1192.316528 1954.867310 338.660248
1090.993042 1822.901123 194.309265
1014.555176 1869.273315 92.061195
1001.346680 1874.104126 275.841400
1183.201660 1970.277100 271.476624
991.702393 1900.787109 180.030106
792.690430 1983.833008 337.973541
1116.016113 1814.946045 111.717178
1216.753906 2094.407471 58.511314
1188.609497 1966.493896 114.166306
1143.262939 1870.316650 92.336113
1149.634399 1939.843506 -2.215962
1105.118530 1927.289185 346.889557
1108.086426 1837.549194 234.512756
915.819092 1908.718262 320.708374
1240.428955 1956.819336 241.329193
894.714905 1947.869751 350.790680
1136.623047 1816.567993 142.142334
1082.754761 1902.789307 330.052979
1126.733032 1848.701660 55.111187
1210.198608 2022.614990 46.872234
1192.494263 1982.988037 113.614830
968.293030 1899.465942 296.155365
798.467834 1982.179810 354.625610
885.291199 2027.317261 363.739258
1106.358398 1813.746338 150.512970
823.374695 1946.315186 121.711815
1216.893921 1998.459717 149.992432
1111.939331 1940.527100 345.437531
974.836731 1944.990356 352.948303
1092.602051 1912.996338 333.128601
1224.061890 2099.223877 -15.574353
1162.428833 1956.856323 315.316010
858.554199 1924.913208 44.623211
1163.918091 1866.505005 260.053375
978.800354 1889.992188 135.963348
1033.337891 1859.635254 250.692947
825.539612 1950.690674 316.269531
949.169067 1900.356689 295.467468
1025.604614 1863.712402 22.114529
1206.589233 2001.673218 148.752197
1118.632202 1880.130493 0.063066
1208.047363 2005.154053 148.329803
1069.778076 1848.575073 216.678574
976.924683 1895.339478 319.643311
1196.895996 1973.494751 159.960068
1133.799927 1844.838989 258.364288
1137.974609 1816.390137 239.636841
1143.845703 1926.752686 276.122833
1105.160767 1817.111206 36.692432
865.499695 1939.346802 193.836792
926.403381 1916.682373 218.758408
1183.384521 1933.377930 258.437469
812.459839 1938.072876 112.893524
968.875854 1900.705566 89.188225
1081.375854 1843.163574 192.786728
989.636963 1881.640503 140.121597
849.027466 1963.973022 328.919708
724.986084 1963.841919 67.150864
919.831543 1916.448486 189.321136
998.060364 1874.245728 199.052597
1182.631470 1965.436401 18.241018
1076.059204 1891.066040 324.670227
958.568420 1914.863037 127.992409
851.536743 1923.756714 84.564880
868.935730 1918.603027 66.306473
1029.652832 1853.266479 184.798645
999.132568 1967.132568 329.297699
876.531250 1929.581299 243.838364
1096.128174 1894.786621 294.412018
1151.508789 1900.851318 23.404064
857.472839 1970.812256 351.970886
1042.182983 1860.007935 265.780762
1162.275513 1906.961182 261.746552
1171.557739 1912.387451 162.430679
1014.857849 1853.810181 198.624802
713.434448 1982.483521 107.861488
909.770569 1927.585571 288.360596
1232.893433 2086.827637 42.740902
1035.038208 1843.551270 129.321381
1149.434326 1846.265747 189.139771
947.704285 1913.141846 101.939865
866.002869 1905.144165 40.001118
1166.171021 1919.723511 54.338116
876.938354 1929.609985 283.939575
731.726501 1974.156494 227.792801
1170.407837 1936.606567 81.793129
1193.195801 1956.742676 166.684998
1072.162720 1874.922241 278.957611
1193.362793 1967.837891 142.091461
856.204529 1968.005371 366.348572
917.321472 1917.713989 215.283752
1038.836670 1899.763794 281.614868
1154.952393 1909.394653 41.659920
809.120728 1982.765503 322.351288
1173.398682 1932.592896 103.685608
1100.559204 1906.788208 368.415619
1011.776733 1922.039185 316.552185
1146.793457 1820.249634 257.953735
1112.256104 1813.071655 161.942780
952.833069 1899.260254 332.072540
1216.821045 2022.483887 53.979465
892.210876 1922.813721 226.049179
795.044006 1947.952393 64.311775
1184.519287 1938.383667 268.523041
762.361877 1986.487305 218.064346
851.719055 1943.885254 172.223709
1088.878174 1825.614746 91.281464
955.554260 1911.577637 174.346558
1107.509521 1838.506714 223.433609
972.601379 1918.879883 334.961029
1114.456299 1825.914551 207.982910
1129.589844 1814.018799 230.697906
827.476013 1973.260864 214.258057
1076.601318 1891.430542 328.476257
1048.040039 1848.772705 256.641937
739.888794 1957.951416 106.798820
1097.162354 1823.299072 8.805191
1158.941406 1902.108032 57.121010
990.296509 1903.622070 100.133690
1188.268921 1974.648315 338.821655
1174.419434 1971.008423 -8.136564
1224.241455 2091.672852 41.878891
861.276917 1929.022339 44.200443
1137.173584 1865.039429 79.734138
787.260803 2023.617920 369.261017
888.044312 1918.004883 108.156113
756.559570 1972.712646 242.780014
1166.562500 1851.881714 192.723587
769.626892 1959.191162 307.229706
954.293518 1896.070435 306.233490
1148.345947 1856.779663 170.100204
1163.256470 1956.776001 294.056671
1059.497925 1908.402832 387.374634
1245.459106 2058.943604 205.386368
859.064331 1939.793579 311.190918
1215.046753 2039.801880 120.752388
901.117065 1929.505737 134.935257
925.142334 1921.589355 206.158096
764.945496 1972.783691 304.720856
827.159668 1956.570801 254.732162
1017.083313 1862.135254 192.888336
1055.117310 1845.408325 117.714523
1160.412109 1939.684814 18.329653
990.160034 1888.994019 286.009979
1214.602051 1986.055176 167.251816
1166.916382 1970.285156 43.598011
720.943726 1989.602417 90.120720
974.457031 1889.695435 142.307007
1088.317505 1818.099609 83.005981
1198.725830 1990.879272 108.329987
738.819397 1973.119019 70.327667
831.685120 1958.369385 304.889862
982.457886 1995.528198 332.875275
1130.915527 1888.900757 29.254339
1205.637451 1960.722412 187.152451
1198.526489 2016.207397 -22.447119
1149.289917 1965.107910 331.391693
907.030151 1917.408203 158.630768
856.678284 1945.125366 321.859589
792.526550 1969.118286 244.530823
821.434265 1965.339355 322.507782
1228.302124 1957.061646 243.851547
755.364929 1981.460327 303.876343
1058.302124 1835.726685 237.014572
926.237854 1914.877197 180.462143
1167.311523 1873.966431 197.144150
1148.960449 1964.336426 323.093140
1044.750122 1841.967529 187.735092
1201.446899 1981.093872 160.175430
1123.832031 1812.028931 164.997849
848.510498 1969.422485 351.253937
1087.391602 1844.562012 268.501312
1243.816162 2048.952637 206.952835
1142.821167 1862.355835 129.006592
1131.402466 1824.095947 196.398102
979.610107 1890.757324 243.748978
1108.978760 1831.196411 1.676608
1210.920532 2002.565308 155.566925
747.472229 2014.069458 194.029129
856.797546 1928.814697 43.580406
1045.934937 1913.804443 325.525055
995.884644 1868.485596 71.830666
854.007141 2016.134277 372.392670
1205.279419 1957.992065 210.786667
1055.817383 1915.515137 404.621368
1181.350708 1922.072388 195.364120
966.357971 1899.328247 325.052338
1066.678833 1893.591431 284.397644
821.826416 1956.370239 119.793388
1115.360718 1839.353271 62.290886
853.961731 1924.629395 120.649361
1179.435181 2011.645630 9.343303
1127.021851 1882.537720 -1.885083
1163.711670 1887.764160 197.390762
777.431213 1973.853516 145.762924
1110.782104 1821.921631 12.824713
943.913513 1904.288208 147.403748
756.849426 1969.258667 63.335594
1153.380859 1968.454956 329.703644
1163.993164 1911.602661 105.610764
1071.825928 1831.258911 81.431114
781.023376 1988.533569 338.945892
1149.493652 1874.757202 138.409729
1177.731689 1988.204712 9.094199
1142.041260 1909.615112 42.739475
739.685059 1981.759766 86.818291
1171.420044 1889.301270 214.335815
1056.884033 1898.533447 308.283875
1171.466919 1930.191040 94.177223
1176.726929 1927.153076 142.907791
778.532166 1951.543579 85.981613
984.928528 1925.186401 308.104584
967.781616 1888.477417 289.996796
1094.380859 1839.346436 207.143433
971.343262 1887.568970 265.963776
879.931274 1945.133911 321.849426
1036.123169 1846.173950 69.144592
1235.319336 1950.741089 234.343613
1066.147217 1836.093140 232.468521
964.730774 1927.429321 325.537811
1195.433960 1991.289307 104.671844
1028.829224 1913.240845 290.293274
1098.186035 1907.753174 340.934753
1080.795166 1831.326172 223.185135
1085.177856 1926.981689 281.325256
1233.536011 1949.201416 248.569260
1170.417969 1887.041748 166.207764
1165.132324 1898.537354 260.030334
783.436340 1972.618530 141.614532
1148.948730 1839.438354 116.132339
976.557617 1890.883179 239.953903
1094.499268 1903.053223 270.890564
1217.469116 2066.739014 48.992161
1082.889160 1823.587769 103.997208
866.554504 1996.517212 364.014435
792.156860 1958.717896 312.573090
1112.416870 1826.386719 216.233841
918.432739 1909.678223 320.504547
1120.813843 1897.092773 271.362335
882.962646 1926.509033 143.650299
1081.662109 1902.168823 366.353790
1178.019897 1930.752319 134.793427
1078.175415 1851.869263 281.590424
1092.925171 1834.747681 227.239243
1210.494629 2038.170166 79.136192
1121.148560 1814.313477 196.263397
977.649414 1884.539551 277.775452
978.195801 1894.536133 172.676804
931.859497 1879.923462 32.020016
801.646423 1942.259521 113.998192
1191.948364 2060.465820 18.330818
1193.197144 2023.565674 -20.317865
1144.909424 1822.857666 182.032150
937.751770 1910.177368 254.064529
1108.187134 1945.140869 345.632538
1258.852051 1991.803833 231.894409
1066.516479 1848.756470 228.685257
1120.305908 1988.498901 309.734558
932.405701 1926.017334 326.111572
1153.129883 1822.441284 228.975510
789.363403 1943.466431 62.717968
1141.936646 1868.814819 80.146690
900.663086 1919.767700 121.887657
1109.749634 1926.746094 308.873138
864.635010 1926.301636 102.642632
1222.493652 1934.531250 229.385666
923.604736 1905.037720 40.217468
1198.247803 1942.137451 212.218216
1019.955627 1857.178833 13.821544
1069.579956 1844.315186 213.608597
1211.914673 1996.686890 180.974030
1073.643677 1824.812012 110.167007
1061.229370 1833.810059 146.757950
962.252747 1905.965332 269.973145
1159.203979 1939.806030 32.522850
956.233826 1920.981567 320.938965
840.378723 1950.364380 279.692474
995.151428 1884.552124 304.295624
1139.757690 1800.594360 138.080658
833.781067 1951.423950 181.942459
895.705383 1922.801025 265.515167
1129.250610 1827.808716 253.662766
1097.216675 1844.872437 265.327026
825.977905 1955.010986 204.702286
867.056824 1929.099731 296.080292
1225.198364 2040.333740 145.595474
1046.334473 1842.342041 190.541901
829.906250 1974.045288 347.914276
1178.532227 1982.329102 17.726742
1113.131592 1833.906982 255.890518
977.154114 1891.093140 310.274261
864.876892 1940.496094 227.735306
1170.183472 1836.943848 234.597015
997.754639 1896.920898 172.025131
1065.651245 1842.347656 195.224625
964.926147 1905.190552 154.472488
933.021973 1914.290527 321.560486
1064.125732 1818.908691 142.531815
905.341431 1911.556763 311.558105
1184.089478 1984.754517 46.754883
1064.089600 1829.270996 100.628433
1173.635620 1971.132446 86.295021
925.803833 1907.781006 164.521790
1097.618408 1910.620850 421.231995
907.027710 1950.374268 325.576538
909.292603 1932.452759 336.415833
908.900452 1905.885132 63.625610
742.585999 1964.067627 115.104477
1062.182983 1859.413574 267.571381
1161.755005 1841.359497 244.284821
1061.128174 1838.745483 224.657303
915.667786 1920.133179 223.617798
1012.229370 1846.655640 58.171169
1016.501526 1914.219482 146.924011
1046.619995 1829.169312 76.076576
1122.252930 1822.208252 239.446060
1058.613892 1836.251465 62.029510
1043.247192 1849.692749 15.563396
1182.028442 1950.847046 66.308464
779.881104 1979.989502 327.858093
1151.611328 1959.946777 376.300537
1082.082397 1911.734375 336.718262
1134.125366 1813.702148 229.397324
1123.413696 1810.444458 153.948105
822.680115 1945.860352 103.690392
1050.476196 1836.907959 161.455887
1107.806641 1836.233032 5.492349
930.138062 1915.226807 218.965759
737.293640 1970.448730 101.602409
1033.481201 1938.992432 304.321655
1191.754761 1989.341675 76.483566
988.827454 1886.509888 254.121033
1005.568176 1862.234375 39.694813
938.150391 1957.923828 344.958435
891.819458 1922.340088 116.985985
774.737915 1995.368896 173.997772
1046.104248 1893.363403 286.372101
1173.286255 1860.008545 259.508942
893.054871 1965.574951 333.747711
1198.483765 1973.943604 268.423065
1220.411987 2058.221436 76.393379
1100.165649 1893.521484 317.861816
1100.020386 1900.739990 352.567810
1164.802734 1942.038696 31.099966
949.317566 1901.878174 251.569870
1173.134521 2018.575928 -9.319803
791.724426 1971.125610 132.059235
1191.016602 1946.677368 171.172699
958.806030 1900.966187 202.427689
756.046204 2017.844360 324.544525
727.497498 1979.538208 87.763054
1113.801636 1821.628784 102.831291
1104.199951 1822.955566 236.690247
794.852356 1949.465454 106.657585
1125.233154 1839.942993 64.694031
1057.573730 1836.603638 125.671814
839.228088 1939.598633 122.829239
1197.388794 1960.829468 186.746887
780.898560 1970.319336 170.351364
1121.479980 1816.836548 205.876480
875.655884 1997.827393 371.420593
792.034912 1963.022339 222.394485
1017.735779 1857.463135 61.756451
1042.084961 1844.677002 209.678421
1049.992798 1838.060059 92.207191
1123.713013 1916.118286 268.917114
924.854980 1914.038818 225.642502
839.657593 1950.948853 234.877869
857.130310 1969.117798 344.828247
1221.975708 2053.558594 -25.174047
1037.144043 1843.297363 58.740646
1076.456543 1874.099976 282.623413
804.376648 1955.319092 75.706757
994.696960 1885.973511 96.967957
864.010132 1931.872437 109.480858
1161.682251 1897.315552 86.473221
989.952820 1884.371460 261.150787
952.693726 1951.534912 335.290070
840.915527 1949.050171 209.305084
1149.485352 1931.894165 -3.154204
789.768555 1951.023682 60.935078
1120.960693 1824.561035 101.388275
1205.814087 1977.072144 261.125397
1095.994995 1912.798462 350.812561
1069.278931 1830.510254 153.150726
1069.768799 1831.091431 94.662590
1230.916260 2032.058594 201.960358
921.546509 1911.958618 155.263077
793.674561 1968.206299 95.867561
1188.322266 2010.366089 9.869855
1028.924927 1851.677246 138.646652
988.274414 1876.378174 26.906853
1164.578979 1905.697144 152.403290
1053.865967 1856.798462 258.511993
1186.836304 1950.231079 138.441132
805.995911 1940.996826 51.108669
997.672607 1886.834839 176.088470
1096.460815 1911.967896 389.816467
1025.816650 1860.908569 18.828707
1075.725586 1832.639160 50.375622
1170.776123 1914.701660 259.800323
1199.488647 2000.002563 93.291672
1134.528564 1887.835815 -6.136979
1111.212036 1829.302246 195.585678
1149.347534 1839.099731 207.213455
1267.845459 2027.934937 242.910477
1065.593018 1871.886719 274.183228
1141.026245 1868.323364 95.084160
943.005615 1914.789551 213.710617
1154.999512 1921.337891 97.435226
1102.766968 1833.813477 151.878784
967.101013 1884.103394 79.294426
1049.653931 1846.161743 192.332703
1159.143311 1867.492920 211.366714
809.625305 1957.187500 218.131653
791.153687 1958.430542 270.978058
1228.143311 2049.940918 150.504776
1116.756470 1813.277588 202.586151
1228.791870 1955.897705 226.376984
900.893250 1931.257202 126.473801
805.737122 1946.343018 56.763596
1079.828369 1828.508179 185.661301
1060.541260 1841.115601 135.860931
891.726746 1922.871338 153.543152
1153.362671 1909.890625 41.004192
1015.275208 1871.345215 29.840574
820.797363 1957.015259 227.076523
1216.129028 1980.671753 255.912567
890.495239 1939.960938 313.829376
971.703369 1881.126465 98.505836
1058.206299 1853.787842 253.494843
1183.118530 1972.287964 84.759392
1214.822632 2075.286133 30.175480
1164.991211 1894.951782 143.142807
843.424316 1963.649780 364.629456
1236.876099 1971.666260 225.279755
1094.384644 1926.814087 308.304626
1123.960815 1840.711914 75.300812
1196.905029 1986.582764 282.163574
756.745972 1987.165405 317.461792
1015.018982 1877.438599 238.518387
900.873352 1962.279663 344.456085
794.136353 1953.282593 155.026260
1090.637573 1819.988159 166.084076
717.488831 1980.151367 142.827316
1027.356689 1851.213257 123.468163
988.848267 1865.764893 17.881828
762.299622 1971.178101 276.825470
1182.606689 1911.313232 252.572067
837.480530 1944.989380 187.071671
1088.998047 1906.294678 418.606995
1035.817261 1917.831299 310.843872
1088.176514 1886.647827 349.542786
931.205566 1917.492310 192.657990
1094.486084 1901.081787 329.973755
1159.666382 1879.095703 101.723381
1190.118774 1936.780396 188.775146
1028.099487 1849.709717 130.426544
1217.589355 2045.218506 86.977577
1147.657104 1829.547852 184.582764
1201.129517 1976.236572 182.249405
1187.874512 1958.010742 296.354431
1110.670044 1817.173462 92.306618
996.367249 1890.840576 113.932808
1041.638184 1856.378540 233.941742
751.363281 1973.949463 260.492737
853.102600 1958.198120 174.569183
826.212341 1948.096313 130.246918
1107.646240 1892.692749 281.037659
1147.138794 1924.812256 -3.265561
1007.886353 1851.059937 163.527344
1141.323242 1842.210327 275.894287
1131.344727 1861.392578 21.858557
1187.699463 1968.351929 354.645538
1102.550659 1903.423218 428.074738
1193.478882 1947.972046 256.158936
1204.959473 2003.431763 120.237282
1218.100464 1992.969971 170.450302
861.464233 1971.308228 361.700684
1070.456787 1909.126099 338.046509
864.876831 1939.244507 190.379257
1208.297729 1986.932739 175.019485
805.049744 1969.587524 354.839691
1164.425415 1910.183594 99.992699
920.454163 1911.292236 70.851463
833.807190 1933.422974 61.022842
833.000732 1922.191040 49.017799
959.417419 1977.812622 336.009186
1104.743774 1812.699097 94.447479
910.401733 1916.681152 125.926132
1162.104614 1831.779663 255.403839
874.158508 1995.207642 362.228149
876.658630 1939.237915 317.725220
1071.886597 1842.819336 245.806122
783.270874 1961.199829 318.938538
1104.550781 1826.860840 13.761409
1151.127930 1918.712036 25.561937
823.782715 1935.167358 74.317459
923.102722 1911.224609 105.123421
1098.541870 1826.109253 223.546600
897.005920 1911.807495 89.611412
790.917175 1947.086548 71.466377
1049.307739 1912.367188 336.685394
904.738953 1905.420532 55.374897
970.963684 1883.475464 85.241226
1088.216187 1899.999023 353.970612
1143.772339 1963.506226 360.356873
980.013611 1872.567505 63.761990
845.317749 1957.725342 290.518433
867.959290 2021.550293 363.548248
1088.437744 1828.501465 11.744308
1192.004639 1877.072388 243.103592
1105.934814 1833.570557 20.377895
1195.939941 1952.318848 204.984680
1120.996338 1855.315552 13.192083
1169.759033 1886.085938 211.018478
751.577332 2106.285156 98.093132
1210.773682 2025.616821 93.978058
879.842773 1937.249878 266.781769
855.094421 1936.487549 311.304871
1184.755859 1992.873047 64.171661
1215.079224 2062.813721 60.045914
1055.028442 1832.903687 78.523720
1045.630859 1857.588989 63.975010
1190.110229 1877.843140 235.132996
1181.401733 1962.866943 -14.728954
842.634827 1956.535889 195.298309
914.929749 1907.911011 92.251877
975.337341 1908.233521 330.528473
717.528931 2033.616821 69.959579
774.695984 1964.347900 315.821075
1047.716309 1843.577148 206.361511
1108.128296 1840.578857 -5.758963
884.857239 1943.390259 165.847061
959.416565 1885.176270 74.218445
1002.912170 1938.317627 312.127869
1104.391357 1826.751709 27.802639
859.890686 1958.539795 337.587372
1141.986816 1834.309448 252.124908
947.401733 1904.516113 105.688919
1048.185303 1837.685547 93.827568
1154.324219 1933.580811 8.192525
1163.446411 1953.378174 303.116547
1205.591797 1982.483643 283.102173
944.403809 1913.285645 111.447418
794.692078 1961.728760 188.080856
925.462280 1921.695068 210.245544
1052.200562 1851.494751 247.645477
1164.611084 1900.768921 270.183594
1178.208008 1865.923096 227.812805
1169.410034 1933.075439 86.328812
995.717346 1882.694336 286.609833
774.724854 1967.376831 206.209045
1133.402222 1899.371582 264.371613
927.394409 1910.217041 141.911163
784.082153 2006.019531 350.680084
949.903931 1911.242065 152.663666
945.060547 1900.906738 275.480072
1174.530029 1956.555420 67.871323
1184.387573 1974.698975 8.527406
945.149963 1889.591187 49.902489
922.354797 1942.456909 330.583771
980.745117 1909.859009 111.918839
1224.714233 1987.681274 245.025345
791.849243 1949.273560 297.361328
838.262268 1994.282349 196.602432
1143.258423 1845.084229 260.052429
1124.608521 1846.725830 26.390722
797.231934 1975.067871 352.597168
1171.946533 1883.048218 189.133575
1191.878540 1980.638184 271.514679
852.862183 1955.487427 311.312134
1025.542358 1869.821411 172.326630
1132.204102 1887.562256 39.259644
1091.073730 1892.651978 367.832977
1148.066040 1912.321167 78.465958
999.360657 1859.273926 98.910400
1106.859009 1925.277710 283.471466
1002.895691 1847.782593 36.501339
1010.946472 1866.304199 103.162758
1071.122681 1896.834717 315.738434
944.543091 1892.646118 81.552475
1189.638306 1953.302246 201.516068
947.880676 1902.886108 147.623932
941.317200 1896.798462 297.755188
853.991577 1996.414185 378.062897
1167.729004 1974.493530 -10.788218
1157.800171 1893.104370 136.058456
1171.725220 1961.774780 52.134541
917.023560 1918.591187 198.059769
1008.722351 1859.978760 67.126717
1083.467163 1902.631226 342.689819
1108.726074 1830.598389 267.323242
1116.827637 1900.671631 274.505768
929.433838 1908.170166 278.301910
890.436279 1947.917847 314.007813
807.280640 1971.654419 253.614838
1184.832764 1967.632690 359.381744
1015.353271 1917.753052 308.565460
1196.782715 1937.414429 213.598419
1070.566040 1845.000122 268.218506
786.410339 1984.118774 329.456909
809.889526 1980.749634 368.744995
1085.080322 1830.726074 205.567307
1125.094238 1852.177734 269.343079
1078.277588 1822.288452 53.441242
1136.737183 1891.229004 1.292065
871.242188 1993.934814 361.266724
1229.279663 2078.582275 85.628342
866.331787 1939.326782 202.084152
1164.276733 1874.672974 257.329041
797.355774 1976.825073 330.976013
1224.135254 1938.349365 235.057709
1165.728760 1886.837891 205.931763
1067.658203 1905.742432 320.017517
850.265137 1965.972900 335.901886
835.233948 1946.947998 314.314606
1011.520386 1894.773560 301.740906
1199.871216 1973.020264 186.260452
1128.912354 1863.127808 12.251732
1171.083252 1876.304932 256.132141
1147.822998 1909.970825 23.235022
1209.466797 1921.223877 243.491501
1201.348145 1931.719849 254.559891
1131.446411 1874.260864 26.266150
758.101624 2046.861206 290.628693
1077.868286 1828.934937 49.143375
1232.503052 1993.888184 256.035370
1161.281860 1853.437988 246.983154
1018.766113 1859.943481 24.669085
1095.466797 1833.686523 262.079712
1207.500366 1995.805054 179.180756
1123.125854 1817.703979 226.508957
978.001404 1891.711792 72.643127
884.917786 1937.321777 323.277954
1093.088379 1898.838867 369.755524
803.742371 1972.834106 272.945099
1048.068970 1843.072876 220.150604
792.144897 1968.436279 336.590210
1049.244385 1849.310059 179.711197
845.053894 1935.252808 153.226517
820.914185 1945.086060 296.050446
862.254700 1925.427246 93.352119
1086.980957 1901.775391 336.974091
1162.534424 1967.549805 336.314545
1018.129944 1904.558350 295.604767
743.603577 1995.097290 130.236237
1201.254517 1950.019409 186.326065
884.125183 1914.778076 46.429062
1019.352234 1856.223511 72.273819
1122.242065 1834.030273 240.163086
1016.721985 1867.830688 96.112694
1097.021606 1899.609741 395.708252
1039.311279 1886.876587 296.427246
860.287537 1941.045898 178.628799
750.573608 1967.998291 71.522179
1184.030884 1964.100464 97.387383
1149.082153 1948.119873 9.442041
744.055237 1984.592896 188.016617
1022.149414 1885.991211 148.585129
994.196777 1880.286865 78.516388
1192.067627 1939.182495 151.068008
987.600647 1895.333618 207.825424
1210.390259 1974.219604 173.750443
1157.115112 1914.943726 66.497459
977.081421 1900.011475 311.515900
1212.784790 1990.788452 297.888275
1164.020996 1858.604004 246.758484
1041.594604 1880.583618 287.792145
986.271606 1890.136230 256.594971
896.820679 1912.590942 61.102264
1123.562988 1831.677490 261.147339
1150.014038 1920.505859 12.629469
1117.781128 1827.566284 34.336075
1034.417480 1935.356079 320.329865
1235.557861 2051.694824 -24.908546
1053.680786 1851.162964 29.596725
1026.826904 1863.632080 276.367828
1127.358765 1836.539307 89.989578
921.633911 1892.104858 35.143116
1098.975830 1876.457520 279.437256
1158.354370 1957.352539 360.115936
1140.139526 1857.798340 266.343475
833.097046 1954.386108 360.622101
937.006165 1908.850220 235.048508
924.697327 1911.275635 250.413284
1135.833740 1880.688232 39.768353
1089.021362 1848.395752 263.613251
1250.891846 2059.775879 177.583908
1056.688599 1917.000122 411.367615
945.994751 1896.774292 318.398712
1140.451294 1803.155884 175.864517
1097.125732 1915.995728 398.164337
1168.513672 1921.454834 135.384399
1138.933960 1893.130493 31.916037
747.273438 1978.201050 185.664474
955.608276 1886.640991 79.295715
939.408020 1917.881836 97.792618
945.814392 1912.538696 274.784576
1048.547607 1869.342529 275.320740
793.818359 1975.294434 253.195816
1177.535278 1941.531494 103.680138
832.834778 1963.964722 162.878922
1047.917847 1837.043213 228.170761
1093.178223 1851.278320 277.096649
1086.737427 1894.312378 343.623016
1086.723267 1914.635742 367.349670
1134.345825 1798.816772 21.479185
1095.483398 1882.812378 328.090179
1183.578369 1984.870605 42.585064
901.353577 1925.152344 147.652161
747.908508 1965.534424 77.696053
998.806030 1971.810303 328.270355
1047.152710 1846.349609 30.830873
942.953003 1939.469727 330.027496
1085.796631 1823.272095 154.487152
1244.738770 2013.865601 246.285889
1122.450073 1927.826904 402.672150
1225.538452 2095.919189 4.423856
1220.582397 2050.682129 33.840961
1066.771729 1845.088257 12.400138
1060.820801 1855.261841 7.651193
1096.914795 1832.815430 80.112267
888.910889 1934.601685 158.693512
1148.527222 1885.823730 -13.493389
1088.568726 1830.874634 229.413559
1085.437622 1844.142822 245.884506
1139.556885 1825.873779 211.432465
900.669128 1931.470825 207.009705
1117.341919 1902.801636 268.929688
961.988342 1904.907227 252.882874
752.429504 1973.866089 211.051590
977.813110 1910.535645 106.322189
1146.535156 1892.526245 262.250732
998.970764 1913.131104 330.207184
1189.349121 1922.418335 174.745071
750.523804 1982.132446 217.900635
1136.233765 1961.510620 268.380280
936.275940 1935.177246 322.144958
1155.699585 1912.647095 1.889567
1138.741333 1868.962036 95.363647
861.522522 1931.207275 167.746567
1087.572144 1828.620605 9.100508
1208.832031 2067.280762 4.625916
1232.336670 2060.693848 -20.439199
1086.098022 1897.756104 354.914307
1225.045654 1957.700928 226.912216
1090.221680 1902.873291 353.611206
1073.490234 1917.873413 282.778168
985.278809 1887.484253 55.475639
1214.761353 1931.470703 254.845596
1158.106812 1852.193481 200.579544
1121.705078 1807.433716 100.001427
782.550781 2185.322754 76.830086
845.522583 1936.716919 264.941528
744.984802 1957.660645 114.384735
816.669434 1969.343262 326.045380
911.726807 1915.592773 281.587494
1177.946533 1954.130981 83.256546
1055.687134 1907.778442 400.569885
1128.619751 1838.162842 81.754158
923.605347 1922.742920 235.116806
1048.809448 1839.207886 76.151833
1110.149414 1825.500000 153.387161
990.973572 1883.605835 237.129181
1176.310913 1912.628174 211.183304
795.343628 2059.399414 362.010620
1110.726563 1810.891235 123.099342
1169.029419 1905.206909 171.674438
1133.706421 1878.950073 -3.629369
1150.998901 1900.316162 82.280670
1051.417725 1836.228516 177.986542
1059.104980 1827.139526 171.588303
1117.132813 1812.980225 163.959137
978.909424 1888.594604 294.759521
1206.891479 2039.778931 49.512329
1219.543213 2060.765869 75.601875
1202.415527 1886.707153 235.587692
1096.407349 1912.678101 279.011505
1240.604004 2033.616699 206.694336
1101.855103 1938.996460 287.417908
791.434265 1967.542358 226.690643
1206.452881 1890.229492 241.043808
1017.357300 1876.120728 20.598083
1185.427612 1970.798950 326.762878
1191.072754 2019.875000 -19.670757
1220.638062 2048.117432 99.188530
1159.975952 1961.094849 -9.706024
1217.740112 2034.856934 248.779526
1075.133057 1841.489868 245.999268
1060.934204 1838.059204 220.882767
1075.886719 1902.766113 362.920197
1207.222290 2044.520020 -23.347261
1120.238037 1835.343994 61.312317
862.614807 1940.188599 291.138367
1193.384766 2045.144043 21.309368
911.525452 1913.166138 96.165817
1057.502563 1911.392334 310.467041
1189.276611 2036.039063 -14.972424
771.007019 2135.747803 143.538147
1069.364380 1824.904907 100.899590
1166.742188 1969.788208 20.691235
852.819275 1938.714233 250.553650
1066.084229 1835.289429 207.128891
946.255859 1907.957153 245.832474
944.833191 1916.468628 165.698349
1066.140015 1837.565918 202.494324
1030.637329 1940.520142 307.471039
791.079346 2170.705322 174.071671
917.767395 1924.440308 245.294983
803.541504 1955.452515 289.461914
1160.013428 1893.552979 143.818390
1028.314453 1850.106323 160.844666
773.619385 2001.943970 338.870667
1085.661133 1827.327026 162.765228
1194.962524 1903.561523 224.191666
1193.095337 1897.070923 246.597748
1030.815186 1949.458496 315.360657
970.690918 1903.478760 310.651062
788.201294 1971.011719 270.068146
1126.378906 1829.619873 150.128891
1014.284241 1863.569458 132.589417
1137.430298 1949.991821 269.800995
1010.049438 1876.958496 271.364990
749.239685 1976.251831 264.549744
1058.350098 1850.250000 4.276437
1222.415039 2044.816406 66.021591
760.382019 1971.860352 97.267776
1144.911987 1858.707397 128.301773
897.180420 1916.707031 293.865326
1225.984497 2034.760376 109.676888
1200.358398 1977.380859 152.742523
1175.225708 1956.861328 291.400024
1128.482910 1939.349731 270.424652
1221.193726 1969.100220 218.311035
779.910828 2077.584473 334.861938
1116.322632 1838.827759 66.677773
1072.537720 1833.312012 145.924850
1175.446167 1936.044067 107.159866
1088.018921 1820.816406 160.285080
937.496338 1916.097290 133.495041
1133.615601 1816.259766 231.127792
741.122742 1978.233643 290.361145
1149.973511 1908.086426 57.618084
1093.990356 1912.795288 371.803223
786.629700 1959.857544 298.856018
1172.376465 1983.182861 47.615200
1036.111206 1840.037109 105.846024
725.025330 2025.618896 145.833710
1006.492554 1874.541382 196.358246
1217.546509 2017.267578 106.901138
772.260193 1965.888550 290.659546
1162.999390 1854.316406 257.652039
959.299133 1894.266602 280.533264
767.250305 1972.781372 326.498260
1203.223999 2007.140381 116.375809
873.152466 1921.196777 62.604622
928.115173 1900.766724 128.144135
931.063293 1929.841553 311.224335
1180.342529 1930.462280 110.157494
1073.610718 1891.260498 387.171326
1196.395874 1888.072754 271.780579
1193.650024 1982.026733 288.929443
1215.107666 2032.362671 101.467819
1032.963013 1840.223877 166.052216
1087.688354 1828.593628 198.193314
1111.156128 1886.269653 270.636963
1152.795532 1979.470093 367.143860
1079.023193 1900.911133 404.170502
1143.109619 1828.526123 235.154938
998.380005 1886.701538 254.462189
1206.012085 1986.214722 325.696808
956.124573 1886.972900 57.164185
1211.930054 2044.007690 57.165604
1231.761963 1933.540894 247.447250
1196.594727 1872.904297 259.758362
1119.497681 1824.999023 188.000458
927.697144 1897.770264 72.333397
903.199463 1915.544312 134.498596
1174.216797 1871.358643 249.488190
929.109070 1920.008301 214.395813
985.111450 1894.827026 84.408417
796.654114 1962.142456 325.444427
807.636902 2032.679810 388.902039
1148.675903 1904.507813 108.734589
1003.057312 1878.719360 92.341675
1104.103027 1845.376465 257.772461
1242.542725 1995.712524 223.813934
1085.677734 1834.569214 167.171539
1152.316650 1900.855591 140.912140
1073.528564 1825.214233 139.641006
1170.930420 1973.100952 270.765106
739.743835 1972.598511 101.915634
1223.257935 2015.140991 258.460358
823.829834 1964.054688 325.430145
821.570801 1967.039551 332.103241
887.706848 1935.162231 322.951324
1142.652344 1813.408081 249.724045
1215.274536 2051.715576 60.203857
998.306396 1895.095947 214.624084
1113.793213 1944.778564 307.442444
851.921875 1946.473877 112.918327
1222.457642 1976.380859 254.471100
1052.887451 1842.940430 258.393463
1062.152588 1850.964478 258.098145
1138.410889 1884.148071 42.907276
1080.827759 1903.866333 402.315948
1187.334961 1983.616455 58.216518
990.344421 1880.320068 192.874802
1168.276978 1921.852417 277.775269
751.529053 1984.049194 150.924850
997.713623 1896.517944 176.490768
1129.225830 1811.534424 222.895706
1060.297485 1830.663330 140.877243
1136.233643 1852.379639 86.690857
903.820435 1924.638062 321.747284
1220.452393 2069.093506 8.519756
1072.529297 1898.575928 330.412689
1125.283691 1922.916626 268.009125
1052.961914 1848.993286 195.209854
1195.947876 2039.772461 38.190449
1152.915527 1886.855469 121.872955
1237.937256 2058.986572 185.180008
1230.467041 2074.128174 118.455025
1247.427490 1989.483521 243.296570
870.913086 1902.666138 56.897545
1065.679810 1842.220825 45.026810
1171.319092 1964.572754 88.948143
938.331238 1902.853149 326.792358
1241.898315 2007.280640 213.184998
1204.508423 1984.320435 266.841583
1070.838989 1832.559326 49.275295
1179.390015 1925.407837 157.252823
1146.830200 1962.249512 344.039795
805.884644 1951.895020 186.976135
956.868652 1881.665771 61.563583
1251.793579 1996.525757 227.487610
818.795898 1944.690308 69.463791
1162.469604 1870.452026 204.906525
872.848633 2006.749146 360.714508
1050.103027 1863.752686 274.672943
1145.235107 1930.905640 -7.767927
1073.191162 1843.283203 188.059998
1037.025757 1914.362427 289.867462
822.930359 1946.242188 302.564270
1112.270508 1866.765625 271.763153
1182.659302 1930.544434 194.334137
950.231812 1897.983887 271.998016
913.175293 1987.057495 356.123322
881.215454 1934.635742 239.556686
1101.556274 1891.469604 399.927826
1150.752563 1861.817383 139.273987
1189.293457 1960.916382 140.768326
1053.042603 1841.575317 223.703537
939.948425 1897.954956 327.695770
1090.122803 1834.203369 229.189056
1119.399170 1844.535645 4.550781
1131.082520 1812.971802 130.945313
1172.689087 1926.792236 56.568378
966.478210 1876.582275 69.556259
1204.488525 1945.098999 216.854172
1175.667236 1956.865601 301.710114
1020.947693 1865.117554 95.943199
1255.801514 2022.342529 213.717941
979.891357 1895.850586 78.654663
1208.232666 2005.391846 277.683350
1117.595581 1914.104614 396.522888
1217.973145 1981.068604 258.029358
1221.846069 1999.697998 173.733276
889.555725 1945.297485 251.622269
938.482605 1901.853638 284.983490
1177.787964 1985.475708 75.690422
1060.276245 1897.481323 331.056946
1037.198975 1862.071655 278.420135
1159.867798 1852.299316 258.203094
813.514893 1958.732300 262.308655
1110.386597 1821.988892 215.936951
996.823730 1889.518066 304.505188
1183.774170 1929.213013 184.712677
876.447754 1941.346924 298.008636
985.379822 1882.145874 88.939705
1188.386597 1939.374268 191.152359
1172.410522 1957.916504 326.835907
894.594788 1896.151001 33.238243
966.714905 1892.927368 25.216204
900.919006 1929.063354 247.060425
1258.126343 2017.429199 246.796753
1185.088623 1981.944336 52.299507
1172.594482 1919.283447 129.479935
1062.609253 1834.973999 56.304161
1110.771973 1815.650879 205.232117
1175.773438 1993.751221 -18.471338
1154.606934 1946.407104 272.893402
1121.038818 1914.415039 329.006927
1174.954712 1962.546265 342.275482
1202.089966 1878.347778 254.937683
1076.667236 1830.490845 63.522766
837.762634 1961.329834 176.490158
832.126282 1936.870850 80.028755
1129.998779 1848.900269 74.585686
1150.533081 1877.230957 -13.419101
782.875000 1966.678833 118.292542
1180.677246 1937.983276 135.218903
940.734619 1907.147583 140.935196
1134.605347 1835.110962 141.864014
1071.736572 1839.219849 17.067631
889.555359 1915.715210 286.421875
1132.799316 1842.168579 212.006287
1108.042236 1811.031128 150.700775
809.253235 1958.878296 290.545502
1176.073975 1922.034424 91.073341
863.596558 1948.817383 224.268829
1118.974243 1934.925537 389.103851
1085.709595 1832.861938 233.766693
1028.896118 1946.033691 318.259064
1000.660095 1867.704346 51.607491
861.218079 2012.390503 374.436798
820.943420 1955.146240 114.198112
1057.663940 1832.710693 82.662865
1227.943359 2044.128906 182.329254
1061.403198 1833.944214 93.903198
1092.730591 1824.609985 234.226135
1178.883667 1944.575195 186.144150
1024.843018 1872.796631 281.619110
1173.643311 1849.944214 228.828125
792.959961 1946.155029 89.642006
1206.329834 2018.960327 86.442543
971.830261 1859.513306 41.217628
1174.379395 1972.546997 311.690918
1195.116821 1974.319214 267.112762
1112.104248 1816.339111 98.890602
1114.644653 1987.821045 270.613770
859.176819 1964.370483 359.311371
1127.329590 1821.413452 159.422180
1176.091431 1930.677979 141.135056
1142.041016 1813.568970 165.340302
942.475647 1911.860352 287.412994
892.348511 1929.361938 185.582092
829.644653 1951.771240 300.801025
855.121704 1958.902954 342.325653
1202.028687 2015.994263 86.662132
961.119080 1908.823608 98.047302
900.763855 1922.765015 57.048668
1064.026733 1840.677979 234.523193
764.460999 1949.663086 60.597626
950.953613 1912.374756 246.243851
1194.533325 1967.076294 150.303619
1033.433228 2008.237793 332.484802
1258.010620 2023.753906 231.999603
1095.326416 1835.096313 126.411819
1117.986938 1822.298950 225.703979
1086.852051 1907.619385 357.634888
1155.777588 1919.278320 42.254753
1136.312866 1809.905151 225.580643
1119.393188 1866.408569 -2.806917
1211.086792 2024.828979 117.951607
1006.019531 1861.301514 58.616627
748.973389 1977.841553 167.672516
907.358154 1930.542358 140.572968
1109.277344 1818.289063 221.586060
1084.113281 1893.847656 369.565155
986.985046 1937.057495 348.947540
907.497986 1914.723755 40.101292
1032.047729 1844.632690 62.337105
786.181030 1961.476074 317.693695
1003.478699 1900.521240 194.358749
986.618591 1880.575928 73.938591
1172.494507 1850.122070 262.762665
1112.191162 1826.945923 257.611542
1203.884888 2024.488525 118.152878
934.949463 1990.041870 346.226776
1186.519531 1963.917480 341.391205
1164.387207 1966.538330 276.737640
832.177185 1940.373169 110.131088
995.512329 1881.302002 283.082550
957.248596 1907.635986 311.753937
917.402344 1918.809448 202.133224
1092.724854 1814.116455 149.275772
873.606201 1931.077881 222.962265
1085.428833 1826.522705 82.883675
1252.259033 1939.458496 236.192841
1014.457581 1901.978516 181.286606
1147.523560 1847.785767 173.226013
1172.565918 1899.074219 180.781494
1227.520508 1968.548950 249.145340
1104.953491 1924.975708 411.375549
1096.142822 1810.702271 136.814301
1088.858032 1823.487549 156.401321
1141.078125 1879.716431 -9.273495
1157.085449 1964.437500 266.921051
1028.727295 1996.422241 332.006439
1151.442383 1840.966553 200.615158
1203.190674 2009.643677 183.245850
1100.030151 1935.018555 288.103638
1190.906738 1877.873169 245.638535
993.162109 1896.825562 226.445160
723.770142 1977.906006 166.355957
1112.392822 1834.278198 257.536774
840.541199 1932.932129 302.574005
1000.842102 1891.460205 307.236450
1103.898071 1811.206787 133.810471
781.114014 1961.335693 112.541702
755.139954 1993.288086 346.880157
1227.328247 1952.462280 234.640411
1036.296753 1843.927368 160.710403
991.048950 1870.839233 80.136337
1109.191772 1833.669067 183.916336
771.941956 1973.353638 190.304489
1180.516724 1897.913086 257.390472
1120.267456 1832.042725 78.692848
893.970581 1910.424683 120.284622
1208.695313 2015.369263 169.575714
1066.902466 1839.021484 45.533134
822.310303 1949.210327 262.494781
1027.355103 1958.258667 316.796112
1123.284424 1832.328979 258.964539
1026.874268 1853.413940 173.157120
1033.669067 1859.838013 193.652100
1142.364380 1841.778687 192.618820
909.669922 1924.262451 301.203918
1143.601685 1867.539795 72.099632
1227.100464 2078.758789 60.562798
807.283875 1950.245239 170.103867
917.408264 1886.033569 32.327591
1137.800903 1877.203491 49.734367
790.533020 1957.060547 180.381134
1168.359985 1915.011963 134.978027
1100.251831 1923.492554 326.718903
786.832397 1960.443726 263.323914
1125.742065 1816.174927 87.819794
1050.698120 1841.472656 201.736588
859.073181 1968.493530 357.636047
1083.859009 1823.572021 186.964996
977.728027 1922.449097 335.436890
1180.632690 1943.574463 0.512962
936.023804 1916.765625 328.509705
1239.017334 1969.799683 246.241638
1044.401733 1843.342285 17.418686
1127.389648 1831.824829 47.786812
1156.916626 1913.928955 82.051239
1130.017090 1831.301025 244.491165
1143.902588 1848.807129 157.180573
955.476746 1885.703003 46.850067
1102.566406 1835.072021 249.989059
1203.762329 1913.105469 251.601822
1084.517822 1957.128906 364.824432
775.219788 1956.432373 280.188446
1165.692139 1913.684082 98.524704
1178.639282 1937.775024 145.263016
1173.987671 1895.732544 213.764771
867.425171 1940.517578 251.581375
941.225037 1915.870972 242.434235
1025.442017 1864.670532 214.964661
1165.715454 1909.128784 193.406982
1221.032959 1948.240479 228.492630
1103.271240 1816.115479 112.274200
1057.354004 1843.889771 165.237701
1190.448364 1926.319824 184.837418
979.128235 1893.524048 246.910202
983.762695 1888.466187 305.536804
1169.369873 1909.831055 264.850372
887.933044 1940.638062 96.393639
943.993530 1960.906982 328.795837
983.305664 1914.698730 331.025055
767.153870 1999.500122 156.141541
1203.178833 1928.417603 255.835037
1092.830811 1921.405396 278.117249
1023.265198 1867.786621 26.806381
1155.442749 1924.227539 -11.143285
1237.983154 1991.719604 253.135727
1188.990967 1935.506226 206.478516
1159.521973 1832.276855 219.261398
765.514099 1982.960693 293.240387
908.477661 1919.517578 135.690125
816.817383 1960.583618 261.746277
937.124512 1917.072632 213.919373
1205.348633 1982.817505 196.396286
716.673218 1975.314575 125.427391
960.230347 1905.927124 137.563583
1027.395630 1850.859497 144.950119
1029.717041 1858.641235 219.418823
918.211182 1907.698364 38.028030
1066.696655 1873.404541 287.988586
1187.531982 1932.027466 203.138138
974.319519 2022.973511 335.532562
1119.456543 1851.061646 268.704132
1110.835693 1812.626709 125.142494
1046.806641 1926.537109 351.891235
837.244690 1929.608765 87.834396
806.110535 1963.494629 236.532578
1181.705200 1972.845947 320.481293
845.618286 1948.110840 257.478333
1202.864014 2007.740601 277.723511
1040.587891 1849.804932 117.001610
1113.891357 1932.513794 290.233093
814.432251 1960.178345 308.385742
991.088318 1892.201782 82.779022
1123.510254 1839.534302 242.916168
1173.750488 1941.486694 85.276344
1036.782471 1846.420288 49.846012
1173.863403 1959.747559 8.561005
1084.978394 1841.973511 259.185303
1181.021851 1985.917358 23.418268
1082.349487 1831.033081 136.272781
818.751282 1959.101929 249.174805
775.172058 1972.715454 118.712692
750.055420 2017.694702 218.615067
946.462097 1905.982788 165.517059
786.945251 1940.134644 101.815605
896.324341 1922.622070 326.915833
1123.461914 1819.589478 204.707520
925.702515 1911.216309 254.165009
800.166809 1945.884521 98.146126
1024.395630 1855.827515 160.352921
1126.358154 1817.332520 221.574127
968.032227 1882.276123 99.029526
1024.421875 1885.151855 291.797455
1195.177734 1989.705688 110.912125
870.076721 1932.293091 248.530777
1046.767212 1858.046997 251.766235
989.374573 2004.309692 333.565613
987.862915 1891.404663 297.072449
904.436829 1917.719849 204.172195
1195.302368 1934.895020 260.854797
1088.623657 1827.205811 193.090378
1175.265991 1938.288574 122.214569
943.031067 1903.939087 264.279327
942.731506 1910.891479 224.743454
1066.025391 1885.968994 295.531799
1057.869873 1850.401245 269.524719
739.289063 1991.790649 295.279968
1123.964355 1824.158081 196.367996
1206.234497 1995.311523 144.788605
977.707947 1889.875488 97.614868
1108.312134 1817.762329 77.234146
1229.991821 1965.831909 254.614197
1116.339111 1833.679810 260.880035
1137.042847 1834.549194 209.828339
1168.351196 1951.607788 287.108185
732.385559 1976.007568 132.635406
1143.674194 1896.296265 38.492802
1154.545776 1844.460815 218.130875
1048.344971 1841.420166 224.436203
853.755432 1962.167847 338.360046
767.243042 1971.369507 161.506073
774.580811 1963.946167 224.185303
1151.284058 1856.135620 178.649567
981.329895 1885.068726 289.934418
1060.912476 1841.850220 143.755112
1161.107666 1874.326538 197.328369
1022.753235 1878.308960 275.400421
963.114319 1917.284180 342.929565
840.428345 1943.767090 312.013000
949.573242 1894.448242 77.625504
1208.526978 2018.076416 101.747986
988.176392 1907.336426 116.076111
1213.264282 2012.870728 -19.977345
958.789551 1920.728394 336.488007
755.662292 2055.683350 267.429138
1077.302368 1833.766357 73.864708
934.370667 1915.875977 333.771912
1047.975830 1845.238037 19.704212
1219.276245 2038.244507 132.246689
1039.092163 1861.320923 200.709656
1173.312012 1981.439453 10.398297
947.106506 1884.332764 72.929863
1063.576782 1911.328003 329.790710
1070.920166 1895.960693 294.031830
889.795410 1911.205444 116.717339
838.646362 1942.482910 126.953926
1207.065674 2047.048828 49.837399
1078.800171 1815.697876 145.345261
932.081299 1951.970215 343.711914
769.582458 1995.761963 131.216873
1140.375488 1848.951294 122.086548
1171.932495 1929.808105 61.163387
969.035095 1957.625610 332.347076
1161.864502 1930.256348 13.719182
1105.429688 1828.460938 257.835327
964.697449 1878.598999 75.151726
1091.372070 1900.471558 271.513702
1175.775269 1956.878418 305.924225
1019.690552 1873.193726 239.434631
1242.219482 2004.402344 239.957413
803.238647 2190.168945 194.107559
1190.022461 1878.910889 250.576675
936.501465 1905.784912 276.729248
942.143066 1906.954346 98.614738
1166.337036 1900.104126 146.268600
1103.106812 1814.165283 19.507875
797.075378 1965.469727 320.969299
997.897522 1879.025391 48.462124
1187.486450 1989.382568 271.101624
1210.202637 1981.617432 345.475647
