ply
format ascii 1.0
element vertex 1408
property float x
property float y
property float z
end_header
610.543579 1883.815674 691.049133
530.586365 1954.382935 934.137756
295.531464 2041.095825 609.356812
380.777527 2003.494873 918.678467
273.139862 2100.826416 690.438660
404.199249 2002.603882 889.382019
455.644867 1913.739868 829.500366
264.227417 2058.326416 657.298401
532.313171 1980.665283 563.975708
592.960938 2111.329102 979.450195
525.800171 1895.430176 805.331177
630.088562 1854.449707 849.721802
605.231201 1891.778809 867.707764
387.373474 1984.211548 736.190552
482.107208 1970.495239 776.815857
629.816589 1888.109741 739.511719
379.335907 1993.937378 914.616028
358.899994 1972.457520 796.755554
367.159088 2007.933716 618.182739
292.067322 2008.334717 940.616272
366.245361 2002.463867 631.415527
599.407227 1919.099854 672.482971
502.111115 2121.979736 969.101196
567.797668 1887.894775 791.109497
606.405396 2112.562744 959.784119
577.204163 2018.721436 937.615906
466.848419 1917.483032 806.491150
416.430084 1987.758179 632.880676
697.668152 2055.460449 885.804321
534.361389 1873.953857 859.350220
440.640137 1923.329346 869.353149
523.180847 1932.087891 727.407104
642.523254 1857.581177 826.162964
460.375641 1903.760620 847.153015
498.930542 1924.412231 784.243225
536.177002 1885.021362 826.266357
525.181885 1872.994629 895.575195
516.015137 1905.637451 793.739868
520.625977 1886.323730 821.454407
445.204926 1979.885132 695.798706
627.869507 2055.440430 928.177979
359.483612 1999.947144 940.893433
524.130676 1948.865479 749.408508
628.725403 1859.593262 760.707031
487.749390 1925.721802 789.562866
598.632568 2015.930908 925.989197
539.606018 1958.912842 533.498779
592.888550 1896.589966 741.138794
482.295532 1991.001465 535.573975
420.989227 2058.078857 997.811401
577.688293 1875.316895 887.206299
519.360291 1876.314697 897.372559
716.487732 2123.726807 912.124695
555.378479 1953.039795 923.223877
335.097900 2006.409302 664.309570
550.746338 1906.846313 765.073242
528.160339 1896.120850 902.557373
359.524567 1966.907471 796.430725
341.749115 1981.856201 756.460144
606.205200 2099.646973 944.897217
395.535095 2050.404785 985.476868
424.481293 1925.427612 879.595886
514.644531 1886.222534 843.779053
305.859283 2021.536255 728.822815
348.690704 1991.776489 934.228088
461.146210 1913.911377 879.940491
773.098633 2127.169678 882.431030
656.275574 1889.487549 842.773621
477.519775 1967.528809 696.215759
304.375793 2043.682861 713.057983
538.795654 2116.454590 1006.226135
409.569275 1935.962524 834.858643
624.908203 1871.716187 803.195496
352.750916 2056.083252 782.322571
337.575928 2017.863159 581.579895
606.567444 2113.742920 973.384216
361.812286 1974.077759 752.289490
374.538452 1996.475220 662.611511
507.528290 1985.797363 490.426178
483.065948 2004.070801 962.870178
509.804565 1967.198608 562.685181
538.886108 1956.716187 561.865784
629.901611 1881.311523 848.584412
610.794250 1951.335449 895.694519
596.037476 1889.621826 745.350220
612.948975 2032.020996 922.992004
527.669373 2047.220947 995.684143
273.741455 2037.984741 618.715149
432.227386 1987.289795 669.184387
669.072083 1931.441162 857.563721
445.886261 1964.855835 718.895020
615.683167 1872.388184 775.257568
461.495453 2007.295654 621.122864
440.737305 1972.168945 682.501465
459.112976 1964.457642 934.846802
401.968750 1998.051636 667.899231
416.229248 1924.770020 850.842285
432.046295 1922.918457 911.493530
754.611877 2115.716797 888.809692
377.814545 1965.599609 810.668030
370.289215 2036.715576 931.841370
568.729858 1958.276367 918.795715
576.118042 1978.078369 907.060547
586.642334 1854.085449 859.043762
560.273193 1881.380981 812.812744
310.587738 2006.340210 753.089233
445.215210 1982.225098 602.719910
508.628510 2041.024658 990.723572
378.368225 1980.578613 885.053833
356.616730 1981.145020 717.382202
505.414795 1964.787476 597.889465
436.883484 1957.007080 749.604004
314.906250 2018.831177 719.138000
718.555359 2024.328735 870.628174
674.621216 1849.930298 826.016052
367.859131 2033.371216 526.004211
346.465332 1976.928589 743.576477
456.933441 1902.235229 889.469116
702.130188 1917.542114 830.871521
350.337463 2026.547241 790.398132
495.446320 1917.987549 784.407654
358.097656 2018.899414 950.908264
580.634399 1896.712158 774.917908
508.606598 1897.926514 832.308044
618.510010 1963.742188 889.701233
592.686035 2115.645996 965.814758
558.687256 2061.384033 962.332581
353.807129 1977.690674 729.299072
519.160706 1885.980103 834.600586
282.843597 2058.656738 640.944275
470.883942 2012.075928 538.557739
349.150360 1984.778198 766.521423
489.414185 1933.773560 945.155151
590.219604 2126.759033 973.682312
424.530029 1931.850952 841.066895
519.737000 2017.638062 1001.799377
751.260864 2110.830078 887.870605
468.401825 1982.698608 602.506409
367.612091 2011.612061 922.611328
453.296967 1973.813232 631.272583
453.461517 1946.840454 761.737366
311.761230 2018.459106 681.455872
657.043762 1853.668335 783.296753
572.759338 1880.600342 752.458130
556.711670 1942.383911 916.944153
513.950439 1962.299561 597.191406
360.307770 1993.386597 911.668091
533.087952 2042.620239 1008.421875
303.346344 2005.144409 932.325378
370.109192 2013.850830 584.163086
528.674622 1930.336426 916.794678
343.256775 2039.913940 548.722229
384.379944 1988.014893 694.587158
736.176147 2110.021729 880.771545
515.132080 1886.012939 822.185791
559.212097 1892.983887 764.148376
521.324219 1881.040894 819.626404
319.331207 2028.964111 632.284424
342.884003 1981.564331 740.095825
344.626556 2001.499878 653.159302
366.640411 1972.336060 779.626404
355.267487 2043.611450 789.199219
521.232422 2014.505249 995.795288
367.103912 1965.456665 770.676270
366.311371 2007.769409 603.275696
755.056580 2107.904541 884.437866
626.749756 2083.713867 925.601074
381.465973 2013.825562 835.855530
476.032318 2103.237549 980.394043
517.001709 1961.897339 576.922302
467.974121 2026.065796 971.860535
486.566833 1955.957397 650.201416
556.990173 1869.787598 889.382324
466.710785 2009.255615 511.716095
365.920288 2017.808105 600.016296
369.845520 1988.145508 909.688599
430.519928 2003.413086 884.747864
514.095215 1992.051514 582.901794
425.968719 1969.696777 740.120239
582.455994 1860.555420 851.287659
450.538818 1908.511475 879.397705
589.352905 1962.598999 910.250916
355.502258 2009.540649 788.927368
356.496826 1975.949829 797.490234
390.691254 1966.462646 768.173218
475.629883 1962.119873 643.884583
445.696228 1974.696899 698.114319
762.613159 2041.733154 881.936829
458.901306 1905.134766 853.349792
438.639801 1987.401367 630.978088
548.181396 1942.638306 773.952087
434.243469 1911.672607 924.428711
508.613953 2045.737793 982.832886
478.135773 1981.746582 528.654358
486.792114 1887.337524 920.497681
362.723389 1993.413818 698.331543
500.749847 2037.318604 978.237732
491.731964 1895.307007 818.059875
476.237823 2041.135742 956.652039
579.844055 1889.594116 880.019836
568.353577 1862.912354 863.795715
454.180023 1955.516357 760.159424
491.298431 1885.371460 881.499878
499.439484 2059.211670 966.250671
450.639679 2008.983765 904.413513
493.789185 1938.737061 757.848389
538.117371 1881.312988 824.657104
347.383453 1985.552734 933.065369
535.544922 1942.128174 641.599365
493.732269 1973.446411 511.077545
338.327667 1980.007568 751.981689
442.084503 2078.308594 1001.984009
346.488892 2048.418701 911.311340
555.087769 1879.851929 810.598328
638.086792 1897.263184 737.674561
434.806122 2032.187134 981.286194
458.477631 1943.044067 945.255920
411.947113 2044.963379 1006.356079
342.100769 2030.985107 608.803833
372.923767 2074.223389 834.552307
560.301453 2013.224243 936.154419
502.511078 2010.023193 977.077881
458.763336 2021.229614 921.321655
352.215515 1976.807007 786.528748
320.239227 2093.626953 760.898254
338.078156 2012.899048 739.822876
460.467468 2073.837158 989.655945
399.325775 2001.996460 621.563110
592.261292 1952.863892 904.587402
647.693542 1855.910400 805.644836
421.789764 2070.640625 1012.325134
623.556824 1866.120361 829.815308
402.256256 2006.710571 597.944031
345.218018 1995.781494 680.918335
713.406067 1980.931030 852.511108
387.678711 2003.518921 865.763794
495.020477 1999.241943 540.220581
630.053284 1881.642456 727.618958
522.785156 1920.710327 919.113464
658.748352 1978.067017 889.363403
483.783295 1888.825684 921.786987
286.737518 2032.873047 601.352356
553.332031 1872.946899 839.569824
591.771057 1861.291748 835.543213
371.357025 2011.246582 622.526062
420.501556 1926.282104 875.065430
632.543274 1927.891113 873.637085
276.107391 2040.560181 597.179871
293.038696 2060.921143 694.472717
386.532410 1973.428833 886.338684
472.925507 1903.765747 831.436829
354.454834 2038.695923 799.435669
541.856384 1899.058228 906.865479
570.580078 1950.052124 737.037048
432.493835 2006.073364 542.902344
620.793884 1872.622437 744.481567
365.677795 1984.098145 897.151794
399.666138 1943.322632 817.004944
624.722900 2085.610107 939.872681
277.496216 2042.349487 684.653259
563.916748 1878.689697 765.465515
473.010132 2004.567505 949.986938
459.420044 1899.946289 937.209900
507.844635 1996.747803 995.522705
618.794495 1905.401978 866.218628
469.197784 2024.542480 541.143188
375.386749 2006.777100 915.621948
767.967285 2079.409180 885.199646
360.303253 2022.630005 529.457153
657.769836 1915.690918 856.341492
385.743073 1987.802002 843.329773
595.186340 2051.083252 942.965393
632.533142 1898.790405 864.367004
420.129669 1959.294434 767.237488
501.915009 1959.632813 547.599731
471.692017 1957.616821 778.057251
446.616180 2060.624756 917.360779
429.549377 1963.548706 892.274719
614.100586 1864.493896 868.658264
559.638611 1965.497559 920.411804
481.947571 2014.921143 956.434814
444.658447 1903.235718 940.802673
602.842468 1892.294067 874.573425
318.007324 2014.227539 619.918091
609.918091 1891.586914 679.017273
372.486572 1999.340576 636.098145
701.429260 2000.423950 870.547180
527.542053 1950.550903 676.165527
330.593262 2087.691406 740.961914
553.339478 1961.784668 573.678101
494.137604 2109.800049 482.011871
667.721802 2018.600098 891.366028
453.136292 2052.104980 957.508179
523.591248 1897.055664 903.062561
714.749207 1961.460449 842.134521
540.493713 1926.668213 903.766418
489.706177 1968.262695 639.057495
327.881104 2075.584961 734.871948
742.371094 2056.560303 871.813416
495.863556 2061.199707 965.602661
478.359192 1905.531494 817.085510
266.142426 2100.466064 627.578247
550.341675 1936.581177 560.792236
459.151520 1963.704590 690.263855
634.639160 1882.755005 753.870483
594.960571 1899.199097 727.187134
665.919556 2083.390869 919.036316
381.581421 2033.860352 885.744141
632.009766 1873.755005 766.887756
269.007355 2032.408569 660.883057
408.308136 2035.453369 518.622986
503.172729 2034.373413 999.865356
351.148254 1994.474243 918.201477
567.613220 1946.351807 908.693420
390.467743 1958.566895 801.223633
506.526978 1878.386719 887.106018
663.287231 2034.416992 899.788452
549.330444 2065.213135 971.297729
541.533081 1945.269043 744.316284
522.747681 2144.740967 974.302979
319.765289 1992.552002 722.405945
351.947815 1999.391235 710.092712
538.549988 2026.696167 983.853088
474.741364 1900.802246 858.307312
669.891602 2066.611572 908.331848
558.830811 1953.059204 919.448059
330.147949 2002.377686 936.156921
658.139526 1859.688721 827.591003
606.084229 1889.718994 748.735474
456.153412 1960.361450 784.424011
536.642761 1935.885864 622.117676
465.730835 1984.282471 635.538330
737.842041 1973.185791 858.811340
356.463074 1996.770386 895.794800
626.316772 2000.407349 906.176208
535.236145 1887.478516 845.538696
495.726929 1986.203979 489.911865
488.715088 1911.326050 939.179138
506.062256 1949.535522 954.009521
616.047485 2042.406738 927.964844
308.889526 2013.885010 602.649292
446.504608 1912.055786 916.961365
568.778809 1938.967529 707.064148
562.584839 1973.429321 919.986450
546.734192 2109.153076 1024.736206
561.550171 2058.326172 947.032898
636.657104 1866.575684 745.219788
535.403564 1868.497437 843.938171
449.864990 1986.993286 926.120239
743.081970 2045.268188 875.574219
465.570709 1980.402588 955.879883
415.335754 2002.698120 886.671936
328.471161 1998.979980 719.659729
454.023315 1911.313110 962.349792
582.620056 1924.937134 644.530762
617.276123 1890.253296 733.273376
482.695221 1950.454468 959.019653
287.433105 2046.854736 614.186707
589.629333 1867.414063 851.330566
449.740295 1973.537476 915.261841
302.806183 2030.442627 652.450806
498.455383 1956.187012 694.050049
607.280334 1912.367798 690.387512
323.042450 2009.142578 948.704163
277.311920 2038.847412 617.158142
619.636841 1879.233032 707.306946
392.681366 2013.886475 663.079285
388.292084 1965.940674 772.933838
470.982910 1985.726807 566.289917
459.752930 1925.851807 800.681030
497.649719 1922.054077 783.652222
550.245972 1934.985474 628.789795
455.285217 1899.498169 909.248657
424.395996 1974.890503 724.113403
344.998932 1995.969849 691.303284
506.578583 1957.302368 656.187988
514.297058 1961.374756 662.697144
516.252808 1909.593384 768.744629
356.426025 1990.644287 698.613464
538.735229 1973.767090 932.407166
402.587921 2067.828857 991.369995
335.095093 2061.142334 757.726379
706.071289 2101.421631 906.926025
409.456543 2023.950806 517.136780
458.380920 2072.236328 904.903992
450.611176 1946.401489 792.763550
396.369781 2022.310181 576.201721
535.598022 1904.212158 913.674011
565.024597 2101.915771 1003.751953
586.564880 1978.276733 924.231262
549.473755 1994.001465 942.407959
419.239746 1944.361450 864.485229
517.530518 1970.545044 547.715210
551.870850 2014.367432 949.157776
506.681488 2037.130005 975.531921
457.510345 1978.941040 591.783081
629.315186 1917.458252 873.843140
288.453461 2040.265137 622.738037
312.052612 1999.019897 925.864502
400.933105 1988.792358 661.384583
350.982025 1975.008057 745.453003
481.226746 2088.081543 979.308105
784.819824 2100.550781 882.522461
589.480896 2099.442139 960.785095
561.529358 1866.539429 873.917297
359.046051 1964.146729 776.098633
531.456665 1875.873291 848.685974
589.495728 1880.684692 779.343384
512.702576 1881.568604 899.032776
669.705627 2119.945801 945.905762
532.999634 1954.432373 709.876526
502.750671 1969.573975 581.509644
454.598724 1966.421875 676.985046
509.794952 1927.628540 931.932129
516.532593 1975.813477 961.131531
617.757935 1880.665771 849.626160
633.110107 1859.704590 822.321350
459.829468 2019.097900 945.586731
461.099609 1953.316528 748.583252
319.577911 2079.340576 725.927063
506.839233 1962.899048 592.548157
605.671082 1863.933105 843.231873
734.097473 1980.250000 845.880249
655.751282 1919.736328 858.836670
598.631470 2102.944092 957.434387
611.831909 2069.870361 932.244812
545.523376 2040.578247 985.233398
594.431458 2095.464111 968.795105
714.189697 1998.873779 861.241028
314.571747 1989.306274 742.871643
408.238007 2049.010254 991.141235
449.449768 1916.924561 846.590454
379.894073 2008.069214 922.567871
279.247131 2066.500000 680.962646
712.316162 2092.710205 897.949768
423.041046 2012.548218 892.152893
434.688110 2066.774902 990.346375
561.322266 1894.687134 769.262207
397.959259 2112.716797 525.832581
720.500488 1990.407227 854.536072
708.476440 2041.899902 884.951416
279.573944 2042.035767 666.327332
551.473022 1893.576050 802.829529
458.136719 1996.990723 492.624542
348.515472 2022.947876 935.882385
335.995605 2006.680908 874.962708
333.474487 1989.751221 736.015137
498.953369 1954.534546 684.468689
557.280701 2010.396484 940.330872
321.461975 2013.288818 617.918701
570.684265 2019.280518 939.839844
608.971252 1875.861816 775.947510
524.858276 1944.386719 653.275940
263.960876 2067.003906 630.740784
562.298279 1874.541382 816.633240
470.788910 1949.161133 726.572205
344.328430 2031.504272 943.416077
449.662506 1972.232300 704.614746
527.094971 1941.186035 707.081177
484.141113 1944.100342 772.964050
436.308716 1985.080566 889.483032
382.980835 2005.941650 625.476318
412.860260 2067.324463 1010.490173
688.535339 2016.970825 885.276001
492.387329 2004.038940 973.852051
753.135864 2066.141113 867.775879
528.179749 1973.244995 941.299133
287.889221 2096.232422 701.171082
637.607971 1961.860107 882.365173
570.691101 1931.079956 683.336426
594.313293 1868.412354 817.639160
333.384949 2036.245850 933.364868
330.344574 1997.112793 694.958801
456.849121 1959.593262 928.248901
699.671570 1999.300781 871.141235
492.501404 1905.425171 798.305115
492.003571 2052.678955 965.484192
289.725769 2018.261475 646.804504
480.531769 1900.758423 830.743408
459.902008 1900.343872 855.823853
424.212616 1926.666992 869.965393
485.179047 1917.811035 803.579407
358.657257 2014.574585 781.698120
514.464600 1880.265503 860.614685
531.722290 1943.385132 713.737305
433.277313 1971.254272 881.010193
377.516418 1963.299194 775.373291
579.318848 1927.259399 902.796692
693.373962 2009.329468 878.329468
436.107697 2001.717529 557.522095
319.474670 2039.788696 587.224670
352.042786 1983.341675 757.004822
536.278687 1870.444580 889.013184
487.083374 1983.395874 501.344788
458.011139 1895.196289 882.620422
655.334290 2055.116211 900.655579
351.185577 2015.609375 565.795227
535.303833 1906.968140 914.141541
423.868011 1982.997803 726.725769
290.142548 2040.449951 615.406189
451.912506 2038.377563 947.467651
521.148254 1894.339355 830.265625
388.681122 1987.482544 877.632019
477.725677 1887.112061 879.722290
428.020050 1935.229370 880.983887
455.249084 2049.213379 930.660400
590.351563 1882.189331 859.569336
305.693878 2020.217163 755.399292
285.126160 2045.306396 657.025574
501.852478 1946.943848 700.827698
338.506287 2023.019287 593.075439
525.339233 1976.592407 520.383423
439.721405 1924.822021 919.537781
406.880920 1970.423584 881.215149
301.981659 2041.136230 719.045410
377.373291 2068.032715 844.505249
485.164978 1961.538208 806.419189
448.892670 2006.489258 488.683563
330.250610 2008.523315 631.485168
531.127075 1965.144409 537.959106
521.458008 1941.557129 933.275024
384.429810 2037.416260 997.039124
673.836365 2055.145996 906.291382
626.176880 1872.411621 771.989563
403.935974 2006.278931 626.250610
571.743347 1911.802246 702.359741
317.878082 2009.960571 674.583557
537.808289 2087.467529 1003.341736
656.718811 2018.816528 898.629822
498.972137 1926.620361 931.108948
648.280396 1991.829102 890.774109
381.900726 2017.362183 824.243835
424.487366 1964.670776 762.651001
546.451355 1935.682495 675.556335
539.979309 1963.785156 532.119446
550.717896 1931.884888 634.264160
604.295471 1987.124634 897.837036
646.247131 1895.806396 738.293762
610.475952 2033.989380 928.087097
385.092865 1997.839111 691.791260
445.759796 2003.131470 891.959778
548.559265 1945.291504 675.779236
578.521484 1876.190552 805.729309
356.385620 2024.954102 584.731445
494.545288 1885.223877 855.040100
510.251801 1898.157471 859.612305
466.442261 1944.956299 781.149231
486.315521 1948.930908 720.663757
393.713715 2047.709106 995.073303
642.454956 1891.575195 768.390991
327.250092 2025.836792 949.981567
340.224854 1993.971069 687.359253
463.758575 1980.708740 558.582153
319.574768 2025.037109 588.056213
601.306458 1876.337891 793.299561
338.255646 1995.538208 793.850769
562.559998 1937.788330 582.285889
427.163849 2001.315186 584.705383
381.639801 1998.758179 693.489136
393.196106 1973.432495 837.041626
472.074951 1900.553467 900.429443
517.524475 2009.653687 993.475647
368.647156 2014.818237 923.462524
473.961823 1978.422852 617.265137
526.003052 1939.952393 710.951355
364.874420 1976.887451 790.364441
658.566406 1919.984131 860.501526
368.082916 1972.699829 789.202332
355.421967 1970.983276 771.108521
601.932495 1963.839966 904.154663
781.189758 2122.388184 877.137878
512.061707 1986.342285 997.007263
302.416687 2022.368408 702.372253
510.313354 1900.020020 788.158813
646.985352 1856.316650 844.851563
478.008057 1896.559204 850.658020
546.347229 1966.174072 930.054199
557.974182 1870.734253 838.481262
579.353638 1907.282715 893.287598
384.977631 1991.181885 706.195801
554.044189 2023.265015 958.592712
475.508545 1889.384399 883.875793
514.505127 1982.168945 538.482605
500.043182 1893.135864 831.795227
484.589630 2012.598755 465.608917
397.387421 1965.194458 829.877991
338.483337 2014.370239 935.706787
715.437012 2056.980225 887.441162
350.392395 2018.409790 661.846741
338.550537 1990.483154 691.283569
531.358704 2130.010986 1002.282715
549.947876 2030.755127 943.577026
547.490479 1938.752808 637.558044
709.498657 2036.177979 890.245544
519.410095 1955.103882 588.164734
667.497070 2096.389160 936.447327
476.399567 2001.270630 954.710205
432.994995 1957.586426 751.550659
422.111694 1961.962036 871.288147
320.025757 2016.283203 602.195251
347.515381 2072.209229 773.904541
659.813293 1989.172119 893.633667
577.957825 1900.514771 751.500183
636.822449 1859.528076 818.549500
563.565735 2098.527344 995.113525
622.348999 1867.443848 821.141907
651.842041 2034.256714 918.428528
312.131439 2024.318848 944.524719
552.428711 1866.799194 891.852356
358.291565 2180.959473 572.641663
544.186462 1877.100952 822.380249
389.658936 2014.155640 912.979614
480.264740 1982.579712 503.842926
590.183411 1881.613037 781.656006
584.562500 1879.339722 869.632202
441.318268 1911.242798 925.114014
391.609283 1993.648926 926.736450
478.876373 1957.583740 701.048706
345.378693 2032.827026 909.739258
468.534180 2031.683960 939.819397
411.995117 1974.447998 865.647339
338.511719 1986.456055 766.713135
369.166870 2002.084839 901.690613
387.705658 1991.628784 904.434204
376.105896 2006.159546 925.860046
591.594788 1923.730835 650.587585
490.705048 1975.776978 504.230225
490.545654 1899.298828 897.196045
289.076263 2032.463013 643.413879
475.350250 1909.394531 847.271851
572.730591 1931.210815 620.618958
378.271881 2020.599365 610.941895
502.965912 2001.223511 978.812561
500.949432 1984.962402 766.791260
474.120178 1955.134766 959.029236
404.051239 1976.131226 745.457092
363.696136 1994.484009 935.334534
373.608612 1997.031860 934.686462
509.357635 1988.546631 543.759949
488.287323 1889.274292 879.385254
587.913086 1856.892944 843.463745
448.757660 1919.366211 913.857300
523.426514 1949.629028 649.815613
632.680725 1906.735596 706.944214
472.011322 1992.284790 498.701660
595.732544 1963.758667 905.540588
541.816345 1971.285400 546.629272
526.389771 1889.159180 914.901489
479.274200 1893.964966 880.673828
412.509705 2056.043457 960.408997
326.870422 2029.206055 545.284729
476.670807 1916.926880 782.086792
614.809509 1978.447388 900.352295
559.258423 1948.952515 916.643433
404.966827 2037.808960 992.442200
512.715576 1889.310791 808.295959
515.927979 1950.875977 944.626343
424.705536 1988.771118 672.733215
652.327698 1876.545654 779.650513
459.671631 1934.073364 952.730103
324.394958 2000.792236 924.570374
635.887756 1856.207397 858.739502
313.724518 2019.079224 721.772156
687.191895 1951.332031 857.472900
309.620789 2016.034790 669.110046
529.000244 1958.522095 607.994446
375.635193 1978.557251 727.709900
279.673126 2045.406860 678.589417
516.011230 2112.074463 988.190063
369.084564 1982.846680 718.396423
365.364960 1993.131958 913.629578
387.775269 2016.306519 535.757935
518.388550 1883.526733 899.216919
302.750214 2008.639648 951.183716
503.840790 1955.116699 762.606934
496.585632 1911.456055 935.377380
460.921875 1900.508301 945.324402
450.437256 1985.781128 566.323547
440.518402 1949.799927 793.102966
331.858215 2004.313232 638.824768
603.164551 1860.561890 822.162170
481.201202 1953.095337 474.410217
542.556335 1866.677490 840.445557
686.824646 1872.701416 830.780029
698.119812 2002.771973 880.907837
454.565826 1923.912109 820.602661
489.284332 1943.733765 971.273926
563.622681 1919.218262 592.958923
480.120605 2057.420410 968.089539
451.558044 1926.103516 827.239502
418.837006 2234.820313 572.495361
388.965790 2007.764526 828.441345
388.694946 2014.916870 519.498962
647.333618 1883.714966 753.642151
593.505310 2132.269287 965.280029
662.356873 1877.958984 785.324280
409.753601 2013.089966 504.446198
659.938049 2027.084473 897.256348
414.490814 1951.626465 788.437927
598.943298 1892.907715 731.995056
416.913940 2005.923584 574.438904
566.272278 1948.843506 766.960632
390.102478 1980.833984 863.389709
339.816833 2054.893311 769.474792
568.386108 2076.045898 963.312805
449.304138 1934.156372 930.332825
649.381592 1884.138550 765.898010
651.499756 1924.437378 864.597473
474.090424 1956.169067 726.541504
530.342529 2021.868042 991.724243
664.025452 1879.161133 775.671631
576.989014 2084.997803 963.267212
334.000122 1988.363281 753.291870
309.480774 2036.358032 724.224854
446.073395 1985.865479 627.308960
435.073395 1928.321533 839.830200
487.035400 1956.328857 733.977051
568.341431 1874.564941 848.303650
661.066772 1922.868408 854.286804
750.086975 2082.969971 859.365295
310.899597 2105.325195 718.206970
384.879395 1991.906616 715.025391
606.762085 1912.552246 878.147705
591.931396 1888.918335 659.695679
294.328888 2021.459595 668.774231
311.295135 2019.645142 593.994080
413.420044 1970.854004 874.655762
522.561707 2037.475952 1003.685974
372.177124 1982.871704 863.525452
398.504883 1963.038574 824.432983
440.335876 1912.304199 863.744446
397.995850 2055.198730 961.332520
637.251221 1864.853760 788.088013
383.463348 1975.967407 732.274353
324.332855 2008.368896 636.243347
631.452637 2049.709229 924.949829
524.814697 1879.993896 818.019043
349.390167 2184.156006 584.358276
625.433899 1862.020020 789.995300
639.344360 1872.162231 773.668030
733.235962 2126.512695 880.826172
310.045410 2013.066406 953.590393
637.839233 1878.434570 753.998291
589.110596 1873.679932 881.395752
476.850311 1966.069458 767.724792
603.271301 2006.650146 918.498535
550.229126 1978.942139 781.786438
717.946838 2011.339111 877.408264
575.717346 1900.891479 749.169312
524.952576 1939.715820 610.458618
300.984497 2005.100708 954.492493
336.224548 1984.863647 762.659241
315.523071 2005.445435 944.603027
410.654663 2060.287354 951.456055
526.616760 1892.015869 853.469299
759.844116 2065.407227 866.682739
667.029297 1893.408813 837.468201
434.540405 1944.392212 800.844849
562.706299 1951.036011 913.410950
461.549683 2053.876953 912.482910
448.633331 1946.841675 925.818542
559.134644 1941.415894 693.700684
594.073425 1890.865234 756.819641
596.186035 1865.174805 828.100037
479.492188 1979.502197 664.775513
529.382080 1877.845215 902.891296
654.526062 1986.121582 895.047729
399.593994 1988.031860 834.909363
519.333435 2022.705322 992.243896
732.264526 1987.235596 855.651978
270.451721 2080.959961 672.436890
524.431458 1951.749268 585.608398
478.062469 1890.742188 915.824463
266.245361 2096.386719 648.369019
500.624451 1895.880737 812.440918
591.146484 1890.732056 741.794312
668.238525 1867.654541 838.772217
285.225739 2080.514893 697.904480
624.746582 1987.857056 896.411621
351.824310 2028.150635 784.192505
375.419617 1981.416260 822.522705
449.722412 2052.768799 959.159851
676.438416 2042.990601 900.180481
586.286560 1884.685425 766.815979
449.504028 1977.301636 637.966858
335.666473 2019.830811 944.065979
534.060181 1896.016846 901.895874
470.992401 1995.112061 972.686768
364.618439 2018.496704 522.234192
375.839172 2041.903442 830.248291
556.707581 1913.098755 724.170227
582.928772 2073.217529 955.189819
327.024261 2056.277588 734.020203
382.633667 2026.007324 570.012634
521.229004 1953.494019 591.341553
556.792480 1960.008179 574.926270
637.556458 2026.147705 911.453857
738.021912 2072.791260 879.948120
679.473267 2030.963135 895.662720
665.348572 1906.330566 850.454834
550.468079 1928.143921 662.213867
356.315399 2011.927979 809.316284
520.476257 2010.717896 1009.184326
538.611511 1941.789673 611.612366
368.593445 2011.158447 621.142883
626.103027 1903.281006 869.152161
418.303314 1966.730347 864.618713
568.365173 1937.174316 903.208984
361.534454 2013.390381 560.098999
736.563354 2009.436646 844.328979
487.046082 1894.678711 914.330811
385.974701 2001.722656 905.643921
427.304199 2007.044434 497.840515
316.776489 2029.042969 597.778137
620.511414 1864.624756 810.699768
360.246429 1995.673462 920.298828
617.911316 1868.561401 785.203918
339.512604 1987.536255 709.883850
395.730743 1990.991333 701.206482
748.865356 2044.846069 865.257446
683.769165 2112.996826 919.488647
533.101501 1894.192017 784.179993
494.536407 1919.555908 781.592346
306.250824 2044.267578 720.577759
549.960510 1939.480957 659.578857
490.694580 1988.492188 596.120911
572.739807 1962.803833 923.745911
481.670776 1904.966797 815.362915
554.892517 1890.280762 777.042236
435.406311 1979.007324 676.951050
498.633331 1882.350830 902.676758
708.062927 2075.510010 893.398743
469.954254 1953.070190 728.499451
564.257019 1948.838867 726.558838
504.299194 2032.176758 982.639526
757.387329 2103.144043 878.719971
409.747803 2064.356445 961.751892
395.418457 1945.727051 805.506104
394.693817 1984.051880 676.399963
458.412384 1982.385376 934.240967
287.507050 2009.447144 915.298889
602.625244 1869.644409 799.797119
542.536499 1951.432373 714.088196
379.619843 2010.427856 591.661743
366.376038 1979.951782 812.487061
480.903381 1887.281616 917.777832
323.433716 2007.433105 732.933472
666.843567 1855.623413 838.401672
563.289368 1895.126099 767.289490
598.767761 1874.690918 841.410156
273.635315 2063.965332 638.555969
436.888947 1910.854614 910.693298
480.967804 2000.824951 953.996643
350.692535 2024.787964 558.532837
358.573975 1970.352539 753.836182
390.917633 2017.336670 914.351624
490.013214 1970.578979 976.106018
553.275635 1915.597168 902.274475
580.343201 1906.585571 717.972107
586.290344 1942.484131 629.040344
721.842957 1950.161987 837.012817
490.177032 1975.051025 621.329346
424.259857 1960.007080 743.970642
337.631073 1985.623291 781.370056
418.042175 1949.547607 867.292725
541.224854 2045.345337 986.415710
544.299866 1951.532593 636.983459
460.077820 1958.984497 806.583435
719.358765 1981.251709 851.918274
493.652863 1970.681030 980.770752
607.479492 1931.922607 893.670166
595.546326 1859.339478 837.328613
639.595947 1901.836914 717.980469
436.052185 2058.279541 956.128357
655.835754 1963.841919 874.511047
483.836365 1883.181641 893.011902
553.690735 1864.574097 834.565430
624.706482 2096.711182 957.462769
371.815979 2047.207642 826.309998
467.658936 1909.875732 885.523315
503.935120 1964.733643 596.212402
538.660889 2025.407593 974.453247
310.851105 2013.943726 639.796448
501.146240 2073.769531 971.221619
344.887634 1991.105591 919.521912
311.387939 2069.795410 741.485291
681.538513 2065.705566 906.680298
531.433899 1943.019653 928.081482
445.357025 1993.011353 938.878052
446.844482 1907.556641 920.976563
436.050476 1979.099243 921.139709
713.766418 1940.190918 860.578613
334.082550 2000.626343 727.923096
483.570587 2067.306396 970.330261
351.222717 2025.734375 945.154785
482.059723 1974.961426 983.742615
337.067017 2017.366699 940.258057
463.246918 2001.523438 489.620850
547.920715 1934.110718 689.228577
484.007874 1968.987793 536.569031
522.349487 1967.645752 554.260315
470.388092 1961.775024 693.652344
698.307556 1875.508179 831.021301
687.742615 1881.535645 827.753540
395.066895 2002.635376 888.633423
514.230103 1929.025879 781.365417
429.881165 1983.635132 661.661499
471.031433 1889.001465 876.495789
429.443726 1978.659668 647.307739
598.122314 2006.078491 919.152283
388.102051 1977.393677 884.351868
587.981995 1909.423950 882.211182
481.501709 1981.036987 566.407349
516.884644 1935.023804 699.990051
387.799438 1979.044678 861.063965
576.378418 1879.526001 869.821045
666.445190 1993.125610 885.974854
517.460999 1886.752930 817.139709
300.059448 2014.485718 677.660156
402.877747 1986.509399 868.560425
513.956604 2011.069702 996.252258
669.279968 2056.142334 905.836792
542.036743 1907.659546 592.248047
457.093536 2003.065308 926.236145
378.285675 2012.128052 850.673645
344.857300 1991.437256 736.014709
587.038879 1919.511719 716.488831
273.596832 2124.568604 604.540588
431.875397 1925.180786 828.996704
611.067017 1870.494019 812.023499
481.674744 1921.536377 961.497559
435.411499 1993.227295 611.128113
529.633118 1952.927246 671.090332
333.968262 1976.660645 761.802917
526.725037 2026.311401 1003.759033
646.521606 1863.824463 798.296814
664.054993 1865.853149 814.603577
531.279358 1970.044189 624.799805
616.476196 1861.146851 856.558289
553.157471 1933.199585 567.119080
466.863678 2014.411987 930.040039
698.617798 2047.205566 892.029968
727.976501 2084.193359 891.448059
519.388489 1951.565674 691.188843
382.171967 1990.842407 903.037720
547.240723 1933.715454 633.634460
746.653076 2033.158203 865.445740
547.677551 2049.541016 970.764771
371.365112 1969.312622 798.545959
459.398529 1942.220947 780.059326
322.605164 2009.850464 693.881287
606.796509 1866.122559 809.642578
435.692444 1917.343750 891.587219
463.211731 2050.374268 925.386902
326.419342 2020.634766 739.304810
624.745544 1858.265381 826.782959
643.505249 2130.218506 948.221802
614.562195 1875.714478 858.852051
655.950073 1881.447876 776.743042
650.551086 2017.773560 900.416260
501.158569 1911.622803 766.205383
479.628784 1990.611816 546.930542
446.212769 1964.077271 731.221375
430.077698 1922.325684 854.508484
540.582336 1961.294312 550.594666
561.976929 1880.357666 804.868225
292.028564 2104.775146 694.865845
457.875732 1985.895630 921.211609
513.618042 2096.981689 977.097107
631.671082 1909.095215 861.850891
470.079315 2081.740479 987.442261
364.948212 1973.642456 800.738953
452.813080 2008.605103 500.531097
524.402283 1963.938354 560.270752
397.908691 2046.484375 978.465515
572.992737 1867.468384 826.527405
408.608704 1996.165283 859.060974
349.985321 1985.087280 733.414490
449.848511 1992.072021 589.662842
414.417419 2043.538208 975.995178
343.250458 1968.765991 783.736572
455.986542 1894.678101 894.785522
587.544373 2048.825928 946.041870
537.290710 1948.239014 595.423706
622.641357 2022.691650 914.466064
670.490234 1841.799194 814.099915
452.338501 2022.997925 534.323608
285.115051 2087.565918 701.834412
715.545166 1925.610840 842.580139
409.022430 1974.997192 701.244934
574.736511 1923.086060 611.052979
494.570007 1885.012695 909.592224
606.597595 1964.393677 908.170898
532.366882 2017.114502 995.164307
588.306274 1876.745605 846.112976
625.542542 1895.246094 740.371460
724.347961 2076.312744 890.341125
442.003693 1966.387085 925.002319
474.603760 1971.964478 980.530457
441.996948 2040.045776 538.934998
489.684845 1972.533447 529.359680
493.920685 1903.283203 868.530701
362.712708 2047.190552 543.717651
508.571747 1965.586792 543.202209
331.101776 2016.877808 693.071167
620.731750 2117.172607 956.692932
443.636627 1963.718140 719.744690
396.875092 2021.443237 530.265381
456.844543 1896.323975 916.692566
304.208466 2020.300049 618.654480
450.533478 1916.165771 886.801819
397.852661 2041.596313 482.779266
558.368896 2073.425537 974.535889
640.827148 2061.709473 910.782349
458.784882 2004.984253 544.804382
606.467346 2122.107178 964.445618
585.333008 1874.302979 883.280090
550.041382 1925.238525 684.797241
594.155151 1942.689453 897.975464
531.184814 1971.245239 514.900818
476.566101 1991.308350 563.330566
516.957581 1877.269165 893.731445
411.783630 2010.692749 894.438538
386.851593 2051.999023 988.407898
484.801544 1935.033447 966.617676
257.630127 2068.641113 677.290344
357.092712 1982.438354 928.248840
773.628601 2109.589600 885.743652
435.497681 1966.218994 700.182190
456.990082 1913.027466 853.829163
644.198120 1991.331543 888.715210
424.982025 1973.990356 703.689148
355.217285 2020.122314 934.841858
522.163330 1952.106445 670.487427
388.672729 2004.609253 607.212219
668.085632 1921.433594 849.937012
528.024780 1943.012695 651.205566
433.693481 2044.980591 966.811523
529.288940 1954.421265 582.701477
713.549133 2098.452148 903.911865
594.874634 1872.417603 789.872009
603.413574 1877.892090 774.200195
310.563812 2047.826416 548.571228
537.944275 1934.795410 676.236755
632.228882 2068.807861 941.716492
509.105927 1944.478638 943.880432
563.891479 1878.728516 808.210144
452.230225 2003.206055 607.963379
527.540222 1950.569458 632.216980
552.904419 1948.085938 704.484131
764.573303 2127.419678 888.035034
499.547485 1968.337646 666.366821
490.951813 1904.547729 795.973572
570.531128 1953.333008 595.018005
640.128784 1876.739258 776.590332
584.012512 1932.301758 639.178467
415.088104 2042.480835 937.456421
712.268188 2087.309814 911.762695
712.095215 2085.966553 900.307129
436.674042 1923.707642 872.078918
615.365234 1896.878662 680.317871
437.352264 2057.957275 994.473938
601.791687 1956.645752 902.121521
654.605042 1960.070557 877.435181
554.823669 1978.572632 931.055969
603.474670 1873.111816 871.422852
488.956543 1955.100220 972.576904
395.061981 2023.486206 572.625244
537.442261 1931.974487 557.572327
466.412842 1891.209106 891.932434
424.924255 2009.007935 538.625061
538.794617 1881.904053 831.296875
665.484680 1998.461060 886.119263
679.577698 1920.083740 851.397583
588.229614 1926.080200 888.803406
629.526489 2061.132813 930.785400
664.194458 2061.440430 922.705994
596.720642 1860.852417 859.094360
403.234650 1984.758911 838.377502
465.522339 1893.879028 903.284302
257.223236 2062.339111 620.978455
459.130493 1946.145142 755.274170
350.375793 2037.074829 911.202393
438.691681 1920.320435 827.526672
262.472382 2103.588379 670.562012
528.841614 1959.439209 555.127747
608.051453 1862.260498 840.961914
539.352600 1983.668579 936.406860
425.951080 2016.806396 518.106812
588.899048 1977.867676 924.592773
406.427704 1992.115356 655.459473
268.922546 2048.532227 675.875488
432.407349 1988.667847 611.973450
630.285339 1972.457764 894.221619
355.228516 2017.615967 618.569824
470.747711 2026.067383 937.782104
276.192200 2072.333252 640.369446
275.187897 2119.495605 682.710144
582.961670 1961.086792 918.128357
665.262634 2044.801514 905.966064
270.692566 2072.269043 642.439575
452.418854 1948.141479 765.204956
382.452728 2011.628906 603.951599
546.431946 1955.328125 578.964783
507.481262 1958.325073 969.805054
497.015594 1961.667969 725.379456
413.544037 2059.601563 1001.445007
546.461060 1932.220215 914.555847
391.018555 2029.464111 912.177917
494.446259 1888.467407 921.903015
425.330292 1985.708496 665.214294
593.624573 1857.275635 858.250366
315.349823 2040.411133 559.405029
404.564514 1983.642700 709.534058
435.607300 1986.064941 641.171753
484.904968 1904.525146 880.400757
475.071655 1983.469482 570.601990
605.886719 1862.990601 863.311646
488.809692 1974.965088 627.692566
544.871216 1934.556030 696.270935
680.208374 1955.230835 861.514709
503.210297 1973.234741 614.200317
343.402802 2015.367676 622.954041
504.290833 1966.557373 582.298279
486.860504 1982.410889 548.123169
498.588745 1977.848145 610.419739
568.234619 2102.813477 1000.011047
483.384491 1902.762085 818.501526
352.452179 2003.782715 762.606323
510.269379 1912.119751 924.155273
348.608246 1989.672852 789.702026
768.735352 2124.788330 885.368896
434.841034 2033.534180 884.937378
597.968811 1909.722290 655.236877
373.757782 2018.948730 543.350220
456.385315 1961.774048 702.974976
336.618195 1988.539185 919.243164
515.297302 1953.956787 661.257690
340.293060 2011.121948 634.825439
504.736420 2013.474121 544.482544
492.202271 1912.953613 788.963623
516.480225 1881.637085 858.844543
324.369049 2021.658447 676.510315
572.063843 1934.053223 662.061462
478.866791 1907.010132 915.017761
639.743835 1902.016357 718.730408
500.699738 1886.571777 919.572998
467.291779 1957.018433 693.001831
506.906830 1984.966919 473.970001
447.105652 1948.005127 800.688843
531.146973 1953.845825 569.958191
531.207397 1896.010376 780.904724
541.194946 1958.408081 554.485901
391.763519 1974.946045 736.260620
536.828918 2062.160645 1005.456360
272.643219 2032.869507 633.628662
359.358368 1977.199463 768.101379
454.806305 1892.836670 921.257385
727.674683 2001.275146 853.218994
756.965210 2106.721680 864.557800
503.337219 1982.185913 1006.488953
331.813232 2007.545776 692.254150
403.837708 1993.357544 641.509277
460.798676 1906.883057 869.865295
540.689270 1937.459839 642.890808
561.230103 1889.048584 633.593567
678.876282 2032.758179 887.169678
555.363403 1923.479980 671.887939
470.669128 2006.398682 502.186798
556.611145 1933.181396 629.543762
389.639404 1961.951538 760.370117
284.933838 2057.166992 601.284302
310.183563 2218.052979 615.581726
753.722107 2117.523926 868.207825
675.099426 1919.840820 846.043640
640.481812 1879.495361 840.817261
267.131012 2036.917969 629.741821
505.320740 1947.871826 959.753174
709.221375 1932.305298 828.582886
513.923645 1894.560181 798.677856
644.565674 1881.087769 751.544250
287.492035 2055.526611 568.736816
562.682007 1917.610474 684.661804
541.637817 1891.288330 879.311035
252.922363 2054.834961 656.774109
480.963898 1908.082397 840.878418
490.630127 2001.844116 998.005310
673.247620 1876.431396 824.664795
455.494049 2054.901855 952.621338
418.393463 1992.805664 636.914368
388.389130 2022.562622 627.746643
474.945618 2000.708496 543.095276
511.458435 1998.136597 476.425446
578.052490 1954.756104 912.224731
451.962097 1988.389038 606.702209
553.546631 1938.225830 614.562256
311.560059 2017.182983 722.831238
272.631683 2047.484375 680.230103
553.006775 1901.810913 894.483459
391.561920 2046.498047 1013.195190
542.725281 1896.393921 802.594849
424.218567 1919.201050 861.658325
528.055054 2029.032593 992.514526
482.554321 1947.178833 720.629150
252.231522 2074.595947 617.572998
415.647705 2006.709106 909.076782
407.866730 2050.295410 978.676086
706.186768 1955.214233 844.461487
491.199463 1963.683105 576.043396
430.915771 1929.282593 909.653381
342.678467 2017.547119 919.895325
591.129211 1900.425171 753.680115
409.504395 2066.762695 1004.455017
420.831573 1942.120728 890.971069
502.246124 1949.271484 716.548462
318.351807 2017.394287 661.454102
559.978760 2034.520386 948.759888
303.289551 2025.128906 599.095764
256.579193 2050.661133 650.810974
536.129028 1962.279419 527.200806
669.717773 1854.323120 836.119934
354.427887 2027.120361 939.117493
403.390625 2015.926025 904.580872
499.746918 1963.713135 672.953735
279.023712 2052.817139 641.119751
447.239746 1952.282471 788.310181
556.722290 2012.035767 952.412720
354.877563 2021.967773 538.595703
619.133362 1973.946045 900.022034
592.509094 1880.330933 781.880981
452.582611 2088.664063 997.664734
696.036865 2028.108398 883.122131
585.464355 1874.389160 848.279602
480.743866 1892.977539 862.082520
674.107727 2111.656982 939.944275
504.095490 1891.116943 876.958435
684.928772 2000.526978 886.845093
420.554443 1973.373291 704.284851
291.858856 2076.513916 702.967529
554.782410 1880.708618 790.500610
681.428833 1845.487549 816.484802
716.628906 1927.113403 840.254333
505.264160 1952.660156 677.621399
547.192444 1872.179688 894.257629
419.899750 1926.479858 852.980408
470.213898 1887.781616 899.693909
599.937744 1868.839233 811.340698
731.121155 1953.921021 849.623047
474.971130 1928.094360 960.407532
336.943054 2031.080200 548.480652
496.944489 1966.152832 979.996521
477.499420 1911.012207 831.618103
532.728333 1944.023071 677.842163
417.325623 1991.625488 917.058228
517.754333 1953.304810 643.445618
568.330322 1874.727417 814.842346
407.391510 1992.632080 650.454590
278.328674 2038.042969 659.671265
363.764526 1967.285889 788.656494
381.944397 1998.089722 668.008545
373.527466 2049.948730 853.306946
367.781250 1966.119019 793.079407
356.006989 2005.132202 814.230896
287.426788 2036.113647 653.158508
581.762634 1927.558350 892.503967
488.717346 1901.931641 943.642090
331.951294 2038.273315 955.735779
531.616455 1960.548584 549.897034
414.961670 1991.170654 852.696533
280.088104 2012.246094 914.916565
571.923340 2046.300659 948.741272
517.751770 1973.705078 636.179565
287.509857 2134.147705 590.892090
490.858124 1885.503174 911.122925
540.798950 1896.285156 917.124939
270.138855 2077.758301 669.734375
551.704834 1884.780762 619.267700
578.948547 1923.267090 686.571533
591.796570 2104.520996 954.587402
568.398560 2099.412598 984.312805
420.552338 2008.966309 540.582275
510.793518 1986.410400 803.400146
347.173920 2025.329346 537.389160
539.944580 1996.537476 953.974548
443.421783 1911.117920 862.022949
471.064911 1949.696899 743.572266
585.575562 1860.030396 844.493225
325.909027 1992.151611 761.111267
449.794037 1961.711304 747.475159
584.944885 1897.209351 669.849304
452.529266 1927.788818 821.679565
318.500885 1997.170410 941.704590
511.758698 1962.245605 613.167358
538.437012 1873.094116 842.061401
511.519379 2072.958984 992.604736
665.596924 1853.304443 825.281799
273.229614 2079.077637 598.361938
448.677277 1955.089600 930.824280
449.702789 1913.910400 814.501587
594.171509 1910.060791 690.050415
530.715027 1990.890381 955.971130
473.436218 2035.806641 949.923462
318.359344 1993.098755 923.162048
691.692200 1858.588501 823.830994
711.238586 1943.824951 836.845154
471.954529 1956.434082 695.015442
299.691467 2042.152832 647.903198
618.650513 1988.242676 915.302185
662.431580 2049.672119 906.403442
490.704559 1904.738647 919.518616
306.863586 2039.132202 721.439819
721.415710 2120.061035 902.269897
352.189575 1994.956787 922.949951
568.356201 1960.597900 927.323425
513.767456 1877.759277 899.855591
628.435669 1867.934448 789.023682
376.836487 2005.607788 597.736389
535.037170 1995.604370 940.971619
658.993103 1857.228394 809.107666
338.048523 1999.010498 711.671875
451.412445 2013.088867 565.548462
428.754364 1965.900757 773.251770
594.848389 1847.661743 872.896729
464.620544 1970.859619 942.520386
434.872406 1944.528687 799.542419
606.213135 1846.140625 728.112732
502.598846 1966.567627 541.851013
529.033936 1945.781006 649.886902
736.308899 1969.998657 857.222473
330.608673 1988.803955 687.628296
462.710876 1898.208496 826.485901
731.433350 1950.851929 855.609314
662.049622 2050.240234 906.282898
497.257294 1879.674561 890.456787
577.638794 2076.240723 961.378235
261.731750 2071.908691 657.513733
325.460144 2010.799683 658.061768
512.007568 2066.570557 975.012695
516.997375 1959.428955 603.340576
563.541016 1926.655396 901.472229
275.496338 2083.305176 586.280334
291.927032 2089.189453 695.197937
439.536438 2052.843506 973.976624
379.227112 1955.237305 776.658325
488.851563 2038.297119 963.055969
436.114807 2155.370117 820.760132
468.429871 2007.963501 542.517639
330.171967 2001.934937 948.581543
705.846863 1992.499512 863.973816
624.829590 2037.023315 923.052429
417.976288 1994.322876 702.720764
391.791809 1995.448364 654.028259
405.315247 1988.120972 683.816467
687.660034 1884.055054 812.445313
478.401947 1901.044678 893.165771
386.287811 1994.700195 862.864807
550.820435 1895.082031 774.362122
469.764771 2061.240479 970.937012
449.513031 1915.989258 860.860535
417.171753 1924.447388 849.702759
530.664856 2016.475220 978.691650
506.305237 1955.326294 968.942627
389.642822 1969.581055 743.682617
553.959717 1928.095215 726.246277
489.496277 1998.291504 485.557556
465.772186 1993.134399 516.582458
608.605225 1890.389893 683.905090
576.949402 1885.770508 872.407104
483.715454 1900.238525 793.994324
487.455048 1897.311646 857.853210
677.814270 2074.423828 907.392883
658.585510 1826.875977 816.627869
481.975128 1955.822021 690.343079
697.493103 1861.172607 833.080627
574.884521 1925.894043 648.018738
489.774445 1968.819580 633.100159
567.087891 1933.428345 718.410278
407.245758 1970.967896 847.141357
317.055725 2047.015747 709.821411
384.811859 1986.448730 831.024414
498.513336 2067.412842 968.510437
529.683777 1929.174561 692.658264
542.742920 1942.149536 613.621277
478.799652 1910.577759 928.156372
757.260559 2087.623291 870.758850
603.822998 1952.684570 893.945801
577.658997 1888.087280 768.215332
412.079163 1987.891846 862.722778
752.356995 2057.343018 867.453796
577.600281 1868.926758 827.467407
401.650787 1979.569702 730.167358
538.568848 2015.288330 950.493469
444.262787 2005.973145 910.824097
520.573792 1949.599976 586.159912
473.072998 2078.937256 978.780640
535.741577 1887.997803 781.786316
428.091339 1938.829102 906.183411
426.029053 2005.259888 549.979553
290.114960 2039.947998 677.954956
407.738068 1947.167969 856.222900
468.892548 1987.641968 500.602356
593.814819 2076.067871 943.131409
526.825439 1980.981689 953.527039
611.557800 1902.027222 687.595093
305.175690 2019.341309 611.412598
503.778259 1902.256836 857.341370
480.571869 1973.239624 966.308533
473.517822 2022.234497 947.182556
