ply
format ascii 1.0
element vertex 1368
property float x
property float y
property float z
end_header
1030.861084 1935.599609 377.329102
1509.095703 1846.830200 297.957397
1295.765137 1730.232300 453.740967
1211.878418 1726.477173 410.936646
1182.046509 1750.656738 369.460236
1439.149414 1744.129395 376.486755
1342.245361 1630.033569 249.793243
1103.067871 1804.571899 421.396851
1485.923828 1800.713623 353.645905
1157.882324 1765.310791 355.849243
1414.601563 1697.454102 242.937546
1311.252686 1710.671753 428.792847
1358.365601 1621.245361 383.258698
1064.905029 1831.558105 467.555603
1532.491699 1864.759766 161.546799
1461.738647 1769.246582 183.158447
1333.776245 1638.173950 199.065521
1460.162598 1767.936401 344.873840
1110.931396 1812.466553 332.541382
1504.315186 1845.719604 158.023941
1448.819946 1755.161743 359.430298
1319.529053 1643.811279 385.905579
1282.893677 1724.063232 513.831665
1288.455322 1660.845337 360.144653
1324.141357 1641.429443 302.440918
1281.666870 1662.046875 305.885284
1276.886475 1733.007446 553.179993
1301.955933 1715.502441 459.206360
1218.062622 1729.123169 153.981934
1433.746094 1724.929932 250.301239
1333.325562 1640.599365 396.134552
1264.533569 1684.856201 158.085449
1140.508301 1789.208374 368.610382
1038.681763 1833.596924 451.044891
1487.574219 1797.596680 331.390381
1319.807495 1667.647339 433.108765
1226.820068 1735.740601 444.687378
1101.744263 1813.064697 453.714905
1430.017090 1726.505005 176.318146
1332.647339 1629.650391 300.861511
1328.703613 1723.883545 536.021606
1166.956055 1745.869263 180.717880
1327.936035 1634.320923 258.733856
1325.539551 1645.397339 162.017273
1157.041138 1751.958740 204.103119
1049.101807 1808.400879 155.576233
1300.004395 1716.235596 466.891876
1302.870850 1651.832520 258.454956
1254.678467 1699.227295 207.504257
1269.909912 1681.459351 354.795929
1151.470459 1766.163696 353.427032
1109.942383 1800.684082 340.157745
1090.489380 1812.468506 332.993927
1258.269043 1688.350342 183.767883
1512.004883 1855.439453 293.979767
1351.130127 1636.122559 421.428162
1520.388794 1797.588745 409.908142
1221.048706 1719.019775 430.607513
1056.955200 1805.668701 158.113434
1319.728027 1730.385986 448.757690
1196.996826 1730.891846 180.947968
1357.171143 1623.087280 359.170044
1419.370972 1699.092896 168.224579
1245.281616 1697.144897 199.935364
1266.486694 1751.847168 435.049957
1097.375977 1807.311401 345.596954
1068.638184 1832.351196 270.265625
1098.904297 1790.341919 409.667389
1144.672119 1774.628418 308.306854
1432.202148 1760.333130 480.959869
1000.933838 1843.746338 229.533417
1056.941040 1826.636353 453.557068
1103.469727 1785.721191 195.646103
1326.607788 1647.330933 187.555618
1351.540405 1639.328735 427.491516
1477.414185 1753.814575 423.548462
1417.303345 1707.997559 352.834717
1414.739380 1676.385864 395.114410
1459.347778 1819.823853 431.385071
1461.445679 1785.796509 431.078735
1432.541992 1766.253906 422.438446
1478.287476 1783.520142 344.199402
1016.223694 1797.152222 163.191193
1323.266479 1633.814575 363.663055
1455.944702 1753.815918 425.615814
1300.518066 1653.653076 321.075745
1102.025513 1771.565186 172.900696
1263.524170 1720.885620 425.771484
1380.091675 1619.519653 242.183624
1364.628784 1634.308350 417.452179
1205.484619 1723.387085 185.630356
1458.320068 1785.106323 421.633270
1164.483276 1755.510620 342.519714
1148.497314 1766.558228 293.848907
1477.316040 1800.630615 287.833740
1106.831421 1802.283936 335.635834
1058.754150 1816.509033 160.926086
1094.559082 1802.989990 317.984985
1276.791382 1680.408081 180.625916
1109.259521 1791.278931 445.113617
1157.259033 1758.140869 170.126434
1302.740967 1727.078125 442.391479
1239.945923 1702.284912 395.192963
1509.432251 1855.942993 342.263062
1294.415283 1727.421387 473.994171
1418.162964 1740.715576 427.225220
1415.974487 1767.512939 429.482086
1497.846436 1831.976196 365.904175
1385.309570 1657.334106 359.514343
1392.156494 1660.793701 307.741730
1387.979004 1626.040161 187.574738
1384.335938 1653.382324 305.170197
1493.188599 1843.674316 430.732086
1453.117310 1752.180908 247.677704
1482.775024 1783.244385 417.054840
1177.950806 1730.525879 411.607910
1336.018433 1755.092163 553.545166
1065.695679 1828.874634 370.137512
1378.320679 1656.098877 296.559540
1318.125977 1641.074585 323.295685
1315.261475 1650.625122 198.740372
1062.983398 1821.592773 314.156555
1297.595459 1658.044189 240.337692
1022.040405 1829.729126 406.655945
1383.554688 1648.727295 260.633942
1455.714600 1789.875000 436.800964
1308.639404 1732.175293 457.026031
1068.580444 1811.584473 349.229218
1077.216919 1819.656250 417.911072
1294.818604 1651.902466 339.420624
1140.321899 1772.973145 321.680145
1054.770630 1811.431519 410.891663
1154.020142 1767.104004 288.873444
1122.912231 1772.867554 408.267365
1464.843506 1763.486694 356.915710
1231.019897 1719.094971 257.574921
1097.874512 1824.135986 462.597870
1431.162720 1682.148438 406.692108
1420.801025 1691.424561 233.034164
1052.552612 1816.847778 341.776917
1453.298462 1737.447632 417.630219
1093.977905 1798.821167 307.661652
1319.813965 1648.181763 199.320892
1107.671265 1783.337769 368.423950
1485.823975 1814.292725 343.063263
1296.441895 1661.402344 389.791443
1283.211548 1740.881592 459.023407
1324.280518 1643.100830 409.693359
1319.130737 1666.889282 414.318390
1028.901855 1828.257568 166.525864
1343.011475 1620.009766 303.556366
1084.103516 1806.922485 362.935394
1156.842407 1763.944458 384.170227
1380.605225 1638.494019 377.125366
1334.911011 1648.273315 417.331512
1370.914795 1765.471436 451.136444
1352.831421 1666.211670 423.335449
1200.752563 1733.761353 418.450928
1198.518921 1733.864502 375.744812
1354.239746 1650.014404 158.378571
1309.958008 1653.948120 229.727478
1262.203491 1689.617798 390.734192
1364.903198 1638.584351 181.360001
1060.852295 1832.070679 232.284866
1194.606934 1731.846436 203.673447
1441.585693 1798.320435 465.192017
1257.974243 1697.213501 365.748322
1218.941895 1749.571289 437.957550
1182.909668 1739.099487 402.931427
1104.538208 1793.845703 239.739075
1415.107544 1701.330322 297.161591
1302.069092 1662.971680 347.680084
1499.569458 1834.761841 263.876709
1174.360596 1745.886230 399.375580
1103.002319 1821.938477 448.921997
1209.582031 1741.353516 360.307556
1291.163696 1661.813965 243.242859
1151.850342 1767.218628 225.913086
1455.511475 1817.502808 445.805206
1373.211060 1670.408569 428.819885
1169.461548 1753.377197 388.461212
1459.497681 1768.050537 319.926514
1456.968262 1744.999268 266.521423
1429.357056 1742.159180 318.095917
1207.522827 1728.974731 438.764526
1433.007080 1714.805786 390.187134
1322.935913 1668.592407 188.383438
1086.654175 2015.166626 195.890625
1436.546387 1722.235107 166.776871
1338.030640 1642.322876 300.551971
1205.233398 1706.241333 165.355759
1299.983032 1661.494019 179.748718
1327.691895 1744.859863 527.791443
1226.928223 1719.939697 300.383087
1161.844971 1750.889404 251.946014
1415.491943 1673.129272 401.736511
1173.251099 1753.535278 285.757324
1341.687134 1637.301880 197.911835
1203.710693 1723.938599 424.941681
1358.473267 1626.230469 205.248322
1473.346680 1736.156372 421.973846
1037.621582 1834.710938 259.388977
1464.217041 1777.797363 289.009552
1455.342529 1741.569702 158.423813
1237.885742 1730.800171 303.969696
1303.526733 1723.150513 447.327362
1208.304932 1735.085449 203.766708
1479.977783 1798.466064 271.889496
1294.878906 1732.239746 490.806488
1142.148682 1755.043945 410.981812
1210.618286 1744.107788 262.036438
1341.332642 1647.171631 385.666077
1317.619507 1660.369629 226.042648
1136.557739 1760.821411 195.178650
1057.698242 1814.835449 158.416183
1018.107544 1848.002319 182.281113
1361.523682 1621.451660 387.392273
1091.696167 1790.463989 419.564056
1477.715454 1791.910645 206.636276
1497.776001 1802.052124 160.733597
1018.852173 1871.025269 243.897385
1291.798828 1665.895264 222.144333
1134.446289 1775.871460 361.929565
1476.160889 1780.223389 344.363556
1249.910278 1702.686035 242.678436
1426.649292 1717.408936 350.095001
1270.273438 1711.606445 243.113037
1400.691650 1647.622681 417.522461
1316.541626 1731.473633 505.630432
1491.452637 1806.890747 342.596954
1133.180786 1772.341675 210.304260
1038.499268 1805.215332 172.497574
1065.175171 1804.347900 173.986282
1321.534302 1754.287720 545.216553
1498.792969 1834.385498 276.396942
1327.634155 1652.927490 432.597321
1357.482788 1622.362671 263.125366
1204.973145 1744.108521 372.579346
1277.060913 1718.994629 433.536499
1242.078125 1715.870972 292.093719
1412.257813 1744.518311 427.865784
1011.520874 1827.250122 157.389938
1299.029785 1653.894409 355.659882
1491.274414 1815.929321 154.651779
1398.263916 1780.224976 477.380249
1395.389038 1778.823364 489.371887
1314.071777 1770.676392 518.981934
1209.427246 1721.861938 197.722092
1498.470581 1831.731689 357.307983
1504.897827 1840.876953 202.788849
1337.077148 1748.255981 430.496246
1320.327271 1720.824951 536.123108
1378.469482 1631.293091 363.737885
1345.248779 1624.120728 282.937195
1425.276978 1712.936401 216.708817
1270.021484 1656.597534 270.296021
1101.474365 1792.114380 224.066223
1470.507202 1812.243652 438.445374
1336.504761 1717.914673 467.466522
1233.091064 1705.158691 212.397476
1343.910034 1656.432373 431.694275
1045.622437 1955.199585 446.202179
1252.894653 1692.866211 210.112473
1135.231689 1799.339722 267.274475
1350.974854 1629.530884 223.369049
1423.335938 1695.992554 198.273315
1266.913696 1729.557861 449.323090
1373.217163 1782.186646 425.703888
1068.901978 1831.927490 429.986359
1430.891357 1723.491089 342.177582
1378.129395 1642.827515 423.098480
1135.265259 1766.193115 426.395630
1057.119385 1972.877197 280.628784
1384.835693 1636.540771 279.277557
1315.994141 1731.029907 561.492554
1446.150879 1777.169189 516.377441
1451.383789 1783.349609 503.393921
1173.617676 1743.727783 209.225479
1342.296753 1657.621216 156.870667
1098.420776 1801.473633 162.784256
1334.477173 1639.077515 295.006134
1499.969727 1837.411377 345.514221
1209.891602 1736.853271 369.972870
1133.988647 1878.005249 466.222717
1033.482788 1842.070801 214.386887
1224.726318 1715.874146 201.677765
1446.638428 1752.168945 319.880310
1032.931030 1830.858154 208.579330
1268.576172 1723.202271 434.735565
1168.212891 1786.632080 478.937012
1279.104492 1661.719482 204.513290
1187.121216 1747.395996 308.470184
1243.567383 1705.410156 214.899826
1228.767578 1716.455078 389.566193
1143.406128 1761.564697 184.577057
1375.632202 1629.200562 370.884857
1222.331543 1786.566406 454.640656
1467.339966 1805.213501 175.933151
1250.848633 1709.091431 340.320496
1518.154663 1843.038208 194.073532
1064.144165 1843.465698 197.552475
1170.846680 1763.820068 439.907288
1337.213867 1631.618164 384.773743
1453.408569 1765.964233 443.438202
1186.481079 1738.718750 448.227142
1482.056152 1808.109375 335.590057
1099.902466 1793.282471 210.252502
1053.306641 1825.923950 325.610229
1303.120728 1738.609619 300.321991
1124.294800 1773.462280 425.401062
1420.723022 1690.344971 156.038834
1420.530151 1709.842163 428.852539
1404.948364 1686.879150 285.600159
1182.037476 1789.464478 481.507141
1068.269409 1812.771362 443.477142
1213.995361 1725.127930 380.697174
1162.547729 1775.656250 457.387939
1118.906006 1768.046509 400.788452
1305.720947 1664.941528 417.016632
1155.297852 1763.803223 446.801575
1441.237183 1746.178101 358.099182
1228.987549 1689.399902 160.566925
1356.913696 1621.904785 258.374023
1373.307373 1795.065796 490.862183
1051.241089 1830.904663 453.652802
1171.831909 1749.673584 372.118744
1507.411621 1825.156738 227.918320
1310.032593 1648.394287 379.563202
1457.296387 1747.685547 205.436920
1138.968384 1785.330200 314.360535
1361.248657 1752.458496 427.267731
1462.349365 1768.868896 426.551025
1187.634155 1753.148193 339.989319
1435.021851 1703.576172 396.611877
1070.438354 1842.223022 457.694275
1093.815430 1788.643311 396.944855
1350.176147 1631.041382 160.861511
1385.287598 1620.043579 173.023422
1091.763184 1788.462524 230.509705
1238.759888 1728.422607 451.443604
1418.341797 1711.388794 367.089600
1272.291260 1692.970947 341.077454
1333.484497 1712.403687 446.402496
1349.968140 1646.315430 354.467834
1117.433838 1776.445679 427.322632
1041.543335 1844.802124 311.447266
1403.408569 1684.958740 307.229248
1274.662476 1681.565552 383.155487
1408.965454 1676.410767 254.419449
1365.338623 1638.619995 317.057404
1103.532715 1808.357178 441.834106
1506.800537 1850.250122 172.372314
1402.149536 1757.830688 463.395111
1310.653809 1643.419678 310.969727
1366.175903 1641.925293 240.521896
1126.750244 1783.546265 339.790680
1384.673218 1633.168457 210.508423
1347.789307 1621.420532 308.039124
1207.239746 1768.599854 449.075256
1032.624390 1830.802246 169.409927
990.451477 1796.260010 173.940735
1411.197998 1669.984131 395.768280
1330.269409 1648.859741 423.567230
1511.388672 1852.942749 191.654816
1147.314453 1763.693481 217.339874
1481.462769 1764.437012 428.486969
1360.435547 1755.159668 427.944702
1181.328003 1752.430908 271.463318
1331.241821 1641.190674 377.632965
1333.359985 1634.557983 367.072357
1476.861084 1762.929321 418.304596
1188.654053 1735.105591 209.551865
1331.204590 1755.280884 506.537598
1158.060547 1771.554443 387.869843
1157.427490 1764.963379 288.633301
1321.868530 1740.896851 436.698029
1518.193970 1814.641479 396.198730
1320.974854 1657.746704 420.388519
1219.895752 1729.553467 402.231201
1393.669189 1665.848877 246.508255
1249.357544 1705.723267 408.588501
1198.231079 1734.674805 200.450867
1321.393433 1725.916626 491.185883
1427.678711 1718.604614 248.338562
1492.263916 1820.758057 328.738281
1127.209229 1770.317627 165.814804
1186.701294 1769.338501 454.576385
1182.464966 1733.302002 452.933014
1221.715820 1702.769043 160.700226
1385.797363 1642.626953 293.234589
1467.081909 1758.356079 151.422836
1477.077637 1750.532471 415.197906
1320.399048 1660.037964 395.887360
1199.017334 1740.839111 449.172577
1357.720703 1622.538208 258.743286
1118.466797 1789.289307 319.712830
1400.597778 1678.870972 428.267761
1462.526855 1776.979980 243.172485
1418.458252 1719.982300 253.134537
1104.720825 1813.655640 457.851563
1231.016235 1792.361450 482.995239
1133.964722 1767.845459 195.180740
1097.381592 1795.699341 397.638092
1077.626953 1843.196045 471.508881
1296.656982 1653.702148 296.943909
1391.059326 1637.352661 336.910980
1431.974609 1706.948975 300.402344
1331.671631 1651.845215 420.169861
1313.257202 1740.821411 544.608948
1081.195435 1807.161255 431.840240
1180.514038 1764.236328 271.967255
1502.493408 1861.103271 319.522888
1316.622437 1646.571289 362.065552
1149.206665 1758.123901 417.903656
1468.803345 1796.599609 423.878113
1487.077393 1795.243896 167.791840
1131.611328 1804.950806 447.414001
1178.744995 1757.789185 363.371063
1069.592651 1849.673340 461.126923
1102.032593 1787.762573 159.911148
1329.576172 1632.558594 355.309662
1343.276855 1637.020142 401.431519
1230.568481 1738.301147 444.277466
1226.631348 1723.604248 317.993011
1312.787598 1640.272095 313.035004
1323.147461 1635.743164 293.531555
1059.699219 1826.361450 224.290710
1119.280151 1859.498779 468.998413
1461.300293 1756.139038 305.568665
1192.262451 1745.484497 308.610687
1272.060303 1683.579712 275.284271
1396.265991 1667.244629 370.023254
1301.886963 1650.323242 242.544647
1208.948853 1731.984131 342.481659
1289.300415 1729.795044 564.123535
1378.211426 1735.454590 428.795410
1531.492920 1878.070557 152.781509
1024.233276 1849.239624 433.031219
1316.960815 1643.683105 394.471191
1352.795776 1623.030884 333.161804
1398.723633 1646.925537 183.590103
1512.246216 1836.829468 316.489166
1022.800415 1836.219116 424.634125
1226.684082 1739.630127 455.492584
1325.869751 1661.454956 161.250534
1366.512939 1641.585083 349.405914
1414.340698 1694.567017 368.001465
1145.796753 1789.753174 355.605774
1142.647217 1766.971680 319.345367
1090.972168 1792.245850 207.446350
1277.022095 1669.011841 318.035370
1131.236572 1783.626831 178.277618
1338.725098 1751.214966 552.854675
1227.455933 1709.981934 404.974335
1296.929688 1656.111938 273.417114
1098.742188 1800.295288 353.947662
1318.274414 1652.128296 367.345978
1412.216187 1694.240479 314.819397
1366.753174 1643.110596 227.044525
1399.632080 1622.966675 165.338440
1246.217651 1692.268433 285.815948
1137.540283 1766.900635 172.198990
1126.133911 1772.461426 163.863449
1099.021606 1790.688477 270.865448
1335.177612 1624.959229 299.759308
1182.416748 1748.976685 222.503693
1259.775269 1732.466431 452.023834
1310.613647 1733.391479 498.840118
1487.679688 1816.319702 419.039703
1172.787354 1755.582275 313.264526
1277.186401 1666.800781 301.206268
1329.710449 1640.677734 282.528229
1329.246582 1646.448853 344.103119
1122.667358 1777.508789 202.576645
1266.061157 1708.073853 356.233185
1355.344482 1793.837402 457.163269
1437.424683 1736.302368 352.213806
1331.017212 1755.401733 488.367554
1464.651001 1772.992432 184.513336
1388.994751 1771.571655 449.179565
1385.916138 1775.628296 477.860962
1268.347412 1701.240601 421.230530
1287.925415 1679.038330 417.453339
1421.767944 1721.948486 429.901794
1402.892212 1671.579956 262.194366
996.208252 1843.154907 365.211670
1105.992188 1791.598145 331.473755
1402.873169 1664.122070 391.319702
1097.152222 1792.836060 311.969391
1255.341553 1696.786621 232.411407
1198.390991 1744.480957 217.940659
1369.935303 1639.070679 316.869965
1225.326294 1730.673706 457.795776
1085.954346 1823.182617 447.320557
1134.729248 1761.808838 422.778503
1220.857544 1740.370361 219.989258
1359.362549 1640.849487 420.712860
1465.498169 1776.184692 274.445221
1365.483765 1701.868042 424.900879
1318.889771 1709.026611 475.366211
1479.018921 1830.446899 425.262756
1307.811035 1730.611328 521.218872
1460.267456 1730.764160 152.067719
1337.917603 1659.233521 419.722687
1154.739258 1755.920044 212.248276
1218.488159 1734.449219 434.474243
1333.291260 1636.330444 390.349213
1451.747925 1754.092041 251.385193
1069.172485 1798.442505 157.001480
1494.664673 1799.723755 425.856323
1179.512695 1745.313477 167.468491
1296.114136 1666.804565 406.666168
1420.319946 1750.904663 505.486450
1335.527466 1630.218994 283.182007
1519.081421 1832.019897 401.544800
1510.448486 1853.313232 276.026337
1088.315552 1797.642944 290.711548
1220.803711 1736.136841 339.730927
1060.280396 1822.427246 278.159760
1024.770386 1861.957397 234.228058
1108.197144 1825.932251 465.319183
1350.046997 1766.090454 449.773651
1405.847778 1660.633179 302.295685
1208.990234 1731.270020 387.470123
1146.765625 1740.129639 158.277618
1404.143677 1763.446777 511.805542
1457.506226 1749.960815 297.893433
1507.415283 1855.504272 154.433243
1432.851440 1780.369873 427.692047
1278.048950 1662.458252 320.364624
1474.066772 1795.104492 169.391510
1300.942749 1653.296387 337.319489
1378.444214 1764.848389 467.229523
1425.542114 1719.202759 326.127594
1262.576416 1670.183594 258.957703
1527.805542 1879.336182 178.588882
1345.638672 1708.956055 437.957367
1226.532715 1732.254761 210.462112
1016.875244 1842.815918 205.808670
1384.068237 1629.702026 155.491699
1404.485718 1672.841064 321.949707
1501.055664 1834.479614 190.348450
1076.271240 1851.579956 461.282593
1482.331787 1775.400879 156.614197
1355.350586 1651.397339 433.767456
1390.659546 1628.439819 200.041534
1351.345703 1619.429443 365.138611
1355.765137 1641.776611 217.550156
1364.629639 1621.067505 265.590485
1466.082397 1783.286011 255.333572
1509.242554 1855.466064 241.434464
1472.909424 1785.871338 218.045135
1204.155396 1732.645020 436.829437
1065.155518 1834.082642 276.253204
1231.373047 1711.985962 175.077545
1377.135010 1605.530762 284.712891
1273.854126 1682.373047 159.273010
1174.771240 1760.952393 162.457291
1138.946777 1792.245361 351.083069
1246.880615 1761.236572 437.161438
1469.718262 1800.127930 316.176971
1235.736694 1727.905396 318.622894
1342.816040 1632.668335 213.874390
1235.241821 1742.581909 247.753616
1490.220337 1770.735474 401.823456
1442.013794 1693.646973 419.802582
1388.545166 1648.204224 393.191101
1148.137939 1766.567871 451.689026
1386.339966 1655.509399 343.263397
1324.603149 1661.825195 196.562988
1399.285156 1676.625610 281.235382
1165.847290 1770.236938 312.242859
1438.700317 1850.646240 428.909149
1187.155151 1742.538452 423.091644
1268.068237 1658.510498 308.920135
1045.302368 1840.089600 429.931000
1053.444946 1804.952515 208.490799
1332.959839 1643.179565 222.744141
1295.212402 1690.443848 156.677216
1251.111450 1684.175415 336.669769
1390.354614 1652.285278 379.466705
1477.185181 1794.070435 247.465302
1362.201294 1770.647217 466.257904
1504.306763 1805.095337 406.359161
1346.176025 1623.632080 237.145615
1435.098877 1732.674316 348.951233
1313.729980 1648.458130 320.157257
1381.358521 1778.455933 518.791138
1084.250488 1795.675903 198.465012
1127.504150 1780.390381 250.833771
1202.122559 1720.535645 206.805252
1317.189331 1716.472656 518.661804
1239.104980 1713.026733 341.990356
1084.945923 1822.263916 443.929108
1358.858032 1612.643188 299.492920
1382.419067 1628.684814 430.579926
1211.041504 1770.522339 449.083466
1182.524658 1730.918091 438.916260
1085.078979 1813.809814 253.136520
1372.410767 1757.506592 452.660217
1287.281616 1725.273804 458.951569
1335.344238 1748.021729 531.510742
1486.489624 1811.429199 166.802002
1322.243286 1739.571655 542.640076
1348.893311 1621.574341 258.031158
1410.786743 1693.352173 377.401917
1135.728882 1775.079346 338.133453
1424.187378 1773.415649 438.179352
1121.526611 1777.344727 415.822937
1212.420410 1723.987061 441.089203
1468.460938 1744.225586 396.936340
1097.859009 1802.716675 156.480438
1381.636230 1720.230347 428.983276
1289.120483 1650.266602 363.013062
1104.445435 1794.062500 244.324539
1476.243042 1772.175293 159.112595
1410.540771 1700.965698 372.717621
1412.315308 1685.248901 195.192978
1491.859009 1817.447998 258.091583
1114.515625 1792.090698 270.579407
1274.100708 1682.312988 258.031738
1359.052246 1643.178711 189.160736
1187.777832 1742.512085 219.177872
1498.386475 1815.415405 320.974548
1195.132690 1763.249756 466.095001
1311.088989 1680.122192 421.471039
1510.827148 1854.041016 271.168823
1141.494629 1781.693237 198.926636
1418.503784 1711.326416 359.785797
1176.057007 1753.361572 312.149841
1482.240967 1789.466187 351.962585
1146.982910 1769.336548 381.083923
1448.864136 1801.732056 500.162903
1184.287476 1750.257690 344.997894
1423.940430 1685.430664 412.813171
1321.422607 1741.236938 455.523804
1511.697876 1851.540894 156.235779
1159.819946 1751.067871 425.294464
1454.587402 1755.100098 191.855545
1071.423828 1807.843140 422.110596
1215.803101 1716.231079 191.820572
1320.432373 1636.004150 267.492249
1269.529907 1685.119629 320.223114
1427.344849 1722.004883 337.331696
1124.011719 1783.712646 417.451630
1245.075073 1706.438110 392.877502
1441.904175 1799.310303 460.942932
1408.500122 1701.852539 213.973038
1053.572266 1824.688110 201.256622
1420.549072 1697.789185 218.113602
1304.291992 1645.647583 338.277527
1324.214478 1655.861694 378.965698
1152.240479 1897.466187 476.120880
1426.137329 1711.593140 310.350403
1351.557007 1620.092041 317.881897
1438.486328 1745.185669 321.133087
1437.086792 1748.888306 192.253433
1402.088013 1678.699463 424.042450
1303.377808 1711.101440 445.028931
1291.346436 1728.247925 524.454407
1122.346680 1795.015259 309.693512
1330.792603 1632.315063 341.071686
1018.851440 1830.142456 305.151154
1245.579834 1710.361450 229.032425
1353.080078 1628.868896 398.101532
1381.276611 1766.423462 471.958954
1049.954712 1933.015625 463.966858
1027.214355 1834.570923 295.341400
1122.241455 1777.419067 272.620422
1088.121948 1831.687256 478.054474
1404.329712 1758.822632 470.370026
1279.808228 1743.171631 440.048645
1188.879272 1728.975098 446.230743
1471.826416 1774.088135 159.327698
1188.394287 1782.273193 452.310730
1107.310303 1805.942139 435.888977
1437.729248 1726.752441 232.127808
1350.168213 1635.879517 365.989044
1294.141602 1660.145752 238.906448
1026.070313 1850.855713 336.044952
1340.764893 1730.598755 515.821045
1084.226196 1856.756836 317.738678
1478.792236 1799.702759 154.893890
1396.437744 1689.449829 429.141327
1281.485718 1664.152588 300.166321
1501.466187 1837.771729 343.726227
1485.140015 1806.026611 201.905029
1490.965942 1800.486328 234.593582
1386.161499 1654.610229 177.056732
1231.133545 1711.521240 185.076797
1069.961792 1816.246948 372.647705
1359.840942 1657.001587 421.853455
1323.828613 1677.520508 423.273224
1394.883057 1687.493042 305.885284
1425.674072 1778.360718 515.437500
1299.337646 1715.315674 423.870331
1408.719727 1678.838867 381.706482
1432.137451 1722.438477 321.679321
1431.111328 1690.678589 434.340393
1093.951660 1788.523804 393.181366
1292.534668 1706.020874 424.653442
1402.251343 1654.428345 309.223816
1263.074707 1680.528564 362.783691
1150.446411 1824.906250 453.272095
1490.178223 1835.886841 200.969788
1138.055664 1769.292114 290.213440
1439.361450 1733.432861 197.344330
1258.734863 1690.707886 168.151123
989.215271 1855.669678 360.042603
1517.283203 1865.486694 209.685837
1517.125977 1845.605591 207.799835
1034.901489 1827.870483 360.803436
1290.075073 1657.352783 321.673706
1311.150635 1655.958862 341.819855
1302.960327 1712.615356 433.131897
1174.273438 1784.193970 471.349884
1131.488159 1777.356689 169.398361
1147.802124 1757.231567 411.654938
1057.931519 1816.383179 357.833008
1309.899536 1650.078613 378.957306
1136.524170 1763.895508 430.841736
1328.795044 1662.538452 204.804840
1127.700806 1763.746582 194.956100
1303.776001 1722.325439 501.539764
1304.673096 1673.434326 417.475769
1319.063599 1733.582153 484.366058
1426.306396 1721.099854 280.184509
1278.616333 1731.584473 261.009796
1292.218628 1719.125977 433.589752
1499.196411 1851.977905 175.039734
1337.181885 1643.365967 161.811752
1028.626099 1837.752563 441.452881
1366.826904 1641.765015 375.434509
1409.555664 1692.423706 326.120056
1146.994507 1776.048096 230.629684
1220.471680 1735.122437 445.066895
1110.024902 1772.086670 156.554031
1285.492065 1650.818604 349.694305
1021.156738 1871.812622 457.699890
1415.895874 1756.634888 500.160980
1390.852417 1661.994263 178.636276
1150.996704 1812.369263 461.198120
1284.489624 1663.772705 221.442490
1296.372559 1741.853882 429.495575
1251.448364 1711.445313 316.534851
1438.035767 1717.484619 309.663422
1228.624268 1705.540161 197.399658
1285.660645 1728.671265 520.771484
1119.820679 1856.497314 466.945160
1331.524170 1664.760864 166.248169
1363.153076 1632.848022 166.644653
1273.444702 1679.117188 400.314301
1436.546631 1701.374756 154.213013
1273.631958 1676.011353 272.240784
1296.669189 1716.898926 484.413635
1330.619995 1632.106079 312.561615
1088.131592 1838.728271 483.788696
1287.688965 1737.769775 241.550323
1071.718018 1851.017334 479.768311
1189.344116 1734.674072 433.711029
1116.588013 1802.327026 441.537811
1204.194336 1725.828491 431.777344
1453.182617 1759.904785 347.180389
1325.373413 1728.594482 568.926270
1428.956421 1720.427246 342.342743
1368.523315 1625.446411 218.602982
1378.801147 1642.860352 322.981934
1492.562744 1820.034302 253.518127
1105.059448 1779.577759 438.205566
1088.932129 1796.682861 274.229004
1493.815430 1824.792358 306.264069
1367.969727 1644.435303 432.601074
1050.094360 1971.010620 406.919098
1108.296143 1778.648071 205.960251
1276.142334 1679.964233 248.404327
1223.881348 1718.563110 409.189819
1230.106689 1724.427734 162.566818
1536.935303 1879.249756 149.052353
1325.064087 1742.070190 500.273560
1058.468506 1877.072388 466.320862
1470.491455 1789.396729 287.125610
1241.511841 1715.377075 336.819763
1289.858887 1660.086060 368.380554
1168.774048 1754.734009 380.975708
1123.948486 1782.438599 241.838287
1504.214355 1845.698975 296.346619
1071.220825 1824.685791 197.272614
1281.270996 1672.976440 343.689148
1502.555542 1839.439697 228.429504
1299.689209 1664.536621 385.837708
1220.423950 1720.197510 431.847870
1301.900757 1768.757202 502.483337
1071.197388 1839.663696 465.611328
1357.596436 1627.280884 185.719406
1097.234009 1834.476807 478.185577
1222.913208 1726.837891 288.896912
1130.004395 1776.570068 387.690399
1418.087524 1685.419067 343.496460
1197.579834 1741.251465 448.752502
1428.729858 1715.912231 310.577484
1301.025146 1668.776611 179.036697
1331.671875 1768.740479 461.369812
1171.277344 1785.948975 450.956024
1295.017334 1727.690918 535.717346
1502.216309 1838.295288 365.705994
1392.705322 1770.367920 521.516968
1352.436523 1766.343994 429.590881
1436.397583 1730.426392 294.602509
1447.045898 1783.348267 423.998169
1148.884033 1872.761108 467.805542
1393.200439 1666.532227 265.763977
1250.978027 1691.797485 187.378052
1116.182373 1781.820313 321.604095
1196.442383 1726.024414 409.213257
1131.599243 1774.644653 257.099030
1463.853760 1755.287354 417.058624
1522.322021 1874.923218 211.936890
1326.453491 1746.820679 452.012390
1085.427246 1842.825684 492.497375
1333.382935 1644.384888 217.392715
1294.391479 1742.341309 332.527466
1447.735474 1705.807251 415.247711
1186.677124 1745.187988 169.655258
1185.366455 1739.380737 261.360077
1240.758301 1708.964233 182.387680
1437.328369 1786.390869 509.834564
1400.055786 1769.908569 439.441254
1088.415771 1800.734863 420.488739
1014.921509 1858.364990 428.736664
1322.950562 1649.983765 214.428467
1330.652954 1741.082764 445.300964
1101.940308 1790.437500 167.699860
1177.650879 1752.696045 295.401306
1509.147949 1830.354980 378.447235
1112.562866 1782.168823 210.875137
1463.709717 1736.933350 413.200439
1083.153687 1842.804199 490.395050
1090.597290 1800.125366 164.887558
1312.296509 1646.644531 348.364319
1429.285278 1777.216187 509.101288
1344.407959 1662.822998 428.036774
1457.712646 1727.866333 154.547318
1137.012329 1785.355713 447.119751
1398.176392 1750.930542 430.526306
1322.435425 1740.420044 428.889954
1421.393677 1732.209595 424.690887
1282.606201 1656.417480 375.976166
1129.244629 1796.576294 470.365112
1293.450806 1673.098755 409.837341
1005.422974 1889.605957 290.410278
1429.286743 1712.522949 424.598419
1065.181030 1809.577393 276.965240
1044.999023 1824.765869 394.745911
1234.785889 1717.959961 213.159271
1077.751221 1849.918701 253.860229
1146.841919 1764.053467 212.174057
1125.517944 1785.819824 269.080139
1442.279419 1690.021484 411.732117
1267.470459 1772.801147 454.270355
1476.073730 1818.469971 316.735779
1152.012451 1755.480591 179.237701
1115.931641 1787.961670 383.911285
1388.998535 1646.265869 268.800781
1111.298584 1784.310669 164.826401
1389.663086 1662.516602 352.133759
1494.034058 1831.346313 365.337982
1096.549194 1805.015137 281.737793
1030.166260 1855.709106 434.066467
1297.199219 1752.160645 479.195404
1310.679199 1664.662598 393.678253
1085.073120 1793.386841 198.862640
1233.661865 1792.470093 455.428467
1095.427002 1795.303955 168.324951
1397.819458 1777.730835 505.836365
1231.430664 1706.072144 204.721512
1280.629272 1725.725342 240.055069
1310.005371 1664.115356 177.238892
1390.895264 1651.802246 237.226990
1353.568970 1618.337891 261.493713
1420.675293 1777.512817 517.825989
1339.069458 1759.753418 505.819061
1256.625366 1683.155029 233.218018
996.856262 1849.414429 411.542206
1102.285889 1817.109497 444.501373
1052.160400 1887.637451 473.843231
1222.177612 1713.509888 232.235413
1061.350830 1806.057983 178.906693
1391.204712 1677.293701 229.433304
1450.798340 1765.597534 307.247070
1105.828491 1793.591675 204.936554
1412.536255 1772.361816 486.870728
1081.797852 1809.773682 438.656342
1063.398438 1872.011230 299.744232
1035.560425 1817.045532 398.079346
1097.780884 1783.481934 419.630035
1347.166748 1634.041382 411.138611
1090.933228 1826.996582 460.172394
1019.700989 1914.354492 393.537048
1387.327759 1664.223755 347.461884
1177.923828 1763.084351 250.927551
1407.274536 1690.247803 335.751587
1284.816895 1731.029785 453.516327
1445.957520 1749.690430 272.743561
1252.420166 1705.384399 335.434143
1045.613892 1828.669067 193.841415
1487.242554 1833.337524 316.882141
1339.370361 1653.461914 208.680084
1044.483643 1815.738892 191.389328
1116.239624 1791.803345 411.396790
1278.431274 1744.895142 459.990112
1356.462036 1731.175049 437.896271
1349.724243 1624.659912 364.836273
1210.260254 1750.287720 462.927307
1383.385742 1623.130371 189.457764
1413.815674 1672.427979 423.343292
1169.489746 1761.018433 325.721619
1129.525391 1806.935181 273.133759
1413.958862 1772.441772 517.042175
1390.452026 1653.520996 221.741623
1057.640137 1826.740479 377.020233
1490.020142 1814.524292 249.730057
1309.477295 1722.361206 550.510803
1355.969727 1629.871094 208.436737
1092.280762 1834.655640 492.555786
1004.597961 1848.136597 294.738678
1262.590698 1676.978394 335.580811
1066.422119 1897.735962 500.066803
1102.796021 1778.171753 155.345337
1477.531006 1794.082520 243.287552
1321.210449 1656.194946 399.315948
1470.021484 1735.982178 429.913666
1505.540283 1815.340332 213.904785
1367.168945 1634.334717 434.149414
1347.797607 1621.798584 274.794037
1092.084839 1837.106079 201.483612
1335.405762 1646.466553 167.130081
1392.274292 1658.660522 354.729401
1459.850830 1732.889160 420.828094
1419.478027 1723.768677 279.259369
1361.662598 1641.365479 273.474670
1183.614990 1755.065552 311.121826
995.989441 1852.240967 422.886749
1245.375610 1731.817505 289.678894
1221.346558 1719.333984 390.581512
1086.326782 1827.095093 450.923218
1436.750732 1766.549805 457.720367
1284.837891 1717.957764 266.758606
1297.364624 1649.236450 325.755463
1495.502563 1828.677490 318.477905
1048.161377 1856.466187 466.855072
1218.245850 1716.110718 405.018341
1496.816895 1783.881714 412.819794
1049.378662 1872.323730 248.299347
1493.960938 1778.787476 421.080811
1322.841309 1725.419800 492.010712
1361.225098 1625.947632 350.244049
1469.609253 1788.366821 345.640350
1057.256592 1824.670410 419.532135
1438.186157 1722.736450 354.739227
1305.544189 1749.330200 434.552734
1187.307373 1746.765381 410.163605
1187.329956 1739.800537 374.314087
1350.312012 1635.195557 335.228149
1309.176514 1661.124512 183.983307
1095.374756 1790.810059 417.091156
1448.518799 1800.161133 495.771759
1416.182373 1719.134155 426.491821
1324.600708 1634.594116 350.345886
1072.911133 1807.185791 397.127319
1278.843506 1705.845825 421.628845
1019.489380 1844.052246 351.382751
1369.560913 1650.133545 378.001831
1299.441162 1715.199219 491.980164
1269.188232 1683.276367 342.405731
1408.889160 1693.985352 300.529449
1208.184326 1720.987305 418.579376
1055.995850 1835.200928 454.208984
1202.016357 1738.277100 256.253784
1395.600220 1662.839478 240.846756
1396.330811 1672.714111 343.436127
1495.942993 1826.547485 209.208710
1402.798218 1698.586792 284.133026
1470.704346 1780.785767 219.333496
1070.426147 1800.861206 402.392822
1400.230835 1669.329590 343.956451
1336.575317 1629.559326 166.476486
1330.664429 1636.901123 208.752548
1291.896362 1664.639648 211.107834
1075.070801 1809.076538 390.397034
1466.980591 1774.807007 202.534546
1324.827515 1651.890869 254.731155
1075.556763 1887.295654 484.543823
1400.017456 1677.233887 186.066177
1371.962646 1764.353638 496.936127
1240.239258 1714.822388 163.562592
1295.834106 1665.329102 401.685608
1354.054199 1619.463989 243.627258
1242.559692 1702.442017 420.612854
1407.526855 1685.131836 203.992615
1269.790405 1684.177734 316.427887
1507.059937 1826.789307 252.501785
1100.156860 1784.480225 394.521027
1459.221313 1777.120239 249.796021
1116.222656 1777.373169 210.972977
1377.083740 1639.329102 288.638611
1475.230347 1797.382813 288.122284
1510.442505 1808.015747 425.872040
1218.476196 1721.466553 400.862854
1315.313354 1742.118286 505.440857
1442.222900 1708.269165 426.315155
1020.616882 1838.189331 223.913300
1318.293579 1655.349976 154.592087
1320.942017 1642.895630 406.036316
1074.492920 1796.438965 156.882477
1299.087524 1716.494385 485.962555
1413.248291 1697.501831 296.233429
1205.174072 1760.918701 457.766907
1136.974121 1772.268799 228.678040
1224.932373 1818.148438 462.368408
1352.897705 1634.944946 221.248230
1516.213623 1830.764893 397.185913
1209.490967 1798.631836 464.497009
1357.843262 1635.120117 197.859543
1039.812744 1841.577515 433.049469
1334.490356 1634.867065 345.920776
1428.950684 1725.024658 344.590363
1248.904663 1790.939209 461.311066
1285.880249 1744.656860 459.380096
1119.025391 1776.148682 418.745728
1487.681274 1808.918701 206.733978
1233.692505 1701.259888 193.350677
1289.116943 1676.402954 163.101715
1290.598267 1721.628540 466.854828
1186.614868 1745.790894 210.143951
1291.843750 1668.023438 354.252808
1022.959290 1916.556763 241.629700
1003.315247 1858.258667 300.704590
1099.275513 1813.794189 456.973663
1334.125366 1751.137573 521.637878
1478.899292 1793.023315 229.343765
1218.669678 1758.977417 445.549469
1275.103638 1739.217896 439.618103
1421.137939 1760.168823 478.549072
1099.041504 1791.560059 155.508606
1493.949097 1807.311035 334.973816
1169.441528 1743.809570 408.206116
1419.238159 1689.097412 207.852707
1367.197998 1637.761841 397.016205
1236.606445 1723.375610 379.701324
1178.171143 1736.410889 194.015549
1374.553467 1637.252319 161.194336
1335.266479 1749.469849 510.018829
1312.069214 1650.112671 158.753723
1483.067749 1710.926392 428.378357
1449.881592 1751.277344 323.158142
1404.179077 1749.851440 440.076447
1429.437744 1720.800415 420.998444
1244.447754 1703.327637 179.337616
1140.891846 1762.105347 187.963242
1388.734253 1651.142212 334.422394
1128.314209 1787.684448 417.803589
1358.734863 1615.641113 275.720001
1218.991089 1714.707764 396.664124
1265.092285 1669.741211 162.050308
1129.182617 1781.605713 335.583923
1423.492065 1716.269775 337.647888
1077.144165 1842.113770 454.581757
1418.189087 1773.156494 510.048798
1413.912842 1677.385986 316.628448
1468.888794 1781.029419 219.575974
1295.516113 1661.394897 255.934219
1415.869507 1684.721924 258.368011
1437.663208 1717.921631 213.011230
1256.883423 1696.445313 410.395416
1519.355835 1869.768799 246.229218
1288.891846 1660.759766 278.362152
1268.132813 1735.126709 540.458557
1037.387451 1838.666260 443.991608
1135.647095 1763.296631 445.355713
1097.767090 1813.728027 434.205261
1324.053589 1715.736084 499.071899
1254.218140 1673.202637 313.305237
1089.133179 1794.195313 195.531006
1170.234619 1747.743164 171.095688
1442.923340 1792.804077 471.677917
1387.708130 1761.992676 530.394165
1426.009399 1718.642822 331.791687
1331.962646 1742.414307 505.854645
1488.596680 1814.624390 170.857727
1453.812866 1702.786011 408.718628
1205.447388 1740.356079 214.673004
1386.420044 1656.242432 390.435699
1022.743896 1823.576538 432.099731
1209.741699 1752.360840 456.429688
1246.093628 1748.701538 295.435669
1353.403687 1643.877930 317.616791
1296.461182 1654.887695 333.048676
1342.088623 1628.083252 372.590302
1196.032349 1744.582275 330.786346
1179.992676 1751.128906 307.698090
1268.953369 1687.391968 384.504852
1546.103394 1852.154541 157.081635
1287.416748 1718.368530 439.983765
1353.239258 1684.526367 436.795563
1134.187988 1756.834961 198.363556
1469.599976 1788.476685 161.100632
1427.412476 1718.706665 256.302826
1067.419556 1809.458618 437.072144
1110.466919 1787.145996 207.535294
1177.510498 1743.603882 400.289001
1477.523926 1800.713135 283.773956
1501.264282 1845.497803 313.062836
1116.587769 1778.732178 188.826538
1484.314575 1792.309692 311.250488
1181.715820 1794.473389 472.553162
1475.979614 1799.597656 302.565216
1269.951294 1685.200195 251.092377
1356.550049 1614.903320 278.897400
1250.005005 1713.869385 349.882355
1158.402222 1758.559692 408.690796
1149.479858 1771.333130 223.005783
1406.825317 1690.638916 346.636017
1027.670654 1826.144775 193.829071
1506.825806 1811.115967 410.306854
1184.030640 1746.448975 407.844574
1221.297974 1712.050171 410.852356
1298.469727 1686.251953 159.795868
1262.381470 1690.261963 195.164200
1238.197144 1728.682739 243.659607
1376.046753 1647.204468 170.312408
1296.956909 1653.415405 259.706024
1217.893677 1716.436157 412.794556
1418.392334 1777.967407 465.113373
1373.496582 1626.802856 393.991180
1110.998291 1794.532959 282.250763
1181.515503 1750.871216 409.153595
1338.369385 1629.554443 317.025055
1079.105957 1828.714722 475.305054
1215.428711 1716.889038 399.821655
1291.263062 1658.438599 361.307343
1280.034180 1678.945313 394.446686
1370.842285 1639.268555 290.954132
1100.540161 1803.378906 437.017578
1174.512451 1845.461426 469.869537
1429.133057 1688.006104 425.401611
1316.585449 1730.161865 424.974457
1342.632446 1625.144653 363.379791
1501.230835 1789.764771 419.995544
1399.653564 1776.051025 497.786438
1170.896729 1758.874878 286.612457
1068.640259 1830.555176 442.875153
1422.843384 1774.906982 490.864502
1154.172363 1743.725098 413.385895
1494.432251 1822.444946 229.568939
1089.891846 1813.146484 345.285736
1269.708984 1703.509766 229.910446
1425.485840 1707.965820 385.852905
1145.499146 1786.231934 252.150787
1330.867798 1631.629028 259.374939
1398.114746 1689.728882 165.936707
1210.713257 1759.165894 461.880341
1234.789673 1720.404053 309.451416
1220.145264 1736.093506 343.918365
1199.893677 1746.845581 218.302399
1351.543457 1621.395996 337.289978
1353.681641 1628.664185 250.157806
1332.178101 1636.830811 276.487366
1304.642822 1654.634644 242.676620
1449.943726 1773.257813 284.390839
1118.690918 1781.872192 240.843491
1322.742676 1637.969116 298.586517
1433.430176 1731.089844 309.913879
1191.469482 1774.511230 453.061218
1159.469238 1779.690186 337.906250
1192.178833 1741.562744 332.300140
1360.319824 1615.865234 304.080811
1358.349487 1632.514771 405.926971
1015.561829 1849.332764 390.987793
1441.227783 1775.330078 491.667114
1361.814331 1640.189331 366.278412
1447.596069 1736.989380 388.748962
1443.898438 1746.382813 325.162506
1306.029053 1735.997070 487.563354
1278.269165 1675.338013 397.650726
1441.353027 1801.087769 464.227448
1308.934814 1647.862061 316.378815
1401.088379 1774.000488 522.635498
1396.896851 1664.993530 362.000000
1434.404907 1747.746216 177.228256
1311.154297 1714.281494 480.185059
1341.050415 1631.191650 370.361542
1124.140137 1785.817505 381.310577
1027.658447 1846.829712 447.132141
1279.489990 1697.818481 420.337372
1299.746704 1731.995361 449.913269
1480.876587 1801.019043 259.026306
1149.537109 1781.634521 317.140869
1349.436890 1637.000488 342.427002
1182.922363 1732.281860 200.429565
1306.092041 1722.288208 464.249695
1310.632080 1658.997437 322.984924
1053.780029 1815.177368 415.767334
1170.002563 1769.416260 210.810059
1324.598389 1649.717896 300.724304
1323.889282 1638.302124 376.603424
1274.332397 1669.048462 297.980347
1123.262085 1773.661133 408.827087
1406.221802 1674.317017 245.800156
1118.576904 1821.060059 456.242004
1296.023926 1655.214966 337.034546
1037.445313 1829.067139 182.447769
1253.649658 1711.869507 200.902832
1329.994507 1643.578613 420.242676
1176.410767 1712.354614 174.888855
1173.435303 1750.278198 308.925568
1018.492065 1843.575195 363.255524
1517.305176 1872.237427 214.687820
1318.093140 1739.229370 447.319458
1019.303406 1832.247314 411.571747
1365.896484 1624.924438 199.030228
1176.403687 1739.288086 418.525208
1104.427368 1791.351685 274.805450
1188.734985 1749.000854 277.494995
1422.070435 1779.429932 462.046600
1074.740723 1810.001953 427.503784
1017.888550 1842.892090 364.397064
995.712280 1849.501221 242.864227
1329.794800 1651.494507 420.839539
1178.568848 1738.153687 195.682083
1316.379395 1723.929810 435.819427
1293.737305 1658.293701 259.157104
1237.656982 1723.693481 358.833740
1111.483643 1800.978027 323.115967
1277.742065 1669.334106 246.361984
1300.203979 1660.067505 329.154449
1245.903809 1694.796387 339.736633
1100.884033 1793.499390 166.078598
1216.342163 1733.378784 166.818634
1467.161865 1764.133911 162.865570
1167.980713 1769.850464 253.182114
1383.145020 1642.713745 338.773224
1217.799683 1715.642822 411.492676
1235.035889 1704.357300 194.755005
1141.329346 1757.002686 432.810516
1424.408081 1712.972534 173.959137
1127.463867 1784.043701 308.895935
1213.238892 1733.157349 263.941284
1391.089844 1778.101074 463.812744
1193.857300 1729.375488 161.537537
1331.978271 1759.166748 513.656128
1069.207153 1837.128418 444.199402
1448.836182 1756.271973 210.135468
1282.258545 1675.751831 403.952118
1130.660156 1785.004028 182.799744
1441.666504 1791.640625 506.544983
1394.623535 1663.151978 398.489441
1356.841309 1603.821167 171.214676
1366.644531 1621.697754 175.692093
1268.009644 1690.933350 380.515686
1193.925659 1728.176758 415.497009
1413.719238 1681.745850 258.554321
1035.722046 1824.144531 417.609161
1344.373291 1630.943726 271.951721
1290.606079 1720.030151 433.866608
1488.947876 1818.718262 365.264893
1108.342651 1846.213623 457.952393
1042.696777 1824.943481 200.847992
1426.402466 1712.926270 377.655457
1542.392944 1864.321533 159.198730
1460.496826 1796.303589 355.794891
1196.652710 1751.666260 297.731750
1510.223145 1853.331787 164.851501
1148.402344 1772.560669 307.834412
1216.290894 1716.155273 406.351349
1397.286011 1733.372803 426.361420
1256.385010 1689.535034 328.606476
1485.337524 1813.050415 419.171234
1147.140381 1771.358276 338.374725
1043.401367 1834.134277 312.173004
1202.738892 1732.205200 372.308960
1105.537598 1872.701172 477.707977
1383.553711 1622.133667 217.970657
1336.247681 1627.700806 297.747986
1124.383179 1777.214233 297.479034
1286.600220 1672.153076 198.797913
1233.079956 1784.587646 452.465088
1513.065063 1840.328613 169.778519
1267.928101 1740.767456 237.746109
1117.555908 1781.140991 301.110779
1038.536011 1820.903198 198.456528
1121.981445 1768.192261 400.417114
1453.928711 1813.329712 453.384857
1257.020508 1698.579712 384.953644
1118.558105 1856.908691 475.612488
1218.136597 1728.641968 301.266510
1260.837769 1688.343994 359.209717
1028.608154 1833.953491 430.481934
1344.348511 1643.038940 361.126434
1094.920044 1787.615234 198.212723
1365.907715 1627.823486 397.124756
1431.399170 1750.616455 535.078735
1282.432007 1676.702759 169.043350
1512.971436 1852.804077 310.268005
1401.612549 1649.211792 405.388947
1470.296753 1790.106079 312.898132
1172.423218 1746.879395 164.794327
1305.381226 1648.868530 327.401672
1526.280151 1848.552002 149.688797
1079.453613 1820.096436 456.273865
1501.819946 1845.158936 274.055359
1471.093628 1767.328247 416.700073
1388.597412 1656.618042 283.630798
1399.224121 1672.710938 314.461548
1396.931152 1690.067261 322.502747
1029.385376 1839.716797 234.226181
1448.741211 1735.342896 193.469925
1260.905151 1691.501343 180.802948
1058.334717 1817.599121 392.444824
1450.380127 1783.634644 444.216125
1189.915649 1736.240723 384.039063
1320.223022 1725.768799 569.243164
1129.040771 1793.570557 459.718658
1020.132446 1879.028564 285.340576
1496.688110 1825.472778 244.202164
1437.490967 1714.311401 279.379272
1163.315430 1749.086670 453.506531
1122.911011 1816.583008 453.495239
1370.452271 1613.235840 233.255676
1169.319458 1769.920898 269.712982
1203.234863 1782.491577 482.510376
1274.884888 1700.477539 421.039307
1269.835327 1735.906372 562.282349
1334.573853 1650.930908 220.087601
1185.034790 1744.138794 464.743134
1197.344849 1741.164429 211.072021
1358.126831 1647.163208 158.111969
1212.909668 1752.117554 333.200928
1384.347656 1651.584961 391.546600
1441.957520 1756.557739 218.722717
1479.815430 1807.095947 347.396423
1496.860962 1826.459473 247.892227
1424.702759 1714.912598 291.817413
1375.038086 1630.368164 157.743195
1017.602478 1850.139771 284.806183
1265.150757 1686.677979 402.614990
1240.906616 1702.323120 284.657501
1172.984253 1879.584473 467.385040
1298.533203 1653.734985 367.684998
1499.740723 1820.273315 343.149780
1285.905151 1650.559204 341.487518
1006.468323 1835.951416 400.847626
1508.548828 1848.790405 223.650665
1054.901611 1799.221313 158.881729
1126.562012 1780.946045 210.889725
1434.993652 1747.783447 256.007904
1384.232300 1648.940063 393.736389
1281.958618 1659.921143 336.619446
1205.066284 1748.209106 240.378494
1426.950684 1704.507202 340.270844
1098.785645 1796.517456 428.258362
1183.689331 1731.042358 431.410858
1021.484863 1842.421753 433.031342
1377.245728 1638.291382 431.622192
1142.732056 1758.412354 404.239929
1124.998413 1771.652100 175.410568
1087.680542 1808.054810 264.769867
1187.788818 1747.461304 347.531525
1372.747559 1603.656616 167.754257
