ply
format ascii 1.0
element vertex 1408
property float x
property float y
property float z
end_header
1996.532837 685.082397 383.055756
2066.195801 494.600403 176.594604
1973.013062 755.712708 346.200195
2016.771118 946.613586 394.063965
1981.493408 699.922791 423.298950
2102.947021 618.395691 505.374329
2249.735840 537.563354 311.361115
2123.141602 497.779327 357.765717
2037.121460 565.122742 419.078247
1971.552124 812.457092 210.504395
2113.692383 604.627075 432.343964
2063.587891 651.705933 490.441559
1957.615845 791.829163 241.459366
1937.765259 808.997864 175.249908
1998.015991 684.437378 287.484070
2123.162842 498.202515 443.916443
2040.020996 587.981445 280.624817
1937.316772 874.047852 131.863968
2085.734863 607.175781 570.633118
2014.558716 721.285400 440.157135
1977.962280 714.835815 407.532776
2265.993652 538.954224 447.597046
2201.092529 563.990967 480.369629
1970.389038 719.567932 430.804810
1950.039917 822.075073 169.043198
1961.214478 755.600281 138.962784
2056.657715 485.560120 421.884918
2157.061523 630.309692 449.549042
1954.558105 774.084961 233.878952
2074.497803 490.774261 421.993652
1946.679688 792.393738 145.410049
2025.614502 549.574341 293.380188
2126.565918 642.966492 449.516022
2087.859131 441.952423 242.906586
2307.937256 540.486511 184.743378
1946.905640 822.197388 284.906189
2119.606201 578.917603 458.455139
2177.757324 497.874817 248.082214
1998.012573 742.650024 446.898499
2030.914917 598.739380 433.258240
1932.256104 878.420349 164.199051
2035.988892 544.281921 276.033905
2067.294434 602.395569 434.647003
2279.472900 550.673340 335.102356
2035.767822 576.697327 425.633484
1959.731567 786.885498 341.708740
1941.046265 812.961365 305.270477
2044.799194 506.645386 276.661163
2022.844238 611.200989 202.379349
2033.667480 538.690735 303.034027
1985.127930 701.618896 442.713806
2046.768066 508.913055 420.741058
2085.356201 467.401306 302.740753
1984.532593 740.789490 430.579681
2163.101074 607.563354 525.590576
2087.465332 617.923767 505.452332
2004.325928 699.093201 324.296143
2193.619385 578.472595 534.380005
1978.079224 725.049561 324.207184
2198.691895 519.809937 374.865326
2025.469116 607.364075 425.346344
1931.275757 851.569031 350.844055
2060.992432 513.854736 169.219421
1939.427368 848.122864 215.131866
2070.397705 494.765717 417.331512
2026.171875 636.380432 232.141220
1943.869629 794.119995 131.844284
2200.013916 543.198303 440.173920
1970.675659 780.191040 332.755188
2037.009277 545.170715 321.344086
2236.937256 524.574707 274.325378
2025.222046 567.403992 364.764954
2085.048096 686.238831 453.934814
2038.233398 510.923553 217.395767
2044.884277 513.245728 321.972168
2005.041992 845.977051 438.817322
1952.394531 786.066223 142.343613
2136.288818 463.059143 180.407394
2033.516846 609.324402 231.442688
1941.406006 846.709412 420.260803
2006.902344 665.050232 431.386993
1991.427124 776.296875 438.953522
2225.354248 589.210022 465.247742
2045.217041 602.556213 331.783997
2098.583496 486.077759 341.985077
2084.453369 624.334473 552.980530
1992.188232 673.985413 416.328339
2025.730347 576.430481 343.118042
1956.004883 801.823669 419.405426
2098.929443 599.128113 476.494934
1997.803223 664.771362 405.955353
2047.961060 489.493927 346.069244
1982.307983 733.922607 304.442352
2170.972168 550.404480 441.845673
2076.380859 619.486755 507.213165
2002.465698 813.503174 440.534332
1990.865356 703.705627 248.869064
2065.900879 589.078552 487.595581
1982.335815 685.577271 191.649216
2069.206787 466.732666 233.733032
1968.472412 843.582825 440.972076
1999.280762 714.041809 241.063751
2288.564697 550.767517 305.295288
2194.762451 494.340027 174.359116
2067.952637 605.994141 511.413422
2027.384033 571.317810 383.203461
2059.707764 468.261322 236.277039
2004.531616 631.290344 157.914520
2033.354858 512.144897 286.622437
2154.883057 501.720978 358.098511
2176.905273 487.836487 223.409302
2043.062500 515.026123 285.401215
1978.875854 739.694641 309.586823
1996.502319 686.878052 404.927795
2060.045898 599.891785 234.614243
2191.253662 531.545837 441.238037
1977.975586 714.644226 436.792633
2112.153809 481.282471 277.005249
2219.022949 527.924255 319.537750
2067.308105 517.722412 426.101593
2149.480957 622.090027 529.368164
2077.433350 600.324036 512.510681
1948.361084 799.854675 174.587463
2096.849121 621.508850 566.062073
2137.584229 449.844635 181.216370
1955.205200 798.312439 306.317200
2067.651123 465.569122 327.905243
1970.690674 883.342102 453.273712
1966.765991 920.073303 404.545258
2049.232910 510.415802 246.883636
2159.669922 473.289185 181.789566
2038.968994 586.319763 162.065460
2015.590454 797.171448 435.411865
2128.512451 621.487488 471.621155
2171.216064 513.452087 339.669281
2073.888428 580.715637 464.057892
2039.149170 533.228088 234.755539
1999.476318 650.235352 201.500412
1977.543701 729.727173 311.322968
2031.496338 533.943420 345.876923
2060.809570 631.765259 541.999939
2007.762329 719.883789 437.274261
2257.205811 516.373779 243.251938
1967.964233 739.863403 362.421295
2109.002197 448.562561 179.911041
1931.370972 843.357422 209.892410
2000.818359 667.731628 370.190491
2050.010986 548.230713 422.955841
2074.398926 683.332520 454.307800
2072.029297 461.488464 219.204346
2036.027344 942.461060 287.231293
2306.392822 547.780518 432.855682
2055.945801 483.757324 347.071564
2028.761963 538.264465 337.148041
2080.015625 504.856506 449.999969
2259.083008 548.283691 316.265533
2069.406494 758.635071 446.018860
2091.136963 493.941803 422.057648
1980.757568 729.654541 373.132660
2018.737061 583.828918 407.223297
2242.361816 512.611023 172.881607
2057.196777 551.866333 430.839935
2032.983154 533.928528 380.249542
1997.380615 698.657959 233.806168
2135.626953 538.430969 456.573090
2159.713379 488.824677 207.503571
2077.166748 598.031067 453.003204
2038.993042 534.256653 401.609222
1966.364502 759.366394 169.997986
2046.997192 618.765991 427.098175
1908.923096 882.364319 323.844391
2010.614746 683.525696 366.810883
2033.647339 579.712219 167.030304
2046.256348 498.681305 340.998016
2196.523438 574.912048 514.670837
2030.125488 540.038269 363.851593
2115.669922 491.683411 357.756897
2175.194824 504.807648 436.671356
1951.824463 851.393677 218.052246
1927.881104 846.334961 302.304108
2069.635498 461.181763 261.223846
2060.256104 513.304138 388.804688
2007.601440 654.669495 290.885864
2171.957520 516.713013 380.824707
2080.227051 460.289490 272.135254
1969.012939 892.262573 430.709930
2077.723145 607.823608 527.051575
1997.148071 662.209045 242.678833
2052.492188 480.388672 258.857574
2048.619873 524.531982 441.467072
2054.603760 470.816162 258.711487
2173.332520 485.007141 452.370392
1992.164185 682.854004 400.554749
2216.821289 581.613220 520.887939
2007.049316 691.762146 275.588196
1993.713501 693.162476 153.621811
2125.238770 487.555847 428.845337
2205.968262 578.780334 494.105103
1967.523193 769.609192 346.828156
2058.155518 477.212067 270.360779
2304.368408 550.823608 272.871704
1948.179688 751.323242 134.140472
1955.570313 834.794861 442.754303
2136.463623 495.237122 300.227203
2031.291382 537.049744 280.741486
2195.740723 519.411438 334.242065
2151.511230 627.985107 434.997314
2002.873047 672.241516 335.604675
2056.368896 540.402100 168.611206
2131.907471 471.279755 250.650055
2152.337891 486.991089 254.043472
2115.300293 497.573090 349.417419
2063.380615 632.508850 534.588196
1983.530640 701.560425 162.994110
2029.957764 559.758606 225.522629
1942.490234 751.912109 142.322998
1938.693726 814.971008 237.519409
2226.129883 529.439697 290.185974
2064.865723 464.420959 329.412384
2179.361328 510.406860 303.213715
1975.424438 742.534546 348.083679
2032.188110 630.593872 434.569000
1955.305298 830.033142 410.601349
2074.006592 584.000000 459.926239
1995.395264 743.347534 423.355255
2253.304932 569.322693 437.423584
1972.501709 741.893250 251.113907
1921.972168 867.532166 262.637054
2134.664795 513.446716 443.524078
2207.563232 567.782715 474.013031
2033.660645 521.211426 372.228668
2132.953613 492.744019 240.969498
2150.491211 502.191193 369.665985
1976.773315 713.669189 179.701309
1925.011230 869.050659 305.489197
2232.502197 541.402710 340.400177
2228.792480 525.454590 282.956238
2179.035645 598.406799 484.303864
1920.396729 894.058044 371.526917
2073.968262 766.608948 457.943573
1990.650146 664.205383 209.262390
1942.223267 812.163330 391.870361
1994.071411 664.908020 411.558990
1928.057861 866.109558 273.166962
1972.312134 742.357971 315.570068
1979.369629 797.099365 432.264771
2042.368774 513.806030 294.360016
2039.122437 590.965088 205.146194
1972.084839 710.522339 413.465057
1995.406128 674.042542 393.911346
2021.075317 608.492126 186.104019
1970.413452 742.823792 308.007721
2014.156372 567.941956 222.168701
2002.635498 649.930054 403.591187
2163.690918 485.759460 207.848221
2168.401123 499.731659 431.748779
2031.237549 568.449707 257.640594
2040.708618 604.350586 229.618790
1919.099854 858.401672 371.546753
2286.533447 505.513123 177.530472
2014.522461 575.524170 374.793030
2055.170898 480.945038 317.589081
2031.292114 621.176697 211.281311
2032.739380 575.811279 188.321960
2034.110107 546.474976 283.629211
1912.520508 873.874268 237.823792
2104.067871 947.614929 198.549683
2073.273438 623.325012 521.453003
2001.331787 673.611877 421.332367
2035.771973 586.755066 220.940353
1993.563232 683.477661 369.618011
2275.537598 529.261230 189.206924
2004.927979 795.625305 442.292725
2038.738892 595.697571 207.558548
2174.952637 507.804413 439.009094
2015.533203 582.251160 352.868958
2033.855591 527.124084 317.263367
2200.648682 510.856049 320.435577
2020.227417 602.753540 401.211975
2101.549072 498.054260 413.831940
2180.204102 597.650940 497.304565
1988.040405 715.601440 228.293716
2164.898438 576.159241 535.872803
2069.013916 609.957886 520.441284
2061.718262 507.088562 232.163666
2039.140015 586.591736 223.906006
2172.867188 507.657013 424.217102
2131.973145 506.854767 400.583801
2076.688477 506.514709 445.632965
2023.218140 592.901794 386.495972
2164.300537 490.652313 247.151138
2172.520264 598.157715 535.290649
2249.995850 515.106262 241.892548
1933.695435 880.027771 393.932037
1997.299561 670.917908 261.036835
2019.824707 608.243896 405.377594
2154.781006 612.634766 528.445251
2266.582764 561.061646 447.345459
2062.785645 610.987915 434.387695
1985.810181 707.592957 356.357391
1930.432983 865.073792 201.811905
2050.376221 487.740631 386.549011
2056.565674 641.099792 472.785004
2038.892334 490.828278 306.290344
2063.015625 508.193390 189.827927
2142.500244 480.782074 239.043335
2212.993408 512.055786 255.123169
2019.996460 609.768494 336.579651
2295.992188 557.766724 278.703735
1948.009644 670.478638 164.196747
2141.721924 499.119415 427.919067
2221.364014 520.717163 283.933716
2002.891846 738.553162 435.494415
1997.922729 684.177673 436.640442
2071.051514 616.244690 571.965454
1987.315308 689.708252 199.508881
2023.403931 767.460022 451.610626
2030.930786 574.433533 220.957764
2102.378662 534.468506 454.272644
1986.956177 714.682556 406.665558
2209.265625 530.255127 355.010529
2040.028931 587.705017 234.488052
2198.742432 514.590637 292.337219
2049.281250 472.326172 187.725098
2060.968750 500.561066 186.531921
2040.664673 508.189941 293.662964
2019.783325 635.593201 426.244354
1951.211670 910.886719 400.291809
2039.093262 536.007813 213.204971
2057.606445 476.406586 220.777115
1921.361450 890.314758 383.122711
2220.259521 585.660706 504.368896
1913.484009 848.268005 294.432617
1964.784302 733.483765 408.085907
1971.563843 861.878601 455.386230
2005.707153 655.311401 428.438629
2036.400391 554.650208 271.075836
2031.761475 551.933777 296.879120
2136.852539 497.630890 370.331177
2022.257202 592.541565 306.681335
1997.725952 662.570068 165.535690
1968.380371 763.469238 198.625916
2081.882080 625.167603 541.500977
2025.484741 644.871033 219.363800
2023.150024 614.735718 366.752563
2295.014893 559.622131 404.736969
2039.811279 624.223633 289.332458
1935.799927 851.105835 303.410156
2064.592285 467.354828 226.363449
1925.303833 836.469788 354.293701
1969.378296 743.785950 419.488220
2067.399170 453.302002 218.132233
1946.189941 787.027893 170.409164
2186.783203 580.216309 487.152069
1916.292969 863.158997 344.311920
1952.615723 797.071655 395.062775
1979.619995 710.378967 244.139862
2030.223511 564.968262 341.822601
2071.006348 611.358276 529.675781
2038.574585 514.634216 304.134155
2043.376709 504.492462 283.173676
2052.121826 526.378113 359.305634
2020.839355 607.346191 399.498749
2139.310547 503.920685 364.688324
2021.440063 627.799072 399.051392
2037.849976 586.334961 437.041412
2001.374756 658.306519 393.544647
2040.256470 509.380615 386.365112
2028.637085 558.664978 405.504944
1998.811035 688.645142 318.083679
2098.481934 497.844574 446.755432
2005.513428 710.458069 205.227463
1988.550415 725.288452 205.205963
2212.969971 585.257874 516.514832
2059.826416 605.353638 486.001495
2037.933960 530.954895 224.931229
2037.581177 595.199829 159.999954
2103.822021 623.645264 556.544067
2092.334229 604.597412 467.311646
1913.050781 853.270386 320.799927
2164.566406 517.223145 381.290466
1936.830811 860.429382 314.789032
1985.680786 765.980408 435.191254
2027.357300 689.713867 442.714325
1928.254761 850.012268 132.965729
2231.513184 581.740784 466.245453
2244.406006 537.278259 331.956635
2004.192993 645.592773 195.782532
2008.507690 671.331726 411.899536
2030.537964 565.519714 209.633484
1989.995728 711.360718 336.101715
2036.191284 569.082153 241.085693
1947.778687 845.731018 409.163757
2298.900879 548.890625 342.002228
2073.340820 614.044373 435.931396
2016.265015 581.757935 391.898315
2286.079834 546.151733 296.066406
1982.381226 722.803894 207.574631
1971.855835 699.139343 190.048813
2032.861938 545.139648 243.582230
2026.527466 550.276733 300.740448
2124.941895 454.296906 182.075638
1958.173950 773.337341 178.668777
2055.297852 479.559814 290.655731
2038.862183 517.772827 301.546844
2173.135010 515.393677 358.810852
1924.376587 855.571289 264.049072
1931.218018 823.327209 363.193817
1996.918701 644.025085 155.225327
2031.061279 588.387573 182.697739
2229.556885 517.142212 248.079147
2065.919922 504.840149 352.944977
2035.726318 590.338562 311.190521
2041.593506 515.561096 379.670074
2022.541626 592.438171 410.857880
1940.890259 796.934875 181.010895
1957.390137 780.712585 221.355270
2357.396240 569.815918 172.034241
2070.636230 930.566223 170.759628
2053.474609 482.994568 392.571289
2039.495605 611.942932 365.205170
2116.964111 473.316742 217.369293
2024.841309 553.961548 350.658295
2098.349365 472.330780 260.213715
2048.268311 694.046997 451.144196
1966.703247 751.769409 150.555206
2107.682129 489.618561 339.382965
1958.673340 830.401855 255.858566
2273.050537 540.226257 273.975891
1960.378052 762.883057 362.203674
2030.919189 524.948853 291.250702
2087.953613 552.296997 442.904816
2192.149658 550.918518 459.236694
2047.540405 489.246002 278.926331
1953.465698 793.160645 314.867249
2012.758545 617.419556 195.700119
2032.547607 571.252380 435.113464
2187.315186 504.748108 309.236359
2018.856201 630.507141 410.529755
2285.487061 532.053040 268.146698
1941.932129 831.582031 266.501831
1986.798340 752.029480 218.817505
2069.813965 512.243286 422.532867
2276.399658 542.239990 277.616516
2192.310059 539.462891 443.793152
2016.531494 537.302368 294.140900
2238.339355 495.586792 180.229935
2285.641846 553.281921 344.214661
2265.499756 525.977417 221.402725
2280.748779 561.080261 376.616577
1988.044312 701.531738 383.770386
2021.842773 557.471680 334.898163
2051.223877 494.431366 363.459076
2036.932251 520.732910 239.165024
2058.203369 473.549988 227.802811
2320.911865 551.136719 220.935272
2112.125244 617.538940 504.942505
2105.869141 619.931152 531.189270
1959.544800 803.069580 390.486694
1982.751709 714.358154 380.872406
2278.056885 581.462585 435.530029
2268.495605 541.289551 405.777252
1931.406616 897.001282 377.214600
2209.465820 509.849945 251.640228
2239.986816 559.762390 448.667877
1918.855713 856.052917 353.200592
2203.977051 579.511169 462.039581
2110.681152 624.896057 559.399536
2016.524902 653.509216 233.820557
2000.422363 636.658386 202.698807
2182.340576 572.235962 516.451782
1911.527100 893.224426 371.360229
1931.838989 871.046082 272.217255
2159.321289 507.762512 437.124664
2138.657227 616.538574 455.961884
2074.539307 502.779022 415.098419
2152.153320 503.891998 264.891968
1937.072876 826.300049 390.774200
1957.180786 780.950012 144.354599
2015.457886 646.644409 185.324615
2138.964600 580.152100 438.046844
2004.056030 653.026245 409.178955
2034.681396 541.349976 230.446136
2337.014404 555.555359 203.391464
2049.814453 498.816437 245.362137
2023.260376 559.057007 345.280853
2078.097168 593.438843 450.796661
2089.949951 444.846344 221.170959
2249.431641 568.059265 437.617310
2041.800537 533.460693 300.553345
1958.138062 852.686462 415.605164
2224.564453 508.816681 197.117218
2039.115479 510.915283 298.788666
2051.652588 486.160645 182.981567
2046.073486 507.590851 252.861862
2017.866577 635.549744 273.510498
2249.328369 605.476868 492.873810
2030.460327 550.312378 214.314758
1916.261353 870.010132 223.961090
1985.356323 711.837158 181.138687
2221.710938 514.613770 432.258667
2025.018677 580.068542 315.527344
2061.127930 499.837891 441.802521
1985.126099 744.006409 298.098846
2019.139160 583.366455 328.994049
2247.324219 501.730835 184.238297
2140.874023 504.905182 348.391998
1970.612305 752.965271 347.036041
1951.548462 825.611145 200.218582
2156.095215 588.962952 469.045807
1961.108521 767.602783 201.924240
2176.137207 506.665436 432.427155
2029.101929 642.028625 439.004822
2145.008057 544.280090 445.627625
2050.060547 491.513367 348.061340
2016.080566 670.238770 421.750763
1977.352783 847.607788 432.127960
1943.450195 800.285828 159.679840
1928.057617 860.943298 342.617828
2035.027588 500.074646 299.566498
2121.361328 508.084686 439.583344
2187.657471 581.945618 538.428894
2124.784180 582.891357 436.577179
1957.066406 775.345947 292.505859
2113.635986 478.652985 287.204620
1937.966797 827.423462 311.536804
1996.320068 695.194702 432.925018
2078.156250 706.138672 459.984589
2078.348877 625.891541 555.078613
1990.208618 704.454956 320.577850
1925.030273 856.486389 291.427673
2048.582520 510.686035 393.471588
2225.462891 513.239197 209.999084
2035.167358 606.767700 239.209412
2098.260986 515.104492 443.043640
2054.289551 490.210876 220.922104
2057.960205 514.112854 437.796906
2027.906128 551.045715 373.594391
2035.096680 525.703979 285.643738
2060.185303 487.403351 185.140732
1979.681274 753.771240 390.343292
1985.718140 697.391296 428.045166
2006.877686 669.064697 265.007355
2072.753906 606.619873 492.766907
2154.607910 506.628387 328.700562
1945.009766 782.038757 130.554688
2118.361084 518.269348 438.922699
2000.692139 672.213562 278.954559
2042.667236 508.029846 208.722778
2074.989746 631.565857 503.973999
2076.198730 618.922241 572.992920
2227.116699 526.399841 302.717407
2057.905273 491.638184 423.298584
2090.217041 595.735474 510.260284
2167.229004 482.704529 206.867767
2052.977051 544.173645 439.601501
2063.644775 509.330658 382.976624
2174.064941 511.096527 338.762665
1947.713501 765.358704 130.875046
2014.617188 602.096863 403.046082
1953.934204 780.041626 134.447449
1992.821655 691.688599 298.892212
2035.840088 528.444946 267.595795
2056.333008 640.472412 507.177765
2054.052246 511.804932 442.386536
2012.661377 640.840027 301.334351
2114.816650 446.068024 180.816391
2089.485107 610.524353 456.011780
2275.378662 549.561096 326.485809
2060.842285 471.462311 261.235901
2194.842041 576.941162 488.045654
2051.458984 475.984467 305.721558
1936.137451 846.033386 339.004181
2079.990234 536.097412 447.299103
1936.120483 842.661865 290.404633
2056.684082 520.988953 442.325317
2017.351196 737.723999 456.967773
2328.579346 538.018250 181.710495
2068.216553 604.135010 466.829376
2026.445435 566.069153 276.042145
2015.376099 679.427490 358.751617
2020.900635 701.843567 447.645325
2250.961914 531.343872 290.599060
1960.042847 811.834656 301.573059
2064.543457 632.472534 433.995880
1932.657837 876.804810 242.818115
2102.723145 469.714355 235.825241
1995.118042 683.980347 198.528412
2317.236572 546.598389 283.548553
1935.647827 869.090942 389.095337
1992.415161 718.439758 218.711380
2058.640381 458.012848 317.398193
1985.717896 662.075317 166.460907
2049.466309 492.991486 282.710632
2018.855713 598.821350 367.455688
2106.246338 476.847931 293.596680
2231.067627 525.096130 342.220276
2031.438477 558.223633 212.523849
1991.654785 718.708069 426.238770
2034.395264 539.724854 240.828735
2078.357422 490.518066 416.942474
1981.731201 739.899170 364.421051
1952.892212 787.013733 133.535736
1978.546875 714.515503 165.337326
2060.230225 534.108765 444.029449
2135.887695 489.907928 271.062195
2014.456787 575.179749 165.897339
2027.976074 622.918396 212.832382
1982.054443 769.288635 237.100723
1959.273560 709.650879 139.390747
2076.640625 478.555725 313.692108
2073.248047 598.719360 490.369568
2279.158936 554.042114 402.726349
2018.215210 731.410522 439.864410
1935.096436 815.628540 171.483490
2014.401245 697.823669 437.219727
2120.239014 632.256836 521.980042
2045.191528 506.750610 263.540039
2084.054443 463.500610 217.613617
1954.389526 858.430542 435.272919
1924.924194 844.440796 122.472656
1963.016846 782.299927 334.179565
2235.040527 536.798096 337.559387
2012.857056 568.687988 274.317444
1950.093872 779.382385 156.332184
2018.395020 652.023865 344.372192
2041.059692 531.880005 333.598480
2097.936768 523.742493 443.712219
2017.875122 587.609009 331.715515
1971.746826 777.908630 413.409637
2323.368164 553.226807 257.136780
2132.912354 508.032318 386.552246
2124.467285 475.480896 176.441849
2030.817871 544.150024 410.513641
2069.948242 454.433197 209.232697
2066.155518 486.977264 417.982178
2113.954346 468.552032 231.915726
2079.904785 452.073181 235.185791
2052.755371 498.958496 325.076263
2154.163086 485.174835 174.368698
2110.784668 502.994171 381.074188
2002.543335 649.673279 401.178253
2008.541626 697.855408 344.722137
2122.513916 608.580505 443.181366
2269.466064 526.834045 440.876740
2041.369263 500.854797 347.058350
1960.041016 770.983887 421.561432
1917.787598 866.228210 377.990540
1995.322998 690.461121 422.584869
2037.128174 528.877319 397.474976
1970.403076 664.640625 151.393021
2044.291504 505.128296 375.923706
2130.054688 478.060120 215.147278
2128.664551 495.858246 445.185547
1996.446289 669.137207 389.880402
2087.807617 477.808411 309.477997
2045.817505 551.204102 440.319397
2014.858276 644.169922 346.162689
2050.685791 474.672607 327.461639
1992.212646 689.821716 358.255432
2043.519653 506.765472 289.968262
2032.809937 540.911255 399.027557
1954.657715 831.055237 441.369690
1966.781128 821.335632 228.547821
2130.445313 474.436157 182.907074
2023.121216 597.700317 386.052979
1954.448730 760.168335 163.795044
2036.804443 604.929077 281.807129
2137.982666 489.390045 265.759430
2054.980957 492.789551 208.987595
2077.701660 480.730804 189.121872
1998.464478 659.630188 392.351288
2021.791260 608.908447 410.061371
1938.772827 875.322205 423.892090
2185.428955 496.418427 183.154633
2280.346680 551.347290 445.438843
1981.242432 738.474060 310.648224
2062.709717 467.706604 341.095917
1918.729370 888.136353 355.948853
2134.347900 572.135437 443.100342
2034.895508 536.923340 341.869354
2072.539795 591.214600 465.711304
2074.828857 511.790771 439.331909
2049.369385 701.706543 451.553375
1964.457886 774.770691 422.590912
2289.433105 547.287415 354.903290
1980.211426 839.128662 449.013184
1928.606934 837.913452 333.079010
2350.898193 529.940002 174.397842
2234.713867 549.711792 382.248505
1998.417358 786.355591 267.644653
1985.082031 676.515991 406.440063
1974.886475 702.461609 422.849731
1958.795776 815.420776 360.025085
2206.899658 497.839355 429.013763
2144.204346 478.208984 217.240158
2243.894287 529.059937 273.392822
2023.443115 539.756775 309.766602
1983.322266 715.730957 249.445145
1979.417236 716.670715 176.823242
1993.290894 721.033508 445.847687
2012.840454 629.858154 423.365936
2215.262207 527.180176 323.799042
2023.750732 656.159180 438.164215
2174.721924 602.383118 504.931061
2073.646729 631.046204 500.267334
2021.094482 588.021179 207.479034
1973.953369 729.602966 423.870972
1951.431641 776.409729 129.062302
2059.348145 438.130219 195.206665
1909.343750 891.196106 335.451172
2114.413818 621.537842 546.814209
1983.463989 707.992004 429.071411
2044.663452 498.582489 248.675583
2256.251709 519.361389 253.997665
2122.310547 622.354187 516.711487
2082.086914 689.101074 452.917877
2130.186768 477.081787 183.220993
1934.936035 844.040771 237.001282
2036.249878 540.222534 378.693573
1899.433472 785.967712 145.478271
2158.684326 521.525452 393.396332
1934.845703 830.887146 202.403870
2118.773682 481.283234 256.133881
2035.403931 568.458435 403.675629
2021.093384 607.596008 430.350861
2112.279053 607.376953 498.220581
2067.471924 529.098755 451.901581
1999.374023 671.942810 439.464539
2259.974854 542.988220 284.768890
1982.137573 715.673340 191.986679
2022.658691 591.728271 414.569366
2014.201538 674.636108 249.016251
2056.225830 645.622681 460.245148
2232.362305 584.500854 471.990021
2010.125854 689.267273 279.702881
1932.498657 820.067444 374.470154
2072.110840 494.646790 172.619019
2179.631348 598.937256 521.553223
1981.955566 740.310913 364.354034
2025.729126 601.190063 380.541687
2195.118408 584.831848 483.061279
1960.285645 739.438354 399.429596
2181.753662 515.427795 414.219055
1921.691284 837.038269 170.994263
2205.326904 569.490112 486.549927
2023.985229 613.433167 222.873322
2146.179443 510.910339 369.614044
2012.950073 606.677734 416.633820
2022.597168 601.181519 395.867157
2129.096924 658.715881 473.903595
2072.460693 628.340393 560.365967
1956.537842 800.109314 276.942322
2040.566772 585.156738 198.007065
2175.209961 485.676361 195.821167
1985.918457 685.007324 153.884583
2243.398438 515.032349 189.459595
1948.587646 872.030029 462.294952
2134.789063 476.243042 271.015289
2085.366943 585.350281 433.055573
2131.072754 496.229248 334.991547
2058.029053 540.074890 174.489807
2004.617554 659.622498 151.312164
2029.495361 533.745483 379.383636
2029.878662 507.886932 299.259918
2032.436523 529.476013 352.151672
2187.489014 588.594910 527.408325
2256.441650 513.977478 219.420502
2112.017822 622.552795 493.309021
2056.068848 661.348877 434.369446
1979.413818 734.346680 360.678680
2172.308350 578.068115 483.487579
2051.372314 487.867432 250.182327
2197.122070 576.564148 496.933350
1949.332520 786.044250 387.020844
2322.922852 544.751526 178.944504
2306.988770 557.475830 284.840332
2209.710205 504.360046 217.564438
2030.895142 564.991577 366.114716
2235.948730 505.267242 193.608368
2152.106201 611.425049 526.997070
2099.753906 603.513611 291.581329
2197.734131 527.354309 446.465302
2032.773071 559.156677 390.244781
2209.904297 529.487305 415.744659
2157.001221 483.975952 247.011658
2023.957642 537.258179 315.432281
1975.118774 771.939331 343.206543
2017.771362 610.454773 417.719391
2026.049194 590.471313 430.672241
2033.961304 539.420593 411.822357
1995.267700 703.977417 313.542908
2154.459473 500.084320 365.471558
2227.236572 545.835144 352.335754
2088.759033 614.194824 438.243011
2204.809814 534.170288 438.698181
2002.113159 833.743530 458.166656
2258.217773 590.700806 445.136963
2067.060547 769.841919 442.477722
2003.630005 630.725403 191.546814
2020.192627 568.211121 276.829834
2329.776611 546.735596 264.213226
2052.079590 525.372253 385.729919
1949.896118 780.199707 401.188354
1926.012207 870.776062 283.803925
2215.051025 577.402283 460.393341
2024.954468 611.408203 350.276367
2030.233398 537.566895 303.884521
2018.889771 561.008850 349.524567
2045.173218 492.092133 336.860321
1948.945679 790.958496 382.161469
2070.286133 590.452454 467.293854
2194.279785 506.073425 269.145874
2067.109131 611.066956 477.268951
2055.019043 504.610840 196.799759
1964.910767 759.910583 188.648346
1942.911987 832.967407 260.244659
2158.062256 597.275269 485.950073
2275.095703 551.968079 332.226501
2043.448486 600.639404 246.419891
2153.917725 613.511780 493.937622
2027.652466 541.464539 380.067566
1951.483765 825.600037 304.349457
2032.537354 661.093567 446.846832
1992.734619 722.424500 265.211243
2031.852051 540.899902 371.545898
2040.914551 507.426605 366.270752
2012.817627 645.884888 287.649384
2345.607910 531.995117 182.901184
2060.116455 496.892120 282.694092
2026.829346 595.353088 434.694366
1965.719238 743.213013 431.463196
1959.341431 837.086853 436.071442
2039.786743 547.248535 315.502686
2187.099854 558.765564 437.511230
2203.763428 567.743530 469.727081
1910.943604 901.326538 376.540497
2072.599609 470.411133 260.390808
2003.907593 693.195618 450.895081
1957.694824 821.400879 409.694611
2235.782715 561.158264 470.923248
1972.772461 809.556885 423.089447
2026.955078 546.997314 366.803101
1952.375732 829.481140 339.616028
1953.602173 794.151001 278.064667
1997.980225 728.568604 449.934570
2003.831787 715.121643 436.644714
2028.081543 585.907715 175.071472
2074.097168 505.417206 421.389893
2042.662109 752.047546 446.686157
2245.907471 530.268188 278.506439
2176.324463 511.372589 435.004761
1940.945557 803.625488 219.128433
2069.305420 613.911743 458.685852
2063.606689 475.551849 253.530960
2020.737305 551.795044 325.788849
2040.476074 519.243713 374.112000
2062.232666 675.261414 446.681244
1966.168701 774.019165 310.847687
2024.577759 587.789978 412.033356
1945.041870 810.158142 214.275955
2159.939941 499.288300 279.875885
2033.079468 506.102692 271.707672
2018.683472 633.812439 209.866135
2085.234863 614.717712 466.844421
2172.801025 560.363220 483.299042
2112.083984 480.385681 264.680908
1975.373413 719.997925 375.407654
2089.339355 617.292542 473.942078
2237.998291 507.997070 175.673096
2074.920410 619.546692 507.268219
2059.394531 478.435455 394.423523
1977.350952 723.365967 193.630051
2070.280518 614.362732 540.464417
2062.870605 679.720032 447.757477
2005.661011 635.355591 193.470352
2214.011963 517.246582 434.423676
1935.613525 825.432312 365.325684
2035.805786 525.210266 300.781891
2041.481567 538.005554 365.585602
1934.717163 825.446045 176.963364
1996.996094 683.565613 391.030487
2003.586060 673.354431 233.478958
2164.540039 486.024139 241.899780
2049.844971 501.308044 241.283707
2008.841553 934.284485 425.386566
2194.193359 523.222778 410.300964
2071.937012 519.367310 453.894745
1973.148438 817.623962 207.381775
1966.827271 735.330811 162.158508
1986.089844 692.464966 153.570877
2151.391113 507.699432 399.356812
2089.309082 478.554871 346.670441
2009.610352 653.311279 270.914551
1938.164063 845.128235 311.498718
1982.080688 721.659607 391.973022
1961.539063 857.424927 428.959442
2019.397705 649.129517 213.533890
2068.075928 612.933105 571.556702
2037.362915 514.281860 323.464569
2106.469727 466.089630 237.937042
2020.159302 606.684570 379.884674
1999.166748 684.057800 258.116180
1982.982056 706.423767 257.385468
2013.511475 947.393860 375.649048
2122.153076 532.371704 445.802032
2115.278320 616.554504 452.924896
2007.854370 688.001221 260.575287
2040.370972 498.810333 310.601013
1961.640625 719.797241 186.251205
1955.624756 814.737793 136.583054
2002.838867 632.732727 198.983734
2098.252930 476.378448 310.711243
2249.815674 574.550171 454.094635
2155.091797 565.746216 442.502045
2017.353149 604.162292 199.290695
2029.754395 547.405762 346.093140
1981.584961 724.024658 420.131561
2015.358521 658.561462 173.442413
1982.719116 709.087280 217.133835
2057.451660 545.949219 432.807434
1974.867188 772.898987 413.624939
2163.446289 602.769653 545.746216
2045.119751 825.822937 437.788391
2062.503662 495.639740 417.474548
2031.201050 543.046326 339.226074
2017.182251 632.335815 335.920715
2012.925781 639.713623 279.830261
2217.660156 518.432739 331.272858
1938.387939 821.602783 373.474823
1979.644775 720.275024 194.574814
2320.763672 569.270630 339.623169
1999.160034 664.706726 440.520874
2293.982422 553.971069 428.375122
2058.900146 637.566650 579.216064
2153.349609 497.241943 335.238831
2042.388428 519.628784 401.457336
1976.584473 784.043091 423.862335
2027.660645 533.518677 309.804169
2029.361816 628.668213 377.352753
1971.727905 743.688965 324.131470
1959.780518 772.752747 192.468750
2015.833862 656.185730 436.820648
2113.704346 651.366394 503.432709
2234.674805 590.626892 514.187744
2023.020020 605.823486 410.955383
2029.755127 635.208252 214.069046
2081.232666 481.106537 323.809143
1969.623779 763.913513 299.498810
2061.799561 630.666321 434.273987
2100.404053 464.120911 216.683090
2237.524414 529.798279 307.318756
2193.607666 535.715088 366.061615
1936.502441 838.732910 385.198395
2206.637939 578.620605 486.662048
1926.835327 859.458313 207.407242
1922.235596 868.611023 324.092590
2069.316895 597.184204 476.069336
2035.157471 502.181458 335.830017
2005.680420 669.462036 250.176178
1969.255737 746.517517 217.025803
2122.091064 443.935242 181.873642
1926.429810 861.903870 222.451447
2041.185791 526.179016 207.928589
1978.133789 741.738953 301.272461
1981.820923 734.793091 308.521088
2039.821289 565.588562 429.747925
2191.140869 508.715851 439.777039
2305.033691 555.561462 299.593445
2064.930664 516.708252 434.510162
1979.302246 760.707581 358.974182
2209.577393 562.648621 453.940552
1926.632202 829.939270 146.571915
2039.984985 539.981628 324.701721
2199.207520 586.453003 524.708313
2067.558350 487.265747 241.300293
1990.912598 674.985413 235.850098
1992.852051 932.314941 338.920563
2116.278809 616.443115 504.227051
2092.111816 591.988953 515.109497
2073.000488 483.116302 418.525482
2052.260254 623.228394 480.741516
2040.609131 521.709717 264.609558
2332.491943 556.267944 313.524139
1980.107544 822.162964 450.436615
1916.506958 896.392517 387.292297
2095.039307 596.356079 560.867126
1960.003784 786.878418 357.603271
1980.849243 808.352295 426.881927
1979.370483 884.707031 445.507446
2097.987305 488.777039 377.138702
1928.135742 820.142151 157.117355
2034.853760 544.837524 358.433563
1969.025391 813.344727 440.793427
2027.397705 595.687622 403.809662
2272.520020 527.840759 187.680649
2260.486328 522.921631 209.643829
1959.092163 802.467834 411.831604
2098.647705 501.583435 425.057190
2086.302734 517.796509 444.094757
2034.358643 533.784912 263.192047
2016.332764 615.546021 291.203552
2047.490601 511.037048 380.598724
2048.241211 532.769165 355.637665
1986.619507 735.874268 279.203766
1979.386108 735.419617 176.236862
1936.808472 843.108521 343.123962
1969.400146 786.898499 415.754700
1906.844849 878.962708 328.801514
2048.250488 725.448975 453.067200
1972.261841 730.072815 142.840973
2024.738037 590.423584 406.737823
2075.579590 577.638245 436.810516
1967.629395 720.325195 391.286804
1952.124390 723.462830 140.362427
2068.557373 467.761505 187.217438
1994.493652 719.353088 229.366348
2277.731201 558.078613 379.527039
2063.029785 473.712189 229.778793
2111.864502 463.868500 260.952087
1969.844604 813.591614 208.945602
2157.214844 499.340057 309.357635
2326.847412 563.534424 302.080688
1915.537842 866.996582 361.025635
2067.623047 496.614746 328.880219
1956.992432 912.513184 305.325989
2107.093506 467.582672 236.492615
2160.620850 596.348938 516.504089
2024.604980 642.527222 421.176910
1999.695923 688.161255 331.225616
1959.301147 721.896240 139.248901
1942.021973 800.521790 386.164185
1971.635864 759.204407 415.338196
1968.952881 866.521667 430.374329
1980.896240 801.675354 445.352173
1949.106079 804.884155 256.288879
1979.917114 707.507446 152.313339
2270.666504 555.560913 385.639496
2022.566040 574.783020 390.186920
2052.825928 506.450531 364.957123
2025.010986 556.632874 264.106110
2017.600098 624.054871 281.251984
2024.531616 584.499146 387.593048
2226.961426 525.579529 355.230286
2039.861450 545.991882 400.719727
2305.271484 550.754578 437.330292
2050.465332 495.262115 220.005981
2009.905884 661.785645 248.177780
1968.422119 781.334045 408.508179
2161.624023 490.280151 195.923904
2025.518433 643.470581 329.630005
1933.102051 819.693481 380.337860
2062.964355 589.442749 435.526825
2315.054443 570.205688 259.610443
2058.605713 627.537415 524.034119
1934.746216 861.915833 415.305603
2077.893066 614.303040 525.100281
2065.540283 933.480408 196.549118
2125.973145 489.123779 433.405792
2046.771484 498.856598 397.808228
1998.694824 687.189148 330.304504
2082.291992 622.585571 530.822266
2121.671875 480.521301 243.586823
2021.075195 656.260071 236.056396
2196.484131 526.752075 340.636230
2169.705078 501.717896 274.589142
2000.241089 686.001709 236.634430
2008.284180 657.259094 149.116699
2106.872559 489.843231 324.837494
2085.359131 573.097534 433.382996
2122.743164 473.108582 232.142273
1992.057739 687.789429 431.537506
1967.466797 748.328125 194.692154
1948.219116 774.116089 391.685120
2026.136108 553.595215 221.423691
1929.177246 848.685791 123.914246
1992.779297 700.515503 199.038696
2199.626953 576.837158 522.903381
2153.975342 572.519104 444.799957
1936.466187 849.838928 295.549927
1974.977417 719.770874 237.993958
2166.703369 494.126282 259.380066
2138.159912 575.398621 438.000610
1960.157349 899.331238 441.334808
2125.371094 499.074249 411.248291
2169.271973 502.384888 278.826996
1993.298096 673.104370 170.000931
2013.896973 781.684875 446.733337
2144.168945 518.460510 448.198944
2039.198486 509.081879 309.247070
2021.961304 558.658630 326.221527
1984.309082 726.216125 341.383942
1959.718384 811.404419 188.627289
2294.305420 549.424438 302.746521
1956.189087 808.407776 134.577179
1919.292603 778.639465 137.236633
1978.321533 711.257202 152.031982
2120.973145 609.107727 443.942932
2244.530029 518.793701 223.600327
2143.247803 495.394012 422.149261
1975.347778 743.552307 393.191223
1957.979126 790.475891 341.500763
1955.864380 752.852417 388.822388
2122.801270 544.518250 440.821411
2346.014160 566.285400 232.453827
2123.337891 500.254181 438.291046
2276.808350 520.038330 212.712433
1997.266479 657.449707 178.323074
1997.774170 685.008850 298.172852
2044.674194 503.869568 269.600098
2205.890625 575.486450 452.596649
2025.785278 596.620300 183.382095
2020.161255 599.416321 427.380280
1964.444702 775.584106 397.651093
2264.319092 527.412659 282.412537
2035.905273 528.248291 354.023315
2251.566162 592.384644 462.110321
2084.578369 485.083130 329.024109
1975.269775 766.541138 422.056854
1993.766724 693.683350 268.610992
2066.664307 477.618713 194.428268
2134.622803 546.737000 457.254364
1946.914429 775.963074 175.242981
2123.592041 552.752747 444.546295
1982.902832 712.062927 148.362869
2100.055420 614.177917 484.754822
2001.765869 682.626099 430.404968
2034.262817 519.325256 296.702759
1966.343628 878.980591 443.620575
2033.727295 533.075378 384.149414
2046.243286 483.086578 310.615204
2315.802979 565.175842 331.130280
2114.652100 451.024323 179.465973
2165.123779 613.422852 470.023010
2031.979004 662.345398 426.254761
2059.744873 511.683685 451.130554
2031.387451 569.648987 226.386780
1930.097778 855.894714 343.433899
2018.427124 541.610474 323.722015
1955.971069 823.975891 196.460083
1951.799438 884.500854 441.095337
2055.917236 515.069092 193.858795
2234.270508 568.859802 439.800598
2066.025879 439.833069 262.397064
2023.766113 640.818909 212.428299
2133.760254 477.562744 197.448349
1984.374634 854.427246 444.346832
2034.031006 526.527039 402.209595
2063.607666 605.897827 426.552887
1973.620728 752.477722 355.758392
2047.424316 533.903564 367.570618
2281.964355 553.102417 333.931580
2029.726074 542.010437 354.847321
2111.706055 609.851440 455.002197
1953.020874 765.670837 148.326355
1973.711670 753.614685 323.966736
1987.468506 689.251648 392.777191
2019.202393 619.818176 409.542542
1965.180054 803.914063 425.737976
1982.881470 769.593506 233.906647
2042.690430 528.457092 434.219604
2147.066650 514.701294 379.958588
2201.063965 562.046631 441.474670
1967.509277 788.030273 372.231171
2101.331787 621.587219 532.822449
2116.557373 632.730957 532.058411
2063.702393 787.223938 458.426300
2229.242432 587.410156 498.179474
2035.706543 541.881775 166.431091
2083.823730 537.445251 438.814911
2057.291016 477.202759 242.509109
2268.343506 526.536255 225.149918
2032.128418 608.367432 342.099976
1989.194824 691.405273 375.549133
2100.833252 550.649353 436.050903
2165.884521 505.540955 317.091034
2018.163574 641.663635 169.467560
2116.006348 496.632996 290.473724
2119.677002 492.941498 316.305298
1990.416016 712.806152 411.174561
2013.841431 673.952637 441.766418
2185.155518 568.997620 448.960541
2197.673340 582.056152 478.735809
2185.528320 523.258850 363.842773
1973.022949 715.103882 192.049377
2030.608521 534.540344 245.985336
2138.625488 491.102356 428.382141
2021.990601 601.614685 412.319305
1979.411255 729.062866 250.113220
2048.051758 795.183594 456.029999
2198.260498 561.444153 484.204041
1967.899780 769.459900 307.067902
1943.634399 790.984253 152.439560
2082.496826 616.004333 561.923035
2028.326660 599.221863 372.453857
1955.465820 821.966125 295.879272
2051.619385 628.121155 446.990753
1940.708740 856.333191 409.051331
1993.264893 829.141602 187.927353
2260.773926 550.194763 366.924988
2038.825928 642.562805 430.410156
2224.666748 510.262695 265.416779
2008.391724 850.398132 447.898865
2314.421143 570.894348 370.631012
1956.676880 750.634949 133.977341
1994.684814 680.011353 439.077576
2185.875244 581.448914 516.400757
2058.845215 621.611572 240.024475
2168.843750 512.824524 395.064423
1981.307251 729.259827 215.637207
2095.002197 444.448608 178.841446
2251.463623 550.494263 437.515320
2105.944336 498.363281 416.517029
1952.224731 820.194824 416.181946
1922.910522 845.254822 372.683075
1985.373047 782.441101 450.225891
1928.750977 870.970581 141.748306
1925.012573 843.974976 366.756073
2065.488525 466.409607 229.762283
2100.581787 609.949890 441.925598
2343.592041 570.314209 213.776688
2232.503906 517.611694 244.949158
2009.559448 659.607483 310.112518
2065.145264 470.364655 294.086487
2277.540771 540.826416 228.274658
2038.710449 805.418884 435.521851
2041.968994 592.231628 244.659241
2287.989014 532.522339 180.446564
2027.117920 579.411560 227.279877
2312.037598 562.505676 406.241699
2005.341187 676.689697 344.172638
2090.216064 636.717529 535.364929
1957.788086 847.464417 412.625519
2015.553223 630.344788 157.044434
2198.144043 582.962646 495.592163
2186.358643 550.100708 455.644653
2200.439209 585.524109 511.454559
2009.840576 840.715637 445.988831
1978.141968 723.941650 425.946198
2053.447754 473.969177 324.098602
2071.820313 463.769958 334.837677
2164.464355 575.843323 442.289703
2119.046387 476.903564 250.804871
2049.985596 474.294312 288.079407
1950.742554 835.605225 205.450272
1913.960449 886.679199 385.036652
2275.136475 521.306030 226.300934
2022.548462 540.344604 351.387054
1998.736206 698.443176 325.630341
2048.959473 508.624573 386.058563
1939.877197 858.097778 389.667969
2240.496826 553.962097 438.505432
2020.385620 840.372620 447.449860
2232.268799 534.123901 410.152008
2013.596924 620.745422 161.276245
2272.655762 540.831360 278.095306
2001.706543 682.396484 370.476654
2175.507080 510.392853 307.988281
2036.266846 521.610046 285.952057
1987.837524 695.383606 389.692963
2148.405029 578.242493 452.513916
2272.088623 529.943176 281.797455
2056.030029 495.451691 282.972137
2067.319580 469.210114 205.854294
2000.925659 670.756775 293.625488
2021.764038 555.962708 360.864197
1992.016113 697.654968 423.368774
2040.612793 529.004150 316.289734
2089.451172 455.894623 177.948517
2191.400635 500.347351 179.639648
1940.682251 833.823120 258.335815
2165.842041 486.599121 201.886932
2167.477783 488.222565 249.983917
1962.592407 805.187561 285.975800
2162.797607 595.453369 446.174225
2118.843506 621.104675 518.434631
1978.329956 626.539490 171.690918
2055.082031 607.584229 431.822083
1970.273560 727.675171 426.173523
2181.107666 542.189575 463.832520
2023.440186 577.598633 354.692993
2221.886719 538.321838 389.964081
2049.979248 532.505371 415.062714
2043.137573 564.159180 193.805756
1960.857056 807.501648 320.396606
1936.368286 850.873535 193.725891
2174.726563 504.394714 288.404877
2189.286865 591.396790 443.282745
1992.857056 690.164124 252.413376
1954.043213 810.015869 310.163422
1966.705688 746.240662 386.791382
2299.708740 533.698120 282.431274
2123.426758 655.233826 542.363892
1959.890503 707.130981 141.531631
1979.099365 732.881653 441.063812
2201.374756 529.199402 444.882385
2228.024902 529.214355 328.101776
2061.799805 465.852081 303.789673
2003.802246 804.336426 438.983673
1982.689087 703.320068 418.684937
1955.337769 786.747253 339.625641
2083.290283 596.840515 436.871063
2069.583252 471.357239 186.401871
1930.086426 859.882446 260.517914
2161.207031 498.324310 428.515198
2246.176758 516.831238 203.008698
2084.861816 634.066711 570.424072
1995.454834 683.319397 357.697845
2000.042969 653.953003 190.888535
1944.063599 829.267700 260.481720
2029.697510 515.221619 260.389130
1944.125244 797.563904 224.591705
2230.391357 577.216553 466.960510
2049.780762 496.365417 396.678162
1991.814331 683.586914 404.721985
2130.768555 506.002960 367.870850
2278.833740 538.425415 252.754730
1950.566406 798.363220 139.154922
2055.141113 503.490173 344.928375
2173.403320 587.292786 524.132751
2017.914551 823.431946 438.828857
1970.580811 761.789734 391.386719
1992.613525 703.601563 368.076294
1989.986328 690.165649 428.986816
2137.123535 491.016754 432.358002
2062.275391 618.981079 561.541992
2031.625610 564.162842 268.516266
2013.891724 616.103333 371.310272
2082.162598 616.959229 491.404541
1997.441284 665.881226 190.421127
2052.375732 517.517822 205.307770
2023.090698 575.160339 309.015045
1971.394409 759.429932 295.770813
1948.163086 817.033264 287.602692
1988.392334 862.717468 449.743530
2020.080811 600.096619 382.592072
2290.482666 529.597534 187.907150
1933.144409 842.632629 334.446930
2276.974609 545.768188 289.840363
2031.157715 599.574707 367.067413
2018.135010 636.464966 301.954193
1967.550781 736.536438 404.911713
2041.074219 593.452393 438.323029
2030.790894 552.548462 307.878326
1991.277344 733.618103 220.443130
2257.805908 522.445862 209.009460
2025.499512 580.170898 355.959503
2061.806396 552.727234 444.109375
2062.201416 632.439636 437.859680
2023.786011 653.790710 433.054016
1964.662476 874.478882 438.218567
2165.008057 549.731567 442.176453
2017.181885 621.381958 406.344269
1917.802856 861.741638 367.237885
2074.914063 476.229889 289.030823
1966.123779 807.724243 182.973007
1921.870361 868.107117 267.910706
1930.916260 834.459839 267.495636
2009.809692 657.084229 147.919983
2127.668457 496.620209 436.179321
2334.518799 567.051514 183.769623
1929.638184 876.000854 391.795105
2041.728394 537.223511 373.898132
2271.552979 545.003235 299.283691
2027.099731 572.901855 231.991837
2027.244751 533.151978 386.055878
2178.423340 502.483887 441.284027
2168.110352 481.205322 450.840332
1988.674438 711.547302 266.694092
2171.810303 500.786102 286.264709
1932.310547 831.887085 355.928497
2024.864990 626.428467 271.423370
2006.362793 706.704956 453.405396
2055.121338 627.541443 431.194336
2065.015869 600.731323 474.146484
1956.167603 794.602661 382.424103
2306.230469 552.965027 446.719116
2108.554443 614.135620 504.396240
2022.533203 602.116638 165.756042
2093.283203 609.824463 448.928253
1937.733643 857.225525 341.239258
1928.226685 845.937378 182.026321
2078.590576 613.518005 536.488403
2020.073853 597.983398 422.063263
2060.636475 519.839600 187.068405
2222.856201 524.829651 308.436096
1933.248657 816.119568 172.846390
2153.514160 500.056244 439.077301
2272.086670 547.780396 322.770447
2034.900757 524.365784 307.485138
1966.791748 777.664490 146.866455
2017.284424 655.360352 364.395630
1998.147583 697.883118 450.737701
2084.870361 470.681061 344.908478
1927.969360 834.675110 179.862854
2068.828125 485.750336 380.842346
2162.117676 590.156921 480.232605
1959.134399 771.501404 188.669342
2064.418945 524.325806 172.871796
1946.575439 848.937805 184.538956
1953.102173 786.475891 396.382599
1922.252686 853.698486 364.150482
2117.823242 625.480408 519.192444
2133.123779 483.644592 433.611938
2216.932129 538.253052 395.990784
2117.544678 458.365234 182.798828
1971.326172 745.538269 201.996246
1964.390015 768.931274 382.179413
