ply
format ascii 1.0
element vertex 1380
property float x
property float y
property float z
end_header
1468.838745 1611.973389 148.903275
1506.673218 1750.613281 248.565842
1172.775269 1781.696045 128.081467
1413.993896 1714.701294 235.291687
1400.107056 1594.124023 133.521057
1191.183228 1774.728394 90.802895
1574.774414 1777.867188 143.978043
1409.565063 1721.531372 241.097717
1524.723267 1701.449951 153.888275
1229.328613 1738.239136 228.165482
1473.500122 1575.628174 82.195045
1401.541138 1603.919067 126.047729
1334.099365 1654.881226 -29.776525
1416.115112 1577.976196 40.019848
1282.888306 1700.458984 37.545940
1560.506714 1705.383057 9.444259
1534.598267 1692.322510 101.888847
1340.140991 1679.666138 21.254158
1385.304688 1727.670166 372.652710
1473.054565 1588.463745 8.482534
1408.061157 1589.705566 21.462076
1144.498535 1776.997437 -24.662809
1301.558716 1651.296143 -44.600220
1467.738647 1570.194092 86.525185
1256.534302 1735.751709 207.762466
1227.893921 1735.516602 113.284912
1530.049561 1699.811768 156.391602
1495.681030 1645.613403 178.500320
1408.053223 1590.043823 136.302521
1495.422607 1626.191040 67.592033
1559.082886 1715.060547 106.678314
1313.953735 1638.036011 -38.866264
1364.125122 1616.318970 11.027368
1381.262085 1614.836304 33.681087
1181.492676 1738.855591 -44.328690
1508.960693 1676.173584 162.508118
1596.974365 1799.757446 34.372196
1425.771240 1574.071167 124.362083
1316.004883 1681.380249 100.467690
1470.516479 1728.924316 238.526978
1355.670654 1717.279907 226.585205
1438.448486 1574.639160 97.356171
1349.093384 1639.529785 121.386520
1468.086670 1761.901245 239.510941
1192.316406 1787.110107 230.016861
1247.595581 1746.331543 233.504959
1481.962280 1754.726929 293.087799
1187.461426 1713.650024 -41.715858
1354.517822 1650.700562 23.174696
1157.379761 1758.861694 -41.155521
1160.100220 1782.611572 177.891190
1193.349121 1767.635498 121.381744
1467.802856 1582.977539 -23.619226
1457.075684 1553.231445 45.278461
1313.013550 1688.394653 180.819611
1400.874512 1590.155762 140.129059
1389.306641 1602.758423 93.851547
1527.549927 1676.742554 49.836952
1459.124390 1567.749146 48.826023
1549.942139 1692.592163 -28.885723
1427.477051 1735.847412 248.649002
1255.838013 1717.081421 92.921272
1358.242188 1733.943237 235.811218
1473.456299 1719.224609 229.633240
1424.419556 1586.875854 103.952354
1234.135742 1730.784668 229.289139
1373.568115 1606.366821 57.748199
1202.150757 1756.997070 -27.634193
1527.461060 1665.109497 225.354401
1362.606445 1719.242065 310.534515
1248.149292 1734.661499 167.189880
1095.049072 1805.251221 28.566122
1427.532227 1574.964478 30.193190
1160.102417 1768.727783 6.711121
1345.746582 1663.285400 208.199768
1463.015747 1631.597168 238.900848
1409.548096 1589.701416 16.219088
1356.304199 1645.469727 70.700874
1311.234375 1697.281494 35.836445
1257.498291 1868.094238 237.471848
1328.540161 1689.929932 219.340530
1470.054688 1594.414185 65.038414
1248.286987 1729.694946 104.675446
1492.985962 1638.293335 231.514557
1405.905884 1619.463623 230.816971
1577.253418 1768.936157 136.746841
1392.008545 1646.155151 234.170151
1180.979614 1992.087036 120.747887
1567.862793 1738.111816 -24.888369
1270.864136 1752.767944 241.178329
1443.193848 1561.461914 82.920036
1453.669800 1589.582397 111.063004
1554.942505 1704.808838 226.754395
1257.021484 1730.361694 51.365433
1310.992188 1693.954346 42.606606
1516.567871 1632.256470 -25.772308
1537.510132 1775.713257 224.582367
1250.482056 1733.799438 167.879150
1327.596436 1677.825684 131.673691
1400.766113 1699.531250 310.247589
1364.894897 1618.809204 102.803268
1474.109253 1629.092407 195.546417
1454.757080 1582.268311 110.092972
1380.386230 1611.186157 166.888016
1493.339478 1604.283325 3.358309
1580.677002 1750.587769 40.366100
1518.017700 1692.405273 174.468445
1599.280029 1809.100464 73.876900
1191.329590 1755.268555 24.396343
1441.317993 1585.940552 97.643784
1448.727051 1595.266357 154.904724
1276.624390 1707.989746 216.354614
1543.736572 1697.744995 222.931641
1384.068359 1626.402832 194.209152
1628.117798 1795.947998 -53.897205
1467.098389 1566.074341 3.139346
1400.944702 1603.846680 -8.227234
1497.570313 1748.719482 316.894745
1157.890869 1809.683960 220.845566
1154.176392 1799.065430 193.012894
1400.229980 1589.518188 70.793770
1155.932129 1787.009399 188.085648
1250.996094 1727.215820 178.048889
1274.737061 1728.768921 140.814941
1503.195923 1679.684204 175.321671
1321.365479 1682.627930 170.689728
1388.505493 1630.546265 190.793320
1201.373047 1755.526367 96.684410
1131.585205 1826.669312 -2.078955
1289.648193 1670.030640 -11.872064
1171.895752 1773.736816 129.755157
1405.538818 1602.724976 200.599945
1538.437622 1704.862061 180.482300
1337.562988 1633.731323 80.865463
1136.377441 1838.174072 217.679443
1162.483032 1766.387573 -17.479502
1493.642578 1636.343018 157.425781
1180.767212 1807.391113 234.090271
1380.922852 1606.384277 53.586159
1417.441040 1581.599731 26.854454
1394.810791 1602.905640 170.624023
1190.303589 1772.671143 205.364868
1623.734741 1783.743652 13.127432
1475.438354 1625.440796 195.712631
1260.072021 1739.142944 221.054443
1488.394531 1611.062744 46.273697
1473.120850 1611.292725 151.793259
1394.927002 1599.311401 53.518047
1456.066772 1594.793091 109.517242
1207.769043 1744.756958 29.317799
1422.875000 1577.801147 105.009605
1106.449097 1785.570801 -34.817219
1170.228760 1752.916382 8.758266
1418.544922 1584.500366 85.052330
1353.949707 1724.198608 244.295471
1419.963867 1594.078857 179.315521
1340.359985 1643.013428 5.440025
1509.524048 1652.793457 228.172867
1304.938721 1663.892334 -47.430626
1238.333862 1736.323730 245.877365
1413.023193 1643.121094 231.736069
1405.080322 1612.520508 219.042816
1544.224731 1673.430786 17.266754
1169.058472 1802.964111 18.148035
1285.712036 1672.872070 -45.511135
1583.359863 1718.847046 -31.471714
1110.198486 1812.902100 154.021576
1507.075562 1679.582031 243.844421
1352.970947 1737.149048 279.118256
1275.452637 1684.451172 -9.688879
1164.081543 1782.632813 141.596237
1485.827026 1670.071533 237.136246
1228.944336 1739.304443 223.833740
1383.532715 1628.207886 191.475403
1409.683716 1597.908569 -26.294460
1450.409546 1561.393921 -9.850831
1547.510498 1729.842773 170.468201
1361.658813 1686.082642 222.347137
1300.741577 1764.033325 247.737228
1331.037842 1653.761963 59.711548
1417.947632 1617.376221 217.096375
1351.105713 1629.214844 -4.977913
1242.357178 1755.410034 217.016144
1324.859985 1649.644165 -35.291451
1110.296509 1824.042969 187.411453
1350.536377 1639.887817 43.218220
1530.742065 1776.010010 275.140381
1183.113159 1765.117676 90.445755
1376.979370 1632.681274 198.415604
1269.907837 1716.394409 224.490280
1377.748047 1607.009888 14.541135
1115.091675 1790.628784 -46.538124
1412.164917 1590.960327 13.063730
1113.357178 1827.225586 102.688522
1419.797729 1746.126099 277.086853
1166.561768 1817.963379 219.715149
1370.829346 1646.225220 211.851669
1283.219360 1705.537231 54.992989
1144.106567 1890.367310 251.338943
1156.635010 1779.858643 51.643345
1174.526367 1823.083618 237.980927
1493.237671 1604.649902 7.961308
1084.811157 1835.776123 170.459961
1564.526367 1726.223145 221.733292
1415.900757 1585.910522 87.736557
1447.461060 1559.160767 18.499414
1554.815674 1721.659180 107.222496
1153.246826 1789.790649 184.172440
1263.342651 1716.721802 140.348785
1273.023315 1739.352661 242.297913
1086.952148 1816.699707 46.715748
1507.483154 1626.752930 227.617020
1450.186890 1575.748657 -8.985286
1264.174072 1739.861572 239.954193
1571.218750 1739.905762 61.294250
1123.979004 1786.450317 -47.553570
1483.074829 1745.151367 263.183167
1605.087280 1779.317017 21.440882
1285.106079 1706.369751 111.080269
1465.523560 1583.578735 61.872189
1136.175415 1820.994385 24.124048
1491.943237 1625.211304 115.986259
1163.863770 1777.464844 43.354370
1266.187866 1722.256470 166.069778
1305.568359 1694.502563 129.305634
1292.438354 1674.353394 -5.192259
1102.971924 1821.948608 107.879654
1417.494507 1593.688110 143.263916
1121.278564 1832.365234 203.033722
1506.500122 1650.177124 228.705078
1455.077148 1759.684082 326.720978
1139.892090 1810.892456 -9.925523
1446.958374 1750.355713 328.501923
1497.183105 1751.912354 278.543335
1604.345825 1792.920776 102.309677
1583.882446 1758.980957 222.514893
1086.109253 1838.142822 176.894669
1105.411743 1844.555054 195.811569
1425.303223 1597.398315 160.318344
1314.870972 1697.433472 161.850662
1578.331177 1762.021606 17.214548
1423.936646 1673.515991 231.085602
1130.370361 1840.296631 230.295334
1298.043457 1694.523438 41.782860
1221.162476 1731.196045 34.329292
1381.506592 1612.245239 55.149963
1377.137817 1629.399658 193.465240
1237.144775 1735.683716 167.047012
1293.248901 1672.300903 -0.205036
1412.989746 1596.072144 -24.824114
1218.069092 1757.982056 206.406250
1502.991821 1634.827637 68.967049
1276.913696 1685.623657 5.778056
1412.182373 1580.599609 121.635818
1575.175049 1724.098511 -4.780077
1414.199219 1686.779175 244.386292
1356.728760 1628.445313 22.867682
1208.028687 1765.441772 211.043045
1544.732056 1692.068970 219.726059
1301.074463 1710.505859 233.328125
1255.460693 1817.176025 247.915558
1434.698242 1619.341553 235.021179
1282.630127 1704.938965 170.331161
1398.166382 1704.808594 276.234833
1513.810425 1664.681885 235.510040
1213.963013 1826.598511 237.794388
1526.083008 1665.759277 16.394201
1124.371216 1829.851685 219.611206
1152.326538 1821.901367 -2.287966
1124.228638 1794.591675 72.801613
1529.938354 1666.898682 16.934568
1342.130493 1683.865723 220.199432
1351.510620 1660.994873 183.059082
1136.474487 1936.818726 192.625427
1228.630371 1755.138184 190.879349
1507.227051 1755.480103 277.937744
1376.188965 1627.984619 205.272614
1511.648193 1651.411621 239.527634
1241.197632 1739.364990 184.500458
1153.856567 1960.421875 207.747284
1389.937012 1703.772827 293.995270
1428.486084 1604.652588 200.973236
1429.927612 1593.052979 115.896126
1111.518311 1808.687988 51.061596
1321.872314 1647.151367 4.972379
1145.255005 1867.378784 239.437576
1361.104370 1631.071777 160.387299
1562.042480 1680.826294 -31.614632
1180.593262 1838.012329 239.707474
1372.919800 1615.606323 119.862625
1199.772339 1758.232300 112.685799
1365.984253 1627.344604 98.237396
1417.751099 1612.557739 235.575653
1480.587769 1738.722412 263.652069
1399.609009 1715.976929 289.535614
1283.892334 1665.369751 -43.391819
1125.764038 1822.400635 90.728638
1535.652832 1677.231445 22.444529
1145.092529 1772.751831 -53.555962
1281.687744 1724.621094 243.943893
1348.166870 1714.436157 227.356201
1465.197021 1592.811646 85.104156
1098.669067 1823.071777 41.669880
1456.301636 1558.990967 -7.637709
1424.332275 1586.250854 161.346741
1495.451538 1624.646851 232.649277
1340.955688 1666.168579 194.933441
1211.648315 1727.528809 -24.947102
1450.993774 1598.490112 204.680374
1353.198730 1651.426636 190.830887
1107.952148 1841.007813 211.584976
1373.578491 1704.705444 298.980316
1495.911377 1624.959595 96.169983
1507.680420 1646.571777 227.629364
1530.061035 1665.740112 -0.148986
1277.259033 1693.027832 15.048396
1460.973389 1620.590576 201.806656
1520.398438 1682.660034 150.668671
1362.501465 1727.659546 240.370850
1124.396118 1815.427612 212.506714
1343.414429 1658.672485 196.458298
1186.624390 1789.924438 216.521347
1351.346191 1714.239136 221.808853
1293.455811 1676.911011 -33.249962
1475.999634 1621.709961 128.308701
1101.885376 1797.117432 -13.157226
1358.241089 1652.280029 172.385513
1127.916626 1792.974365 170.046402
1596.599976 1797.143555 220.696396
1523.737305 1756.144653 249.544724
1309.474487 1659.095337 15.290429
1457.477417 1573.184082 38.609070
1373.094727 1624.382324 113.092430
1429.357910 1570.880249 34.106178
1328.532227 1652.638672 34.466228
1176.636230 1797.960449 222.401443
1288.529053 1685.173706 -25.089451
1427.031006 1591.151733 189.693573
1610.653564 1802.581787 -48.518948
1285.452637 1717.950806 207.467758
1560.873535 1748.205444 167.423996
1109.596924 1813.306152 163.588898
1220.236206 1740.450806 87.100769
1552.571289 1771.468384 234.706940
1289.673950 1672.648193 -22.798283
1412.742676 1578.550415 94.530853
1495.348389 1631.708374 220.210190
1351.597778 1653.692505 146.754578
1261.166016 1719.051147 106.168510
1492.379639 1630.588867 169.609756
1271.784790 1692.441162 5.685251
1448.517090 1581.674927 -21.962069
1442.626831 1596.509521 203.830887
1588.950195 1773.847412 103.674179
1521.468506 1720.764893 256.014771
1317.507568 1676.974609 69.965904
1309.676514 1710.216675 247.199265
1288.554932 1807.186646 240.939896
1591.864014 1754.493530 79.467232
1461.062622 1607.736694 181.068756
1345.607178 1660.002930 200.786484
1350.391113 1678.469971 163.013840
1376.194824 1611.390991 128.658463
1479.119263 1745.859497 236.385544
1438.510376 1576.105591 88.996193
1530.084229 1660.282959 -37.986389
1270.017822 1711.890747 86.398590
1222.138794 1714.816162 -49.300053
1543.973877 1676.840210 -42.871029
1341.061035 1652.387207 -38.497948
1241.036499 1728.187012 200.276672
1396.038330 1602.658936 8.054179
1410.174316 1717.303955 226.276871
1449.309326 1563.695068 27.185465
1399.251709 1719.278198 290.763550
1460.517944 1592.021851 63.883965
1218.983887 1763.540649 178.661423
1587.703979 1783.573486 124.171425
1539.886230 1722.190552 179.273727
1518.553101 1752.620972 290.922913
1505.612183 1661.347656 191.383438
1439.717773 1591.025757 162.101379
1228.710205 1707.420898 -46.181576
1435.801270 1606.170166 190.518372
1374.456787 1605.928223 33.026012
1269.408691 1722.307007 173.655792
1511.053467 1732.294312 230.806915
1357.088135 1637.922241 117.957092
1466.610352 1753.287598 303.287476
1138.673462 1802.119629 130.788513
1484.331787 1739.499756 279.858948
1297.064453 1806.215576 242.400467
1552.400146 1780.892090 214.226349
1115.968018 1804.369873 128.750977
1223.474854 1758.543091 146.847992
1229.112671 1744.749390 150.528946
1506.757690 1654.745605 125.306381
1580.023193 1741.116333 32.309109
1597.881470 1735.615601 -36.765488
1309.116577 1647.085815 -39.394253
1217.464600 1711.928833 -56.020920
1465.325684 1609.396118 159.409012
1182.575073 1763.442139 41.742191
1484.035156 1601.918823 51.813728
1298.421875 1698.558472 221.872696
1341.701050 1655.960938 213.029663
1482.747803 1588.690186 -26.349874
1520.005493 1677.016968 131.854980
1253.981201 1827.156006 232.792755
1259.066040 1754.447144 233.033722
1606.717041 1790.211304 179.076508
1445.582886 1696.133667 231.466293
1352.149048 1792.687622 250.329803
1545.650024 1707.588867 98.664101
1160.403198 1757.714722 -66.922928
1159.656860 1794.066406 159.202682
1500.188599 1624.824585 -24.126726
1583.904297 1751.058594 112.165207
1444.522949 1630.398682 241.307007
1117.947754 1821.071899 127.485176
1198.669556 1758.729980 193.696930
1191.384644 1794.488892 230.514450
1369.666748 1707.731201 266.362000
1539.646973 1706.829834 193.239075
1351.635132 1706.913086 222.437637
1227.190918 1695.264526 -52.277840
1369.434570 1737.002808 364.378326
1215.880127 1720.156006 -14.207935
1224.726685 1872.189941 243.714859
1436.828735 1585.084717 205.582291
1177.715088 1800.618164 -15.287795
1375.979858 1615.961182 95.599670
1225.574829 1708.610229 -15.522748
1243.241089 1718.015625 -57.673252
1208.534180 1747.817627 14.526091
1393.238525 1733.559326 366.821716
1421.768188 1578.115112 70.425980
1545.242188 1727.671387 220.937958
1292.136963 1711.326782 193.706879
1597.478760 1715.418945 -47.519787
1502.344971 1636.815308 233.678299
1393.119141 1756.094727 282.532959
1442.889160 1598.908081 237.798737
1464.637573 1598.338867 218.108078
1434.923218 1591.975464 209.555283
1361.198608 1724.104736 232.193863
1330.005371 1646.733887 -23.582600
1600.256714 1774.531494 45.039749
1336.603394 1642.803833 143.831772
1425.355835 1572.650635 109.984505
1164.788330 1792.146484 63.784748
1409.680908 1603.747070 211.758224
1261.848511 1693.607910 -34.536175
1262.640137 1702.142334 13.598124
1089.485718 1848.292969 194.872040
1587.221558 1774.512207 117.279785
1193.591675 1760.817993 88.631927
1392.671509 1718.744507 347.734070
1143.562622 1831.662720 20.134119
1590.393921 1758.191528 26.660650
1160.452515 1792.760864 147.633301
1353.662354 1651.983398 133.973312
1158.847046 1793.465454 -29.003904
1232.788208 1730.807739 202.095551
1347.109131 1657.822754 202.567657
1406.479248 1592.121948 42.974918
1612.352539 1784.952271 -18.282701
1333.846069 1711.641846 222.699371
1393.409546 1715.171143 337.905396
1151.965454 1797.481323 135.679443
1477.000366 1703.163330 251.605301
1490.088745 1615.026367 21.328951
1422.977173 1574.308838 91.176552
1482.793701 1636.725952 208.751511
1494.753418 1743.982422 241.365967
1368.778442 1614.483887 79.751900
1204.218628 1754.164307 100.985596
1539.196167 1706.381470 114.260834
1406.221069 1615.078857 202.982758
1394.080200 1711.678223 308.830627
1169.420532 1814.120972 26.341019
1211.848755 1793.817749 213.746857
1314.157104 1680.103516 68.178474
1091.810669 1837.787354 60.225788
1539.254883 1743.815430 219.805817
1232.120483 1735.455688 119.054382
1534.519531 1673.723389 220.551376
1126.566040 1796.302612 164.562195
1242.181885 1741.308472 204.011673
1461.608887 1578.703857 64.771606
1475.951172 1676.938477 234.690796
1555.291260 1737.924072 166.347809
1355.308350 1650.333740 229.307236
1499.114258 1639.800781 232.471481
1470.504883 1684.870483 235.140884
1597.151611 1768.372559 219.957748
1119.951660 1828.176392 84.397278
1519.663086 1674.115845 97.437073
1403.270264 1598.787598 137.818237
1159.454346 1791.915283 197.809265
1543.525269 1661.984497 -18.518696
1415.741821 1707.684692 251.751419
1415.346558 1720.919434 278.358398
1598.320801 1783.197144 75.887779
1546.267578 1740.956665 229.775726
1429.705322 1719.431274 243.100403
1354.252075 1657.050537 52.360348
1474.965332 1623.606445 139.654236
1369.854004 1640.663208 190.715256
1345.133789 1663.185669 211.712753
1265.907959 1725.347778 77.450859
1103.917969 1819.118774 75.464699
1139.222900 1783.068726 11.228310
1210.129639 1757.564575 29.712763
1454.770142 1570.652588 121.477180
1191.360718 1776.973022 202.265259
1358.319824 1676.549438 72.702103
1116.762573 1827.977173 24.692728
1544.547607 1683.961548 22.704756
1391.287354 1718.116333 277.628448
1385.291382 1589.996216 -19.525488
1230.949341 1740.632446 207.806046
1380.515137 1626.803833 164.318878
1493.593994 1685.079834 238.790176
1161.708618 1811.728027 -3.709231
1564.511353 1711.671753 -1.871790
1132.072266 1772.063965 -35.702480
1191.494995 1753.479004 17.946714
1472.353638 1604.161011 108.576347
1277.917603 1749.605103 254.224625
1262.448608 1719.216431 75.901062
1452.739990 1581.693481 188.661926
1116.998535 1790.893066 -52.144127
1463.460815 1750.456299 278.033478
1266.870728 1715.841431 44.286404
1271.452026 1730.126099 240.509415
1347.630127 1735.281738 349.077637
1438.805542 1592.869141 103.212639
1529.094482 1642.720093 -34.136185
1313.555542 1688.624634 161.408875
1427.410156 1574.118408 40.132782
1355.476929 1643.551270 94.781227
1313.046753 1689.626831 222.901962
1378.927490 1715.317627 323.619690
1456.572266 1638.103027 241.002350
1402.080688 1599.011353 7.510132
1169.193726 1783.451294 -13.612612
1535.670410 1668.987061 -8.969403
1271.133911 1724.651489 158.228607
1290.684937 1721.511108 247.131683
1388.985596 1597.986328 3.066061
1208.232178 1750.690674 93.247131
1366.340820 1619.094971 116.886215
1144.692017 1776.454712 -14.701223
1123.001343 1774.201538 -30.379230
1517.012451 1655.679688 66.283020
1451.428833 1757.026123 332.243011
1424.071045 1606.109985 179.174866
1581.529419 1785.988159 170.326782
1520.083740 1711.885498 231.503784
1279.351929 1695.149658 -52.542244
1274.057617 1712.617920 144.126816
1398.957031 1697.438599 283.937012
1353.054565 1627.528076 0.235826
1331.793457 1700.927612 237.327316
1328.661255 1675.400635 111.062729
1172.856934 1805.484619 -4.630297
1318.350708 1675.320313 60.820362
1300.074463 1688.665405 107.139091
1496.697388 1641.805298 89.149261
1426.305908 1580.543213 68.960106
1407.751343 1604.795044 197.234100
1406.858398 1589.248047 101.891205
1275.025757 1717.020508 58.375591
1427.352905 1592.774780 166.963028
1462.873779 1747.489014 312.299500
1516.105347 1640.885254 -0.656447
1445.878174 1588.958008 157.500732
1639.210693 1751.365479 -48.653065
1156.885132 1798.174927 -8.168841
1253.232422 1745.793823 240.142914
1154.664429 1801.219727 60.422497
1120.185303 1827.373413 79.495537
1209.753906 1735.917603 -18.707047
1308.746338 1682.610352 109.892448
1260.956421 1722.743286 137.791870
1243.170288 1723.883911 73.735580
1413.490234 1625.867554 224.416824
1335.386353 1658.160034 120.951714
1554.765259 1784.401733 213.520493
1495.792358 1748.665039 315.861298
1234.200195 1891.596313 241.152863
1128.010254 1784.449463 -53.098385
1618.034546 1812.100586 -24.294044
1306.093018 1680.511963 18.679945
1403.568604 1619.994629 200.048874
1408.294067 1612.734375 227.299316
1580.137817 1760.517822 117.341225
1411.890381 1582.781860 41.862644
1305.903442 1769.210571 258.025360
1624.881104 1787.972900 25.957802
1100.324097 1804.377686 27.151630
1157.192993 1804.343262 165.026154
1175.451782 1845.688477 265.073090
1421.114624 1589.358154 164.222153
1189.346924 1755.680054 188.048660
1255.007813 1695.297974 -38.657154
1405.398193 1606.025513 39.247219
1429.721802 1605.223267 208.774734
1540.867188 1658.635742 -33.684399
1437.140503 1604.323730 230.964386
1288.331299 1704.784790 188.427597
1326.730469 1668.783691 16.207823
1284.320190 1792.503906 242.199982
1391.770752 1716.697021 305.510406
1541.825806 1694.786377 207.738846
1502.780273 1640.323853 -26.275957
1509.973755 1678.375366 230.619095
1244.270386 1731.499512 193.021545
1153.192017 1791.918701 156.046036
1493.250488 1636.975342 161.098160
1115.646362 1824.052490 110.795448
1442.137695 1580.187988 184.279175
1189.316284 1737.309204 -62.467834
1300.175171 1699.882202 144.855240
1487.100342 1563.375732 -25.699387
1385.979004 1636.401489 221.195679
1320.782715 1680.583496 194.957932
1572.152466 1777.948975 135.741714
1366.522095 1634.433105 174.560883
1431.094849 1654.150513 227.883163
1150.691650 1820.873169 227.076828
1437.976318 1563.933472 94.559608
1188.763916 1820.568726 239.177689
1354.966675 1646.404053 142.780792
1435.448608 1696.738525 227.535385
1566.541016 1791.420532 227.422256
1366.710571 1666.363281 84.658363
1441.286499 1582.943604 205.623016
1511.149170 1757.828247 287.274750
1460.008301 1623.897461 235.545059
1440.842896 1579.193115 141.794983
1453.330688 1579.472168 -17.528740
1167.022705 1761.542725 -22.422754
1238.171509 1745.899902 107.367821
1345.684204 1645.788330 128.347809
1434.007690 1564.976563 52.315159
1303.230347 1693.523438 68.809029
1413.135620 1715.871704 243.170258
1536.151001 1712.770264 180.902466
1389.530151 1631.579224 215.294556
1419.797363 1578.781616 92.558029
1366.828125 1615.609741 21.268854
1322.729248 1691.920654 181.422287
1321.461182 1670.083618 3.498249
1403.715454 1697.583496 283.781982
1448.672485 1586.147217 84.434715
1256.114258 1685.589111 -31.885084
1504.183838 1739.345703 260.235352
1496.171387 1656.584595 195.069916
1540.400024 1777.785278 267.870056
1451.160278 1668.119385 242.301132
1408.461670 1728.068726 299.586700
1512.326050 1643.810669 97.175880
1375.834717 1718.185425 350.878204
1427.594360 1574.681274 73.035233
1490.799438 1616.463379 22.331987
1554.797852 1704.908325 96.460426
1572.919312 1784.873779 224.121017
1473.542480 1584.275757 32.188290
1410.957397 1597.295166 88.649277
1150.774170 1814.604370 190.898651
1411.312744 1584.052246 22.077400
1121.860229 1783.800659 -63.299519
1473.807617 1758.344727 282.554199
1164.447876 1782.066040 155.296738
1312.578003 1732.922852 246.073395
1354.860596 1632.319214 22.806662
1485.275757 1641.263550 174.014984
1211.188110 1868.792236 248.938583
1169.455566 1764.252075 -1.025872
1534.294189 1649.282837 -31.308760
1528.665405 1766.543823 278.749634
1083.147339 1825.032715 125.054863
1476.241699 1635.099731 203.659149
1286.857422 1716.695435 209.504837
1317.751831 1652.293823 -8.401686
1140.778809 1803.342529 157.230103
1575.950928 1764.855225 142.587067
1480.851807 1584.039185 1.915329
1095.807129 1827.502930 109.092201
1438.461792 1538.401489 -6.368335
1446.037109 1635.926758 232.950104
1393.035034 1747.919067 352.341583
1295.419312 1710.519287 222.724792
1224.765137 1748.722290 226.859177
1598.522949 1792.554077 95.763702
1364.086914 1640.019287 0.192668
1366.804932 1634.261108 173.751617
1562.703125 1706.379883 -6.305181
1365.826782 1619.850708 55.724480
1446.540894 1591.103882 198.110519
1163.872192 1794.434937 230.535690
1395.883789 1717.454956 310.504395
1519.177002 1732.855469 227.463165
1496.292725 1635.134766 75.901314
1517.472900 1641.477295 59.210213
1413.315308 1604.014282 214.464005
1447.288208 1555.694824 -19.890368
1088.058838 1820.197876 36.136364
1280.397461 1715.483521 207.775848
1385.435181 1597.872925 80.844154
1180.416626 1795.379883 213.318741
1497.621948 1643.512817 234.180252
1554.465210 1710.991089 213.235229
1515.395752 1640.421265 -15.210615
1099.100220 1800.615845 -6.191538
1295.853394 1694.279419 7.241521
1270.104004 1714.109863 235.902634
1387.981567 1607.924805 135.267365
1390.762207 1687.187988 232.965408
1426.614380 1590.235962 61.576660
1234.147705 1703.902954 -18.699505
1497.641602 1628.853638 75.508911
1513.465698 1654.851196 46.025986
1397.580811 1716.317017 282.165009
1322.029541 1679.523560 131.899796
1616.560791 1784.217773 -41.604679
1073.273682 1847.979492 82.868301
1566.437866 1767.355957 157.043243
1604.219238 1809.895874 17.169790
1154.457153 1949.213135 142.463120
1393.667725 1721.632202 327.287201
1338.628296 1658.236816 9.484708
1280.317749 1698.027588 35.831715
1336.032349 1672.266602 228.556915
1498.648071 1624.150024 59.359814
1247.211426 1713.520996 6.557023
1376.373413 1725.357666 367.676910
1480.641357 1559.358154 -6.474719
1117.021362 1817.490723 115.813332
1414.814331 1741.847656 330.580078
1236.526855 1740.896851 165.379303
1256.822510 1695.421997 -30.400711
1441.030762 1564.824951 -9.913343
1387.202515 1640.475220 215.378983
1151.245361 1790.552490 79.222618
1362.174683 1697.931641 239.571259
1430.563843 1591.613647 108.139496
1204.473511 1726.160278 -32.894489
1489.759277 1657.339233 144.278793
1510.178223 1700.720581 233.024811
1267.138428 1722.183105 146.044205
1534.091919 1689.596436 222.223038
1381.376953 1614.306030 159.955185
1390.014160 1606.514038 4.421761
1382.987183 1707.334473 300.224579
1333.133911 1682.968262 217.783356
1459.566040 1675.614746 235.527359
1561.139648 1717.381104 226.840775
1519.070313 1645.974487 16.209791
1453.520020 1556.749878 45.899670
1490.036743 1643.205933 196.970734
1291.037964 1670.969727 -18.099363
1529.538452 1687.133057 160.145706
1528.978882 1668.928223 -17.165058
1342.001953 1676.250366 24.118708
1144.094727 1802.694580 143.408844
1603.112915 1773.694946 13.591179
1122.135376 1805.536621 164.334702
1399.988281 1594.132935 103.740265
1297.635986 1695.889648 204.181122
1447.185059 1562.921753 28.928297
1559.467651 1710.442871 26.652662
1406.744141 1575.068115 -6.274261
1386.351196 1625.097534 173.743835
1571.845825 1735.899658 120.104065
1380.416138 1688.773682 254.334305
1465.274902 1755.146973 311.146393
1426.387207 1589.160156 179.571396
1584.866699 1775.054565 133.365707
1227.762329 1736.196167 195.592667
1461.710449 1607.867188 252.065689
1558.126709 1730.348755 121.657501
1188.150391 1751.008667 4.357316
1300.078247 1713.692261 248.823837
1525.955444 1766.974487 280.805115
1494.345947 1734.846680 238.176590
1523.829224 1653.664917 -24.861740
1123.774658 1789.934448 -6.918121
1433.581299 1582.940063 178.533890
1241.561523 1736.607544 34.557453
1113.118408 1818.925171 189.897095
1399.334229 1608.173218 60.405128
1442.203125 1571.375610 107.666359
1249.130005 1729.111938 199.074356
1439.514160 1585.835449 202.088272
1360.008789 1625.371216 81.616692
1325.176025 1654.510254 33.899765
1255.031494 1691.494263 -12.557264
1415.086914 1579.970459 97.896416
1356.294067 1626.176270 70.055702
1239.975708 1733.835449 207.518814
1186.209229 1801.622925 232.687576
1545.146362 1672.157227 4.053217
1341.669067 1672.249512 94.943230
1286.273560 1697.631592 105.905380
1311.989990 1680.868408 36.899868
1250.879883 1700.572021 -34.556393
1173.088989 1794.285767 204.481995
1157.951538 1799.226807 233.233795
1206.263794 1744.135742 24.516680
1491.341431 1650.679688 184.067078
1204.658203 1777.805054 116.781090
1182.041870 1799.717285 230.453644
1311.447510 1681.664185 114.421097
1491.327148 1674.438232 238.102020
1459.057617 1564.886841 -0.173220
1475.020752 1564.420776 25.753403
1408.112183 1617.470337 236.118790
1492.286865 1655.968994 173.431534
1250.922729 1718.172974 46.005482
1285.909302 1708.312012 181.510040
1467.674683 1764.588623 320.694366
1502.989380 1659.595703 236.471588
1185.480957 1812.491821 237.956406
1377.865601 1713.426636 260.597412
1520.587891 1666.109253 -22.004446
1390.359985 1712.429077 356.039764
1376.630493 1634.087769 209.390793
1250.843384 1723.484009 192.482437
1557.184448 1727.201904 158.304367
1586.833618 1743.498657 -47.213657
1301.779663 1691.253784 104.467178
1212.333252 1841.792969 239.667404
1264.122314 1749.806519 250.794037
1212.002197 1725.307007 -26.045036
1324.163208 1677.347412 55.370598
1202.133911 1774.413452 143.809692
1335.214844 1721.010498 242.668686
1230.620117 1713.739258 22.786949
1438.261597 1746.023926 219.305710
1272.387207 1702.256226 199.622925
1490.051758 1639.044922 148.394440
1391.616699 1617.034546 198.606918
1400.592041 1600.963135 88.002357
1301.503662 1693.352783 56.213749
1294.369507 1685.966309 70.002892
1409.383545 1611.807251 184.541275
1409.125854 1620.732422 204.441177
1347.658203 1722.774170 227.413086
1374.187134 1714.075928 293.433624
1382.027344 1693.223145 268.813904
1414.795654 1699.201172 313.401062
1512.209961 1635.235840 -19.669050
1303.691772 1705.068726 171.167328
1546.659546 1775.557007 229.142090
1268.010986 1754.125000 236.102768
1274.869019 1710.851074 108.111023
1424.179932 1585.747192 91.235130
1401.121094 1594.079956 52.856018
1513.853638 1639.697632 -6.005041
1242.185425 1739.907471 200.674835
1574.332886 1735.578857 105.138977
1350.529541 1642.253052 -42.273018
1279.841553 1705.974731 46.802979
1272.314087 1733.160156 142.719894
1601.396606 1794.958618 173.337616
1376.092407 1625.905884 131.752243
1461.298462 1759.817871 272.982849
1316.873535 1695.470703 136.690491
1403.743408 1618.013672 216.783646
1457.252319 1597.401245 154.305084
1296.620117 1720.128906 227.699219
1334.483765 1766.556641 246.014084
1592.421021 1763.687744 223.271530
1487.720825 1730.727295 267.226440
1138.512817 1779.119995 -4.167023
1185.812012 1771.268677 197.646072
1419.896240 1580.587891 39.022507
1137.133423 1805.898926 159.442169
1200.447876 1775.679443 208.259949
1354.708130 1605.825928 -29.033651
1404.711914 1593.173950 9.767283
1418.710693 1594.412109 -30.052830
1133.343262 1810.526489 216.985809
1428.540894 1589.167480 184.598358
1554.596680 1719.934448 154.668396
1554.141724 1720.446899 158.504593
1375.210205 1635.488037 231.030289
1363.775146 1636.946899 -38.548527
1540.435669 1712.332642 147.306610
1229.933838 1755.647339 240.701584
1402.873291 1774.997803 312.824738
1119.313599 1722.607178 -44.685928
1230.731934 1746.838257 193.469177
1396.823975 1596.044434 2.418858
1551.379883 1698.006836 16.889372
1551.456909 1744.469604 179.186157
1543.028931 1682.739990 -29.064287
1199.331909 1774.030884 211.046661
1295.055054 1682.936401 14.252098
1487.543213 1640.171387 146.884583
1197.823608 1758.320313 100.363022
1529.316772 1707.081665 181.848724
1269.397461 1721.888550 110.036102
1412.198242 1598.036133 133.111404
1308.423096 1683.848755 40.866985
1337.646118 1679.113892 228.587067
1249.140747 1723.848999 189.816666
1366.016235 1653.040527 216.658768
1294.096680 1690.192139 12.236969
1283.341675 1770.593384 253.843323
1415.648438 1619.015259 239.835693
1450.765015 1578.591919 177.329239
1465.892822 1580.232910 117.559113
1356.835938 1815.805176 251.595459
1207.781372 1746.237305 92.618179
1393.172241 1619.417725 -28.658747
1375.274048 1706.214966 314.556244
1279.864380 1706.189087 217.405701
1402.595337 1595.364746 57.675671
1377.283081 1631.090942 195.101456
1097.676392 1846.410156 54.376617
1209.252686 1760.878174 157.347229
1230.110474 1752.353516 141.161972
1375.952026 1638.309326 228.212036
1498.807251 1743.285400 300.813690
1549.748657 1684.956909 -43.108574
1583.278564 1751.626465 224.891235
1424.826050 1589.612793 183.546692
1309.453125 1761.998047 231.948624
1196.384766 1784.353149 214.437317
1392.045898 1702.422241 226.153091
1154.919556 1854.866455 233.364822
1547.972778 1702.803101 207.395767
1150.204346 1792.633057 80.608879
1536.503052 1708.787354 154.775406
1522.182739 1684.501343 196.366531
1193.281982 1776.929932 129.887665
1230.725708 1709.362305 -39.106339
1294.615601 1716.220581 155.530869
1464.335571 1542.689697 52.272110
1313.721313 1699.936035 75.527397
1397.720337 1608.147827 103.224243
1163.142822 1844.457520 252.577072
1241.112549 1674.753662 -47.681278
1294.989868 1706.774780 69.590981
1406.586792 1717.025146 331.411255
1225.393433 1888.119995 242.239029
1198.552002 1765.880371 202.529434
1309.467651 1703.356445 233.362076
1364.787476 1615.995972 5.964208
1535.434448 1684.797852 222.994019
1425.937378 1573.536133 100.524208
1291.804565 1705.676025 220.854324
1092.731567 1833.705322 186.912430
1507.537354 1673.050659 176.318237
1502.810791 1601.631470 -27.116920
1572.106812 1740.521118 52.561676
1572.180054 1763.827759 164.813126
1294.168823 1697.795776 121.611458
1281.721313 1679.527832 -7.704322
1364.093262 1620.936279 178.345856
1549.715820 1719.712524 186.383484
1363.572754 1631.104370 181.965195
1380.472046 1723.805298 357.423370
1577.849609 1731.125610 -34.909031
1401.752686 1712.424561 338.921600
1592.248047 1801.136475 165.352615
1102.015381 1871.040527 183.884521
1288.043579 1719.195313 143.894363
1255.203979 1870.234741 238.219238
1507.701294 1718.662231 243.186417
1354.698486 1739.604248 249.449066
1304.829712 1685.147583 40.007278
1361.707520 1625.286255 -11.682631
1157.126709 1787.428955 76.747971
1493.507202 1738.994873 245.294922
1555.102417 1741.247681 231.001877
1278.193481 1708.999878 210.557007
1568.970337 1734.774658 76.224152
1401.468628 1705.348511 272.188812
1425.945435 1569.076904 79.251648
1108.647217 1814.488037 151.674225
1284.107056 1701.037476 86.848915
1492.392822 1606.609253 25.578444
1399.247803 1709.309814 237.851868
1430.717407 1607.525391 176.607010
1377.312134 1579.914795 -8.612917
1288.147583 1701.179688 94.729088
1439.425659 1582.272217 39.263947
1332.256958 1693.921875 91.137512
1278.532715 1705.695068 229.542191
1503.740112 1732.851440 316.732727
1237.586060 1709.973389 -34.059807
1485.225342 1629.457520 113.195244
1362.370117 1706.657959 332.678162
1415.658813 1718.789795 242.788605
1291.769653 1693.558716 3.585216
1313.740234 1721.600708 243.176865
1446.729126 1569.974365 18.219563
1334.162476 1656.824707 40.065952
1393.963379 1600.568604 152.138916
1342.147827 1638.036621 -17.293692
1540.813354 1676.412476 -29.986183
1235.140991 1718.607788 -57.212761
1436.662964 1588.927368 183.547394
1511.180176 1645.265991 226.725220
1144.331665 1771.559937 10.885004
1417.299072 1750.855957 294.906586
1412.954834 1689.767822 241.369675
1162.450073 1800.784912 30.631611
1103.807007 1839.342407 208.390350
1098.846069 1831.927124 195.721497
1200.437256 1748.336182 70.301788
1227.264526 1729.747681 46.924011
1198.703857 1810.456055 229.429398
1497.858398 1646.023438 120.026779
1130.126953 1813.726440 209.389557
1545.850830 1663.614624 239.301453
1172.090942 1776.336792 157.645203
1386.654175 1716.314331 359.604553
1181.050537 1781.495605 88.939690
1213.489014 1807.800659 233.377609
1270.737305 1708.366333 109.461716
1498.912964 1651.770996 116.251083
1220.143188 1774.377319 214.787842
1119.015869 1839.152222 35.417316
1412.968994 1585.911011 124.680374
1159.184937 1816.941040 233.173279
1280.052246 1714.050659 239.726852
1451.642456 1608.348389 203.127731
1484.273193 1742.706787 305.196899
1321.687866 1769.243286 247.874863
1564.349487 1726.409302 62.882244
1592.690186 1730.052612 -33.070324
1135.425293 1811.020386 -9.314119
1393.623413 1622.685181 223.129761
1150.900146 1789.053711 -7.975701
1112.170776 1815.017944 181.569305
1491.614380 1734.848633 285.925110
1429.414429 1594.155884 119.435783
1439.631470 1565.874146 61.554211
1281.831909 1817.898071 253.425720
1421.192749 1605.197754 216.905701
1226.813232 1863.975708 236.942596
1467.491455 1582.138428 25.326956
1380.067383 1622.430786 139.787918
1296.576782 1752.082153 248.168228
1395.679199 1614.048462 193.492371
1362.590088 1628.499512 170.147095
1525.648438 1668.215210 107.913986
1460.916992 1568.958496 77.666344
1313.077637 1682.338013 56.690273
1206.908203 1749.263062 196.673355
1131.981201 1861.678101 223.470291
1349.854248 1705.387329 224.535507
1424.686890 1573.427124 93.457619
1204.585449 1763.094482 -27.995535
1487.421631 1612.538940 29.340742
1399.215942 1707.443237 309.959808
1365.400757 1635.348022 126.858025
1211.550903 1745.113159 185.275238
1438.230957 1590.188599 212.072571
1437.018433 1587.618286 174.309601
1431.626343 1554.855469 -12.812498
1535.553833 1674.075073 0.744394
1531.969727 1706.202148 226.338898
1601.745361 1772.422363 218.666733
1108.853027 1815.504883 172.677887
1395.431885 1714.848145 372.535492
1537.890259 1696.688599 94.025429
1361.599365 1615.539673 9.819218
1268.595947 1708.513184 28.293459
1453.104248 1561.045166 80.294968
1373.629028 1610.816040 86.756012
1476.598267 1544.906006 -20.564156
1500.362427 1645.526855 229.452042
1439.612061 1727.127686 227.097931
1171.454468 1769.794312 27.369226
1335.474121 1696.883179 230.449280
1518.427979 1661.495972 55.910542
1545.014526 1707.643311 98.127480
1510.160400 1685.922485 176.664764
1174.963257 1783.511719 164.112823
1293.331055 1727.011475 254.236633
1389.379395 1697.973267 244.769974
1116.379517 1821.333252 183.701172
1433.554443 1577.957764 166.481934
1529.441895 1764.056885 266.739410
1179.284912 1806.909424 236.014847
1395.833008 1595.317627 26.999586
1403.500488 1584.132690 59.029331
1225.785522 1754.314331 107.005188
1533.912598 1669.209473 77.049644
1200.630859 1870.124390 245.860901
1501.968750 1652.460571 146.564148
1533.706299 1706.632568 158.891068
1105.537231 1809.634033 78.098969
1306.386963 1702.098999 167.770325
1558.443115 1734.929199 141.748978
1345.954468 1650.384033 166.280823
1278.745850 1701.380615 72.456688
1365.013184 1622.273315 56.989548
1523.442871 1671.285156 225.831619
1230.835571 1707.658081 -25.289507
1565.514648 1690.017822 -27.452515
1565.845337 1741.066650 174.779068
1417.885742 1596.807251 190.080215
1373.669312 1713.628174 319.105591
1603.905273 1790.711304 79.452797
1218.379272 1747.303589 199.246521
1217.502441 1810.793457 237.803513
1223.097900 1740.933228 161.974655
1531.265015 1692.364868 42.430420
1298.133545 1696.053711 121.592979
1485.390381 1629.946655 214.263153
1278.409912 1712.797119 181.333664
1223.086182 1752.121948 232.955627
1392.425049 1716.454346 328.990356
1338.860718 1651.304688 12.610592
1258.809204 1708.569824 66.715317
1511.317871 1749.874146 317.724609
1276.373169 1778.817383 251.780228
1507.925293 1627.848755 -26.649893
1157.784790 1806.079102 122.319702
1163.579834 1813.919800 247.516464
1359.159912 1634.312256 72.780128
1413.829712 1589.535522 103.973640
1177.538208 1750.749023 -40.443005
1195.528320 1736.880981 -59.454792
1218.058716 1742.142822 115.272285
1464.061157 1749.213257 329.659363
1342.840088 1698.634399 117.673645
1241.621704 1705.376709 -29.136492
1264.770508 1814.370728 237.204712
1344.638306 1623.806641 -36.324936
1602.538208 1772.792114 90.771683
1491.036133 1595.768311 45.936649
1375.477295 1619.606934 194.675797
1428.331787 1612.186279 235.980560
1415.940186 1612.607300 202.422577
1394.773926 1684.474243 243.671555
1502.876465 1748.579712 243.366119
1322.505005 1667.192993 107.864807
1505.157104 1632.185181 48.261768
1344.704468 1647.648926 151.191360
1222.737793 1738.324219 74.448082
1172.776733 1802.946899 22.626741
1510.298828 1650.987671 47.826950
1370.444580 1614.856689 31.953733
1196.707275 1753.464355 -47.423458
1391.987671 1609.113159 134.955154
1332.893677 1643.916992 -4.897294
1381.364380 1611.629761 133.085510
1576.017944 1764.787842 124.899109
1486.020386 1617.117432 228.081467
1137.031616 1810.946533 128.810898
1299.191772 1707.419189 161.623764
1131.064209 1805.359253 110.751328
1307.193359 1667.596924 -0.916904
1266.317139 1715.387573 201.114044
1585.644165 1754.879272 115.538681
1281.771729 1691.267822 59.836472
1214.120239 1756.674561 176.582809
1296.742920 1708.401367 156.951355
1541.688965 1713.616089 146.112991
1238.447998 1814.928101 236.351990
1621.712769 1794.963867 -31.169123
1343.283569 1640.585327 90.006950
1182.588623 1827.685913 238.163666
1172.651611 1735.680908 -56.956711
1411.778931 1732.189087 280.663971
1273.816040 1697.911743 19.791666
1608.603027 1789.265503 59.640373
1367.328003 1615.817871 86.011024
1359.557861 1638.789795 -40.816734
1534.251953 1665.759399 -18.815416
1528.834961 1755.997192 235.353806
1359.922119 1696.274658 232.288681
1555.512817 1751.686279 217.708252
1393.572266 1614.729736 171.787048
1349.409912 1656.846680 207.618454
1448.978394 1564.141357 4.705280
1584.847168 1777.402466 140.134644
1229.830200 1748.469604 239.818039
1541.862915 1709.812744 47.907890
1318.774048 1674.522095 56.200638
1324.011841 1718.782349 127.292274
1463.243896 1743.878784 229.755539
1245.196411 1717.045898 -38.572159
1457.428833 1560.250488 70.717278
1380.676636 1721.001343 332.470398
1351.372559 1661.258057 163.270660
1176.601563 1783.638672 204.188171
1114.170532 1802.374023 142.396317
1529.249268 1629.542358 -31.407385
1360.715698 1725.427368 352.687317
1556.721191 1741.612183 164.561996
1373.918335 1634.827148 196.839111
1357.913208 1694.991699 226.466980
1386.065674 1619.358276 174.050568
1413.791260 1601.097046 123.336594
1359.632690 1725.000122 358.508301
1468.086792 1613.463135 156.031723
1186.586792 1791.697266 218.178421
1395.468506 1703.180542 288.426270
1236.539917 1735.243164 48.823288
1310.616455 1694.474243 132.529541
1296.883057 1718.716309 142.116516
1374.309082 1611.440918 29.903717
1164.213379 1859.939209 244.751297
1228.145630 1710.703979 -35.591557
1380.456665 1629.329468 196.441818
1548.901978 1709.463013 144.548767
1091.079346 1815.072266 -1.206082
1118.384521 1800.571289 -3.783166
1267.135376 1689.366089 -0.742000
1253.871582 1727.756958 39.220226
1211.788818 1742.692993 85.234543
1412.784912 1725.400879 295.474091
1532.114136 1636.311401 -31.846722
1324.045044 1810.521606 266.965210
1149.432129 1808.125244 121.149498
1310.452637 1694.781616 225.460999
1166.642944 1785.041870 67.200058
1357.093994 1625.989868 18.553608
1198.050903 1754.405640 87.707115
1262.621460 1697.787720 6.837122
1383.470703 1702.314941 258.378235
1316.258545 1679.093506 36.671253
1400.420044 1703.098999 318.759064
1530.150635 1656.450806 49.601879
1516.831177 1661.762939 144.034073
1338.190063 1641.514038 -27.945200
1401.835815 1595.408813 70.022110
1329.746338 1770.329346 247.734375
1169.416870 1770.537109 88.720589
1131.077637 1850.553467 29.894457
1525.309448 1676.820557 204.174118
1201.926392 1840.476440 253.733978
1135.463135 1787.571167 -24.757530
1521.033936 1662.421387 108.971458
1368.830078 1720.207031 297.894470
1382.545898 1605.862183 72.018547
1382.583008 1619.979858 181.293365
1391.570923 1603.442993 124.530006
1590.334106 1749.944092 -31.383215
1265.939575 1722.300293 200.673080
1511.156372 1639.179443 11.744865
1586.654053 1769.155640 92.621651
1178.513550 1803.536621 229.532471
1333.687744 1644.451416 119.858299
1247.955566 1753.978516 145.393143
1469.984863 1617.380371 85.797821
1359.622803 1628.040649 44.849113
1131.936523 1798.583740 103.628891
1311.198608 1680.698242 48.760960
1325.497559 1638.071777 -20.115171
1468.022949 1582.160156 -24.988867
1190.348877 1760.043091 186.069092
1279.093506 1663.999146 -27.931467
1417.505005 1586.816772 22.371225
1226.952637 1690.221680 -51.077660
1572.783691 1711.898071 12.376043
1143.899170 1809.931396 128.947342
1528.352417 1700.139404 127.663269
1287.708130 1717.004517 235.535126
1134.632202 1917.563721 206.492722
1330.944702 1675.693237 192.776779
1375.586914 1699.843872 223.126831
1293.547607 1683.185303 -1.965049
1097.291626 1813.709717 23.501087
1261.045044 1716.435913 81.437386
1599.233276 1769.893433 200.416306
1372.892090 1627.455444 130.978867
1236.268311 1704.206299 -24.904289
1271.302734 1702.194580 22.868151
1214.305176 1798.762451 227.593292
1411.333496 1581.579956 75.162010
1479.740967 1595.520264 -5.339625
1145.395996 1933.698608 131.995453
1490.084106 1628.897339 83.984642
1389.293335 1684.281250 242.654160
1412.306274 1596.273560 176.859711
1510.524414 1647.815918 225.538895
1527.888672 1757.243286 231.616730
1357.824341 1635.549072 49.493290
1522.113037 1654.068115 -9.160648
1452.862793 1611.170044 209.848740
1345.415283 1668.868652 180.076492
1285.062378 1701.951172 141.297333
1498.752197 1732.232056 235.379669
1281.119629 1656.082764 -42.072140
1556.368774 1720.666870 94.464294
1391.880859 1595.425537 -6.663557
1500.715088 1636.295166 226.816910
1355.971436 1630.088745 102.431549
1593.876953 1754.518677 -49.547661
1178.402344 1772.716675 158.796539
1240.529785 1734.410522 112.669769
1218.646484 1742.285278 44.419441
1410.974854 1712.310669 239.745438
1452.341064 1563.164063 3.924202
1092.922363 1843.845215 176.216080
1253.893921 1731.966675 223.451218
1597.890137 1765.153320 25.245129
1366.977783 1621.622192 0.896423
1401.722778 1592.933350 25.295404
1153.457764 1800.002808 74.073792
1455.805664 1599.644409 135.027344
1401.309082 1597.494629 -8.623998
1341.414551 1672.751221 143.605515
1577.061279 1728.464111 62.454578
1297.695557 1714.550781 233.370331
1323.775513 1666.392334 122.527992
1427.290161 1731.220703 223.404022
1225.745605 1742.048950 205.545364
1518.453491 1646.915283 25.041092
1202.311768 1782.635986 206.163376
1235.094482 1711.943848 -47.182442
1349.567749 1633.320435 0.439568
1221.739990 1742.997070 139.966690
1500.027222 1643.800659 254.296432
1579.468018 1782.382446 224.264435
1447.445068 1581.429688 80.246124
1463.259521 1575.964966 -20.622101
1186.853271 1774.774902 204.177872
1279.614136 1704.499146 194.439590
1363.985107 1626.742432 -28.093121
1556.992432 1736.201904 136.192825
1511.539429 1636.171509 14.326088
1494.722778 1648.702148 161.455780
1464.985229 1565.090576 26.876905
1590.027466 1779.560791 45.302170
1366.667236 1626.661743 175.781479
1158.990723 1785.566406 153.340790
1555.460327 1737.592285 182.277664
1382.574463 1605.870117 -26.478682
1431.518555 1588.959229 25.315199
1505.038208 1726.560059 230.375443
1474.481567 1575.016479 10.144651
1111.276123 1809.353149 55.051579
1528.933716 1719.651978 233.252045
1463.716797 1621.438477 228.035828
1365.721436 1697.588013 236.010849
1535.239014 1772.935059 252.221527
1465.748413 1608.285522 134.537582
1504.067383 1651.077026 158.701630
1485.825684 1633.108276 163.136856
1507.025269 1631.363647 12.607940
1452.955078 1588.080444 197.945374
1461.208496 1562.400146 51.375710
1452.214355 1594.833374 178.925323
1419.149536 1733.296387 247.362564
1098.580811 1799.329224 -13.081866
1380.603882 1711.642212 367.756104
1238.588379 1738.998413 33.243752
1246.729614 1865.994263 237.981537
1587.642090 1726.272705 229.092865
1280.923584 1696.397339 -1.772735
1107.712769 1789.214600 -71.386787
1131.188721 1829.385376 16.041451
1211.297974 1768.191528 146.641510
1380.382813 1627.504517 182.413498
1146.807495 1809.368042 238.329498
1296.713989 1669.719482 -26.070087
1204.197632 1768.908203 120.340187
1412.828735 1588.666016 99.891663
1533.471680 1713.147339 180.787170
1164.997070 1785.784912 196.047440
1282.139648 1710.010498 235.652176
1177.497925 1808.788940 -15.809991
1394.035767 1605.139893 160.481949
1260.024414 1728.389160 150.967316
1174.633301 1743.001343 -60.364826
1261.117188 1765.742432 249.610077
1211.291626 1757.087646 67.059380
1474.376953 1585.813721 9.247284
