ply
format ascii 1.0
element vertex 1378
property float x
property float y
property float z
end_header
1241.806274 1703.218018 761.394897
1207.870605 1608.067505 823.283325
1098.109253 1727.445435 605.709106
1242.229858 1780.166748 655.052307
1217.626221 1682.216187 758.681641
1236.815430 1743.198242 659.683716
1202.838257 1599.638550 815.780701
883.936707 1764.839600 669.798523
1019.781067 1748.605835 953.647339
1071.991333 1712.980957 641.448975
1206.223877 1657.647827 747.802673
1113.362549 1709.070313 606.813354
1013.745544 1727.670654 657.469543
905.993469 1710.252075 933.775818
984.565430 1743.082520 713.497253
969.498535 1757.526733 641.983154
1040.010742 1674.932007 916.207520
1118.550293 1628.252075 851.709900
1209.856079 1598.493774 808.498413
924.870605 1770.359741 647.527527
1290.301636 1898.805054 676.273010
1019.742310 1669.030396 923.851196
1255.714966 1744.255127 888.713806
984.596680 1676.440918 881.726196
1242.466431 1777.978760 633.014343
1206.647339 1701.894409 657.262024
1256.151123 1814.691162 660.149109
1167.358398 1654.553101 957.666626
872.042664 1740.826416 879.552124
1002.850769 1726.204834 624.331909
1148.515137 1671.726563 916.023010
1033.837158 1693.464966 792.184204
910.959473 1747.472656 795.835876
989.778137 1663.436890 916.125122
1088.749512 1663.665161 817.996826
906.390869 1711.619263 900.946899
1192.445557 1701.424927 873.224365
814.248291 1776.857788 847.332397
1042.195068 1722.459473 665.934021
1151.988525 1631.478149 749.752075
1104.673706 1641.698120 840.754028
978.126892 1751.759644 708.498230
1213.665527 1651.831787 749.731445
1201.665527 1642.645508 671.808777
1007.001648 1703.014282 808.352295
1247.424805 1757.835449 707.182434
1050.224854 1660.559692 857.050842
1191.632446 1612.853149 790.515564
1042.802490 1730.251465 633.757263
1234.026367 1695.694458 745.116516
1098.725342 1660.892090 730.652344
1269.129883 1634.792847 826.556885
1262.780396 1813.128174 690.979065
1282.947388 1855.679321 700.459839
1167.062012 1674.544678 585.181763
1040.987427 1691.298340 787.741394
1155.090454 1614.562378 829.437317
1180.247681 1642.346802 964.416504
1055.272217 1717.212524 643.577881
1201.516846 1604.316406 826.497437
1278.204102 1684.508301 849.949707
1191.836792 1703.619141 628.029114
1143.685669 1621.468018 848.476135
1251.033081 1778.606323 688.270569
1282.178955 1719.312012 944.967957
984.551575 1713.563232 816.525696
1218.184082 1719.453735 671.865906
1245.998047 1700.733154 779.931946
1146.794312 1631.983276 979.781555
1028.915039 1660.276855 902.046875
1114.701050 1642.384888 748.544861
1236.250244 1747.476563 702.548645
939.943359 1702.369263 932.112488
940.793091 1730.372925 955.350098
1234.596802 1784.290527 633.520325
1213.164795 1653.943970 742.747498
956.337585 1756.933838 664.254578
1129.143799 1704.080933 629.487854
1137.359985 1666.527100 914.975708
1264.997314 1812.342529 667.262817
1227.817017 1782.507568 601.772705
1041.967407 1664.258423 886.720947
1248.481567 1806.032471 647.177490
1270.849731 1772.595825 743.801697
934.709167 1762.596436 718.758545
1185.374634 1601.165527 803.987976
1111.640625 1675.858887 698.633606
1253.255615 1690.448120 971.347229
1187.614258 1604.457275 804.010803
1146.866089 1621.581299 790.551575
856.348267 1886.529053 915.717529
1290.496704 1874.415283 669.278809
1262.915649 1828.855469 666.083130
1038.444702 1659.409546 888.650574
1119.684814 1637.536011 772.244690
1215.228882 1654.758423 750.407227
1102.930664 1666.812988 883.742798
1250.923340 1650.656494 838.920837
1042.156860 1671.209595 850.389954
816.982788 1811.345337 694.497864
928.963013 1717.311035 878.534302
949.477417 1707.262085 912.363403
1082.723389 1719.520752 729.448853
820.458679 1782.442993 753.630432
1231.927734 1720.523682 933.444214
1225.005615 1688.194946 728.746216
1089.340820 1746.381836 704.738647
1161.415649 1678.349365 602.473938
1240.336426 1675.899780 855.716736
1165.035034 1613.684326 816.648743
1307.442993 1695.563232 837.565491
1175.017456 1701.539307 908.981384
1282.104858 1812.749390 808.412903
1175.188721 1647.826660 690.566040
1017.936523 1710.987549 810.159790
1219.079834 1684.499634 730.721008
1255.914551 1768.776245 748.628479
1205.603149 1623.959473 789.833191
1105.589722 1671.359009 686.586182
1063.088867 1718.278809 629.136108
985.546021 1671.821411 912.825928
1014.000610 1747.198364 634.064392
970.551636 1678.766602 921.203918
1001.694641 1715.010254 804.105103
845.850342 1734.348267 932.421570
1250.745605 1771.700073 708.249207
1101.414063 1633.553223 846.008972
1154.584106 1641.094482 895.854858
1263.104736 1703.898071 955.807739
1222.455811 1639.322998 801.378845
1155.926758 1668.381592 636.292053
898.992310 1769.228027 1005.119690
1150.306152 1698.847168 599.505859
1226.128296 1784.431152 603.456238
1015.096191 1710.396973 929.002991
838.991943 1737.932617 931.212402
1144.841553 1662.089355 906.196045
1274.185669 1746.084839 820.365967
976.524353 1732.573242 749.854980
980.713318 1744.765137 713.606506
1244.481445 1774.347778 687.820496
1251.941406 1779.765625 700.122742
1010.208435 1746.966675 661.551758
1008.027649 1711.699951 784.001526
1141.661133 1624.632690 821.252014
1113.562012 1634.856201 827.344482
1074.297974 1664.203369 876.723938
1231.810547 1612.906006 807.297424
1235.739258 1627.934814 812.454529
1167.255371 1642.771240 976.906982
1001.492798 1737.117798 655.924194
822.668396 1809.133179 734.585754
1177.548584 1685.943481 923.501709
1249.384766 1735.381470 714.692444
1091.464600 1649.177246 873.032898
1133.596191 1635.295776 976.766968
1098.077759 1701.290405 915.337036
1121.413208 1718.055786 595.729553
1132.656494 1666.544922 867.775879
1090.128296 1644.149780 846.771484
1233.039063 1752.260498 666.890808
1047.809937 1700.400024 930.296997
902.364563 1769.790771 745.372986
828.014526 1750.757080 872.268372
1256.924316 1760.480103 741.741333
949.762878 1750.480835 640.430847
1211.943359 1682.472290 707.745056
1150.575562 1618.426636 804.806458
1135.402344 1636.360840 848.066528
927.995361 1763.282715 712.556519
979.043884 1714.769775 838.937256
880.054138 1727.430786 894.136475
1163.003662 1647.527954 916.744141
1210.239136 1601.972168 831.649719
1282.916504 1775.631348 822.275208
1216.327026 1639.713135 758.344482
1278.817017 1792.604980 772.734741
1194.565552 1653.332275 697.552002
1296.456055 1881.406006 714.124451
1138.903442 1671.774414 632.044128
930.917603 1725.021118 833.955872
1245.566406 1645.093994 837.005005
811.030701 1755.943604 885.664673
1248.159546 1781.471558 698.475525
1147.642212 1652.963501 862.283020
1273.588867 1719.331665 943.025513
1284.735962 1729.861450 860.064148
1062.971313 1710.455200 721.186218
1197.204712 1633.283813 839.131470
833.009827 1755.421021 887.479980
1180.503784 1660.430908 632.360107
867.431763 1781.949463 739.530151
1176.480347 1623.036011 725.677429
1254.311523 1671.672974 846.893677
1207.487793 1674.429810 982.582092
1209.789063 1618.740967 812.962646
1280.048218 1847.647949 716.066284
1280.618164 1849.513306 696.613647
1211.141968 1702.077393 866.880554
1046.670776 1655.479492 886.472290
1242.373413 1791.149780 628.405640
1124.069214 1638.756714 804.958557
890.286255 1710.119873 910.195251
800.248474 1788.456787 681.352539
1235.478027 1745.467529 695.763977
1309.416626 1836.464478 832.239136
1070.876343 1674.588623 911.494385
1140.713013 1639.410889 720.053040
1194.379761 1658.685059 590.625916
1143.887573 1650.073486 696.027527
939.584595 1741.455444 778.447083
915.900208 1761.829712 693.615234
1115.862305 1674.647461 908.879395
1140.755859 1659.354858 882.699219
854.338989 1790.838623 694.646118
1194.713013 1686.812378 863.052063
903.667786 1729.115967 983.951477
941.474792 1702.732666 892.256165
1248.680908 1724.692017 921.293640
1088.585938 1679.617798 765.409607
1231.051758 1774.564575 647.235229
1276.932983 1677.056396 836.342346
1134.689087 1653.443604 720.532898
1202.043457 1602.281494 797.603149
1195.886719 1700.663696 652.872070
1157.228882 1617.952759 794.561707
1068.107788 1670.146606 889.888489
943.461792 1729.828003 944.685486
1180.850830 1637.925781 982.578918
1180.030029 1718.057861 883.482971
1073.861450 1683.484497 912.707520
1285.266479 1808.345947 809.868896
946.066650 1727.862915 957.978455
960.056763 1722.235840 836.487366
1138.000000 1623.136597 803.560425
1031.210327 1724.406616 664.852051
906.319702 1733.828125 878.981323
1303.234253 1827.823486 778.143860
1295.100342 1826.991089 787.095886
1092.711670 1657.322021 799.645508
983.442322 1717.008301 951.109741
1169.956421 1618.143677 837.827942
1222.151245 1709.474365 868.622681
1156.134399 1688.015381 966.292969
1000.874939 1736.946167 688.755432
1169.288452 1668.242310 915.961060
1246.687866 1672.258057 808.777527
1246.260498 1755.027954 674.981873
1281.486694 1740.130127 942.433899
950.403015 1728.036621 810.931824
1026.279541 1732.850098 944.482300
1207.896484 1685.598877 660.302612
933.980591 1722.045410 843.937988
1135.956909 1628.917725 843.940796
1231.772705 1614.573975 803.540771
1269.842773 1807.757935 730.453186
1138.143555 1647.781982 982.126343
1273.407104 1685.548462 849.344849
900.858582 1805.826294 677.142700
1095.381714 1655.138916 863.372803
1150.493286 1644.120605 696.144714
939.941528 1737.749634 804.833069
844.085815 1790.087402 711.453796
1129.479736 1633.469116 1013.349365
898.057800 1780.524536 679.033936
1191.620483 1608.745361 833.195496
943.080383 1743.175537 810.059753
800.781311 1770.936035 844.484131
808.816101 1800.999756 792.427307
990.339539 1674.933838 923.644958
1032.981079 1659.762207 887.494629
1099.779785 1687.647949 888.559814
848.191650 1846.776733 950.551758
1204.367920 1619.187744 729.987976
1269.976074 1858.056152 616.992676
1276.213745 1756.303711 784.136841
899.385437 1760.697510 774.828857
1182.998779 1678.406250 924.241089
989.184570 1699.992310 913.942139
1081.571533 1667.726929 829.031372
1304.039307 1819.493042 828.773315
1232.626587 1711.469971 916.961426
1179.554443 1636.150146 675.095581
1192.500610 1748.930420 899.690552
1289.750244 1881.413818 660.429321
1227.707031 1615.629395 847.105530
910.490234 1702.410400 957.541748
994.028259 1675.737305 901.724670
1243.625610 1782.781128 669.564880
1263.906372 1830.146606 671.317200
1160.608643 1633.217651 966.856079
841.359436 1755.652344 885.812073
887.956299 1784.609985 658.624207
1298.379517 1852.266846 768.783142
1199.199097 1707.157227 604.319458
866.850464 1753.778564 828.652649
1048.554932 1692.298340 787.961609
793.329224 1838.871582 760.485901
861.653564 1740.113892 882.791565
1133.310181 1637.077637 860.736572
1257.958862 1723.602417 799.400208
978.358704 1725.042847 764.270020
1172.741821 1609.659546 823.159607
1076.434937 1687.402710 906.880493
1127.136963 1647.611816 921.358704
1179.254517 1660.082520 969.975098
1117.407959 1664.337769 679.074219
1079.163452 1700.815674 719.721130
1259.403076 1650.485229 842.862305
1188.301147 1604.204712 815.856323
1072.808594 1675.415405 798.359863
1104.175659 1656.022461 792.648865
1187.173828 1710.996826 879.127563
861.793213 1734.263794 965.563171
1217.625610 1661.863770 762.887756
1157.673096 1684.811401 891.935120
1231.704712 1734.426880 697.879822
1208.367554 1732.666382 613.291260
1142.393433 1665.017334 906.707581
1171.256714 1615.195313 1000.633423
1295.866943 1703.367432 855.957397
1252.218628 1753.344360 740.198364
874.898987 1781.001953 719.759460
1061.556763 1655.494751 869.669678
1309.514648 1749.732910 841.522400
1118.487061 1664.742676 895.286377
1126.199341 1637.505615 861.379822
1197.956909 1649.863892 655.272766
1225.869385 1715.050171 944.827026
1283.320313 1755.365112 932.802979
859.753662 1856.898926 985.306519
1292.188110 1850.944336 759.219910
1267.747314 1675.310059 826.417114
1275.125854 1876.237671 651.118530
838.508972 1735.521606 922.747620
1246.658691 1669.946167 848.263062
922.442505 1726.206665 848.903931
968.682678 1742.500366 632.176331
1101.890259 1651.132690 746.820801
1077.686279 1656.590454 879.755676
1093.688843 1654.214355 815.376953
943.153320 1716.094238 850.384399
859.474915 1879.118774 935.827393
945.380981 1728.846802 826.682617
1271.268433 1753.859497 920.291565
1035.876099 1675.907227 839.187805
948.607544 1725.672729 959.897644
1001.059875 1717.474976 770.307678
888.613831 1711.599121 964.439880
1196.038818 1617.954956 774.979919
1047.155396 1665.626709 894.388977
943.379395 1697.747681 899.055969
950.815552 1702.632935 877.906982
1242.343628 1679.984375 956.559937
1275.080078 1810.214355 782.111450
1146.957397 1638.713135 994.429138
1028.367065 1710.224121 753.723022
867.496826 1772.357178 797.249817
1056.324097 1675.772095 900.751404
1018.396790 1731.888184 667.751953
970.789124 1690.948730 931.206848
926.692749 1732.875977 819.929199
990.558533 1678.353149 876.674133
1210.618408 1631.779541 803.006653
1195.801147 1615.882568 761.274048
952.951294 1706.146484 920.910339
1242.778687 1729.078857 882.249023
1126.843140 1634.361938 794.076477
1142.312500 1673.143311 647.029358
1174.075195 1669.343750 922.705566
1221.449341 1717.638428 673.427856
816.411926 1753.586548 887.223877
1074.653442 1655.444946 866.684265
1025.096680 1708.932983 777.771790
1173.303467 1632.135376 989.575195
1047.010742 1742.400513 625.804871
1123.978149 1641.632935 788.154480
938.179321 1786.934692 661.759827
992.202576 1727.393311 705.022461
1239.113403 1711.837769 739.317200
1040.159546 1705.923218 757.846680
1115.350952 1688.783081 626.075623
965.722351 1687.891357 913.423889
1241.062866 1774.640137 672.404114
1154.554199 1671.585449 910.062012
1249.466309 1714.398071 867.857239
1131.642090 1686.491089 650.908325
1217.971436 1621.047119 791.726868
912.810364 1793.999756 666.894653
1121.573242 1660.180664 698.240417
1034.734375 1708.207153 932.793213
1145.387695 1633.980835 986.381226
1056.894897 1726.041748 640.237793
1112.992432 1669.293701 894.038574
878.846680 1741.615845 978.501709
1106.473022 1664.621704 707.095459
1104.957397 1653.051880 745.824036
1162.632446 1648.900513 727.288147
939.674438 1764.008911 649.480530
947.741028 1710.135620 643.321472
1101.497437 1685.653687 893.638000
1125.856934 1622.491089 831.243835
1121.323120 1633.342041 858.392090
1216.500854 1689.774414 692.843811
1283.640991 1799.137695 788.832947
882.717651 1716.932495 911.607056
883.622314 1798.246460 665.294922
1032.952515 1661.694580 870.644104
1259.929321 1691.285522 958.213867
1081.131714 1735.830444 690.470886
944.902405 1732.340332 948.726440
1269.887329 1811.858765 745.817078
1003.412781 1737.219849 712.875610
943.685913 1711.024292 928.016846
948.973328 1727.675049 825.390503
1161.398804 1669.000122 926.896606
905.431763 1711.162476 930.346191
1112.351685 1631.001465 853.120911
1238.125244 1736.520020 715.777893
1005.150757 1714.102905 778.063599
1174.717896 1696.994019 923.151978
1065.750000 1684.055054 792.297607
1220.673584 1661.859497 766.506897
1146.438232 1651.950928 918.873840
961.802979 1768.260132 718.675171
1102.169312 1649.858887 867.239807
988.469666 1665.485229 905.741394
1092.002319 1666.858154 812.384399
1232.461548 1641.813721 840.662231
1275.611328 1760.056030 899.025085
899.732239 1717.761475 962.587158
1277.365845 1769.597534 796.427063
1135.055542 1700.529053 618.904480
1032.370361 1725.365601 648.501160
1158.401489 1647.807861 937.234253
951.314941 1752.461670 688.859558
1279.812988 1695.958374 855.724365
1053.521240 1677.562622 826.606995
1146.760620 1658.921997 709.612366
881.771851 1719.173584 930.507568
1178.742310 1748.655640 886.944763
1020.678650 1688.955200 950.681519
1212.928833 1727.435791 586.805725
1275.494873 1756.015747 900.377991
1151.566284 1680.435669 971.816406
1167.010864 1651.026611 936.382629
1274.503906 1715.267944 861.052002
1142.968994 1650.535522 911.551270
902.868713 1728.127441 972.640381
1016.005676 1731.217285 663.836304
1224.698730 1646.998779 775.311096
1317.293335 1800.264282 887.943237
1023.075073 1731.544800 737.097839
1018.173523 1656.039063 899.147095
1304.841431 1932.081177 639.925293
1208.624756 1710.814575 933.531921
1127.400146 1703.274292 622.167969
1170.410767 1700.066040 593.829590
1017.372192 1692.623413 854.885620
913.743164 1715.040283 917.515076
1249.865845 1816.041138 614.708191
1243.227417 1714.968994 920.471191
1173.164917 1632.871948 985.970520
836.414917 1799.049805 958.150757
1201.682983 1630.624268 844.588074
1149.290283 1647.057251 929.188538
1071.386963 1721.439697 631.097961
1257.058350 1801.339844 656.719177
1079.935181 1707.741821 926.029358
1045.922485 1721.383423 931.817322
1282.657715 1749.724487 947.477234
1089.045898 1690.409058 905.205750
1119.863525 1658.014893 697.631226
1106.652222 1643.126343 807.592102
1297.455688 1745.473999 861.300537
1124.594482 1627.922729 796.862915
870.356995 1737.944458 966.453674
1210.649780 1679.420166 707.216980
1285.766357 1754.768677 943.981506
1077.626709 1712.530029 628.599121
861.227539 1745.582275 938.518066
1207.878662 1673.263672 854.745728
1073.916138 1708.197998 639.298828
1201.833984 1673.218140 664.264771
856.316467 1805.581055 698.355713
1185.718994 1642.722412 700.484253
1000.339722 1708.873047 952.409058
1166.037720 1632.732544 978.075745
856.755310 1755.807373 834.832581
1269.560913 1710.912109 959.466248
827.066284 1779.882202 842.425415
983.714905 1680.205322 933.922791
1284.568237 1692.996582 852.078369
889.577759 1759.534180 849.693604
961.260925 1716.539917 819.483521
1230.081787 1803.969849 635.601563
1095.843750 1742.042358 774.190308
984.719055 1671.911377 892.425781
810.206360 1797.000854 734.172119
1279.077637 1770.678345 811.465820
1051.413940 1709.022339 679.726929
1063.641357 1655.716919 852.369873
1191.172485 1758.218872 892.761230
873.460266 1722.161255 909.099915
1191.243774 1674.204346 649.052063
1203.346191 1629.857178 712.431885
1207.197266 1691.534180 571.644775
1029.875977 1737.388672 675.633118
1274.375000 1741.630127 824.465454
1116.181274 1665.414795 680.945740
1249.145874 1662.884277 855.030884
1238.964966 1772.723877 656.881165
945.687683 1709.324341 928.718994
1040.079956 1687.022217 835.359558
1060.055298 1653.280640 863.409485
1013.202271 1665.222656 918.585083
924.207214 1762.450195 717.427612
1275.945190 1651.173462 825.016235
1288.336060 1884.426025 655.960205
965.514832 1711.588867 830.131348
1085.944946 1704.564819 610.396912
1176.821045 1694.003784 871.571716
1187.391357 1626.960083 716.424194
1091.375610 1706.750244 633.817505
1266.621948 1656.090820 838.280518
977.121094 1683.348511 899.692932
1235.621582 1714.763306 774.192383
940.415771 1741.459717 973.801331
1162.214722 1638.423950 947.600037
877.332886 1719.931641 936.038635
1127.369751 1645.399902 715.372070
1085.389038 1675.285400 884.298828
1261.601196 1656.442139 841.213074
1174.169678 1613.918213 794.748047
1137.861816 1651.035034 935.112244
1016.666992 1739.099609 642.834900
875.473022 1733.814575 927.110168
1095.287598 1643.971680 868.266541
1058.394897 1654.019775 893.434692
819.755127 1764.477905 896.029846
990.607361 1723.668701 777.590393
1159.052612 1621.656982 796.030762
829.387207 1802.726685 724.215088
795.570618 1822.345825 710.700012
1044.267334 1709.600464 725.256592
1150.425171 1684.068970 607.900818
946.403015 1756.374878 730.383606
981.475952 1695.774780 927.671875
1204.936890 1727.395142 605.149841
1266.044678 1836.656372 663.646851
1284.349976 1763.834229 935.197998
807.741089 1761.052612 868.255737
1230.013428 1639.265259 840.268066
931.634033 1708.262207 929.786194
1281.156250 1727.503418 929.966980
854.535095 1775.831055 790.406799
1243.858887 1693.141846 946.037842
1006.764954 1738.029541 657.587708
968.232910 1687.349731 910.919678
1233.681519 1705.030762 726.622620
1096.017944 1661.375122 874.017334
1074.765991 1672.671631 789.056458
1002.803711 1678.279297 870.412415
1158.075073 1697.612427 593.775513
1197.732910 1673.595459 652.426147
852.926575 1810.260986 746.775330
1183.182129 1673.312622 574.354858
1159.638672 1644.428223 928.033813
1191.272583 1602.657959 786.886414
1306.240723 1904.207642 729.955627
1152.213379 1619.771729 806.911133
862.841125 1787.883545 703.647095
1069.183838 1711.713745 638.473511
1321.056885 1809.009399 889.567261
1086.656372 1649.910767 835.185974
895.624878 1762.674683 792.893005
979.017944 1759.312622 959.045776
1259.929443 1787.365234 709.381836
1025.386353 1713.539185 729.749329
930.210449 1706.618042 892.359253
1252.105957 1673.198853 854.069580
1269.404297 1809.198242 726.660522
1117.774292 1697.022705 622.852112
1267.043213 1705.675293 955.909973
869.798218 1769.269653 763.789185
1174.514771 1750.041504 894.165771
993.634583 1715.660645 776.894409
1202.121582 1633.457886 757.284851
1261.253784 1661.451172 839.001221
1225.123779 1699.858276 730.048523
1244.111694 1714.116821 896.053101
1265.033936 1719.458740 803.463745
1252.346558 1813.222412 631.734680
1116.858643 1663.783203 722.471924
1139.120850 1629.289795 1004.273560
1279.554932 1840.633301 704.684753
892.108643 1757.973877 811.438416
855.264221 1769.215942 791.297180
1112.461182 1661.675659 722.615723
1228.912354 1695.688354 721.388367
1245.026001 1760.638184 697.318237
1124.625122 1640.333740 742.906616
1142.659912 1628.134766 853.237732
1207.290527 1592.539429 817.207153
951.747192 1696.753418 885.264709
1153.036255 1718.184814 946.888306
943.270935 1775.579590 696.608826
1238.003296 1681.512451 780.553528
926.486755 1724.320923 959.367065
1105.763672 1644.320068 790.645752
1194.724609 1631.892700 846.739380
863.400452 1797.960205 670.200684
1209.597900 1664.518066 723.306885
1259.195190 1646.546509 829.216675
1239.971313 1699.708740 861.046936
1135.770020 1647.903076 725.139038
1219.212036 1720.085327 647.063782
1293.417847 1846.786743 800.093201
1306.398315 1743.119507 845.357605
947.201843 1691.811646 897.536499
1093.175781 1669.589478 740.009460
1188.077637 1668.914307 601.848572
1307.449097 1782.603149 884.391907
1153.529297 1623.131348 732.727966
1111.734985 1646.047363 797.968262
983.958740 1787.476929 983.061707
1207.470581 1649.626587 590.446533
1279.427002 1795.294434 898.940002
1151.334473 1625.936279 1000.849854
1199.500488 1704.358276 587.977600
1006.690918 1742.272461 650.861572
1253.712646 1777.110596 752.159729
917.616211 1750.823608 796.925476
1002.161804 1704.478149 830.019287
1084.726440 1690.359009 701.283020
1164.199219 1678.505005 592.457092
938.312317 1703.796875 884.655640
1171.353882 1650.016724 702.118896
866.197388 1776.476318 859.885742
1179.819702 1606.873779 832.999756
1228.059937 1692.778687 872.517517
878.756042 1713.573608 905.403076
1221.072876 1741.409180 647.442566
1131.295288 1677.403931 926.345398
1167.670288 1681.749268 868.909546
1282.137695 1744.850342 949.629211
1179.262207 1625.308716 796.907837
1092.860474 1695.140381 654.836487
786.460205 1824.129517 698.820374
1185.162231 1669.828491 972.536377
914.096375 1725.240479 945.998779
1070.793945 1666.833496 836.644958
1168.348511 1637.908691 705.211792
1222.215210 1704.018921 958.460388
1086.676758 1658.346924 872.015991
1228.748291 1735.091675 686.189087
1033.956665 1737.246948 626.317444
1156.970337 1628.926270 976.822510
1120.608276 1677.866089 650.214539
1129.253418 1641.287231 745.338196
886.138733 1773.551025 778.657776
1132.651733 1643.565552 732.282898
1063.710693 1705.152466 953.112732
1258.046997 1670.983521 849.659729
974.558838 1730.711304 762.778564
1142.081543 1667.063110 883.876160
1109.806030 1652.149414 795.873230
1227.768799 1718.249634 707.516174
1276.359253 1792.119019 764.523193
1025.535156 1731.060303 725.384338
877.824890 1796.356079 845.699036
1262.502319 1860.146118 620.967285
1098.958618 1710.346191 624.387329
1140.680054 1694.161987 584.880554
971.810547 1714.111084 834.042419
1252.694580 1658.737061 860.784973
1242.912720 1754.342285 694.861145
835.174744 1782.276245 961.796509
1256.014282 1836.238770 640.709839
1229.973999 1672.180420 757.453430
1211.775513 1658.311523 744.011902
1306.716431 1751.570557 859.683838
1171.728516 1681.431030 865.016357
1154.373169 1626.655884 734.579346
1313.003418 1841.815918 791.368103
1112.406006 1649.549683 795.657654
1072.208252 1699.071045 923.017212
1133.915039 1635.365723 785.842041
1191.213379 1626.953247 730.945862
1116.819458 1636.677368 838.691772
1203.772095 1753.111206 593.367920
1191.096191 1607.851807 780.779358
914.760803 1712.260498 921.070007
1137.964111 1709.605103 598.499268
1091.907837 1671.069946 732.978027
1180.474121 1636.187012 687.977539
1256.687134 1837.598511 612.182129
991.514160 1684.235352 871.085388
1180.864502 1731.877197 978.671997
1222.314941 1672.109375 734.622375
1082.694214 1697.859619 696.241638
1168.758667 1642.891968 671.261597
944.949158 1768.807617 659.816956
1163.651489 1663.640503 649.770264
1036.913696 1659.562134 873.987122
1070.970093 1721.488159 710.025330
1047.259277 1737.614502 692.395935
1185.546021 1644.292969 851.470093
1286.311646 1753.256226 947.306213
960.481445 1692.432983 886.473389
1180.013550 1671.102173 581.007568
983.135010 1718.142822 801.114319
1262.223389 1798.311035 716.642700
1195.040649 1690.081787 573.622192
1123.522827 1849.554688 929.800598
1203.161255 1605.447998 775.357361
1192.345581 1627.283447 769.823914
1264.954712 1865.214844 633.754761
1114.651367 1672.482300 701.450073
1121.214233 1629.484741 847.769775
1009.637512 1730.196045 705.231628
1136.461670 1655.761475 891.490356
1255.917480 1796.004639 660.155945
1086.050781 1661.010620 809.466492
1219.476196 1681.588013 859.632202
1116.405518 1680.339600 876.013733
1309.109375 1854.155762 794.153625
1117.747070 1659.642212 599.327271
1045.901855 1720.245728 718.896606
1250.926270 1712.267334 781.376282
1273.226440 1726.887817 863.559814
1252.563599 1805.242676 639.655212
1079.460449 1700.856934 666.435913
968.034180 1766.178589 647.516113
1168.214966 1619.422119 967.242615
909.793152 1758.783936 1005.284302
1256.951416 1779.896240 760.676819
1047.162964 1727.808716 936.858643
883.895874 1757.697632 789.062683
1135.562866 1667.587036 644.891296
922.244080 1730.805664 854.397400
1174.292358 1652.154663 894.641113
1106.013184 1641.403564 777.436401
969.110596 1745.575317 698.217773
944.940491 1752.642212 640.781677
1232.375610 1742.998291 670.098083
1233.405518 1717.546753 712.225769
1180.824341 1610.701050 827.244141
788.826904 1817.570679 764.482422
940.184570 1725.199951 847.730530
939.174377 1741.886841 793.024231
1238.943481 1711.632446 754.194275
913.127808 1713.083618 932.485596
933.532471 1750.718628 814.929688
886.849243 1742.544678 863.873901
873.472961 1734.844849 929.596436
1004.366638 1729.082642 766.163330
1162.771851 1623.309326 788.052429
921.153259 1774.017822 738.239563
961.664185 1707.596680 944.033081
948.176514 1717.275757 860.071960
909.786133 1710.535767 911.027893
1253.433472 1768.134766 718.865967
1270.149170 1823.680542 708.655518
960.167114 1686.934937 909.794922
819.253357 1802.402466 707.292297
1155.215942 1648.756470 910.824768
1148.844238 1682.307251 875.495667
1216.814087 1715.022217 651.302185
975.599060 1759.087646 647.481873
1134.707153 1678.484253 604.352722
1081.282471 1657.854370 883.108032
1086.990723 1658.053955 828.594421
988.531799 1768.754639 637.814392
1306.306274 1754.532715 868.275757
893.427734 1779.861572 690.104248
1006.883728 1689.626953 850.472290
1146.947144 1650.020752 682.441772
1011.422363 1697.437134 833.104797
1124.589600 1686.999146 598.346008
1091.468506 1695.716187 643.621826
983.693542 1729.491455 811.573608
1204.410034 1709.419556 676.366394
811.958496 1801.161743 730.715332
1170.389038 1605.938721 800.304138
1065.466309 1724.375732 678.295410
1139.665405 1676.498413 868.122925
1112.815674 1684.466675 625.438782
901.682251 1751.974121 785.091614
1052.746704 1711.093994 660.384399
1151.305420 1650.741943 670.297729
1261.811157 1794.894897 711.440613
1042.902710 1726.664307 719.632751
881.058533 1719.830200 917.874756
940.329956 1712.785889 862.372925
1136.104980 1629.052734 777.914063
1124.619385 1652.083252 703.732971
816.999146 1819.996582 784.468140
1185.576172 1622.091919 718.656982
1011.666382 1737.352173 694.292969
1203.797119 1698.738159 866.559814
1233.717529 1762.740601 651.613586
843.779236 1781.196899 800.223083
846.026672 1763.562378 861.342957
852.434570 1781.872559 779.048523
1143.755859 1667.013550 687.385193
954.726318 1705.888062 895.598511
1247.020508 1664.122070 840.292114
1152.834106 1660.305054 860.970215
1306.028687 1742.518555 848.820618
1266.208740 1743.122070 886.141418
1319.199707 1804.563477 888.747070
911.285217 1791.362549 775.914978
1221.593018 1634.364502 801.070740
1036.763306 1663.367310 889.926941
1226.499634 1610.053955 810.550720
1146.772827 1620.543335 808.473572
1301.057129 1751.148315 838.288025
1286.168945 1778.991821 889.195374
817.789124 1769.218994 870.075623
1120.759155 1731.693604 768.805542
1132.023193 1700.412231 599.219238
1063.822754 1667.396606 902.813599
999.598267 1699.397827 837.984131
1216.421997 1692.172852 978.261841
1000.313049 1722.398071 638.694092
1084.687378 1673.256592 715.138489
869.939026 1797.253662 686.334656
1142.040161 1683.487793 629.822266
1261.683105 1769.142822 755.174561
1123.919800 1671.105103 673.653870
959.435059 1767.940918 645.540222
1248.075684 1788.864380 667.153503
1194.836792 1636.342285 716.303467
965.843079 1738.551758 698.515137
1054.501099 1692.978760 783.184875
1214.674438 1704.058716 629.072327
1282.767090 1718.687012 865.642883
1165.034546 1660.799438 909.275146
1164.482422 1709.625732 879.519897
1022.104248 1691.715942 832.440247
1203.471069 1731.588745 632.368408
1128.842163 1633.189331 829.492920
891.037109 1786.394409 740.548157
1160.115112 1650.583252 914.181458
1208.604858 1668.856689 686.189758
1172.027222 1662.496216 875.994446
1257.155273 1797.256958 700.191345
1333.975830 1817.593872 861.396973
1244.188965 1698.363403 934.543457
959.961426 1704.148315 903.127747
1197.114746 1604.018433 784.421570
1219.561768 1650.456177 759.906677
954.208618 1732.753906 799.615784
1134.653320 1659.575684 924.237000
1141.566895 1677.805786 619.513733
874.198975 1723.829712 907.787109
1013.050598 1735.068481 659.714600
1176.519653 1629.485352 848.554016
1132.261963 1655.753540 693.301147
994.319702 1693.557617 909.309326
1074.012695 1667.704346 904.070984
1168.898560 1638.674194 759.950378
1269.861816 1848.863281 713.411865
1139.922852 1625.972534 842.759521
928.226379 1762.395264 692.131348
1090.803223 1760.041382 951.900818
993.297424 1670.332031 915.734131
1274.755493 1688.888794 840.572876
1207.744507 1629.405029 771.671570
1000.810425 1734.118896 758.286377
857.905334 1801.885986 697.755188
964.906860 1713.363403 921.411194
1135.827271 1639.744751 705.906616
1272.346558 1867.818481 619.775574
1179.412964 1687.129639 590.421509
1242.056396 1725.111694 884.961121
917.141907 1740.643433 827.781433
1297.887329 1839.996460 718.527039
1316.168457 1818.903809 831.356201
840.887939 1784.088379 796.095154
1147.076538 1640.463745 965.866821
1104.439209 1681.496094 885.446716
1164.409302 1691.587036 593.874512
1200.813232 1644.177002 680.090637
996.272705 1699.166992 842.877502
1254.484985 1650.800293 845.652100
976.378357 1719.600220 807.560181
1138.062744 1664.406372 661.129761
941.679993 1713.309326 907.093262
1117.049438 1664.267700 685.623535
1115.784668 1637.403320 850.123291
960.729309 1715.287231 953.543640
1051.940674 1655.039185 873.074463
1250.678101 1762.619385 717.761475
1077.230225 1646.941895 858.557129
912.702393 1760.309082 649.261108
1234.545166 1690.602783 859.320068
1237.889404 1725.165283 884.908264
831.900940 1794.272339 742.507019
813.008728 1800.460938 781.476746
1190.462158 1655.799072 642.801941
1292.843750 1906.292236 638.612976
1005.837402 1732.590698 939.873657
1052.550537 1701.608398 751.930481
1229.254517 1757.377319 654.880188
1006.987732 1672.886719 929.736328
1058.972656 1719.935913 756.956360
974.968445 1705.674072 851.104858
1118.334717 1665.955933 671.731689
1247.875977 1701.123779 768.309448
1009.494812 1709.006348 777.349182
1274.178955 1746.658569 917.381409
1159.757324 1637.850708 973.346802
1181.634521 1633.404663 1004.254761
1217.683838 1683.299927 714.344666
852.568848 1724.437012 957.046021
1022.983337 1692.893555 809.694214
1172.969482 1658.592529 641.421204
1237.922241 1676.242554 754.995361
1209.360596 1623.128540 797.164612
854.761230 1753.927734 954.084534
1047.639404 1721.232422 647.473572
1237.412476 1632.233887 816.900635
895.541138 1761.737061 836.662415
1171.019531 1712.997192 984.635864
1006.530396 1732.374390 653.820435
1299.099854 1867.834839 761.734924
921.069824 1710.881348 888.296692
1238.437988 1644.483276 831.145691
876.631958 1727.846436 977.181763
1218.135010 1687.089233 696.368713
1209.809204 1727.162598 583.307861
944.343567 1705.992798 916.925232
1028.927612 1660.328735 910.286133
1263.196045 1777.637329 765.675049
880.145874 1766.088501 835.213196
1241.690674 1658.400879 807.864319
1177.677246 1651.333252 988.651855
993.734192 1723.172363 740.835144
1057.218384 1656.097168 871.039429
991.685486 1742.542847 717.884155
1271.569946 1746.662109 808.913696
1030.129639 1727.350464 613.640503
1151.070435 1645.602661 977.530640
1266.321533 1654.681030 828.212952
1192.982422 1620.471924 816.717407
1114.600830 1663.583496 886.775879
1146.529419 1652.282959 681.731384
1163.738647 1717.349976 887.448608
1190.786255 1615.566406 732.163757
1294.809570 1897.999268 686.037842
1227.997070 1699.911133 943.739624
978.225647 1711.724487 811.834900
1297.580811 1842.682739 776.315002
1326.176270 1773.254883 866.298523
1215.491943 1661.063232 755.458313
921.026306 1748.758301 764.707336
1296.636230 1817.012207 808.475708
972.977539 1726.048096 947.507263
1252.371582 1802.681152 664.294128
1159.940063 1680.721558 900.432800
1120.402344 1639.290527 767.043640
1269.084839 1746.680542 894.588562
1178.060181 1603.440552 801.986145
1188.601440 1692.744019 578.780701
1255.346436 1740.458618 771.237427
1191.318115 1623.123901 768.163879
1142.731689 1641.620728 720.970703
1160.357910 1629.895996 990.214966
884.720581 1777.401245 708.887939
1179.164551 1679.685669 904.593262
1252.897095 1855.082153 652.369507
1312.473389 1861.291748 763.481262
1022.066040 1696.718872 930.239258
885.909790 1794.910278 739.062500
1252.010010 1773.704956 700.206787
1168.839111 1638.873779 749.154541
845.017761 1745.873535 942.441345
926.743286 1762.214111 685.811157
1031.715332 1700.175537 772.539856
1270.355103 1867.194214 647.324158
873.141663 1781.594116 697.874207
1134.895508 1653.590088 952.901550
1220.460083 1615.048950 824.849609
1061.564941 1688.027832 727.665527
1226.971558 1768.282715 630.608765
1257.588501 1737.287842 748.603882
962.131042 1744.924316 778.742065
1142.235596 1625.998413 975.268005
1248.097290 1731.502808 751.721069
1083.929932 1673.356812 676.395874
1172.473755 1672.263916 895.643311
1128.207397 1633.151123 849.014343
1097.985962 1646.110474 834.596313
1299.842529 1907.536133 665.162170
1244.648193 1640.427368 832.048706
1088.338013 1670.779053 897.212585
913.047180 1722.106812 868.451721
1255.799438 1692.682617 858.897705
1251.346680 1734.937622 887.603271
1276.155151 1796.616821 768.441772
971.472534 1707.009399 877.729309
1195.213989 1735.736572 592.214355
942.710938 1748.116211 691.308838
852.218079 1758.466919 954.994324
1269.521240 1767.901978 772.344849
1048.410767 1722.259888 610.143066
1275.367920 1749.687866 928.358154
1154.628174 1623.199585 854.975769
1184.408081 1676.676514 979.646790
918.861694 1696.140015 920.082458
1199.489990 1603.873657 822.308289
1120.581787 1633.217285 802.376099
1152.907593 1660.569824 864.891785
1266.726929 1652.094482 831.025085
1202.149170 1606.217407 833.500000
1166.838989 1658.799561 855.686646
1252.613403 1842.968506 616.997986
1004.017395 1673.628296 925.811401
1141.170044 1671.898804 666.272461
1142.568115 1623.212524 839.533752
1180.109497 1676.501343 956.829712
1287.611694 1757.376587 813.475464
831.593811 1748.359497 905.103210
814.114441 1771.872314 850.899414
1161.883789 1629.651245 976.915955
961.009827 1738.430664 715.809998
1003.942505 1689.220093 875.922668
1203.792114 1640.641357 757.694275
1060.688599 1734.869263 685.558594
1286.348877 1740.130859 864.705994
993.429199 1686.510132 861.686829
1055.291260 1691.680542 777.995667
1257.106079 1706.268921 877.535583
935.014343 1743.360474 761.685059
1112.846069 1667.089600 923.456055
1026.041382 1722.730103 664.755615
1123.089478 1646.558594 771.777710
1088.559692 1648.548462 836.623901
1221.852051 1729.315308 587.585510
1135.672485 1620.462646 989.528687
1108.577759 1682.702026 654.573364
968.507446 1747.332031 702.994934
1115.974365 1669.015503 899.778198
918.898010 1718.623779 980.223145
1033.127319 1681.092896 859.793701
1219.513062 1621.790283 795.476746
1070.650879 1699.313599 819.366150
887.322327 1719.526001 914.445068
1167.122681 1627.847290 713.278992
928.338928 1757.682739 755.405579
959.672913 1759.771606 663.088928
1121.990112 1672.950684 670.351379
950.352417 1707.068359 907.850647
1045.348389 1686.427612 795.554443
1112.436646 1644.343994 817.811707
798.662659 1815.696411 730.908142
1284.650757 1828.392212 754.501648
1275.780640 1843.526855 691.797363
1062.712158 1739.960693 946.301758
1024.497192 1705.267334 766.151184
1203.734863 1624.978027 839.605896
1138.352295 1643.587158 853.438477
1001.523926 1674.677490 916.283386
921.526733 1753.671265 755.950134
976.383789 1712.588257 934.566772
1181.701294 1686.427368 951.439575
949.730896 1742.755249 714.241638
1182.171509 1629.167725 1001.133179
865.847595 1738.091919 882.406311
1118.218262 1641.069092 751.913513
1024.944336 1744.845825 627.512756
1251.185059 1684.062622 948.722168
861.481323 1800.329224 732.943176
1312.437866 1926.853882 634.597656
1145.760986 1639.118896 965.615601
1253.081543 1698.680542 799.350830
841.451538 1762.061768 888.331970
1034.908936 1732.395630 666.771301
1177.599854 1660.049683 982.159119
816.969055 1791.099365 786.057190
1056.745361 1660.129883 870.503479
942.971436 1759.063965 642.311829
1062.479126 1657.853516 887.538879
970.304260 1688.543579 914.972534
1206.421997 1598.242798 803.449646
1249.307129 1693.566528 883.903748
1037.937866 1716.054688 631.648682
1217.052002 1643.574707 758.826111
1032.983276 1741.682495 631.437073
1119.286499 1631.637573 821.943909
1249.275391 1729.880249 731.000854
1153.929443 1662.403809 864.215393
1029.831787 1714.195313 708.685730
1285.730225 1901.418579 630.787537
1136.249146 1685.083374 591.028564
806.421265 1804.026978 762.528015
943.131836 1735.770874 789.514954
1276.678711 1728.416626 938.054199
884.038757 1776.738403 796.094482
1136.033936 1639.076904 780.952087
1107.943359 1653.994263 730.424011
1200.783813 1601.866089 762.008667
1151.409912 1670.992310 870.574341
1230.673340 1740.945679 683.708557
1134.307007 1659.938354 938.207886
960.081665 1728.755981 795.824280
1177.701050 1613.972168 769.454285
873.517883 1783.931885 806.644958
1279.845581 1825.578247 729.862915
1036.871948 1737.211182 636.280212
839.307739 1970.417358 732.283752
1221.803467 1695.175903 980.738953
1319.024658 1776.349854 859.662354
1171.733032 1642.255615 946.034851
1197.322144 1620.047607 735.380249
857.438049 1745.179443 941.439453
1157.965942 1611.735229 835.524841
1176.694336 1610.528198 828.707947
1129.611084 1664.961670 874.703064
1102.518677 1642.553833 866.709534
1317.036377 1707.743286 841.285522
979.421204 1721.110596 939.094666
1155.824951 1648.109375 914.477417
1020.504578 1677.776733 847.726685
931.344360 1774.095215 738.088257
1173.751465 1611.950684 785.439270
1150.035522 1626.294067 764.335693
1175.727295 1652.089844 691.840820
1099.399658 1703.321411 626.354492
1137.251831 1676.968384 630.439087
1021.330994 1691.741943 834.936218
1264.393311 1653.518066 837.729309
1107.649658 1633.360107 768.653809
1013.205383 1735.311279 685.649048
1118.099854 1639.604492 813.223694
1082.632690 1702.865967 710.843933
932.330505 1757.764282 737.854553
911.712463 1769.489624 680.212097
1273.583130 1739.048096 929.734680
1012.919006 1675.030273 892.645569
1302.335083 1890.978638 720.285828
920.926819 1736.463623 839.633240
1104.348755 1652.455200 806.345581
864.853333 1732.782227 903.468384
1056.775879 1660.775146 869.889282
1170.019043 1625.097778 992.233276
1016.363281 1707.431763 781.451904
946.362061 1767.276611 726.223938
1000.725952 1735.790161 754.095642
1287.751221 1860.537109 768.044312
1133.285767 1705.798828 917.385864
1158.385742 1637.824829 706.499634
804.468262 1774.532959 823.633484
1014.081543 1739.639526 678.645630
863.684814 1782.977051 741.163086
1223.000732 1691.156616 719.933838
905.571106 1778.345337 676.130005
1249.972534 1782.420044 602.839783
1243.018555 1819.645142 623.583984
1179.912231 1678.541748 940.869446
808.223450 1763.496216 867.321838
1272.500488 1738.661865 878.179077
878.243469 1802.578369 675.887634
1228.187744 1617.800659 826.794434
1020.538208 1680.638916 848.221252
925.705200 1710.584717 981.537476
1006.740601 1736.017090 731.028015
1072.145264 1719.098511 607.089050
1106.631592 1650.607178 778.227600
1006.117615 1731.658569 959.576721
1183.947998 1733.467407 881.234619
1149.362671 1619.066895 796.734131
1178.395386 1612.453003 768.767029
1217.815063 1637.657471 800.403076
1153.843018 1639.690796 961.722229
1078.470215 1696.247681 902.416016
1205.416138 1635.012207 777.762268
898.744934 1747.816895 870.685242
876.574097 1710.683716 912.724426
975.180054 1721.848511 787.580750
1131.267700 1666.190308 919.792480
951.495178 1726.685791 825.464233
836.685120 1814.292847 784.727173
1011.816223 1730.843262 740.987244
864.148499 1724.374756 940.491882
868.125916 1789.038452 794.924622
1310.585938 1898.758789 630.672974
1146.271362 1622.519409 769.776123
1204.067383 1605.898438 808.600220
1176.031006 1621.554932 792.524780
1085.407471 1675.178345 824.704468
1263.092041 1660.927368 842.990540
1067.380737 1718.451538 606.176147
1108.821533 1677.461426 668.120850
1203.307251 1636.417480 686.017395
1092.776489 1686.083618 677.926941
1175.101685 1640.848511 997.817505
845.941467 1755.303467 944.201111
1164.876831 1643.433716 737.140991
1204.739502 1668.557495 855.568787
1084.069580 1708.274536 925.411987
1090.495361 1677.098755 777.124023
1168.296997 1606.234619 808.370361
1227.766479 1715.443481 905.064453
1238.296021 1781.553223 602.233337
1269.702271 1717.601318 856.455994
1149.108643 1613.114624 794.211487
876.795959 1729.182129 972.438965
1196.879150 1651.661743 664.518066
1218.093140 1631.723145 785.302917
1273.913330 1761.749634 769.877930
1076.074463 1656.904419 839.513428
1258.469238 1687.361084 854.146912
1169.843994 1625.177246 811.034912
1188.066406 1647.684082 859.121277
1217.033081 1610.903564 817.899597
846.847900 1783.585693 790.883301
823.123047 1796.392944 730.015503
1266.779663 1722.967529 946.794006
1098.949585 1689.229492 892.791748
1029.385010 1669.868652 857.893311
964.036133 1752.578979 676.247742
1328.442383 1759.832886 852.677368
937.430237 1754.146973 762.551331
1270.231201 1835.613159 646.634583
1197.102539 1728.159180 602.358459
1171.770630 1613.722168 773.963318
1244.857666 1673.474121 806.788147
1210.997437 1684.768433 700.590698
1208.548462 1724.073242 666.696228
1161.176270 1631.728394 723.603271
999.569702 1745.803711 676.402527
1229.227905 1726.192383 913.050293
1148.786987 1620.960327 796.756287
1187.201660 1657.924927 630.899719
856.966492 1754.419067 862.267639
1285.609741 1776.056030 789.142151
1299.878906 1770.156128 837.110046
1196.798828 1706.730469 619.989075
1227.373535 1741.511963 671.555115
999.834412 1736.846924 717.487244
906.069885 1768.114502 792.757385
1157.936401 1639.531250 758.642761
1125.200684 1683.567627 893.516296
1049.991211 1679.505249 900.976196
1153.244141 1643.936646 721.977234
966.816772 1733.365845 800.539673
815.870972 1794.171997 800.518616
1184.576416 1615.908203 792.605042
1126.408325 1634.703125 723.989868
1144.396851 1644.206421 740.994324
1204.910889 1643.455933 739.856445
882.065735 1762.514404 773.270203
1233.163574 1687.071655 780.270264
1152.969971 1657.324585 931.084534
1298.982788 1834.769775 792.083496
1273.532593 1656.833374 844.934814
818.029419 1765.373779 940.505676
1336.273438 1801.899170 867.284302
829.783020 1782.740845 829.484741
977.798157 1734.176147 792.780273
1256.437378 1746.389648 784.391846
1182.706787 1623.633057 729.116394
978.711609 1715.094360 835.131714
1237.518555 1678.360962 750.988708
1133.913818 1620.968750 794.181335
1081.073486 1651.076660 868.167358
972.388611 1767.694092 708.405640
1047.614868 1656.628662 864.060120
1273.614014 1673.223389 835.069153
866.178528 1788.317139 672.524963
924.614197 1774.937744 672.973145
1053.027832 1656.811646 872.377197
1023.646423 1749.707031 971.222534
1173.037842 1630.257690 758.275879
1230.065796 1730.278076 687.648315
1103.455933 1649.592407 786.250244
955.805481 1711.484741 941.431091
961.754883 1692.602783 914.701111
1305.125244 1877.125854 713.308777
1040.734375 1656.622192 896.223206
1050.722168 1694.167236 925.460693
1299.295532 1748.267700 837.542358
1266.740967 1843.219604 709.182861
1148.282959 1630.025024 740.233093
1285.069214 1818.708740 768.842468
1160.212646 1646.465820 943.500000
1189.701538 1671.719849 990.708679
869.556335 1771.994141 983.379089
935.232178 1773.132568 772.519348
1148.210327 1691.930786 599.856689
1093.156738 1638.521240 857.447937
1124.396851 1699.678833 914.466431
1173.741089 1673.950928 624.350159
1130.703003 1631.422241 751.220093
1267.695190 1758.765259 792.450989
1115.275757 1660.194214 688.775391
946.937988 1792.656738 1000.338074
1067.077759 1703.600708 684.249512
1212.769165 1595.552368 797.559875
1017.409119 1706.168335 822.358398
1063.733521 1706.765625 660.691101
1228.171387 1708.859863 676.709595
1173.685669 1612.966797 999.417297
947.514282 1717.527344 868.648743
1046.958740 1679.652710 815.258240
1073.639160 1654.452515 873.881653
1010.263733 1691.539551 952.521851
1138.117188 1650.251831 938.692200
1091.906372 1693.321655 661.863342
1104.175293 1682.575073 663.839294
1107.004639 1690.103149 639.587036
873.147705 1742.907471 863.086182
1206.616943 1635.358887 846.904419
875.949341 1773.485474 777.364746
1223.296143 1744.760498 637.327271
878.840210 1724.350708 948.323364
1201.073120 1599.067139 821.082825
1257.504272 1730.168213 893.099670
1021.335327 1726.568481 656.238525
1183.059204 1639.027222 704.470886
1177.509766 1608.775757 798.512634
1204.276611 1626.076050 775.210022
1131.754150 1632.775269 806.406311
1330.166626 1764.625244 864.696655
933.709534 1752.544678 965.022949
1008.623352 1739.793457 629.260193
1196.695435 1645.704956 719.357178
1283.830078 1846.618408 713.542419
1203.805176 1692.140381 648.861267
908.390808 1737.439575 837.661194
1164.173218 1669.873169 925.414612
1263.918091 1712.207520 817.228027
1085.135620 1696.597778 897.816406
1290.974731 1880.266602 622.312378
1144.235840 1632.409912 736.186462
1213.309937 1610.528320 845.973145
1302.099976 1881.010132 739.423950
1214.624634 1618.024536 832.610657
1263.867798 1809.627319 706.327026
1070.302856 1705.852295 664.450317
989.740845 1709.370361 834.432434
1288.990601 1782.922607 790.699158
1290.898804 1804.946533 766.934753
1166.520264 1665.791748 617.927795
1142.895874 1643.399902 967.172974
1073.636719 1654.506470 844.283630
1233.857910 1625.311768 829.036011
1266.343506 1692.935181 851.944641
1136.583618 1662.066162 907.465942
904.489441 1770.538330 728.052246
1184.178955 1659.951294 632.011963
1258.256958 1825.817017 613.572571
1194.050659 1716.968994 875.535034
1214.263062 1698.396240 665.767761
1125.390015 1635.048706 784.474670
970.965820 1741.236694 676.525818
1056.668091 1650.491333 883.813904
940.918762 1712.617676 873.281982
1150.666748 1668.286133 860.203674
846.601318 1745.712036 967.564148
1211.946777 1722.400879 644.582031
1184.791992 1606.726807 811.291748
992.254150 1740.037720 713.213562
905.648865 1761.297363 711.377808
1206.704956 1657.676758 668.089355
1198.142578 1697.137939 608.273132
1151.528809 1692.691284 585.753052
839.557495 1790.612427 743.389038
1199.889404 1711.440186 585.148865
1146.154541 1623.817383 765.993652
891.525208 1961.463135 929.679199
931.238342 1764.166016 731.670837
1191.871460 1710.488159 603.200195
1064.896729 1722.047607 626.211182
845.055969 1761.078979 855.045227
