ply
format ascii 1.0
element vertex 1330
property float x
property float y
property float z
end_header
1459.563843 693.371338 -1410.951904
1691.039795 538.476807 -1339.206177
1510.620117 685.030823 -1377.002197
1466.655884 435.217987 -1450.496216
1605.435791 732.637512 -1371.077881
1413.997070 630.675293 -1479.478760
1647.619751 438.488647 -1293.726563
1648.090332 669.520447 -1270.027588
1662.369995 692.778748 -1348.606689
1587.004761 421.470215 -1351.687744
1558.015625 702.801880 -1379.534058
1544.432861 562.339722 -1361.083496
1702.697021 436.597198 -1372.022095
1346.164307 696.362915 -1528.422119
1415.596313 706.536438 -1473.640625
1637.362305 543.603760 -1270.774292
1387.161133 653.843140 -1475.588623
1693.895752 618.403870 -1347.623657
1806.664063 614.585083 -1462.977905
1404.772827 675.053528 -1450.083252
1727.756104 541.285278 -1378.244019
1579.228516 679.180786 -1325.636841
1588.827637 658.956543 -1298.274048
1686.351685 429.530945 -1354.216553
1723.296875 523.006897 -1371.896118
1426.748779 570.195007 -1491.524658
1655.574829 489.819824 -1300.170776
1444.846436 675.918274 -1424.299438
1733.840576 456.451538 -1377.474487
1657.443604 491.217133 -1297.283203
1646.249146 559.679993 -1294.791382
1614.796387 531.486816 -1282.613159
1346.085938 668.815735 -1629.067017
1316.736938 588.697388 -1576.713623
1472.554443 608.347290 -1437.407837
1679.978149 509.624786 -1332.134766
1687.045654 720.707458 -1382.717529
1615.019043 684.253357 -1352.338257
1562.963501 511.231018 -1411.855347
1367.125488 456.166870 -1536.003174
1578.472534 556.762024 -1307.688599
1347.833618 477.991943 -1574.741089
1774.377563 429.049408 -1430.884155
1603.377197 550.775879 -1292.926270
1700.125854 476.125763 -1346.007935
1524.147827 425.257050 -1405.094727
1604.212524 466.640778 -1311.982178
1788.922729 495.819763 -1447.970337
1332.001953 611.299744 -1564.660278
1632.054077 444.513458 -1295.135742
1540.341675 658.385376 -1348.249390
1720.482788 555.774353 -1357.679932
1480.225830 598.041687 -1425.301147
1595.288574 690.570862 -1387.036743
1688.994629 785.576111 -1397.386841
1626.085693 479.461304 -1294.521606
1563.783447 671.756409 -1337.668579
1725.063110 767.385010 -1402.673706
1727.915894 473.540588 -1377.931152
1697.133057 667.000793 -1312.306152
1672.601563 620.830200 -1321.758545
1454.351807 474.859467 -1466.663818
1409.616089 550.121521 -1499.997192
1679.829346 702.511780 -1339.559082
1507.250610 515.746155 -1428.291748
1613.533447 617.466003 -1295.987427
1465.160889 718.384949 -1502.286621
1360.075928 694.616760 -1512.958252
1561.982178 678.159302 -1355.618774
1329.622314 663.375244 -1548.220825
1610.673706 673.016052 -1292.705200
1674.655273 606.201965 -1325.777588
1672.985718 590.597107 -1325.276367
1368.032349 425.056244 -1542.791626
1384.205811 503.714020 -1527.097900
1513.003052 508.961456 -1427.725708
1759.988281 708.633911 -1474.887329
1578.783813 607.131897 -1300.576782
1457.200928 507.515869 -1448.436157
1431.404053 453.316742 -1476.165649
1554.302734 573.539246 -1372.332275
1447.969360 537.762329 -1464.940796
1730.747925 424.991669 -1352.802979
1566.888428 419.491364 -1370.477051
1379.378784 746.790955 -1576.470093
1633.938843 504.888916 -1278.837280
1352.155396 529.328735 -1539.939941
1615.929077 592.428894 -1289.832642
1320.518311 670.628418 -1543.167725
1743.230957 452.313324 -1397.521729
1610.959229 785.917480 -1385.755981
1510.870850 702.735962 -1403.803345
1554.999268 592.603943 -1335.272217
1672.389893 525.990540 -1321.039307
1487.110474 572.031677 -1422.873535
1679.148804 700.494568 -1337.959839
1620.212158 652.911865 -1277.161255
1508.557007 653.581787 -1375.848877
1656.728271 787.238770 -1399.730591
1553.286499 459.957153 -1370.396851
1329.358765 549.092102 -1544.322266
1436.386230 452.105347 -1489.793701
1640.129272 448.823242 -1295.113037
1419.259644 508.961212 -1509.631958
1625.349487 681.416992 -1337.374634
1389.973877 664.312012 -1478.089111
1656.664795 800.687195 -1394.824707
1540.110962 780.229065 -1394.203735
1580.335205 569.494446 -1322.186768
1487.852539 479.453766 -1436.159790
1453.542358 565.597351 -1456.615967
1601.698608 616.541382 -1278.078979
1651.240601 632.279053 -1297.648926
1699.968018 581.856201 -1353.042603
1326.730957 638.272339 -1536.719238
1804.287598 557.146301 -1478.073975
1659.698853 675.878296 -1292.478516
1347.953369 684.797974 -1528.678711
1485.253296 689.954773 -1406.552490
1431.335327 565.775208 -1484.538818
1617.092529 647.079712 -1269.875366
1374.962158 413.040466 -1525.527588
1511.966064 495.366394 -1428.432617
1423.477783 657.245544 -1449.121704
1616.056763 676.686890 -1309.993164
1565.463501 432.035858 -1361.956909
1366.693970 521.747986 -1538.711060
1616.034668 698.487366 -1403.168823
1391.998535 739.703918 -1539.377808
1596.458618 639.403748 -1291.493164
1439.948364 534.489929 -1473.478760
1579.702637 664.224487 -1311.780151
1579.601929 777.666626 -1386.879517
1589.649414 696.625061 -1384.316772
1767.341064 540.077454 -1424.288086
1530.765625 427.886902 -1399.653442
1675.785034 715.833191 -1391.910889
1537.764648 638.839111 -1352.751953
1755.861450 706.848633 -1415.604858
1546.341919 613.215149 -1347.206543
1584.856445 797.045288 -1396.537720
1630.787231 494.651031 -1291.502197
1310.124268 545.096252 -1582.431641
1713.546387 468.532166 -1365.272095
1640.152344 425.041138 -1298.707642
1768.721802 493.055267 -1423.561279
1497.175293 635.585510 -1394.511108
1384.229614 656.577515 -1485.360352
1602.946533 490.565979 -1320.753052
1361.411377 525.587463 -1532.856323
1335.932251 702.201233 -1540.583008
1534.490723 483.486633 -1382.257935
1568.877441 684.513245 -1363.352783
1459.238647 635.579773 -1443.309814
1453.148560 585.817383 -1451.753906
1737.396240 752.856018 -1435.638916
1400.838501 449.732269 -1522.866455
1503.126587 478.362457 -1429.016724
1729.224243 731.081421 -1410.188110
1447.401855 725.206116 -1455.263794
1429.570313 667.367126 -1445.682007
1664.052002 488.529572 -1315.166016
1452.961304 596.768860 -1448.432007
1454.899536 712.396790 -1427.587769
1498.917358 707.952576 -1402.295044
1719.918701 459.486053 -1369.049683
1394.197510 559.013062 -1518.487915
1737.728027 419.900482 -1378.584473
1338.327148 601.767700 -1541.265137
1541.947754 435.838226 -1389.058960
1487.351196 701.727234 -1395.775146
1741.959351 632.389893 -1394.232178
1656.274536 578.573242 -1303.744141
1482.014648 651.013245 -1405.750122
1570.131958 668.062561 -1318.794434
1645.017212 411.320404 -1293.971924
1622.328979 483.431122 -1289.647461
1694.715332 578.053040 -1342.963135
1472.034912 484.493256 -1434.144531
1425.094116 730.622314 -1525.119263
1665.815186 699.936768 -1339.558716
1368.479858 678.655457 -1506.488525
1319.248779 683.236938 -1561.528198
1345.939697 584.261963 -1550.864502
1698.443481 694.494263 -1321.784424
1574.456421 587.454163 -1308.979858
1467.683350 676.776306 -1416.623047
1525.303467 623.106506 -1387.980347
1409.750488 705.038208 -1495.197388
1590.896973 441.276276 -1351.631836
1626.635132 692.726013 -1318.708252
1545.158691 721.513794 -1438.183716
1606.853638 690.682556 -1343.376831
1507.010986 479.502319 -1426.724121
1492.404663 409.769745 -1428.830322
1497.858032 721.021729 -1446.121460
1486.201660 737.439819 -1479.823364
1421.026611 691.541809 -1491.682129
1564.127319 701.686218 -1375.185425
1835.246704 498.588348 -1496.180542
1784.301147 511.112549 -1427.178223
1462.775635 675.297729 -1415.034546
1761.549805 551.141235 -1414.805176
1543.158813 564.274780 -1328.093262
1367.380005 541.061157 -1560.767700
1768.746094 697.496216 -1436.057495
1401.242554 732.074036 -1528.177856
1383.279785 412.610840 -1510.138672
1492.008057 448.063171 -1421.863647
1488.546387 570.697937 -1420.948486
1610.960205 653.331543 -1297.356812
1504.871948 510.386932 -1421.206787
1594.829956 543.679993 -1313.001465
1727.282715 600.289734 -1386.954712
1353.058716 514.319458 -1576.941650
1649.083862 632.477478 -1313.973999
1692.688965 757.913391 -1398.095459
1549.095581 637.837463 -1339.402100
1669.904663 420.720673 -1316.341675
1552.530396 498.705475 -1371.172974
1351.519287 537.567932 -1539.544434
1555.173584 533.795349 -1335.761719
1655.790039 613.596802 -1311.012085
1487.661621 630.474487 -1420.309692
1793.546387 620.052917 -1454.808960
1688.190674 518.230042 -1342.589966
1744.470093 545.991882 -1394.986084
1399.043213 649.288208 -1501.964478
1642.217285 629.814392 -1289.803467
1649.042480 734.354919 -1405.834961
1577.417480 711.083252 -1387.260498
1646.861694 407.757843 -1308.089233
1607.631958 574.520508 -1303.606445
1636.085205 515.850281 -1298.897461
1438.909668 496.773102 -1481.416992
1355.821533 483.744110 -1552.376709
1686.808594 547.955200 -1340.922119
1587.623901 686.573914 -1379.321411
1599.541870 666.582397 -1291.912231
1677.798096 493.729797 -1325.119873
1494.872559 676.365479 -1393.953735
1352.630249 429.245544 -1554.851440
1536.130615 424.332306 -1396.521606
1516.249878 484.624817 -1423.125610
1610.727051 695.829529 -1377.025024
1348.428955 428.781830 -1557.578979
1533.496582 652.438293 -1355.185181
1343.801147 696.026611 -1549.678345
1602.802490 475.130768 -1326.850342
1469.223755 715.152710 -1438.073364
1400.645020 740.691162 -1547.096924
1679.280640 490.249268 -1326.751831
1544.272095 663.427307 -1337.888550
1800.768188 523.431946 -1456.722900
1392.788818 453.211670 -1506.561768
1806.975342 639.488464 -1447.632324
1564.082031 766.059692 -1362.917480
1423.780640 685.250793 -1449.897583
1743.705688 570.882996 -1394.244141
1575.245850 519.624023 -1317.553345
1478.359009 638.071899 -1421.564453
1363.191284 642.392639 -1499.602783
1366.906494 575.617126 -1543.453979
1512.680420 533.987000 -1403.696655
1468.943604 492.336121 -1437.188599
1355.106934 462.561646 -1544.900146
1463.622192 423.858521 -1468.817139
1688.132568 597.242737 -1339.104980
1802.842773 549.147095 -1460.572021
1421.890137 627.519287 -1473.050659
1536.642090 636.080994 -1350.885254
1548.587769 679.985901 -1386.331909
1412.580688 685.381531 -1468.857422
1487.355835 724.969421 -1492.079224
1322.269775 692.573486 -1582.881958
1346.503418 462.626404 -1551.348022
1412.992798 710.218506 -1507.327637
1469.868896 713.512024 -1415.226807
1479.345581 628.391479 -1420.044556
1434.540161 701.369507 -1425.083374
1356.105103 687.696472 -1528.484741
1730.074219 425.051086 -1376.414063
1574.865234 821.797485 -1359.311279
1533.759766 685.869934 -1381.209961
1483.032715 437.391693 -1449.954712
1624.674561 460.404419 -1296.824829
1373.508789 700.267822 -1527.863281
1659.400635 790.805908 -1414.384888
1799.994873 545.769897 -1454.807373
1601.546997 446.008636 -1318.505981
1710.037109 417.714478 -1374.066895
1420.647827 665.849060 -1450.330933
1611.706421 432.671478 -1315.410156
1691.516968 694.604675 -1375.916748
1744.035767 656.969788 -1380.767456
1583.117798 627.440979 -1315.210815
1475.955933 487.963013 -1448.325562
1379.436890 690.221069 -1507.701172
1543.485962 622.407104 -1342.372437
1818.255493 516.149414 -1475.645752
1495.375366 670.294617 -1380.872925
1441.012939 450.290253 -1478.304077
1634.253540 536.162170 -1295.720215
1481.265259 485.143463 -1435.841187
1675.754150 518.462036 -1328.162964
1508.924194 708.940247 -1409.186279
1530.073975 413.271515 -1398.171875
1476.989746 702.308655 -1422.739868
1569.152954 480.996063 -1339.433716
1639.370605 489.657959 -1281.943726
1716.624512 464.765076 -1359.040771
1352.173828 669.101135 -1513.236450
1510.414673 693.188904 -1384.295776
1478.536011 696.529907 -1415.180054
1506.002441 472.102325 -1436.453979
1602.895630 619.660034 -1281.196045
1417.237549 438.833649 -1509.760620
1382.249512 562.345398 -1522.519775
1623.128906 646.250183 -1290.251953
1697.650635 596.164856 -1349.121460
1545.956543 600.910828 -1333.329468
1540.518433 544.111206 -1352.467407
1462.517944 509.322479 -1468.314331
1614.243896 566.242188 -1276.532837
1729.276367 466.568237 -1395.852539
1456.868164 515.911377 -1460.530518
1709.742188 420.487549 -1377.585083
1500.171875 425.603912 -1362.098022
1526.507568 631.348389 -1372.262573
1646.931396 776.572510 -1433.955688
1758.628540 710.373230 -1488.533813
1347.657593 622.819275 -1526.930298
1626.281128 476.924713 -1284.000732
1804.874146 446.388489 -1468.166626
1706.312500 778.354919 -1397.524536
1664.123169 762.974243 -1390.631836
1488.763428 505.898254 -1433.675293
1739.621582 579.232239 -1392.573608
1389.580444 712.946167 -1518.629028
1520.614014 486.611176 -1413.000366
1609.803589 448.563934 -1312.861816
1813.880371 596.112061 -1471.828247
1527.572388 633.712585 -1376.276855
1454.497559 668.902954 -1416.239258
1407.123657 658.936707 -1493.138672
1587.536499 704.377502 -1363.614746
1537.248169 723.595520 -1448.931152
1612.721191 721.402588 -1416.435425
1703.955200 419.147705 -1349.998779
1741.295166 566.014282 -1393.362427
1387.508545 677.655579 -1487.726685
1557.467041 523.922668 -1344.780151
1338.918213 524.087280 -1563.299438
1598.072632 525.429993 -1297.889282
1541.676514 436.418243 -1378.144287
1545.974731 740.700256 -1393.253296
1608.964355 409.265961 -1343.339966
1397.743286 717.751465 -1504.226440
1595.350220 807.622864 -1374.863892
1480.143433 511.090088 -1448.363525
1691.560547 721.633545 -1390.192139
1516.202026 540.877991 -1404.445190
1492.081299 476.267059 -1432.821289
1761.779541 559.765137 -1414.196289
1751.836060 571.269409 -1414.235596
1387.233398 719.670410 -1515.738403
1361.317993 667.353210 -1504.962036
1536.418823 544.740601 -1409.392090
1577.110718 776.801880 -1353.763672
1657.841675 419.012360 -1333.856323
1631.683716 666.423279 -1288.580566
1363.390503 615.460999 -1516.470459
1410.751709 738.168335 -1555.041748
1553.224365 514.338257 -1362.417358
1728.025024 572.563660 -1382.420044
1476.642822 622.838562 -1424.292969
1732.737061 666.813232 -1355.792236
1396.938843 739.939575 -1521.170166
1438.903076 686.109253 -1434.259888
1735.943604 449.365936 -1375.776978
1609.427612 645.015320 -1277.957886
1688.234375 585.276917 -1327.354126
1551.985229 580.899963 -1341.613525
1493.681152 702.740723 -1407.106567
1579.357544 585.281128 -1307.605225
1721.251953 465.805389 -1371.709229
1578.816162 647.721741 -1298.282593
1579.502441 654.125610 -1306.764648
1709.666138 504.109711 -1362.042725
1446.558472 486.895874 -1481.119385
1586.846191 614.627380 -1291.929321
1472.748413 657.287781 -1424.157349
1625.736084 565.168152 -1287.802734
1670.769043 530.428101 -1313.875000
1455.987427 640.052002 -1442.039307
1449.617065 601.249329 -1450.109009
1494.430298 424.442932 -1435.068359
1738.491089 421.407349 -1385.516479
1503.632202 742.280457 -1442.216675
1735.815308 721.044067 -1416.999146
1693.743164 513.962830 -1338.173584
1748.928101 631.951660 -1401.305420
1715.519409 636.738281 -1365.375366
1444.620850 592.362793 -1462.337280
1565.362671 609.489441 -1315.888672
1339.164673 448.335052 -1560.286743
1340.755127 614.156738 -1555.396240
1345.273926 441.099884 -1569.780640
1601.164917 666.497192 -1289.549316
1387.694092 473.733917 -1594.447021
1335.867798 630.045288 -1540.609741
1763.724121 703.922974 -1397.841553
1662.967896 443.348572 -1309.128662
1490.500732 504.573578 -1438.692261
1566.426880 714.015503 -1394.280273
1324.263184 668.406555 -1535.945557
1655.894775 538.807556 -1303.267578
1566.943115 574.861633 -1326.681763
1780.132568 486.407104 -1432.769897
1421.689697 710.034790 -1495.503784
1468.095703 575.538147 -1451.718018
1781.906128 530.028503 -1455.831055
1668.526611 597.560425 -1297.939819
1460.432129 604.372925 -1464.263428
1571.281494 768.558044 -1366.406250
1576.518677 670.864136 -1302.113770
1626.851807 538.010986 -1296.710083
1494.760010 543.428467 -1428.379272
1388.294434 524.341614 -1522.550415
1432.233276 677.081543 -1459.347656
1427.686768 702.908936 -1442.386841
1354.836914 716.543457 -1622.965820
1401.331177 727.223022 -1519.441650
1591.736206 451.764648 -1322.070435
1550.526611 551.166992 -1345.246826
1723.204346 755.780945 -1404.803345
1450.612427 580.147522 -1448.527588
1740.946655 708.627014 -1345.781738
1612.846680 583.945618 -1278.379883
1608.336914 469.110504 -1324.729492
1468.543457 584.282776 -1435.402100
1853.569214 455.652313 -1503.589844
1641.648804 768.143738 -1405.589111
1432.113281 571.205627 -1485.946777
1729.177979 594.617432 -1396.484009
1378.264282 604.513550 -1668.402466
1672.587036 469.222015 -1319.460327
1726.002075 713.182800 -1381.405273
1462.367432 729.509949 -1433.527588
1727.758301 766.827820 -1408.995850
1464.635864 621.522461 -1438.708862
1436.080811 425.258087 -1411.901978
1469.483032 478.157776 -1452.300415
1540.859863 676.510498 -1374.689941
1593.922485 797.998962 -1373.443604
1568.836426 720.053162 -1364.940796
1602.632080 493.423553 -1305.522095
1598.660400 477.763123 -1307.004272
1616.332520 713.170227 -1576.044312
1397.660767 683.112427 -1485.088501
1813.286499 555.370789 -1473.460571
1575.061401 515.315979 -1319.201660
1416.178101 415.957672 -1511.434692
1601.555542 522.372375 -1293.737305
1672.777222 488.368225 -1324.546875
1822.425171 507.488068 -1480.217773
1692.322144 706.996216 -1406.149292
1441.886108 610.288452 -1478.245972
1354.224243 516.117737 -1549.278198
1666.010254 667.052429 -1300.700562
1737.918213 520.416138 -1390.648315
1439.009888 533.074707 -1476.444580
1776.840698 681.609131 -1404.730103
1376.656128 635.499084 -1660.467529
1733.511963 526.772278 -1391.608887
1607.335327 800.863831 -1426.701294
1720.647217 773.322754 -1401.190552
1692.475342 738.149475 -1394.951782
1405.039063 602.098938 -1691.307861
1632.152100 662.938416 -1288.618286
1575.012329 465.857544 -1339.048218
1598.979736 573.013611 -1299.145752
1549.552368 557.053284 -1330.816406
1760.903809 579.017212 -1416.854492
1663.253174 577.339783 -1306.366089
1557.442505 537.348938 -1380.036865
1593.643555 618.520081 -1288.233398
1788.936401 643.311768 -1444.322388
1443.367554 658.021912 -1438.242188
1577.995361 835.808044 -1359.225586
1362.895996 755.823975 -1578.228394
1769.132935 464.159332 -1423.972656
1554.953369 748.088074 -1397.336670
1625.065552 642.381348 -1261.715576
1559.298340 640.462280 -1322.797363
1393.267944 600.075623 -1503.670532
1425.192261 678.128967 -1447.464722
1691.932373 597.532898 -1337.286865
1487.798340 725.210999 -1487.923462
1766.083862 697.057678 -1433.237427
1503.468994 703.714050 -1391.163208
1756.694946 526.128296 -1418.910522
1650.856079 624.368408 -1294.598999
1471.991333 674.275391 -1403.451782
1460.890991 707.102478 -1426.896851
1712.030273 665.493347 -1328.525757
1554.411987 514.725220 -1397.509277
1586.934570 408.492126 -1360.223633
1413.802979 476.821899 -1501.399292
1674.060669 559.052124 -1326.205322
1545.598877 646.022339 -1329.792603
1700.627930 698.558350 -1387.102295
1669.482910 631.648743 -1317.875244
1387.224609 761.356323 -1541.804199
1747.015137 439.997803 -1401.932251
1773.441040 526.714600 -1425.476196
1565.929199 803.321472 -1371.866943
1599.050171 572.520935 -1283.027222
1547.247314 456.970062 -1376.052979
1340.633423 739.343933 -1566.440552
1527.056885 747.262390 -1461.446167
1393.978882 572.864990 -1509.381470
1664.220337 758.897644 -1411.832031
1734.313843 532.707825 -1385.906006
1744.235474 438.971008 -1417.244629
1733.897339 636.876892 -1374.973633
1541.090698 798.663086 -1384.310547
1681.201294 663.229248 -1297.494141
1616.107666 685.439880 -1371.751709
1327.621216 715.623657 -1572.340088
1481.861206 512.190735 -1442.020752
1561.815063 817.762817 -1369.083984
1588.455078 571.628662 -1307.890869
1759.068237 559.545288 -1411.358521
1454.973999 689.085632 -1430.928467
1522.615723 527.352966 -1387.676880
1758.221069 647.263855 -1411.999023
1405.238403 660.124329 -1697.867798
1420.887573 441.608276 -1494.500122
1561.554565 499.298401 -1347.723877
1495.699463 409.415619 -1415.116821
1366.691528 652.881714 -1494.415894
1351.597900 721.838806 -1530.350586
1368.702393 530.443115 -1533.936279
1572.438354 615.811096 -1310.150757
1716.160522 688.196899 -1349.057373
1494.648193 488.977112 -1432.396118
1735.546143 455.015045 -1387.504883
1788.812622 586.118225 -1444.192749
1654.904053 691.231628 -1385.609375
1418.675903 695.264099 -1476.352905
1488.525879 641.383423 -1404.211670
1532.673950 467.166809 -1388.750488
1463.006470 446.281799 -1450.089844
1352.200562 721.387512 -1533.745361
1430.260254 713.691040 -1448.648560
1356.611328 667.304871 -1506.158203
1592.700562 706.701721 -1370.992065
1787.725586 522.019836 -1447.846313
1581.703247 643.344971 -1315.978638
1320.972412 685.070190 -1563.375488
1822.402832 452.509369 -1486.549805
1379.203369 637.091370 -1509.360107
1687.250488 443.139771 -1339.968872
1472.069214 514.499390 -1452.610229
1543.961060 421.547211 -1389.758911
1479.732178 564.513123 -1432.367432
1418.142090 450.796600 -1486.303101
1685.231812 789.347290 -1386.875366
1460.242432 535.042297 -1451.517090
1740.589722 691.067871 -1351.610107
1605.423340 712.396912 -1400.623169
1679.767822 411.938690 -1297.267578
1695.532227 700.155701 -1386.914429
1428.291138 461.907318 -1470.241821
1487.801147 462.557007 -1433.968140
1719.225830 419.757263 -1366.747559
1556.604858 513.959167 -1340.070679
1615.553101 681.953613 -1317.703979
1643.735596 650.492065 -1274.117554
1458.313354 515.958130 -1453.700684
1571.229980 685.299011 -1330.234497
1538.064941 578.319824 -1373.010986
1730.587158 572.790283 -1384.965454
1421.984863 706.750549 -1455.613647
1375.088135 733.478760 -1520.222046
1708.467773 610.954346 -1360.161987
1776.860962 693.543762 -1424.002930
1554.983398 563.328125 -1347.794800
1689.065186 569.648376 -1341.547363
1603.532593 634.729065 -1285.139771
1512.379028 459.480133 -1409.205200
1350.045410 554.018311 -1538.494995
1351.112793 667.939941 -1500.732422
1616.361938 521.758972 -1279.225098
1582.267944 429.743530 -1359.944092
1551.443726 756.524353 -1382.042114
1609.792969 670.322205 -1299.566284
1572.719238 635.457886 -1315.653931
1493.876099 627.207825 -1415.793579
1577.982422 514.727051 -1321.309570
1539.014648 430.403381 -1374.180176
1540.313232 647.029968 -1348.629517
1630.361938 566.612671 -1293.524170
1610.509766 609.240112 -1282.249268
1412.624146 696.826782 -1480.933594
1736.131348 748.558899 -1423.136108
1606.807373 496.941925 -1296.518188
1564.087158 744.240173 -1387.946411
1439.103760 747.171204 -1573.268677
1605.527222 449.447449 -1313.539429
1816.289429 493.430847 -1476.666748
1333.216553 481.192169 -1569.287598
1497.984253 678.664795 -1390.825562
1598.768555 471.034302 -1315.944580
1484.954590 417.135254 -1436.207275
1426.939209 724.172119 -1714.010010
1332.505859 607.894470 -1615.015625
1725.181885 447.082184 -1378.890503
1504.238281 427.192261 -1421.104370
1436.194458 701.156921 -1443.148193
1486.682007 447.462006 -1427.317627
1404.048218 432.328644 -1511.270752
1372.475220 608.876892 -1532.946533
1578.252808 606.170776 -1298.303467
1591.660278 805.298035 -1374.174072
1648.353760 424.494293 -1287.094604
1765.032104 615.199463 -1416.810059
1683.894165 721.957397 -1382.380249
1653.176636 425.891235 -1318.187134
1492.696289 659.670044 -1389.841675
1485.163818 506.641937 -1443.886963
1576.408203 775.237915 -1381.257690
1477.068115 470.616760 -1463.373169
1452.987305 557.425964 -1452.545532
1704.857788 608.672485 -1357.946533
1449.474731 721.721985 -1457.881226
1624.359131 412.343628 -1296.219482
1340.678467 683.090820 -1530.593384
1675.881592 747.474182 -1396.004272
1418.194580 664.727600 -1455.867310
1528.116577 574.695984 -1393.706909
1619.829834 616.194214 -1290.218262
1326.508911 629.124451 -1549.003174
1573.395386 665.892700 -1309.396362
1574.470337 464.965332 -1351.685303
1756.112549 551.407043 -1397.744873
1671.802124 774.217712 -1386.960083
1419.229492 679.495544 -1444.214478
1419.535522 422.209229 -1522.388672
1369.796021 682.773315 -1507.942017
1361.097168 680.333679 -1511.682617
1340.204834 559.657959 -1553.631592
1524.538452 621.405701 -1361.906738
1728.763916 699.587463 -1407.601318
1751.145874 529.916199 -1420.275146
1595.456055 635.427246 -1293.659546
1609.344360 602.592712 -1280.088745
1707.261719 424.290466 -1347.059814
1497.723145 662.844482 -1383.520020
1392.476685 561.129272 -1512.977905
1739.898315 725.856506 -1427.648560
1576.544434 660.847351 -1301.930420
1737.162476 747.508301 -1420.050781
1404.142944 539.013916 -1506.407715
1434.526245 438.399902 -1492.320068
1707.312744 659.822571 -1332.264404
1357.511353 677.442200 -1523.632568
1559.784546 792.971985 -1372.481445
1462.929199 503.834290 -1456.001099
1612.659912 646.799072 -1295.897217
1611.795532 681.938782 -1302.067261
1535.062744 628.677307 -1362.467285
1520.792358 492.142822 -1409.941895
1683.694214 699.011902 -1349.889648
1441.230713 525.225098 -1477.681152
1563.374390 626.335205 -1315.561035
1459.033081 544.236450 -1450.484985
1583.269043 792.393372 -1362.977661
1471.678101 552.709106 -1434.846680
1604.488403 821.407776 -1350.252563
1704.979248 737.247437 -1383.755737
1518.473877 660.750366 -1363.949219
1334.138916 642.704346 -1528.584351
1536.536621 585.499878 -1358.300659
1615.032471 636.860352 -1294.143188
1524.340454 589.672729 -1399.337036
1616.692017 533.864075 -1279.634888
1321.121338 675.270386 -1541.206421
1535.425781 621.130371 -1352.023315
1504.311523 451.744476 -1415.318604
1421.910400 729.612488 -1534.981201
1812.853516 466.940430 -1474.695435
1522.795776 451.237488 -1392.945313
1771.342773 708.708313 -1446.290771
1335.541748 671.080200 -1527.101685
1557.608521 417.903137 -1336.722412
1328.519531 687.206970 -1542.197876
1563.387573 678.318115 -1344.754028
1592.892578 432.131561 -1348.091675
1651.555298 529.134521 -1283.029175
1651.935547 435.215088 -1316.417114
1423.452271 481.006775 -1489.460327
1575.536743 487.413391 -1329.475830
1488.752808 563.878906 -1433.698364
1714.224243 693.427002 -1360.976196
1624.376953 678.200317 -1267.604126
1639.443359 431.050476 -1286.626587
1453.605103 573.002747 -1451.959595
1718.181274 670.311218 -1331.705200
1667.477417 717.585999 -1395.836914
1470.047852 737.535034 -1531.863647
1282.819702 569.041504 -1637.055054
1787.755127 632.865234 -1456.469482
1419.973389 448.173981 -1486.252075
1590.928467 458.924622 -1331.590454
1657.807861 453.913879 -1308.791992
1448.898315 717.514099 -1443.639771
1532.775024 459.437805 -1388.202026
1446.598877 671.202454 -1430.900879
1396.404419 668.886780 -1490.369507
1708.591064 475.173187 -1355.453369
1790.491821 580.419556 -1446.424072
1427.151855 669.121399 -1438.793091
1677.052002 675.867615 -1290.779053
1404.303345 532.421448 -1499.445190
1684.838135 522.310608 -1328.608398
1407.829590 646.429810 -1494.527222
1722.113770 504.800903 -1375.993286
1544.716919 696.277832 -1402.675659
1353.587891 492.591248 -1539.903564
1584.563477 601.463074 -1301.346191
1318.651245 635.248596 -1536.031860
1662.654541 694.676147 -1387.013916
1417.282593 711.529236 -1473.887939
1596.302734 416.570251 -1323.489868
1415.514893 613.182312 -1482.487671
1558.838867 689.792480 -1375.525391
1690.397461 554.536743 -1342.836914
1547.070313 514.524231 -1355.241089
1478.164795 512.324707 -1440.487671
1687.332153 622.826172 -1336.351196
1357.769653 657.867126 -1529.080322
1598.317017 417.769562 -1303.356567
1647.208984 678.012756 -1294.814697
1397.137939 616.685608 -1508.607666
1432.843262 710.454956 -1445.771851
1534.920898 462.907471 -1406.558594
1766.120117 628.495300 -1420.372314
1725.765991 728.038330 -1398.735840
1606.180298 629.685181 -1299.145386
1572.094849 747.461365 -1351.321899
1599.741821 637.260742 -1280.592163
1666.085205 411.939026 -1302.193604
1702.531372 787.899719 -1394.377808
1846.451416 461.095306 -1501.474365
1570.169067 627.419128 -1308.807983
1700.348267 685.459839 -1331.858398
1739.243164 710.140564 -1422.304565
1346.510864 713.503906 -1537.796509
1483.616089 728.330200 -1526.936646
1445.504761 425.460846 -1475.381470
1621.212280 444.733795 -1329.014160
1691.569214 509.965424 -1335.646118
1690.593994 681.709778 -1308.344849
1606.091553 772.910339 -1391.532349
1618.716064 670.991333 -1298.157959
1575.848755 660.018433 -1308.716797
1749.993164 611.026917 -1402.004272
1516.734131 622.206360 -1396.913086
1354.715454 523.856384 -1549.265015
1337.370850 470.404236 -1562.397949
1575.323975 636.552246 -1311.701904
1672.687012 521.899597 -1321.633911
1342.961792 613.751709 -1541.219482
1598.898315 679.679932 -1339.340210
1691.517212 656.351013 -1317.979614
1650.619263 410.613678 -1292.103394
1423.927612 606.872681 -1466.397949
1453.976563 426.406647 -1466.636230
1323.156860 637.254089 -1546.366455
1362.873535 530.914978 -1538.916504
1450.215576 700.158752 -1431.868286
1792.608398 586.235107 -1454.881592
1476.026245 411.908142 -1459.939819
1361.568359 626.945007 -1522.889160
1407.955322 639.636719 -1471.403198
1434.088745 649.411865 -1459.030640
1663.003174 798.328064 -1403.332031
1364.522949 539.187256 -1566.549927
1535.513550 657.591675 -1353.022827
1568.100586 553.498108 -1324.959229
1490.872070 677.101074 -1394.830688
1475.916748 729.247742 -1542.582764
1720.266724 564.154541 -1369.033569
1522.168335 470.052094 -1397.329956
1469.470825 663.066162 -1409.618164
1478.557129 688.626221 -1395.662109
1761.313965 707.783142 -1421.043457
1503.726563 433.441467 -1422.804443
1574.264648 620.266418 -1296.636353
1488.337524 732.824341 -1453.898071
1559.402222 555.393005 -1326.539795
1381.069092 689.493469 -1512.160889
1551.769043 616.784729 -1384.313232
1528.272583 616.077759 -1384.833130
1450.647827 708.117737 -1432.080200
1826.675415 525.618164 -1488.379272
1380.386353 636.390564 -1504.684814
1787.295288 464.004761 -1446.911987
1539.750122 566.313965 -1344.364380
1543.992432 582.687500 -1370.570801
1607.872192 739.538879 -1395.940186
1513.765869 689.078430 -1398.286377
1613.737549 634.494873 -1272.214844
1544.203491 522.206604 -1367.835083
1569.392944 760.982483 -1362.294312
1597.544312 768.926331 -1376.337646
1574.490479 741.285583 -1384.034790
1562.040771 602.822327 -1319.668457
1813.768677 590.211182 -1457.548950
1670.603271 704.419739 -1397.209473
1659.989868 554.018738 -1318.427490
1553.717529 498.781372 -1421.279541
1735.084473 711.846069 -1409.568237
1609.505493 564.225403 -1305.510986
1552.772339 583.935974 -1379.849731
1721.635376 723.627563 -1403.848145
1792.740112 707.372925 -1433.795166
1633.669189 435.892487 -1297.110229
1466.319824 668.912354 -1424.144653
1732.279175 712.310547 -1415.288696
1599.717163 649.019348 -1280.886230
1606.682861 582.094604 -1279.816650
1483.609619 418.579559 -1445.895996
1336.557739 616.158020 -1555.255615
1566.417480 671.153381 -1322.250244
1584.483154 702.359009 -1379.996582
1633.879517 671.210632 -1297.907471
1616.357422 669.264771 -1296.566528
1335.575073 504.183624 -1565.346802
1716.501221 638.379333 -1376.097290
1550.878784 505.736389 -1386.204590
1592.467041 536.887146 -1311.442017
1588.018677 651.228821 -1306.525391
1820.055054 568.559875 -1475.925903
1714.853760 693.917725 -1355.679077
1638.285034 676.506287 -1293.791016
1328.832764 428.383453 -1608.720459
1678.000122 409.498901 -1305.047729
1605.672119 671.356384 -1279.084839
1610.379639 460.150970 -1308.904419
1377.922363 544.499695 -1541.989014
1740.727783 689.681396 -1384.067261
1647.024536 577.911377 -1285.556885
1383.301025 696.315796 -1498.018555
1655.492310 562.943176 -1302.693115
1665.511108 482.319672 -1310.311523
1321.574585 524.529785 -1572.688354
1440.789429 627.509766 -1448.492065
1608.518555 634.433716 -1279.299194
1573.186768 617.314636 -1306.543091
1452.356689 656.194824 -1430.851563
1569.647705 554.553650 -1426.089600
1745.113281 681.623352 -1359.202881
1554.726929 615.789734 -1324.093750
1430.121216 437.178558 -1484.975220
1601.633911 686.793091 -1370.144653
1675.123169 535.828003 -1320.148682
1771.442627 531.258484 -1429.299927
1679.636963 480.623474 -1311.645630
1455.889404 455.121368 -1449.161743
1628.160767 637.911499 -1278.491333
1465.937622 577.484802 -1446.678345
1744.899658 725.362549 -1401.630005
1362.641357 664.718994 -1512.152222
1375.361816 493.319580 -1537.215698
1355.171631 654.474060 -1515.384644
1492.756470 716.010742 -1412.496582
1434.324219 708.389587 -1464.764648
1530.449219 648.785828 -1361.077515
1822.570801 498.129181 -1487.415894
1675.483276 597.702271 -1321.140381
1391.945190 414.012634 -1494.495483
1415.083496 484.187103 -1499.788574
1609.596436 775.292603 -1390.865845
1372.768921 480.454468 -1552.330933
1674.760620 497.476501 -1322.413696
1550.591064 715.770264 -1417.630005
1781.192749 576.917297 -1435.485962
1730.790161 471.212402 -1379.822510
1433.171021 626.159912 -1480.793579
1601.140015 662.830811 -1285.871460
1459.794556 519.917297 -1470.894897
1718.840942 570.141541 -1367.784668
1689.292969 451.557617 -1341.537598
1795.745117 429.745667 -1427.057983
1440.412109 680.408508 -1428.839233
1566.636719 621.329407 -1312.348389
1790.595093 462.681335 -1435.454956
1431.431152 629.984192 -1473.935913
1828.300659 468.246582 -1509.348267
1491.414185 707.786621 -1408.439575
1505.366333 411.769135 -1432.074707
1557.859253 725.641602 -1369.824219
1407.309570 711.435364 -1502.933838
1733.338623 713.280762 -1419.913818
1399.039551 533.238892 -1686.384888
1718.892212 451.880035 -1369.047974
1734.219604 578.361389 -1385.030640
1564.925659 700.279602 -1390.392700
1570.340942 684.651001 -1337.590576
1577.319580 491.667419 -1326.566284
1403.006714 493.639038 -1530.978638
1434.536499 634.316040 -1468.955078
1732.214844 529.163879 -1387.278198
1562.708130 729.608887 -1381.060303
1838.623413 527.470398 -1483.006348
1327.222290 610.777588 -1542.255127
1547.221313 624.562988 -1329.934326
1766.750854 432.653564 -1426.114258
1540.515015 651.187073 -1347.606079
1724.527954 575.619568 -1382.615479
1477.779663 729.012634 -1464.998779
1463.410156 561.675171 -1450.340820
1653.468872 487.758759 -1276.175415
1451.108765 586.321106 -1453.989502
1369.218506 700.895264 -1523.832886
1371.651367 714.445984 -1519.825317
1602.803101 586.152161 -1291.832642
1406.059204 539.515137 -1497.801025
1606.463745 461.050903 -1305.180054
1461.221924 604.868530 -1435.285034
1674.831299 794.409607 -1369.118164
1676.736084 430.404968 -1327.678345
1544.035156 425.614410 -1386.500977
1697.303955 678.859497 -1330.978760
1834.420044 508.942017 -1483.553223
1714.737915 622.974487 -1354.791870
1455.757935 716.321167 -1472.424316
1716.593872 538.751343 -1372.742554
1683.595215 637.318176 -1332.163208
1775.768066 460.554352 -1433.353027
1360.256836 715.733948 -1549.561279
1396.775146 465.807709 -1532.195801
1442.158936 573.727966 -1462.288086
1773.418579 518.327515 -1431.103027
1496.492065 591.164001 -1406.036621
1475.916260 452.673859 -1442.047852
1655.281128 657.380371 -1297.322998
1366.404663 526.800781 -1575.329590
1459.637939 474.830597 -1457.184814
1383.638916 628.349182 -1491.973877
1604.151733 646.250122 -1275.419067
1578.538818 590.183105 -1317.938232
1314.796265 611.947693 -1574.538940
1727.399170 432.568604 -1385.438721
1548.331787 623.764404 -1329.311646
1798.293335 604.317444 -1470.663574
1707.961548 789.427490 -1393.614258
1310.810059 658.872864 -1585.864746
1339.378662 688.979370 -1619.079712
1402.961426 573.317627 -1490.643188
1746.256592 519.584961 -1406.280762
1761.766846 665.508972 -1393.137329
1542.646484 523.096069 -1386.437622
1778.380493 563.938354 -1436.214478
1521.139648 698.243713 -1412.717896
1693.635986 589.754639 -1339.185791
1697.150146 454.378571 -1343.114990
1422.766235 720.328857 -1472.482056
1389.951172 683.505310 -1487.582153
1590.475830 469.468933 -1322.084961
1644.342651 676.236694 -1314.339844
1680.830322 800.032959 -1380.773560
1318.818359 700.701050 -1537.810059
1660.034302 496.787872 -1307.072998
1628.445923 693.126587 -1361.304199
1718.998535 767.809021 -1398.202881
1569.172241 836.840698 -1363.806152
1332.770264 524.582153 -1567.962646
1789.855347 427.698090 -1411.675903
1583.879639 597.028687 -1314.849976
1621.771729 580.569946 -1284.821411
1666.708740 754.953003 -1410.880249
1328.555054 648.653687 -1533.916138
1609.419678 776.821899 -1403.818970
1565.992065 445.135773 -1350.480103
1495.482788 496.072357 -1439.704834
1565.615112 539.632385 -1322.239136
1649.420288 512.995667 -1309.435913
1428.883301 583.382874 -1476.111572
1585.618530 644.386230 -1291.904175
1761.061157 561.564148 -1412.774414
1384.221680 487.018250 -1569.126099
1733.527588 651.601563 -1374.624756
1643.639282 471.648224 -1284.160767
1699.270142 451.500580 -1351.877563
1611.391968 431.056030 -1310.447998
1718.265381 678.701111 -1333.684692
1415.202881 682.103455 -1465.912964
1562.773193 661.167480 -1328.277100
1589.001831 603.845764 -1308.816528
1729.698486 628.633301 -1370.504272
1672.509033 685.828308 -1311.373779
1761.212524 484.963837 -1414.333374
1432.340576 681.306885 -1449.685303
1327.741455 570.095276 -1562.082031
1611.446045 720.511536 -1412.462280
1711.332642 771.439575 -1398.171753
1437.246826 733.954529 -1504.932983
1540.588867 599.771790 -1366.577637
1647.526978 639.476929 -1314.311401
1536.971313 616.830261 -1359.069092
1657.091797 717.747742 -1395.203735
1771.928711 452.718750 -1448.499023
1539.316650 536.851807 -1354.061523
1549.884766 640.998840 -1331.653687
1365.052124 738.495667 -1528.440552
1601.869629 703.009827 -1373.537598
1691.166504 776.875183 -1396.982422
1672.056396 785.207153 -1398.911987
1748.171021 525.812561 -1403.974243
1559.507690 539.734863 -1330.010986
1754.310181 434.752808 -1379.153076
1704.683228 551.244568 -1354.113403
1559.742798 510.250183 -1355.291260
1718.238770 461.256012 -1366.951294
1700.315430 616.871094 -1349.896729
1343.087036 430.901367 -1572.190186
1571.193970 573.184143 -1330.954956
1460.098999 481.173706 -1459.729126
1842.616577 500.647400 -1488.473389
1586.628418 614.837036 -1290.370728
1520.654541 648.810486 -1360.701782
1495.499146 551.485901 -1432.756226
1591.059204 445.384399 -1329.115479
1584.373413 454.732361 -1338.932739
1430.140015 603.214294 -1461.807739
1477.054199 625.728882 -1417.063965
1580.744141 614.700928 -1300.251709
1608.077759 641.883484 -1277.279907
1697.407349 786.525269 -1395.062744
1801.701050 592.036865 -1460.872803
1731.823853 533.172607 -1386.833130
1428.945435 480.727203 -1483.946167
1558.583374 805.315430 -1367.022949
1396.771851 443.616547 -1508.061646
1765.908081 715.194092 -1479.690552
1398.421997 414.886078 -1519.372559
1501.958618 615.577332 -1402.044556
1314.661621 471.832275 -1574.884277
1459.985596 620.158142 -1443.382080
1714.250366 736.619873 -1408.320679
1485.450439 523.858459 -1431.410034
1557.588623 436.301788 -1368.396362
1392.669189 681.697876 -1480.313110
1679.678833 416.935944 -1332.527344
1682.781372 759.651489 -1370.153931
1426.837036 458.379395 -1477.361206
1460.399902 661.337219 -1419.208740
1711.949829 601.002563 -1348.987793
1779.117554 462.268402 -1433.666748
1605.760620 417.191925 -1350.530518
1665.641846 430.666443 -1318.774658
1609.574829 446.342590 -1308.153687
1527.025024 671.987183 -1371.264771
1634.947632 416.788727 -1314.681030
1586.758789 430.580109 -1332.387695
1369.990234 718.377441 -1538.363770
1416.692749 687.901672 -1483.463257
1602.879639 537.597351 -1300.189697
1406.275879 445.891693 -1499.480591
1597.993042 562.465759 -1284.059448
1608.862061 494.241852 -1294.900024
1442.097778 657.943237 -1439.714233
1347.250366 669.963684 -1522.645996
1315.533569 555.453369 -1568.121582
1706.901978 529.214111 -1344.100098
1642.800293 800.562622 -1400.787842
1638.667236 495.060181 -1291.446045
1532.883057 492.840515 -1408.926636
1673.772339 566.634399 -1326.432861
1365.460083 457.139526 -1532.099365
1484.888672 543.834534 -1432.015503
1652.545410 645.610046 -1303.397095
1696.921631 780.773315 -1367.650146
1739.379150 555.998596 -1399.350464
1661.362305 645.383179 -1310.477173
1694.103760 788.477417 -1366.543823
1743.201660 721.798767 -1434.623901
1450.068604 423.169800 -1482.512085
1560.669067 816.981384 -1365.779663
1296.312744 636.014404 -1569.081299
1453.425415 606.504272 -1442.126343
1645.581055 721.460876 -1429.686523
1424.827271 415.612823 -1514.823975
1460.087891 668.826416 -1419.155762
1622.833740 667.758545 -1286.326172
1673.524292 467.909241 -1324.824829
1615.578003 669.674744 -1280.353638
1593.413574 586.585938 -1295.244019
1621.302490 543.825867 -1269.726440
1534.971924 574.315857 -1355.208130
1368.546875 684.139709 -1507.545044
1519.749878 429.033752 -1386.796875
1716.951782 711.399475 -1401.661865
1672.565796 428.241150 -1337.899902
1413.279785 648.951294 -1473.553955
1532.547729 543.726318 -1389.557251
1805.831299 509.381744 -1479.852417
1507.878906 587.394592 -1413.804565
1545.832520 519.631165 -1373.778076
1475.151123 412.148315 -1459.983765
1511.203735 721.185364 -1426.635498
1771.834473 581.765503 -1413.088379
1517.922974 410.778778 -1409.444702
1493.834717 612.716309 -1422.727661
1463.198608 573.874878 -1449.621094
1578.759277 747.916016 -1366.535889
1624.175903 624.052063 -1279.892700
1653.331543 656.598511 -1287.870117
1650.747437 432.971191 -1303.329834
1585.095215 543.041443 -1309.769531
1501.721924 524.292358 -1436.498047
1492.817871 577.052307 -1420.590820
1595.991089 561.268982 -1291.949707
1764.624756 702.158386 -1457.879883
1618.920654 497.277069 -1310.289917
1587.546387 634.255371 -1291.544556
1485.191650 580.760559 -1432.211182
1620.435913 418.311462 -1330.385254
1372.225220 682.432129 -1507.215332
1368.559448 485.237091 -1527.167969
1671.284912 652.832703 -1301.036865
1703.264160 689.489624 -1369.859253
1368.918335 587.407043 -1539.545166
1789.804688 560.627563 -1448.073120
1619.034180 540.359924 -1271.545898
1532.932739 563.934875 -1383.580933
1465.408447 623.526367 -1437.919067
1404.627930 460.500214 -1551.847534
1380.284302 688.252808 -1506.158203
1554.960205 485.869507 -1363.542358
1424.114624 705.899597 -1469.970337
1302.263062 599.990784 -1575.302612
1590.279541 570.517700 -1293.623169
1389.028442 691.667847 -1471.941772
1612.718384 787.799805 -1393.115601
1730.228638 525.960449 -1382.873413
1580.773071 535.722595 -1312.299194
1525.893555 454.243591 -1415.598022
1564.490234 631.508118 -1306.296997
1698.090210 583.511658 -1353.288574
1318.611816 656.151306 -1546.588501
1710.260986 678.350525 -1335.734985
1362.220947 523.542114 -1546.375854
1586.941284 414.142670 -1344.907349
1839.868896 456.958099 -1504.796631
1473.838135 566.113586 -1445.702637
1458.841919 612.309326 -1435.900024
1348.012573 713.835388 -1528.260254
1607.798096 497.364136 -1309.838013
1577.784668 655.315308 -1316.169312
1451.098877 434.072174 -1467.456421
1485.641113 705.969788 -1409.814697
1419.395996 727.027283 -1509.807617
1487.013916 675.512756 -1390.333496
1447.754028 415.181854 -1469.380371
1312.306763 599.399963 -1563.444946
1800.790039 430.743347 -1425.821533
1680.477905 721.153320 -1384.679077
1739.658203 709.212952 -1408.601807
1453.764282 448.651947 -1453.867065
1437.035156 507.462189 -1500.409180
1416.075195 430.454163 -1499.290649
1608.861816 460.762054 -1304.884888
1660.889282 623.718262 -1307.466431
1693.823364 515.968262 -1346.094116
1664.699219 538.326355 -1307.694946
1740.647461 550.430298 -1390.941040
1459.364624 629.971741 -1430.580322
1578.457275 826.758606 -1364.448242
1484.572754 631.047241 -1408.546631
1565.529297 631.227173 -1322.052856
1657.962402 627.617981 -1303.583984
1565.058960 593.159607 -1314.893188
1358.853516 446.450409 -1539.247314
1705.462402 679.516174 -1337.436768
1594.813721 640.582764 -1285.937134
1561.581177 464.562653 -1353.167480
1547.605713 595.601013 -1335.748779
1560.659302 824.434387 -1379.504517
1326.108398 562.567627 -1551.206177
1663.042114 533.069031 -1311.761597
1592.163330 649.956360 -1286.702026
1717.495605 692.295349 -1324.150146
1516.257813 460.589233 -1397.685181
1441.397827 707.375000 -1432.690674
1438.835083 489.717438 -1476.796387
1627.632813 502.145935 -1275.918945
1834.882080 508.632111 -1499.616821
1393.555786 484.025726 -1529.598267
1482.692383 686.993896 -1401.871948
1781.217041 587.191833 -1435.542480
1360.302734 718.015869 -1520.890503
1717.792480 539.950134 -1366.238281
1389.821045 733.954407 -1553.195923
1773.426270 531.247742 -1427.095947
1546.191895 528.950623 -1380.196411
1675.716553 415.895386 -1342.321167
1571.295288 725.455933 -1412.783936
1343.526123 701.730347 -1520.548706
1589.963867 626.562378 -1291.319458
1464.815796 673.147095 -1406.893188
1716.819824 507.376343 -1367.218384
1333.386108 431.222260 -1570.475098
1441.533691 428.125977 -1454.815796
1511.273315 565.493347 -1415.381226
1395.704468 462.324982 -1510.851440
1721.221313 524.142151 -1361.852661
1323.104248 487.485840 -1579.332397
1446.951904 466.346466 -1456.444214
1752.052246 648.730469 -1414.752808
1764.994019 524.457153 -1428.345215
1748.037109 582.933594 -1399.014526
1402.270996 435.255463 -1504.677124
1728.860352 737.079895 -1413.299561
1479.549316 553.546997 -1444.689819
1547.684570 833.882813 -1373.442749
1576.763916 673.646973 -1316.032104
1413.124878 503.277313 -1499.591675
1610.158447 489.886932 -1291.205688
1367.719116 634.885132 -1519.836548
1563.822266 508.887756 -1334.221436
1497.497925 686.142700 -1393.462036
1743.449463 653.549500 -1391.809204
1716.259155 776.997681 -1401.753296
1707.598267 683.832031 -1341.536499
1448.255249 712.677002 -1445.794067
1372.511475 509.381378 -1599.768677
1432.764282 537.624939 -1475.012817
1456.941895 544.476013 -1464.885498
1736.509399 496.753754 -1374.190918
1531.487915 687.752686 -1391.578857
1574.458740 645.514282 -1308.861450
1678.989868 483.234406 -1323.561157
1492.525146 668.552185 -1400.117432
1647.507690 494.003510 -1294.332764
1582.445557 465.404327 -1335.318115
1415.164185 701.779968 -1458.010132
1350.483887 709.559814 -1629.410645
1570.789429 449.802277 -1343.712402
1314.221802 552.973877 -1593.384155
1587.536621 832.456909 -1359.236450
1643.714478 589.261108 -1281.522217
1490.013306 500.958923 -1445.324585
1409.025391 720.453674 -1530.438843
1673.473755 430.898529 -1339.596924
1655.458252 729.149658 -1396.287964
1751.180176 611.870178 -1391.417603
1417.307495 553.104065 -1545.971924
1529.432617 644.673279 -1362.706177
1372.978027 514.473633 -1535.488892
1747.898438 554.181824 -1403.274414
1380.575806 711.047729 -1507.218140
1350.895386 512.820801 -1551.858765
1603.231323 729.036499 -1377.837158
1690.589233 688.890442 -1339.761841
1646.995361 770.060791 -1393.686523
1497.909424 512.133728 -1429.315063
1533.757568 424.275848 -1397.011108
1613.535156 508.195404 -1295.935181
1390.465576 700.609375 -1509.403809
1336.349854 639.372742 -1543.818115
1672.723755 789.775574 -1397.935791
1607.040527 708.841370 -1399.352905
1491.669067 663.151062 -1386.867188
1669.778320 698.353699 -1314.025879
1604.548340 759.334290 -1358.856323
1328.320435 696.639587 -1554.022827
1683.481323 786.532837 -1386.515625
1411.005249 496.043396 -1516.216919
1537.333862 435.522614 -1387.829224
1385.474854 672.268372 -1485.700806
1452.000366 690.371033 -1412.870239
1605.578491 580.130554 -1281.704590
1579.381104 782.520325 -1357.989624
1573.286621 622.856140 -1317.527222
1682.194214 751.521362 -1380.492920
1626.038086 694.479187 -1445.166992
1718.722046 666.036682 -1328.780151
1366.042480 714.157898 -1512.156982
1752.296509 467.225739 -1390.984863
1471.736084 509.347046 -1450.564453
1477.826660 414.779572 -1417.802734
1736.874390 697.449524 -1403.359863
1534.974121 463.842468 -1403.225586
1442.678955 432.481384 -1478.694946
1549.006836 595.531372 -1356.831543
1563.950684 839.217773 -1355.829346
1650.889404 546.995422 -1297.892212
1673.864502 638.695923 -1320.861694
1460.850830 700.415466 -1411.583496
1348.251953 424.058594 -1630.254761
1449.583862 721.922363 -1459.626343
1483.173706 425.381897 -1443.153442
1554.499756 762.654846 -1363.349365
1734.450684 594.118286 -1374.490723
1408.793457 490.610657 -1527.997437
1637.770386 689.222595 -1377.110352
1740.484375 702.447083 -1428.137207
1454.508301 597.122437 -1456.376221
1784.589844 653.401062 -1431.972778
1461.060547 669.953308 -1413.174316
1490.526978 503.532715 -1437.794800
1417.968750 476.716370 -1503.022217
1557.944946 634.894714 -1327.162354
1735.094727 675.380127 -1349.486084
1817.775757 453.583282 -1491.477295
1494.523804 429.785553 -1415.594482
1770.839111 610.168884 -1411.382080
1604.190430 689.623474 -1383.040283
1657.979126 408.816986 -1302.083740
1339.773682 651.960449 -1522.774658
1642.189209 666.623596 -1273.077881
1396.271606 579.973877 -1505.374756
1479.007080 724.086731 -1514.559082
1486.566162 737.072266 -1472.552490
1700.445190 791.813599 -1383.966675
