ply
format ascii 1.0
element vertex 1320
property float x
property float y
property float z
end_header
807.335876 -1477.093994 1273.783813
1111.145630 -1308.948364 1573.013672
1093.161865 -1320.462158 1492.182251
1063.726929 -1315.128906 1486.621582
972.601318 -1455.544189 1212.014038
1094.027710 -1476.787964 1276.575317
989.658203 -1282.240723 1602.953979
877.181519 -1424.642578 1672.219360
965.505066 -1333.352783 1609.443359
1001.527222 -1300.731567 1461.449829
867.770142 -1364.181030 1390.621948
828.497314 -1298.360596 1470.099243
1018.608826 -1317.848633 1466.744873
826.116699 -1267.213135 1534.219849
1072.403442 -1289.110352 1449.545410
950.133362 -1267.962891 1446.266479
1108.330811 -1273.095215 1447.186523
985.245361 -1263.739502 1454.855835
840.168457 -1309.552979 1445.294312
750.559265 -1308.699341 1503.376465
791.570679 -1421.169312 1360.900024
843.878052 -1508.564941 1221.068726
1112.252563 -1285.635742 1466.414917
981.344116 -1564.572388 1218.673828
749.187012 -1447.421997 1360.253174
819.475769 -1499.569458 1250.116455
765.468567 -1350.731079 1595.402710
1105.560425 -1323.700317 1597.334473
958.030762 -1410.428833 1295.127441
1028.043213 -1337.144043 1380.777832
988.653870 -1266.409790 1461.989258
862.584717 -1409.951782 1358.359375
784.126892 -1292.750000 1491.755493
1076.339355 -1328.050781 1588.813599
1066.795654 -1405.745972 1327.328369
1051.622925 -1309.314331 1477.311890
953.092957 -1271.193604 1562.305420
795.606689 -1520.047607 1215.765137
1064.689697 -1330.078735 1562.911011
824.883240 -1292.648926 1562.338013
993.335999 -1293.378540 1421.271240
916.857544 -1318.542969 1592.370239
987.541443 -1248.289185 1537.901001
970.791992 -1270.668701 1450.334839
894.894470 -1396.841797 1339.784302
927.521362 -1229.294922 1526.795654
874.208496 -1247.412354 1527.590576
1070.261963 -1460.482056 1229.936523
1086.093262 -1462.487061 1319.073242
845.579590 -1248.054688 1503.208740
996.828613 -1379.360229 1289.084473
934.206360 -1273.297852 1551.608765
904.563232 -1238.687500 1532.404175
1056.348267 -1403.679932 1343.298706
997.604980 -1282.387695 1608.076416
877.840515 -1319.738647 1572.655151
770.962952 -1484.427368 1269.386475
880.101074 -1367.814575 1619.339600
1014.388184 -1353.293091 1655.416382
1121.931152 -1284.119385 1473.532959
1012.977661 -1417.479126 1255.333862
938.043640 -1297.351318 1578.697144
890.159485 -1464.657104 1248.742554
999.054016 -1300.897583 1608.968750
1045.284668 -1421.198242 1265.748657
1009.190308 -1283.544800 1461.069702
733.750854 -1347.684937 1459.130249
889.285461 -1609.456787 1240.262573
958.074768 -1344.549316 1610.088013
1088.416992 -1287.863892 1479.574951
998.036011 -1307.044189 1396.521484
952.768799 -1270.912109 1561.476074
916.857727 -1266.948730 1466.094971
964.338379 -1470.547607 1183.813721
872.001709 -1480.937500 1246.352783
915.613831 -1230.004272 1499.066528
750.861023 -1360.135132 1443.071655
813.485596 -1445.151978 1659.281128
1017.672668 -1350.981567 1650.414307
858.097839 -1383.244385 1382.465454
973.689453 -1475.465454 1188.041504
841.124084 -1262.233032 1494.453247
919.039368 -1273.562500 1439.863281
896.785583 -1340.630005 1607.955200
858.376709 -1249.485229 1495.310425
1128.417847 -1277.208252 1482.994263
938.552490 -1432.588135 1300.724854
999.948669 -1305.397095 1616.691406
740.916443 -1404.205322 1356.652954
1003.647034 -1329.189575 1442.185425
869.746948 -1489.265503 1238.042480
736.173279 -1309.862793 1535.084473
1095.519409 -1326.147583 1592.458740
1057.124756 -1482.992432 1202.397949
1018.075989 -1358.737549 1319.431152
1006.042603 -1293.987427 1569.066650
1090.106445 -1359.141113 1611.532837
948.967896 -1417.913940 1295.777710
850.205444 -1277.467285 1563.612915
843.819214 -1367.984619 1621.226685
1028.886353 -1312.901001 1475.341064
932.384583 -1412.656250 1657.753906
909.369141 -1281.663940 1445.346069
996.469604 -1339.795288 1343.232788
774.108215 -1448.655640 1341.655640
864.956543 -1351.748779 1608.173462
728.759460 -1299.032104 1519.762451
779.838135 -1433.205933 1331.071167
933.053223 -1242.179199 1508.554199
911.218079 -1375.474487 1358.965332
1048.156494 -1425.217163 1246.951294
885.365051 -1365.982300 1622.720093
881.502258 -1371.043579 1403.505981
1076.194092 -1417.361816 1354.407715
825.882324 -1482.651855 1264.225464
850.433289 -1312.990234 1586.458130
1039.942993 -1307.891479 1446.356567
1005.762939 -1413.629883 1250.320435
856.115234 -1263.997681 1481.879761
883.822021 -1253.819458 1538.592163
823.813110 -1294.593384 1463.086548
978.881470 -1297.680786 1405.069824
727.415955 -1298.822998 1509.747559
971.770813 -1401.803955 1678.957275
996.691345 -1327.900879 1367.535156
1017.196411 -1356.481323 1319.719482
1123.570190 -1290.591309 1474.022705
1010.442261 -1324.102661 1381.341187
1081.659546 -1444.839233 1250.510498
996.590881 -1373.194580 1318.143555
1025.715698 -1343.577637 1335.336182
914.272766 -1353.351685 1616.774536
1003.711609 -1365.856567 1326.335205
995.777161 -1316.144287 1442.269775
1136.167114 -1281.710083 1476.614624
1043.054688 -1357.130737 1420.484497
1020.430603 -1429.754517 1237.361694
967.393677 -1335.007202 1371.148315
819.932678 -1298.417725 1461.734375
796.680542 -1418.573853 1337.801758
787.155273 -1334.318970 1582.954712
830.240723 -1276.925293 1474.769165
773.058228 -1276.354248 1545.893311
1035.078735 -1345.584839 1607.955688
920.768066 -1442.035767 1269.698120
869.319580 -1294.974731 1438.637451
860.756165 -1281.991943 1553.877808
728.988953 -1342.165894 1478.702759
1024.444092 -1346.053101 1321.664307
1073.640381 -1350.536865 1606.180420
973.088867 -1240.697510 1469.757935
859.677002 -1375.249390 1615.048218
1007.594177 -1454.164185 1214.253296
857.097595 -1235.454346 1512.874390
1014.580994 -1334.153564 1408.581421
771.565308 -1489.816528 1272.777954
938.295593 -1397.838135 1312.321289
825.449890 -1267.820801 1498.473389
953.075562 -1239.683838 1479.383423
959.815918 -1332.473022 1379.677368
1041.848755 -1411.949707 1304.750854
790.901123 -1402.009155 1649.033569
1069.500610 -1286.061768 1457.671265
976.147217 -1410.814453 1279.836426
979.210266 -1320.415771 1376.024292
830.197571 -1353.897339 1447.862183
945.836182 -1407.834106 1667.016602
741.661072 -1380.342163 1428.603149
758.483276 -1281.308105 1526.276978
1071.840942 -1343.092407 1597.737915
1011.721558 -1426.674683 1260.669800
834.787415 -1271.092163 1482.348267
956.486389 -1495.939087 1185.579102
756.643188 -1455.381592 1328.867188
893.243835 -1447.682373 1685.612793
864.502930 -1504.162476 1224.841187
1112.367065 -1300.541870 1481.653687
909.891541 -1409.455200 1324.790405
1011.551514 -1307.490479 1632.894897
1011.742615 -1306.156982 1462.120972
885.460144 -1417.083984 1312.626831
919.429504 -1385.827881 1657.278442
758.621033 -1396.508301 1650.161377
939.248779 -1472.912231 1190.217773
981.910522 -1337.680054 1630.376587
875.984741 -1332.254395 1597.300171
892.337158 -1489.875000 1221.600342
917.026123 -1392.394531 1641.483154
931.934265 -1271.075073 1556.296509
941.466003 -1453.067383 1263.900024
881.005981 -1463.136108 1686.626709
927.059143 -1462.455078 1248.005127
882.599487 -1429.533203 1298.097290
901.407959 -1491.129272 1214.082153
980.221313 -1295.777832 1414.282959
1095.556030 -1296.428345 1570.932129
1098.950195 -1277.057495 1441.095581
773.546448 -1515.804321 1242.867554
767.971741 -1432.290405 1684.301636
886.811584 -1397.713379 1347.941406
765.405273 -1500.277100 1254.951538
1020.202698 -1480.055176 1190.842896
914.267700 -1467.879028 1252.661743
978.428223 -1221.560303 1519.316284
954.140564 -1479.054321 1200.285400
1050.061890 -1367.479370 1373.476318
770.015442 -1498.966675 1274.075806
791.770996 -1309.380737 1459.033691
910.623474 -1352.902954 1405.978638
842.112122 -1536.669189 1199.944336
885.303223 -1380.891602 1629.333862
850.995117 -1300.344727 1450.967896
995.331421 -1279.613892 1540.137451
908.929504 -1236.786621 1520.660400
1102.091553 -1292.778320 1477.409790
877.362488 -1465.723877 1266.048950
758.013855 -1351.751465 1441.637207
808.210999 -1314.294556 1463.653198
880.889221 -1236.176147 1518.952148
778.704285 -1420.305054 1348.631348
892.088196 -1275.213501 1476.493164
977.694580 -1408.488770 1284.634644
1030.674561 -1312.733521 1445.634888
1076.007446 -1311.110107 1555.747925
1065.847778 -1330.029053 1575.606079
875.906738 -1501.781616 1251.512329
915.490112 -1289.783447 1569.050781
986.448181 -1386.389648 1295.861938
877.888245 -1383.781494 1636.070190
834.387817 -1527.672852 1257.788086
850.667786 -1286.556274 1553.442749
1001.402649 -1307.228149 1630.700439
829.173096 -1315.598511 1445.446777
827.577087 -1298.110352 1456.791870
848.162720 -1316.262329 1428.725098
1036.666870 -1415.005127 1275.241577
900.432861 -1379.091919 1464.369263
831.098145 -1423.920410 1661.836914
790.439758 -1353.365234 1443.752197
1036.365112 -1347.937866 1598.538574
1005.291138 -1306.515625 1620.591797
850.108093 -1388.991821 1650.991333
819.522095 -1433.042725 1652.625854
1011.829895 -1301.929688 1588.014771
806.093750 -1524.788574 1206.073242
766.564819 -1443.056274 1336.378174
1060.181641 -1333.001343 1553.566650
731.113464 -1311.093506 1507.735596
1058.283081 -1458.307861 1205.676025
996.072021 -1293.157104 1429.384399
899.178284 -1334.770752 1600.671509
770.118164 -1510.755249 1247.916626
809.046265 -1512.140015 1286.316650
837.115112 -1387.085327 1645.583008
951.700684 -1305.750244 1588.593750
872.632935 -1487.818848 1241.213135
781.069946 -1380.704346 1410.676758
729.920227 -1320.798950 1555.229980
1098.875610 -1312.770264 1491.429810
965.756653 -1392.891479 1302.459717
1092.072144 -1452.392334 1258.164185
1062.979736 -1360.165161 1617.040894
1041.247559 -1329.363159 1487.200439
820.754700 -1291.827515 1552.882813
868.309448 -1513.824707 1203.218506
1022.649902 -1324.707031 1428.920776
925.305542 -1428.852661 1291.643311
809.874878 -1277.554565 1530.986816
1007.302307 -1312.974854 1612.306030
775.420532 -1511.737793 1225.133423
782.268066 -1383.627563 1635.922729
945.999512 -1229.079346 1514.004517
879.517761 -1286.495728 1457.375366
897.180664 -1351.897949 1388.592896
827.255920 -1348.663208 1600.812988
891.819824 -1404.559570 1654.317505
1138.488525 -1263.626465 1472.692993
863.415222 -1408.634155 1653.164307
981.479492 -1409.878174 1673.306152
883.004211 -1399.057739 1652.480469
891.430420 -1255.970703 1492.368286
772.651184 -1463.552002 1309.919922
1046.429688 -1431.349609 1247.427246
1031.728638 -1415.833984 1295.285034
1030.989990 -1314.352661 1470.393799
798.989990 -1415.853516 1653.802368
989.335205 -1273.240601 1591.652832
878.843201 -1294.867676 1563.943970
956.560852 -1262.603516 1456.360718
823.288452 -1464.424683 1289.621948
1114.264038 -1317.621582 1552.336426
1016.430969 -1341.368530 1325.172485
996.091064 -1282.104126 1549.961304
1030.604858 -1301.106567 1453.357910
777.264404 -1269.329346 1540.107056
1020.817749 -1424.170532 1251.885498
855.710205 -1292.539917 1446.647583
1039.802979 -1346.643677 1391.881470
1078.197754 -1435.215332 1245.542358
991.313599 -1260.783813 1550.196899
882.157410 -1281.810425 1545.750122
955.633118 -1418.356567 1276.851807
960.209839 -1391.340332 1315.447998
793.408875 -1392.663940 1390.524902
1020.838318 -1333.033081 1583.557373
1030.510864 -1309.252197 1456.990601
757.744995 -1303.000977 1491.179443
1019.043762 -1424.373657 1263.746460
989.365051 -1489.099609 1184.930786
816.968994 -1526.846680 1266.097290
868.941284 -1370.984741 1391.164795
883.996338 -1382.745850 1362.747803
1062.074829 -1426.379761 1259.395020
871.935364 -1250.833618 1477.244019
721.258728 -1291.813477 1544.293579
831.994324 -1535.750244 1225.462646
955.720520 -1257.057251 1445.852417
877.707153 -1437.483887 1296.012573
940.194641 -1293.940674 1574.892944
859.736816 -1308.956787 1440.723755
768.488159 -1294.696777 1524.952759
870.539856 -1397.806152 1350.658203
1025.669556 -1411.973755 1270.145020
740.769165 -1412.085815 1384.482910
967.625305 -1333.906860 1366.140747
898.066406 -1383.780762 1367.468506
850.384521 -1462.785156 1695.059937
950.304260 -1244.497925 1476.423584
816.170898 -1424.004883 1354.045654
960.176819 -1387.578857 1653.646118
934.305969 -1400.179443 1659.880127
963.795654 -1388.587402 1324.546265
1104.466431 -1321.348145 1587.824951
1002.939209 -1429.207031 1228.708984
775.446045 -1469.708252 1294.275513
1135.061157 -1276.534424 1464.964722
910.489807 -1260.950195 1472.851929
983.482239 -1242.592163 1581.080688
925.414734 -1243.563477 1522.744141
980.824646 -1362.123413 1329.502930
792.389343 -1488.720947 1708.500366
761.203064 -1358.503296 1597.643066
772.690796 -1290.280029 1508.798584
843.081299 -1240.117798 1513.519775
921.453064 -1482.116455 1239.841919
861.882324 -1383.065552 1366.968506
1031.599365 -1338.864258 1395.768311
877.273926 -1318.927002 1595.444580
918.134644 -1383.229248 1340.005859
1133.474365 -1297.983154 1480.836670
1059.587769 -1427.993896 1261.517578
1083.114136 -1283.746216 1455.174194
945.508423 -1310.040283 1588.026978
1117.651611 -1285.159668 1472.391113
1066.283813 -1444.432739 1244.415161
981.395325 -1456.375610 1208.562744
1026.176025 -1447.647217 1219.936401
751.262329 -1480.851440 1273.041016
869.436340 -1393.757568 1647.122681
878.698181 -1407.256836 1343.389404
991.121582 -1348.686646 1333.867188
990.316345 -1374.903320 1659.900513
1006.402893 -1295.860474 1563.987183
939.881042 -1274.064087 1561.855347
1120.768555 -1318.533081 1516.342163
791.162781 -1302.440918 1470.778931
964.574341 -1321.910278 1387.500732
1032.856689 -1355.709473 1668.000610
838.526306 -1484.842529 1709.089600
819.027466 -1437.238403 1324.300293
799.382385 -1323.454956 1449.239380
966.835205 -1471.336182 1191.161743
950.236755 -1253.084473 1466.321655
790.144592 -1360.695801 1619.538940
1089.270630 -1314.772095 1548.162354
731.165955 -1333.179199 1602.711548
1003.374451 -1320.753174 1634.448730
1026.944702 -1329.385620 1489.964478
974.263794 -1414.687012 1662.064819
1071.325562 -1483.439209 1219.844971
1121.029907 -1287.281494 1474.396973
891.412964 -1359.747437 1405.373657
745.898743 -1414.182129 1399.321045
936.173035 -1406.989990 1306.420410
826.299988 -1264.609619 1481.985107
839.828369 -1267.851318 1530.940186
775.369812 -1329.344482 1456.180420
755.132935 -1290.739258 1535.693481
996.524414 -1372.517700 1306.805664
814.332458 -1461.877686 1689.509766
942.414795 -1231.984009 1482.484131
857.064331 -1320.104126 1582.184570
960.645081 -1226.010254 1494.037231
805.340210 -1419.187622 1646.213013
1064.475098 -1430.543457 1315.269043
1033.784912 -1315.360596 1589.728027
811.368225 -1447.228882 1312.046265
1076.443359 -1430.589844 1247.245972
815.782410 -1448.433594 1314.614990
956.901917 -1302.351074 1412.958740
921.298950 -1390.859375 1339.367188
791.560974 -1288.313354 1495.114746
980.628479 -1415.413208 1691.316284
866.348633 -1354.559448 1408.231201
777.943237 -1290.552490 1519.913452
762.894836 -1407.756104 1380.763794
869.243652 -1403.326416 1343.406250
1051.414185 -1425.988892 1262.041626
748.013184 -1327.502808 1574.860474
994.870850 -1305.883911 1418.950806
798.336609 -1280.122070 1539.183716
888.901306 -1273.052979 1545.522095
909.066101 -1381.807129 1652.828857
1046.162109 -1356.435303 1613.792603
1007.212708 -1311.325684 1594.628540
1025.140869 -1328.887207 1408.570923
885.241089 -1409.565430 1326.123657
1029.232056 -1437.317993 1243.121948
878.607422 -1419.190796 1663.781860
739.240601 -1375.101929 1426.951294
1066.538330 -1413.356934 1344.648926
977.112183 -1273.623657 1429.795898
1009.216064 -1380.967651 1689.739868
804.922729 -1428.950562 1344.840698
1087.905518 -1327.680786 1585.140747
904.680603 -1465.764526 1685.864990
922.086670 -1261.870483 1562.017700
783.989868 -1446.818359 1311.637451
881.864380 -1390.600708 1353.834839
792.733704 -1418.919189 1337.801758
1026.234741 -1285.531616 1472.382080
1000.843140 -1408.883179 1255.562134
888.155396 -1262.712769 1462.545898
978.367920 -1465.662354 1201.392334
733.586365 -1377.054077 1448.715698
903.037048 -1467.118774 1254.503174
870.135620 -1299.182373 1565.717773
944.969910 -1354.974243 1625.305054
931.716675 -1286.968872 1429.069824
834.741028 -1482.007446 1247.543945
974.054504 -1242.160645 1472.853149
748.498596 -1455.333252 1308.313599
794.018982 -1485.663330 1721.634155
797.728943 -1301.171631 1477.364502
1034.161133 -1388.279907 1627.087769
779.335144 -1358.790405 1434.828491
1118.406738 -1266.760498 1458.003052
878.346863 -1260.696533 1478.574341
970.966003 -1442.154907 1233.962524
978.260803 -1331.176392 1619.563599
1051.883301 -1368.279053 1312.037109
865.660278 -1283.279419 1457.988770
1101.833374 -1452.533936 1251.431396
837.745667 -1525.353149 1218.544678
848.819519 -1283.738892 1467.072510
1024.268555 -1329.836182 1381.788940
948.042664 -1335.543823 1407.512695
1096.817505 -1281.382935 1439.501709
1026.408081 -1353.721436 1610.217896
827.874023 -1357.781372 1414.807617
745.659851 -1441.487305 1312.623169
820.135254 -1445.396240 1678.158569
936.049988 -1437.156494 1267.279175
748.279480 -1329.577148 1476.903931
845.340393 -1379.177124 1377.853027
979.596130 -1244.759155 1498.387451
876.078735 -1265.247437 1471.035645
954.267517 -1491.093018 1203.694702
991.710327 -1344.969360 1333.200439
1059.026611 -1338.624634 1454.455933
782.066589 -1516.802246 1239.945923
1110.202637 -1280.828247 1486.422607
883.837036 -1290.440186 1451.675781
956.728577 -1409.676270 1308.439575
788.194763 -1505.295654 1242.951294
839.057800 -1470.626221 1273.728149
1001.953186 -1409.931763 1248.583252
1137.737915 -1266.645386 1476.866821
958.525269 -1277.856201 1436.234619
803.470703 -1293.899658 1476.145142
752.481750 -1431.191406 1368.990112
856.180542 -1253.313354 1512.024780
723.969116 -1326.645386 1476.683716
890.481323 -1270.379639 1564.072510
1019.521362 -1447.572510 1223.447510
803.150818 -1427.568848 1662.071045
768.681641 -1381.301270 1402.765381
964.701599 -1300.077637 1593.797607
791.244629 -1314.431396 1569.225220
886.703674 -1266.170288 1466.606812
1004.184753 -1338.308716 1385.699829
1074.852905 -1300.369385 1452.922729
861.722900 -1266.043701 1469.011719
738.632324 -1400.600464 1384.764404
805.176758 -1496.995850 1241.673096
958.385803 -1246.300781 1461.694580
1049.770996 -1325.902588 1502.908569
826.946228 -1264.291992 1502.235229
1002.902771 -1386.442993 1285.202026
832.556274 -1279.823242 1473.431274
740.842712 -1396.518066 1381.811890
782.249268 -1294.585327 1552.961304
882.689331 -1317.836304 1588.591187
933.258972 -1291.736816 1575.338379
951.584045 -1253.359741 1481.865479
719.496277 -1281.651489 1520.123901
1030.357422 -1339.795288 1358.928955
904.844910 -1282.136719 1560.741699
1025.326660 -1317.475952 1441.665405
866.705566 -1362.715820 1395.371826
866.745972 -1391.268433 1354.246826
1099.200195 -1294.319580 1418.780518
794.705994 -1392.152832 1633.906616
957.160767 -1443.569214 1250.352417
1006.389282 -1308.418945 1546.203979
1065.674561 -1289.388428 1459.974487
962.505798 -1415.307617 1300.070190
996.048218 -1303.742554 1407.696655
1026.732666 -1333.861206 1355.375977
809.107605 -1348.959839 1440.767456
780.783264 -1443.538330 1672.554932
1056.814819 -1295.880737 1451.732178
807.074219 -1395.140015 1413.562378
941.796326 -1497.647583 1208.918945
908.003479 -1299.417236 1583.867432
893.196350 -1262.929443 1547.509399
970.367859 -1386.079224 1298.259155
995.979675 -1412.142334 1251.564575
933.790100 -1438.770996 1266.301880
856.450439 -1259.128540 1486.570679
836.196411 -1385.194702 1631.446533
937.014038 -1377.900879 1341.620483
829.588928 -1424.818237 1357.490112
802.924927 -1503.159790 1719.159912
758.857971 -1340.485596 1586.368408
1058.628174 -1443.553589 1218.870239
974.246948 -1225.812866 1524.913452
913.900757 -1238.065552 1517.708740
897.436462 -1288.516968 1567.266357
1053.815552 -1328.434937 1561.764282
998.578491 -1409.954956 1681.728760
879.545471 -1456.976196 1280.584595
833.589417 -1522.648315 1204.702026
1034.941772 -1349.586670 1626.347534
774.012146 -1320.730713 1465.801392
911.930420 -1375.394775 1647.740234
968.391418 -1380.019531 1660.248657
843.972473 -1385.614014 1382.922485
954.827454 -1258.034546 1471.331421
949.587219 -1237.697266 1481.976196
806.105530 -1375.259033 1616.211792
982.959412 -1269.940796 1462.198975
1064.943115 -1434.925903 1295.445679
950.919006 -1251.936279 1483.852051
956.298767 -1350.619385 1622.063232
828.741760 -1254.267944 1516.530640
870.282837 -1387.163208 1371.083130
903.978088 -1343.156006 1400.041504
944.078857 -1390.996094 1323.696533
1128.205200 -1303.781738 1482.410522
1001.913818 -1337.557007 1336.471802
1055.123657 -1383.625854 1373.316040
967.878723 -1226.750854 1527.052856
987.026733 -1303.200562 1623.836914
1015.953918 -1320.604248 1384.392822
1120.993774 -1304.715820 1491.949585
925.900513 -1271.894531 1459.351318
1067.121826 -1359.966064 1389.119385
964.214172 -1258.195557 1447.833984
1000.607727 -1325.943604 1354.610596
993.808716 -1277.448364 1561.141235
893.578918 -1263.453247 1493.797485
822.209595 -1265.998413 1482.555786
928.341675 -1444.413696 1688.328491
947.916748 -1650.831177 1282.876587
1042.916138 -1345.561279 1379.002319
879.758362 -1358.053345 1390.844238
822.410828 -1246.734253 1522.861694
1011.455383 -1322.947754 1626.560425
824.017151 -1406.973389 1650.317017
970.218750 -1227.237305 1493.348877
909.116089 -1521.552612 1197.688110
1025.057251 -1467.078491 1192.627930
744.972473 -1322.620117 1493.552612
788.985291 -1397.835815 1388.018799
1034.571167 -1350.500854 1410.828003
933.763123 -1428.547607 1279.549561
1089.065186 -1320.979736 1591.787231
809.336365 -1460.497192 1687.319580
1083.552002 -1310.688354 1550.359985
973.231140 -1243.931030 1539.899292
956.233032 -1241.915894 1466.689697
948.423279 -1374.231201 1345.591064
870.042358 -1366.267822 1408.550171
954.719910 -1388.898315 1313.095215
1024.178101 -1313.156494 1472.337646
980.823425 -1260.565186 1471.945801
1002.629822 -1301.773193 1500.770142
935.656860 -1474.719116 1208.614746
1096.732178 -1322.852661 1585.188843
879.311523 -1270.103394 1459.829346
952.888306 -1307.944824 1589.223633
919.609863 -1225.278809 1529.577393
998.011658 -1404.041748 1275.378174
773.711182 -1536.369507 1217.906128
853.035706 -1336.752686 1429.493896
837.281433 -1380.703125 1624.624634
1062.274048 -1425.973145 1243.377930
920.672668 -1394.652100 1329.689209
795.926392 -1437.364014 1665.320923
881.484680 -1277.672729 1450.071167
783.504883 -1310.027466 1474.821777
830.652893 -1388.454590 1388.195068
1088.935425 -1477.453491 1283.358032
1048.598022 -1528.086060 1205.559937
981.589539 -1465.484863 1188.586304
747.233521 -1457.233643 1301.536621
796.428345 -1292.291870 1463.928833
1082.096680 -1477.839722 1226.056274
1094.375977 -1307.888794 1459.096069
887.786194 -1299.995850 1576.650269
1064.646240 -1434.219604 1287.757568
1141.524536 -1272.902954 1461.227661
955.653198 -1482.197266 1192.980347
994.821594 -1291.855713 1503.508789
746.235718 -1363.879272 1391.726685
733.639709 -1354.713135 1444.444214
960.653198 -1297.377930 1414.430542
1131.716675 -1307.945190 1492.481445
963.258728 -1260.053711 1464.195068
959.401245 -1341.393433 1371.129761
1037.832764 -1354.277954 1349.899292
884.928833 -1324.482788 1594.262695
949.343811 -1263.762451 1436.775269
848.825989 -1319.504639 1580.298706
858.996155 -1251.806763 1492.102539
956.741577 -1404.580811 1306.100464
942.824280 -1236.617310 1482.239868
850.542297 -1400.683838 1354.548828
1066.024780 -1304.672974 1449.194702
1055.459106 -1441.718384 1246.255371
971.483643 -1331.935059 1365.217896
799.759949 -1361.886841 1429.528809
945.392456 -1371.872559 1639.079346
849.721375 -1264.856201 1537.196167
940.685669 -1324.728516 1596.805176
853.509705 -1322.452515 1583.802246
985.258850 -1341.857056 1344.466309
1052.807251 -1330.196899 1572.977417
937.528564 -1274.945068 1559.117188
831.132263 -1534.364624 1187.056641
777.132629 -1285.197266 1496.333496
785.347473 -1554.891235 1193.939819
795.339539 -1403.797852 1384.609131
1096.378662 -1316.421875 1546.751221
813.637878 -1316.975586 1456.342407
942.713623 -1271.242188 1444.747070
1063.807007 -1300.823853 1485.682617
833.816284 -1486.603638 1254.569092
833.523987 -1263.408325 1536.438354
855.431091 -1319.577148 1578.709351
854.187744 -1285.261475 1551.482422
886.738892 -1374.757446 1632.338623
984.325378 -1269.093628 1473.644653
1080.136230 -1485.309937 1232.639893
1001.165222 -1314.229980 1388.152832
760.813416 -1515.138428 1219.158325
802.101746 -1342.421387 1434.357178
924.836426 -1278.290894 1555.103271
952.460876 -1452.114258 1237.640381
803.982300 -1298.358398 1485.728149
912.882690 -1409.686523 1308.250854
729.771790 -1364.765381 1464.517212
1011.342957 -1274.291748 1599.673340
925.798889 -1455.982544 1286.900513
799.816406 -1517.542725 1224.363647
873.161560 -1262.574097 1477.747070
934.840149 -1359.495972 1618.686523
862.978333 -1268.592041 1496.187378
929.312561 -1348.810425 1396.180420
1013.871399 -1373.209595 1300.224243
1105.816650 -1278.091431 1447.479370
869.491699 -1407.189453 1348.628906
915.131714 -1274.827637 1562.665039
874.524170 -1321.671631 1433.964111
925.961914 -1369.802124 1352.750488
1099.638062 -1348.643433 1611.908569
811.114624 -1368.996704 1448.775635
996.845764 -1277.486816 1511.328247
1042.581421 -1347.244141 1537.842285
1066.528687 -1323.713745 1592.643677
809.237732 -1396.424194 1384.502930
897.291321 -1354.666748 1617.168091
909.648438 -1318.064087 1406.878296
805.058472 -1617.076538 1236.843994
964.576660 -1404.592163 1666.547485
891.813049 -1391.029175 1344.922241
924.027039 -1428.361572 1692.577637
838.262573 -1432.321899 1324.638306
988.859314 -1262.475952 1553.623047
1050.141479 -1356.194702 1344.625000
993.899475 -1282.660400 1519.338013
921.752869 -1395.486938 1644.315918
847.727600 -1258.782593 1524.781738
781.254150 -1316.187378 1464.585449
940.293152 -1305.845825 1579.221436
1103.483887 -1471.217529 1255.488403
836.470398 -1417.588745 1670.530884
781.760376 -1272.600464 1544.413330
837.739807 -1437.863037 1321.975464
1051.275391 -1353.282349 1336.274048
917.966675 -1304.841309 1590.002563
1090.548096 -1299.661743 1486.546997
747.404846 -1444.611694 1332.868042
782.382629 -1443.225952 1326.203613
987.707581 -1412.518555 1262.168091
935.120117 -1269.933960 1454.497314
1105.581543 -1324.062500 1600.463501
823.418701 -1382.170532 1407.320068
1043.380249 -1437.431030 1248.712158
1049.344116 -1338.440186 1571.784790
806.793274 -1437.693604 1330.414795
1011.024353 -1340.190308 1655.164917
952.438171 -1237.284302 1514.535767
775.224243 -1445.922974 1328.050171
1020.348083 -1382.518555 1297.558228
939.017273 -1247.640503 1473.760498
1025.072876 -1322.398315 1490.703491
806.456787 -1266.683350 1508.399414
732.018982 -1327.670288 1508.685547
929.370972 -1293.463379 1575.246338
1114.587524 -1264.197510 1460.020996
1083.049805 -1513.460449 1216.353149
970.331543 -1247.909058 1484.167358
811.961182 -1301.658569 1566.665161
948.910950 -1300.756104 1409.374756
911.504272 -1354.476929 1378.569824
782.984436 -1424.089844 1655.717041
991.976196 -1405.506592 1267.092407
1062.452759 -1282.528687 1473.515869
891.705688 -1399.198730 1653.875488
898.473022 -1467.144531 1241.773193
1010.704895 -1349.967041 1335.688965
1087.105835 -1313.597290 1542.733887
847.185181 -1277.457642 1481.965820
922.695618 -1570.226318 1213.637817
727.972412 -1348.914063 1455.055176
1004.692383 -1320.041382 1418.577515
756.081604 -1272.110718 1540.335327
892.208862 -1411.024902 1327.011841
962.406372 -1270.522095 1435.672607
1128.618896 -1272.864380 1455.635864
941.606384 -1327.047607 1611.612427
796.036316 -1282.269775 1520.276978
899.196411 -1283.401978 1439.066772
892.476868 -1401.063110 1651.184204
1025.358398 -1323.516968 1354.072998
1061.605591 -1291.640869 1445.218506
810.791077 -1514.429077 1219.219238
815.157043 -1392.008179 1415.930542
870.679504 -1263.404907 1545.977051
1130.241089 -1277.592529 1432.554932
810.015869 -1380.810425 1625.162598
968.389526 -1433.436035 1279.284302
739.080872 -1336.239868 1577.319580
934.337219 -1426.821167 1275.459595
989.481445 -1391.459595 1287.389526
823.554321 -1439.920044 1331.528809
948.858154 -1284.246948 1431.302124
729.245667 -1344.924072 1482.701904
1030.863525 -1380.478760 1294.024048
892.853455 -1255.455566 1470.525879
918.635742 -1571.636841 1214.170044
1076.234375 -1274.519897 1471.096313
1071.180420 -1312.005615 1490.404053
864.400269 -1270.528198 1478.917969
1028.201294 -1429.461548 1236.986572
1055.408936 -1412.031982 1297.817261
755.839111 -1280.680664 1543.377319
801.059448 -1268.306763 1509.219849
909.210754 -1386.984741 1645.530273
879.262634 -1437.586548 1289.680298
945.365173 -1426.790527 1694.495117
999.308289 -1297.422607 1420.791870
860.610229 -1266.090332 1460.088013
1035.202026 -1306.497681 1445.950928
1081.939575 -1431.813599 1352.262207
894.960205 -1379.004028 1367.321045
978.817322 -1476.231079 1198.572144
1095.609985 -1274.820313 1436.259277
936.089661 -1454.950073 1253.381592
782.962463 -1319.136108 1570.335693
1101.464478 -1312.982910 1459.380493
1046.909424 -1428.969971 1234.688232
996.381897 -1434.207153 1229.883301
1083.892944 -1296.578247 1557.359863
949.056030 -1413.932373 1306.667236
1033.838867 -1283.194580 1470.811035
1001.313843 -1472.223145 1175.145874
999.954102 -1305.260498 1411.555908
939.598206 -1303.304199 1583.397705
1034.906738 -1333.353516 1530.078735
921.744751 -1382.636230 1346.253296
1028.341553 -1432.295288 1237.947388
1058.344482 -1402.898315 1362.685059
1078.616333 -1318.999634 1539.711182
1086.076416 -1319.489502 1588.740845
1057.272949 -1427.967163 1266.705688
780.452087 -1508.527710 1241.115356
795.082886 -1318.431885 1571.339111
814.225037 -1383.241577 1395.555298
763.786255 -1348.336914 1590.607178
764.967896 -1353.802734 1595.321167
957.961548 -1319.866211 1389.049194
1042.496338 -1421.610352 1256.216675
1066.649292 -1361.325684 1524.534668
974.588501 -1310.478149 1609.993408
753.407043 -1342.384155 1611.270752
822.684082 -1390.914917 1366.342163
785.121033 -1530.230591 1220.987915
777.855896 -1276.821411 1519.899048
980.385559 -1398.330078 1278.992920
1078.407837 -1437.761841 1327.354736
980.977478 -1249.107544 1576.967285
1021.419250 -1320.199707 1360.423096
777.920166 -1363.454346 1427.784546
1093.211060 -1327.245483 1548.671997
1026.541992 -1405.019775 1284.513672
987.097473 -1306.630737 1407.957275
863.431519 -1555.866821 1232.924927
975.280151 -1367.194458 1328.574585
996.339905 -1287.444824 1523.055908
902.936584 -1331.628540 1601.878418
783.806763 -1283.206665 1499.084351
902.205383 -1304.729980 1421.885376
806.205811 -1315.606201 1460.427490
902.635376 -1452.232422 1266.175781
1057.020996 -1422.801636 1273.015137
758.415344 -1299.412842 1497.143433
1053.207153 -1348.998901 1605.119507
884.871887 -1498.536743 1245.922363
843.572998 -1298.176758 1445.457642
1007.333496 -1392.208862 1276.375732
923.065552 -1400.808594 1643.933838
1003.347656 -1265.553833 1579.611816
854.185730 -1490.483643 1693.655518
766.670593 -1527.540283 1235.307861
903.847168 -1393.389160 1640.526978
837.964966 -1282.342773 1550.327026
971.391296 -1333.128540 1367.790771
870.706543 -1371.159424 1380.562012
886.424561 -1468.018921 1246.177979
1102.823120 -1468.383911 1257.799072
961.979126 -1295.620605 1585.108521
851.028625 -1436.704468 1323.893188
871.492432 -1429.993774 1324.747803
784.099243 -1405.357544 1376.660522
1104.617676 -1290.383789 1580.284302
798.239258 -1490.965210 1706.807495
1039.355225 -1371.435669 1312.534058
911.691284 -1258.920776 1460.987061
834.097534 -1292.715332 1557.042480
981.313049 -1444.286743 1236.249634
787.078796 -1389.012939 1407.818726
745.083130 -1364.719482 1604.874390
812.864624 -1296.665161 1469.988525
1112.401123 -1265.697144 1456.175903
948.379456 -1382.458130 1335.675781
834.160034 -1280.141235 1537.685059
809.102661 -1431.075317 1339.358154
970.865234 -1238.986206 1542.923950
757.913391 -1408.052368 1388.475586
792.724426 -1341.967896 1427.394531
808.495972 -1502.763306 1237.792969
802.128540 -1388.671997 1403.452637
862.457825 -1389.068359 1638.011963
768.614136 -1496.586670 1264.644775
730.329102 -1301.151611 1511.175537
1099.386597 -1468.846191 1251.191650
1019.011414 -1330.919067 1550.479614
1029.660156 -1377.007080 1665.971436
1002.015320 -1329.373291 1409.677368
1027.255127 -1369.066528 1506.240845
989.263672 -1525.386963 1188.875610
990.272644 -1309.639648 1391.958252
934.061523 -1293.989624 1582.479980
826.640076 -1415.016235 1358.794067
938.023071 -1340.452515 1598.814087
744.812012 -1368.484253 1619.350952
833.615479 -1273.244995 1474.253052
985.961609 -1294.602661 1425.381470
1011.986511 -1328.266602 1405.458984
989.679626 -1373.006470 1651.827393
829.827332 -1285.041870 1471.524780
798.691040 -1310.722656 1459.769165
893.180603 -1385.018921 1354.906982
826.843872 -1252.993042 1504.631714
1053.040649 -1296.293701 1451.245728
738.692749 -1261.468262 1556.857544
916.467590 -1362.548462 1460.696167
880.170044 -1416.824829 1320.157227
878.851929 -1447.890869 1687.354736
870.456482 -1381.566528 1645.785034
970.984985 -1483.161743 1189.372925
1051.181519 -1453.260864 1235.684937
1003.679688 -1298.658936 1496.632324
1032.114380 -1469.537231 1200.620972
783.398621 -1477.962280 1715.372803
749.684204 -1348.379883 1585.872559
945.978455 -1306.749878 1582.003052
1020.820068 -1328.487427 1380.113159
814.419434 -1449.053711 1668.278076
942.382324 -1254.525513 1547.695435
951.659851 -1406.683350 1293.883545
789.971985 -1465.617676 1714.471313
786.749084 -1447.218994 1317.509766
1105.046387 -1290.866699 1477.692261
1030.440674 -1417.474609 1255.383301
912.322449 -1417.133057 1669.863525
908.341064 -1246.683960 1529.418091
865.297729 -1442.677612 1682.546875
962.787720 -1388.409912 1327.232300
1091.568726 -1321.481567 1456.140625
896.665466 -1511.076538 1183.032593
961.534058 -1228.684448 1547.126953
921.539124 -1239.950928 1519.917725
795.936646 -1409.689697 1380.704346
876.569946 -1290.505981 1432.600464
1000.617554 -1300.009521 1585.325195
798.844299 -1395.193237 1374.938354
936.550842 -1385.722046 1660.035156
793.693420 -1417.958008 1371.222046
942.539307 -1437.590942 1692.331177
1048.806641 -1343.123901 1551.100708
977.845032 -1393.931152 1284.926880
873.873230 -1308.789429 1423.362549
908.434631 -1432.784180 1297.899292
857.402588 -1354.148071 1609.085327
898.054810 -1337.166138 1605.864868
914.167664 -1325.669189 1591.093994
850.714355 -1247.227295 1528.925781
1048.198730 -1371.755249 1309.465820
951.793823 -1358.656738 1362.314941
970.484863 -1272.651001 1435.327759
911.918091 -1244.122681 1491.459839
787.620361 -1522.927368 1217.091553
774.304688 -1462.767212 1298.447510
935.223572 -1435.853271 1263.616211
991.640320 -1414.698364 1242.372314
1053.991943 -1329.287231 1512.777588
916.988647 -1410.771973 1304.545898
1020.341797 -1306.030396 1443.240356
868.731506 -1241.309937 1540.060059
749.121460 -1463.782349 1285.965454
1066.103760 -1389.103638 1436.421143
732.873108 -1367.882568 1407.777954
1042.076904 -1459.085083 1198.743164
990.887634 -1278.757324 1584.472656
1038.459351 -1346.568359 1323.738525
1037.698120 -1442.858398 1241.517212
881.467590 -1472.017334 1711.022583
943.807800 -1366.927124 1620.145874
893.938599 -1402.833618 1335.875244
1028.424561 -1355.777588 1315.813354
1094.373779 -1283.788574 1458.742798
863.094849 -1322.999634 1599.679688
836.229614 -1484.972290 1265.994751
817.002869 -1476.774536 1282.018921
973.126404 -1365.424805 1334.081665
812.920715 -1448.718506 1310.721313
939.176147 -1228.348022 1501.368042
1025.297607 -1297.581909 1449.905762
953.162537 -1229.037354 1527.148804
967.077026 -1352.394043 1356.183472
921.188293 -1258.972656 1541.318726
884.814514 -1442.338135 1285.339844
914.399658 -1225.421631 1501.974609
999.871521 -1399.260376 1272.898560
888.997986 -1331.053833 1417.777710
876.618591 -1231.147339 1514.711426
866.467224 -1473.437378 1248.565308
832.615723 -1297.097046 1468.724243
876.705200 -1384.830811 1360.125854
1037.611084 -1287.243408 1484.271484
784.587219 -1468.521606 1282.979736
999.293091 -1312.404907 1401.438354
951.156006 -1346.446899 1604.930176
1004.544739 -1301.181641 1437.303833
1027.040894 -1349.299683 1505.909058
1023.905029 -1353.855591 1524.539673
776.215515 -1430.187622 1661.371582
1051.521973 -1385.570068 1328.772095
756.520508 -1280.190674 1531.480713
813.523682 -1263.916260 1505.140869
958.968079 -1401.836060 1295.137207
1043.228271 -1291.640381 1449.407349
825.485352 -1418.538086 1349.854980
763.516846 -1369.766113 1607.146973
795.440796 -1346.942627 1425.174683
723.120605 -1315.696167 1509.700562
820.660889 -1292.414185 1543.542725
968.286621 -1233.923096 1482.419556
913.057190 -1251.343506 1542.332764
977.522339 -1241.402588 1508.431152
873.747314 -1405.034180 1337.694214
854.757996 -1342.237183 1611.222900
1051.571411 -1473.624634 1202.321411
1005.036316 -1289.487427 1558.238647
1028.067871 -1299.665039 1549.274780
760.026489 -1405.979736 1382.242065
958.130432 -1222.213623 1489.001953
970.353943 -1242.284912 1477.751709
1129.308105 -1264.309692 1460.511230
943.219543 -1343.686768 1613.299805
866.691772 -1393.605713 1373.993896
1126.999390 -1282.226074 1463.267578
1020.553101 -1323.402954 1392.635864
963.777893 -1277.846191 1431.897705
1025.981812 -1316.151611 1465.384766
733.559814 -1306.049561 1514.854858
888.747192 -1408.927002 1657.274902
842.314087 -1477.795776 1265.497559
1040.061890 -1384.088257 1343.075073
834.740845 -1349.525146 1411.588257
1117.322144 -1316.119873 1524.179443
940.794250 -1336.651978 1388.302856
1049.125000 -1424.792480 1252.173828
963.912170 -1420.277832 1678.207764
1038.134888 -1458.920044 1198.879150
777.881531 -1412.687866 1643.408203
950.188721 -1251.710083 1543.504395
763.201294 -1408.983643 1634.652832
821.521179 -1275.348877 1516.738159
1074.013306 -1448.173340 1234.706299
1135.103394 -1274.098633 1445.576782
1013.135620 -1410.024658 1276.967041
925.075256 -1417.323975 1684.009521
1049.908813 -1395.467041 1295.220581
895.243042 -1303.001831 1433.884644
966.745789 -1445.612183 1248.424683
886.060974 -1394.644043 1649.409302
776.203369 -1488.710449 1281.292480
981.220642 -1335.489990 1359.081177
938.421021 -1250.526123 1533.467407
1035.579834 -1341.028809 1387.736206
892.382813 -1248.256836 1481.245483
953.280396 -1324.751221 1601.575195
956.948792 -1485.484741 1194.003540
762.610413 -1273.554932 1523.592163
839.417114 -1511.971924 1263.168091
778.066406 -1334.945313 1582.311768
836.597351 -1320.202515 1579.013062
923.665344 -1358.408569 1367.681396
1032.417603 -1422.656860 1247.975830
982.158447 -1386.253296 1655.855835
778.164124 -1392.672852 1628.191040
926.501221 -1379.308105 1640.515259
1033.651245 -1345.352783 1368.769775
1061.715454 -1437.184570 1274.976196
875.280945 -1406.955811 1338.313965
843.518372 -1444.827759 1292.836426
1059.584595 -1388.598755 1403.117188
1008.709778 -1361.763794 1313.935059
833.556946 -1346.576172 1605.146484
821.726624 -1259.982422 1493.764648
786.189514 -1287.265503 1541.041382
784.986633 -1444.303467 1310.840576
942.465210 -1316.947754 1415.075562
999.710693 -1264.053467 1530.026978
823.806396 -1407.423828 1365.951294
921.586792 -1514.162720 1198.948608
1103.906494 -1320.074829 1486.784546
752.460938 -1377.040283 1430.615112
1103.958008 -1491.515625 1250.865723
885.983948 -1279.077148 1569.096802
941.635010 -1237.864014 1526.104614
1113.212769 -1288.247314 1419.145142
961.306519 -1274.338257 1577.502563
749.850342 -1331.697021 1468.054810
982.334839 -1435.736816 1225.714600
1064.783813 -1415.675171 1301.339722
1095.175537 -1298.630859 1490.045288
750.968872 -1457.050293 1316.195068
1000.550964 -1297.114502 1504.734253
761.175171 -1397.770996 1641.955566
1026.064941 -1335.729614 1578.674316
880.067993 -1267.975952 1477.235352
848.544800 -1450.746338 1299.144287
832.852112 -1294.351807 1470.864746
775.764221 -1295.344971 1490.908813
1118.911865 -1272.484497 1471.978394
977.862732 -1391.606934 1658.877930
979.918640 -1447.081665 1206.201538
1023.805420 -1321.778198 1552.491699
1111.311646 -1279.348633 1458.450562
1012.721191 -1299.993164 1450.401245
914.322388 -1306.103638 1590.488403
873.080627 -1529.889404 1206.277344
805.578796 -1285.992920 1485.369629
874.552612 -1349.682861 1420.973267
946.048340 -1332.596436 1392.197144
912.789734 -1388.131714 1345.228271
1091.130005 -1432.081177 1229.388794
1096.725830 -1320.335938 1585.047363
972.815674 -1268.622681 1439.649536
844.579346 -1400.904053 1366.353760
880.832153 -1263.078003 1463.146362
1063.006226 -1430.398804 1311.568970
1092.678345 -1323.560547 1592.224487
892.580872 -1258.657959 1474.428833
885.033630 -1426.387573 1325.392212
805.375732 -1477.343018 1697.651367
743.498352 -1382.493652 1436.533325
928.133423 -1511.021118 1174.114014
955.236633 -1303.980225 1584.389893
961.855835 -1408.179443 1299.380859
855.714355 -1437.319702 1690.361206
968.055542 -1332.931030 1620.463257
982.332703 -1326.373047 1363.978149
946.746765 -1262.926147 1445.502441
1020.585876 -1332.270020 1405.297119
990.385559 -1259.866455 1475.354980
752.429871 -1299.217529 1507.584839
964.578613 -1420.868286 1280.540771
796.525513 -1473.776611 1271.047363
1003.593994 -1374.643799 1668.577393
901.079834 -1287.287720 1566.689209
727.546997 -1295.547363 1520.444824
807.306946 -1311.854370 1446.585815
945.006958 -1396.035645 1319.657837
724.372131 -1311.467407 1588.054077
780.365723 -1456.661133 1678.771118
1102.076172 -1307.203735 1460.513916
1115.145630 -1283.289429 1445.370850
832.713684 -1529.011719 1225.948120
735.416809 -1315.600220 1586.492065
806.699402 -1468.152954 1293.723267
794.107971 -1386.156006 1398.829712
907.358215 -1360.934937 1635.131714
783.962097 -1287.519775 1494.669678
1021.129211 -1457.337891 1196.493652
866.653076 -1250.704834 1491.817993
735.919861 -1291.520020 1525.829712
977.467041 -1452.078491 1216.323486
922.983337 -1394.829834 1324.250366
764.622681 -1355.448364 1455.969971
742.880554 -1410.457031 1399.866089
753.793762 -1351.685669 1460.925049
832.128601 -1517.563110 1216.050537
784.003906 -1323.185913 1571.767334
1030.024536 -1363.177734 1332.738647
868.943665 -1414.085938 1323.902466
1016.664978 -1319.853394 1467.842529
777.584473 -1312.214111 1470.104370
1006.851746 -1304.958618 1621.069824
996.647217 -1329.549561 1391.319946
930.849365 -1422.091309 1688.578125
889.533813 -1256.434570 1479.033081
1012.537903 -1447.461182 1222.245605
920.362732 -1446.060181 1271.058350
848.876953 -1294.979370 1452.498413
763.116150 -1289.752319 1503.238892
964.475037 -1281.448975 1419.422607
936.956299 -1238.859497 1522.203979
809.922180 -1413.276489 1365.067749
944.155334 -1248.882935 1542.254517
874.987122 -1378.894775 1375.663818
916.915955 -1258.215454 1476.247314
1056.749268 -1334.337402 1559.963745
1091.847778 -1332.473022 1536.281738
818.878601 -1503.150146 1244.209839
992.473206 -1300.578369 1621.062134
990.734680 -1320.216309 1389.807251
873.935303 -1449.877075 1291.062256
760.191223 -1321.601929 1468.813354
742.459351 -1427.730591 1377.054932
1133.478516 -1278.018311 1453.473877
1048.689331 -1410.344238 1294.817017
773.807983 -1332.291138 1458.056641
1024.312134 -1401.911987 1282.255981
967.515991 -1348.430176 1372.397339
1001.091248 -1290.147339 1584.846191
793.598572 -1292.546143 1487.444824
947.218811 -1328.460449 1614.142334
813.615051 -1391.337158 1648.856079
780.240234 -1416.939209 1658.481689
991.123291 -1283.378052 1475.248779
1027.466919 -1328.798828 1441.047363
770.856079 -1314.866211 1568.902100
880.560669 -1333.811401 1599.132080
759.677002 -1381.627686 1415.762085
959.886047 -1298.745605 1411.791504
835.325012 -1475.339233 1702.960205
777.866821 -1419.385010 1379.327271
1077.530884 -1434.995117 1356.277710
1013.231689 -1315.200439 1466.907349
931.986084 -1368.592651 1355.539795
900.165588 -1269.551025 1458.810181
913.389404 -1315.238281 1598.238403
982.203735 -1428.086060 1247.228271
1017.737061 -1474.777466 1189.229858
1034.897339 -1318.435425 1486.274414
755.910583 -1397.885254 1401.618530
980.568176 -1320.616943 1375.235596
794.515869 -1271.340698 1525.925537
829.219543 -1448.163086 1681.941895
989.119385 -1226.200073 1517.881470
902.820129 -1246.696777 1528.493774
994.391418 -1445.206055 1225.910278
748.113403 -1447.339966 1330.046143
782.017456 -1370.702026 1410.101440
760.444580 -1486.481323 1295.542603
1006.050476 -1299.841675 1624.114624
875.311096 -1447.439941 1299.128174
890.849548 -1390.498657 1344.901611
892.200134 -1256.540527 1542.768555
910.334290 -1401.429932 1322.665894
724.399048 -1300.286743 1546.610474
1003.479614 -1446.777588 1205.982910
993.797119 -1273.312866 1561.575317
934.810242 -1332.705322 1616.781860
1023.448303 -1341.698120 1327.403931
764.856750 -1424.322388 1653.045654
757.795532 -1295.283569 1544.763184
1009.446960 -1314.711670 1421.761353
983.354858 -1467.452637 1193.398560
867.220764 -1428.031128 1318.683594
1029.463135 -1319.036621 1568.545410
730.344116 -1312.714111 1546.161011
994.807861 -1270.251953 1541.912476
986.884399 -1480.036621 1175.039185
886.042419 -1382.365967 1357.525269
1056.062744 -1328.948364 1494.429443
863.469543 -1403.659424 1637.770996
821.477783 -1271.008057 1489.016602
872.531372 -1531.013672 1192.365967
1083.576904 -1460.598145 1235.817139
955.648254 -1239.086548 1469.782471
959.441162 -1246.635986 1546.373413
1028.420166 -1351.732666 1356.046753
725.556213 -1297.011841 1546.486694
942.438782 -1238.770630 1516.751587
1020.003479 -1469.472168 1188.676025
899.166626 -1380.388794 1387.128052
946.120972 -1267.622314 1443.214111
814.641357 -1252.112061 1529.209839
998.911743 -1282.200439 1580.579712
885.473877 -1379.383423 1362.004517
926.330750 -1514.749756 1214.159180
827.369751 -1298.192749 1559.413086
974.353943 -1300.791626 1402.421997
1046.135986 -1395.542358 1302.957642
825.028748 -1298.714844 1476.797974
824.865479 -1442.541626 1674.331665
792.610535 -1486.599976 1754.920776
986.230957 -1271.859741 1593.436768
1032.427124 -1304.861328 1442.120605
1057.335571 -1321.231689 1491.075928
1050.470215 -1323.170288 1450.307495
738.422180 -1389.509277 1393.855957
863.439514 -1273.586060 1486.708008
958.980652 -1320.250488 1601.445801
995.359009 -1284.596069 1508.669800
988.638977 -1294.278809 1445.314087
743.282288 -1360.225708 1443.964478
788.911072 -1459.694336 1679.364746
1038.036987 -1350.351929 1612.509277
776.654053 -1381.107178 1398.488281
938.182190 -1230.978394 1511.730713
821.730469 -1423.737061 1323.690186
1103.773193 -1309.050903 1580.511353
946.682373 -1562.311401 1211.051758
780.831726 -1341.345093 1431.982056
858.205627 -1501.806274 1206.761597
1048.040039 -1282.082031 1460.696533
1103.871338 -1279.116577 1459.532104
1118.395630 -1301.939819 1488.027588
847.894897 -1331.444336 1578.239136
782.980347 -1278.068970 1506.807861
973.109192 -1369.491455 1319.458496
822.506226 -1283.647583 1471.582153
974.450684 -1450.532593 1242.728027
911.384399 -1245.154907 1524.622070
777.918213 -1443.604004 1663.515137
852.976257 -1270.640869 1480.469971
792.930847 -1384.058594 1427.511597
1075.945068 -1289.410156 1443.523560
858.237183 -1412.672363 1346.722168
815.280518 -1294.983521 1555.296631
1082.500000 -1443.093994 1278.775269
1060.850830 -1358.320801 1613.869629
1003.711121 -1370.902832 1306.334106
787.951294 -1378.084229 1411.682983
935.453735 -1258.582153 1458.449341
1031.030396 -1339.256226 1546.223755
1022.098816 -1363.501221 1316.878052
985.941772 -1410.004517 1276.428711
777.264038 -1299.540405 1510.274170
900.757202 -1494.838745 1237.210693
917.191528 -1443.507568 1267.988647
1002.957886 -1349.778442 1326.747070
922.747009 -1255.393677 1465.150757
1079.764893 -1315.166016 1485.542114
823.363220 -1462.940796 1299.397949
959.104858 -1363.048218 1358.701782
737.408386 -1367.854736 1432.443115
1020.653564 -1403.657227 1279.549927
934.103027 -1297.709717 1589.335815
998.678589 -1316.933472 1381.839600
897.132690 -1410.980713 1317.787720
872.095337 -1529.464478 1240.726685
881.616394 -1349.221924 1413.135986
1051.381958 -1437.954956 1231.745117
842.413879 -1251.130981 1497.620361
989.273193 -1391.272583 1673.295776
944.730896 -1374.311523 1337.193481
1037.013672 -1309.117310 1451.556396
762.556702 -1493.098145 1275.065796
1080.026611 -1308.149292 1558.237549
834.853882 -1314.175049 1440.959473
