ply
format ascii 1.0
element vertex 1379
property float x
property float y
property float z
end_header
1687.526733 1305.649048 258.324615
1807.380615 1137.235352 446.403564
1897.520752 948.124512 231.014252
1765.768677 1176.512695 283.598236
2086.397705 1037.483765 303.880981
1891.502197 1051.952881 472.133301
2029.608276 1040.773804 455.330261
1839.070190 1005.372498 310.358459
1691.387085 1268.641602 402.771362
2103.459961 1058.100952 318.063751
1991.681885 1026.248657 409.024048
1918.771362 984.570740 408.243896
1886.527222 957.097290 364.109131
1760.277832 1159.477417 377.103180
1825.212036 1045.098145 200.548004
1710.461548 1226.054321 133.960114
1662.151245 1283.952637 338.765289
1847.310181 1080.597168 252.396103
1856.661621 979.447815 314.417908
1792.555420 1099.451904 206.368103
1990.853271 1087.927979 503.891785
1977.106934 1011.048096 480.733856
1739.663086 1217.699097 413.509064
1957.684692 1003.350159 406.763428
1966.252808 967.628357 332.134125
1880.582397 979.191589 395.275696
1685.295532 1275.348633 332.989960
1783.055176 1218.480591 444.992188
1738.982788 1181.946045 123.390198
1833.740601 1024.520996 355.677704
2021.388672 996.074951 300.819641
1987.539917 1094.409790 496.219513
1859.751953 975.574341 254.832047
1793.038208 1138.736694 424.225739
1842.704956 1015.881897 353.011993
1732.314819 1153.242310 124.824699
1745.357910 1207.491699 332.471863
1977.982910 1015.428284 402.860596
1746.404663 1182.580933 290.319244
1794.758301 1114.491577 376.605621
2112.835938 1071.486816 336.571838
1960.690308 966.375671 324.256378
2021.536011 1023.521851 388.029053
1810.562012 1167.261841 442.912476
1846.403198 1103.089111 520.349121
1710.005005 1253.995117 384.280212
1790.163330 1116.101440 346.556396
1779.828247 1159.148315 446.361786
2070.854004 1153.569702 459.394409
1753.327881 1171.217285 373.593170
1980.810913 955.509338 270.111725
2048.120605 993.424683 273.149811
1689.492676 1301.191772 358.841248
1964.524658 1107.957275 493.222168
1743.278198 1192.675659 292.966888
1773.425903 1132.440308 430.944641
1934.525391 953.982056 318.483246
1887.050049 957.290283 242.291290
1784.260986 1133.720581 212.004227
1657.292114 1297.812134 325.348053
2000.027588 970.153992 246.710236
1839.725708 1037.353271 461.223206
1848.070190 988.798706 192.102188
1867.717407 958.023071 408.475311
2020.376831 993.044434 293.408325
1747.978760 1205.217163 444.340118
1808.856934 1112.073975 280.676575
1972.575317 1006.667664 469.386047
1693.642944 1271.003418 368.742889
1954.426514 985.840576 380.213440
1878.588745 965.783508 386.049713
1921.116455 985.409790 390.493256
2066.620117 996.021912 225.186707
1825.877441 1069.508179 209.836334
1733.145508 1211.589478 222.660767
1809.024902 1107.908813 258.592834
1905.882690 1024.731934 474.710815
1815.401489 1062.213867 186.363129
1878.672241 973.628479 227.994156
1998.244141 989.604736 311.481537
1866.619141 967.471497 322.409729
2021.810303 980.516052 237.599884
1852.678101 1047.497803 266.008118
1946.705078 945.229187 281.022980
1856.248169 980.274414 414.341003
1934.425903 1062.879883 468.240204
1849.307617 1100.535156 542.396179
1850.042114 986.794739 416.720673
2051.283691 959.365967 227.682465
1878.741089 938.752502 298.140350
2161.232422 1073.644653 247.766037
1921.391724 903.587891 234.150955
2106.814941 1081.192871 358.714539
1763.152222 1169.845825 323.289246
1960.080566 1096.901733 504.465515
1772.195801 1148.100220 403.705078
1928.297852 897.437439 231.137787
1980.300781 1100.005371 492.717346
1890.820313 964.759705 203.549835
1856.087769 1081.938477 474.815002
1839.640503 1045.476440 183.507828
1861.329468 974.781738 436.491669
1681.420288 1298.606812 147.747818
1834.446167 1034.910034 226.619019
1700.026367 1234.070557 117.234924
1748.084961 1225.403687 425.502655
1935.824097 1117.293457 451.572205
1676.078613 1263.049316 246.459854
1711.615601 1242.262695 224.981140
1912.298828 975.982361 399.039429
1902.571289 1055.141846 477.172699
2122.647217 1069.077881 321.606598
1820.295654 1072.615479 230.793167
1803.856689 1089.629272 179.523254
1971.295410 1087.316162 559.499207
1836.289551 1036.418579 443.659424
1830.268555 1029.679810 262.841522
1927.182373 986.517578 470.344513
2096.123779 1059.350220 336.909302
1670.143066 1280.378174 306.910004
1850.612671 991.022217 315.369232
1950.030640 1063.895020 471.850647
1718.416992 1274.323120 404.838837
1811.532471 1097.034546 239.596512
1803.581787 1094.447876 159.342758
1743.436523 1152.953491 169.234650
1898.406982 1054.101563 466.440643
1930.877563 977.853760 394.485931
1838.396606 1031.942505 195.569611
2018.947021 1105.014404 497.701721
1868.527222 973.748291 226.889923
1901.227051 933.499023 274.172333
1671.012085 1291.214355 243.649231
1791.565674 1121.641846 437.697235
1952.893799 962.475952 311.332245
1706.212280 1219.832642 366.034424
1775.461914 1154.861572 282.316498
1855.850586 930.501526 230.107697
1965.902832 1004.604614 483.121124
1773.283447 1132.795898 396.269928
2040.616211 1045.907837 466.101257
1926.081299 970.384338 367.954498
1832.457886 1007.973572 234.483795
1853.021606 975.515747 303.198303
1755.509399 1147.261597 202.929535
2166.198486 1038.144287 225.457703
1754.444702 1174.184937 207.883728
1961.923096 1098.941650 512.956055
1825.654663 1075.146729 230.597763
1887.805420 931.104248 297.131653
1959.198975 1001.461487 483.395996
1730.270386 1225.615845 412.945831
1987.245483 1028.002441 441.247467
2068.223633 1021.232422 266.991364
2059.119629 1050.342407 480.390167
1839.038574 1071.894165 230.134354
1939.342896 976.762878 408.951233
1872.951904 957.856201 414.014038
1853.713013 986.515381 287.306915
1703.807373 1262.074341 183.145630
1823.565186 1079.505615 389.216522
1866.718018 1053.229980 300.153198
1907.021729 973.516418 462.883453
1816.539795 1052.472290 375.798248
1845.546631 990.700195 369.987152
2148.544678 1050.509888 223.288208
1921.496704 899.827942 242.880554
1842.517700 997.299561 329.512878
1722.719727 1217.959229 320.232300
1922.607300 995.679749 436.286163
2083.376709 1073.402588 483.255554
2132.968262 1076.013672 306.383728
1874.611084 952.381714 395.796051
1849.178467 1020.285583 456.590790
1859.248901 985.813538 442.423462
1836.905884 1028.398804 406.207397
1990.703125 1082.363647 487.964020
1842.502930 1033.036987 230.530075
1985.220581 1005.662537 371.290894
1964.517334 1080.587769 469.800964
1767.355957 1155.004761 406.073700
1711.837280 1230.585083 312.979767
1801.142578 1104.345337 253.018906
1905.207764 936.096619 304.051208
1842.918335 1010.901794 285.372986
1840.661743 995.644043 333.349792
2047.208496 995.186401 238.709198
1923.958252 920.533081 288.569214
1823.875732 1064.505737 339.898163
1863.201050 1090.334106 457.849976
1841.866089 1019.172424 405.094482
1691.918823 1195.205688 113.567322
1862.386719 1109.185791 547.072388
1958.251709 1091.895996 531.225525
1856.353271 1086.975830 498.432129
1853.467651 994.649963 345.118958
1820.571655 1092.078125 228.002472
1751.576782 1169.630737 189.652145
1688.070923 1286.605225 410.833435
2019.141968 1036.930176 405.553467
1825.693970 1031.450806 347.480438
2078.390381 1020.032104 251.943161
1736.500122 1195.495239 117.789932
1905.882202 966.671265 398.219757
1957.390869 973.628540 351.048920
1957.484985 1039.400635 482.016510
1972.409424 1002.454468 491.344696
2047.647339 1086.227295 472.772949
1811.940308 1069.827271 421.830017
1810.788940 1098.867188 243.738846
2038.286499 1015.941162 313.915161
2029.798462 1122.000122 499.495026
1997.051514 1099.036499 523.840027
1808.291748 1244.246216 427.140320
2023.700806 1039.935059 457.546143
1774.630249 1148.796265 221.616791
1756.506348 1161.465698 190.447830
1852.013550 1126.831177 590.848755
2136.879639 1098.535156 310.962463
1850.636841 997.965942 417.485077
2022.646240 1018.249512 374.966095
1899.752808 930.063293 277.121857
1842.425903 1024.117798 210.394424
1884.530518 941.251221 294.017975
1749.543335 1181.755127 408.138672
1903.042236 916.577454 225.858322
1851.594238 981.337219 376.804962
1697.946045 1272.204590 355.668671
1780.178955 1143.239502 344.759125
1915.599854 990.627563 466.784637
1959.104980 971.365723 351.202332
1906.147583 994.485352 477.086395
1822.712036 1039.149902 369.622711
1840.194824 1032.224609 460.590942
1849.402222 1018.312195 454.120636
1817.773193 1072.271484 220.236282
1924.002319 1144.252808 452.339661
1663.151001 1309.430908 360.030273
1866.881592 991.032898 470.626953
1744.980591 1229.302002 432.262115
1825.338257 1035.580200 431.949463
1856.551758 1001.458435 457.479614
1755.916748 1154.612915 400.429443
1986.987671 967.293091 288.247833
1847.753662 1006.593140 459.611511
1955.327393 1084.999756 532.925476
1708.480713 1240.206421 302.878937
1845.990112 1025.023193 230.305801
2146.065186 1040.659424 220.686417
1838.723267 1004.433777 258.494629
1902.237183 943.425110 227.796982
1957.081299 976.806091 354.370422
1735.177856 1221.476196 343.574615
2019.884277 1103.460815 494.436707
1711.156860 1260.493774 293.487396
1839.511963 1038.509155 184.973267
1842.192261 986.499756 363.973541
1826.529419 1036.087646 393.046661
1725.830566 1219.696289 388.691406
1857.705078 986.343933 437.810059
1985.815674 998.215637 352.436829
2055.664795 1020.207458 328.028381
1854.076538 1096.256714 476.914886
1923.463745 964.145081 376.782196
1726.253662 1215.005371 192.632828
1686.691406 1283.931152 351.995331
1740.086060 1209.945923 432.981720
1854.804077 983.570618 355.250702
1833.925293 1117.716431 552.836426
1857.223267 996.509216 472.271332
1855.453247 987.636230 265.103180
1804.940063 1111.209961 246.782745
2033.458496 1054.429199 475.738708
1822.254395 1053.903809 220.349609
1749.345337 1179.402954 251.482666
1669.251099 1277.654785 363.027008
1886.228027 969.673401 455.821228
1707.179932 1233.572632 232.460403
2010.170532 970.194153 252.209137
2117.197266 1054.429199 288.911957
1742.801514 1221.178833 432.880157
1944.942627 963.156128 324.200104
1831.191406 1034.705811 406.678802
1656.193237 1301.376831 325.627106
1822.265503 1047.274658 439.946259
1714.577881 1230.092163 167.944153
1880.255493 971.948425 210.916931
1809.843872 1078.618896 422.440643
2079.207031 1019.720215 314.256897
1785.103760 1292.574219 417.238922
1859.878296 992.098938 449.408356
1791.664063 1134.049072 168.482849
1732.628418 1204.625977 148.382919
1703.361084 1249.552246 371.044952
1986.042603 942.352783 228.140228
1717.963867 1256.030518 409.750092
1914.984497 1093.138184 455.705994
1762.427979 1160.173828 187.887466
1877.415527 952.648499 317.055603
1826.372192 1070.328003 325.593842
1844.097656 1102.233887 504.504578
1899.269287 1169.879028 532.882385
1884.105591 985.240356 465.495514
1778.751953 1119.473755 145.550003
2042.663818 1050.645264 481.806549
1859.958008 1001.154114 400.399170
2092.942627 1014.825500 226.758865
1673.160034 1290.972900 352.931519
1869.489502 972.100952 365.856079
1791.931152 1095.960449 180.830276
1837.211914 1007.561218 344.865997
2060.833008 1073.065308 472.206848
1831.800415 1018.631104 326.359680
1869.192627 968.996521 382.027527
1856.507324 1077.521729 469.958984
1832.397339 991.218750 209.207977
1976.587158 993.457825 365.832397
1798.148438 1110.941162 283.695557
1897.725952 1132.120605 498.977875
1651.020508 1323.906616 335.320160
1845.261230 1025.457886 458.448669
1702.886108 1242.366577 320.214813
2012.217529 1024.545532 406.503113
1751.776367 1184.367676 358.545593
1867.635254 1139.460571 552.494080
1749.624512 1162.170776 148.856552
1845.680786 1105.419678 447.149963
2041.408203 1029.980347 347.206909
1799.403320 1161.083740 437.840057
1812.972412 1072.032959 187.614090
1854.781006 987.004150 333.987671
1846.734863 976.418396 367.152740
1894.632080 1067.300415 287.484497
1829.697998 1022.106812 384.884125
1987.055054 982.787109 306.772949
1712.459229 1381.350586 367.367065
1850.477661 979.333801 343.755310
2016.799194 1031.079102 488.991394
1868.556030 993.564453 478.786102
1771.064697 1152.020874 358.491364
1968.553711 1059.477051 484.588013
1870.615479 946.296814 289.149261
2017.690552 977.535095 257.683960
1726.112549 1274.739990 414.529877
1774.654053 1150.332886 332.468658
1824.572510 1030.069458 342.273346
1699.600464 1240.573730 343.676178
1880.974487 957.347290 262.213837
1746.596924 1180.042358 192.409851
1820.344482 1053.551636 222.266144
1787.114380 1108.846802 168.886627
2053.530273 996.895691 248.010696
1767.804199 1161.250488 235.171524
1679.601563 1287.528687 334.655487
1887.912109 947.807190 265.652496
1956.265015 974.244263 371.418396
1945.751709 996.186523 416.601257
1724.343994 1258.705444 416.871735
2073.130127 1056.600220 369.816864
1717.566650 1251.376953 275.420319
1850.363892 981.382385 298.304504
1860.535767 1106.401611 540.421204
1717.484863 1230.005981 132.292725
1820.555664 1073.735718 436.492065
1787.333252 1126.318237 292.034149
1922.170532 985.057617 404.744232
1811.156250 1119.902954 452.512115
1712.698364 1287.563599 212.428024
1688.472290 1268.618774 364.626953
1740.260010 1197.151001 351.405701
1712.534790 1262.384521 389.408356
1745.608887 1206.723633 301.086517
2005.000122 963.615112 232.012894
2026.525269 983.066040 235.677399
1713.104614 1229.126953 352.271698
1978.225830 1095.523071 528.603394
2021.402344 1113.238770 519.318481
2005.962158 991.006531 302.965057
2058.458984 1130.938477 470.476746
2058.524902 1010.039124 251.977142
1898.602417 1088.659424 484.903961
1786.266113 1115.507202 410.718628
1784.215088 1142.447510 143.552948
2005.004150 1013.310547 485.959351
2030.749268 1112.077026 504.309174
1679.806519 1262.532104 356.929047
1841.239380 1121.459106 551.393494
1781.218872 1137.673462 219.920731
1969.404785 1092.312744 554.418884
1799.565186 1093.728638 155.566803
1738.680420 1200.855469 419.574432
1832.300049 1018.814575 329.965729
1858.053833 974.200867 331.814026
1844.903687 1010.609375 315.796967
2041.013672 1014.137207 311.497345
1999.205688 1045.388184 429.007263
1878.472900 986.223389 459.758698
1696.065063 1264.636230 270.472260
1983.453491 1062.434326 502.989319
1769.638184 1165.520874 315.901489
1979.319580 1017.922424 478.888977
1857.062012 985.675049 252.725143
1811.061890 1109.011719 272.615448
1869.116821 956.614075 327.967896
1848.824951 993.471130 285.526703
2100.038818 1086.658081 397.322662
1793.030151 1098.723633 427.026306
1756.572754 1157.125000 387.858246
1979.926392 992.374939 371.834229
1833.691162 1041.160278 431.056946
2158.880371 1052.508179 219.501526
2018.351196 971.851196 229.243073
2046.569946 1010.492554 290.603943
1843.042480 1016.855225 320.674896
2054.817383 1046.908081 372.590179
1712.229980 1213.891602 129.698196
1842.536011 1009.951599 328.306183
1817.206421 1137.505859 595.456421
1838.779297 1133.246460 569.957214
1855.307373 999.417236 401.864716
1939.155396 1002.141113 443.376373
1816.787842 1092.074951 384.120575
1813.690552 1075.955200 436.165100
1767.491577 1115.666016 159.526031
1805.737183 1087.723633 177.745438
1839.527832 1005.260376 394.616791
1911.170532 1120.172119 472.423431
1856.044800 993.594727 429.227356
1838.345459 1034.611206 458.953156
1680.460815 1300.356079 153.111328
2004.580078 1077.659180 483.435883
2085.384033 1012.476746 226.491241
1964.518188 955.666931 289.065094
1955.613892 1003.169617 469.203674
1770.402710 1169.847290 202.964706
1730.406372 1188.257935 166.115082
2028.420898 996.956787 285.374359
1894.822144 936.788940 276.256836
1688.419678 1265.179321 201.357010
1900.864990 961.632141 387.045624
1791.140625 1088.408813 155.733444
1854.830444 980.014282 414.858185
1699.780029 1251.815063 190.605331
1873.617188 973.007507 302.679779
1777.395020 1139.348511 347.284332
1874.678711 1146.843140 507.304749
1896.256226 976.169189 431.468903
1872.502808 960.566956 259.917328
1717.762085 1221.389893 185.638504
1829.296143 1017.647156 386.157379
1876.067871 1083.406738 294.495575
1943.841187 974.940247 376.382385
1892.168335 997.610779 475.055145
2010.702881 1042.426025 481.856903
1963.404053 987.756226 371.373749
1685.415039 1291.445068 268.313202
1865.792725 968.287048 283.718353
1840.736328 1022.117126 431.956543
2104.771240 1065.550293 367.425049
1855.617798 990.627014 455.650116
2019.381714 1007.919434 317.161255
1860.683228 980.433960 247.454865
1918.650879 923.278564 256.843536
1821.081909 1132.230225 430.604279
1798.708496 1245.927368 447.367554
1862.538452 980.259521 320.199341
1902.733276 994.776306 477.965027
1849.756592 1003.445862 366.615509
1890.236328 976.729736 198.604492
1923.332275 1077.473755 471.878387
1873.393311 973.398743 439.108429
1874.595825 957.802307 321.751831
1770.854980 1144.849609 315.155029
2113.702637 1062.002075 284.947052
1872.896362 967.772095 370.061066
1771.315308 1135.224976 402.395355
1847.201416 1126.766968 573.178101
1864.677124 984.707153 453.694366
1683.683716 1266.009033 185.426361
1728.198120 1201.772705 384.098755
1911.828247 982.761963 420.295868
1752.622681 1209.208740 174.574020
1759.382324 1182.883057 222.713913
1989.196045 1010.595581 382.904419
1961.589355 989.710571 378.979553
1919.090454 929.557922 266.642120
2072.318115 1083.620850 483.369324
1739.363159 1196.928101 322.059967
1859.955078 989.426208 471.808868
1743.741821 1196.179199 303.073486
1887.722656 953.061340 214.081207
1873.172729 981.033081 225.702408
1808.573853 1107.569214 378.139923
1848.405273 1079.895630 457.644287
1735.454956 1243.771973 412.629883
1855.859497 977.680542 330.747040
2179.165771 1053.028198 230.054535
1992.717041 1058.504272 487.879547
1776.533081 1147.695679 447.811401
1857.841431 1124.517090 482.517578
1716.896973 1247.671265 392.898712
1843.306641 1006.271790 440.189636
1677.361694 1295.506104 337.470703
1842.172241 1099.179810 539.331665
1850.920898 1092.157593 464.546478
1801.606934 1073.592285 162.072617
1710.354736 1247.491211 317.100647
1657.319580 1292.312012 318.946899
1671.848999 1273.344360 351.798035
1850.710693 999.741882 267.010986
1740.476807 1184.924316 141.592621
2006.701294 1030.185303 403.420929
1830.084839 1126.471558 570.345886
1707.600708 1309.513550 400.363434
2025.623901 1054.908691 430.346802
1845.459473 1000.534363 414.719482
2011.058594 973.511414 258.850922
1720.252319 1247.175903 305.527863
1714.112061 1237.251221 340.256256
1814.763184 1076.822998 180.529587
1731.926636 1178.425049 117.975914
1818.807251 1083.210449 314.895142
1835.364624 1018.294312 421.865570
1838.624512 1024.583130 338.840637
1987.299927 1111.319458 558.120422
1836.105347 1022.979187 220.446381
1922.424561 975.221924 403.624176
1850.256592 1104.227783 470.981110
1909.115356 946.644531 378.515900
1880.463623 945.331299 317.238617
1742.417480 1237.896973 181.904297
1981.834839 1105.743652 557.030090
1809.831421 1050.915527 165.470383
1834.783325 1051.861694 448.108826
1955.339600 990.093201 385.645447
1954.193481 1061.287476 472.355988
1996.269165 1038.631592 435.231628
1757.291992 1157.752930 242.207397
1768.839722 1161.824097 216.079956
2039.875244 1045.745239 379.836975
1885.007080 1145.831177 565.401611
1832.457520 1081.920166 387.664490
1843.050171 1128.414307 469.557037
1698.693481 1252.182373 156.967117
1904.244629 944.132874 335.196564
1841.987549 1004.634705 329.025238
2003.492065 985.604004 304.210510
1804.082031 1088.068848 410.187286
1745.213257 1176.718140 380.257080
1750.406494 1197.238647 435.303223
1847.725952 1009.918579 283.250214
1740.808594 1177.997681 214.400818
1856.481567 1105.838745 520.943542
1873.811279 941.374939 218.324982
1914.964111 912.139954 224.346573
1904.956543 968.733459 479.861725
1733.683594 1232.283936 165.503281
1969.192139 950.833984 254.608597
1694.110718 1349.051758 288.205200
1881.832153 980.364929 478.665558
1782.187378 1144.688477 289.290100
1838.874756 1038.421387 457.373322
1821.731201 1056.981445 182.652237
1657.762939 1314.592407 278.781281
1790.755249 1133.196533 338.983704
1786.493042 1181.868286 443.920807
2080.327881 1080.644897 461.214417
1929.934937 1122.673828 504.554077
1839.483765 1007.233215 369.686127
1972.349609 1006.567444 392.706024
2140.669922 1043.731689 262.969757
1969.736938 996.222107 371.234070
1818.743164 1044.911743 431.331573
1915.682007 997.566467 469.422821
1945.850830 1137.843872 508.389587
1968.940552 1017.143738 414.366302
2138.432861 1062.234009 308.787872
1784.711914 1148.152954 234.632187
1773.762695 1145.022583 236.480331
1821.981445 1025.088013 367.703735
1837.860718 1036.991455 464.413910
1712.839844 1231.977417 195.316803
1693.575073 1260.707886 390.679504
1770.939941 1164.020752 357.216003
1711.292969 1260.992310 397.062561
1877.290771 937.995361 342.169891
1848.838013 1067.129517 361.449982
2089.535156 1028.989502 278.679016
1749.171875 1195.103149 441.655060
1834.798584 1022.446899 379.915070
1939.812866 946.372253 311.758820
1840.795898 1113.111084 519.633850
1864.847656 962.657959 378.702515
1987.770020 992.947876 334.590759
1831.092407 1011.412537 341.865540
2038.062988 1001.503723 278.259125
1719.809326 1232.037231 248.095428
1821.800903 1036.416748 388.335114
1977.780640 955.293152 268.188538
1699.277954 1269.505981 372.588867
1951.207031 929.870911 251.520248
1943.755981 1139.369873 540.838806
1725.615845 1224.431885 311.517822
1679.972290 1314.611572 390.519440
1816.350342 1081.756226 290.410370
1738.347412 1195.342896 426.454010
1809.493164 1070.097778 190.041595
2086.756104 1065.598145 391.771149
1787.574341 1148.170532 363.933899
1849.721191 982.382202 329.826721
2023.008423 1043.588623 475.560944
1822.669312 1048.529297 210.230988
1723.274170 1261.226929 393.679688
2108.363281 998.641541 228.109665
2037.466431 1060.280396 487.041779
2019.480225 1101.521606 488.831879
1903.884766 1130.141968 467.756317
1717.398682 1267.582153 216.139069
1878.344849 960.648621 398.444824
1974.190674 940.017273 231.662140
1860.436157 976.285889 297.302032
1851.991699 1003.282043 243.129318
1844.444214 1106.872925 476.217163
1881.062134 1108.436401 519.587891
1878.621948 967.842590 298.445404
2132.848633 1087.020386 308.395782
2046.723145 1036.593506 353.899414
1849.609253 992.826782 398.132019
1915.054077 993.320129 449.320801
1660.603638 1306.981323 251.341446
2083.031006 1086.540894 422.314209
1992.054565 1096.897583 499.571014
1871.386108 978.321716 396.352844
1985.840820 1007.049438 382.569092
1871.444824 1089.700684 459.241913
1700.094116 1291.484863 412.483215
1718.239136 1233.697510 386.603546
2095.554199 1063.291504 375.858887
1929.081299 935.175110 298.850311
1981.278442 989.684937 338.502716
2061.152344 1055.546875 381.198212
1720.763184 1266.343994 400.084015
1828.297485 1041.488037 428.630127
1726.548706 1209.687500 335.561157
1803.442871 1100.552490 423.512512
1751.018188 1175.776733 192.160187
1834.863647 1058.488159 216.117920
1768.176392 1145.650146 369.448181
2098.343750 1015.295715 222.637207
1721.950439 1282.545410 421.284424
1861.793457 981.061279 365.420532
1852.557129 1013.705688 434.929962
1890.613037 943.478943 359.578156
1941.014771 928.351624 220.711212
2061.448975 991.893311 255.054138
1753.351196 1179.661255 223.187256
1997.119873 1068.364746 476.537750
1937.909058 1104.189087 573.491089
1687.832275 1286.178589 347.923950
1895.701172 1119.458496 501.046753
1821.579224 1049.943115 231.759750
1794.355103 1100.235718 173.045425
1713.856201 1260.077148 231.912720
1691.805542 1286.549072 143.044785
1829.116699 1031.970337 353.699707
2030.337158 1005.041138 306.595764
1999.103516 1039.986938 478.650879
1834.140869 1069.691895 241.346313
1863.772461 970.046204 274.906403
1841.946167 992.678894 378.451233
1718.906250 1226.435303 257.215179
1867.690308 970.516541 269.739899
2058.572998 1031.298218 326.716064
1966.087402 1105.059448 478.465393
1940.791504 934.872009 262.886261
1675.123657 1305.518799 305.236298
1708.637573 1284.570435 110.935165
2054.639404 1064.190063 414.134064
2020.183228 1013.478088 365.769531
1831.772339 1073.303345 374.111115
1888.257324 1106.111328 478.850677
1827.624023 1083.934204 330.034851
1837.529785 1036.880493 241.405518
1874.794922 949.329712 303.733856
1765.906128 1150.728760 207.282455
2096.622070 1036.483276 284.947418
1754.624390 1214.725952 151.374252
1769.873901 1132.681274 422.884155
1980.031616 1012.067627 392.446320
2007.131714 1068.410400 480.295593
1720.535645 1214.605957 379.073914
1850.842773 1016.503967 236.029053
1773.737061 1118.150513 176.007629
1851.899048 963.966187 348.617249
1983.532959 1075.871094 515.230042
1863.670654 971.303528 269.348206
1948.237305 1107.097656 533.402893
1847.186279 1123.805420 589.004456
1807.380615 1128.321045 429.599518
2077.966309 1078.182007 470.575073
1947.133789 947.236389 284.798126
1858.722290 982.405334 253.995468
1992.335083 1041.663330 483.404236
1677.843506 1272.236572 318.993469
2004.237305 1041.152588 400.985168
1860.327271 1000.513672 462.908417
1951.595947 1004.670288 448.689606
1836.548950 1039.542969 243.245407
1696.874146 1246.112061 107.466530
2026.306396 1096.926270 476.639069
2009.595215 1097.757324 487.707825
1866.961670 960.560303 294.533875
1854.241089 1097.778198 516.551941
1926.596313 880.673584 238.091583
1859.735352 978.409790 408.590240
1946.688232 986.416992 350.469116
1852.254395 995.416748 438.764893
1692.438965 1272.246338 242.112076
1774.097656 1255.697144 431.666046
1813.520264 1093.715088 433.286743
1859.834229 965.569397 338.361267
1913.997559 979.504028 475.145416
1988.958740 1028.306396 488.235687
1850.983276 1101.400269 453.863953
1902.164917 953.109009 354.421356
1858.308838 1017.738464 472.797729
1749.110718 1185.282837 425.660126
1827.669678 1043.156494 391.953064
2002.683472 1006.762390 356.027130
1797.677124 1104.756226 394.614105
1813.340332 1094.680298 433.813232
1861.175415 972.923706 411.179199
1718.841309 1219.865234 300.927338
1768.311768 1177.875244 454.809875
2056.361084 963.043762 228.631058
1710.255005 1268.862061 387.269318
2057.362549 1050.685303 474.901337
1736.142578 1182.676025 374.599243
1984.275513 970.721680 300.546265
1903.348633 949.421570 210.478699
1682.017944 1328.092407 381.585693
1929.620605 914.443542 242.489777
1943.050781 994.689880 405.933990
1836.623291 1018.513489 350.913544
1811.599121 1059.191284 197.328217
1782.456177 1137.589478 425.110626
1855.927124 983.622314 388.072266
1776.146240 1098.941650 165.748993
2098.873535 1087.522217 440.964417
1842.391846 1100.486816 304.154480
1823.142212 1049.251953 215.091614
1819.891357 1043.381470 426.619232
1980.064697 982.796326 316.431763
1863.266113 968.430603 430.651703
1746.332397 1170.288452 143.969009
1912.987427 939.520752 279.501770
1784.643677 1341.659546 132.034164
1965.484009 1004.306396 480.852264
1834.641235 1142.345581 588.308350
1862.751221 972.556519 322.749847
1813.385376 1100.986816 378.608612
1913.577759 920.563782 282.401642
1980.382324 1106.038940 523.419128
1993.796143 1010.055359 366.401184
1728.174438 1219.547363 242.864960
1933.085083 1045.519287 475.116425
2144.911865 1078.133545 305.955872
1868.755249 963.419861 331.769958
1988.065552 1022.029907 407.834930
1882.868896 935.475220 234.417511
1721.388794 1313.616699 160.087723
2000.549072 975.036743 280.436310
1807.008057 1158.453003 442.299561
1868.163696 958.295471 369.574860
1844.681152 1134.228271 473.671448
1993.752319 1035.817749 476.451263
1926.505127 922.537903 219.651657
2072.516846 1117.526001 472.755524
1837.261475 1039.158691 341.841156
2036.102661 1003.206116 299.853516
1995.993530 1114.576904 547.772339
1870.135132 987.444458 464.600067
1735.539551 1241.413574 201.299454
1845.726074 1008.946289 419.138672
1724.750122 1234.776367 387.647186
2029.446289 991.657410 281.406738
1736.845703 1202.735962 392.476624
1849.571289 1019.706787 441.131622
2056.701904 1009.248352 274.251648
1953.634399 1078.384888 485.393677
1720.561523 1197.518311 153.299637
1853.029419 981.207031 280.830475
1837.627563 1076.260742 439.356659
1841.216919 1115.854126 530.247986
1803.467529 1224.958252 438.302216
1854.446167 1017.447021 195.178238
1848.053833 1110.787109 494.416962
1832.107300 1043.490234 249.436508
2085.227783 1108.175415 482.501648
1683.392334 1311.971680 400.229858
1794.915527 1103.003052 413.186981
2027.572266 996.786255 283.309174
1689.030273 1291.761597 412.552856
1859.681519 1043.650879 462.625458
1808.941895 1096.127686 286.490143
2053.095459 1023.189575 306.035675
1824.637817 1042.569336 196.979645
1845.509521 994.218201 310.077698
1868.869019 1097.857788 553.126160
1748.080688 1319.518066 418.139679
1701.731079 1233.860352 366.703186
1842.344604 1031.988281 453.753876
1987.978760 1016.188477 426.382477
1960.813110 1119.519531 558.388367
2106.019287 1072.882568 349.435516
1853.300049 997.149109 258.276398
1960.426758 905.231018 230.691818
1743.689209 1207.948120 161.912460
1737.378418 1321.297485 405.553436
2009.395386 1040.617188 422.437164
1678.012939 1278.806885 356.087494
1897.021729 974.752502 428.356781
1865.283447 965.657410 268.214417
1746.361694 1188.255005 345.529755
1876.618896 946.850525 302.515381
1926.945190 967.135193 363.353088
1723.063110 1182.623779 154.670868
1785.467285 1135.258423 450.285431
1897.770874 899.136475 239.466614
1792.648560 1132.799683 452.080292
1955.058960 944.201050 283.038788
1763.149780 1191.738647 256.369812
1836.609009 1036.362183 449.806213
1791.969971 1113.230225 347.963562
1849.870361 1017.500122 250.731415
1947.406128 969.810486 345.912689
1748.284790 1171.551514 400.468964
1721.990356 1224.411255 402.037231
1722.100220 1196.375610 382.919098
1851.530640 989.606750 311.349854
1997.084106 1029.479736 510.672089
1847.548706 1006.819397 224.784409
2052.660156 1037.015137 474.632690
1878.442261 948.060608 393.437714
1997.330933 984.179138 300.663208
1919.299683 987.831299 449.114105
1732.376221 1232.737183 340.328979
1792.505859 1263.430664 441.619080
1872.931885 968.150269 226.408829
1721.855957 1195.023315 149.132370
1919.355469 984.368286 424.804291
1883.859619 931.902832 326.681000
1669.549316 1289.939697 348.916565
1718.433472 1329.768066 435.378998
1835.283569 1128.912964 536.845215
1780.371338 1121.539673 412.190369
1859.415894 1130.201782 575.620911
2088.268066 1084.901123 407.901001
1876.619141 971.027832 387.358032
1867.584351 992.189819 385.417664
1847.503906 1090.709961 473.936554
1729.367798 1340.565674 425.520508
1710.218384 1275.420776 161.283676
1748.112671 1188.735229 229.344208
1986.193237 959.919800 262.835999
1855.551025 980.479248 397.742950
2030.227539 1019.314636 365.013824
1691.412354 1257.886230 308.607941
1988.564209 1090.411133 484.798248
1951.826172 965.316101 293.590485
2002.822754 968.755432 247.147186
2086.752197 1098.846558 473.769897
1757.546631 1402.559204 312.538849
1836.939575 1027.760132 184.009674
1744.703857 1191.294678 298.760223
2001.146362 1001.211365 363.197449
1953.073364 1093.718750 494.561768
1958.201782 931.916077 227.610199
1769.245605 1152.744263 282.546875
1742.634521 1206.566162 387.970062
1985.740967 1030.776855 486.952423
1946.318726 1103.791138 511.912292
1857.319336 968.788208 366.860413
2057.285889 1028.054565 287.148163
1849.877930 1090.120850 453.080719
1868.064209 972.987000 196.233093
1771.679443 1121.827759 172.629135
1842.976807 1134.269287 454.238525
1793.908569 1100.961304 405.775848
2088.873535 1078.644531 447.824738
2038.202026 1072.235229 474.375153
1700.497314 1294.382202 420.557617
1764.408569 1142.476563 231.921356
1818.381470 1038.698364 360.154694
1942.384888 1126.234009 477.756866
1746.654175 1287.819702 417.096039
1854.807007 1049.130005 269.115265
1866.960083 972.289978 273.363495
1850.557495 1024.298340 253.461182
1723.134399 1209.003906 374.817322
1840.740723 1020.871521 443.161163
1729.170532 1206.901855 169.240753
2037.836060 1035.607056 362.590057
2077.640381 1034.244995 305.467224
1841.189087 1114.656860 484.182373
1761.812256 1155.430176 432.386047
2009.424438 1002.865112 359.966431
1950.351074 1002.303406 407.350708
1971.926636 943.213745 222.795822
1847.059448 1107.278931 445.685516
1998.157349 1080.707764 481.312164
1925.975586 946.571655 333.593842
1679.800171 1274.290283 303.937134
1921.759155 950.025879 348.846375
1925.851685 1079.257568 462.179352
1707.246826 1249.247192 220.552200
1789.627197 1129.277710 370.305573
1852.736572 982.377808 332.047455
1724.696899 1225.550781 282.748291
1922.291138 991.683167 451.142334
1882.579956 1140.569824 575.081787
2048.435547 1055.588989 470.316681
1742.594849 1198.962769 418.079712
1864.366089 966.381042 400.659485
1762.268677 1213.615967 224.758759
1896.195923 1125.849487 516.245178
2047.385010 1041.601196 365.507080
1894.200928 1053.852539 464.708649
1801.693481 1096.968750 350.859222
1850.129272 992.713806 386.944122
2073.210449 1124.168213 467.784271
1855.972656 993.099548 466.153961
1899.388306 974.414368 423.503632
1732.225098 1219.587036 407.395660
1867.717407 968.681091 304.747559
1793.545654 1135.525513 454.611847
1942.616821 990.771423 403.501343
1846.979858 985.110962 307.224640
1945.999512 984.732849 376.280304
1798.115845 1105.061768 295.393860
1748.662476 1186.545288 282.574158
1840.065796 1018.835571 216.960495
1796.005005 1129.319946 289.771790
1892.463257 1090.687988 465.603088
1827.942505 1018.737000 342.278015
1691.541016 1241.377930 175.647339
1734.010376 1241.120239 402.431915
1805.617920 1072.892944 414.999512
1780.587280 1093.588989 150.023880
1772.034790 1131.106689 186.433746
1967.461792 1095.099487 475.944000
1740.826172 1169.502319 157.570404
1850.814453 999.114746 354.531067
1878.391724 967.330872 240.675598
1882.755981 962.652405 299.551239
1869.128662 974.750244 455.966370
1880.547485 970.727661 217.093079
2157.212646 1055.445435 223.312622
1880.875122 960.878113 367.116577
1990.429077 1073.191406 469.962982
1867.330200 967.577515 413.990417
1722.766479 1216.002319 190.708389
1886.858276 955.306702 375.754761
2078.394775 1092.360352 416.886353
2082.385498 1046.560425 329.995331
1717.771729 1233.668945 105.218956
1708.356079 1276.515747 430.146423
1851.807251 1017.437317 206.115967
1905.879028 960.280945 379.801392
1879.785522 957.361389 391.650421
2041.741699 1040.199707 375.431030
1828.097656 1030.015625 405.849579
1848.262085 1000.355286 336.422699
2092.206299 1016.297424 264.238251
1772.869141 1143.417358 411.592590
1801.782471 1100.971558 376.919006
1868.493408 961.605164 266.057037
1839.642578 1019.773071 435.411621
1939.368530 986.221924 388.691284
1850.108765 979.590637 305.113220
1722.812500 1262.557983 401.397705
2004.436523 1098.790283 506.287323
1870.365723 960.887329 301.980469
1792.740479 1123.537720 321.236816
1829.846802 1039.151001 420.053436
2012.252319 987.806213 287.545746
2039.436646 1031.985229 355.253052
1855.431763 991.203857 257.904327
2031.068848 1050.953857 410.126678
1716.121216 1230.671753 259.991638
1725.045654 1236.968506 288.570618
1870.530762 996.455688 469.982391
1958.477661 978.338806 369.811462
1725.335938 1225.620972 167.549118
1872.537842 999.006958 479.605072
1709.487061 1246.214478 275.867828
1682.789795 1267.869019 331.235413
1858.419678 1140.285522 502.727936
1847.667480 992.538757 381.373047
1854.925903 1054.692627 453.292297
1800.965454 1119.544556 279.498108
1783.024902 1144.787109 444.251190
1832.733643 1104.718262 348.025299
1968.837891 983.597473 340.184875
1893.821411 1058.947998 471.839355
1700.209473 1229.197021 354.411041
1696.904053 1279.460571 118.114555
1848.468262 986.155029 395.108582
1925.101563 959.496216 355.384247
1898.251587 929.067627 305.463379
1795.708984 1107.603760 348.072601
1985.091431 1047.669067 501.186401
1990.536743 1063.071167 471.653931
2120.473389 1080.443970 337.159637
1989.888062 1021.425049 463.513641
1807.101318 1086.311523 216.803070
1837.044189 1221.211792 446.163300
1736.572510 1223.625977 243.667892
1891.345581 956.629578 377.623810
1891.484131 934.568420 346.924744
1783.715332 1111.128906 170.588058
1795.300171 1132.406006 364.693390
1861.040039 991.490967 372.165131
2029.751343 980.703186 221.241928
1760.091064 1155.295654 143.378098
1727.992676 1204.665405 246.275253
2013.731689 962.953979 254.131989
1862.549561 987.542297 219.843964
1850.094482 1095.259399 463.035217
1754.150146 1206.372925 194.723755
1761.137573 1173.508789 387.009460
2039.701416 1026.385742 326.645142
1691.652954 1275.501465 285.446411
1920.448730 952.512207 338.551117
1825.288208 1028.451538 338.507538
1792.713013 1118.271240 317.797729
1847.965210 1037.668091 269.284760
1694.374756 1281.780273 375.032562
1951.179810 1005.446838 488.646729
2001.701050 1051.956787 483.124390
1763.936279 1191.561401 324.666687
1932.570923 984.535095 478.858124
1849.531250 1007.013428 466.468262
1914.873657 979.253967 429.603577
1852.178833 1084.448242 480.679657
1885.040649 1153.327393 477.591217
1820.606445 1072.430176 193.633957
1910.845947 933.802795 218.392181
1769.999878 1163.484497 257.580841
1984.247070 977.327148 315.790070
1690.353271 1245.757446 187.068237
1834.086914 1013.568909 332.434784
2016.666382 1112.643555 516.819580
1926.983398 1118.855713 529.371216
1787.962158 1111.867188 432.611481
1702.554688 1349.772705 388.062897
2024.407593 1089.896484 472.112061
1698.072876 1265.674438 276.079590
1786.973877 1128.712891 247.028381
1899.498779 984.334106 432.276520
1991.985596 1012.482544 404.306030
2019.429443 960.174622 225.224304
1978.989258 1100.135376 485.726624
1773.918945 1154.762451 342.838989
1746.675049 1184.849365 275.955627
1751.718384 1171.780518 306.660522
1763.180664 1165.543945 317.357452
1753.852905 1174.340210 275.277954
1823.634888 1041.020386 316.445374
2039.157715 986.796875 242.634033
1879.158203 962.947937 427.293640
1786.472412 1125.750244 430.412445
1786.193237 1122.000488 347.612366
2004.723999 1004.852234 348.017487
1856.553955 1091.334351 484.913849
1865.475464 964.807678 369.232697
1673.279541 1278.551880 322.882446
1759.972656 1170.618286 229.531754
1894.923340 1048.836182 476.322296
2058.914307 1055.428345 412.368347
1768.429443 1128.457153 185.058060
1832.915283 1025.951050 391.416443
2044.114136 993.216797 236.233368
2001.935181 953.072449 232.245819
1907.006714 935.531067 363.140930
1898.292236 984.619080 449.884338
1865.893066 1048.556152 256.423615
1651.987427 1325.487549 334.174103
2158.020508 1062.310303 277.128662
1821.357544 1069.191772 350.637390
1809.454468 1088.453125 223.803650
1827.248047 1137.393799 504.407288
1684.266846 1351.813599 351.911560
1678.969727 1220.475098 102.498657
1863.223877 972.019409 390.752228
2033.071533 984.187988 248.504227
1669.326050 1332.211182 372.812012
2131.707764 1098.434448 322.999329
1767.908691 1187.364258 340.589233
1696.716553 1243.802734 355.102234
1941.345459 922.425537 275.281799
1872.594971 953.906677 328.218231
2048.954102 999.988525 264.272369
1838.806763 1118.939697 341.703796
2087.506104 1015.348083 268.865509
1844.426025 1114.323608 556.114868
1725.942749 1155.264526 125.148277
1734.172119 1192.321777 175.933029
1888.594604 930.323730 221.483200
1797.204346 1108.251343 427.072571
1915.320068 991.379028 444.811310
1836.835449 1017.178711 426.432770
1952.564087 907.650879 232.495987
1773.118530 1170.309814 300.804230
1821.887573 1162.442261 453.997711
1888.988037 941.988098 293.474426
1970.327148 978.221924 299.195526
2045.538696 1053.614868 471.336884
1885.346069 969.063843 390.976288
2040.738770 1035.992676 390.763489
1790.060303 1162.398315 440.655975
2020.295532 1112.922729 517.829285
1848.710693 1026.923340 467.354919
1998.126709 963.172424 256.337372
1961.756714 1014.460876 441.564087
1789.554932 1127.644043 295.594788
1863.835083 953.830627 347.732269
1892.770142 928.472961 345.133514
1847.530029 1095.179565 469.764801
1838.277954 1036.090820 223.367767
2062.121826 1034.771606 329.782196
1871.287964 964.182068 247.398956
1896.364014 944.668823 237.193237
1786.014282 1277.136230 417.193970
1721.146484 1295.830322 240.994247
1810.988037 1081.518433 404.890961
1850.018188 1137.590332 585.164185
1726.304688 1210.592529 331.039459
1742.090942 1155.918335 177.163589
1904.965454 925.577637 336.530273
1865.290161 971.628052 400.000153
1922.775635 893.715881 270.388611
1860.593994 971.463135 386.736481
1762.448120 1171.329468 326.981384
2040.445435 958.358643 229.050766
1932.699463 1042.123901 487.770081
1852.937012 1005.625305 265.373352
1816.189575 1163.302979 452.317932
2049.433838 986.746643 234.015228
1933.726807 991.662903 461.592560
1789.351563 1105.698853 161.942749
1754.908081 1173.167969 217.381485
2047.725830 1035.579834 349.878693
1831.230713 995.842834 343.141754
1779.964844 1135.126099 231.006912
2015.849121 985.804626 278.184296
1680.537109 1275.923096 215.011169
1774.960449 1142.308838 380.041718
2017.175293 1028.525146 406.724335
1836.127319 1136.382080 567.989624
1730.760132 1191.501831 393.846863
1933.220947 998.707336 425.796539
1756.757446 1160.349976 411.929291
1742.589844 1173.782837 427.401581
1849.086182 1011.645569 232.694519
2156.222656 1046.899414 218.159409
1840.060669 1117.318115 474.503357
1676.399658 1293.764771 368.379028
1849.296631 996.375854 363.902191
1966.185547 1005.949463 405.864258
2046.349243 991.953369 245.177307
1687.022461 1283.516113 364.808136
1822.091064 1054.142090 212.969818
2016.557007 1041.870483 479.722473
1722.627441 1248.837524 335.771210
1800.685791 1427.925049 303.467041
2094.812988 1053.317139 325.277222
1855.443726 978.057678 334.294525
1769.716919 1204.240234 442.564545
1746.584229 1173.625488 408.793884
1805.439941 1083.666748 224.476608
2120.440186 1095.909912 377.999146
1821.827271 1198.081543 442.880615
1710.878540 1267.438110 413.420319
1843.520264 1121.553467 471.856232
1920.602539 985.742065 434.250092
2088.276123 1087.845459 416.511475
1811.726563 1134.298950 444.149628
2127.526611 1092.337646 315.363678
2045.583252 1025.575562 335.962036
1889.333008 921.709778 339.556183
1702.328491 1335.891357 242.290741
1729.703125 1231.099121 418.350098
1860.086670 998.727112 434.724762
1779.852539 1137.102905 217.473587
1759.917114 1140.786621 134.366745
1786.570679 1147.615845 432.799103
1832.786987 1027.522461 297.423401
1652.313721 1328.837402 321.583740
1817.762939 1057.821045 241.689987
1970.264648 1112.309692 563.926880
1895.507446 946.250000 386.863556
1844.806152 1008.509949 406.814514
1798.797729 1111.665283 281.803497
1947.485962 944.033630 231.148987
1837.079956 1084.061401 318.956635
1754.360107 1175.959106 198.223160
1774.495850 1150.803345 202.299606
1963.663818 1100.774780 521.496582
2005.524170 1009.913757 359.193420
1961.172241 952.951416 273.526001
2136.873291 1055.515869 232.828934
1871.445313 1086.819214 456.305359
1795.583252 1117.466187 303.174164
1980.036377 1023.866211 425.765015
1762.433594 1188.056519 198.763885
1845.005371 994.923645 389.418427
1894.500244 1055.767700 475.891998
2028.445923 1043.983765 458.139862
1961.613647 980.767883 361.416962
2118.552734 1073.072998 338.101959
1796.159790 1105.708984 399.385742
1694.005615 1301.367065 402.006012
1742.488770 1204.094727 417.823181
2097.559570 1047.664551 296.793976
1757.261353 1187.714355 307.456665
1746.694092 1313.790771 426.378693
1694.478760 1227.849854 115.063530
1992.580933 1067.581665 476.330597
1868.264526 1105.572998 478.174530
1844.127441 1050.062500 235.451874
1711.822510 1257.778442 287.454498
1970.427734 975.287415 318.260101
1803.015503 1072.024048 194.244965
1868.848267 960.158264 284.961945
1842.051270 1018.978394 360.887512
1949.577148 1006.953308 490.722443
1824.652100 1031.099609 352.636505
1950.296509 1067.937012 482.650360
1806.769897 1063.676025 165.888260
1840.878906 997.599304 348.502411
1818.455078 1095.233276 261.074799
1998.671021 1035.199463 424.778259
1952.203125 1108.236816 547.068970
1997.771606 1050.034668 488.782501
1835.661255 1145.445190 457.656647
1790.237793 1131.929932 281.275024
1936.257690 944.389343 312.710571
1857.307007 995.923035 229.799713
1856.812012 986.004089 261.102661
1673.852417 1306.764160 375.500214
1986.864014 1066.039063 482.072083
1970.753784 1017.493713 481.649750
1927.385376 973.674561 349.696503
1810.914917 1074.083008 202.839951
2003.513184 1103.616455 553.495178
1867.185913 969.120728 249.315720
1928.559692 1125.585693 542.138794
1820.399780 1085.280762 250.727249
2028.935913 996.194214 316.307678
1670.607544 1285.141846 335.707672
1724.800171 1287.101074 217.977692
2033.523193 993.800171 280.427917
1831.636230 1064.253052 342.778717
1741.275391 1200.073486 314.279144
1877.760620 948.695313 285.099030
1858.444824 972.035645 305.759369
2117.666016 1085.197510 369.856628
1864.954224 977.042908 444.379944
1871.796387 977.761169 286.196106
1749.359619 1180.982422 126.429260
1786.916504 1128.793213 233.223297
1841.234619 1101.166260 534.739929
1761.647461 1169.197632 246.961960
1865.128540 964.366821 388.350922
1988.369263 1110.214722 539.609741
1918.946899 918.541138 255.824478
1716.847412 1286.213379 192.897644
1826.883423 1128.638916 500.936340
1765.434692 1177.180908 438.100616
1782.906372 1146.371460 438.224274
1819.762573 1060.827026 200.355103
1750.913696 1323.362915 421.901550
2119.887207 1025.263916 237.881210
1979.441772 1001.432617 401.615631
1864.189453 990.030151 205.339417
1706.672241 1283.846680 221.488678
1933.430542 889.180542 232.481613
2112.410645 1067.040283 358.299316
1826.792480 1043.988037 432.662323
2055.076416 1027.956665 323.548553
1713.855957 1223.437134 232.879257
2154.815918 1074.171265 280.096252
1863.106445 967.653198 404.379059
2137.515137 1066.242188 276.513702
1847.393799 995.345703 316.555542
1681.204224 1285.586548 222.624527
1695.693359 1257.598267 263.804169
2028.167236 947.886719 228.091797
1998.938232 990.724426 318.360779
1969.728638 1088.103394 483.006470
1726.937988 1215.542969 362.251862
1854.657349 997.733948 450.941620
1692.411133 1256.834717 304.817200
1752.085083 1172.720581 336.441864
1740.776733 1201.019653 285.195923
1728.320679 1191.705444 158.358490
1716.092651 1210.994385 119.797661
1715.246826 1203.161255 395.294220
1856.248779 1096.650635 517.478394
1712.879395 1233.282349 198.978485
1900.015015 979.360657 452.617859
1732.170044 1240.566650 183.303970
1702.002563 1272.920898 268.022186
2080.263428 1019.377686 268.067596
1765.353149 1131.124023 136.096405
2066.540527 1087.395386 481.624695
1806.890625 1102.998901 337.876648
1734.498901 1190.274414 386.462250
1880.073486 968.606323 317.333466
1849.448853 1125.024170 460.295044
1885.135620 1012.181274 474.401031
1790.602173 1111.440552 418.823914
1972.416138 1104.891846 515.680542
1717.253418 1239.739868 367.765961
1845.918579 1049.392334 240.671295
1787.259521 1148.677612 195.906006
1899.407227 980.159485 417.376587
1873.211792 989.326111 431.414001
1940.995361 1000.532532 447.319366
1875.535522 954.109863 434.893158
2056.805176 1001.235596 280.586090
1883.324219 1119.894409 516.429321
2173.836182 1036.434937 224.731979
2027.555176 1120.104736 512.426453
1860.486938 1088.076416 482.758545
1706.016113 1269.322754 379.748322
1803.876953 1110.503052 430.237305
1774.705322 1185.547119 436.299927
2080.857666 1078.554932 405.617706
1874.118286 962.165955 241.458511
1928.368896 972.613708 373.472351
1891.273071 971.359741 401.903046
1716.624390 1277.183105 163.613190
1817.773315 1064.086670 409.686371
2057.234375 1069.326782 425.419922
1744.033813 1176.417480 123.247490
1826.827026 1076.713623 217.865067
1824.417358 1073.414551 180.882278
1917.045044 913.857361 255.127548
1860.658936 997.684448 222.447495
2068.756104 1059.647949 465.198303
1793.701294 1123.960693 165.665482
2031.623291 963.311462 227.644150
1826.690674 1059.079224 396.282043
1706.076538 1266.720581 303.799774
1851.461548 1003.368835 351.982513
1732.865112 1208.445923 197.209747
1966.117065 948.760315 277.060577
1791.790039 1112.922485 390.892578
1860.562866 1015.033691 233.919495
1791.333496 1103.098877 183.205215
1895.032104 922.245728 314.152985
2120.264648 1003.786377 224.676056
1845.915649 994.851929 325.258392
2061.739258 1013.947754 281.840912
2098.230957 1026.526855 251.867233
1864.569092 988.516907 450.278351
1831.086670 1039.106689 426.119141
1854.288818 1001.406067 456.784546
1708.108521 1266.149536 243.199020
1880.378418 948.581238 319.904266
2011.939453 969.857971 277.132080
2128.766113 1050.444458 258.458496
2034.874390 1057.491577 481.382843
1870.347290 974.559570 245.694534
1708.854736 1284.545654 421.547668
2117.671387 1063.745972 310.953613
2085.214844 1043.525757 317.747925
