ply
format ascii 1.0
element vertex 1399
property float x
property float y
property float z
end_header
1091.050415 1707.253052 740.632874
745.020874 1916.491943 848.284973
876.864868 1859.595947 509.533325
997.656006 1756.715210 813.820801
1054.953369 1883.151367 826.971985
795.734436 1886.986450 869.692505
1112.284180 1782.083374 738.175293
819.146851 1909.719604 505.854492
837.757813 1835.424072 778.569336
826.065735 1843.760254 762.825806
974.770752 1966.711670 904.063721
870.153870 1793.517700 783.928284
825.781372 1875.799072 557.684998
1082.580322 1880.954468 815.095215
813.509216 1918.664917 873.499939
927.682617 1773.931519 694.118652
714.316040 1930.716919 625.079712
1029.932983 1871.058228 839.972534
793.649231 1926.864380 741.570496
812.062988 1874.475952 615.064087
843.325745 1861.280029 811.491089
1102.878052 1781.920166 752.722534
1123.115356 1750.606934 735.976807
860.763855 1943.721313 916.078308
791.362488 1872.989990 671.681458
1123.965576 1952.975342 834.523132
860.554260 1948.889648 918.718567
887.142944 1825.340332 705.383301
895.734802 1776.785767 800.997437
704.953613 1968.698364 607.152100
898.159668 1840.354248 567.516602
781.187927 1862.187988 711.550232
936.280762 1745.315430 802.023071
818.884338 1901.102539 421.227570
902.551147 1772.666382 770.221008
848.492004 1810.948120 801.090515
809.434204 1873.696167 660.920166
967.512451 1824.617310 851.491882
902.404175 1757.736938 841.353882
829.991028 1840.660278 780.204285
756.956421 1890.888306 667.101685
928.844360 1799.883545 504.953033
859.930725 1893.354980 443.252167
977.335693 1755.207275 712.544983
1015.463379 1876.622925 851.269287
1026.581055 1758.780884 778.924316
1086.738403 1687.086060 727.453613
1017.674622 1952.520630 922.148804
749.926331 1904.958740 680.049805
1046.556152 1706.450928 711.139587
1112.559082 1875.421753 808.135803
908.014160 1912.730713 849.116516
815.795654 1878.537109 643.990601
703.826538 1954.224487 591.144714
944.802429 1734.994629 791.706543
948.922363 1738.753052 779.496521
974.638367 1724.079712 762.976257
965.276672 1742.056396 773.858154
970.409851 1800.947510 540.181213
1095.192261 1823.630493 774.959778
913.767151 1759.616089 759.601624
835.493469 1868.045044 855.385803
900.329834 1791.653442 712.850891
1042.929443 1754.925781 768.231140
1030.744629 1781.307861 795.308838
748.076416 1907.145630 727.243225
1151.602173 1963.318237 822.681458
1039.443481 1725.771362 683.158020
1080.464722 1760.365356 755.448486
708.497742 2034.101196 632.698975
766.625977 1875.727661 688.229858
930.126465 1814.352173 469.167816
876.471558 1950.571655 925.870972
1042.282593 1727.290283 687.827271
880.563293 1858.559204 436.133270
1060.063599 1730.066284 677.740540
999.201111 1917.550659 929.946411
860.415771 1844.251831 630.835449
724.444824 1917.712891 571.976807
1060.800659 1939.258179 874.089539
911.271545 1761.430908 800.901367
1070.904541 1813.565674 785.908569
1037.271606 1929.647095 870.903198
741.271606 1916.155762 625.442200
999.872803 1750.703857 636.021423
956.056580 1796.077271 623.521667
1058.687744 1894.210938 840.005371
818.657104 1876.304199 810.649292
987.504456 1746.667603 590.445068
902.900757 1832.926880 653.064514
834.685852 1861.383423 815.285706
844.100586 1847.881226 824.919006
933.968994 1839.539551 474.876923
938.628601 1770.468262 711.337463
1008.496765 1939.967041 924.438416
738.835815 1997.760620 662.113831
1131.756836 1754.659668 739.424438
1084.319214 1774.958374 770.435852
931.077759 1932.953369 896.735107
920.263672 1750.699219 831.028198
716.274231 1956.109741 644.359131
682.426147 1981.166992 560.145447
894.839050 1922.689331 881.989746
882.226013 1833.704956 615.564941
976.808044 1850.489502 860.268982
1191.355835 1868.806152 762.313477
1035.111816 1899.931519 866.084045
727.709595 1941.415527 653.572205
913.284363 1760.794922 775.393921
828.055725 1894.714966 415.710907
1083.437866 1917.195923 834.596741
727.170654 1931.220947 556.601196
883.533081 1896.517334 824.295715
1162.393921 1950.975586 785.648682
748.173828 1889.885742 661.458435
799.668579 1942.781372 859.366211
813.833862 1879.948608 841.820740
714.892151 1961.262451 647.024231
796.446045 1907.988403 570.953186
912.092896 1897.840576 867.188721
886.791626 1847.499512 853.118042
788.881226 1920.162720 861.838440
811.561279 1940.686035 766.290344
1093.650635 1736.618896 733.671631
696.786865 1939.559937 601.583923
1059.215454 1709.133423 740.926880
840.084839 1864.030884 577.109009
925.667969 1823.592896 521.736206
791.295715 1900.162720 620.684814
1061.377075 1767.933960 763.532776
962.600769 1755.763672 807.173340
781.975952 1906.016602 567.328552
696.679382 1976.013184 641.299316
782.454773 1895.958130 836.065674
936.858154 1824.657471 613.097717
880.156677 1777.527466 832.373352
1067.663696 1741.156982 754.514465
862.703613 1830.202148 736.609192
905.960999 1832.683716 591.679199
888.380005 1926.048096 885.977844
751.984314 1913.314941 695.467102
750.691711 1914.443970 686.323975
898.721497 1944.303589 913.310242
926.469177 1819.578979 518.618408
794.394104 1917.624634 518.289063
912.538513 1779.835571 764.950745
834.297607 1891.772217 447.911102
923.323059 1825.098511 580.135315
1012.288635 1724.983398 734.166565
888.635376 1777.306885 817.289795
800.483154 1851.014160 751.104309
899.217468 1921.902100 907.136780
825.116333 1864.922729 768.562561
1031.640015 1715.987671 680.226196
935.663757 1837.319092 465.594971
759.648438 1886.609131 677.644836
936.663635 1762.048218 851.108276
938.848877 1823.874390 485.048157
757.094849 1885.213257 687.127014
914.339844 1827.798096 600.955505
912.739685 1759.250122 854.731750
974.045776 1742.273071 729.492737
1044.133789 1861.936768 839.575989
767.623352 1937.842163 717.748840
1136.225586 1867.657104 790.851135
1001.760376 1738.792603 793.679749
860.730103 1905.685059 826.890503
676.475342 2025.199951 610.142883
700.311157 1953.963257 619.399536
797.377014 1884.446167 836.852844
921.930054 1772.873779 840.007263
797.217712 1901.348999 897.967529
917.455750 1832.189575 892.106384
770.696472 1919.891479 896.517456
806.153503 1895.141357 464.915588
851.714417 1811.292236 789.245117
869.491150 1857.116943 530.995056
864.426331 1819.671265 751.760315
779.674316 1891.209839 846.922668
759.205750 1912.059692 725.802124
896.614868 1764.967529 852.695923
1010.919861 1897.998291 853.757629
910.403564 1770.144775 753.888489
904.572021 1832.938110 669.867493
1092.118286 1771.701294 759.440674
799.681213 1889.056152 584.710205
1091.868286 1845.865234 788.334106
995.271606 1840.789063 842.134338
985.401978 1771.900635 643.166138
1042.959106 1731.112549 747.749268
996.135559 1709.537720 783.380005
818.856201 1855.301270 756.647827
757.567383 1891.796997 695.029663
1038.559814 1856.529541 826.791687
1061.023315 1704.317505 735.851563
911.858704 1809.253418 712.534729
720.429626 1927.375000 588.665833
961.080444 1786.438232 525.783142
876.785217 1775.581421 806.403992
769.985107 1870.196411 716.986755
825.155823 1884.651978 819.253174
920.419678 1747.198364 817.309021
749.076538 1897.561768 658.844421
720.200500 1940.014648 649.233704
1127.090698 1780.944824 729.234314
1186.692261 1929.980225 761.632507
942.256165 1756.777466 718.665710
939.021423 1827.632813 569.138855
986.236328 1788.937866 582.789551
704.706177 1969.833496 628.491272
1045.261841 1893.529175 845.399475
977.715149 1784.024414 570.708984
800.345215 1862.895142 678.465576
1155.892212 1826.744629 742.094177
910.077026 1829.296021 507.880371
1013.105957 1737.167969 665.382935
869.415161 1843.627930 632.825378
726.499817 1924.474731 569.191833
1089.428833 1694.070068 721.689819
936.643066 1820.977051 587.512817
949.250793 1965.919678 902.255859
784.337280 1889.869873 608.363037
833.871521 1859.807861 688.509949
872.159851 1783.707153 859.849670
960.720032 1963.704102 900.368652
1095.244141 1879.667480 795.828491
733.005493 1929.378052 644.835510
957.409546 1773.321411 683.662231
955.438599 1804.791870 624.587524
986.610352 1763.248535 665.649780
860.817139 1885.849609 828.195862
809.265503 1871.354736 766.305725
915.673828 1869.446167 875.389526
907.306702 1929.501831 840.018188
822.404114 1850.710938 784.720398
869.629639 1929.798584 895.642212
1007.844788 1887.385376 860.490417
901.833496 1809.519531 881.299683
894.301697 1832.220459 606.668030
951.999573 1929.762329 902.857117
981.073364 1882.898560 909.801514
915.603882 1824.350586 635.631042
870.946472 1789.230713 829.107727
733.817017 1917.260254 622.575867
790.036133 1856.821899 734.392456
825.278809 1829.672607 784.679810
989.513855 1916.469849 925.458923
987.873657 1792.484375 819.809998
1102.311768 1731.544678 726.883057
1037.558594 1731.049683 747.049255
889.122437 1838.552124 507.036896
973.716675 1912.333496 915.926819
951.026428 1949.787231 902.972351
947.096008 1776.172363 835.391479
875.593689 1784.500488 815.705383
955.683167 1817.968628 629.635498
817.050049 1838.881470 744.534546
1023.342346 1715.873657 765.604797
1005.918152 1884.369873 859.993713
752.463684 1919.747314 712.928589
776.937805 1876.442505 746.548340
1077.946777 1826.965332 791.081238
1143.014771 1776.292114 744.104797
969.687195 1779.384644 594.508057
709.191528 1973.683594 642.986755
854.074768 1805.621338 821.135559
903.755493 1836.489502 555.368469
1149.364624 1886.752930 801.065002
891.393860 1852.366089 492.505493
876.079712 1824.868530 699.384338
1037.140991 1757.599243 772.598511
1000.593506 1788.649292 809.604858
817.955200 1852.062256 772.604248
806.580139 1860.738281 716.961670
896.647522 1870.500000 459.990143
959.863586 1728.206787 760.682983
866.563293 1933.856079 912.163757
1006.754272 1713.699341 753.747437
924.280823 1820.530518 508.390594
1025.943726 1729.130005 774.310303
844.828369 1811.316528 813.932068
820.209778 1872.539063 767.452637
808.904419 1889.389282 578.765869
763.304382 1915.837036 896.130005
928.385986 1784.272339 839.878296
701.815247 1960.304932 646.597351
991.823120 1759.404053 800.953796
917.084351 1832.612061 499.989685
791.915222 1900.265137 855.485840
974.853333 1741.819214 700.201111
967.569641 1799.689575 832.844177
1017.166321 1726.898682 715.726318
698.813477 1941.782837 546.041138
887.464905 1894.788818 822.770813
957.444580 1807.132080 593.851379
1192.765625 1863.746948 761.358093
940.757507 1756.125000 705.095886
790.640076 1934.564453 467.971680
1014.082947 1811.686890 827.180359
792.667969 1879.679810 654.665894
806.255737 1900.740234 528.318787
901.252197 1829.511841 680.502136
749.937561 1913.045166 606.370850
811.778076 1900.702026 438.445465
847.286621 1851.044312 654.212219
993.278381 1725.803345 796.577881
1011.609863 1931.030640 923.374023
937.063782 1930.036621 893.063110
798.329712 1849.750244 708.343445
951.846619 1816.392700 855.896729
937.578369 1922.927612 888.703552
751.826233 1926.758789 473.728607
1090.240479 1808.841919 772.796387
987.705505 1950.411621 921.688416
1083.647095 1811.274658 774.668396
965.627563 1758.927002 713.546204
864.719299 1788.515869 841.799133
897.757996 1767.465698 809.825989
811.107361 1921.444458 490.098450
1142.051147 1869.930664 788.804077
999.223267 1715.236328 754.326111
1046.050415 1735.636108 755.855347
889.843506 1789.210205 797.890198
1173.322510 1940.015259 795.392700
905.008301 1780.919067 728.527405
864.319397 1787.147583 784.427551
1060.896729 1963.756104 870.387573
738.930359 1911.651001 684.218323
1170.695190 1846.821533 754.373291
1189.821167 1884.947021 751.900818
865.806641 1794.568604 839.461426
827.948792 1930.936035 445.220398
914.901733 1960.728394 932.864624
1051.403564 1855.659302 831.783936
1063.706055 1792.829712 791.789001
851.157959 1854.594604 679.570862
977.822815 1783.742676 614.227600
914.570129 1835.200806 600.454285
833.694092 1871.557861 556.219971
851.302124 1845.777100 663.441895
1003.681763 1759.639404 599.369751
889.519836 1775.408691 866.422791
936.943909 1811.570679 600.453308
877.369324 1807.028442 854.787048
998.112671 1800.002808 816.876282
1050.024170 1951.801270 873.787964
833.863708 1863.755737 635.169678
1002.617249 1733.924805 767.760010
783.277039 1904.841919 892.477905
806.969177 1854.360840 729.427246
721.953186 1942.101440 493.008362
981.700562 1754.487793 676.857605
966.772156 1796.879639 596.140747
831.433411 1871.484009 633.359558
864.770386 1870.919312 437.428467
990.184082 1765.390747 573.430969
937.051025 1815.484985 533.426392
803.339661 1856.518677 700.953003
900.843262 1831.156616 864.701294
906.304199 1766.294678 819.645386
1011.249756 1757.540649 649.192200
988.381836 1783.310669 812.572144
1201.243286 1882.171509 756.994690
804.781677 1923.748657 565.950012
1111.552002 1952.497559 841.537781
954.879028 1890.143921 915.199829
872.269226 1864.541382 507.698853
1068.188843 1708.708008 691.092468
1018.500427 1803.833862 809.268860
921.951660 1802.823364 882.045410
676.810303 1964.838013 596.687683
950.130676 1751.072266 734.039063
802.448242 1886.227661 614.589478
817.035583 1863.585571 676.947815
938.053345 1750.376099 748.603760
918.088074 2039.316772 426.120789
875.326965 1786.563232 791.357910
1058.299561 1865.640137 816.622314
1020.369385 1788.258911 802.544373
878.072632 1847.954956 574.064331
898.553955 1820.147827 876.763855
1007.213989 1899.030029 856.242004
829.956299 1912.436401 859.575806
983.671448 1769.206055 640.887817
876.582031 1803.069580 849.934021
960.244263 1750.852905 709.437500
1133.393799 1839.354980 757.610229
969.613098 1739.479736 786.825256
825.924194 1836.473145 771.533569
942.325439 1761.718262 817.075989
1038.530762 1747.037842 640.999573
818.155640 1917.120483 872.681152
1066.304443 1700.720337 720.526733
779.020996 1896.034302 841.812195
765.765564 1898.517578 654.049072
1094.892456 1754.083984 741.565002
1086.398438 1770.738647 759.347656
895.909912 1826.427246 646.031372
800.055054 1900.869141 546.078918
841.389587 1829.865479 796.906799
837.136047 1864.944824 797.434387
910.903381 1834.626343 465.694000
1168.872314 1873.174072 776.364502
781.235718 1925.789673 743.758484
929.529480 1746.895874 821.546082
1093.601685 1858.284668 796.653809
705.244995 1998.222900 624.403870
864.653320 1825.770508 720.398376
1080.767090 1877.191772 817.454285
832.960571 1889.928345 838.450500
904.894287 2104.401123 469.363312
886.848938 1795.250488 874.550354
948.230469 1756.148682 687.483032
909.200562 1804.486328 872.921875
793.791626 1886.798340 599.898376
985.729980 1779.295410 563.448364
864.854248 1835.181885 664.704407
782.108582 1885.464966 628.277100
923.675171 1924.323242 895.781555
950.368286 1802.182007 584.900391
852.795105 1921.118408 523.179382
1057.556274 1763.592407 770.866516
880.978638 1879.134033 418.750000
846.396423 1853.321899 652.090332
970.577698 1769.122925 824.362061
1099.179321 1770.826782 750.638489
888.093750 1853.689819 602.683594
943.202454 1813.078247 489.055542
869.453308 1790.847534 837.904114
1081.907715 1759.884277 748.950317
767.910278 1919.663452 529.205322
811.065186 1899.611694 794.939392
837.839539 1873.654053 551.968750
992.647522 1744.221191 676.069397
774.814392 1926.419678 480.357086
982.212219 1731.897217 738.313599
789.708679 1897.485352 756.640503
1047.703613 1967.772339 883.548889
1131.108154 1833.303345 748.665955
906.455933 1842.572998 475.398590
1110.127563 1806.556274 758.701538
903.186951 1852.190796 425.680206
946.024109 1800.049927 625.733643
987.257141 1928.729004 928.028503
1065.037842 1870.983643 822.102966
692.120178 1975.876953 641.099121
777.832886 1934.188721 500.610352
956.741821 1773.672485 822.700378
782.983643 1941.492554 737.848511
765.075623 1925.839355 892.500122
816.520996 1857.826782 677.185120
1094.542236 1883.653076 810.725098
920.155090 1960.491699 923.552185
765.960327 1916.480591 552.249268
971.214355 1787.072998 832.701660
709.952698 1960.720825 606.835327
823.284302 1841.025757 729.271790
1078.844116 1704.111084 705.664551
921.206116 1829.720093 563.884766
970.875916 1798.682739 552.294495
1070.793701 1902.392456 827.106262
884.858887 1891.810303 821.543396
854.570557 1815.681641 736.770325
1005.461914 1838.227173 849.535828
693.227112 1954.241211 545.492371
894.908142 1968.804810 794.980225
1151.531860 1826.997070 741.061096
941.855896 1802.345581 857.229187
1080.953613 1887.790527 820.804626
965.113281 1808.067505 830.331665
945.355835 1755.991089 759.528076
1056.954346 1784.403809 787.598511
840.334961 1926.728149 935.684143
734.390686 1923.658569 537.881958
989.821350 1734.810303 771.046631
824.475098 1897.848022 541.720154
867.964050 1897.801636 504.453430
819.838135 1880.977051 798.688782
1038.479980 1960.031250 885.109863
703.776733 1940.320068 524.991394
1069.987549 1958.494873 878.160034
997.307617 1782.996582 581.740051
800.476990 1891.366577 863.203064
788.205200 1896.162476 642.953491
948.095215 1830.836792 898.603271
1007.195801 1968.599609 933.168274
998.077576 1751.582886 676.757813
781.036438 1862.802734 732.752625
769.689514 1918.317139 712.476807
830.933960 1847.864136 707.115662
696.060364 1968.480591 569.903992
799.695190 1900.870483 863.384216
746.801025 1891.508667 657.314087
902.910278 1856.735474 862.435181
1053.788086 1882.181152 845.525391
1076.321533 1719.214233 706.930420
739.397400 1922.485718 597.757996
1057.579346 1861.657104 807.654297
714.105713 1933.083618 552.478333
880.522034 1855.227661 483.139008
859.235413 1827.979980 738.399902
1024.305054 1755.790161 636.027649
913.256226 1892.503418 897.073547
846.277222 1897.926636 840.906921
954.445984 1896.778687 914.892334
1011.700989 1718.005371 653.510193
950.700684 1747.663574 756.996399
994.352722 1820.409790 829.652527
917.329407 1753.337402 817.879944
887.405884 1779.207642 806.957581
1086.686646 1876.476318 810.707153
1013.164490 1712.218262 743.311890
755.398254 1898.956787 639.491089
883.201050 1814.713867 877.507996
718.599304 1925.091064 525.598145
874.982910 1797.133423 777.097107
796.480591 1851.754761 702.223633
871.346008 1863.210083 435.136200
1078.426025 1866.059204 813.756653
942.847046 1789.443359 513.830933
941.127319 1752.041016 721.439575
909.568481 1897.514648 851.491272
969.079834 1773.552002 616.667358
744.203796 1935.668213 518.896484
1007.380737 1874.674438 866.651733
828.575806 1841.833252 722.503662
763.356323 1922.584229 892.812561
1058.805054 1740.473633 759.554993
883.457275 1943.052612 839.211792
1003.840637 1780.799194 821.349365
924.213989 1827.861328 585.881470
752.152710 1898.177612 639.110168
699.006042 1939.838623 543.174194
711.280090 1988.812988 647.453003
749.329834 1930.242676 541.996399
970.881409 1730.886353 780.468689
959.940674 1875.397583 909.785034
916.605896 1830.497437 497.773682
874.894714 1832.826294 858.233765
1036.312134 1881.962646 837.053772
1097.778076 1708.757446 730.791016
770.516479 1924.706299 514.156250
782.017883 1905.093384 890.775330
806.367432 1853.231201 726.774963
1089.184448 1764.146973 747.529480
738.087646 1902.000488 621.909729
782.127808 1895.921875 619.214233
1026.059448 1714.292725 757.835571
698.555664 1981.096313 645.220764
758.754089 2015.931152 679.447266
985.323120 1911.532593 914.394409
872.637268 1803.011353 856.376831
848.057617 1852.759888 830.737183
1124.598022 1824.850220 755.346375
932.439087 1805.402588 681.913696
699.228638 1964.295288 637.066650
780.553406 1923.993530 896.192078
800.881165 1877.628052 832.045227
864.450684 1943.621094 940.102295
1184.173218 1873.628540 753.396729
842.467468 1864.719971 592.863159
1095.148682 1832.991333 794.104614
866.060120 1814.000854 743.523071
1029.014160 1913.693970 877.016602
1091.710449 1822.384766 789.827209
793.294373 1865.458252 680.019958
843.520935 1813.211060 805.457520
930.779175 1811.994507 564.617371
929.233826 1823.205688 499.233398
818.245178 1863.608032 765.601868
907.214966 1841.206299 464.315155
750.754272 1917.495361 887.842590
894.363770 1767.083008 824.544434
830.417603 1871.822632 858.515259
738.594421 1962.582031 663.864075
714.652039 1934.680420 622.763489
786.637390 1938.209595 866.689514
774.662109 1883.937378 846.301819
823.480774 1843.707275 780.453308
716.981873 1938.682129 584.450623
978.318787 1819.166138 845.812866
890.516235 1848.269409 472.853851
937.950500 1951.116821 882.144165
919.078125 1934.758179 906.167480
1002.923767 1913.073730 897.308105
1103.555054 1814.520630 782.268555
953.122559 1958.065918 900.072876
1034.812012 1709.742676 730.285400
876.525818 1833.561401 670.308167
758.566650 1897.139038 625.627380
787.156128 1871.832397 717.621216
1009.904785 1743.908569 665.732117
760.136780 1936.307251 503.341217
869.520569 1837.457520 655.635498
986.864441 1790.884888 559.022461
902.905884 1788.382324 729.710754
956.562805 1758.496460 810.980347
1019.080750 1932.132813 916.647888
981.609436 1884.587036 902.320801
1007.101501 1762.769897 793.687744
841.681213 1851.108765 685.996948
1060.519165 1907.387573 845.989929
959.701416 1751.550903 739.517761
743.080872 1929.250610 554.401001
918.451782 1795.009155 671.578430
1169.561523 1948.425903 801.621460
748.127380 1920.776855 703.010498
944.897766 1830.621582 886.505066
985.775574 1724.135864 791.006165
811.738342 1880.958008 770.970642
951.367310 2111.748291 446.433228
968.464355 1774.792114 818.785156
731.875366 1936.147461 601.570129
919.309143 1752.111938 819.045227
947.251160 1865.979126 911.618347
925.795044 1872.387817 886.319824
842.363831 1812.633545 765.017334
880.828003 1815.642944 723.518982
687.634216 1956.871216 600.077576
952.117310 1967.599854 913.840332
1203.531372 1890.037964 754.004211
999.787476 1746.109741 703.686523
703.647705 1961.432129 642.867188
840.348694 1832.852173 787.944092
828.135803 1934.879639 457.767456
1072.678589 1779.985718 762.957275
937.850830 1742.360718 789.931641
1001.502991 1743.600464 778.227417
1048.401733 1727.418213 660.236206
850.327942 1874.034302 809.358704
1107.073486 1714.427002 734.336243
1045.236816 1727.092529 681.983398
1025.467041 1750.617554 630.713257
937.663940 1843.608276 906.731750
702.520020 2060.450195 578.380920
1043.492065 1805.246948 799.266968
815.857727 1870.911865 642.229919
856.055176 1800.781250 808.431946
837.390015 1851.104980 688.979858
1044.363281 1885.315918 852.457764
756.556824 2122.031250 562.035400
1198.340454 1914.711792 765.297241
953.608521 1800.271484 832.537476
940.173828 1829.790161 892.618042
710.379700 1975.186523 638.920471
903.916016 1842.211792 436.069122
1113.664307 1818.546509 765.469727
754.153015 1907.556030 883.849182
978.700623 1799.410400 654.969360
879.076355 1860.806641 544.771606
777.480957 1881.836426 658.109192
1004.883057 1719.516479 730.119385
985.731689 1753.911255 662.218506
863.261414 1932.160767 899.918701
857.980774 1807.875366 834.591736
929.210876 1778.486694 829.470032
1030.249756 1751.301880 627.668396
1056.950684 1732.440186 740.236145
806.272766 1885.246094 575.264221
775.480957 1896.261597 633.137634
882.688477 1825.316406 665.499268
874.508423 1804.579102 753.006897
976.060120 1785.276001 550.693420
941.823792 1835.324463 665.206421
749.283386 1914.218994 880.233704
1004.711609 1776.278931 793.903198
890.008789 1784.656372 817.182983
1142.731689 1792.268433 747.759583
1110.707886 1780.378174 746.574524
913.679260 1836.523804 537.870300
953.601624 1797.068970 845.240112
1058.518799 1876.597290 821.890991
1047.920898 1863.676514 828.635559
824.032959 1877.153198 554.598206
981.778015 1748.659424 794.081482
912.073364 1939.285522 902.787781
993.293640 1744.255859 720.399780
962.838013 1750.004395 711.314209
722.609314 1935.780762 582.475281
921.091370 1816.653320 526.434753
1082.811523 1961.288208 873.813904
762.840515 1922.030884 711.392700
1020.849060 1721.094360 701.058167
798.226501 1909.783936 498.415985
1033.004883 1881.138184 843.925598
1036.531982 1823.341553 812.719177
691.782959 1963.610840 596.109131
1113.353882 1750.871460 738.860291
800.895325 1869.004150 859.668335
901.952576 1766.073242 802.948425
969.986084 1725.539429 779.317261
798.120667 1859.498901 728.767334
1065.182251 1964.154175 871.124084
877.557495 1845.231567 530.406677
986.875061 1748.989502 654.102661
1035.328979 1982.151978 909.190430
996.039490 1731.428711 675.107910
1005.753723 1722.551392 718.250549
960.515320 1753.282471 703.917297
880.342163 1795.936401 750.401306
748.678467 1927.491821 667.196655
1052.638062 1801.656860 792.092773
882.464172 1939.363525 898.394043
949.296509 1801.626587 614.638123
1041.676758 1712.252319 718.213745
1152.769653 1900.538330 787.478271
853.104431 1814.900391 766.321472
756.730835 1899.084229 624.223328
837.819763 1883.108521 771.427673
1056.327881 1823.090088 810.109985
828.068726 1836.655273 764.412292
1027.507080 1826.800903 819.796753
812.506592 1849.920898 722.453186
879.924194 1808.153442 748.101196
838.218750 1864.789673 776.799316
685.754639 1973.520874 589.033630
939.165405 1798.991943 846.100464
890.054871 1784.373047 875.263733
744.089478 1917.276978 883.881958
933.511658 1741.840088 753.750183
951.871582 1809.564819 852.950928
877.579651 1784.931763 829.132263
822.298584 1858.089478 779.623962
773.915710 1916.283203 604.570679
897.377258 1819.555908 651.822571
1053.884399 1972.739014 894.736145
1152.036621 1951.251709 792.888184
856.802002 1869.342529 510.494019
805.005127 1888.860596 762.607361
935.547241 1922.771973 891.250793
1021.811584 1757.287354 780.972107
931.108948 1784.588257 516.323181
838.758301 1862.563965 590.838684
896.945007 1948.926758 920.672180
948.930481 1932.729858 888.150818
923.992981 1843.778198 530.739380
717.880981 1940.495972 599.719055
1098.053589 1742.077393 730.003418
1007.676575 1915.606934 899.893311
884.824158 1901.010132 829.197144
1150.531372 1883.755371 781.260925
758.796875 1917.075562 892.928467
863.399597 1789.523926 838.746094
699.181946 1948.646484 570.296265
839.264465 1842.984863 697.182495
891.936096 1779.467407 777.682312
868.196228 1783.630859 830.684326
1148.193481 1921.974976 798.251831
941.710571 1914.109741 893.069092
726.357178 1972.364502 652.302185
982.759705 1883.831909 897.940857
772.267639 1903.817993 578.601196
771.436646 1916.041138 890.236267
958.254517 1823.940430 674.110657
1148.259766 1837.222412 754.946045
1056.731445 1916.421143 849.850891
883.345459 1831.367065 671.515503
1016.375549 1741.815552 609.905884
783.473816 1885.132324 645.330017
846.246826 1866.520508 811.855103
1200.979004 1964.221802 775.768250
971.221802 1747.235718 800.124268
900.145935 1819.064941 439.603058
785.329712 1884.583130 690.560669
829.181274 1827.892578 788.414368
887.576294 1780.989014 803.366211
715.384399 1951.313721 622.527527
1157.602539 1820.865723 749.574036
918.746155 1953.352539 922.964905
1084.098389 1811.425659 777.424255
847.967773 1864.883911 622.476807
897.914246 1769.756470 809.973816
718.133240 1925.626099 569.228943
676.231934 1976.721313 569.139771
897.611450 1956.761719 939.843140
883.768005 1770.754150 818.384949
894.934387 1833.336426 583.177368
1006.948303 1733.604736 796.955261
819.190063 1870.629395 847.062256
790.522156 1871.235962 673.387878
879.323547 1798.014648 853.079407
958.654297 1796.167725 588.960938
920.135437 1818.757813 572.436279
826.428833 1892.531372 826.702026
914.041260 1848.566040 435.455811
1073.971924 1871.875488 827.857300
822.461121 1862.096924 782.381531
974.499878 1821.422485 840.943726
767.334534 1962.053833 724.754822
917.353638 1799.688354 699.059387
880.497559 1857.616943 508.118896
957.691223 1807.410034 848.775452
754.349060 1998.448486 673.793091
989.766602 1746.952148 726.308167
882.657349 1944.343384 888.388672
890.105042 1793.421631 849.248535
979.948425 1893.448608 924.729431
1017.840210 1940.065063 935.527039
913.666016 1836.827026 466.084259
861.664307 1806.717407 795.795898
899.255493 1760.392212 804.506775
874.505737 1830.633545 706.059570
979.964905 1783.624512 826.020325
775.042053 1891.608398 860.005920
972.921387 1786.832275 822.583069
1061.550415 1782.821533 771.099426
895.343445 1941.338989 918.829773
802.066589 1887.190430 620.026245
1110.560059 1927.971191 810.869141
765.675720 1903.051147 853.816650
709.799500 1942.899048 614.673706
994.169861 1917.747559 941.795776
841.078247 1934.919189 454.254181
900.120178 1832.591797 610.710266
796.120972 1934.134888 473.960999
1135.950928 1921.485474 810.122070
1015.406494 1733.827881 668.269714
737.426758 1925.526367 644.214233
873.002869 1796.229004 867.692688
892.043030 1843.338745 853.251404
1064.965454 1816.160645 787.838745
787.067139 1886.871216 640.436218
1070.277954 1842.148193 802.688477
1107.155396 1776.552490 746.602539
984.210083 1731.876221 806.377380
864.683899 1822.371704 835.625916
827.035034 1891.720459 771.796570
765.777405 1897.538940 710.263672
783.615479 1905.323486 770.085327
1165.205933 1944.948730 800.175842
1168.308716 1916.202026 786.817566
1096.845459 1706.696655 726.159790
916.792969 1778.681152 752.641235
910.273254 1825.512695 571.267090
806.302124 1883.880615 625.949646
1011.008728 1818.810303 809.939026
752.607666 1889.871460 666.910889
971.888367 1751.188843 691.899048
765.296936 1900.042847 856.490479
890.170898 1772.248535 845.022034
1018.938171 1723.321533 643.608032
1034.445068 1723.432861 775.507019
694.453125 2037.219971 613.293213
867.998413 1845.876953 666.925720
935.172852 1902.765625 901.525635
894.855103 1842.224609 584.592590
1002.429321 1777.644531 591.659363
1141.840576 1919.418945 800.300232
786.090393 1870.194458 673.860901
832.999268 1893.036865 567.101807
842.461792 1885.283081 800.758301
903.567871 1800.395264 882.659363
955.091309 1811.804321 528.703796
939.797729 1909.483154 886.826782
872.456543 1838.964844 735.580566
699.956909 1960.963501 587.216553
739.414001 1911.581787 880.309021
985.975281 1743.852295 702.180847
801.026489 1878.312256 677.159485
762.987854 1885.576294 653.840210
925.350952 1980.029419 929.180725
900.845276 1931.035767 843.800415
807.731262 1844.954346 752.144104
797.888489 1887.468140 834.217651
1190.989258 1907.680420 785.540100
830.731018 1880.415039 830.480774
1086.797241 1872.859253 810.054504
750.552185 1917.805786 665.505005
909.022339 1838.156982 495.658539
894.447754 1785.329834 749.258545
915.735901 1929.182983 890.830444
922.903870 1779.924805 509.724731
821.123230 1901.261963 778.635376
942.183472 1911.439087 888.946960
789.703552 1889.993042 587.610107
856.448669 1824.059570 752.394775
872.178650 1993.765137 425.616791
742.188416 1953.905640 659.681213
947.224243 1830.293457 714.350037
982.994629 1791.748779 583.664551
1177.241333 1912.359497 791.297058
728.242554 1940.177124 627.355713
975.894714 1859.894287 862.534424
679.168030 1971.218140 549.684326
989.679443 1768.718140 582.412781
983.452271 1866.548462 865.497925
1094.595703 1838.181885 790.503235
784.831360 1922.374390 473.836121
854.982361 1849.329956 664.938599
970.808960 1786.942993 615.800598
762.751343 1914.645386 859.366028
1064.379517 1718.170776 686.657104
876.457764 1857.780640 837.153381
1041.036133 1803.886230 802.423096
832.872498 1841.959961 720.090088
859.782776 1872.911621 824.473816
967.835999 1807.369873 576.787659
777.962585 1935.298218 728.818481
901.261719 1827.421509 523.834045
980.449341 1847.419800 859.620850
1091.471436 1691.817383 730.281250
891.221252 1923.452148 821.736572
1019.206604 1709.079224 744.470947
905.198120 1912.401855 865.546692
811.179626 1851.676636 744.125427
801.412048 1869.549316 652.175537
1131.841553 1927.615234 815.407959
865.545898 1861.395386 425.141754
1205.457764 1893.217163 758.548218
1127.205933 1800.690552 739.983582
958.498352 1853.558350 898.703369
882.097900 1896.095215 453.247406
917.859314 1957.165649 926.250977
1021.125427 1782.922119 794.995667
985.707520 1791.651733 572.472717
1001.958435 1713.045532 768.676147
804.378479 1864.539551 747.840149
815.672607 1878.815796 594.708618
1143.414185 1766.440674 748.635620
679.170715 1965.016968 537.040405
853.896179 1887.761719 414.021759
957.908691 1831.595459 857.364563
756.588257 1882.066406 699.510132
839.258667 1870.703979 588.155273
961.381897 1804.691895 632.359314
857.053833 1933.760010 944.659058
878.673279 1821.707520 868.872559
710.463074 1933.820435 529.330811
880.598816 1930.955811 933.114380
752.903687 1912.654541 904.091125
1008.633057 1714.884277 745.526855
1027.796387 1866.617798 851.795105
950.192139 1755.118042 726.822266
814.314819 1836.829102 754.240662
821.821716 1839.052490 725.731934
842.867249 1861.598755 650.223877
972.941284 1768.358643 638.024597
950.022583 1736.449463 792.690369
866.854919 1949.354370 934.637390
1026.591064 1842.328125 828.973999
1027.810791 1891.037842 854.264221
1030.260010 1836.507568 825.002380
713.387939 1955.583252 643.093445
760.179504 1919.802612 896.370056
937.170471 1809.577393 576.735413
805.023682 1898.370483 859.559570
779.649048 1893.657593 874.135315
1062.964478 1695.181763 735.395935
737.315918 1913.501099 591.659058
929.632690 1775.732910 714.038574
1000.737244 1779.089966 586.632263
833.883179 1868.420776 802.081726
875.962341 1927.183105 891.479980
856.296997 1873.509521 449.060364
861.001221 1790.184937 783.178833
984.005676 1771.610840 654.438049
925.189209 1759.681763 755.126892
1034.399780 1713.675537 726.034363
911.843323 1831.249512 609.591431
930.007629 1803.841187 657.765198
879.514282 1892.316772 820.298584
950.432800 1927.692383 895.375000
936.711121 1808.649048 650.201477
736.523010 1904.597656 621.720154
752.136353 1897.069824 629.464417
1029.166870 1759.967773 619.913391
820.493347 1873.144287 832.504517
1048.727173 1903.325562 860.571838
901.482910 1806.112549 723.649414
1034.630249 1822.595825 815.511169
1049.873901 1734.793457 653.461792
802.729980 1920.988770 874.790161
1100.027100 1788.323853 764.655212
1013.715515 1704.858643 662.378967
1118.636353 1970.430542 840.925171
753.326782 1911.863770 899.064575
1029.062256 1783.595215 802.480774
1095.462280 1921.120605 843.864685
971.240723 1804.897095 834.474365
888.956970 1793.201294 734.453308
878.704224 1887.295288 451.938812
693.510681 1949.892456 568.943909
1200.089478 1863.295532 764.704956
952.621216 1751.241455 720.602295
906.986267 1846.541138 447.910431
1079.366211 1854.519409 817.116455
974.485168 1755.017334 631.409363
858.269592 1845.532715 698.488037
845.634766 1918.353516 848.656677
921.022461 1849.411743 446.384277
822.268433 1923.237061 400.520538
897.027832 1785.927856 759.529968
827.462952 1913.416016 856.972534
1006.523560 1930.057495 922.353577
1108.732422 1915.284058 817.552979
807.490662 1853.751709 707.545288
766.865784 1908.431641 710.477417
836.816345 1890.497314 428.318787
892.513062 1787.241333 762.727966
872.918945 1799.124023 777.812439
1005.035522 1858.465942 849.116272
1050.166870 1719.349243 687.843994
800.511353 1868.695679 752.376526
1146.546997 1915.276001 798.580933
877.271912 1858.174805 522.259216
929.743347 1794.835693 851.312561
714.713989 1928.265137 567.815796
1136.906128 1938.392456 816.096619
1104.058228 1778.539063 741.760010
1126.152344 1807.238525 759.736206
800.873718 1866.835083 710.306091
999.140564 1722.327148 756.397827
930.886536 1788.149658 841.162415
999.862793 1785.746338 812.040161
826.727173 1834.153442 741.493103
938.901367 1882.091675 899.959351
919.998108 1777.210083 702.531433
836.181885 1825.387939 800.947937
799.710388 1902.928833 749.397095
1108.908447 1744.583374 733.080383
1090.044922 1892.348633 811.236145
996.201111 1901.717163 896.692200
743.650513 1891.806396 680.717773
895.755981 1788.550415 766.848206
692.811035 1979.648682 539.164978
870.807068 1829.909424 718.322205
1027.939453 1707.439209 756.793213
1128.458740 1756.611328 740.805115
1023.879456 1736.938599 662.297852
815.316040 1894.006226 850.616150
967.476196 1745.655273 706.539185
975.641846 1801.680908 530.352966
917.780579 1890.394775 885.021179
1035.404785 1935.090332 885.779663
945.709167 1798.521362 588.658386
850.363586 1931.768433 443.300385
963.852661 1940.744873 892.476135
919.333130 1765.124634 735.577881
1021.824463 1946.363525 936.977783
945.889771 1795.916626 570.042358
941.426453 1871.727905 901.150879
752.573975 1908.216064 603.127563
1064.037598 1706.355591 747.954773
787.041382 1856.723877 737.907715
1012.334717 1842.420166 835.299072
1055.963135 1776.639893 778.984863
697.355591 2002.624756 641.967468
1040.626343 1727.739868 692.642090
835.178162 1876.636108 656.481140
1098.502930 1902.342651 811.048645
790.763672 1867.954956 744.239990
857.902832 1813.847290 836.043640
741.814087 1914.000244 614.641663
852.525940 1877.151245 475.882690
826.558533 1841.554077 776.172058
958.420105 1777.811035 835.212402
912.454895 1839.970215 438.172058
1002.424805 1809.751465 828.066101
978.745850 1892.224609 915.561096
718.041016 2084.431641 565.435730
885.654358 1822.262085 671.601563
863.627502 1860.720703 828.350098
903.474731 1840.925171 535.164490
804.744324 1919.803711 440.216125
785.178406 1895.890869 745.975708
895.234863 1879.418335 846.867004
859.885132 1862.906738 569.360657
873.340637 1799.458740 828.612915
928.245117 1844.163208 481.585327
881.328491 1783.107178 839.174316
823.244202 1879.816162 585.960632
926.540955 1782.309326 716.541077
767.716553 1943.790649 460.002472
973.633789 1722.135742 777.686523
787.459167 1879.494019 688.286316
1195.954224 1844.827393 769.477234
862.311462 1928.526245 459.083740
702.359314 2046.446899 581.255920
1058.027588 1975.961548 880.790344
743.846924 1920.383545 722.442200
998.003540 1897.745728 876.254333
799.475769 1929.417847 461.933624
865.274597 1786.760498 805.988708
1063.619141 1746.771484 759.778503
999.459045 1896.438843 883.299622
1036.255371 1759.720093 763.062195
828.046631 1826.740723 750.488770
1140.597534 1843.704956 763.956177
771.528992 1917.574463 890.940308
963.991150 1804.795166 837.589783
810.028992 1869.421753 670.910400
954.087585 1755.152344 719.393433
746.785645 1903.748901 641.630127
1077.045898 1817.130127 788.793213
917.109558 1808.558838 886.696350
828.905151 1896.106079 774.508606
938.217224 1743.275635 799.996948
817.292053 1850.904297 705.833008
900.552368 1803.616943 879.997742
927.765076 1822.685669 889.877808
977.204102 1886.629272 910.247620
936.278259 1765.882324 701.350037
883.665161 1816.430664 716.959595
1008.559998 1738.926270 672.184021
818.787231 1921.399780 435.860168
877.283752 1931.914307 897.443787
818.477356 1894.636475 818.542603
728.915894 1935.500000 664.165283
882.874329 1794.831787 740.756775
1074.450684 1695.682373 727.925598
872.680786 1874.110718 567.557922
989.850037 1802.560059 831.629517
1191.569458 1912.197510 750.710693
873.261292 1794.400513 791.973389
875.174438 1860.880371 518.715942
1201.363892 1933.617676 775.844116
805.136475 1886.956787 850.274231
926.471863 1749.511597 798.596741
999.025391 1735.198364 606.144897
699.458435 1979.406372 611.912109
814.253784 1904.698364 473.303436
904.955505 1887.878174 486.288177
947.836365 1798.655029 556.277161
789.040588 1945.334839 743.053284
898.790222 1843.972778 432.412537
703.356506 1970.559570 599.148376
1198.728516 1907.162109 746.770935
855.296387 1868.936523 555.341125
1127.979004 1828.037354 764.004089
1031.478149 1718.307495 732.303162
862.729797 1846.161499 636.899719
914.237305 1783.631958 853.114075
935.459656 1872.923584 887.756409
840.064331 1817.725464 808.920471
822.236023 1974.742798 770.432556
1054.737305 1729.607178 757.372742
938.887695 1864.917969 919.869324
873.916870 1840.747437 703.103699
849.021362 1818.518677 762.753601
1155.612793 1945.609863 809.965210
805.090393 1895.970581 743.878174
824.189697 1832.380981 756.048889
1133.762817 1815.586670 750.870605
1037.676514 1965.146851 899.220032
956.885376 1784.962402 593.683044
907.793457 1831.868774 512.539856
752.009460 1911.034912 617.820190
837.534241 1879.335693 597.310059
967.625732 1952.285156 897.571777
1157.895142 1803.871338 745.682129
818.633911 1917.738403 817.687256
809.920715 1858.960205 753.827698
872.673889 1846.798218 589.064087
973.210022 1776.005981 826.844727
961.980896 1986.501709 894.503906
996.505371 1730.331177 705.334473
965.776855 1759.910278 683.755310
843.169312 1802.178223 779.443420
870.119568 1879.243896 464.239807
907.130676 1819.023804 573.147949
1011.501099 1892.663208 874.024048
810.990112 1908.420898 529.525391
817.791321 1902.990112 869.648804
833.903748 1871.576172 613.063477
932.622986 2055.846924 427.255951
1052.724121 1812.367188 783.999084
940.519531 1768.294556 688.550293
708.562195 1951.435669 560.861511
1026.945313 1972.585938 930.006714
932.362854 1742.912842 748.603455
879.435669 1847.051880 608.469360
771.596069 1935.175415 721.465637
822.760864 1909.226440 425.403259
1112.155518 1869.970825 796.336121
1036.024658 1814.003174 802.795776
863.500061 1868.957153 520.940552
794.813904 1868.709839 681.259155
825.814087 1878.474854 765.057373
1207.898071 1906.242676 754.079041
1164.265625 1816.383179 753.790894
974.505737 1784.611816 828.684021
936.198120 1826.337280 487.030853
891.349548 1775.730225 857.088013
880.815918 1784.632324 859.783447
984.705627 1754.323853 700.418274
1097.536987 1723.072021 716.638367
857.014282 1857.617432 586.634338
794.149475 1888.639526 765.834778
848.527588 1875.787598 436.217468
998.250183 1728.573608 724.684082
1022.904175 1768.682007 613.376831
924.495117 1749.567749 804.998840
820.617981 1913.152100 417.842804
909.942749 1918.531738 921.436035
1017.236328 1757.994019 802.699524
817.271301 1881.294434 576.327698
1051.513672 1850.448364 804.934509
843.686523 1815.917480 815.232117
1027.158691 1883.350464 848.470032
863.507568 1912.793823 474.152008
686.869812 1994.562988 591.605164
1010.965637 1745.691162 606.261047
1076.675415 1971.418823 871.765503
1030.264404 1697.049316 769.191711
794.876648 1895.436890 853.699280
817.944519 1872.027100 787.570740
782.578857 1875.330444 669.205811
894.776184 1763.448730 811.836426
754.189880 1889.151489 689.034973
894.501709 1919.934814 923.929688
1079.897217 1926.178833 855.505432
933.612122 1778.084351 692.821838
861.010376 1863.288696 564.092224
895.377014 1815.569458 711.432495
876.747681 1922.257813 873.239624
879.972412 1861.398926 834.367004
902.925476 1825.953369 527.001648
903.278076 1909.480347 843.687256
850.298340 1813.253418 778.739868
1065.851074 1712.015259 721.987244
931.085510 1880.983521 886.821411
909.759888 1937.806885 899.720825
905.431946 1866.675537 860.953674
950.230225 1798.049194 508.912445
866.849365 1795.666504 840.643860
721.045410 1943.265137 636.906128
814.354126 1903.991699 865.352234
925.925171 1830.999512 477.147980
804.115723 1860.733398 694.411133
848.646667 1801.116821 789.088013
838.109375 1862.536011 664.098145
733.098877 1960.296753 657.053589
1104.711670 1871.668091 802.782410
815.342468 1847.999512 754.965698
867.820862 1836.343628 669.907654
950.193115 1933.414307 919.296875
993.722534 1898.531738 868.311768
705.206726 1955.211670 604.341125
895.472961 1853.305420 459.869843
967.665222 1796.087524 613.722290
714.960510 1937.868408 627.275635
874.039856 1844.161011 686.779358
1010.296387 1813.396362 807.125610
960.057312 1779.327393 617.159546
969.140503 1857.803711 879.693726
760.790894 1878.861328 694.536865
1191.188110 1892.801880 763.555725
993.035767 1879.739624 867.641785
934.563782 1818.597656 632.938599
805.202637 1892.716431 861.636780
1228.749023 1920.618042 783.140991
696.156555 1949.488770 579.507446
920.342468 1760.096436 747.485229
985.475830 1746.053833 812.371277
780.468567 1944.181641 884.680481
1099.407349 1931.085815 835.312439
932.040405 1846.321411 897.519226
981.491455 1756.336304 674.684204
968.321167 1788.315552 834.726807
988.011597 1735.738892 720.117615
902.519226 1763.755127 760.298340
854.936462 1801.930054 805.352966
721.503357 1935.615356 626.906555
870.492065 1782.848022 796.878235
723.024170 1927.562378 558.656616
782.036987 1899.172241 885.862732
991.910156 1913.715088 909.058533
997.012146 1769.049927 581.145752
911.709900 1806.165771 875.109619
984.586487 1746.940186 684.653992
975.500793 1733.910522 764.600403
821.182617 1894.021240 521.974854
928.206665 1762.455444 800.605591
870.148865 1868.411743 476.210999
889.207764 1788.287842 763.162109
967.324158 1837.505371 853.770935
1057.673340 1808.178223 787.491638
797.060181 1911.642700 548.296509
876.335693 1856.918579 517.862671
930.762268 1893.143677 880.066711
976.385864 1776.800781 636.473572
754.060486 1939.301514 697.019226
889.883484 1820.731323 699.006287
773.308716 1937.294922 738.456909
1060.514038 1949.103638 852.539673
809.902405 1843.260010 744.186157
1140.226074 1815.123901 754.729126
1069.616211 1754.041748 752.896851
977.149292 1722.585693 788.791870
1035.619629 1739.926147 651.614746
933.422668 1740.843506 803.466919
1038.277588 1724.888062 739.537720
1046.776245 1774.221313 764.768433
1004.849304 1734.372070 682.943726
744.149170 1905.968262 640.700439
801.621643 1904.950439 802.285461
915.448181 1794.836426 888.310181
968.588684 1786.724976 833.101685
838.249146 1871.618408 835.912292
1004.825806 1912.422974 877.692444
823.932495 1861.631958 691.618042
849.331299 1817.530518 805.666931
1144.992798 1959.597534 819.275879
857.654907 1801.561523 815.934326
987.497742 1761.983154 668.729675
941.985352 1937.750000 901.519531
907.620544 1847.175781 444.119202
986.470337 1770.409180 646.494019
1046.860474 1697.837524 767.279724
995.102600 1717.697388 633.500793
829.305664 1882.111450 560.217957
1080.058228 1702.051025 715.425537
898.439453 1787.528442 731.330200
931.045471 1746.178711 776.020020
859.056213 1910.781006 527.160034
1075.316162 1774.288818 766.872681
676.232239 1979.205322 602.128418
727.222412 1941.968750 654.548828
940.623230 1831.411011 491.396881
698.149353 1949.971680 591.175598
1039.856934 1708.648926 751.329163
766.523438 1916.444702 891.196411
1027.350952 1745.184204 625.735474
1045.087891 1768.629028 774.259888
1164.444702 1925.436401 807.868164
1197.969849 1879.298828 753.268982
779.621277 1877.953003 740.641357
835.841125 1896.076660 840.802979
689.628784 1954.225342 527.007751
714.436218 1962.204468 650.466919
754.458435 1924.715820 689.310059
941.369934 1945.777466 905.353821
734.572754 1924.825317 607.541992
1024.467529 1816.551514 816.100098
901.251160 1811.464233 728.250977
882.997070 1835.520630 643.032288
785.399719 1894.272705 861.623169
704.648743 1957.203369 614.575684
992.901062 1999.457642 908.341003
1127.958008 1797.198120 742.196411
941.809570 1802.963135 496.296600
948.350098 1788.170288 603.642883
786.276306 1892.001221 635.702393
833.810852 1887.060059 846.692688
917.426880 1771.309204 742.957520
998.788025 2010.272217 892.149231
967.431519 1745.026733 729.222168
858.084534 1854.623047 634.401062
723.063965 1946.222046 642.020508
1034.477051 1732.463135 650.825073
878.189575 1852.815918 529.120850
960.356750 1789.149048 830.158020
1023.679077 1719.696411 667.692810
1101.272583 1951.443359 831.702576
774.424500 1908.763184 547.513855
901.266357 1939.213013 914.704895
692.776855 1949.809082 536.940613
952.037231 1792.592896 597.822083
911.449890 1844.939209 497.698303
889.666016 1817.175171 869.976868
1095.707764 1850.445923 806.181091
1215.345581 1945.251587 772.834106
1003.144165 1737.331665 693.095154
748.422729 1928.153809 591.587524
909.974731 1838.834717 485.507477
955.226746 1748.834229 810.293945
736.347900 1954.088989 669.188171
880.494446 1854.777100 832.690979
837.431519 1893.224243 852.659790
1045.731445 1721.479858 660.421021
985.026245 1765.422607 632.513916
789.898315 1921.779663 479.140350
843.881409 1806.341309 775.550903
736.140137 1912.205688 615.245605
970.606628 1819.635864 648.761414
888.762695 1884.581665 847.894958
926.012939 1830.603027 495.279816
789.993164 1893.184204 857.681396
975.925293 1941.072998 920.596680
740.654419 1918.569092 643.017761
942.566833 1812.985840 535.562561
754.838867 1913.862305 901.342712
805.321777 1930.068237 886.678711
1096.042847 1823.857788 779.828613
782.836060 1874.330322 700.428040
908.873169 1767.363770 745.503418
741.424805 1977.966309 659.417908
811.596008 1870.216187 666.058594
913.203918 1764.733643 747.394409
790.847229 1898.464355 629.197754
930.365906 1753.935547 820.388611
923.936340 1816.076782 521.299683
829.413330 1840.170532 725.928101
930.668091 1776.298340 674.713379
801.793335 1868.053345 743.694214
780.616516 1917.315918 501.925140
698.619324 1940.100464 591.839783
818.299133 1896.723755 861.167236
747.096558 1900.705811 667.356384
