ply
format ascii 1.0
element vertex 1349
property float x
property float y
property float z
end_header
-176.189606 1203.908691 1728.458496
-220.143707 1387.071899 1594.420654
-104.725014 1465.974854 1554.857544
-133.702332 1480.542358 1561.145386
-358.270538 1506.892212 1568.988647
-187.349152 1511.862793 1552.784424
-261.761017 1588.759277 1685.145508
-5.031838 1301.575562 1755.438599
-248.273621 1433.859497 1557.000732
-72.437569 1533.895996 1598.102539
-109.496315 1536.190796 1569.136597
-285.552032 1525.539795 1605.983887
-60.068108 1424.845825 1627.555176
-352.754517 1522.982666 1625.769653
-44.982754 1487.444946 1653.999756
-112.700935 1198.258057 1758.936157
55.097431 1516.630249 1668.394897
-83.294693 1290.454102 1704.655640
-238.768356 1278.053467 1667.299927
5.029722 1194.760010 1811.479980
-47.734783 1349.439819 1661.636108
-226.892273 1254.245117 1693.629028
-143.682785 1409.103882 1593.878906
-37.728714 1389.503784 1646.391235
-120.450020 1502.692261 1540.737305
-241.387527 1326.974121 1628.047729
-198.499908 1624.073608 1697.422607
-163.511063 1586.898438 1657.746094
-12.396897 1197.481689 1768.165283
-237.345093 1524.252930 1573.361328
-234.742767 1152.271606 1743.000732
-120.573586 1585.046997 1606.387939
-146.262421 1207.640259 1755.867432
-38.369602 1380.835327 1652.883179
-78.247993 1505.002808 1608.745239
-200.224991 1258.536743 1700.400879
23.638647 1236.535400 1769.943604
-118.673134 1542.217773 1575.207031
-70.688347 1615.762451 1703.012573
-143.835449 1478.909668 1537.263306
-399.315002 1601.839355 1735.865356
-70.668327 1293.540405 1706.409424
-159.893372 1516.195557 1535.773804
-69.734779 1353.410889 1671.789063
-7.980061 1594.152588 1670.655029
-119.883598 1452.947754 1562.399414
-88.120178 1611.326294 1702.562012
-105.903122 1409.056885 1612.283447
-198.509995 1240.632568 1710.891724
-34.570286 1283.549805 1725.356567
-228.460953 1475.233765 1524.823120
-206.811859 1609.735840 1716.819946
-155.958206 1348.340942 1650.314087
-119.128204 1622.663696 1707.325439
-286.304657 1309.225708 1641.316284
-150.945541 1235.531250 1721.257813
-271.730133 1417.940918 1559.276611
-19.918617 1502.111206 1659.193481
-163.797607 1269.869629 1696.711914
-237.588074 1491.337280 1534.708130
-218.114395 1283.099121 1683.051758
2.893920 1211.127808 1775.812134
-25.153807 1476.194580 1642.694702
-46.874813 1246.578247 1932.375000
-86.727821 1452.585938 1579.447876
-15.017282 1513.277466 1662.767944
-76.700439 1571.973877 1649.685059
-205.571472 1243.264282 1720.799194
-204.686066 1612.968018 1699.602783
-267.570862 1418.976440 1556.019287
-209.050598 1227.699829 1711.393799
-242.453079 1340.760742 1627.658325
-46.236710 1276.656372 1708.893311
-86.503403 1534.363159 1622.135986
-237.966309 1497.879150 1551.306885
-275.590637 1207.838501 1716.906006
-220.536850 1433.380493 1565.557495
-263.978668 1464.422119 1527.429932
-107.143684 1468.772705 1558.630371
-54.638577 1403.554810 1637.314941
-258.325134 1514.187012 1582.544800
-284.161957 1439.242432 1540.956055
-24.525124 1165.181519 1788.771362
-37.503281 1485.521973 1641.914795
-112.629082 1617.665771 1713.298828
-84.020355 1262.596436 1716.115356
-27.371996 1578.688354 1680.993530
-317.967499 1421.668091 1553.309937
-345.971832 1474.268311 1525.329956
-110.160149 1370.919312 1656.006226
-253.310349 1244.049561 1678.875854
-79.272240 1320.312866 1686.083252
46.548412 1498.495239 1642.713867
-123.872742 1457.003540 1551.456543
-293.569519 1581.554199 1684.289917
-351.277496 1508.696533 1572.909180
-281.673859 1232.141113 1669.074097
-166.527908 1542.430054 1589.393677
-70.711899 1214.206177 1748.233643
70.196526 1518.880981 1645.708252
-191.511841 1535.506714 1596.289673
-28.442503 1376.113159 1661.198120
-34.786137 1471.590698 1646.749023
-204.599945 1188.846802 1777.693848
-258.841583 1232.279419 1700.461060
-113.718681 1622.678833 1685.411255
-22.595190 1607.618164 1681.045898
11.468901 1213.974243 1769.908203
7.967657 1240.269897 1751.883911
-162.026489 1650.160034 1703.827637
-402.363525 1611.233765 1759.527466
-27.048893 1591.725098 1677.205688
-232.498550 1456.908936 1528.509766
-250.510437 1633.083740 1740.278809
-43.424953 1491.145630 1648.515503
-268.766724 1319.469116 1627.465454
-137.221268 1637.457397 1673.069214
-153.162827 1403.749146 1573.218750
-241.675201 1591.125854 1684.688110
-275.832153 1265.348267 1666.108643
-213.760162 1202.262451 1732.414917
-136.474182 1234.514771 1725.991455
-36.486965 1608.621338 1665.635742
-218.037506 1606.270752 1698.220337
-249.613541 1374.059692 1616.840210
-14.460642 1254.465210 1741.946167
-292.740448 1558.408325 1641.054077
-259.196106 1526.395386 1595.278687
-198.944839 1455.237549 1555.789551
-68.869385 1464.481079 1581.236816
-57.818722 1339.645386 1667.213867
-203.881546 1335.691650 1639.640381
-99.217659 1376.523438 1655.854492
-211.447311 1419.917603 1547.111572
-189.530273 1582.029907 1652.989136
-186.026169 1448.928711 1551.822754
-46.466305 1267.185303 1714.075195
-242.190933 1153.668091 1742.084717
-181.252884 1572.304077 1647.597168
-136.362381 1302.665894 1679.565552
-154.047287 1490.238159 1544.801758
-345.987946 1506.144043 1587.601807
-210.980103 1321.514160 1667.888672
-265.249939 1487.709839 1522.121216
20.931448 1495.872437 1649.375977
-300.477997 1568.695557 1672.505859
-57.410698 1305.802979 1695.519775
-312.585846 1532.177246 1630.544678
-269.097229 1218.000244 1699.717773
-258.246368 1387.622925 1591.712402
-314.489624 1511.248901 1595.453979
-36.751068 1405.530151 1656.844238
-202.184387 1643.328735 1740.731323
9.855304 1200.121582 1791.554077
3.625031 1327.813110 1713.406006
-12.361811 1372.826782 1676.917969
14.224901 1579.421997 1680.076050
-345.317322 1479.005737 1560.447144
-58.353745 1494.881592 1664.510742
-287.029480 1359.451172 1600.761841
-281.792114 1450.156250 1532.156860
-216.151093 1548.941040 1606.036865
-102.375008 1463.079346 1563.335815
-229.499390 1536.821655 1601.905640
-44.267048 1279.888794 1709.554565
-209.117508 1639.429443 1737.381592
-206.381622 1471.065674 1532.570313
-32.258755 1627.215454 1700.946655
-35.820972 1323.750488 1692.855469
-127.671715 1430.511353 1580.961304
-128.284134 1262.953613 1710.232300
9.969449 1342.911377 1700.085571
-329.522095 1544.218384 1644.809082
-227.573944 1507.444336 1565.683105
-23.890867 1485.892456 1701.169800
-262.516693 1205.230957 1713.976563
-110.131538 1585.703003 1616.333130
-362.257996 1539.855347 1642.396484
-109.484398 1477.235840 1555.620972
-39.244587 1341.222412 1672.383911
-340.981720 1492.582031 1587.454102
-228.043274 1164.259277 1749.054199
-325.929657 1613.693359 1743.670044
-253.190048 1321.665039 1647.503418
-156.031921 1549.634644 1617.375977
-218.062851 1598.330811 1687.603516
-358.048798 1525.407959 1627.513672
-204.579712 1458.260254 1532.021484
-174.878052 1613.321899 1695.079346
-264.199463 1630.180786 1763.338745
-60.837879 1232.183105 1757.205078
-359.689484 1557.088867 1680.443726
-217.139435 1366.562744 1623.889893
72.520554 1502.019165 1658.161255
-91.416992 1472.652954 1565.107422
-170.096634 1645.942017 1714.404663
-146.284943 1244.306274 1716.285889
-368.629883 1560.686401 1664.040283
-1.803315 1484.107056 1665.999634
-35.292229 1446.444214 1695.537842
-102.011215 1421.441406 1597.440308
-107.636482 1189.285278 1768.255493
-126.605690 1442.367065 1567.922729
-297.076660 1510.573242 1597.755859
39.779476 1527.995728 1657.260132
-288.842255 1329.506226 1621.233032
11.592297 1215.848389 1770.155273
-252.953812 1199.680786 1723.577271
-335.955719 1453.123535 1533.265503
-191.109497 1262.050781 1717.357422
-17.849161 1361.233521 1728.311035
-66.232742 1443.809937 1609.118530
7.232902 1312.963135 1752.039307
8.960050 1528.635376 1724.957275
61.757210 1519.817383 1670.215332
-12.762235 1350.133301 1683.561646
-104.780434 1472.880371 1555.320679
-267.330414 1524.366211 1595.037109
-333.844147 1482.296021 1562.541748
-282.658936 1262.405640 1669.670532
-88.832008 1422.158691 1603.125977
-48.279510 1269.993042 1720.902344
-206.610382 1388.227173 1595.053223
-38.344830 1423.625122 1645.880859
-32.921947 1238.911011 1747.682861
-96.341713 1564.697632 1597.396729
-340.437805 1564.922485 1692.202637
-247.845810 1456.744873 1525.668091
24.559658 1255.623901 1764.576904
-7.565352 1187.533447 1783.508789
-125.935112 1347.191040 1663.202271
-182.641922 1266.337402 1722.296509
-129.205978 1519.984131 1546.376343
-264.135010 1320.992310 1629.164307
19.439972 1256.059448 1756.317017
-196.069351 1563.714111 1649.638672
-309.871094 1518.162476 1608.020630
18.964247 1509.223267 1636.923340
-5.753634 1482.958374 1651.917847
-259.531219 1398.975220 1569.605103
-289.645691 1527.884644 1607.963867
-155.586426 1155.222656 1801.011597
-212.366867 1606.300537 1678.899170
-242.731415 1143.563843 1724.614624
-242.338150 1528.987427 1594.949707
-74.534531 1340.707397 1670.245728
-83.444160 1471.701416 1580.080444
-213.349075 1322.478638 1664.660156
-207.932632 1407.114502 1579.579224
-154.107712 1468.345825 1545.298950
26.055391 1238.996094 1835.150391
-144.990875 1397.896118 1623.345581
10.385987 1520.616577 1666.588013
-301.025269 1470.779541 1527.419189
-306.270752 1374.517822 1581.495850
-118.240364 1414.326416 1604.485962
-54.539463 1434.368896 1669.038574
-28.514431 1294.797119 1701.821899
-95.611694 1600.561157 1687.366943
24.529833 1222.057739 1775.384277
-219.884735 1497.782227 1539.197266
-406.427399 1626.967651 1754.628174
-264.882721 1169.499634 1715.984863
-269.188263 1442.633667 1533.101440
-352.498657 1508.314209 1601.760498
5.502144 1306.398926 1733.234619
-18.858770 1380.771240 1651.400269
-293.213837 1344.592773 1607.495972
-277.210358 1536.099121 1615.435913
-287.992188 1438.223999 1537.365479
-198.145981 1594.657959 1692.834839
-63.080280 1396.167358 1627.198120
-238.814072 1403.380493 1583.861572
-33.633377 1385.363403 1653.989380
-98.476730 1614.172363 1667.574707
-29.167660 1376.984985 1666.746582
-261.077820 1190.255371 1732.477539
-78.948166 1390.203247 1635.215210
-81.547012 1208.359863 1752.909546
-241.740723 1293.519531 1655.366333
-101.647255 1391.286743 1639.378784
-145.600662 1536.374878 1587.410400
29.145975 1265.371582 1794.450317
-241.640152 1126.402832 1763.408936
-129.888596 1514.729004 1561.133667
-315.024658 1391.327393 1560.413086
-312.825012 1542.769409 1640.875610
-123.300407 1542.349487 1570.726074
-215.378952 1179.964844 1737.927124
-331.082123 1446.824585 1533.629639
17.153328 1521.235596 1672.811035
-43.259521 1443.330933 1647.039063
-28.041174 1334.726074 1669.762207
-161.799057 1480.960083 1535.957520
-26.422472 1354.183960 1666.240845
-85.133011 1161.587769 1784.724487
-87.858681 1577.809570 1570.423828
-175.925140 1316.453735 1660.400635
-290.867096 1295.383789 1609.649170
-94.729256 1585.520874 1675.463989
-326.179718 1541.743774 1643.158691
-227.055130 1428.232422 1557.253418
-175.823242 1283.283691 1688.168335
-156.323105 1407.984985 1569.780518
-34.080223 1590.228882 1676.895142
-196.254898 1420.631104 1560.577759
3.921414 1520.253418 1660.032593
-150.327438 1272.587524 1708.927979
-127.754845 1458.923462 1556.436157
-204.412689 1323.223633 1657.777466
-213.620743 1206.035522 1730.044189
-92.720390 1266.849243 1711.152710
-230.243393 1551.099976 1626.788574
-270.660706 1277.713989 1663.019775
-295.186676 1287.249023 1655.658325
-249.810654 1320.918823 1636.816650
-19.291346 1251.340454 1748.100464
-238.432907 1382.540649 1608.531128
-263.311127 1591.379639 1693.010620
-233.359360 1166.458374 1874.214966
-105.219902 1487.349365 1548.192505
-185.493362 1478.324829 1527.543457
-320.772644 1438.984985 1538.281128
-164.371643 1385.073608 1628.169800
-229.128281 1480.252197 1517.574585
-202.511871 1278.497192 1694.453369
-140.693298 1531.114502 1564.011719
-283.346069 1433.174927 1539.889160
-251.549591 1310.704956 1646.498901
-28.959435 1592.448486 1670.952393
-314.396088 1533.515747 1644.187988
-56.730801 1464.960083 1604.454102
-18.918274 1488.468628 1642.562744
-239.317612 1413.866821 1558.919922
-9.117123 1374.311523 1765.843628
-262.104980 1535.142334 1615.708740
-62.961060 1416.134033 1626.062622
-81.165779 1504.593384 1560.045776
-135.941772 1338.671265 1661.706787
-74.660721 1322.213745 1687.286255
-248.977219 1187.453369 1735.051147
-10.353211 1351.711792 1684.252808
-242.673248 1167.678467 1748.669189
-121.365646 1554.997437 1578.794067
-95.775482 1564.343506 1621.751343
-23.723698 1206.142944 1776.867065
32.770210 1501.763306 1644.094604
-303.399139 1408.221313 1567.955322
-252.708221 1559.664673 1627.358765
-6.124744 1355.652710 1696.998413
-197.320251 1320.227051 1668.919556
-138.155212 1656.193970 1714.580688
-37.118656 1217.640991 1748.072388
-251.341888 1548.608032 1625.855225
-190.937195 1394.365479 1576.485840
-214.621140 1406.227539 1571.994995
-87.709221 1233.138306 1764.665039
-11.739800 1179.173340 1820.023560
8.832017 1237.339478 1753.794678
-60.212574 1435.596802 1629.239502
-196.537720 1353.804565 1648.149048
-10.950541 1523.169067 1678.686401
-305.940277 1578.922119 1683.708740
-48.553802 1595.011963 1690.372925
-78.897720 1405.826050 1619.192139
-22.312798 1335.402100 1669.239746
-258.518005 1442.554565 1550.862305
-197.117096 1247.521851 1711.573486
-224.134781 1523.356567 1567.009888
8.019783 1530.641724 1679.900391
58.594830 1504.660889 1640.444702
-214.761032 1312.198608 1670.950562
-254.544922 1365.506104 1631.411011
-48.457542 1608.156860 1692.071289
-190.406403 1284.550659 1687.635864
-208.703949 1471.901855 1533.388794
-270.311981 1475.084229 1547.167480
-252.788422 1294.559204 1644.509521
-73.835838 1600.906128 1659.881714
-137.245850 1658.717041 1679.525269
-268.226166 1256.052490 1635.072876
-63.266018 1508.368042 1578.496216
-186.513947 1520.424927 1575.196899
-117.869728 1216.169067 1747.427246
-83.635162 1503.340942 1672.002197
-43.638702 1331.987915 1664.184204
-231.641403 1165.276489 1735.026978
-201.503876 1224.921997 1736.770142
-276.852722 1223.868774 1689.805664
-76.088837 1479.780029 1584.800171
-266.202789 1493.946899 1562.919556
-15.778790 1549.870361 1721.509277
-7.707000 1331.955322 1683.951172
-271.233643 1290.123779 1649.964722
-12.778111 1582.532349 1692.307495
-262.964539 1526.770020 1605.475830
-165.459106 1390.966309 1615.477661
-283.339905 1315.511719 1610.272949
-272.705231 1198.330933 1714.413208
-314.230286 1575.317749 1684.705444
-104.647095 1569.160767 1568.511475
-107.027946 1440.519775 1579.632690
-301.855164 1550.818848 1629.650391
-10.394157 1524.957153 1680.434326
-228.889771 1488.822388 1523.923950
-53.625507 1213.926147 1761.768311
-259.541626 1512.434082 1585.982178
-195.120392 1549.744873 1600.680908
25.938881 1481.317627 1654.855347
8.385971 1352.299316 1718.117676
-184.999893 1586.764771 1658.536011
-42.483120 1432.387329 1688.532593
-11.168366 1352.870972 1686.384766
-135.715897 1165.822754 1773.141113
-285.845520 1385.098267 1578.931030
-99.463478 1485.262085 1560.917236
-83.556396 1496.451416 1547.867676
-94.156441 1554.623169 1578.856323
-181.437561 1645.785522 1737.027222
-183.446640 1288.363525 1681.977295
-29.830027 1417.182007 1666.686035
-30.712589 1316.139038 1687.748047
-213.695786 1501.173706 1543.000854
-378.669373 1625.357300 1763.586548
-58.559879 1261.268555 1714.406128
-47.710358 1433.507446 1673.631714
-141.291824 1285.258301 1688.768921
5.090541 1480.927490 1642.338379
-336.676605 1612.574097 1744.042114
-66.323265 1369.010620 1645.706909
-66.917236 1513.712769 1675.620361
-34.530510 1503.631592 1654.744629
-109.680504 1520.805176 1534.856079
-194.235031 1578.142212 1635.096191
-211.857803 1212.385254 1719.324341
-231.158157 1560.011597 1645.031860
-260.615234 1318.378418 1634.296631
-27.510927 1614.085449 1684.784790
-243.218369 1586.966553 1663.457153
-235.098892 1313.079956 1669.964600
-43.472477 1342.236206 1663.494507
-118.704048 1524.474487 1567.191040
-218.785858 1635.409180 1737.563843
-272.483917 1358.802612 1600.586548
-161.027222 1133.398193 1784.253906
-272.368652 1541.991699 1625.342773
-283.271027 1461.646973 1527.928589
-49.789661 1373.066162 1654.150879
-231.266098 1190.672485 1719.367554
-174.661911 1601.409180 1677.166138
-282.597626 1574.698120 1669.608154
-19.367128 1308.186157 1705.182861
-170.349960 1239.044189 1709.473511
-44.177032 1607.560181 1671.267700
-355.351288 1489.170044 1587.326782
-309.851044 1592.016846 1707.730713
24.458698 1306.859863 1775.666138
-52.438282 1396.190796 1644.381836
7.449551 1276.135254 1732.516724
-82.722969 1526.840942 1693.352173
-311.587463 1430.872559 1543.820190
-68.810646 1401.208252 1635.072632
-87.471046 1567.128296 1683.190186
-221.207794 1439.845581 1540.521362
13.573722 1294.771362 1758.525146
-206.114426 1627.054199 1741.534424
40.032124 1283.382935 1789.067749
-113.658966 1599.679565 1609.466309
-259.679291 1556.945068 1629.017212
0.226823 1518.411377 1667.000610
-6.878374 1327.364990 1722.536621
-201.237305 1476.014771 1538.154053
-198.876892 1326.518555 1653.679077
9.163276 1220.756104 1789.781616
19.430353 1516.775513 1711.791870
-2.537091 1291.466675 1737.730347
11.452092 1260.478760 1747.344971
-4.388026 1202.305664 1757.796021
-102.458801 1412.096436 1608.658936
-184.509476 1463.917114 1531.645996
-51.553551 1475.309814 1640.646484
-50.019226 1249.605469 1737.706421
-112.443611 1458.798828 1569.170410
-314.214081 1448.096313 1520.758911
-296.235535 1552.486938 1645.858398
-278.007385 1638.722900 1742.003052
-224.925278 1306.964355 1663.069946
-156.007462 1501.577271 1527.413940
9.671178 1228.130493 1768.836182
-188.416992 1218.197754 1745.684326
-42.924522 1169.366333 1778.408203
-8.880357 1288.066162 1745.687134
-4.082090 1581.097900 1686.986572
-114.199173 1474.089233 1548.587524
-29.807936 1375.944946 1666.936768
-1.607151 1195.847778 1777.805298
-137.893539 1649.697144 1702.296387
-200.583649 1359.543823 1629.748047
-376.205139 1542.576416 1653.492432
-189.185440 1306.270752 1672.399170
4.815000 1273.742310 1752.900635
-13.076868 1331.635742 1690.095337
-206.947632 1157.140015 1751.357300
-239.627975 1508.879395 1574.304443
-251.633469 1255.247192 1673.145752
-135.206268 1464.576782 1556.251221
-191.072433 1133.094849 1785.091187
-237.908493 1460.807739 1550.052490
-363.100586 1588.420288 1738.345703
-69.049736 1197.289551 1759.918091
-221.820572 1578.398926 1678.040527
-171.158890 1429.918091 1572.645752
49.267105 1492.166626 1655.064697
-264.554260 1481.844360 1548.178833
-39.390533 1419.327271 1669.509399
-58.100552 1265.653442 1951.359863
-13.035810 1612.649658 1692.131226
-200.172974 1177.451172 1742.880371
-0.115603 1199.163940 1803.117798
-143.090210 1597.661743 1638.980347
-126.336060 1611.206787 1630.726563
-86.147034 1485.047607 1564.465088
-237.308853 1374.084961 1600.971924
-199.511856 1305.717651 1666.658081
-186.419571 1399.473755 1587.239502
-105.122505 1562.820435 1583.348267
-304.190613 1595.413940 1704.965332
-100.033775 1506.826416 1552.479614
-199.999222 1557.478760 1609.368652
-222.843979 1380.817993 1572.838501
-61.399532 1465.749023 1641.437988
-1.761973 1506.447388 1657.712891
-78.410652 1533.967651 1559.404053
-151.404083 1419.328247 1586.008911
-110.055855 1450.947266 1558.922241
-173.857300 1646.644897 1718.971558
-78.471275 1495.367188 1634.177002
-108.828278 1221.322876 1735.723999
-97.826279 1506.116821 1542.801636
-73.229729 1482.100464 1626.428345
-224.121933 1303.481445 1671.270142
-111.916298 1547.356323 1573.825562
-143.822067 1512.616089 1553.086182
-333.365875 1423.269409 1559.258667
-287.208252 1467.459229 1543.441040
-51.075970 1447.345825 1663.881958
-103.504257 1565.759521 1567.211548
-174.451645 1449.958496 1546.721924
-244.466324 1110.500000 1747.314697
-144.250778 1348.309204 1657.562988
-52.063560 1269.580444 1724.207886
-175.044861 1423.264282 1567.118774
-59.582802 1588.657593 1676.658569
-191.265411 1329.593018 1669.614990
-104.152275 1525.909790 1537.832520
-381.863800 1600.750366 1745.782471
-374.918915 1567.827759 1701.806152
-47.349110 1488.938477 1656.574829
-17.748789 1478.994263 1628.510498
-277.479736 1293.751831 1638.221558
-248.570999 1288.793457 1670.941284
-33.623306 1572.581665 1696.688843
-250.549515 1625.966064 1740.627441
-254.389771 1241.132080 1681.240356
-293.341125 1276.518188 1661.815063
-128.354523 1319.054443 1690.525269
-116.445091 1257.286499 1720.621948
-387.133606 1612.683472 1749.824463
-165.447021 1666.168457 1732.748779
-288.211334 1387.774048 1574.131104
-204.517975 1486.394043 1515.692383
-147.235962 1468.835083 1541.520142
-88.881126 1311.136597 1693.721069
-205.076294 1570.898193 1653.135254
-179.103500 1534.663696 1591.795654
-187.436356 1167.877319 1753.287476
-227.253891 1366.610718 1595.345459
-274.969055 1212.935547 1714.131470
-280.537415 1303.450195 1645.992920
-129.879974 1563.873535 1580.800415
-322.905273 1592.104736 1706.532104
-108.174355 1428.587036 1581.975098
-23.224335 1448.883667 1757.526001
-207.239258 1133.517334 1759.249634
-20.062731 1403.244873 1744.400269
-253.361923 1488.941772 1550.712891
-323.980896 1454.303589 1503.960815
-9.252048 1318.955322 1694.971802
-137.867615 1669.940552 1694.727051
-92.137283 1349.582397 1663.923828
-366.720428 1521.614136 1596.364258
-98.160500 1621.363770 1712.367554
44.751801 1519.937500 1659.072388
-290.326141 1537.253296 1626.861450
-229.331223 1544.330933 1600.196533
5.176442 1513.715942 1634.307861
-251.446365 1477.549438 1510.776733
-153.765457 1412.560669 1595.982300
-192.113144 1202.091797 1763.054810
-87.678856 1407.781006 1618.214478
-188.474030 1258.784912 1703.478882
-188.696701 1177.065674 1784.221191
-28.390041 1223.731567 1741.208496
-330.131561 1442.553833 1550.578857
-21.771950 1402.644043 1666.446533
78.812759 1517.105225 1642.125977
-19.111532 1208.587402 1757.243774
-213.256104 1570.567261 1632.859375
18.337601 1230.519653 1760.064819
-350.104980 1490.303223 1574.298706
-168.011154 1513.577148 1551.522827
-239.863129 1463.744507 1543.159424
-54.187202 1394.707764 1630.860107
-222.445068 1618.457642 1698.033813
-119.503021 1643.682617 1700.245361
-214.268784 1194.595581 1718.006714
-157.758347 1262.047119 1703.207031
-324.238037 1471.850952 1542.722168
-95.529114 1162.099854 1793.162476
-326.979462 1419.708984 1564.372192
-171.571426 1452.544189 1543.833008
-42.893753 1244.389038 1738.199097
-292.983917 1342.487061 1611.771729
-252.249985 1538.164917 1614.003906
-98.607033 1208.347900 1888.896606
42.826569 1291.221680 1810.049805
-43.427303 1380.591553 1643.696533
-301.642456 1430.250977 1540.286621
-24.075686 1362.724731 1657.346680
-305.408600 1370.832397 1564.578003
-302.893250 1346.308350 1605.361450
-130.549988 1316.566284 1672.066284
-151.975220 1427.148560 1582.457275
-90.617447 1574.534058 1600.395996
-104.107132 1544.130493 1566.667603
-304.488129 1427.183716 1555.094360
-133.444092 1372.701782 1637.829590
-330.109833 1630.852417 1761.438721
-14.790212 1300.247192 1697.826782
-182.779709 1406.140259 1577.951294
11.593142 1241.044312 1751.956299
-295.862640 1473.152222 1548.017212
-85.037468 1588.014648 1632.596069
-56.524502 1408.309082 1619.039307
-280.921234 1308.230225 1606.370361
-217.761841 1411.635986 1579.158325
-129.797165 1481.460693 1561.108276
-171.631683 1463.003784 1535.159424
-123.057083 1619.888306 1629.422729
29.575455 1281.975586 1792.159058
-198.259964 1570.317017 1639.666138
-276.138672 1526.873535 1595.367432
-257.937866 1633.553711 1747.130249
-195.773178 1425.280884 1561.539307
-235.548996 1231.734253 1694.455811
-207.683060 1459.116211 1530.861694
-142.743912 1491.018555 1544.634888
-181.932129 1557.461304 1607.025513
-244.273849 1377.125732 1605.922241
-201.871536 1410.554077 1564.248779
-177.501205 1374.041016 1618.378418
-112.034988 1497.826172 1543.724731
-396.160919 1602.773682 1694.813721
-260.407410 1158.643433 1713.323853
-101.737259 1280.768066 1724.513672
-93.566086 1457.112793 1568.021484
-248.247833 1452.816284 1534.188965
-243.494614 1525.465210 1597.921753
-57.342220 1464.115356 1626.435791
-244.954483 1567.435669 1650.651245
-182.140045 1434.702026 1554.637207
-268.963501 1421.873657 1552.440552
-189.786179 1547.154785 1613.937012
-160.799057 1445.165283 1571.881836
-79.526749 1518.221191 1555.519531
-211.871109 1583.901123 1661.197266
-162.567596 1296.433472 1682.128906
-149.215729 1159.723511 1782.753174
-307.809479 1499.432861 1586.083008
-135.396591 1649.587402 1689.930420
-168.215210 1433.101807 1563.100708
-51.641613 1590.438354 1679.661743
-122.728455 1239.170166 1731.807373
-353.908142 1554.340332 1652.159546
31.570513 1212.454102 1807.186646
-151.261536 1471.427368 1539.697266
-224.946838 1379.989258 1612.221680
-38.170094 1305.960083 1693.061279
-168.711990 1365.831299 1635.505249
-238.998596 1224.994751 1690.499268
-58.848373 1344.856812 1671.763550
-63.726208 1451.344604 1602.797974
-270.284454 1513.394287 1578.724854
-283.169495 1275.457275 1633.512085
31.031450 1288.828369 1808.524536
-231.567200 1613.402466 1707.053467
-97.294273 1616.763184 1709.979004
-112.451660 1456.324097 1571.324585
-30.833679 1621.970337 1693.939575
-273.453186 1220.795288 1717.166382
-208.977737 1474.480469 1536.724121
-58.040791 1179.680908 1766.616699
4.847782 1480.817749 1642.256958
-3.136382 1327.342651 1703.872559
-98.755898 1603.853516 1693.946289
-66.408012 1502.085449 1561.075562
-115.759842 1597.519409 1622.667969
-77.688210 1502.295532 1584.970215
-120.976425 1460.937012 1563.313843
20.115679 1209.988770 1770.937500
7.091437 1260.917236 1749.409668
-323.621674 1580.639160 1696.120361
-191.394424 1394.226196 1592.441284
-36.725319 1425.729858 1688.335205
-103.985634 1413.436890 1612.460815
-217.125931 1403.243042 1572.438721
-36.339108 1498.638916 1661.484863
-26.225273 1282.277588 1731.607910
-43.783859 1497.052612 1632.255615
-188.024551 1449.923950 1554.386719
-69.183571 1282.370850 1706.030396
4.300995 1230.943237 1763.934937
-38.110703 1318.486572 1684.507690
-221.618393 1208.358276 1715.035034
-233.855042 1355.404541 1650.215576
-303.470337 1470.586792 1532.594849
-92.889366 1530.649780 1562.760498
-21.524559 1183.665283 1766.748047
-55.720245 1445.482178 1609.855591
-77.434006 1499.117554 1550.192505
-316.532806 1377.969849 1597.269409
-104.126640 1569.207275 1597.970947
-187.955811 1409.580566 1576.013672
-103.533653 1572.969238 1601.162720
-277.529388 1255.983521 1675.445068
-167.104752 1425.051636 1577.377075
-4.249993 1382.131470 1666.808716
-65.550194 1497.230591 1657.695190
-107.660461 1598.015137 1685.859497
-286.030701 1455.401367 1529.195557
-58.443687 1445.433960 1607.790039
-120.234261 1154.744019 1780.347656
-233.444519 1440.391479 1540.052490
-309.136627 1400.430420 1576.868774
-3.568210 1485.109619 1628.093384
-24.495634 1413.173584 1677.814697
-90.388748 1553.742676 1580.115967
-239.315186 1285.326294 1663.942993
-311.939514 1377.214111 1585.590576
-189.804779 1513.118408 1542.109375
-191.953461 1479.957886 1548.797729
-160.228989 1413.016113 1591.379150
42.778248 1516.661133 1692.457275
60.865009 1516.018555 1653.247314
64.847557 1279.523682 1788.117798
-152.480774 1462.495605 1547.510620
-185.155746 1121.152588 1793.652344
-147.114471 1241.545532 1718.762939
-16.030275 1285.669678 1715.394775
-54.555458 1463.818115 1640.425171
-41.645260 1471.814819 1659.272705
-278.741882 1214.723389 1684.281982
-335.078461 1452.226807 1524.752563
-251.332275 1357.838135 1612.311646
-272.610046 1343.199585 1614.015503
-100.823250 1256.176758 1720.322510
-120.630898 1538.304321 1572.295898
-178.383636 1339.115845 1660.713379
-313.315277 1549.276367 1644.102051
11.822549 1238.742554 1887.583252
-12.820744 1341.974854 1687.170898
-245.975983 1226.461426 1699.362061
-213.283493 1455.238403 1530.317505
-136.649628 1644.138672 1651.574829
-109.594955 1184.692993 1782.369507
-207.986084 1454.739746 1534.177002
-48.127224 1577.536011 1691.636841
-94.052567 1565.869629 1593.236206
-287.633881 1478.351929 1525.428345
-4.250387 1360.538452 1733.322876
-25.274096 1522.475342 1678.671021
-301.845184 1315.660034 1624.663574
-79.701683 1499.723267 1558.881592
-291.395081 1322.076050 1636.309082
-175.221680 1280.190186 1693.963257
-158.632843 1335.233521 1660.081055
55.947910 1496.728394 1641.906616
-279.306274 1247.803101 1696.554932
-188.823334 1538.333984 1599.225464
-215.635025 1149.073608 1752.951904
-365.609161 1524.771240 1604.799683
32.560856 1290.118408 1821.180664
-274.796143 1354.996826 1601.813477
-111.667297 1191.400391 1753.743652
-283.142426 1425.759033 1543.860840
-0.381265 1182.695801 1785.334717
-16.909790 1245.866333 1743.681030
27.933113 1526.272827 1638.192749
-366.065735 1529.438721 1619.287964
65.379700 1517.247314 1642.955811
-110.124527 1597.185913 1616.670654
-64.356033 1480.499146 1645.799072
-400.448639 1616.060669 1757.701538
-158.953278 1382.234985 1628.362061
-35.705410 1463.537720 1687.070557
-56.066101 1429.650757 1666.630371
-47.934387 1323.565552 1674.998047
-221.157608 1255.555908 1699.640381
-234.351410 1622.098755 1724.862915
-208.444260 1258.631470 1694.123535
-131.381744 1450.073120 1556.131348
-222.579971 1209.884155 1700.878662
-163.277161 1542.927002 1598.552734
35.467743 1237.354492 1773.816895
-179.444016 1608.747681 1673.135254
-252.613510 1143.839600 1770.316772
-250.574203 1340.207031 1647.191772
-192.854538 1232.136230 1742.127686
-29.136580 1491.620972 1638.258667
-230.969543 1375.739624 1628.240112
14.972021 1213.045776 1773.328979
-68.433273 1482.867065 1566.828003
-68.702789 1403.649292 1632.573486
-34.552399 1233.326538 1732.810425
-70.244934 1501.312622 1676.144897
-159.870865 1504.119263 1550.208374
-3.737713 1268.728516 1744.192383
-323.251801 1471.739258 1493.079224
-287.227325 1271.137329 1657.324829
-139.753052 1457.368164 1560.105347
-75.626938 1521.279419 1625.155273
-95.808632 1206.649902 1773.050049
-100.670952 1538.516846 1574.101318
-84.860756 1613.073242 1689.565918
-150.143616 1413.432617 1596.781128
47.243252 1528.055298 1658.014404
-239.288925 1265.728394 1678.632324
-117.129745 1247.156372 1727.710815
-172.184662 1591.478149 1649.161255
-72.805923 1348.064453 1666.495483
-15.501082 1295.830200 1707.734253
-129.502518 1666.510986 1737.307373
-222.277710 1529.946533 1595.932373
-130.236359 1441.552124 1573.040405
-34.203499 1469.941406 1636.582764
-403.650818 1614.286987 1758.823608
-203.814758 1123.798828 1766.558594
-17.920269 1392.831177 1668.014771
-355.814850 1541.033081 1635.492310
-167.499603 1511.184326 1553.604004
-240.029953 1424.211182 1547.915527
-116.002342 1609.131714 1617.171875
-35.022152 1504.833252 1634.302490
-197.152069 1448.322998 1555.208130
-291.015747 1540.829224 1625.969849
-289.662628 1574.531860 1694.922852
7.209198 1239.488403 1758.495605
-152.575394 1451.624756 1571.186523
-31.773081 1435.722046 1654.278320
-148.562546 1293.176514 1691.466064
0.690824 1528.844116 1679.628662
-254.926514 1333.391479 1619.414551
-150.635437 1132.002686 1778.320923
-190.881561 1300.142212 1669.681763
-137.634583 1495.626099 1537.918335
-190.537384 1136.745483 1821.480957
-245.139679 1393.289063 1585.321289
-282.167419 1547.481079 1653.956299
-185.914108 1315.640503 1668.700806
-68.629097 1299.985596 1701.744629
-61.188202 1449.165771 1627.336060
-111.399048 1508.431885 1557.686157
-125.316849 1658.796021 1725.718506
-110.630898 1456.589600 1564.657227
-332.351959 1614.502441 1725.949829
-213.702332 1296.204346 1671.158936
-105.181526 1298.397339 1702.680298
-124.346039 1242.541382 1728.847778
24.267902 1195.001709 1803.561523
-185.891220 1633.751709 1707.305786
-27.236044 1322.543701 1679.211914
23.666092 1525.036011 1666.802612
13.533415 1260.807007 1754.474243
-99.349594 1577.143311 1656.853394
-148.062088 1371.808472 1634.629883
-281.735504 1254.148560 1665.324707
-89.045815 1573.066650 1679.698730
-289.141968 1468.281372 1525.318970
-8.671642 1455.352173 1658.767700
-185.011322 1566.991211 1634.426880
-181.300110 1282.640381 1683.758423
-107.542236 1300.853760 1694.819092
-54.523151 1508.347656 1669.643433
-202.341202 1550.593750 1622.294434
-152.146179 1527.963989 1575.006348
-160.484634 1618.139404 1682.817261
-367.615631 1524.444458 1631.539185
-221.244766 1415.075684 1564.774414
-13.328344 1363.215942 1722.679443
-80.771233 1480.010132 1565.496826
-237.586075 1621.754150 1723.015259
-246.724121 1161.751221 1746.061035
-329.216248 1429.750122 1560.238403
-79.924805 1510.392456 1554.656738
-360.880249 1531.791870 1639.761719
-24.804018 1392.505371 1651.098389
-237.831055 1566.913330 1635.562866
-29.870808 1217.164063 1759.588623
-34.452618 1577.090820 1686.781738
-175.485672 1473.429932 1533.913940
63.654396 1515.523926 1644.015259
-251.550949 1337.330933 1633.726807
-188.697449 1221.577637 1743.443726
-287.193085 1496.243408 1567.172852
-67.457123 1185.101318 1848.703003
40.025814 1516.775146 1660.498901
-37.793816 1178.306274 1771.324097
-122.580368 1486.434814 1540.313843
-131.053421 1497.087891 1527.956543
-208.937698 1588.749878 1687.483032
-77.651436 1287.949707 1706.245239
-383.730255 1581.140015 1680.596313
-5.424942 1183.357666 1813.188477
-385.082947 1603.606201 1733.841431
-162.666199 1128.552490 1781.567383
-306.530884 1439.677002 1542.277588
-314.829193 1360.839600 1594.258667
-33.457211 1289.223633 1724.189697
-23.178356 1259.706787 1725.014893
-210.640167 1284.547607 1693.168701
-228.582916 1177.844727 1729.701294
-388.068054 1608.318726 1758.084351
-152.268723 1560.518433 1612.775513
-92.411331 1421.339233 1602.431519
-276.719421 1252.256348 1638.876465
-266.662750 1380.413086 1582.928101
-19.126154 1344.854004 1675.208984
-78.596878 1436.481689 1594.544189
-298.920410 1286.198120 1663.833618
-256.232605 1320.719604 1626.636475
-234.359467 1233.862427 1727.665405
-210.621338 1398.543335 1578.068970
-80.828995 1163.714722 1784.229370
-233.481567 1376.273315 1628.812988
-95.565353 1455.929077 1580.519653
-277.585236 1214.830078 1707.209839
-92.296913 1572.039429 1646.859009
-152.015900 1422.079346 1573.295288
-189.370377 1605.571655 1691.058594
-126.376877 1412.954956 1590.668335
-294.084045 1366.458008 1573.916626
-82.637375 1392.277954 1631.539185
-309.262970 1481.906738 1548.059448
-81.228569 1519.519775 1623.136597
-177.191879 1444.845337 1549.965088
-120.953316 1645.188843 1712.024780
-222.848419 1506.625122 1563.127197
-226.845352 1498.414429 1535.277588
-118.527565 1639.432007 1676.570068
-164.255692 1227.536987 1718.554321
-64.458786 1505.649536 1624.458618
-248.016251 1572.423340 1668.718262
-190.038315 1398.525146 1592.347046
-7.119288 1385.494629 1677.110962
-75.724747 1582.879761 1689.437988
-44.776764 1448.686035 1660.933960
-262.057098 1222.686157 1684.188110
-191.017715 1505.444702 1547.004883
-97.375084 1448.874390 1576.595093
-4.171216 1388.004395 1689.935669
-329.764587 1571.433594 1683.494507
-37.957432 1237.146851 1739.910400
-248.159363 1186.243896 1726.174072
-65.055901 1247.586304 1729.160522
-194.600067 1404.483521 1569.779053
12.184575 1475.747681 1654.708740
-125.834015 1468.684570 1549.249512
-14.381437 1299.427490 1726.221436
6.033390 1500.269287 1654.654419
-31.744440 1514.437256 1668.850952
-3.683903 1247.077271 1772.166260
-114.464630 1428.979614 1581.479980
-327.333588 1542.278320 1631.695068
-70.706383 1395.296265 1626.560181
-78.990273 1224.896118 1760.675293
-233.743225 1427.602905 1554.204346
-67.712502 1228.355469 1751.041992
-161.140915 1370.608887 1652.781982
-356.230865 1517.922974 1616.278687
-75.438553 1173.898315 1789.348267
-23.902626 1358.119751 1669.008545
-247.316711 1621.464355 1727.844849
-278.950623 1452.928101 1530.867310
-97.451027 1417.274170 1605.042358
-109.591187 1578.514038 1601.561768
-397.710114 1611.976440 1735.523193
15.718074 1242.833130 1780.489258
-360.326080 1555.885376 1676.548828
-270.976257 1386.931763 1578.543335
-22.668501 1611.595703 1682.120117
-169.081467 1471.151245 1538.709351
-92.779274 1422.318237 1602.072266
-314.241028 1461.813354 1519.439453
-7.206908 1490.583008 1640.748657
-194.328110 1389.358765 1569.890869
-172.635513 1420.126587 1583.634766
-179.035889 1426.094360 1573.629883
-172.759079 1295.847900 1683.351074
-66.563812 1494.025757 1619.363037
-83.152336 1515.831299 1618.090698
-140.923462 1556.105835 1594.440063
-207.604050 1441.968994 1546.031372
-256.348450 1530.797485 1608.703857
-184.220840 1274.523926 1699.090576
-238.413757 1360.670898 1622.918823
-321.924042 1551.448730 1652.058105
3.400788 1490.647949 1634.367310
-39.325863 1321.745117 1679.527466
2.218751 1201.887695 1780.140015
-115.698112 1248.550293 1719.601685
-314.846741 1396.346924 1563.163818
-316.923340 1591.984985 1711.465820
-268.938904 1267.930664 1669.500000
-7.665718 1290.319946 1740.716553
4.700416 1259.891235 1743.228149
-236.598862 1620.278076 1704.520020
-134.656052 1663.346680 1709.395020
-368.834808 1579.054565 1691.360107
26.825996 1242.619507 1798.705322
-118.455063 1316.528809 1681.572388
-275.524933 1522.319702 1594.796631
-239.903625 1340.815430 1620.600464
-205.867737 1598.206909 1687.447632
-247.590469 1218.831421 1698.824463
-12.657200 1237.199829 1749.974487
-262.641327 1276.104126 1672.937134
-291.969238 1569.929199 1668.281494
-131.852814 1358.814941 1644.104004
-247.779205 1444.210327 1541.330933
-56.744213 1175.811890 1782.475830
-137.735550 1648.552856 1684.685791
65.306656 1518.687744 1656.512817
-248.154938 1241.138672 1691.440186
-36.787884 1240.948975 1744.860718
-255.780197 1443.812988 1555.498047
-87.372787 1462.116577 1581.203979
65.494820 1516.241699 1648.850220
12.488232 1294.746460 1751.538330
-142.631866 1431.072021 1570.861206
-220.919479 1433.476440 1548.527100
-43.543968 1607.069092 1675.476929
-171.073624 1185.514648 1753.502563
-29.151608 1162.220459 1796.070313
-194.668304 1614.152710 1697.174683
-55.552982 1315.136353 1682.750122
-31.106798 1466.616333 1688.550903
-247.939255 1473.135254 1538.869263
-147.885269 1522.574707 1572.188477
-65.046356 1566.790405 1683.447998
-180.947983 1164.986328 1749.067871
-134.978714 1610.730225 1636.599731
-120.460510 1267.824341 1722.846680
-166.421112 1323.464966 1660.338013
-276.395508 1348.160522 1608.787598
-98.942085 1424.962158 1595.591064
-108.848701 1620.388672 1660.190674
-159.795303 1431.927490 1574.700073
-154.697586 1379.702393 1630.669067
-281.354675 1551.255127 1641.561768
-231.745239 1340.753540 1636.436768
-326.408508 1426.627808 1536.966919
-199.458557 1319.942993 1664.807495
-168.052353 1579.442993 1648.689331
62.777428 1527.457153 1652.653687
1.311689 1487.123901 1640.495239
-307.675537 1580.982910 1691.244995
-284.058472 1228.321167 1697.958740
-106.697556 1609.351563 1678.951660
-65.055885 1441.580688 1596.883057
-90.352646 1531.385742 1557.660278
-188.248260 1239.450195 1713.432861
-7.312196 1488.174438 1641.102173
-196.807861 1395.913818 1585.742554
33.498264 1248.931763 1760.646973
-37.683140 1448.827637 1649.512207
-168.270645 1147.541748 1761.190796
-280.646240 1378.780518 1581.740601
-220.655762 1345.311768 1645.788940
-209.536316 1184.827148 1741.435303
-15.770210 1256.153809 1736.865356
-174.784149 1293.664429 1680.411377
-251.990265 1392.846802 1577.911743
-73.562233 1518.280273 1553.760376
-88.858467 1509.520142 1565.693481
-66.273331 1474.389160 1636.166748
-140.149368 1446.217651 1561.082886
-101.280983 1594.393677 1633.092773
-225.848083 1410.753296 1566.411133
-233.427139 1229.368286 1683.744995
-386.454407 1592.152466 1735.251343
60.661392 1523.781250 1653.461060
-335.406738 1536.369385 1622.562744
-275.896423 1495.345703 1567.753784
-122.924644 1535.243896 1572.929321
-287.576294 1254.951294 1660.785278
-131.070328 1531.626343 1578.787476
-249.481873 1148.094482 1746.553223
-122.719482 1443.148071 1574.620972
-318.636993 1556.884766 1678.561401
-57.216927 1453.548340 1606.798462
-348.998993 1568.166138 1683.611084
-20.254885 1567.077026 1694.129395
-109.284256 1338.653687 1681.431763
-189.096054 1403.902344 1582.862427
-73.006081 1471.060547 1572.864746
-219.819748 1595.576416 1679.517456
-308.911926 1518.327759 1594.614868
27.383688 1292.026367 1768.459961
-277.032898 1552.182739 1641.679077
-124.186539 1626.954224 1711.855347
-140.147186 1133.820190 1792.561890
-278.348114 1575.497314 1669.712646
-68.561752 1558.153076 1685.963867
-316.372955 1540.302002 1625.365234
-285.316345 1526.892578 1598.108398
-133.089783 1521.122192 1543.012451
-240.130524 1235.888672 1701.338379
-27.989153 1515.471558 1668.665283
-2.449367 1350.289307 1803.627808
-12.916041 1220.426392 1754.698364
-15.665232 1324.045044 1728.150757
-189.521774 1395.795532 1592.138916
-210.743088 1628.075439 1724.645264
-89.101784 1444.054321 1578.227905
-286.053680 1529.228394 1607.935669
-104.131798 1483.879883 1546.572876
-114.082756 1408.397949 1595.952393
-255.896790 1561.377319 1650.217041
-391.112213 1611.266724 1763.078003
-181.189270 1506.277832 1538.058594
-72.570656 1441.889526 1594.542358
-212.591171 1457.654907 1533.241333
-270.519592 1190.452759 1715.014282
-81.648811 1289.377563 1709.426392
-103.032211 1447.443237 1568.253784
-163.411011 1602.455444 1675.295898
-131.254852 1588.256592 1609.768555
-130.106323 1599.926758 1620.814575
-338.002380 1471.071411 1573.189453
-273.171783 1236.812622 1685.084595
-194.319717 1414.397705 1569.384033
-289.112274 1301.535400 1638.890625
11.430712 1198.841187 1809.211670
-331.102997 1512.664185 1602.986206
-155.633713 1614.246338 1677.182373
-302.314758 1608.835327 1726.452026
-216.247711 1502.401855 1548.927246
-71.153854 1166.606567 1785.223389
-12.311448 1509.245117 1661.070801
-139.551910 1481.293335 1541.438110
-1.161852 1320.473145 1705.211426
-205.672150 1425.629028 1561.882813
-270.263092 1376.623779 1584.864136
-13.842272 1337.037720 1678.758789
-69.835091 1469.604004 1581.963501
-116.347107 1620.271240 1630.962891
71.180763 1523.959473 1638.932373
26.969360 1520.510986 1645.510864
-115.053513 1444.598389 1572.500488
-136.247482 1665.482666 1688.975098
-227.251526 1419.863281 1552.736328
-21.280563 1305.695068 1700.990967
-171.289429 1501.102295 1531.495972
22.254095 1257.981445 1757.467529
-84.811501 1469.000366 1569.861328
-150.933578 1572.546143 1628.983887
3.347357 1198.353027 1788.891235
-26.493631 1398.390137 1662.895142
-99.763031 1362.764893 1668.626343
-228.752502 1206.671143 1697.804199
-35.515141 1450.859375 1649.654785
-112.752159 1139.960693 1790.823120
-20.664909 1256.443115 1724.291870
-331.700989 1417.456543 1554.675049
-380.393585 1558.181152 1692.508911
-129.192566 1370.321289 1657.244995
-120.394989 1424.251953 1586.442261
-272.463989 1376.976807 1585.105225
-161.654282 1260.949219 1702.729736
-299.067169 1319.909424 1619.722656
-212.996475 1178.309937 1751.144897
-8.208750 1604.163086 1681.984375
-261.877594 1343.744141 1612.100464
-241.606750 1153.116333 1753.457886
-75.984550 1345.962158 1670.780029
-220.974045 1524.764404 1580.534180
-47.246376 1347.797485 1665.724854
-343.727264 1558.397217 1670.719238
-313.618927 1384.127319 1558.665161
19.597218 1282.729614 1768.114258
-232.508514 1528.662720 1589.511719
60.472046 1513.608521 1643.090454
-139.758560 1457.311523 1549.889893
6.970881 1340.010254 1816.976318
-146.398056 1658.529663 1705.604370
-44.120655 1359.277466 1665.530396
-75.167915 1468.066528 1615.141479
23.215967 1239.523926 1807.157837
-146.293198 1198.889282 1740.483398
-165.517105 1474.536133 1537.474487
-133.686859 1640.381958 1687.014771
-62.787037 1456.498047 1600.975464
-96.704781 1549.055054 1587.616333
-250.633926 1545.709961 1642.107910
-77.841919 1588.524048 1691.212646
-131.093491 1393.524170 1619.026855
-252.662659 1586.671143 1684.341187
-45.421997 1391.426025 1649.116577
-329.850525 1523.551270 1616.904541
-31.650156 1403.150269 1661.094971
-24.663664 1195.079346 1796.875977
-105.920013 1351.450806 1672.845947
-220.204422 1408.013916 1572.801147
-257.953156 1605.926147 1691.781860
-150.800110 1418.687622 1583.043701
-111.576027 1590.805786 1621.162109
-93.279358 1599.646362 1688.519653
-253.145676 1574.669800 1662.881714
-245.880447 1584.834961 1672.859985
-66.774101 1499.397705 1685.742554
-292.226929 1411.804443 1565.218872
-376.988892 1554.405151 1650.437256
-272.498383 1479.184570 1547.976440
-46.294403 1412.122559 1655.580200
-66.856148 1507.514160 1568.660034
-92.826492 1583.591553 1610.034546
-70.262405 1513.834106 1717.216064
-222.655930 1611.484497 1688.790771
-123.924316 1325.966553 1679.770386
-83.135147 1191.890625 1771.727783
-171.510544 1490.615479 1538.412476
-222.284286 1310.143188 1663.484253
-203.594559 1477.703369 1547.768433
-296.087677 1321.313843 1628.816406
-357.117462 1501.166504 1571.907104
-317.813965 1567.162231 1674.527710
-62.496891 1298.400269 1697.835938
-81.991158 1255.259521 1730.521606
-208.701691 1303.791748 1668.032715
-199.961075 1129.464966 1778.333130
-197.998825 1522.723145 1581.992676
-240.166229 1187.289551 1904.090332
-86.055923 1507.441040 1567.026123
-13.528285 1358.174194 1680.827393
-106.477234 1511.152344 1543.370850
-88.272949 1608.167358 1636.253052
-186.009979 1387.791870 1592.142212
-250.353073 1274.935547 1656.529663
-55.553806 1446.390869 1596.024536
-215.731247 1206.459717 1733.659668
-155.539719 1584.322021 1648.273926
-101.433174 1573.055054 1577.957153
-92.554588 1273.426758 1710.354614
1.048828 1318.744141 1707.796143
-221.460846 1550.937378 1619.280762
-271.259460 1633.114990 1750.164185
-86.191620 1443.067993 1590.206055
-120.441772 1172.161255 1766.682251
-14.894093 1315.561523 1694.065186
-105.279503 1458.741455 1573.510742
-42.015198 1625.972168 1710.526245
-228.659958 1171.296631 1732.998169
-23.118843 1490.641113 1634.368164
-318.331451 1465.673706 1529.254272
13.317799 1523.664429 1669.698364
-97.364456 1610.579224 1696.584229
47.418404 1245.224243 1811.255249
-90.215736 1462.189209 1565.705688
-26.550838 1245.717407 1927.284058
-147.050323 1278.743286 1710.271606
-75.188385 1409.714478 1613.607666
-29.400089 1280.482178 1731.093262
54.703983 1517.149414 1647.735229
-278.523468 1288.508667 1668.309082
-31.936218 1227.686523 1741.924316
-88.360992 1373.975464 1654.786255
-90.529022 1542.711426 1564.524780
-59.466755 1219.781616 1746.510864
-277.009674 1206.701782 1692.533447
-93.907486 1499.328247 1546.389404
-22.907909 1236.536255 1756.361206
-100.922852 1310.925537 1689.730347
-174.147903 1553.033569 1612.469604
-168.467896 1552.696655 1605.256958
-140.304138 1207.107910 1747.895020
-57.652348 1439.694580 1611.377075
-91.877861 1331.797241 1682.696777
-273.453491 1254.319458 1673.423706
0.671366 1238.717773 1751.745972
-22.574156 1583.433838 1685.395996
-213.230957 1218.191162 1745.932495
-28.506920 1434.004395 1695.103516
-185.332092 1396.302002 1592.533813
-70.446236 1374.024048 1643.060669
-328.405518 1510.351563 1598.076172
-77.969360 1332.857300 1670.926636
-125.645309 1269.206787 1711.260864
-238.776245 1197.421387 1738.883545
-9.598182 1377.345703 1695.558594
-69.533653 1267.334106 1724.450439
-118.610580 1496.234253 1541.308228
-120.248291 1364.614868 1656.936401
-312.718262 1379.287476 1585.588989
-176.467575 1299.847290 1679.326660
-108.945976 1556.926880 1583.030518
-128.490036 1316.120361 1693.167603
-32.464928 1184.022827 1774.355835
-299.986267 1606.518066 1740.146240
-146.013855 1571.223999 1628.218750
-274.806488 1473.973877 1547.469360
-189.903000 1481.512329 1522.362061
-22.739853 1421.172607 1661.785645
-200.733749 1269.480591 1703.860474
-220.278763 1533.062500 1616.178589
-62.957775 1415.621582 1609.871460
4.628850 1326.276855 1755.326904
-202.891205 1231.825195 1721.792603
-32.637920 1390.179565 1655.081177
-103.367264 1416.858521 1609.478027
-207.498749 1548.844116 1603.308105
-278.389160 1269.160645 1661.956909
-286.382629 1629.924072 1747.559326
-159.094269 1631.792603 1689.302246
-361.749054 1526.182983 1639.362061
-3.129848 1323.407104 1693.734741
-25.976183 1304.571899 1693.548584
-260.142578 1243.414795 1679.608032
-202.054001 1417.086060 1640.363281
-236.474167 1503.434692 1542.001709
-76.536148 1543.260986 1661.643555
-315.242584 1460.809937 1550.080444
-250.493759 1514.716309 1578.389282
-1.682436 1310.387939 1719.086670
-181.812927 1362.804565 1633.862427
-17.587147 1573.547852 1684.368164
-285.803833 1337.816895 1609.883911
-25.819391 1188.303955 1761.707764
-275.879303 1579.236572 1663.455444
-289.291962 1570.731934 1665.639404
