ply
format ascii 1.0
element vertex 1347
property float x
property float y
property float z
end_header
1304.091919 1489.497192 1239.444214
1227.519409 1424.563354 1176.920288
1313.227783 1307.893555 1043.567017
1214.768311 1527.808350 1007.050049
1286.866089 1636.814941 958.683350
1209.113281 1320.532715 1189.350464
1475.809692 1222.657349 922.442078
1446.598633 1443.931396 803.863892
1182.490967 1381.408691 1139.639404
1453.900146 1335.279053 824.791870
1254.339966 1540.201782 982.900146
1188.007690 1354.955566 1123.849731
1243.436646 1582.977173 940.324280
1323.821899 1297.376465 1029.327637
1251.253296 1516.588379 986.982910
1155.584717 1439.581299 1087.242920
1462.109253 1190.948730 931.560242
1437.112549 1384.177734 789.623596
1174.986816 1510.287231 1044.969360
1220.628052 1367.123657 1071.243408
1382.752808 1377.704956 884.936279
1183.861450 1502.882324 1004.610046
1351.177368 1567.517944 1239.554810
1220.797119 1309.604370 1136.990845
1210.364624 1472.937866 1122.232300
1343.739014 1545.055054 1232.814697
1251.900879 1648.543579 1030.239868
1230.891357 1347.635010 1074.656128
1331.742798 1543.075806 1010.732361
1230.790649 1367.156860 1051.443848
1273.144409 1553.341553 982.629700
1260.062378 1335.109253 1077.824707
1182.176025 1441.812134 1035.782227
1401.906494 1367.898315 857.872375
1508.900757 1264.826538 860.530762
1247.997925 1420.057129 1216.757080
1302.704468 1457.095337 887.029053
1339.753052 1307.510742 1010.563904
1427.026611 1163.656494 935.815125
1259.414185 1487.982422 1198.767334
1326.259277 1434.475586 1324.216431
1388.507202 1245.049316 975.131836
1354.172974 1467.607300 875.326782
1339.107910 1539.841187 947.760010
1442.288574 1327.313721 846.840637
1211.660767 1404.880493 1037.980713
1184.234131 1516.260986 1016.047852
1449.321289 1224.941528 945.601868
1175.715942 1482.304565 1058.669434
1205.951904 1317.685669 1158.577148
1249.543091 1384.637695 1265.391968
1260.265503 1536.767212 1146.202026
1278.782837 1635.024170 1148.809326
1421.578247 1432.539429 808.186462
1375.610474 1473.837646 1340.327759
1314.135498 1442.989014 877.264221
1185.508789 1416.808350 1141.077271
1260.715210 1352.187012 1058.420654
1191.661499 1442.108887 1121.804443
1208.136230 1311.085449 1169.480225
1195.927734 1539.674438 1039.944702
1201.768921 1316.095459 1168.936279
1248.112915 1486.241699 1166.302368
1491.791138 1225.610596 921.469360
1462.419922 1452.592407 790.573669
1254.481567 1600.143066 1106.426270
1443.253296 1435.217163 793.237183
1457.460205 1219.683472 922.481262
1264.372070 1528.125732 1000.983337
1169.421509 1378.008545 1124.368652
1347.806763 1580.913208 1228.612305
1295.551147 1574.380615 1156.388184
1254.862793 1508.605835 993.002319
1222.796631 1387.584961 1049.375366
1236.050537 1319.938599 1136.645752
1310.256226 1433.631714 1320.312256
1249.971436 1305.366699 1113.288452
1225.020264 1361.310425 1233.665527
1313.916382 1499.068359 910.833374
1213.956909 1433.337036 1003.934143
1411.378662 1465.356812 861.327881
1398.596436 1242.938232 985.953247
1413.819336 1293.867920 926.417297
1272.051270 1644.932007 1059.886597
1366.969971 1371.069580 912.849548
1369.364624 1366.201538 900.061707
1327.117676 1415.268555 913.241028
1177.842407 1534.266479 1064.795044
1243.921387 1329.616943 1076.159546
1174.185059 1499.894043 1027.331543
1363.495117 1241.989136 1021.809509
1258.705933 1626.177979 911.128662
1425.658691 1236.116699 938.742126
1201.730347 1369.777466 1190.596069
1346.644531 1368.310181 945.315002
1254.113770 1602.462646 1094.646973
1296.253174 1421.495117 969.440857
1273.421753 1458.314819 945.902222
1339.109863 1418.972046 893.021790
1169.888428 1489.315186 1017.001282
1269.846924 1335.628174 1056.026123
1314.259644 1323.683105 1040.457275
1235.587036 1549.120361 1112.990601
1330.947998 1579.088623 1209.716919
1163.128540 1395.265625 1127.698730
1208.726807 1360.388794 1108.943359
1417.717529 1201.149170 985.963745
1277.888062 1593.947876 977.241516
1314.067627 1254.399170 1094.087646
1308.866455 1496.745361 1265.854004
1203.914551 1489.013428 1114.459839
1409.121338 1223.474121 1003.276978
1305.604980 1488.145752 940.615295
1308.880493 1415.242310 929.598572
1313.813232 1497.189087 934.541748
1200.459839 1448.777710 1013.805847
1301.541626 1475.223511 1249.833374
1321.650635 1430.372314 895.678589
1361.108643 1365.025879 922.585876
1290.794922 1460.702515 906.731384
1377.510620 1269.891357 993.421082
1343.258911 1224.448364 1047.880371
1385.052124 1423.868408 846.446411
1467.289917 1375.908325 770.589600
1214.099731 1457.306641 1138.602173
1175.987915 1494.649048 1017.173523
1335.930664 1323.444092 1019.735229
1216.365234 1468.748535 1154.735107
1428.371582 1375.192749 828.885437
1273.761475 1610.411133 1077.083496
1265.226807 1624.136841 1139.113647
1240.342651 1408.663696 1007.839355
1344.052856 1396.883057 920.050720
1196.303467 1518.215332 1077.828491
1266.707031 1562.568848 957.987488
1379.616455 1217.255981 1025.984741
1386.078125 1277.184082 978.076294
1189.852417 1342.423462 1131.894775
1303.990356 1411.969116 1296.583496
1257.511719 1562.564575 1046.958618
1233.564331 1377.842529 1206.097656
1388.118530 1440.661255 829.806213
1342.046997 1317.692871 1002.139954
1471.654297 1363.077759 775.987793
1193.942139 1426.998779 1041.422607
1337.224121 1324.350342 984.362854
1345.084717 1460.284912 849.562683
1282.023438 1582.144287 974.514282
1167.517334 1439.925659 1057.605347
1259.277954 1652.515991 1022.195557
1395.797729 1466.536133 853.872131
1281.047607 1465.708862 1217.251953
1267.768677 1514.874756 1154.599487
1224.927856 1362.332397 1242.447754
1274.136597 1476.921265 1222.624756
1378.433716 1276.407715 1017.102417
1261.310425 1623.727051 906.802673
1195.081787 1335.870850 1163.684448
1254.901978 1390.111816 1029.888672
1269.442871 1622.058228 1114.891479
1423.659668 1408.453857 797.025574
1381.044067 1431.953979 859.068359
1273.399902 1587.180786 932.770630
1228.286255 1311.519409 1123.556396
1283.906006 1508.415527 1199.918579
1431.939331 1255.711792 917.704895
1210.796143 1360.730713 1085.504883
1430.555908 1365.916748 844.430786
1420.835938 1441.063110 832.019470
1239.924683 1565.374390 1118.943237
1166.956421 1479.333252 1034.082886
1201.973755 1391.296631 1192.466919
1216.900146 1397.252563 1194.717896
1388.624146 1416.937622 843.807434
1455.217407 1175.788818 971.855957
1190.288940 1378.672852 1090.058594
1263.672607 1569.565674 1145.346191
1222.702026 1587.091431 1107.992310
1203.320190 1419.210327 1034.721313
1350.714722 1542.631226 948.295410
1325.805420 1485.449219 903.565918
1253.730713 1508.344116 983.896362
1260.672607 1604.265015 924.611267
1248.125610 1317.629761 1092.526245
1391.912109 1435.376343 837.508362
1173.214966 1486.536255 1021.154053
1414.873169 1408.487427 803.942383
1433.882446 1192.913696 970.275696
1295.637085 1564.206177 1004.056458
1359.362549 1409.614136 860.989258
1433.245728 1201.205200 978.632263
1259.421509 1623.137207 1075.694336
1444.872314 1190.649658 972.909241
1304.831055 1326.611816 1052.697510
1255.256958 1629.071777 909.158325
1194.108032 1513.832520 1077.967407
1216.680786 1462.036987 980.982666
1429.810669 1355.490112 818.420959
1305.552124 1575.914551 957.340698
1275.635864 1631.934448 935.802917
1438.659790 1454.574341 769.025269
1165.745850 1454.355957 1054.835205
1342.654419 1252.132446 1048.632568
1227.808228 1572.058716 1066.566650
1268.022339 1570.818359 959.346375
1259.695190 1541.234497 1160.001343
1468.092285 1177.406860 949.837036
1439.255615 1346.852905 803.241455
1215.062256 1460.765259 1136.477905
1174.544312 1462.283081 1031.904541
1332.768799 1273.152466 1037.958374
1190.698364 1371.402954 1192.841064
1424.673584 1396.872070 797.759155
1253.990356 1400.626343 1234.425171
1160.196411 1406.479980 1120.046143
1374.423340 1213.656128 1019.996887
1193.298218 1356.522583 1216.569336
1366.556641 1265.196167 986.763123
1242.535156 1520.716064 987.343872
1243.456665 1600.746338 1137.949829
1258.439575 1513.978760 985.111633
1217.644897 1391.265259 1187.928345
1500.492676 1237.257690 903.324707
1250.343384 1554.811646 1125.826294
1181.728027 1416.774292 1065.948853
1184.210327 1445.781860 1112.739746
1332.085083 1544.418945 1229.917969
1339.336060 1251.429932 1040.738892
1228.830566 1527.617432 1126.746948
1398.757446 1394.507568 829.699219
1397.827515 1523.294556 904.886292
1246.083984 1352.818604 1050.095825
1400.299072 1230.270996 992.600037
1277.195313 1570.862427 1024.207886
1206.483643 1582.871216 1088.557983
1266.083740 1667.792114 1024.376709
1244.196533 1379.925903 1216.963867
1476.835693 1259.138062 861.678589
1279.750854 1577.785278 1144.645142
1237.523682 1553.545044 1029.692383
1413.064453 1382.442871 850.373779
1401.961182 1383.994019 829.714417
1416.759888 1379.843018 818.013000
1185.357544 1400.295898 1072.342896
1235.338135 1540.007690 1031.707764
1176.830322 1462.138184 1042.970215
1285.142334 1436.717651 937.264221
1316.204834 1499.676147 1250.134155
1245.004395 1460.942993 954.727661
1208.373169 1325.637085 1148.344238
1211.733521 1442.276245 990.806213
1287.208496 1585.222534 1053.130371
1270.162720 1619.130615 1142.401001
1457.545654 1336.397705 828.523743
1269.767212 1425.381104 1240.699097
1159.000977 1401.912598 1109.263550
1228.359619 1310.617676 1122.017700
1236.939453 1303.130615 1142.577026
1237.420776 1588.535645 1126.077637
1417.309326 1286.028809 957.167175
1291.233276 1425.046509 1247.098389
1267.174438 1656.562012 995.254883
1173.883911 1490.397583 1023.873047
1178.446411 1498.449097 1055.069336
1273.291260 1460.916260 924.495850
1223.632935 1565.434326 1056.375854
1312.299316 1478.251709 1254.295166
1441.304810 1363.103271 794.979370
1451.704712 1406.138672 778.945618
1304.146729 1264.447510 1083.213623
1297.667480 1413.394409 1283.369141
1249.179321 1592.507935 1137.058228
1151.397217 1384.012329 1134.732910
1409.311035 1214.517578 982.107971
1226.421021 1294.960327 1155.350830
1414.439941 1248.574097 964.471497
1274.129639 1627.671509 1071.758179
1295.169067 1412.483032 976.217468
1186.589600 1455.772217 1025.331543
1400.638794 1500.581177 903.050110
1382.292114 1220.268555 1010.988464
1367.205200 1478.186646 886.386047
1270.599121 1564.653320 922.545044
1266.243164 1431.958008 987.857544
1345.702026 1381.553345 925.064209
1298.142700 1496.551880 1241.061768
1202.635620 1531.559570 1005.200928
1199.989136 1330.001587 1192.244629
1202.897095 1446.335083 1140.067505
1199.521973 1330.771118 1155.715820
1258.539063 1629.522217 912.632080
1264.004395 1653.083740 1002.935669
1397.827759 1397.700073 840.458008
1328.037598 1371.657959 982.082886
1188.095215 1560.997559 1062.528198
1431.697876 1267.029297 924.199524
1405.691528 1391.964233 841.128662
1303.560791 1544.111084 1197.660400
1343.867554 1436.439453 872.786011
1331.626587 1461.572388 866.474121
1387.128296 1409.835083 843.789185
1471.858032 1239.871826 900.127136
1277.581543 1628.177612 1157.594238
1371.085815 1476.776001 1324.062744
1185.764771 1518.580811 1018.455383
1270.361938 1501.320923 1186.333130
1460.850708 1153.335815 943.717529
1190.227417 1441.202271 1129.661133
1312.135986 1438.548340 907.636902
1273.786133 1624.551880 1011.507385
1231.470703 1410.185669 1008.916931
1232.976440 1332.457031 1092.835571
1253.666138 1618.452148 1042.947144
1346.666504 1423.644531 886.812439
1262.506592 1555.250366 950.576111
1479.718140 1337.885864 797.802307
1298.342407 1504.825684 950.746704
1318.153809 1472.014038 879.093445
1450.226074 1494.278076 860.969055
1173.107422 1392.182251 1087.972412
1164.539795 1417.908325 1083.163696
1379.052734 1423.105591 849.190247
1310.861816 1427.732788 910.303772
1194.310181 1515.158813 997.465393
1457.775513 1320.613892 923.500793
1313.930420 1275.342896 1053.978516
1254.709717 1510.859375 980.499878
1414.480835 1211.883545 972.680298
1440.605835 1192.967651 960.907104
1328.925049 1424.073730 876.181580
1473.833252 1186.292480 922.771545
1335.612793 1284.484497 1039.411377
1187.814819 1479.446655 1004.528870
1260.430664 1624.855469 890.791321
1332.473267 1431.603027 894.768799
1302.334106 1554.038574 1027.900635
1413.008057 1388.841309 821.017822
1465.248535 1219.626465 948.955933
1249.940552 1483.891968 950.587646
1175.667969 1359.157959 1132.450806
1230.368042 1428.369019 1189.660767
1293.864380 1488.019897 936.883850
1304.912842 1264.433472 1083.839722
1265.299805 1637.578247 922.764648
1401.928589 1392.915527 848.744934
1160.217041 1463.143555 1078.399536
1399.152710 1253.331055 1004.461792
1203.907959 1420.386597 1025.075439
1377.182739 1248.443481 1012.877014
1285.126099 1425.595093 953.508118
1279.025269 1561.342529 930.301941
1269.183228 1575.916016 1131.081909
1347.815186 1521.755981 1265.915894
1415.395996 1367.185669 871.546692
1155.272461 1439.218262 1094.366821
1412.473633 1365.202026 836.445129
1397.510010 1286.452759 978.976013
1249.514648 1541.845337 981.028687
1339.957397 1375.202881 957.093750
1285.576172 1660.206543 1060.652710
1193.709961 1532.288818 1025.648926
1203.587158 1439.921387 1141.026001
1244.103271 1279.838257 1133.683105
1211.435425 1316.945923 1178.936523
1450.159790 1264.353394 905.222351
1309.790039 1556.306030 1030.822754
1375.353027 1427.789185 846.496155
1253.739136 1568.924438 912.229370
1346.434814 1244.956299 1048.521973
1323.118164 1408.551636 948.323853
1442.830322 1308.256470 851.385986
1342.233032 1340.778687 994.497559
1459.049072 1325.755859 797.452454
1270.238892 1433.169434 970.614380
1190.763306 1410.220947 1080.953613
1154.551880 1491.286133 1041.137085
1336.988647 1359.557129 954.019165
1254.866943 1581.054077 932.366516
1184.821777 1437.072754 1036.578003
1349.266357 1498.720093 1308.320679
1263.967285 1469.675171 1200.493896
1251.051270 1620.808472 903.895691
1205.824219 1345.964600 1112.933716
1414.224121 1326.214966 899.541870
1507.939209 1285.923462 874.355164
1338.653809 1535.609253 947.427673
1210.091309 1451.069336 1136.982422
1243.268433 1501.890381 1148.996094
1427.569092 1210.793213 953.019043
1270.141235 1567.933472 1035.030029
1426.178101 1399.073608 788.005005
1410.525635 1309.439209 940.168457
1401.754272 1296.772461 975.035583
1395.534302 1384.035767 840.066711
1347.418579 1537.699097 1279.383545
1226.752075 1381.938110 1032.586670
1337.493286 1536.103516 1251.339722
1231.082031 1469.212769 975.603882
1241.306763 1305.052612 1109.174805
1363.191162 1291.485107 975.146362
1226.785278 1515.792603 1112.077271
1284.843384 1594.071045 964.263855
1172.566284 1521.304443 1015.155396
1289.716309 1603.395386 1046.876343
1250.026978 1569.968506 1124.949097
1474.109253 1179.583984 946.037964
1251.249023 1559.687012 1047.109375
1346.453003 1488.173096 1267.784302
1249.361572 1462.276978 1203.356079
1160.681763 1424.453125 1096.410156
1263.019287 1551.357056 952.910583
1196.513672 1514.929688 1085.333618
1408.719238 1357.470825 850.230042
1281.699097 1596.974365 1052.053223
1253.428589 1608.606567 1134.039185
1180.645874 1386.110840 1148.575684
1433.290405 1166.286011 954.172485
1253.946899 1552.454712 1124.977295
1363.753662 1421.020508 855.451965
1401.731323 1316.738037 907.756104
1272.298828 1585.145020 944.734558
1276.893066 1581.484741 1023.200439
1300.015869 1363.495483 1000.802429
1446.698730 1211.046387 961.571777
1177.607178 1502.312012 1011.137268
1331.812012 1344.765259 980.446838
1315.401489 1642.492188 1087.807983
1449.979004 1287.716675 880.333984
1278.627930 1483.447998 1212.819458
1295.675415 1501.885498 961.217163
1291.740356 1434.380737 953.675781
1181.422852 1565.942383 1082.685181
1399.913086 1310.625366 939.777527
1260.355103 1470.667725 942.983459
1256.739624 1505.283081 1168.988037
1194.768677 1496.332153 998.494812
1387.342407 1222.775879 1018.074402
1231.494141 1428.408569 990.821594
1313.081665 1477.027344 1262.854858
1358.142456 1448.701294 1330.761597
1364.238281 1458.389160 1346.213745
1339.765015 1391.804932 930.424744
1258.853516 1501.677246 1163.321899
1154.536255 1501.832520 1036.205566
1475.228149 1290.862427 842.063538
1355.653320 1405.077026 862.565125
1202.736450 1319.124023 1164.651611
1282.438110 1528.690552 954.600159
1377.672241 1466.945313 1351.133301
1213.250977 1471.494507 979.595154
1241.882324 1534.368286 963.769714
1306.964844 1254.946289 1079.760742
1458.096924 1335.077637 815.743469
1482.103760 1230.736206 936.591492
1293.958496 1465.765259 900.654297
1388.873779 1367.686157 869.967773
1197.975220 1457.688843 1020.987732
1186.545410 1391.322998 1077.683960
1428.967163 1211.503784 963.891846
1347.257080 1473.986450 1361.121094
1181.847290 1506.184082 1001.103333
1273.585083 1458.501953 927.484863
1444.176880 1255.984985 952.021118
1326.007446 1499.226929 937.701904
1468.053467 1288.175293 879.593933
1322.144409 1455.704712 885.388123
1279.759033 1436.289307 1006.236572
1286.615723 1442.329346 1262.331909
1406.183228 1217.770020 963.221497
1230.213623 1557.394409 1038.840698
1331.225708 1389.750854 934.001831
1308.596436 1299.080811 1057.019409
1255.357300 1596.730591 944.053101
1323.070557 1575.329224 1203.497437
1322.736084 1434.686157 880.582336
1264.549805 1439.364624 1219.541382
1274.854980 1565.444092 933.966736
1430.182129 1469.430786 845.982849
1421.617554 1224.499390 949.631714
1185.639160 1410.357666 1072.344482
1189.748657 1330.091797 1204.145264
1348.268555 1536.365356 1256.150269
1287.165283 1462.185791 933.131775
1325.897949 1439.107666 1317.689453
1305.825562 1436.985718 902.594421
1285.722290 1378.973022 1017.983154
1345.490601 1418.332275 863.665649
1270.474609 1484.081543 938.310425
1300.424805 1517.730347 1231.286621
1294.652954 1272.744629 1087.041138
1381.911255 1481.444946 859.307678
1202.891357 1437.363037 1048.514160
1259.832886 1581.043945 932.305725
1162.632080 1534.072388 1040.899292
1366.052856 1432.346680 844.431152
1195.046875 1387.786865 1082.235229
1277.693848 1280.277954 1103.406860
1361.743286 1215.543945 1035.683228
1451.542480 1307.206299 868.264954
1339.960938 1472.654297 1297.720093
1310.729736 1586.138916 1043.676392
1386.736572 1430.281128 848.200378
1386.994751 1400.285645 847.730591
1226.980591 1571.377197 1071.884399
1364.701050 1419.647095 855.901611
1464.326172 1316.720947 822.814697
1207.672485 1339.788330 1109.731201
1394.552368 1494.401123 869.651123
1450.687866 1274.806396 893.664368
1309.959106 1469.381348 1249.495605
1291.715088 1268.617310 1103.308594
1390.120361 1402.010498 840.414551
1359.253174 1404.103394 863.981995
1402.303711 1370.427612 825.575623
1274.316040 1629.058838 1015.046326
1308.194458 1283.354248 1071.049316
1322.384521 1443.746338 1319.503906
1263.282837 1606.615723 1115.499146
1209.201782 1293.102905 1146.772705
1288.781860 1273.538696 1094.813354
1418.506348 1225.703491 984.608459
1154.187256 1373.809937 1143.673462
1216.180298 1483.718140 1133.681763
1261.309570 1447.401367 1225.664429
1280.663452 1530.670166 1179.768066
1253.915161 1626.580444 1034.156006
1314.004883 1340.234863 1049.250244
1497.576904 1237.361816 909.043823
1252.355835 1463.757446 959.656738
1288.609253 1449.312744 1247.686157
1287.995361 1600.847290 960.800781
1346.914795 1473.536621 886.475891
1372.599121 1287.823730 986.420898
1182.422607 1447.591431 1038.657104
1415.034058 1451.011353 812.416992
1251.903809 1449.738892 966.705811
1254.763550 1610.092041 918.533875
1330.266357 1571.473511 1233.373901
1390.813354 1274.664063 969.593811
1333.420410 1632.444702 1116.104248
1285.143311 1627.469604 1059.671387
1341.704224 1270.760132 1013.626526
1399.609619 1341.695435 888.292725
1421.661621 1481.346069 870.554749
1199.412109 1395.047852 1168.612671
1280.758545 1367.203613 1041.316040
1441.136475 1175.732056 950.502014
1275.921143 1273.498779 1116.090576
1232.207397 1395.806030 1031.879150
1339.026001 1438.707031 880.142151
1454.597900 1304.395142 852.416565
1259.402466 1623.773926 885.094360
1273.972534 1316.629639 1080.969116
1349.164551 1457.865601 1318.093506
1264.168701 1585.097168 1140.617798
1417.844238 1246.351563 955.874634
1400.447388 1395.963013 838.513123
1459.285767 1180.334717 954.051270
1184.645142 1385.685303 1150.228882
1281.642334 1606.480713 1084.804199
1398.643188 1430.414185 840.865845
1214.524902 1543.450195 1096.681030
1256.927368 1445.199585 975.450989
1397.633911 1436.201416 845.070129
1186.212280 1433.140259 1082.270142
1235.369263 1500.729614 1154.778931
1444.496704 1190.376465 964.028015
1282.087769 1451.075195 924.929504
1339.761719 1248.736450 1047.827515
1443.579346 1317.412842 877.317505
1349.681641 1406.244141 882.343201
1207.315186 1584.090698 1088.287354
1232.130615 1441.512695 977.522888
1305.380737 1473.389648 1267.126099
1277.264038 1285.762695 1082.396240
1433.845825 1184.581665 987.896790
1475.034180 1176.417480 931.402100
1257.134155 1472.318237 1203.148315
1195.852783 1324.247559 1159.592163
1263.919312 1606.679810 921.761230
1191.443726 1485.828735 1007.558777
1291.221680 1403.113525 972.425964
1260.933716 1451.925049 949.801147
1274.549072 1568.235474 931.458862
1265.810791 1457.333862 948.786621
1181.290527 1415.707520 1060.728394
1219.404419 1430.086182 1004.902344
1285.625610 1608.049194 1012.744263
1169.420410 1427.814941 1070.896973
1382.154541 1254.797363 1029.643311
1335.338867 1495.687378 1276.507690
1268.175171 1442.580688 1218.063232
1431.649414 1385.723511 815.004028
1171.499878 1423.204102 1062.370239
1428.376099 1357.728027 836.743530
1283.971558 1616.346558 1066.619263
1261.139771 1590.280762 910.775879
1261.670654 1589.519653 927.015747
1279.700562 1384.221802 997.164246
1271.633301 1589.119507 1080.285522
1462.754883 1230.700562 908.537292
1237.536743 1521.353760 1121.920532
1237.698364 1542.821167 1026.278564
1280.956787 1468.130249 1227.925415
1349.868042 1372.719360 931.867920
1309.302612 1487.105957 938.617798
1345.013550 1305.898804 1018.318848
1182.775024 1413.419312 1057.212280
1335.362549 1266.350586 1031.176270
1458.707886 1334.692383 791.534607
1291.185059 1394.191650 986.990417
1222.334351 1419.033691 1177.456787
1221.530396 1399.036011 1173.469971
1188.735474 1408.741943 1151.212036
1460.469116 1404.314087 796.822998
1297.075439 1550.386597 1190.005615
1428.856079 1430.794556 805.486206
1200.824463 1460.913940 1126.726074
1185.336792 1556.688477 1080.577271
1245.187012 1276.971802 1128.367310
1256.119629 1544.664917 1138.545654
1379.417480 1333.638062 944.697144
1236.621216 1455.974976 977.210571
1261.505859 1556.581177 962.367798
1177.563843 1351.716431 1148.854614
1231.072388 1405.267944 1212.384521
1241.778076 1558.863525 966.054077
1468.277832 1485.941650 836.233398
1391.222778 1272.360962 970.874695
1300.937988 1534.820313 1200.472900
1404.324829 1191.536499 1002.197754
1304.163330 1444.274048 919.749695
1222.679199 1406.306152 1044.827881
1304.163696 1607.051514 935.636902
1596.787720 1256.598633 980.354736
1263.099854 1307.351196 1112.271606
1295.836060 1396.545410 1269.634766
1316.051758 1420.789917 1275.398315
1222.927124 1446.165894 1001.808411
1285.308594 1647.507446 1001.875488
1521.255005 1247.821655 887.433289
1309.091309 1420.655029 1283.568359
1301.434692 1401.479736 1272.206909
1440.317017 1466.239990 838.913208
1269.905640 1442.622437 1228.704590
1201.770996 1409.897583 1039.921387
1338.041992 1306.776611 1004.330444
1188.436768 1340.574219 1216.909790
1206.561768 1300.736206 1148.582031
1408.645996 1208.789917 1000.154297
1237.110352 1522.838257 1009.496765
1308.421875 1310.552612 1070.618042
1324.676758 1433.306641 873.992249
1289.549316 1435.413696 976.460571
1364.873413 1270.541016 1007.263489
1273.762939 1672.582397 1037.318237
1361.238770 1492.416992 1305.618530
1369.730103 1486.924194 902.768250
1456.023071 1308.557861 864.948364
1478.954346 1452.932251 802.186523
1495.681396 1260.794434 899.681396
1438.932861 1183.908569 981.099792
1157.239380 1434.123779 1072.594727
1447.120728 1168.945068 968.498596
1237.972168 1538.887085 1117.753784
1160.274902 1431.583008 1073.540405
1357.310669 1464.305298 1322.196899
1246.275635 1608.364624 900.781006
1453.914673 1375.234375 784.722900
1205.191284 1380.452393 1064.931519
1270.869873 1521.140625 959.976807
1162.252563 1459.634644 1085.465210
1295.489014 1651.470825 1158.498169
1265.778320 1527.187744 1165.838135
1198.446411 1502.094360 1001.388916
1191.859253 1327.592651 1155.836426
1200.566895 1445.755249 1031.494263
1306.307617 1355.065308 1008.185608
1242.226440 1360.851196 1061.232544
1426.403076 1440.031494 802.489929
1285.391235 1576.029907 1154.094849
1531.489502 1323.108398 848.492371
1306.074341 1635.349243 1149.193359
1292.797607 1529.174072 950.424561
1181.685059 1478.706909 1093.805420
1214.672119 1579.033569 1076.181763
1202.394287 1439.574097 1146.581177
1283.741821 1638.873291 1068.176025
1253.784790 1571.217285 923.041199
1436.177612 1367.173340 796.978577
1361.239258 1486.631592 888.434326
1265.599487 1439.647217 1236.626709
1283.769165 1297.832642 1067.933228
1318.309814 1455.847046 887.295349
1203.148560 1543.241943 1026.085938
1176.721680 1520.578125 1039.227661
1274.390991 1564.528198 1028.781982
1348.844116 1411.588135 884.642273
1212.604614 1460.787598 1134.696411
1261.402100 1523.197754 996.016052
1216.378296 1360.651367 1207.863525
1273.537476 1580.448120 1047.016357
1361.059082 1542.672852 1275.282471
1196.690063 1418.640747 1074.675049
1181.941406 1412.897827 1080.251831
1455.317627 1490.542603 870.327209
1264.975098 1323.876709 1088.947510
1467.359131 1466.146973 808.451904
1329.168579 1261.211060 1059.084961
1442.916626 1459.384644 813.249268
1280.129639 1287.155273 1082.585205
1381.828735 1379.891724 881.149353
1391.986084 1412.855347 832.054626
1246.718018 1520.923950 1139.035156
1478.147705 1180.336670 934.789490
1257.678833 1335.458008 1078.272705
1206.601196 1325.055298 1200.471191
1202.025269 1533.941040 1032.635864
1430.928467 1431.701172 785.914001
1241.117920 1293.062622 1152.718140
1284.721069 1454.188965 918.051697
1287.200562 1617.208618 921.752625
1418.833374 1359.787598 823.150513
1236.085083 1321.746582 1101.097656
1497.496460 1257.932617 933.913818
1195.917358 1565.292236 1079.154663
1166.974121 1463.762695 1042.914551
1368.223389 1388.890381 904.174194
1239.153442 1556.791016 1043.014160
1423.341919 1216.687744 990.261353
1335.266235 1289.851074 1027.944580
1221.537476 1445.340820 1157.489258
1349.894653 1264.358521 1028.337036
1272.351929 1559.124878 930.524170
1211.016235 1420.649658 1037.907349
1416.681519 1270.816284 971.069153
1374.977417 1269.709106 1019.120728
1249.271851 1448.209839 973.254639
1344.582153 1493.342041 1287.216187
1293.938232 1318.618286 1075.331543
1444.074097 1276.061401 883.466309
1365.435669 1372.680786 921.620361
1307.771973 1495.255371 923.813965
1283.354736 1449.491455 1242.266602
1350.580078 1549.292603 1256.400513
1423.594238 1334.866089 853.444641
1200.371338 1379.772339 1184.523804
1209.002563 1319.125610 1150.265503
1408.329102 1436.362427 808.356384
1342.020264 1354.428345 956.871216
1259.952637 1643.557495 1033.756592
1177.854004 1516.625488 1003.615845
1219.500000 1354.563232 1228.099365
1449.099976 1393.716919 790.031616
1189.136475 1392.325073 1060.779663
1258.472778 1448.423950 964.479370
1267.408813 1626.241821 1147.241577
1393.642212 1296.491333 950.709229
1326.976318 1327.019653 1015.656799
1264.588379 1423.539795 982.762634
1423.302002 1219.382935 948.820068
1456.413574 1377.908936 793.381104
1397.891846 1256.421509 957.117065
1484.219238 1290.270874 835.871338
1166.598145 1402.368896 1111.395142
1293.221191 1634.585693 1134.999390
1191.038940 1490.514160 1011.446228
1411.175293 1376.136719 825.881714
1271.606201 1396.712769 1014.717346
1194.544800 1563.595581 1066.299194
1168.026855 1504.246460 1055.290283
1440.885864 1306.953247 856.490845
1217.933716 1305.157837 1169.472290
1223.872070 1363.369263 1210.730103
1321.020508 1453.796631 879.992859
1376.072998 1375.798462 880.422668
1415.731201 1207.635132 977.776001
1331.991333 1410.518555 919.574951
1344.068115 1456.639160 864.620483
1393.664429 1241.276123 980.197571
1301.818970 1432.956909 916.205627
1293.730103 1471.709351 908.406067
1386.617310 1298.871704 961.568054
1262.634888 1594.669800 893.197021
1418.913818 1381.038208 812.270630
1293.636841 1456.199829 906.082642
1234.158569 1360.300415 1041.144653
1207.433350 1575.125732 1073.109741
1255.577271 1417.877075 991.047729
1289.302979 1288.930664 1072.752563
1417.030029 1401.400391 811.662720
1378.998779 1415.485474 842.932129
1230.538452 1320.530762 1111.672974
1377.478882 1238.396606 997.584045
1449.892090 1205.480469 923.835205
1178.358765 1317.648438 1187.162109
1300.075195 1285.766602 1066.130493
1460.234131 1324.199341 827.420532
1335.547729 1475.070068 1283.883911
1356.555786 1242.540894 1036.817993
1186.189941 1521.493164 1016.889282
1385.825928 1483.501587 1310.866089
1388.299438 1434.005859 843.491211
1359.192627 1463.622559 857.127686
1187.844727 1379.903809 1125.100220
1269.568237 1569.474609 1045.825073
1283.334351 1631.418701 936.688660
1229.484985 1474.306763 1147.771362
1406.199829 1367.000122 860.519104
1384.570313 1267.884155 986.874512
1439.884033 1416.589355 777.542053
1429.122192 1372.932251 805.499023
1345.297974 1446.000732 1313.165894
1301.021973 1642.121826 1135.934326
1354.214966 1364.197632 923.149597
1361.289917 1391.355591 895.335693
1334.922974 1446.787720 867.309082
1337.101440 1258.772339 1067.761841
1279.907471 1582.734497 975.436096
1215.531494 1441.436523 1015.963196
1182.191406 1424.387695 1111.272583
1231.198242 1515.220825 987.091248
1289.322510 1459.129150 1255.365723
1367.208130 1225.757813 1047.839600
1225.952271 1455.426392 976.558350
1324.398682 1283.166382 1052.895142
1194.938354 1473.101440 1105.505005
1312.550171 1302.636353 1065.947632
1232.173096 1384.597656 1017.529907
1253.077759 1519.291382 1004.405762
1239.718384 1437.688599 975.882385
1272.866943 1519.469238 1178.012695
1206.242432 1361.856201 1097.380005
1164.223145 1519.261597 1049.437744
1221.421509 1332.066772 1098.962769
1408.336914 1313.334595 897.786682
1212.630615 1451.668823 1157.455322
1317.019409 1549.999023 964.668762
1333.335693 1479.305054 1283.084839
1194.091309 1424.860474 1159.229858
1188.647095 1340.467773 1193.587891
1251.624878 1529.930054 1015.878540
1467.001953 1316.041626 835.945984
1186.532715 1436.103394 1034.806885
1236.964844 1468.045166 1169.497437
1268.412964 1563.408691 953.965271
1204.811157 1574.423340 1074.097778
1415.050781 1416.855591 820.064514
1205.546753 1323.666382 1142.135376
1231.302856 1530.061157 1119.902344
1282.484009 1417.735107 1255.040771
1479.898438 1263.968506 884.604309
1179.867432 1426.570923 1059.887817
1353.587280 1468.846802 1325.737549
1247.085327 1482.964478 952.652649
1415.398071 1432.201294 811.816345
1221.525635 1371.232544 1054.506958
1470.864136 1203.720947 913.583923
1431.073730 1438.025269 795.708923
1272.675903 1665.544312 1017.434509
1363.442871 1415.730835 855.931763
1214.992798 1552.780151 1098.674194
1281.482422 1653.523438 1001.068176
1195.989014 1515.480957 1075.374146
1256.531494 1296.591797 1124.012329
1381.452148 1221.093872 1026.141724
1350.487183 1240.728760 1042.680176
1279.267334 1654.917725 1052.681885
1338.317017 1411.919189 867.071350
1365.462158 1399.058716 876.022034
1226.633911 1338.388062 1091.686646
1289.049194 1469.884888 1232.306396
1459.711182 1447.490845 795.247803
1174.286377 1485.809692 1057.547729
1203.963501 1429.816650 1149.038940
1156.500244 1458.785278 1063.269409
1287.377075 1614.853760 1079.788696
1424.905762 1386.877197 810.354187
1219.179321 1476.702393 974.032349
1229.675415 1458.200439 979.001892
1391.442871 1373.823975 849.881348
1180.359741 1552.453125 1065.624512
1254.550781 1575.129639 942.928711
1264.863892 1451.949219 960.634094
1290.161499 1561.406860 1173.859497
1161.233032 1400.560669 1126.870361
1194.398438 1541.378052 1083.935059
1404.166748 1427.575073 822.340149
1436.339355 1339.045898 877.307434
1175.051880 1485.645020 1052.690674
1386.460449 1307.355103 940.515381
1268.181396 1317.360229 1079.906860
1286.832642 1435.923462 943.349731
1252.437866 1515.727783 1150.429443
1226.222534 1467.184326 966.366089
1270.222900 1623.788818 1034.528442
1297.475708 1346.153809 1059.446289
1297.963745 1618.948730 1124.445801
1239.707520 1388.641357 1225.620972
1311.529175 1434.168335 903.921814
1257.565552 1560.568359 956.464172
1344.336182 1533.725220 1262.070801
1228.009521 1412.118774 1172.994385
1226.173706 1337.304810 1099.744995
1359.446899 1381.517578 909.888733
1209.727905 1298.089233 1160.179077
1234.813110 1421.959961 998.284973
1216.178589 1417.421997 1034.882324
1336.406616 1451.899902 1321.639282
1436.507568 1304.228027 866.309937
1209.034790 1575.288208 1073.511108
1335.988281 1407.607910 924.019836
1413.858643 1366.193359 845.110840
1195.947144 1405.594604 1156.161133
1291.835938 1415.752197 1286.471924
1286.925293 1569.073730 996.767334
1275.904663 1552.643433 989.778748
1430.085205 1391.750122 811.555603
1291.547852 1443.321411 1253.594604
1174.095093 1375.930176 1143.825806
1290.548706 1450.379639 921.797363
1364.133301 1417.610107 871.986023
1278.792114 1445.431641 1240.423096
1325.200073 1491.133789 886.635620
1189.919556 1543.674683 1021.495728
1233.415649 1434.077271 1177.839844
1232.613770 1502.062622 982.996216
1167.515381 1501.954834 1025.749146
1231.154175 1412.656860 1010.935669
1241.019531 1346.532593 1047.369385
1448.271362 1307.937134 876.492004
1237.074097 1448.255005 1183.804199
1235.707031 1441.910278 996.272278
1431.980347 1374.254272 821.181641
1258.608398 1284.491089 1128.850220
1258.600098 1516.571411 971.440369
1187.756958 1387.036011 1088.893921
1196.558716 1314.043701 1170.480835
1353.872437 1339.829590 956.197449
1188.329224 1464.979980 1014.357483
1393.519531 1433.634155 851.918579
1411.130737 1337.106079 869.199036
1434.796265 1195.498901 989.384949
1194.264404 1449.211304 1051.315186
1296.496704 1461.413940 1251.256348
1247.967529 1538.804688 989.155762
1348.235962 1352.916992 950.515076
1467.387695 1313.068237 826.517395
1314.566772 1490.567505 1268.036133
1238.581787 1432.070435 1003.238220
1340.129150 1332.071899 974.511658
1348.618164 1389.129150 926.936401
1396.166138 1339.812012 903.784729
1233.578613 1494.875000 985.550171
1285.165771 1442.434692 922.174316
1368.739136 1370.790771 896.881592
1241.287109 1320.896851 1095.946655
1183.490479 1356.844360 1189.155640
1241.476440 1556.722046 1042.828247
1188.981567 1474.632935 1016.638123
1271.931152 1525.101685 1008.729004
1230.245728 1470.341797 1152.984619
1178.955811 1411.207764 1081.227417
1247.746582 1510.160034 1132.546021
1356.161133 1228.271362 1044.985962
1428.043091 1189.678345 992.080933
1211.475952 1545.815796 1035.884888
1275.245850 1548.703369 1161.112061
1203.016479 1330.350708 1158.674927
1359.071899 1515.440430 1288.205444
1329.293945 1338.905884 1018.763428
1337.206299 1424.846191 878.089294
1274.239502 1566.785278 908.865479
1177.947998 1325.869019 1177.173584
1431.876953 1329.361816 851.555420
1193.260010 1588.874146 1094.302002
1182.039185 1551.875732 1075.132202
1258.401855 1379.194214 1029.471191
1461.080444 1280.222168 863.795105
1335.348389 1622.434448 1191.569824
1405.418457 1241.404053 957.655151
1213.626221 1385.692871 1056.299561
1373.697632 1380.644775 885.863892
1273.610962 1482.571411 938.246887
1363.026001 1284.553955 997.107910
1237.706055 1514.550415 1138.659424
1373.468262 1415.298462 849.796875
1323.241211 1569.852173 1192.395752
1176.189453 1478.889038 1014.456848
1178.095459 1359.060791 1137.400879
1320.104492 1436.243774 873.285339
1261.204712 1473.768555 943.496094
1225.020630 1396.086182 1039.049683
1275.804443 1403.176392 1257.071167
1277.786743 1554.676636 1147.851440
1291.050659 1503.775513 923.919250
1411.416992 1423.073975 814.358154
1254.765869 1554.652832 941.322571
1330.881592 1248.667480 1062.936035
1293.204346 1670.541016 1062.868408
1363.939331 1227.865479 1049.332275
1316.089844 1348.667236 998.451294
1194.567627 1409.378418 1048.073975
1310.649170 1507.684814 941.931335
1172.153687 1433.955444 1058.860962
1281.204102 1463.709961 930.414063
1414.593750 1407.497437 807.432129
1232.737793 1593.298706 1114.309082
1254.782837 1390.382690 1235.076538
1345.084351 1490.028198 880.946655
1360.178345 1349.219971 952.141174
1298.022705 1599.478516 1033.642944
1200.985474 1438.295288 1020.642212
1231.109009 1534.604370 1112.967773
1205.859131 1450.787598 1003.351624
1289.661133 1360.613770 1027.312500
1206.824463 1448.301758 1004.565552
1200.767700 1345.181763 1195.736694
1446.016479 1401.432251 803.410400
1200.568604 1424.293701 1046.629639
1303.646240 1507.264160 1242.847046
1348.517944 1554.971436 1227.097290
1399.653809 1237.150635 1016.357788
1377.167114 1333.890625 934.858887
1184.470703 1442.885498 1115.182129
1445.470581 1303.836426 873.166199
1347.880859 1398.590332 939.437805
1263.451050 1451.456055 1208.795654
1459.066284 1379.977051 799.946106
1344.727661 1417.527954 855.503296
1381.879028 1330.223389 932.909058
1164.657349 1483.612183 1078.017090
1481.162598 1289.358887 853.830383
1222.884277 1546.688843 1034.042969
1265.089111 1536.312256 952.058533
1346.948975 1468.856934 863.463135
1283.974731 1586.267944 978.963440
1295.533325 1635.483276 1152.819336
1591.178101 1281.562866 955.331604
1171.096558 1361.721436 1149.854492
1202.288818 1543.214233 1085.952881
1250.710083 1469.802368 956.126770
1391.034058 1282.355957 986.186279
1358.569946 1381.336060 915.777100
1261.897217 1271.247925 1119.737793
1330.876953 1614.424561 1190.748657
1168.889648 1442.879150 1080.930908
1353.807739 1236.918579 1045.771118
1500.235352 1346.560303 795.920654
1315.733154 1489.033203 926.870178
1389.111816 1390.544922 836.557129
1263.224731 1381.873535 1044.655518
1168.708130 1379.418823 1113.896606
1406.273804 1478.889038 854.645264
1381.600098 1249.619751 1005.537842
1404.266479 1308.744019 939.166687
1430.811890 1185.517334 992.149597
1451.686646 1228.767822 908.312012
1407.803101 1400.789551 839.135254
1196.387695 1362.604248 1113.472168
1193.292480 1535.292969 1018.123657
1362.871826 1313.156494 967.945801
1365.736816 1205.146606 1019.801697
1412.236938 1318.268433 895.247009
1176.666016 1524.791382 1035.237793
1456.479736 1237.698364 943.380127
1441.153564 1339.222534 857.655396
1488.247925 1250.246582 885.372742
1200.763916 1493.756592 1001.531128
1432.990845 1165.288940 961.421936
1380.910522 1379.741943 914.270996
1220.908691 1470.154541 987.344360
1246.986328 1405.762695 1220.103760
1152.856323 1476.740967 1048.206299
1373.913208 1388.417603 898.101563
1279.155762 1562.128540 1172.124878
1194.857422 1394.051636 1052.558838
1338.439575 1263.307617 1026.328369
1419.623047 1481.541260 876.522339
1488.177002 1247.475952 920.043335
1175.428467 1351.527954 1160.772461
1208.640869 1343.472046 1207.865479
1268.675171 1662.315308 1004.751038
1232.782471 1555.702148 1041.774292
1289.663208 1365.238647 1086.174805
1310.331055 1434.846191 915.143433
1448.483887 1449.375000 788.561157
1258.335205 1541.673828 1133.277466
1320.636841 1452.348145 880.237854
1278.762451 1457.079346 1246.958008
1226.240967 1352.346313 1074.412720
1276.778687 1554.552612 1158.777588
1202.437744 1500.673218 1092.657593
1196.262939 1506.682495 1087.868896
1237.229858 1445.445801 972.530579
1338.003540 1293.609863 1014.324402
1280.269287 1605.654541 1008.428223
1328.980347 1432.389893 878.178528
1255.811401 1296.543823 1104.365112
1271.369751 1412.051880 1288.099365
1279.087280 1626.477661 946.035095
1409.642334 1411.081543 808.441711
1435.462402 1244.792114 954.682068
1268.787231 1632.687256 1042.751099
1288.401245 1554.313843 991.869385
1309.604858 1444.366455 1263.483887
1280.192139 1574.944824 1147.224487
1255.200073 1587.437012 918.739990
1385.133667 1435.237549 844.130493
1442.773682 1186.839355 989.254761
1191.150146 1450.271973 1056.158813
1478.294312 1322.949829 797.484192
1219.360596 1493.097656 976.138123
1289.967773 1467.983765 925.599426
1284.421265 1643.947388 1068.066772
1384.455811 1426.436279 840.838989
1344.198853 1553.116211 1264.261353
1345.173218 1443.870605 1319.254272
1208.526978 1539.979980 1039.367554
1233.798096 1472.407837 964.804749
1203.874512 1497.752686 1097.182007
1217.469604 1397.811523 1061.152710
1396.521362 1274.188843 955.523071
1335.030884 1408.420166 881.807617
1405.011719 1428.442993 828.712280
1399.601440 1490.390137 886.362549
1253.758057 1472.102173 957.464111
1323.922363 1401.850342 936.472778
1160.357178 1424.049805 1081.550659
1310.836548 1289.199341 1073.730103
1309.207642 1219.186401 1019.719910
1165.943481 1421.378784 1121.227539
1225.619873 1344.809082 1084.078247
1374.715576 1361.465332 922.325195
1323.499512 1464.002563 906.879578
1414.191162 1399.648560 828.025513
1288.117554 1559.209961 996.155029
1327.046387 1482.163574 1289.173950
1247.376587 1464.233154 954.557373
1323.254272 1450.634155 868.903809
1200.342651 1543.647095 1086.373779
1187.865601 1552.513428 1082.110229
1278.873291 1563.161743 982.831116
1423.631226 1425.971313 803.485107
1168.042480 1401.367310 1092.599854
1163.193970 1449.788330 1065.442261
1450.485229 1267.561890 877.875488
1292.300781 1652.631592 1176.708618
1290.002563 1455.870972 1242.410278
1379.687866 1386.564087 868.780640
1306.491821 1634.381592 1144.411865
1221.203247 1333.582520 1107.095703
1403.429688 1262.693970 964.119690
1286.530396 1484.416992 954.342285
1391.392700 1378.069702 887.779114
1278.626343 1509.628052 963.985291
1252.501587 1542.445313 1130.258667
1210.389526 1564.617798 1073.142212
1387.993896 1396.352173 839.226868
1203.820190 1412.494141 1155.818237
1375.310669 1284.570679 996.428467
1208.563843 1320.136719 1160.283447
1285.425049 1419.612671 958.940735
1233.587402 1467.656616 973.991699
1277.831055 1515.050903 963.154480
1266.810547 1547.536377 922.572754
1284.455322 1622.245117 1127.662109
1240.450562 1549.064209 1036.067993
1283.270264 1589.292725 932.265930
1337.257324 1433.630127 873.172607
1224.905884 1359.545532 1066.430298
1283.564209 1620.139648 1056.856812
1407.537109 1401.787231 827.061646
1283.003418 1291.601685 1078.604858
1273.116943 1400.394531 1278.891113
1308.452026 1401.975586 959.879822
1357.129883 1506.513062 1291.250244
1174.617798 1503.016479 1057.048096
1340.595337 1439.233154 873.297974
1308.598389 1552.042358 1204.430420
1293.970459 1566.951416 1170.074463
1297.897583 1296.824829 1062.920532
1449.820679 1451.832397 793.409851
1374.212646 1484.091064 1307.353638
1441.338135 1246.428955 953.753845
1291.285034 1282.470215 1080.647827
1227.725342 1473.088501 968.460938
1211.673096 1552.164429 1054.050537
1186.185303 1366.413574 1110.969360
1439.958984 1260.956421 918.925903
1456.122803 1228.556152 900.527161
1449.998779 1392.869629 812.494507
1359.276855 1350.708740 940.824585
1403.672485 1209.096436 1004.691895
1274.757568 1448.092773 958.435669
1455.429810 1412.996460 785.038940
1177.007324 1495.256470 1013.774414
1188.458008 1338.626831 1140.595825
1226.652222 1459.327393 980.905334
1202.080322 1383.958740 1056.802246
1482.963623 1244.025024 872.860046
1254.638672 1381.695557 1241.478760
1418.316528 1406.118896 825.493591
1196.585815 1453.223267 1001.889404
1184.137207 1365.465698 1186.562134
1370.894165 1270.315430 995.936951
1331.430542 1517.813232 937.177673
1163.584229 1380.971558 1126.628174
1291.707642 1457.949341 916.398621
1229.196045 1392.122925 1038.775391
1290.431030 1470.434326 1248.963989
1294.727417 1606.943726 1084.985107
1274.414063 1388.543945 1260.390015
1239.053711 1467.081665 1150.143799
1413.303833 1357.044556 843.207092
1353.393433 1443.673584 851.271484
1389.789917 1293.657349 962.625793
1203.777222 1508.724365 1003.348022
1214.772339 1408.167480 1042.276489
1277.920654 1459.643311 931.666687
1274.434082 1566.776733 982.199158
1282.825562 1600.982178 1017.707764
1353.461182 1247.885376 1020.609802
1257.671265 1549.003174 957.593140
1253.899536 1445.254761 971.713440
1210.371216 1448.138550 1139.397339
1438.871948 1469.188110 815.267883
1403.953735 1375.912598 832.317749
1238.317993 1589.803711 1069.074219
1180.737793 1430.047852 1123.469727
1312.700195 1597.739380 949.773499
1195.619141 1514.377686 1073.837280
1185.910400 1429.948120 1050.499878
1347.562744 1257.981079 1024.111206
1234.886353 1480.211548 956.174255
1155.960205 1507.078491 1021.574768
1315.895630 1420.609497 918.877014
1285.673462 1519.608032 1194.274536
1250.083496 1477.463989 953.289185
1419.430054 1433.615845 798.609924
1220.548706 1398.084473 1024.638794
1443.518433 1399.373413 813.527649
1331.216064 1432.949463 877.780396
1363.106812 1262.051636 1005.762207
1453.823975 1354.588135 791.118896
1213.539673 1360.535645 1085.918701
1254.479614 1571.730713 956.471863
1367.360962 1535.260254 939.872070
1330.957397 1418.213745 885.513733
1414.480347 1437.086182 830.494873
1290.634521 1499.730469 960.887634
1413.479126 1240.822144 964.290649
1304.519897 1621.865112 1102.804565
1365.189941 1530.877075 1280.217285
1171.411377 1456.208984 1039.067017
1175.544067 1400.014404 1087.504639
1247.616455 1590.280640 1083.235596
1275.328247 1465.278320 926.702026
1473.453003 1251.623535 944.470093
1376.678711 1303.307983 957.384277
1199.846069 1523.940430 1021.289246
1479.357300 1252.672241 847.497803
1328.578979 1326.658081 1020.608643
1434.275513 1194.488892 974.376221
1172.412476 1448.493896 1071.641602
1346.927734 1506.473267 1279.268311
1174.402588 1474.885254 1072.208618
1341.062500 1326.649170 991.463440
1515.376587 1438.538452 795.053467
1360.051025 1241.592407 1020.654114
1332.615845 1470.148682 1284.182861
1321.328613 1331.558350 1018.662537
1288.545654 1461.828491 922.114319
1168.065430 1325.743286 1207.940308
1203.907349 1542.953857 1091.366211
1495.729492 1427.595093 776.441223
1183.190918 1409.522461 1144.071899
1333.508667 1442.809448 852.812195
1226.168091 1474.878174 1144.292969
1450.851196 1394.135620 774.601685
1319.754517 1393.987061 941.671265
1192.329956 1318.890137 1168.658081
1175.772583 1485.192749 1033.264160
1433.107422 1425.122437 810.151428
1378.287476 1433.678101 860.901978
1348.827881 1467.991455 1348.104004
1159.647095 1344.237671 1175.636597
1255.381470 1548.970215 942.580444
1356.029907 1222.422974 1019.992676
1346.714600 1453.684814 1313.297729
1368.300903 1492.061157 1317.723389
1173.742065 1461.380493 1052.954712
1324.272705 1437.364868 868.099670
1213.913452 1338.262329 1101.328491
1462.166260 1353.530029 790.725830
1365.488892 1465.216431 1328.478271
1218.074219 1446.649536 1133.684570
1411.304199 1302.099976 961.319702
1189.123169 1356.050659 1112.815552
1459.695313 1167.915039 963.943909
1293.943359 1441.527588 919.590698
1429.380615 1353.974243 824.583923
1179.153564 1426.658813 1107.476807
1252.561768 1562.751465 936.090637
1173.433105 1355.675171 1169.719849
1291.688354 1443.901367 1245.703003
1181.677368 1474.131470 1023.203003
1179.892456 1355.857422 1157.753662
1360.665527 1315.891724 993.514893
1406.875244 1343.486572 876.029968
1257.445313 1499.655884 1167.369141
1340.420776 1303.388794 1029.238647
1205.411743 1557.591919 1048.585938
1425.915771 1254.401123 961.995544
1410.963379 1359.740112 831.795593
1159.182983 1407.313843 1097.756714
1337.728027 1256.006958 1052.872437
1375.462646 1241.611206 1004.623779
1414.539673 1448.414917 809.073425
1244.609741 1522.875488 992.007324
1380.385498 1221.116333 1023.374023
1292.069946 1604.573486 959.318054
1212.331055 1492.741089 1117.898926
1402.435425 1362.498779 871.737061
1178.852417 1498.191650 1003.390686
1244.649780 1481.891235 956.475952
1332.351929 1220.561890 1033.936890
1404.105347 1401.583130 820.359741
1366.604492 1389.164307 862.814331
1333.416260 1356.498657 968.554199
1218.662720 1442.125000 1164.309570
1284.832764 1619.729736 1086.567871
1325.432007 1475.550293 913.186218
1352.835205 1305.342651 993.451111
1297.601440 1439.465454 908.598694
1334.554199 1405.106079 900.126770
1345.672852 1557.006958 1226.406616
1181.672119 1482.406738 1063.386475
1183.452148 1497.677246 1072.918091
1409.874023 1291.659668 916.824951
1233.728638 1336.946167 1096.901978
1307.987183 1423.130371 917.250854
1320.324219 1486.926025 1264.214966
1415.662598 1256.806030 952.444702
1270.829712 1640.365601 1050.204346
1357.670166 1428.929688 873.954895
1354.550903 1311.240356 979.173279
