ply
format ascii 1.0
element vertex 1391
property float x
property float y
property float z
end_header
678.587952 1913.066895 640.369568
979.503296 1819.625488 491.160675
1162.289307 1984.940918 599.410645
883.477173 1901.378784 449.592102
1011.922119 1819.410400 403.113525
978.542542 1859.377563 660.660767
996.162415 1823.589111 590.381531
800.170593 1926.327271 368.593384
894.922791 1840.221680 369.055939
727.837524 1937.078125 390.910400
1068.945679 1859.305054 501.057251
1113.981445 1974.876221 564.909302
1099.734009 1889.892090 547.972107
703.536011 1929.829102 650.286316
809.018982 1892.127930 568.745056
802.107178 1907.689453 474.769897
894.518860 1854.011963 598.780029
1124.830200 1929.542358 591.603638
809.833435 1875.876465 645.950989
862.764465 1893.540649 459.427338
970.956970 1905.331787 694.664795
1061.309937 1843.451660 452.458923
780.448669 1933.070557 371.435577
681.333679 1926.662598 649.532166
934.538757 1852.370605 536.402710
789.972290 1982.852661 691.221863
985.805786 1820.416138 439.223785
702.295044 1920.700806 611.627014
1053.659424 1802.253418 584.219727
1008.212769 1852.734253 614.565857
813.163391 1877.976685 653.072144
932.502075 1872.035278 434.846832
1027.012939 1814.265137 426.297333
806.996887 1877.830444 632.093933
865.977844 1873.565063 666.170410
1053.080566 1859.913330 612.830505
854.911804 1903.287354 485.098297
643.370728 1950.704468 626.007507
1107.913574 1938.637451 614.607239
1082.223389 1924.479980 640.173096
1108.287476 1917.979614 558.548645
1077.353516 1829.492798 516.465210
1003.640320 1859.695435 719.837769
882.891113 1879.506104 557.252686
804.617493 1917.083374 514.700745
1084.599121 1915.034790 691.667969
1132.878906 2047.114990 353.320068
1103.988281 1954.862305 695.904480
943.853333 1836.588379 550.147400
742.377991 1932.288940 499.756256
859.372437 1889.674683 363.621002
798.922241 1925.163330 451.735382
1081.227173 1899.699097 413.574524
688.480408 1939.705811 462.462677
774.255737 1920.888916 416.315063
853.584045 1887.813843 529.858093
685.541565 1949.313721 494.747375
1080.318726 1875.046387 549.406677
982.425903 1831.545044 606.646484
811.836060 1904.323364 532.927124
922.677307 1934.988647 669.170105
866.422913 1894.166992 523.757813
946.660461 1817.689575 521.140076
864.902649 1907.850586 436.017212
737.512146 1922.795532 701.602356
1097.525391 1854.600830 591.277588
1096.124023 1965.380371 635.247742
705.199890 1922.572388 613.715576
1015.209900 1814.475586 571.520081
700.617188 1928.425293 601.556946
1091.863892 1979.317017 385.010468
1108.451050 1929.746216 502.063782
997.895691 1822.505981 439.645538
1052.542236 1813.818115 389.026581
1056.988892 1839.406128 605.697815
762.761902 1901.536743 602.564880
1052.561401 1871.120483 612.754822
900.909119 1872.989136 502.136871
820.360474 1915.101440 473.826569
839.122437 1866.408325 625.426514
973.094543 1815.998657 574.354858
945.173035 1829.112915 516.548706
754.977112 1894.383057 612.719238
997.734680 1872.285156 720.949890
984.686768 1816.829468 545.845581
1069.354858 1829.866821 542.972473
755.026794 1916.133789 637.641113
1137.075684 1928.593262 605.421753
1118.783569 2008.506104 496.063293
1021.164124 1815.222778 435.565308
650.959595 1950.166626 568.082581
887.355774 1890.925293 389.889740
958.966675 1845.287109 408.565399
1067.363770 1875.274658 417.840027
762.441528 1907.185425 600.908813
726.996582 1927.471680 488.644043
727.032593 1909.414185 617.148621
1053.631470 1916.509155 724.427856
910.222290 1862.647949 530.040344
761.056030 1908.223633 563.870056
1078.628418 1942.562256 657.945435
980.713074 1837.000488 403.106659
877.339600 1877.488403 357.024902
1049.742188 1944.850220 660.148743
909.563110 1852.616089 591.584106
948.984131 1879.505615 625.317810
1060.691040 1809.395020 611.298950
880.999329 1895.771484 418.174286
1053.299438 1837.168335 605.888489
815.974976 1905.069458 485.248169
1027.655151 1825.929199 465.896057
1086.435913 1928.158325 347.812286
923.324158 1885.165161 418.962280
1068.613281 1847.415405 554.306946
1028.860596 1824.565430 607.093506
991.082947 1815.702393 569.310608
1068.827515 1865.777832 614.496033
953.617188 1855.471680 402.972565
979.558960 1824.172363 406.107666
834.083923 1908.697754 552.018372
649.487000 1960.602539 451.357513
828.628601 1870.873413 649.080933
1113.059204 1959.815186 551.210754
913.736877 1882.256836 435.302582
1134.600708 1954.468384 616.890747
1123.639893 1880.271362 610.037415
1071.693237 1897.470459 349.792938
1014.349915 1805.105835 592.078064
843.483215 1890.770508 494.676178
1054.948730 1834.075562 508.238983
1110.824219 1964.707397 486.246063
1083.740601 1883.134399 612.417969
675.472839 1924.087158 628.023865
677.125916 1957.741211 390.946747
702.332214 1950.397583 378.488983
1033.302368 1803.665283 585.751587
743.057373 1933.605347 445.795227
1116.552856 1941.370605 544.985229
1047.414185 1799.080444 576.244141
1139.586426 2036.693726 531.354187
726.236145 1915.306152 619.040649
942.180420 1925.526001 667.591492
942.229492 1831.707275 508.882599
889.679810 1865.979370 372.559509
1154.165405 1973.088867 606.578125
750.803406 1930.592285 424.932373
1035.728027 1803.309204 557.812195
1050.872925 1800.874023 590.248169
1001.547302 1814.401001 457.447571
692.311646 1946.566162 670.001038
1115.340820 1948.792603 506.041473
751.018005 1919.139282 690.751160
1139.246216 2002.429199 533.219849
1064.364746 1824.817627 433.060303
1007.828735 1915.535889 625.935120
1083.356934 1939.379517 659.885803
881.239441 1865.660400 613.598816
803.790894 1910.325562 388.697540
876.623535 1885.805176 494.166809
1094.978394 1915.668579 497.007965
870.870972 1871.497070 589.946533
688.345520 1935.720093 528.260925
885.996582 1934.934448 673.865417
1121.647827 1999.641846 472.361481
1016.881042 1870.439331 685.223450
683.000732 2071.867188 666.675903
699.655518 1958.875000 445.368561
1040.175659 1794.725464 542.172363
737.464050 1940.458130 703.383728
756.455933 1903.721802 638.112244
932.502686 1859.785522 386.375793
997.732361 1875.501221 699.520752
863.218506 1959.461914 681.669983
662.953064 1929.360107 531.049316
762.584473 1905.515015 585.930481
893.868896 1860.234497 580.360046
1140.703491 2018.459839 497.065247
702.077698 1935.013550 445.305908
802.052368 1926.823120 416.626312
939.566223 1843.862061 620.643066
984.604370 1858.385986 342.532227
1106.830322 1943.734375 542.878540
1092.589600 1943.511597 681.704712
722.136963 1952.833496 441.002472
1080.336060 1887.792358 439.028992
786.369263 1932.932983 669.837708
814.108093 1900.580322 366.837219
767.818665 1943.234375 683.570740
1108.133789 1835.245361 598.153931
1142.550903 2054.500977 521.798035
880.589417 1852.965454 621.467712
1094.494019 1887.998779 569.852295
1049.021362 1805.760132 456.208191
990.437317 1807.112427 463.673370
889.304932 1883.577393 365.273468
836.015076 1864.776855 622.733459
863.019836 1895.360596 416.252869
1054.071045 1863.403687 363.422272
1113.519165 1948.952271 480.244324
1014.271729 1914.944214 670.127869
1031.985840 1841.462769 344.194305
1087.272217 1928.105347 682.391296
836.415283 1871.076904 626.681885
1104.892456 1990.135620 462.783569
976.597778 1819.390991 563.794983
809.014160 1912.593994 436.482574
793.100769 1899.431885 589.176453
777.386902 1894.167358 639.771240
985.371765 1820.705444 471.063751
918.326416 1872.568237 646.141907
972.832886 1816.835693 444.686890
944.132568 1828.877930 606.455627
724.869568 1948.654419 445.856628
1016.579285 1832.080688 367.773010
1071.315918 1859.490234 461.801392
1115.561523 1979.835693 407.205688
670.742981 1941.499512 485.251343
1095.647827 1955.050903 492.681305
934.573181 1866.042358 423.780792
987.475525 1857.098267 644.318054
688.403320 1921.351318 611.001160
745.676880 1923.461792 655.734192
1090.365601 1948.799072 640.960999
1095.593994 1985.179810 355.943604
717.417542 1909.802490 630.746765
1072.099609 1850.544678 612.399048
893.087524 1985.590698 684.533569
1120.546021 1974.180420 567.333191
1088.997192 1896.549927 554.437988
1153.805054 1947.400879 605.267090
894.148315 1863.393555 571.248718
906.938599 1881.361938 656.026245
839.579407 1891.746826 559.817932
1047.059326 1796.838501 496.652557
1054.430054 1806.398438 578.950134
778.405762 1909.323730 506.133087
865.853516 1860.713501 622.536316
1045.527954 1844.525269 338.887543
878.115784 1883.352539 412.740875
1058.620361 1822.839111 513.815125
983.916443 1847.585205 752.082947
801.357300 1905.963379 529.493958
1130.776123 1935.819336 586.393188
898.498413 1891.167480 443.883850
775.687439 1926.640015 459.366516
1128.330200 2069.108887 469.612274
897.221741 1889.374512 501.889221
819.333313 1886.801147 656.375122
791.926025 1909.530273 497.170837
995.093262 1826.039429 602.300781
1040.117188 1793.009644 562.100098
749.093201 1904.775269 378.084351
1050.544556 1816.136963 508.290131
859.344055 1902.815552 490.108643
815.635254 1902.637573 672.939758
1151.249023 2096.110352 357.567871
975.385681 1826.755859 493.688965
983.609619 1928.461060 682.773376
999.270874 1882.400146 736.716919
1047.096436 1799.421265 587.080200
1145.011108 1997.096069 615.705627
652.235779 1980.312622 478.815979
1133.031616 1988.743774 617.213501
793.045105 1977.242676 691.374878
1059.873657 1846.233276 423.133972
1052.884155 1846.714233 390.328308
995.148560 1828.510620 608.618530
1122.485107 2012.629883 522.106689
1013.585205 1800.880615 528.172180
1139.027466 1991.538818 628.963257
1111.855103 1861.124512 599.230591
1090.323486 1939.631836 675.567139
879.443665 1869.068359 558.177063
1131.784302 1967.077637 621.427795
795.771179 1896.309326 647.153503
970.728577 1898.047852 676.916626
1144.822144 2042.554810 353.947723
1064.178833 1867.139526 420.872955
801.654907 1902.487061 561.599365
1048.326904 1811.939209 346.069885
936.404053 1847.392822 462.231873
717.201721 1908.954346 636.287170
769.022644 1892.650513 612.812317
973.400391 1888.431519 701.662903
1122.835327 2017.922729 445.856506
1004.608032 1842.140381 374.455933
979.404480 1844.475830 380.022369
1097.672974 1943.869995 440.565277
1009.925659 1899.808228 671.096558
1099.402588 1923.067749 520.088013
1047.316895 1801.289063 344.626740
843.218872 1876.106079 665.278259
975.791992 1814.036987 539.302673
1151.400757 1993.510986 623.012939
832.928711 1876.674438 651.833008
853.856445 1889.163696 509.437134
674.057251 1976.465454 490.909424
1068.559814 1919.732178 621.368530
962.572449 1858.248535 754.921631
922.093567 1843.775879 593.439270
1008.669739 1872.388306 760.203979
955.879578 1837.060181 569.724731
1121.745728 1988.512573 415.003479
690.528259 1952.969604 681.975037
1033.348511 1811.275635 431.548218
1100.132446 1936.402588 419.381805
975.162109 1813.949341 576.715637
1059.465698 1907.966431 622.130859
839.972290 1893.583008 493.255981
1030.483765 1824.657471 383.565521
1004.944641 1813.683594 461.762726
762.794434 1923.520874 431.749786
994.449829 1814.254883 481.313568
970.950989 1858.187134 730.625061
1130.991333 1931.575684 618.352783
999.671753 1850.212158 352.441864
1041.096436 1863.655518 614.374207
917.809998 1852.028931 355.615326
1118.839478 1994.639893 450.036407
642.149780 1946.170532 389.442932
840.173889 1944.271240 678.201477
1063.282471 1878.894409 388.915558
943.702393 1857.638672 505.647980
991.668945 1884.523071 692.650818
902.969849 1878.761108 428.679962
1015.031433 1812.796753 442.478455
700.844299 1950.394165 675.368469
855.194092 1902.956299 476.247253
830.191040 1876.498779 650.779175
984.575806 1862.260986 750.738037
747.966675 1919.092163 637.576843
1048.572021 1792.820923 558.826904
701.290588 1944.218140 569.498535
836.117554 1889.910645 514.786377
981.654602 1849.108521 410.737640
720.934021 1928.889526 541.568787
847.304810 1902.104980 439.575897
1080.477539 1886.494263 514.451721
986.750793 1861.947388 714.410522
1125.193481 1983.643433 550.020935
1069.859619 1852.130615 504.397278
969.444397 1873.585938 628.571655
769.294128 1911.217773 625.589966
847.022095 1898.351196 550.013000
662.038147 1960.215454 413.679138
756.344666 1902.584595 626.775146
1118.115112 1944.133545 549.078064
1027.262085 1801.111084 490.401245
721.212524 1938.025146 658.711670
884.762634 1898.842163 479.770844
687.726624 1942.410767 433.328033
696.532776 1932.756470 685.372314
670.631348 1988.394165 680.005859
741.602234 1942.572021 379.581329
982.637512 1824.895752 576.282898
803.846130 1885.203857 613.903625
1051.346313 1848.398438 378.023193
1050.088257 1828.416260 361.330048
769.980774 1924.750122 460.348145
1153.002075 2065.625488 447.621765
1090.130005 1913.081421 611.196533
1123.558105 2053.802002 364.422394
719.818542 1934.796997 529.532593
909.792297 1858.190430 573.617249
1025.821533 1808.002563 430.911499
734.924072 1926.098389 554.741394
1123.425049 1980.873169 634.343933
1117.574219 1857.317871 618.922913
694.741455 1929.035400 643.382751
774.713684 1878.351685 628.798462
760.422668 1915.393311 507.138794
1027.246216 1805.073730 490.614166
774.573181 1908.323364 654.726379
1088.775635 1911.413086 491.977966
1026.366577 1821.555176 464.870605
889.536865 1866.452148 355.467285
717.729797 1924.453979 570.330261
849.797180 1901.446411 452.213287
1036.438843 1807.648926 477.112244
800.781006 1888.007446 632.080261
797.729370 1906.949585 686.543335
1002.634644 1824.644165 479.818054
1009.357788 1804.014771 567.975342
1063.714966 1939.088501 634.687073
1049.474609 1794.283691 524.631226
774.542480 1930.873169 383.942078
765.483032 1929.276367 450.967896
982.019714 1877.909790 677.356201
1099.883301 1850.115112 616.660217
1089.283081 1925.613159 716.910156
808.071045 1902.716064 565.231323
1068.926392 1862.545776 473.358398
1030.720947 1893.175781 737.585388
985.421570 1895.301270 727.805664
1050.637939 1830.825317 607.492493
925.622559 1864.182373 372.770935
849.281982 1904.187500 391.504547
1044.533447 1811.893921 512.544312
698.687622 1935.965820 689.641602
1068.114502 1917.859131 632.516479
712.576843 1920.053589 647.512939
862.545593 1886.931885 509.020447
1053.350586 1805.434448 417.301086
681.713440 1929.878784 588.629639
942.079895 1836.973633 518.526794
754.126099 1947.464111 693.190247
1138.196167 1981.936768 614.497986
1024.158447 1801.788330 590.246460
733.807251 1949.067139 707.187561
1065.865112 1923.236816 664.996094
1067.952271 1827.835327 532.204102
1008.583069 1812.479858 533.409790
1061.412964 1807.632690 356.366638
1136.063110 2044.756714 462.560638
733.756470 1913.484497 638.232971
740.642029 1935.604858 536.060791
934.348755 1866.086914 358.171539
1097.805664 1853.253662 595.125488
1042.514771 1815.662354 504.080475
1030.705688 1907.172485 621.170593
1036.171021 1805.812500 607.320496
1010.000122 1829.000122 391.089417
776.688110 1914.636597 491.632904
921.847961 1858.668091 455.772186
885.879028 1885.071045 434.062042
742.705261 1921.583984 536.406494
729.444519 1916.880859 577.716553
1062.513062 1838.637329 377.963440
1097.473389 1963.031250 378.608368
1093.508423 1919.769775 393.902374
917.135437 1866.352051 350.524200
694.249756 1943.903564 661.595215
698.040222 1935.997925 441.523804
876.229248 1883.916504 386.448486
717.984192 1948.282837 705.799866
1067.474854 1819.806519 600.435242
1122.558105 2021.274536 425.131989
949.328003 1861.700806 387.121277
965.169922 1854.792114 357.399109
1123.382568 1936.502075 579.318237
922.082092 1878.068115 408.187714
1093.938354 1906.973999 442.315826
821.583923 1897.106567 411.437286
767.811279 1950.113403 692.943604
1066.425171 1811.812988 473.112549
1099.003052 1904.539307 499.018341
996.962036 1857.561157 701.065796
970.434753 1836.555542 469.271973
1040.589355 1803.076294 488.768005
1012.915710 1843.279053 366.539093
1052.684448 1902.951782 621.629822
993.854553 1891.808716 627.842163
1115.843994 1923.872803 617.451721
1091.969604 1915.848877 480.358398
938.110474 1866.964111 407.463989
852.122803 1900.762451 440.515381
1113.677368 1974.854492 501.908722
814.532837 1927.098389 423.582214
991.068359 1813.672607 489.881653
728.140808 1939.993652 681.558960
870.515808 1904.277832 659.861511
933.215271 1845.977661 580.278687
1144.515259 1924.875854 596.044006
930.674500 1857.885132 511.681061
984.594238 1859.213501 727.278564
954.189819 1832.374390 477.091125
1059.475586 1834.813477 461.887939
740.689636 1917.136963 693.867615
1001.497681 1805.670898 465.391602
986.298523 1856.148804 670.955566
900.577942 1861.535767 629.283691
987.326294 1812.813232 570.545776
961.092590 1878.226685 617.151245
983.801392 1854.819214 352.964813
963.303650 1816.709229 459.233063
659.823364 1955.480225 453.351868
1087.678467 1897.436279 486.419861
1003.296753 1860.299683 757.709534
708.042480 1941.668091 379.695374
1023.726746 1866.083130 718.544006
1116.745117 2009.623413 473.518341
649.211243 1970.440308 508.143768
857.292053 1844.361328 372.122681
946.326904 1869.549316 645.531860
995.201050 1818.304932 596.854004
1064.764160 1855.827271 459.230743
1072.375488 1916.775757 393.959656
910.414734 1887.676514 419.238739
860.532104 1894.058594 511.724457
779.260498 1926.239868 551.770935
926.481384 1884.641357 627.047180
681.471436 1962.558960 672.626648
662.252380 1932.745361 634.926697
1072.143311 1866.006104 496.995422
1022.007507 1804.217285 526.099426
771.033630 1925.811523 381.921661
827.947083 1893.667480 553.697083
1040.973145 1927.580444 662.916931
904.986694 1855.182129 590.818237
976.659973 1819.596924 572.752502
1135.900024 1925.753906 601.610229
695.324768 1919.448242 609.877686
996.490173 1851.260742 718.917847
1008.731262 1812.165527 461.051544
1082.379272 1889.052002 502.316132
642.706055 1941.407471 556.923462
1011.712036 1811.645752 514.344971
945.108582 1832.111328 604.827454
921.969788 1864.541260 573.921814
996.999084 1863.250366 735.407776
715.065430 1921.441528 574.802185
1084.893921 1864.233276 532.050659
1102.280396 1961.280029 641.609192
869.532043 1879.265503 543.324036
920.147339 1884.842773 353.422729
932.355164 1863.758667 631.314575
1111.389893 1992.388916 394.736786
857.715454 1884.749878 489.060638
1096.631348 1965.050659 404.660858
807.192139 1919.617065 666.390198
1077.703369 1896.647949 388.398315
897.697632 1852.636108 626.638245
981.356628 1819.283569 613.122253
869.317932 1886.289551 671.080139
752.971863 1900.435669 631.140137
839.467651 1892.464355 494.132782
662.848206 1937.112427 591.811462
834.967285 1900.298462 524.303101
935.330383 1850.484009 470.255981
863.417542 1892.341431 474.636169
1110.209717 1956.021851 502.720459
884.295044 1855.050171 614.860229
1096.423218 1950.479492 414.867065
877.470337 1866.329956 642.084167
983.837708 1864.193481 696.710999
975.163757 1823.793823 599.025024
1136.439819 2051.881104 433.612671
1082.781982 1915.227295 413.857269
1097.155029 1962.864868 650.911316
925.469971 1888.318604 456.025696
818.044739 1870.422363 640.081238
967.900879 1845.222778 438.147156
854.519531 1895.527466 367.065857
1107.906494 1962.824829 535.536682
748.411255 1922.477661 512.765503
819.749268 1902.847534 537.635010
844.170837 1914.232178 425.913147
1154.450439 2015.257690 628.485596
1050.531616 1802.516479 479.467987
1006.583191 1906.680786 672.748962
779.315125 1916.148071 398.912506
983.990356 1815.718872 551.969971
689.558838 1956.867920 426.656982
811.094910 1892.714844 621.161987
956.807800 1853.532837 403.542572
975.010315 1829.143555 600.041443
1110.839966 1973.902344 484.844055
902.765503 1872.677002 650.157776
1023.678894 1813.364990 519.737000
954.404175 1869.121094 691.548035
994.863586 1879.608032 682.266052
847.171570 1890.258301 357.889069
654.815613 2029.628784 531.915222
966.379028 1884.942505 679.035950
1097.411621 1883.424438 572.696106
770.091492 1889.865601 632.911804
1073.562134 1897.465210 619.716553
1032.891846 1794.538940 534.748169
713.556946 1932.459473 534.669189
878.045471 1859.869873 662.255920
717.393921 1925.101196 686.197266
982.666931 1828.097656 452.146210
1094.178833 1933.536865 677.293213
864.979248 1862.429077 607.311768
853.947998 1862.481567 618.492432
1099.608398 1915.731689 615.572815
1081.007202 1868.976563 507.015961
856.881653 1887.570313 401.059235
963.379578 1829.773682 509.941254
923.171875 1863.414307 559.749512
1014.632568 1798.905640 475.805634
1004.935730 1813.346924 501.775909
1076.911621 1878.679565 614.624512
825.253723 1869.205566 639.006897
907.059082 1884.201904 634.132080
941.699524 1848.449829 626.823059
1026.473877 1835.593750 372.263458
1108.769775 1983.992065 399.080841
1107.347168 1864.745239 607.668091
676.640442 1936.637451 525.821655
1064.173096 1807.957031 579.325073
980.316406 1872.406372 694.913330
988.001465 1850.930298 343.747223
1007.291809 1910.500854 664.245972
919.245972 1867.130249 620.917542
872.366089 1857.354126 632.440735
768.316589 1919.023438 412.152863
1037.893066 1801.260986 494.590942
795.978699 1916.537109 525.224487
734.027039 1912.328369 649.603882
873.293640 1877.797241 419.681732
1112.066650 1997.781738 632.237549
1005.267395 1828.736572 389.859619
844.366821 1901.397827 459.169312
1123.799805 1980.556274 478.804779
667.353760 2021.157837 635.874512
806.269287 1926.974854 420.337677
1058.715088 1914.344360 620.378906
1094.815552 1884.824341 524.209045
855.639709 1884.641357 584.028381
1133.489502 2005.183838 568.097290
908.227722 1886.109741 446.667603
875.190247 1879.697388 573.289551
1126.634033 1996.365601 550.330261
976.669006 1869.815918 641.121887
1078.985596 1874.578613 547.255249
1079.176025 1873.124268 491.870941
1102.923462 1967.277100 517.197510
1088.731445 1929.461548 626.339661
851.020142 1878.605957 590.776245
1086.477783 1923.895142 390.503815
1093.465698 1958.840210 370.060272
1070.706787 1848.587280 530.713135
1096.339111 1851.739624 606.324036
1034.694946 1816.080444 411.783905
756.413452 1890.772095 624.479492
1109.518921 1960.558105 564.883362
845.659363 1894.543701 442.240967
1127.706421 2035.744507 510.570679
1070.044800 1886.045898 409.115173
903.641113 1877.893433 373.184387
1089.010254 1835.758301 601.142822
980.824219 1869.715698 633.472900
1001.334412 1871.591553 741.171448
892.942200 1857.407593 626.252441
1104.203979 1975.614868 447.532196
1157.182861 2024.455322 602.217957
1097.156250 1861.531616 597.551758
973.089661 1820.718872 360.506378
1061.893066 1921.527344 635.704895
801.778625 1879.515015 631.521423
918.844910 1844.043701 599.208435
884.408569 1890.554077 471.139709
968.594727 1860.051025 695.369141
1036.401611 1795.075562 492.229370
774.341248 1891.703735 632.977783
1060.177124 1870.567261 382.507446
980.580750 1873.176880 641.413574
942.618591 1833.690796 489.882019
844.910889 1864.340942 375.440308
664.011902 1925.910156 611.539307
718.639343 1918.156128 622.636780
893.709778 1881.092407 374.751465
1027.620361 1880.952759 617.163269
1089.472046 1914.424561 708.792847
1108.677124 2013.756470 365.007202
902.186829 1873.313232 666.584351
835.911926 1901.433105 650.712769
875.636658 1896.450684 675.996643
1092.519165 1896.251343 545.039612
707.956055 1965.980469 462.500031
821.797729 1880.566040 608.286987
1114.339722 1963.142090 453.397339
1083.194336 1932.838379 660.248718
1115.889404 1988.812744 658.425781
1108.394409 1930.280762 509.011139
967.686279 1866.874512 621.765442
786.107361 1916.406982 404.945435
689.758667 1913.890503 660.062683
1064.952515 1922.557373 690.405518
1068.052246 1803.508911 359.949585
1136.118774 2051.195801 379.428192
1138.509155 2006.191162 517.106445
662.136658 1945.375610 465.020782
805.864319 1902.621094 600.587036
1083.922485 1929.782349 398.126251
1017.584900 1798.180176 495.159241
695.208191 1935.443359 515.363647
709.198364 1912.087646 622.867493
1006.636780 1824.580688 420.565826
925.373901 1863.802246 351.453552
879.563232 1865.765747 574.870117
821.153564 1896.849731 686.177368
1045.887207 1814.260986 462.418427
1138.420044 1951.909546 588.074158
934.586365 1864.332275 416.309021
708.417053 1912.267700 615.679932
949.741150 1877.117798 354.508209
692.044312 1934.929688 527.922668
891.156311 1872.666382 576.937866
1110.569214 1973.177979 468.530304
1052.406372 1814.212524 365.968658
892.766479 1893.493530 557.670654
959.430359 1826.572632 604.181213
1093.009155 1886.208618 611.136658
725.634094 1937.223389 468.058502
813.683350 1891.516357 564.708374
865.946838 1888.945313 464.628754
954.955200 1848.927368 397.925842
803.785156 1914.234619 438.470856
1125.757690 2001.215210 353.892242
1113.276611 1960.331787 526.304993
835.591125 1870.849365 644.703735
779.055664 1910.818237 554.081238
1049.733276 1812.240601 496.374512
959.277222 1869.527466 636.907593
824.166077 1870.055298 628.640625
906.656677 1887.473877 401.814514
993.999939 1825.541870 430.881409
1078.440063 1909.229858 373.721710
775.449829 1919.921753 496.874268
901.333313 1876.501831 544.727478
957.956848 1820.924072 600.697083
691.693542 1937.222168 684.842590
865.821838 1884.047485 664.304504
764.064941 1921.603760 516.280151
998.166016 1883.627808 680.561523
1076.502930 1926.077637 344.174438
830.359497 1896.235107 565.313782
1067.927368 1810.211426 591.012024
701.297607 1937.367798 586.555359
986.874023 1863.259033 727.398560
816.495483 1914.198608 381.578705
1031.546509 1804.090698 564.747375
1068.825195 1839.039063 560.261169
1047.018311 1853.312134 368.857697
1009.023010 1881.646973 729.011169
1130.589111 2020.249146 569.679871
754.867981 1918.386230 462.632690
1091.862549 1935.919556 453.846649
983.091309 1862.422852 696.687317
969.232605 1829.559082 465.160614
1012.990051 1819.953491 586.395447
1063.042603 1828.098999 387.770874
900.482178 1872.441772 392.932190
995.229431 1856.671387 742.266296
687.908752 1924.817017 654.672363
870.999207 1889.916992 516.013428
1022.582764 1797.416138 540.399841
1099.289429 1961.163696 409.214050
811.571045 1908.814453 370.942993
1072.869263 1895.412598 615.457092
947.177185 1834.127197 578.964844
941.464844 1860.504883 426.216675
877.436768 1865.599243 650.367737
1036.806763 1811.418091 586.640259
720.949158 1923.921753 413.007965
890.437317 1876.107910 395.206909
709.546936 1958.056885 700.359253
1085.972046 1905.665405 342.886536
1069.973145 1838.006226 606.773438
774.135559 1933.914063 448.660034
946.903931 1850.922485 520.971008
1067.694946 1891.489014 369.098389
976.294922 1829.482788 511.782013
1003.630859 1823.174805 413.191132
1114.406372 1952.843994 486.009827
907.909546 1843.890137 614.086853
987.736023 1856.386230 689.812378
764.563049 1906.999512 563.672485
963.917114 1867.276489 657.275452
983.573669 1815.330444 509.696503
777.254700 1944.150146 469.853363
1097.643433 1852.733032 591.743530
799.853149 1895.535767 649.831238
727.925110 1897.682373 386.602570
890.958679 1853.662720 604.230103
1110.392212 1986.510132 362.351471
751.148376 1929.726685 420.507996
637.178650 1956.538940 447.718018
1116.541992 2011.126587 636.052795
854.182495 1889.207031 506.749878
1096.599121 1956.704712 386.075470
733.715393 1946.759277 686.605957
730.394226 1911.361694 656.798828
1024.858765 1804.726807 544.954468
799.411133 1890.810303 639.492920
773.304932 1912.260742 465.692871
859.866333 1869.061646 639.208618
694.377808 1943.948242 398.044189
875.938843 1886.724731 651.207520
1136.012817 2063.020996 434.691162
893.003235 1883.481079 650.147461
690.191528 1926.661987 584.621765
964.714905 1884.936768 629.005249
863.554626 1888.341797 684.407837
776.347900 1907.899292 540.045593
740.199036 1963.541260 451.111694
1157.993286 2005.279297 589.692627
622.578125 1970.209229 528.498474
791.645325 1890.206299 644.652405
810.469421 1886.860840 673.618164
1106.594482 1986.007690 386.096680
944.998596 1884.215332 644.681396
815.653442 1871.164429 624.077087
1038.674194 1794.972168 497.380829
648.730591 1958.866089 427.660645
768.430237 1908.169678 649.052612
704.690857 1952.878906 382.898895
967.949219 1827.798828 496.765442
1119.590820 1969.305664 478.419128
954.803101 1832.870117 535.501709
995.197266 1821.386963 524.728638
921.887573 1853.262695 521.128601
813.634766 1888.994019 598.778320
979.465027 1851.246094 738.209351
1059.697266 1835.310913 493.011383
987.438232 1809.559448 587.726196
1085.572144 1901.473389 619.845764
788.570007 1912.413086 576.572083
982.107971 1833.137939 413.096741
709.372070 1942.711792 381.009918
1095.781128 1924.275879 476.357819
1088.765137 1874.446411 572.189575
1007.607605 1810.278564 568.531494
1094.986816 1931.972900 438.931061
761.532166 1930.187256 682.500000
851.083191 1887.135620 398.887787
1086.824829 1855.766724 538.262268
863.810547 1857.754883 616.989075
1079.428223 1891.283447 418.296570
1087.519531 1916.920410 538.507202
700.580139 1970.048950 485.872467
668.010986 1986.356445 673.114502
1058.521484 1845.316284 427.477966
646.003601 1987.373047 566.604187
1030.619873 1806.916626 435.229553
1049.182129 1816.285400 539.601196
1104.745850 1855.519653 587.065613
1085.549927 1872.568481 552.763977
1093.855835 1913.099243 568.041321
997.465820 1828.733643 411.839691
801.677307 1911.206787 462.215790
642.860840 1998.917236 500.518372
1035.960938 1815.845581 605.235046
1020.527832 1820.981567 606.817139
1148.146606 2064.953369 398.401642
866.761658 1881.667358 655.274475
967.361633 1856.579834 740.234131
829.666626 1876.525269 650.002319
963.509766 1880.216187 671.781189
706.412842 1950.450562 415.299377
723.041260 1913.280884 645.767151
815.427063 1905.490479 398.273041
827.858215 1909.096191 366.856812
1094.645020 1937.521484 717.223083
1061.034790 1843.996704 467.573059
995.151306 1872.958130 699.032837
1066.667480 1828.449341 581.271423
980.811890 1850.446289 729.422302
1039.588257 1816.943726 605.273438
1012.297791 1891.389160 712.007324
783.353027 1936.282959 679.331970
837.875488 1904.440796 428.663147
1089.452637 1947.824707 652.020203
723.641296 1930.746094 407.196381
666.832520 1945.290649 542.921204
948.299866 1837.492920 493.895020
1093.458130 1940.161987 433.609711
1022.406738 1840.476074 338.421356
682.545898 1937.091675 599.069946
714.902771 1948.976563 512.648376
1015.905518 1832.201294 346.218719
1142.624756 2079.936523 398.252258
740.179871 1912.460571 584.880005
972.336487 1862.468384 624.618164
987.104980 1867.842529 665.380127
1037.418823 1799.282837 596.125732
720.820740 1902.717529 630.058960
954.032837 1837.437744 423.765320
830.202209 1875.909546 608.495300
1058.912842 1926.143433 696.502075
963.175232 1830.592651 466.395752
1062.877441 1932.470459 638.373779
734.179077 1964.657959 416.043854
1011.448120 1808.796875 589.779053
685.677917 2009.700562 706.858521
1000.323608 1866.831543 731.680969
904.052612 1860.399170 643.665283
1080.579468 1865.649536 530.481140
965.181763 1841.143799 460.146515
1017.811523 1822.273560 615.360779
671.371887 1926.940918 637.224915
1116.619507 1963.496216 557.151062
1113.464233 1935.468262 632.789795
916.904480 1902.005005 642.548096
905.173889 1852.144531 638.684021
1098.985596 1947.499146 440.615814
935.313171 1839.776123 540.973206
966.195984 1911.077148 510.074402
702.734863 1918.559326 660.248962
991.215454 1846.343506 681.887573
676.558472 1953.842896 388.545563
940.501282 1915.558838 454.484985
1107.826172 1977.102051 419.266113
729.684570 1905.704102 619.713989
1003.813538 1829.290771 398.249420
969.737061 1830.402954 456.952820
905.195496 1861.667969 582.150513
942.200745 1847.669067 479.179016
863.632690 1857.878296 636.705261
1145.325562 2063.317627 472.843292
1036.841553 1821.736694 343.870941
1023.674011 1837.152954 336.640656
1033.796143 1799.752686 490.463379
1079.669067 1878.233154 520.740784
1115.963257 1870.123657 600.200806
764.055420 1964.494385 705.039612
675.383362 1964.753174 383.172058
881.399048 1852.201904 648.391846
971.555908 1834.359375 473.472839
883.338196 1863.208008 579.418518
1102.832275 1844.211060 593.759399
960.887756 1830.131104 548.858337
1102.540161 1952.002319 515.539612
932.520508 1854.117188 428.490265
787.775818 1919.811279 440.659302
997.655884 1825.966675 601.689270
905.678833 1884.946899 386.142151
1034.802124 1844.431885 605.548340
772.380859 1901.446167 637.449707
667.327454 1938.150635 645.621094
954.123962 1853.768555 615.135315
1032.890015 1840.278564 374.710938
1054.160034 1847.955933 352.544464
902.781860 1879.755859 527.940857
638.343506 1959.550293 447.796326
778.569519 1907.539795 522.505005
983.519714 1843.756714 350.006836
650.596802 1945.846802 556.161377
1097.244385 1947.446167 659.725891
965.529846 1827.136475 533.523132
1075.004028 1940.175903 626.843811
1007.043274 1820.148926 434.810822
1054.743408 1822.434692 485.985413
1071.320923 1882.170532 342.066895
840.453796 1900.905762 412.675293
737.148560 1935.410889 449.516479
1099.798828 1956.909668 350.440125
852.775330 1943.163330 691.798096
1065.089233 1843.188110 539.714600
710.901794 1933.645020 418.931702
1084.844482 1956.576660 349.409149
999.103943 1844.583496 370.570557
663.602539 1936.988281 483.993805
706.017395 1913.049927 629.605652
715.143982 1928.072021 429.046173
662.980957 1931.367310 616.777771
1054.972656 1798.717163 488.825500
830.486450 1966.110962 679.334045
991.820801 1845.727417 700.913025
834.792419 1880.658081 653.406677
744.388428 1905.964966 638.792847
784.500732 1907.790527 375.523193
715.811829 1948.186768 391.739777
999.776123 1841.837280 372.842560
914.823181 1870.719971 410.938171
1113.072754 1948.461182 565.439575
884.934692 1865.614868 653.430054
947.541931 1822.585083 559.632568
1058.461304 1822.867065 338.723724
815.706726 1910.283936 439.935120
954.877014 1828.890625 485.333679
992.188171 1839.188843 372.488586
1019.822571 1812.253418 347.108887
755.579773 1923.721558 683.655762
1118.502075 2033.351318 376.965210
743.972290 1915.067139 696.862915
1158.623657 1987.496460 607.097717
1049.630005 1834.836426 606.099915
1140.250854 1874.367554 607.746826
1099.390625 1915.557007 558.710815
982.781738 1861.498413 649.871338
821.094604 1896.695923 475.098633
1008.786316 1901.421753 690.688354
1139.527710 2005.857544 618.657715
1046.978027 1795.086060 578.354370
1124.588501 2002.929443 479.568024
680.348206 1926.039429 670.593872
1031.649780 1824.487915 609.125000
752.250000 1902.377930 626.110107
1165.005371 2062.211914 355.976624
966.116333 1856.887695 764.221008
707.923645 1953.775269 387.955292
824.903870 1891.568604 575.515198
1097.946533 2007.670776 667.708801
1025.531738 1863.409058 762.048950
1114.105347 1982.817871 491.785126
1127.145386 1921.271484 617.383728
971.382568 1829.668823 494.578339
1069.647095 1888.469971 410.190216
737.000366 1932.971680 437.200928
1083.933228 1861.864624 492.422607
1036.860107 1960.441162 644.829163
811.878113 1901.319946 553.757385
865.038757 1886.830811 522.131958
963.591309 1841.728271 407.838654
932.628479 1843.106567 566.427307
1121.308960 1960.986816 518.644348
742.461487 1932.638062 392.523590
989.574890 1811.866211 485.693787
759.083374 1912.122314 653.840881
1061.928345 1833.468262 546.173889
996.095398 1878.970215 691.296509
689.452393 1940.030151 421.884918
935.471252 1854.435669 499.308685
999.428162 1859.677612 641.039246
944.604675 1852.652344 389.119843
1139.571289 2033.934692 536.138916
942.813660 1891.765869 633.861816
853.207581 1885.974487 531.818970
1104.402100 1959.375122 428.011169
865.460510 1903.453491 415.618561
987.377075 1832.363037 394.164276
647.502502 1985.948608 582.135986
1104.157227 1969.632935 633.642944
1075.692261 1814.983276 561.571411
1139.730469 2078.045898 368.949066
661.806519 1946.508545 575.569153
900.530884 1884.432983 465.905914
853.755066 1893.175171 673.642395
919.456360 1886.235229 405.128815
748.202759 1924.351929 684.647766
974.142761 1861.469238 638.108459
916.510681 1874.185791 403.190186
1061.716064 1853.100708 390.605682
760.180115 1912.754395 657.264099
1060.348633 1830.415771 549.324097
1067.971069 1840.769409 547.812927
727.434631 1923.513062 707.519226
1064.474609 1804.250610 601.715698
998.449768 1887.096191 628.247986
671.784485 1958.690308 519.945679
711.206055 1925.184570 631.511597
996.440857 1825.886719 419.250824
1036.550903 1795.009155 555.731628
831.655396 1894.067017 502.060028
636.522156 1953.003296 548.835266
1018.164978 1812.657593 599.945862
1058.737305 1852.885986 361.522705
824.563965 1873.779053 610.306213
1064.211426 1815.560059 542.225098
1056.732178 1823.083618 553.570557
1044.227173 1807.821655 540.024780
937.972900 1868.143311 431.147675
682.628845 1941.652588 553.771240
1091.482544 1903.935669 430.008881
1160.851440 2022.049683 624.955872
998.075806 1812.474365 518.190186
1077.428223 1873.089111 531.762024
957.159729 1813.633057 539.768433
744.302246 1945.250488 695.217834
981.747131 1864.803589 661.335449
1086.086426 1920.202515 407.535553
713.765259 1909.929932 636.820374
1089.549927 1942.296631 409.047119
1075.606079 1934.821411 677.922546
1149.694214 2051.127441 543.662415
1071.239868 1896.453247 381.369751
1095.977051 1925.430298 419.251740
1066.852905 1827.886230 532.677734
1147.163818 2046.649414 560.508667
954.729309 1829.406738 551.706726
895.497986 1901.089844 452.043701
1033.868042 1815.083252 550.388489
1136.170654 1979.826172 631.736267
1095.818359 1898.354126 608.290405
1104.565552 2017.536743 631.897705
666.846069 1968.221558 663.199768
966.276672 1876.258301 690.157410
721.015808 1946.339966 498.676300
1024.518188 1817.129395 581.504944
1112.260254 1929.698975 551.776733
811.809692 1906.575684 483.298706
761.865417 1899.753540 614.703674
751.505920 1914.822754 684.587708
1006.653564 1809.425415 456.144379
1008.642456 1874.565308 705.130798
878.062378 1891.675537 446.719055
1044.069458 1798.875854 545.549011
775.212036 1905.041870 627.134583
736.482300 1951.508911 704.843018
1080.969482 1946.685425 355.778778
1018.161194 1803.492798 506.673279
749.515808 1909.807983 616.794312
1008.220642 1901.476929 739.009338
1022.517029 1809.139282 577.783569
978.737732 1865.221680 623.895508
1099.544678 1837.430054 589.938171
944.710266 1860.920654 373.122162
980.817322 1860.429077 675.633301
1146.781616 2079.830322 460.984680
813.728271 1898.490967 570.988831
991.985901 1814.628784 473.960388
950.036682 1877.585938 653.431274
1070.885132 1890.754150 370.114899
1137.192139 2019.475464 553.244995
682.632385 1940.739624 487.576141
716.410095 1959.575439 447.305298
831.194336 1898.069946 486.216919
972.343994 1865.899902 729.526184
1057.201050 1847.483643 337.781982
979.241028 1822.371094 568.241760
848.891418 1879.058105 563.695068
853.789612 1913.332764 656.543457
960.881714 1858.431885 692.968994
1100.540039 1920.511841 669.664001
778.606873 1906.536499 530.655823
831.777466 1893.366699 506.473053
1099.311646 1996.870239 394.660370
1044.218872 1796.590698 535.909058
1066.225220 1823.736206 539.395569
1120.536865 2022.150635 471.791382
1108.254517 1956.338867 698.933960
726.876404 1922.098389 588.175842
797.307556 1895.384766 651.101501
684.240906 1996.321533 699.706360
750.057678 1915.376587 536.432068
801.201843 1901.482544 448.357819
736.779785 1909.701538 649.641113
973.602356 1865.661865 622.164612
765.676758 1908.491333 655.888977
1009.812561 1868.218506 635.033752
785.946533 1893.151978 638.507874
764.701660 1919.898926 379.016327
949.292480 1832.671753 589.600464
1118.160034 1964.246094 565.742981
650.859253 1939.028320 643.586182
1072.464111 1923.336914 625.748474
707.373047 1943.516357 410.254486
950.056396 1836.695679 432.421570
1082.707031 1913.969238 386.333496
788.136169 1934.499512 369.072906
734.226501 1926.359131 559.815369
1105.243042 1981.256226 661.006287
1085.865723 1843.598633 552.684265
1139.524048 1914.479614 602.016113
722.178528 1933.043091 496.625854
833.153442 1883.228271 601.337891
1077.097046 1842.106323 575.282776
791.906250 1920.097534 427.836456
747.677429 1952.234741 446.165131
1026.245117 1818.832397 401.111237
681.150940 1945.025269 436.749847
1026.549683 1817.924561 427.853302
1033.112305 1811.391724 501.358643
942.375000 1864.527100 377.428833
965.175110 1880.152710 662.401855
1112.583984 2004.221436 382.349396
1008.209167 1820.961304 536.290222
980.982544 1822.715698 449.514557
982.484924 1848.256592 372.689758
806.363953 1986.792847 694.323120
695.350464 1954.287842 390.877350
970.210938 1829.604492 610.287170
1005.559509 1890.648560 679.390442
1139.376465 2089.087891 365.278625
906.339539 1854.659668 356.761261
1068.940552 1871.606567 448.845917
928.501099 1858.316284 563.993164
770.205872 1915.570923 509.089996
1103.397217 1945.976685 481.794189
1076.408569 1851.528809 609.568726
1045.337769 1820.647705 603.743286
969.906433 1835.122314 426.889038
1080.413086 1875.188965 531.085205
925.099487 1859.609131 564.164246
1089.893188 1848.358154 598.087585
761.351563 1921.862915 379.636871
1012.105164 1814.979736 496.026184
708.428162 1943.658325 559.805664
801.255737 1884.307495 641.853699
746.291443 1923.471191 685.542603
1053.192871 1822.171997 604.592773
1112.460327 1992.954956 632.093567
1075.047119 1878.248169 340.631165
834.312805 1888.298584 558.360901
837.865479 1880.992920 674.982483
961.229004 1867.559326 694.869751
1069.080078 1854.975586 481.811066
972.341125 1867.640137 634.917847
1152.424438 2000.788452 587.497253
1052.409546 1847.558472 388.732819
714.092468 2139.424561 686.727417
850.013611 1889.770386 511.813599
1060.351440 1802.747559 536.590332
815.692505 1903.626831 512.944458
1009.207214 1863.162109 681.992554
1177.474487 2001.888184 610.654419
1057.123047 1792.941528 587.209045
1060.800293 1838.672974 489.516632
1082.547974 1948.013916 365.883362
1118.683350 2009.749756 425.325684
726.048035 1941.968384 702.643005
1015.776062 1816.547241 416.143219
1009.575562 1835.880371 386.642578
930.475220 1832.265869 483.124512
819.457153 1877.367432 624.740479
1125.409058 2031.222046 401.918854
939.677917 1881.781006 350.867798
932.940247 1874.651855 420.973846
1099.656738 1939.635620 714.883301
913.679443 1871.217163 377.303772
747.475281 1944.663696 373.027832
718.349731 1922.158325 562.632935
908.741455 1859.950684 573.859680
964.877930 1820.473511 600.908081
795.497803 1906.905029 600.501648
1047.218750 1797.277344 445.382965
1083.088013 1894.012207 499.003906
729.892090 1912.211914 636.300964
1095.222534 1953.896606 424.698303
940.243103 1877.289307 622.969666
999.641541 1861.284058 768.550964
1001.633179 1817.533203 503.816925
1135.848511 2016.795776 566.929932
1093.446411 1834.986206 594.972656
956.873230 1878.355957 646.304932
833.438416 1911.364136 455.100922
988.638184 1812.224731 505.405212
976.943115 1821.736450 553.307678
795.807556 1913.486572 544.067566
1088.708862 1831.069946 596.686340
1020.560120 1835.341553 399.522156
905.877380 1861.503052 560.559265
1087.288818 1902.247437 510.581360
832.237366 1897.817505 424.098297
1000.800598 1890.851318 667.761841
1069.132080 1860.519531 427.772736
1063.719727 1855.213867 398.627228
1049.353149 1813.689453 575.881653
1040.264526 1814.075806 577.640198
960.079712 1831.644043 509.287750
1103.212524 2003.573975 360.198639
1056.067383 1825.954346 541.550049
831.207703 1871.183594 612.986389
1139.879150 2069.193848 433.172272
953.969360 1831.719360 552.772583
1065.504150 1850.649902 552.993347
1009.949463 1832.221436 396.819092
1027.000366 1803.700439 460.088196
841.180481 1896.503418 647.085144
1060.638306 1807.284912 347.720428
851.591064 1883.236328 377.236481
973.955444 1824.984009 453.874725
862.079590 1880.728394 654.710754
1058.786377 1871.333984 616.063293
1061.215454 1800.870728 528.243958
954.771423 1834.343384 459.360138
1009.895020 1818.815552 584.478027
931.955566 1837.444824 604.317566
1100.345947 1965.967407 400.900330
802.753967 1911.763550 399.174866
724.417847 1937.154907 460.257904
927.148560 1842.993774 601.409119
850.283508 1863.295166 622.161133
972.122559 1878.054321 642.804382
918.343994 1865.547485 428.553314
668.856689 1962.438599 465.462555
710.887085 2124.632324 692.089417
811.221008 1880.559937 604.656555
941.636292 1881.772705 629.668091
1066.483643 1934.777222 650.312561
819.359802 1874.694336 642.921448
1109.349121 1962.762695 681.662109
918.640991 1881.763550 361.259399
731.151733 1911.549561 603.743958
830.083191 1886.411865 594.951050
732.419067 1953.004883 698.521912
1099.747803 1934.192993 508.618164
1089.276001 1927.563843 523.922424
929.229797 1884.191040 644.695129
896.339111 1902.253906 432.275360
803.631531 1900.231934 512.843872
1000.697205 1882.984375 686.346985
1125.879883 1890.820435 611.679565
939.657043 1863.089111 627.238586
785.459900 1929.350098 375.729462
1056.124023 1832.311768 436.053253
667.547363 1942.293701 558.902832
736.588318 1926.796387 689.789795
1061.864624 1912.822021 731.442505
1095.866333 1912.603271 643.076050
1115.997070 1963.302979 553.807007
1107.609619 1866.824097 613.250244
1112.556763 1890.406006 610.416504
1129.591431 2034.363037 424.196594
913.386963 1880.704712 371.175629
983.593567 1821.585205 587.207703
820.070435 1909.004395 468.500244
815.713745 1906.167358 470.977325
1099.270386 1947.555420 679.106445
758.172058 1930.973633 690.112305
704.903870 1954.247803 685.027527
1018.766663 1837.214355 354.310211
960.833130 1853.490723 344.779144
876.322815 1857.383423 632.657349
752.661194 1929.921143 481.074585
947.052246 1847.365967 623.804749
1000.526672 1830.250000 622.091003
931.591919 1842.618774 622.531311
721.117981 1910.755615 660.630371
917.162659 1844.700439 589.330444
1037.074463 1800.107788 463.510498
991.320129 1830.292847 404.461243
1047.633911 1801.746216 437.278564
920.273560 1861.990967 387.408508
1044.993042 1930.402100 662.829224
786.506287 1902.899170 591.706177
1112.136108 1970.237305 636.429993
891.661682 1860.613159 636.065613
1029.131958 1815.690674 549.253418
759.430603 1971.264160 703.428040
1066.278442 1825.249878 521.896545
1057.649414 1800.136719 539.629578
1106.739380 1881.785034 581.091553
1014.275330 1850.761475 357.063477
729.163879 1923.575439 680.226868
808.016235 1914.280640 548.761047
983.323303 1902.775391 728.597900
947.899353 1835.827881 443.831146
1097.610718 1954.557861 397.160156
1007.255798 1840.592163 398.706879
882.274475 1847.846313 370.795837
882.738770 1875.728638 499.818573
1058.033691 1852.121460 335.805695
1134.334106 2034.504150 564.341980
1114.379272 1866.098145 592.877441
883.441406 1879.312866 505.718536
785.708557 1890.772827 635.516113
1126.777466 1995.769043 542.148804
807.346130 1900.938354 686.604248
1073.605835 1853.529663 495.288422
1008.754822 1805.156494 501.761353
875.450806 1871.585938 648.495972
1083.839233 1909.754761 404.041748
727.539734 1923.840942 625.444153
827.753967 1898.784790 401.433014
814.464661 1897.693481 503.956512
1152.101563 2091.107666 395.302277
1008.187317 1840.631104 358.542542
906.466675 1874.135620 452.084229
779.677246 1907.924561 581.543152
1050.361206 1925.357178 704.375366
696.317993 1957.300659 463.553558
792.935242 1910.032959 658.020996
664.876038 1995.026733 670.975769
695.336792 1954.040161 469.017639
1121.860718 2084.899414 389.817657
947.249756 1829.137085 495.948914
1072.826294 1849.235596 552.396606
879.146973 1875.689209 571.198242
815.262390 1902.284180 532.940430
1106.285645 1882.534790 616.464966
798.702515 1893.031860 657.843628
1102.889526 1960.350830 653.867981
971.890442 1823.398560 589.100708
1056.712402 1922.577759 640.040527
900.247925 1885.870117 523.678711
1003.200867 1868.063843 701.159851
1066.432739 1925.718384 664.814331
875.440613 1879.820068 459.504425
953.248108 1851.879272 390.296295
1083.873657 1874.364868 518.503357
890.518677 1882.567505 450.634369
1110.596558 1976.089722 649.843628
809.175598 1910.253174 409.777466
1006.289185 1860.008911 741.685059
1090.743774 1915.358643 458.097839
709.058533 1916.776001 642.765076
748.261841 1931.290771 500.096069
1102.446655 1944.990967 674.185791
1118.203857 1968.653687 546.027710
829.524292 1893.019409 540.113159
891.554138 1871.499390 658.052002
846.623474 1877.509033 601.636902
966.669800 1832.558960 468.043427
1068.206299 1805.944946 601.465271
910.539429 1889.468506 639.788269
708.187256 1916.969849 644.876343
1153.474243 2077.008789 365.257294
991.591797 1809.994141 562.387817
759.968750 1909.011475 604.800720
1135.521851 2053.587158 430.659668
988.778564 1812.098511 599.076294
792.816162 1882.798096 628.375366
1112.935669 1969.359741 513.452454
1071.098755 1853.755737 471.857330
736.291260 1918.126465 686.196777
1050.746338 1878.812134 342.859436
960.129456 1824.035034 559.243774
