ply
format ascii 1.0
element vertex 1330
property float x
property float y
property float z
end_header
-384.118011 1637.616455 1329.390259
-517.363647 1740.213379 1122.850464
-390.953552 1824.820190 1181.228516
-559.051086 1824.803223 1189.413574
-571.081238 1734.444824 1103.794678
-537.783081 1909.570068 1256.059570
-383.099091 1625.584229 1370.994995
-464.541504 1771.480713 1159.805176
-583.698059 1625.923584 1243.683594
-423.885040 1533.909912 1429.776001
-366.352112 1553.097290 1455.996948
-290.739716 1766.586792 1316.289063
-375.120941 1727.495239 1239.755737
-531.457092 1919.167969 1276.163086
-599.640076 1825.485107 1178.757935
-362.633972 1600.459351 1407.086426
-363.435303 1689.268433 1305.504395
-504.529480 1551.960083 1358.297485
-365.122681 1757.660400 1371.994507
-557.012024 1811.850586 1189.324463
-407.586304 1536.118896 1422.063110
-509.235931 1840.227173 1207.114380
-402.382874 1540.063354 1414.100220
-392.999512 1509.684082 1476.429077
-523.049133 1921.362671 1268.117554
-424.159485 1820.589966 1195.863403
-557.934021 1699.099121 1148.572876
-617.921265 1852.194702 1194.284668
-458.733215 1554.203857 1405.773560
-353.083618 1590.107422 1488.670532
-514.229248 1760.527100 1139.419067
-504.092041 1542.724976 1381.745728
-567.095642 1561.196289 1557.172485
-356.850220 1892.062500 1318.754883
-368.535583 1695.996582 1313.423828
-371.664581 1611.556885 1467.593994
-401.345459 1847.891479 1265.023926
-602.285645 1506.274780 1357.804688
-673.863831 1949.930664 1275.960938
-547.328613 1629.909546 1258.428467
-590.854126 1585.119629 1269.367798
-351.139740 1748.599365 1318.953369
-631.918579 1859.023926 1198.765991
-377.793365 1550.946411 1445.717041
-573.104919 1567.165161 1299.440796
-489.561005 1569.915161 1359.588867
-378.600647 1747.611816 1203.944336
-551.804382 1931.906006 1289.427734
-563.734680 1923.702637 1280.183960
-380.815155 1809.134521 1199.531006
-609.907043 1539.113281 1300.555420
-414.044067 1604.024048 1357.718262
-649.200195 1519.612915 1507.977661
-582.080688 1552.576050 1307.053101
-609.309509 1638.174805 1174.619019
-572.004089 1746.723389 1088.243896
-404.697784 1852.728882 1238.461914
-609.516968 1776.626343 1149.536865
-666.097351 1897.045410 1240.654053
-403.420746 1841.882202 1332.267334
-596.713867 1458.150146 1390.531982
-537.630249 1895.510742 1257.835693
-449.220551 1969.086060 1310.327637
-365.740936 1743.569458 1243.000244
-533.820984 1476.500366 1483.511353
-572.868835 1714.116089 1115.724731
-590.705688 1482.998047 1412.258667
-429.276123 1931.109985 1322.666748
-432.001343 1598.678101 1350.754517
-384.722290 1828.426880 1211.568726
-635.473389 1911.158569 1262.215210
-416.171509 1897.252930 1287.398193
-386.053284 1775.968506 1235.483887
-332.141083 1765.924561 1290.861938
-360.695038 1737.892578 1312.330200
-469.434448 1727.703857 1143.536743
-617.879333 1557.760010 1272.265625
-410.552124 1484.793091 1487.425171
-626.603210 1882.884888 1218.298096
-535.884583 1513.047974 1379.074585
-417.809998 1711.626343 1196.206177
-264.495422 1791.202148 1307.318970
-439.299286 1718.586914 1190.701172
-362.539703 1768.364014 1203.271851
-382.579620 1638.073242 1331.508057
-351.443634 1775.114868 1305.141846
-497.726501 1694.594971 1170.471924
-488.163666 1874.202881 1230.047607
-553.496399 1539.373657 1353.326538
-486.930359 1708.730957 1150.291870
-639.283020 1899.452271 1233.410278
-484.355804 1835.750610 1209.909912
-412.728912 1601.418701 1375.980713
-406.691071 1793.708374 1188.029297
-513.011902 1863.009277 1230.867188
-585.765015 1527.239136 1326.178101
-340.439758 1749.247681 1297.536987
-352.530182 1904.846436 1320.917236
-404.386017 1864.924683 1257.477295
-353.612366 1568.639160 1493.381714
-371.311584 1822.434204 1224.135498
-380.481079 1637.242920 1504.134521
-444.099609 1874.795288 1236.027222
-536.505127 1642.980225 1239.979858
-518.931946 1776.180908 1151.023315
-375.608978 1759.370605 1195.632813
-572.082703 1632.625488 1216.301880
-487.827911 1515.630127 1428.558594
-406.066772 1840.456909 1276.630615
-441.389832 1691.643799 1230.785278
-353.130829 1569.583252 1500.035767
-676.282959 1940.367310 1284.074707
-374.045166 1589.465820 1438.154419
-562.994019 1733.855957 1101.973511
-595.145630 1738.805908 1115.711914
-408.805176 1896.308716 1303.322510
-381.401001 1726.547974 1229.489868
-495.746948 1687.653931 1179.863525
-410.420319 1764.530029 1151.091187
-417.944794 1882.265625 1282.506958
-366.833405 1585.748779 1448.070068
-410.316498 1602.932129 1358.250977
-687.886658 1867.934937 1204.759033
-355.751709 1558.464355 1522.395386
-506.795013 1603.308472 1310.189697
-508.832886 1881.172119 1244.377808
-349.624817 1628.158936 1378.022095
-335.273712 1756.658203 1291.159424
-622.057739 1787.724243 1151.351074
-381.521790 1724.290039 1319.031738
-377.424622 1742.973877 1240.562622
-655.291992 1804.443604 1157.305054
-520.529175 1511.982666 1420.705444
-382.104645 1552.235962 1472.321167
-365.104828 1636.886475 1347.053345
-348.982849 1788.222778 1311.186646
-349.662781 1617.423218 1390.645142
-373.686676 1763.689697 1274.292358
-588.723267 1752.374756 1120.410767
-484.653290 1812.213867 1176.791260
-565.482178 1926.443481 1282.499756
-525.057129 1914.553223 1277.734741
-562.059326 1753.617310 1124.020630
-449.468079 1730.420532 1180.084473
-490.402344 1652.120483 1250.789917
-385.974548 1839.965698 1200.345337
-434.519592 1932.435547 1293.537720
-365.289581 1600.856079 1403.680176
-410.491089 1843.873779 1197.653442
-381.441620 1570.605225 1432.636108
-470.219513 1633.678345 1295.485229
-598.086609 1795.839478 1151.983276
-496.431427 1614.045166 1315.237793
-624.675476 1849.940674 1200.296631
-615.204590 1657.140625 1156.668457
-585.094421 1862.605469 1233.597778
-374.106537 1527.234009 1484.957153
-596.544617 1617.687256 1194.468506
-508.683197 1725.243164 1130.665039
-415.857697 1881.981445 1226.755493
-533.461182 1579.755371 1345.930176
-404.543732 1849.379272 1306.842773
-520.866882 1709.270874 1152.886475
-599.961914 1525.753418 1325.938232
-498.644623 1699.806763 1167.056152
-614.476685 1724.429810 1115.697144
-362.220062 1769.994385 1305.250732
-609.301147 1625.569214 1218.250732
-625.507813 1555.250732 1281.570435
-394.783142 1854.910278 1206.637085
-571.359619 1659.489868 1223.253174
-377.530090 1630.389771 1444.635376
-374.705444 1698.046631 1367.096436
-469.343170 1731.276978 1170.932983
-398.794067 1832.541992 1197.846680
-394.477692 1630.331543 1346.378174
-595.892883 1787.499512 1143.281128
-362.793884 1678.240967 1322.337036
-386.160614 1831.743042 1212.991455
-475.429718 1519.987793 1414.942017
-550.235535 1633.548462 1261.240234
-488.985382 1699.872681 1171.944092
-361.686249 1583.485107 1477.521729
-458.165466 1481.608521 1477.680420
-361.904358 1816.352417 1319.728149
-589.560059 1892.438721 1245.234863
-392.127350 1521.565796 1520.477051
-604.189880 1514.738647 1345.115601
-428.927673 1831.650391 1202.859497
-402.753418 1549.330078 1416.265137
-375.528687 1737.443726 1298.297974
-579.265686 1836.615601 1193.436401
-626.346069 1476.581543 1332.203613
-470.410156 1876.235352 1246.836792
-619.199280 1828.056396 1195.851074
-377.183960 1624.191772 1470.483887
-532.213928 1919.212280 1265.880493
-486.147034 1529.253174 1392.931763
-396.939636 1795.451294 1275.407959
-527.230225 1862.781616 1225.370361
-516.873596 1544.274780 1359.105103
-543.063660 1510.099365 1390.495728
-574.566528 1873.514771 1232.522949
-384.784363 1795.245728 1271.517944
-428.121399 1750.770996 1154.038696
-435.090210 1744.243896 1161.579346
-363.412964 1626.124023 1363.198608
-604.962830 1635.918701 1208.162598
-665.400391 1867.968872 1214.567505
-383.539551 1565.057251 1431.083740
-406.473511 1679.160278 1276.030640
-457.642700 1656.548828 1286.302979
-524.748779 1829.460815 1198.731201
-561.664917 1932.553589 1287.747681
-514.219360 1452.603760 1449.641113
-587.285767 1481.893921 1434.604370
-711.219116 1928.778809 1279.235962
-448.364624 1515.393311 1450.788086
-416.056366 1713.280640 1203.543579
-621.873779 1666.618896 1172.226318
-488.570465 1572.045776 1356.977661
-508.200958 1584.330933 1325.368286
-390.113159 1862.665039 1295.773926
-423.651611 1914.809204 1243.929810
-655.452026 1860.983887 1225.761597
-382.663208 1718.610474 1281.838379
-406.939667 1844.621094 1276.158691
-380.550751 1822.434204 1211.578735
-584.809387 1864.359741 1209.544067
-404.535919 1577.430664 1408.542725
-648.696960 1820.280029 1171.629883
-341.406708 1584.283813 1484.568604
-439.301727 1750.361694 1147.135254
-625.138550 1506.423462 1322.212158
-614.783813 1747.189087 1094.354614
-381.243073 1753.559814 1190.905884
-451.196472 1664.531494 1287.216187
-436.877747 1923.197632 1258.820313
-584.856689 1557.700562 1551.876465
-399.311279 1791.873047 1300.988647
-374.747528 1792.335083 1198.919189
-586.159119 1833.375488 1193.930054
-719.836121 1922.944946 1255.788818
-621.572998 1615.058472 1222.294312
-468.776581 1699.314209 1200.887329
-512.106506 1782.481934 1170.498535
-402.870514 1727.867432 1207.805908
-504.096741 1487.167847 1440.147339
-403.554749 1611.463623 1350.500244
-316.157440 1865.456421 1325.080078
-377.447723 1677.923218 1307.945801
-605.745483 1541.605225 1300.616211
-542.988953 1631.138184 1243.601807
-291.266205 1762.251709 1312.098999
-480.488495 1721.504272 1149.416992
-356.175842 1753.917847 1293.096680
-373.590393 1797.088013 1211.314453
-542.690125 1658.239990 1215.688599
-553.213318 1670.619507 1212.669067
-416.494385 1645.063599 1305.491577
-366.856567 1677.207520 1306.970459
-249.495438 1775.573608 1334.072021
-389.595703 1824.278809 1222.255981
-610.569397 1838.580688 1193.678223
-566.342163 1539.137451 1340.041504
-379.655182 1735.160889 1222.338257
-601.071045 1484.797607 1364.402222
-545.945618 1679.816284 1178.142456
-369.868286 1712.392334 1267.575317
-382.018188 1833.473755 1338.487305
-478.541199 1677.447021 1230.704224
-428.845581 1951.461426 1250.731323
-370.290619 1637.705200 1422.629395
-548.229858 1735.158936 1119.268433
-350.756287 1910.913086 1325.997437
-413.392151 1721.110474 1190.058594
-531.326843 1643.627808 1271.901001
-493.567200 1723.591675 1149.512329
-623.720764 1578.308716 1264.036011
-383.281464 1567.865234 1546.692505
-609.172485 1916.987549 1253.607056
-360.052094 1760.853149 1289.469238
-363.065216 1692.185059 1347.757935
-364.428406 1682.515869 1322.317383
-426.717865 1552.263184 1392.450684
-270.074097 1787.094727 1317.437744
-379.532898 1891.086792 1302.201172
-418.843140 1483.788574 1485.881470
-405.572784 1593.389038 1375.457275
-639.275818 1873.349121 1239.018921
-586.832703 1795.314331 1154.500732
-557.896729 1758.752808 1128.940063
-449.060760 1796.860962 1179.293335
-569.447021 1548.243286 1326.111206
-480.139465 1881.346313 1250.373901
-586.115479 1606.158325 1252.531616
-470.228546 1486.115112 1460.564209
-410.281830 1883.153687 1230.871338
-613.719421 1795.726318 1150.565796
-495.113892 1678.309570 1203.601440
-535.228821 1504.047729 1402.524048
-598.208191 1503.435669 1345.720459
-566.125000 1541.513916 1319.586670
-376.600616 1743.112305 1220.287964
-373.642365 1747.571045 1281.698608
-365.484528 1643.558472 1362.600464
-369.306915 1614.614868 1456.831787
-356.029053 1565.851074 1490.204346
-509.424225 1922.311279 1284.134888
-491.130402 1710.661011 1157.576416
-517.201355 1576.421021 1336.644653
-566.820557 1716.588013 1118.092285
-325.530975 1898.804688 1303.222290
-375.308380 1526.299316 1488.287109
-614.419373 1940.681885 1291.558960
-443.747833 1951.737183 1279.029419
-536.626953 1510.815918 1421.511108
-323.583221 1754.938599 1302.995850
-334.251343 1872.757080 1306.916382
-576.905396 1584.798096 1286.048096
-385.037170 1799.795654 1242.105469
-581.897400 1802.742310 1165.980225
-558.891785 1574.302002 1311.758545
-290.201691 1797.431152 1327.684814
-605.546448 1861.632690 1216.600586
-345.440216 1579.511841 1462.924927
-357.830322 1879.613892 1308.449219
-399.199585 1508.666992 1470.038818
-372.819153 1701.762573 1302.774292
-544.500488 1484.808472 1490.269897
-585.014404 1561.237305 1296.919556
-413.301300 1691.697998 1255.796631
-385.940033 1710.964478 1294.241211
-376.718445 1736.726318 1366.115356
-422.736237 1815.281128 1198.760620
-354.751282 1609.817749 1447.789917
-570.166626 1587.453125 1286.448486
-360.665009 1636.713257 1346.747192
-427.226593 1783.103149 1159.201782
-520.943848 1620.935425 1299.690674
-462.735382 1742.917847 1157.039795
-621.323364 1443.506836 1408.094849
-610.114502 1816.004517 1174.392456
-427.747345 1747.234985 1167.919922
-580.327026 1668.212646 1167.558594
-527.062988 1735.208252 1120.147461
-698.908508 1943.139038 1276.941284
-606.779968 1901.150635 1249.681396
-641.688416 1842.387817 1193.662598
-363.101990 1585.964478 1495.715576
-536.516785 1471.705688 1447.958008
-530.639038 1723.758057 1120.348389
-454.473236 1677.330078 1229.108276
-376.598785 1639.031860 1495.942505
-376.095062 1683.234863 1290.559937
-432.642639 1557.877686 1396.082764
-580.747986 1547.545288 1320.616577
-629.762695 1491.924561 1359.456543
-296.648743 1781.581421 1305.947754
-510.978455 1884.434814 1248.852783
-416.299500 1810.286011 1196.875244
-467.397919 1761.004028 1132.356445
-536.251831 1526.649414 1533.722778
-473.910339 1698.056030 1181.554443
-437.784912 1698.423828 1220.219971
-607.693481 1516.698486 1322.520630
-533.983826 1650.722534 1250.306396
-465.898621 1584.084839 1356.809570
-366.639984 1742.404297 1246.177002
-291.160004 1770.692017 1312.069214
-296.178528 1765.278564 1311.986572
-406.341370 1732.598511 1204.362793
-401.459045 1850.145996 1262.276367
-370.690063 1666.154175 1361.906372
-394.130402 1827.152832 1243.586914
-595.976074 1596.390747 1246.003418
-539.700867 1557.664429 1343.515869
-336.307739 1795.161133 1320.814819
-406.420868 1529.885132 1427.130371
-416.062286 1503.735596 1452.098022
-591.940674 1780.857544 1142.630615
-387.938049 1661.975098 1315.988159
-506.238739 1705.307861 1147.779663
-434.445160 1777.225830 1170.136353
-280.420258 1788.711670 1312.574219
-447.897247 1702.817383 1193.689575
-601.791931 1739.186401 1097.916992
-399.757721 1640.878906 1325.694824
-626.401672 1519.043335 1295.023682
-358.791962 1741.157715 1291.104248
-469.817657 1572.753174 1367.122681
-405.536072 1507.785278 1480.963257
-416.096191 1603.787964 1350.340332
-379.400146 1785.934570 1302.151001
-342.651031 1758.986816 1300.192261
-418.412537 1809.211060 1186.998291
-375.799927 1701.001343 1264.765259
-437.824799 1695.279785 1206.376953
-360.943054 1617.516479 1361.013672
-634.065430 1898.231201 1243.380981
-462.579559 1982.063843 1296.715454
-568.673706 1619.371948 1252.827515
-640.887756 1789.247314 1131.017212
-519.392456 1545.453613 1369.712158
-369.272156 1676.024292 1304.598389
-435.218811 1524.376465 1438.031982
-481.751251 1854.264282 1222.815063
-315.806000 1760.719482 1308.881226
-311.482056 1755.315918 1320.612183
-371.995148 1767.401245 1193.054565
-367.721558 1919.348755 1331.408325
-553.946594 1929.424438 1285.607910
-465.073547 1788.349365 1171.992432
-471.920746 1692.442627 1192.478394
-372.061035 1894.994141 1292.350464
-543.021179 1781.941528 1152.759399
-513.191162 1689.879883 1238.051880
-626.699280 1578.585938 1255.576782
-470.457214 1705.386841 1174.766724
-386.219910 1865.389893 1284.232300
-596.941711 1456.729248 1412.077759
-515.913330 1614.577637 1309.904175
-587.558044 1541.626099 1321.556396
-353.665192 1801.395508 1314.985962
-380.779724 1707.568604 1319.466797
-347.537476 1568.024292 1469.639404
-580.741943 1608.301147 1274.279175
-475.126404 1665.697021 1261.990356
-575.945496 1915.275146 1271.149414
-532.622375 1822.934570 1179.497803
-581.835205 1479.447632 1437.679932
-457.840240 1776.941528 1147.724365
-401.046478 1543.683105 1419.703125
-627.703796 1837.359741 1188.284546
-654.403931 1872.781616 1218.915161
-515.554260 1702.808838 1156.740112
-458.022919 1476.992310 1491.044189
-406.802704 1919.441284 1336.231812
-381.371948 1835.061401 1250.759399
-563.600708 1674.616211 1168.596436
-493.135925 1681.077637 1185.514282
-365.735931 1737.389038 1223.791748
-382.692871 1757.759033 1290.289795
-433.712250 1494.145874 1463.468994
-605.280334 1837.126953 1197.291504
-507.708771 1698.090698 1168.350830
-422.389984 1776.728516 1381.155640
-513.173035 1730.109619 1133.847290
-429.395660 1609.625366 1356.995972
-376.665131 1615.465942 1356.345825
-533.462585 1671.279175 1186.293701
-383.873383 1779.431885 1305.400879
-370.255402 1563.317383 1447.930664
-406.544678 1739.699463 1176.169067
-624.648743 1532.698364 1281.913330
-383.561615 1722.159424 1230.105103
-528.581909 1833.747192 1200.950684
-594.717957 1851.823730 1209.458984
-559.372620 1675.595215 1172.056763
-408.880157 1546.259644 1555.633423
-379.393921 1730.654785 1305.859863
-402.474426 1832.532471 1188.192993
-593.332031 1933.228516 1299.618408
-409.346283 1652.497803 1304.016724
-404.856842 1858.364136 1248.063721
-323.914429 1757.789917 1308.594971
-581.796509 1845.433960 1202.057495
-575.448242 1930.857422 1284.882446
-503.323029 1731.567261 1136.991211
-595.132385 1692.848755 1104.984863
-398.950531 1741.641357 1186.347656
-601.690308 1894.754150 1245.675293
-570.964417 1743.635742 1103.077026
-609.824707 1540.374146 1284.346802
-461.503784 1547.401123 1393.223022
-502.363220 1517.901001 1394.996582
-424.267181 1559.125732 1396.814697
-518.312866 1573.678955 1358.812500
-516.597351 1643.365234 1256.101807
-565.874390 1853.875488 1219.347290
-536.520935 1915.595947 1273.773926
-362.285400 1629.354370 1409.796387
-531.059937 1725.623901 1118.120605
-360.700104 1740.055664 1315.334229
-460.396332 1889.195190 1249.229614
-395.219055 1710.168335 1215.065918
-400.840973 1539.592529 1421.455322
-354.985779 1722.788696 1308.302368
-496.513519 1795.263550 1167.803955
-442.970612 1596.913330 1346.516113
-405.662170 1743.534302 1173.587769
-434.475342 1677.703735 1274.652344
-501.413177 1842.602661 1226.066406
-420.331085 1875.438599 1223.615479
-497.427124 1664.775269 1244.499023
-609.948547 1466.317749 1387.338379
-492.114716 1798.887085 1169.439697
-560.339539 1874.852661 1222.193359
-672.367432 1868.337158 1218.588013
-358.209656 1620.225342 1392.846802
-394.668884 1797.526855 1178.043213
-318.115784 1801.976196 1331.331421
-407.106384 1846.013062 1283.284302
-641.172913 1897.511963 1243.612427
-518.873352 1756.779419 1132.874390
-610.662720 1470.903198 1379.805786
-584.590393 1824.572632 1180.014771
-404.876068 1614.508301 1344.948120
-541.691223 1887.381714 1235.619385
-413.301208 1498.242554 1455.439453
-307.237274 1803.304932 1317.234741
-461.395691 1960.647949 1304.586060
-687.845459 1930.305054 1259.527344
-478.133270 1571.894775 1363.909912
-509.523865 1824.467041 1196.485840
-545.803528 1936.042847 1293.946899
-505.566742 1464.683960 1445.352905
-448.585724 1693.823364 1244.862061
-412.558624 1872.419189 1286.466187
-394.162445 1764.476929 1169.890381
-584.329895 1685.048950 1147.421021
-462.585571 1748.335693 1135.352173
-587.788818 1525.793945 1322.974609
-380.794708 1880.099854 1298.847046
-387.221436 1690.219482 1267.330566
-405.864502 1513.786255 1466.646484
-346.293579 1668.627075 1346.719604
-693.057312 1901.544189 1228.088867
-488.728973 1550.154541 1555.873535
-677.845764 1866.843750 1214.680908
-614.247681 1892.922119 1245.238037
-448.433258 1494.843628 1443.760864
-532.161194 1870.641113 1232.064087
-609.060242 1860.120239 1202.261108
-363.673035 1580.336792 1507.827881
-529.845764 1721.613892 1134.928711
-435.912476 1497.165405 1453.429810
-371.689606 1725.630859 1353.361572
-463.862122 1610.779663 1323.861816
-484.330719 1627.119629 1300.029907
-417.072876 1892.556274 1258.415527
-374.792694 1795.525269 1261.385010
-622.330017 1769.854492 1100.505493
-577.668518 1658.847412 1176.066772
-477.660065 1747.698120 1125.365967
-580.653809 1488.335327 1437.738159
-572.838379 1644.340454 1208.769897
-386.889587 1858.027588 1305.913086
-592.308411 1627.063599 1238.974609
-415.310455 1878.334351 1296.969116
-355.925171 1662.429321 1337.940918
-610.570313 1739.320435 1090.010986
-448.906281 1693.811035 1215.643066
-380.631805 1762.027466 1207.098267
-413.770294 1502.596802 1472.718018
-591.751343 1498.173462 1439.253540
-604.740845 1677.721802 1149.319824
-352.213715 1571.931641 1464.551270
-269.627411 1768.371826 1326.475586
-426.785583 1601.838501 1346.494385
-360.661987 1647.851685 1346.572510
-577.085266 1547.316650 1319.763794
-410.699432 1593.885986 1384.690430
-481.166351 1668.904541 1219.433228
-436.312134 1485.292725 1481.288940
-442.826263 1486.164795 1460.731323
-509.916748 1780.938110 1147.668335
-560.435608 1894.292725 1238.370483
-612.690247 1523.636719 1342.544312
-516.634949 1541.609741 1376.787720
-632.942627 1885.093262 1235.225586
-394.627594 1530.264404 1479.057617
-531.106628 1735.284180 1126.841919
-470.919220 1665.748535 1263.397949
-385.929626 1770.287720 1303.844971
-612.115540 1494.631470 1368.304443
-441.317169 1692.715088 1217.145630
-420.164581 1832.664551 1200.893311
-529.941162 1895.028687 1254.572632
-388.584778 1559.966553 1427.084839
-380.624634 1584.268921 1418.882813
-425.506165 1906.766846 1234.158569
-614.462341 1613.845703 1228.532227
-399.887146 1640.209839 1334.306274
-393.975830 1707.913208 1225.503052
-365.743469 1604.327881 1367.221924
-634.902527 1852.229492 1201.802002
-378.847107 1678.204346 1285.924438
-564.403625 1541.102051 1342.312622
-634.032043 1773.573364 1148.169678
-685.155029 1888.648560 1241.697021
-416.574707 1839.103027 1203.346313
-423.463013 1912.285034 1276.355835
-488.031219 1546.491821 1408.853882
-437.598389 1488.294678 1454.172607
-538.540283 1814.397095 1185.184204
-345.550812 1644.098389 1367.734131
-500.282623 1686.972290 1193.058594
-610.524292 1759.345459 1122.556152
-486.414978 1681.748291 1192.612183
-606.337646 1586.341309 1249.354980
-554.113953 1762.988281 1126.590698
-349.907257 1741.087036 1328.625366
-478.820404 1633.163940 1294.493652
-253.620346 1782.658447 1328.617554
-584.085205 1473.828003 1435.842285
-571.789307 1653.776611 1191.096436
-563.441711 1581.774536 1295.398926
-370.068695 1773.521729 1182.577393
-548.513733 1608.349243 1286.272095
-540.446411 1460.808594 1439.414795
-417.048859 1923.704102 1324.887573
-466.707428 1540.150269 1418.013794
-482.526581 1531.256836 1444.682617
-585.425476 1649.524414 1193.456421
-530.055176 1756.547607 1111.229492
-366.440460 1701.794189 1341.475830
-394.641998 1544.336182 1430.135376
-384.164215 1598.340820 1415.413818
-475.941925 1723.973633 1154.896362
-349.502777 1768.524902 1290.940430
-401.890625 1644.364624 1313.925537
-441.001801 1568.409546 1392.417480
-445.088989 1682.071777 1295.318970
-393.734497 1700.822144 1234.449707
-430.121307 1649.377930 1296.753418
-432.977966 1637.195679 1315.931885
-405.311371 1704.519775 1235.691284
-583.036438 1641.543579 1234.501709
-586.414124 1702.642578 1140.149292
-535.273865 1667.711670 1229.016846
-293.272614 1788.185913 1321.472656
-583.114319 1793.161743 1160.017578
-389.869995 1710.979980 1242.019287
-419.235657 1794.538574 1175.459351
-597.693542 1626.281738 1215.388306
-610.741516 1528.325806 1311.903076
-370.144012 1729.930908 1290.510376
-579.263855 1834.831787 1183.715454
-406.392487 1888.392578 1243.843750
-583.596497 1515.901489 1357.417603
-486.569183 1484.476318 1462.732056
-600.661133 1693.654785 1117.329102
-509.505402 1608.568359 1294.402954
-486.818939 1474.828247 1467.744995
-552.139771 1568.797119 1353.235352
-562.886047 1526.636108 1358.170654
-470.212891 1932.467407 1278.174072
-370.714172 1600.689575 1437.396484
-432.164398 1677.225464 1274.318848
-371.015930 1598.606201 1383.475220
-389.469269 1835.563110 1206.005981
-448.805542 1477.743530 1449.324097
-459.612640 1639.250488 1305.559814
-552.039490 1524.966064 1369.030640
-472.638641 1722.184937 1182.507568
-626.304993 1579.101807 1243.749756
-425.877625 1545.549194 1409.119385
-393.125702 1860.054810 1300.507813
-470.400879 1850.765503 1223.991333
-587.969421 1509.128784 1410.884644
-457.641266 1717.562500 1183.134277
-622.930786 1588.409790 1228.338135
-420.550934 1767.824829 1162.883667
-371.083893 1733.833374 1261.579712
-486.978821 1547.513916 1373.407227
-614.135071 1614.253418 1204.066162
-369.252838 1636.835327 1338.810303
-373.054779 1644.940308 1416.639282
-373.586945 1556.944092 1450.737671
-399.043793 1674.672119 1280.703369
-620.828918 1784.473755 1156.842041
-341.659058 1757.067261 1316.811157
-429.054230 1914.127319 1246.024780
-599.715393 1446.749268 1414.161499
-420.475555 1703.848022 1226.348145
-393.266449 1762.637451 1196.798218
-614.726685 1515.816895 1316.057251
-424.228943 1643.325195 1311.985718
-588.289185 1868.216553 1220.356079
-489.087158 1532.359985 1400.915894
-610.220093 1842.982422 1198.448608
-394.501892 1536.523438 1445.793213
-352.969940 1755.800903 1300.784180
-387.739288 1696.035156 1262.924194
-531.320313 1815.700806 1181.246948
-487.938721 1802.082764 1179.618774
-380.969849 1586.581665 1424.653076
-458.709869 1572.067139 1374.278320
-680.786255 1887.938599 1235.300781
-468.152374 1595.032349 1333.664185
-493.184021 1967.932495 1300.508423
-411.144653 1715.201904 1212.459473
-611.380310 1722.991943 1118.819214
-556.497009 1450.417114 1451.866089
-596.045410 1522.043823 1259.680664
-570.686829 1860.175903 1218.632935
-611.040710 1628.287842 1208.044189
-364.066284 1599.582397 1468.354980
-406.608917 1540.370239 1456.744263
-378.062927 1894.845215 1316.096924
-380.424561 1789.713989 1192.167114
-456.427856 1609.273315 1341.755981
-386.172852 1796.620728 1187.862793
-405.590759 1764.934937 1158.330811
-306.788635 1736.999390 1333.573730
-417.145874 1631.533325 1331.856567
-587.367676 1889.327271 1241.136841
-464.961700 1585.674316 1376.505859
-473.162659 1681.474365 1227.947266
-427.671326 1590.537720 1368.126099
-411.490326 1870.871582 1213.623779
-438.049164 1835.078613 1197.532471
-389.922699 1677.950439 1277.549683
-396.187408 1529.039917 1474.266846
-525.846802 1676.743286 1183.724976
-388.285828 1720.468140 1211.144287
-360.966766 1656.543335 1325.257690
-674.802185 1859.623535 1183.241577
-371.400452 1736.936279 1218.971680
-458.114197 1944.017334 1279.393188
-505.287140 1548.821533 1386.252197
-433.276031 1732.986572 1186.810059
-667.218262 1841.916016 1193.925537
-475.673950 1680.363525 1196.130981
-340.026062 1753.560547 1304.993164
-369.993103 1628.210083 1349.796021
-565.860962 1729.596436 1127.824219
-614.796326 1476.995605 1364.686646
-612.493164 1857.565796 1209.735229
-498.671844 1723.782349 1136.453491
-437.281403 1724.505615 1176.883545
-371.737823 1758.529785 1250.166748
-636.590271 1878.027710 1227.276978
-597.556396 1504.389282 1341.648315
-577.506531 1840.467896 1204.014526
-550.675659 1720.907715 1116.338013
-591.276184 1719.579590 1107.277710
-408.218384 1587.786987 1366.512207
-486.983734 1762.827515 1149.625488
-383.255096 1712.032349 1300.158813
-464.855347 1592.981567 1337.700317
-389.043915 1856.269531 1230.151733
-327.942566 1877.905396 1327.143188
-541.175964 1700.588623 1145.280762
-269.600616 1756.046143 1336.609741
-564.649597 1662.231812 1214.115723
-378.913788 1705.518677 1284.898804
-375.591919 1628.527588 1354.347412
-382.624908 1765.667480 1290.258667
-480.558746 1880.345947 1246.279541
-472.984802 1510.234863 1431.377075
-452.542542 1946.615112 1276.360352
-565.451416 1820.415283 1169.429565
-438.594421 1509.093262 1462.298218
-533.799927 1872.493652 1234.259888
-519.818237 1696.576660 1240.890503
-389.777679 1676.176514 1478.830322
-567.723694 1482.126953 1386.834106
-485.082428 1868.001099 1236.173950
-423.418121 1775.725708 1168.903076
-370.823029 1697.647583 1292.981201
-394.734344 1876.353516 1278.337646
-371.575195 1715.125854 1362.966187
-593.283508 1508.196045 1351.586914
-516.040955 1477.645752 1422.583618
-398.886993 1805.630981 1278.412109
-468.446899 1759.644165 1133.055786
-455.021637 1778.164673 1169.645874
-726.085876 1938.718628 1265.168335
-500.524231 1546.139526 1372.750854
-500.698273 1552.665894 1359.750122
-565.402161 1666.513794 1178.241577
-618.940186 1542.530640 1306.635132
-620.807983 1569.115234 1246.114746
-451.876984 1925.604370 1264.728638
-463.726440 1495.202759 1436.868042
-369.488464 1526.901855 1491.620117
-610.721619 1650.591797 1170.328247
-493.940308 1694.988647 1172.162964
-527.877319 1687.023438 1166.975098
-492.917053 1632.668823 1280.028564
-392.049438 1522.002075 1479.915527
-574.360779 1550.331177 1320.966797
-374.977234 1702.368896 1321.786865
-565.109863 1785.770508 1146.557007
-585.747620 1844.790894 1204.485229
-507.802185 1678.575806 1202.410767
-592.780945 1561.032349 1321.648315
-600.035339 1780.457031 1136.417114
-395.412201 1791.100708 1285.660522
-620.533630 1479.050293 1330.990356
-452.229095 1679.888916 1252.041870
-470.756287 1558.827148 1391.364746
-408.442810 1811.499512 1176.685669
-370.641724 1623.980347 1413.091309
-620.742737 1778.598633 1140.911011
-435.372284 1747.981323 1148.755249
-597.942322 1505.965088 1342.781006
-281.843231 1772.966675 1314.016235
-630.524963 1492.755127 1350.341553
-618.000488 1486.782471 1362.083496
-488.898193 1548.135010 1383.474121
-587.279907 1508.526245 1396.619141
-579.172852 1529.981445 1527.207397
-497.066864 1894.726196 1259.785767
-385.428131 1755.921143 1187.944336
-494.941345 1800.299194 1177.307861
-497.795593 1856.266846 1213.609375
-565.435059 1649.435303 1219.263062
-568.607422 1734.790161 1116.313110
-445.328003 1802.321045 1163.915161
-541.004700 1483.085449 1455.302490
-565.979248 1731.505859 1100.540283
-478.657471 1738.668213 1151.143433
-363.813354 1666.225708 1319.817627
-556.895996 1875.327881 1242.664429
-579.909241 1485.590698 1371.641235
-489.920288 1796.268799 1167.143677
-443.540833 1722.024658 1192.103027
-453.387543 1506.020996 1449.212891
-508.743378 1717.961792 1144.848755
-567.567871 1508.620850 1425.627319
-362.624146 1588.296021 1422.870117
-375.217010 1755.452515 1250.609497
-252.845108 1784.627319 1327.407227
-397.688904 1894.397095 1217.919312
-617.150146 1564.660889 1270.458374
-543.604126 1861.488403 1222.369263
-500.451080 1850.948486 1216.989868
-526.263000 1669.034424 1214.675781
-377.946564 1816.301758 1203.314331
-543.458984 1593.266968 1316.344482
-416.510986 1665.098389 1298.908691
-581.266418 1820.083374 1181.556274
-577.153442 1506.216553 1375.610474
-612.726501 1790.253784 1136.326050
-522.505737 1917.395996 1276.601929
-363.031311 1753.620239 1225.673340
-508.382507 1489.439209 1436.034546
-626.225281 1567.802490 1260.939331
-444.464630 1847.836060 1225.214233
-493.584320 1614.369019 1310.157837
-378.229858 1737.604248 1295.877563
-490.932983 1716.083496 1152.466553
-669.706238 1937.272827 1264.331909
-485.666016 1724.760498 1272.957642
-418.645111 1599.986816 1360.535156
-372.212067 1547.491211 1505.588745
-378.871826 1774.593872 1283.921631
-616.367554 1592.292480 1253.353271
-353.188110 1859.294312 1312.416382
-389.717194 1816.497559 1190.742798
-685.528870 1878.950317 1214.988770
-401.223877 1836.415771 1259.040161
-506.996124 1598.760742 1330.369507
-476.216827 1677.625732 1217.230103
-383.728119 1739.404907 1280.836060
-375.839050 1649.594971 1325.363892
-448.556671 1648.569336 1290.154297
-490.533447 1937.192871 1289.479980
-496.788116 1476.999023 1454.804443
-364.256287 1794.793579 1314.275879
-614.644958 1500.071655 1339.889282
-372.108429 1778.429077 1180.738770
-643.070557 1870.589111 1228.603760
-529.021545 1870.681274 1236.739868
-393.428741 1741.874634 1292.700806
-364.689758 1757.520264 1234.180298
-528.065552 1681.770630 1174.863037
-547.991760 1667.941895 1201.326416
-436.405884 1746.917114 1157.404175
-581.730896 1660.940552 1176.715576
-450.397888 1524.174805 1427.660889
-619.640198 1534.182739 1289.081787
-394.709717 1711.489258 1222.018677
-572.315674 1867.574829 1224.999268
-585.697388 1541.573975 1307.423828
-389.801392 1804.161377 1244.468262
-406.143555 1883.992432 1247.413818
-418.349274 1496.495850 1462.178223
-588.086731 1909.346558 1249.214600
-346.632843 1675.568726 1342.671021
-367.766998 1583.564941 1446.496338
-578.062378 1611.545898 1237.484009
-381.603790 1691.593384 1329.656616
-465.121979 1646.073975 1287.069458
-368.289307 1651.991699 1374.109009
-384.684967 1799.034302 1241.331543
-390.818817 1907.044312 1304.412109
-508.517517 1537.718384 1397.071289
-333.202057 1790.541016 1303.920288
-433.009430 1655.227417 1310.192139
-387.938232 1731.602539 1211.292358
-635.867676 1458.979736 1377.380493
-468.155914 1623.711304 1310.377441
-450.070740 1677.528564 1256.536499
-608.264893 1658.222656 1179.068359
-428.321777 1687.438354 1248.567383
-514.559326 1589.350952 1325.408081
-538.122009 1618.343994 1277.622559
-598.840271 1456.290161 1402.517212
-343.784088 1634.930298 1384.533447
-446.196411 1536.454590 1434.471191
-598.205505 1863.364746 1214.039063
-508.210785 1910.026733 1261.399048
-377.848755 1563.914795 1449.154785
-584.254456 1579.971680 1264.241943
-572.419617 1906.796265 1260.670654
-592.187195 1611.376831 1229.162231
-431.720764 1736.328857 1165.492188
-616.356567 1871.380005 1211.342896
-447.648956 1921.336182 1268.707764
-531.390442 1451.298828 1453.504517
-380.456573 1697.029053 1323.900757
-355.763306 1763.520996 1301.032104
-394.957794 1507.777466 1485.532959
-589.335999 1584.794922 1196.305542
-379.219086 1586.015137 1389.956421
-661.814514 1836.750000 1178.239380
-679.388855 1851.087036 1199.104370
-350.648621 1747.565552 1320.665649
-536.015808 1782.444580 1155.169800
-364.941437 1771.707642 1191.631226
-611.948608 1930.581665 1281.327271
-487.326172 1484.076416 1442.989380
-382.581482 1728.709229 1224.211426
-327.009033 1763.360962 1296.180786
-390.131378 1749.654907 1188.154297
-376.367706 1572.302612 1426.281860
-491.010773 1843.737183 1211.109863
-429.767517 1561.230591 1577.517578
-608.647949 1709.358032 1133.011597
-536.408081 1569.355469 1365.589355
-568.349182 1498.345825 1447.931763
-370.215637 1652.617920 1320.789795
-534.085999 1877.731567 1247.744507
-572.977905 1719.850464 1123.765869
-465.961761 1564.317139 1367.498535
-471.948242 1604.512207 1326.701782
-586.809570 1927.927734 1285.942139
-311.465332 1866.727295 1326.630005
-364.527283 1793.539795 1299.858643
-434.653778 1932.935303 1309.888550
-306.429840 1777.514893 1318.229492
-319.528076 1794.406250 1315.540771
-365.600861 1724.214233 1302.007690
-406.689545 1542.593628 1425.222046
-676.413574 1903.427124 1261.818237
-612.699768 1843.319946 1195.469116
-575.633240 1803.867310 1160.938965
-424.283508 1635.877930 1323.552368
-437.506470 1699.261353 1254.704590
-538.039063 1662.120117 1259.127686
-586.159607 1561.306519 1292.525391
-275.841492 1801.860718 1311.436157
-375.932434 1801.408203 1189.345215
-606.783875 1862.129395 1211.675781
-517.818115 1677.526611 1257.628906
-573.910767 1635.380005 1255.600952
-330.806976 1765.645508 1284.604370
-540.940918 1928.269287 1299.316650
-439.229675 1715.889771 1188.811890
-378.494537 1562.553711 1430.087036
-484.843964 1731.222778 1145.818848
-373.516693 1778.153198 1200.074829
-568.060669 1746.126709 1119.457031
-460.419098 1859.732544 1236.309692
-442.791656 1815.174072 1190.389526
-378.948608 1589.572144 1436.604004
-548.233093 1685.919556 1163.719238
-395.804352 1852.158447 1195.417480
-395.996948 1539.528564 1418.471191
-601.198608 1477.391846 1397.065674
-607.291016 1719.620239 1097.121338
-254.330124 1786.389038 1338.110352
-685.618408 1862.494629 1203.544556
-530.812622 1539.785889 1368.583374
-564.050232 1705.082886 1141.421021
-482.778015 1472.386475 1468.224609
-357.852264 1752.312012 1277.731934
-304.332397 1774.415527 1296.449341
-625.377747 1619.094849 1601.839600
-374.049042 1746.725830 1200.246582
-357.547058 1544.516724 1459.778687
-576.213318 1892.707764 1246.349365
-329.483215 1777.643188 1284.364624
-411.701813 1723.297119 1204.691040
-517.481140 1792.992554 1163.079712
-397.370453 1785.490845 1290.067871
-282.163177 1789.398193 1315.770264
-537.489197 1483.922852 1419.223389
-605.140259 1675.181030 1152.419800
-572.397949 1812.781616 1172.893921
-385.215546 1628.375244 1330.678101
-370.401245 1548.917725 1465.025879
-600.185852 1610.087280 1245.667969
-386.041199 1880.693726 1308.322510
-603.007813 1605.513672 1223.645386
-543.534607 1647.422363 1232.337524
-532.313110 1735.082642 1120.620972
-300.536682 1794.838623 1310.706177
-414.415375 1761.803101 1151.876831
-410.886932 1898.043213 1304.571655
-410.646179 1633.282593 1322.706543
-325.992279 1882.489258 1318.189087
-536.924927 1598.256348 1300.930298
-607.918945 1660.322021 1171.021606
-556.156494 1829.134644 1188.544800
-380.573730 1809.604126 1226.194458
-430.115875 1695.450806 1200.176636
-509.056335 1830.025513 1200.109741
-638.436401 1480.436279 1353.395386
-379.188202 1726.716675 1289.501221
-478.863922 1742.345215 1158.707397
-566.956299 1575.114258 1281.460205
-573.202698 1669.596680 1169.214722
-658.311096 1823.422974 1178.711182
-377.220154 1573.577759 1437.032349
-505.673004 1764.279419 1120.896606
-394.496185 1642.394165 1316.594116
-507.304474 1512.146362 1411.230835
-389.588196 1630.221680 1336.588257
-486.260956 1714.038574 1169.409058
-396.493011 1865.560547 1307.033936
-581.094177 1469.655884 1441.532227
-324.645569 1781.988647 1312.452026
-437.515076 1695.581543 1205.646851
-497.187225 1704.440430 1269.348877
-483.525024 1868.916260 1236.854248
-331.618134 1852.912842 1332.885498
-564.800476 1888.668213 1244.081665
-508.215820 1613.266968 1296.315186
-393.959503 1747.755981 1203.626343
-609.186218 1839.303955 1207.654419
-398.789886 1871.933960 1296.973877
-532.810181 1648.246948 1224.714844
-635.875732 1781.758789 1144.224121
-456.382477 1578.089111 1380.999268
-651.857605 1806.076660 1153.244751
-624.197144 1739.229980 1115.144043
-410.796783 1561.997803 1395.189087
-434.715424 1703.417114 1203.396240
-360.556335 1695.862915 1348.636108
-547.502075 1690.833618 1174.601807
-430.722137 1930.597412 1298.244751
-372.936951 1617.907837 1442.656372
-489.365845 1751.734375 1137.180420
-317.976196 1773.375977 1299.010254
-431.458221 1695.678467 1238.250977
-469.703705 1633.405518 1302.399170
-487.842987 1502.143311 1431.862671
-394.698334 1788.285889 1183.118774
-462.758270 1465.167969 1471.557251
-566.130310 1661.287842 1186.797485
-491.584839 1702.441895 1151.887451
-545.319031 1608.312866 1287.265747
-363.132111 1676.541504 1314.739502
-616.665344 1679.123657 1162.234497
-667.041992 1913.555176 1260.301636
-583.866821 1648.607666 1191.971680
-280.732941 1780.339478 1305.384766
-602.261658 1520.924194 1329.480713
-382.652649 1795.694092 1296.800781
-431.774994 1843.682495 1199.902100
-461.294006 1576.110596 1359.752930
-461.048004 1685.504395 1211.217773
-358.128113 1754.273193 1325.529541
-390.395477 1897.711792 1299.342163
-380.679443 1703.703979 1278.751343
-366.677277 1710.338013 1296.595215
-460.673309 1676.968750 1258.732178
-598.959839 1818.869507 1175.197266
-397.231445 1638.203369 1316.903076
-549.150635 1683.588623 1166.724243
-361.395813 1796.671387 1208.130493
-401.601776 1852.454590 1253.908691
-465.122009 1687.453491 1236.473877
-375.088806 1674.331055 1317.378052
-615.597595 1913.276978 1249.427002
-448.117249 1679.764771 1242.720093
-385.328308 1655.630371 1318.015259
-290.376556 1787.022949 1307.746216
-537.933411 1608.529419 1293.284912
-522.994751 1687.264038 1181.298584
-563.319458 1958.214844 1296.109863
-308.260071 1792.325439 1319.270142
-654.277344 1936.307373 1265.009277
-340.823944 1677.805908 1367.382813
-380.633301 1753.482544 1249.227905
-672.282654 1840.727783 1192.031372
-363.525421 1589.121216 1528.424805
-572.856323 1538.879517 1344.827393
-492.470001 1535.943481 1382.369385
-691.896057 1901.390625 1226.394043
-580.374756 1522.503174 1372.849609
-399.059906 1642.551758 1331.721924
-370.150940 1699.963257 1260.175415
-493.662933 1701.142334 1170.133911
-367.263824 1590.150146 1468.698608
-467.721436 1781.869629 1159.406738
-380.933044 1710.555054 1244.320190
-650.106506 1867.664795 1215.648071
-542.231689 1844.700073 1213.432129
-287.577728 1789.717285 1324.593628
-548.072021 1692.556885 1155.903564
-370.755096 1771.963379 1189.001953
-428.227722 1635.465576 1311.508667
-488.306458 1680.515869 1198.013916
-457.954498 1684.809692 1212.260010
-576.598511 1793.002197 1154.753052
-647.363586 1859.354980 1207.093872
-435.324554 1684.071411 1267.661743
-308.039368 1787.269043 1352.447510
-340.035034 1797.978760 1311.466919
-617.105103 1699.234985 1128.490845
-546.534058 1581.816772 1292.408447
-649.984436 1933.777100 1275.999268
-600.542419 1697.340698 1137.716919
-595.988037 1847.333496 1189.041626
-416.786621 1740.829224 1186.341919
-644.209595 1832.239136 1185.858887
-411.093018 1880.344727 1281.996094
-472.979401 1789.293457 1171.165771
-547.290405 1943.982422 1298.381226
-333.595642 1782.875732 1309.932739
-515.143372 1795.605957 1169.372314
-690.175903 1920.367676 1259.600952
-448.007141 1642.331421 1301.039673
-548.068848 1863.640137 1222.515381
-398.724945 1847.207764 1297.974976
-300.839691 1785.380249 1335.031860
-355.798676 1630.515259 1391.103638
-415.581818 1527.481934 1426.400269
-425.152802 1913.926514 1302.364624
-256.451477 1780.889648 1321.120728
-436.555084 1676.642456 1273.233276
-524.225952 1712.355103 1134.052490
-688.088745 1874.369629 1220.681519
-485.051727 1774.522827 1146.551514
-477.609985 1572.768921 1364.323120
-518.536499 1678.495361 1278.822388
-308.808136 1758.342041 1313.293457
-519.431091 1871.883789 1236.772583
-367.779480 1723.416138 1270.301636
-679.479004 1887.758057 1230.971802
-525.634644 1718.871582 1128.447510
-679.473572 1853.497070 1217.901489
-424.615631 1912.258667 1263.300049
-380.027771 1728.536865 1400.668091
-538.115845 1848.490112 1198.787720
-509.732758 1721.117554 1143.720825
-660.714050 1829.944580 1164.956543
-643.294373 1820.871216 1167.746094
-466.028778 1671.572144 1239.315430
-556.815247 1569.188477 1321.273315
-575.298645 1848.410645 1221.415649
-372.722382 1695.223022 1276.851074
-589.996216 1476.078491 1391.173950
-620.114929 1618.792847 1194.073486
-255.945297 1803.204834 1318.387085
-448.667358 1732.626709 1155.185059
-621.330200 1869.393921 1235.766113
-583.553345 1513.901978 1353.343262
-510.666870 1930.855225 1290.353149
-446.774078 1795.535522 1171.085449
-571.919861 1850.788330 1209.103027
-607.667236 1578.670898 1268.851196
-431.827789 1935.767944 1283.362915
-377.138794 1655.752319 1386.664429
-314.010254 1770.322510 1326.697266
-375.970337 1686.890869 1296.446777
-662.981262 1839.250000 1194.712158
-543.215271 1655.793579 1262.370728
-462.629456 1873.201416 1241.815430
-566.744446 1575.771606 1305.140625
-449.751587 1681.831055 1261.422729
-519.766113 1864.197021 1227.789917
-499.423157 1894.674561 1247.722168
-550.250854 1600.991211 1279.983398
-568.442993 1693.038574 1139.355225
-583.192566 1659.942993 1181.349731
-488.731476 1755.333008 1123.263550
-419.055908 1571.502930 1393.619385
-587.485352 1616.612915 1227.036865
-389.997589 1757.956909 1176.941528
-537.036926 1913.195801 1259.721802
-573.601440 1689.381958 1144.964600
-377.366516 1696.923340 1266.723022
-619.409729 1479.626099 1361.245361
-584.652161 1593.083740 1266.469727
-416.250000 1767.476196 1152.211182
-551.285583 1888.768066 1235.710815
-463.479736 1718.047974 1181.367676
-440.514191 1495.562622 1463.566772
-614.503540 1868.565552 1209.042114
-434.156342 1917.501831 1271.401367
-460.879700 1484.612427 1473.095337
-308.403931 1769.566772 1315.671875
-410.435455 1865.921875 1267.139160
-380.451538 1715.796265 1292.230103
-443.362427 1836.973633 1213.396729
-661.071655 1832.546509 1150.419556
-247.790344 1768.275024 1341.120117
-414.308167 1500.400757 1460.311646
-580.787598 1508.003296 1366.531006
-626.065369 1931.867554 1280.441528
-472.611084 1840.538818 1203.436279
-577.780884 1887.060913 1244.742798
-342.416412 1871.561890 1325.260132
-577.590027 1737.440796 1119.030029
-394.962433 1513.208008 1460.839844
-445.570221 1482.527832 1463.793823
-521.540405 1887.868530 1248.524048
-577.362915 1765.172729 1131.508301
-441.069336 1702.581299 1266.050415
-535.043640 1904.235107 1279.549316
-389.915588 1868.206299 1200.959961
-444.261841 1880.607300 1240.943726
-604.097473 1585.891846 1282.714966
-548.480957 1920.296997 1264.237671
-417.927155 1497.308350 1514.418823
-402.607239 1882.445679 1302.577271
-441.262543 1697.934448 1218.570801
-469.606720 1803.636108 1183.926514
-384.050690 1644.488770 1324.444702
-486.730530 1616.235840 1313.678223
-368.496674 1660.776733 1407.424194
-261.072388 1792.353760 1322.674194
-394.566467 1545.262573 1422.364136
-397.837311 1851.008911 1244.266235
-388.094421 1658.720581 1288.715698
-431.492889 1775.402588 1158.704468
-383.950165 1788.779907 1164.914307
-443.052979 1796.938110 1191.424805
-408.685486 1688.295410 1264.073486
-623.743286 1763.682373 1116.461792
-584.691711 1634.977783 1207.112915
-584.773376 1451.296631 1420.596191
-587.403625 1507.364990 1331.123169
-479.180756 1678.044067 1205.923828
-592.562317 1669.537476 1150.708252
-424.014313 1573.024658 1396.823242
-593.619080 1514.041748 1333.450195
-388.729370 1817.431519 1247.059937
-505.965729 1734.843262 1146.895996
-535.277222 1735.494751 1119.548706
-532.666626 1605.923828 1309.341431
-517.686646 1953.572754 1312.158813
-536.922607 1646.388184 1229.067993
-597.215759 1621.452637 1235.518799
-429.868744 1905.636597 1305.134644
-650.411621 1811.436401 1164.097412
-571.787476 1767.120483 1116.028564
-528.634338 1608.286865 1296.374878
-409.887512 1860.117554 1281.161621
-307.910645 1766.740356 1297.618408
-594.583191 1896.494385 1251.557373
-394.838470 1673.212280 1283.569946
-384.773193 1605.790283 1356.633789
-622.997314 1534.740845 1312.222534
-529.185425 1722.761475 1125.329956
-508.386719 1734.990601 1118.746216
-493.091248 1735.018066 1126.297729
-396.165833 1558.220459 1422.586060
-370.188599 1596.505371 1418.416626
-478.962738 1679.934326 1224.955200
-418.266846 1727.494629 1192.366821
-592.932312 1572.243286 1272.373901
-393.528625 1880.730591 1212.298584
-393.911255 1785.813721 1183.124634
-344.094727 1792.606934 1298.272339
-507.518250 1857.913086 1223.515747
-466.358185 1692.987305 1194.901001
-638.766663 1449.428223 1384.781128
-418.494476 1651.048096 1304.610718
-448.551147 1766.516846 1149.705933
-439.855865 1603.525024 1341.806519
-374.047882 1722.059814 1262.221436
-633.217285 1533.985352 1303.812988
-373.743622 1683.592407 1288.810669
-573.211731 1653.144653 1195.740845
-524.793945 1831.373657 1202.556885
-578.541504 1629.658691 1616.237549
-422.877106 1786.180542 1172.156494
-370.163025 1765.028564 1244.625732
-369.265961 1699.677002 1325.880005
-376.664490 1650.340088 1316.469727
-503.755524 1803.399048 1169.430664
-620.960449 1505.721924 1337.641357
-610.256592 1672.091919 1138.599487
-402.803772 1856.288818 1289.537598
-344.485535 1898.923218 1321.619141
-491.079742 1701.498047 1170.989624
-589.068420 1544.062134 1303.375488
-615.734070 1590.291626 1224.891235
-420.156433 1556.462036 1389.420044
-394.761292 1631.738770 1328.879395
-384.875458 1647.166626 1317.304565
-469.426788 1535.305664 1409.144409
-363.619080 1678.154541 1325.139771
-615.483032 1611.901611 1237.756104
-259.219513 1776.011353 1326.512207
-447.365601 1849.554688 1225.619507
-416.420776 1684.472290 1275.754517
-397.755798 1904.524048 1312.254395
-363.169800 1897.208618 1308.500488
-468.140137 1618.625977 1309.081665
-468.893616 1617.657837 1325.680054
-352.063385 1881.303833 1293.418457
-383.933105 1645.731934 1315.447876
-625.698242 1560.576538 1264.382568
-568.694458 1711.544434 1121.057983
-553.330200 1589.743042 1310.280518
-374.488678 1713.932739 1393.958618
-411.160156 1866.905518 1274.213379
-378.628693 1771.842651 1205.941040
-510.443878 1545.550171 1387.720337
-684.390991 1909.803467 1252.064819
-452.962860 1690.833740 1191.594604
-423.972473 1728.969727 1192.010010
-604.233337 1901.723022 1240.755859
-438.007507 1602.374512 1362.347534
-381.293884 1816.288086 1232.986694
-421.012177 1770.847168 1173.165405
-714.721863 1906.370483 1260.942261
-606.446533 1585.611450 1272.764282
-275.345764 1795.622681 1326.365723
-476.569977 1736.655396 1150.958618
-483.332581 1720.895508 1156.814697
