ply
format ascii 1.0
element vertex 1294
property float x
property float y
property float z
end_header
-1659.452026 -285.936218 1302.985596
-1552.724976 -479.130157 1410.986694
-1545.318359 -621.188843 1408.626587
-1758.427856 -335.009888 1541.324829
-1651.197998 -267.435394 1320.153687
-1527.973755 -599.378479 1360.168579
-1658.989014 -443.384979 1262.699097
-1648.712769 -405.484772 1329.669189
-1611.521851 -276.789917 1399.663696
-1580.354248 -435.722046 1377.939575
-1611.230347 -377.474548 1463.882202
-1636.932251 -376.503326 1326.674561
-1903.396606 -300.627869 1339.717407
-1588.360352 -370.482330 1552.448242
-1545.181763 -672.652954 1294.014160
-1626.800659 -494.608826 1282.821411
-1608.343384 -295.454803 1428.173584
-1709.413330 -263.899384 1359.900879
-1585.088623 -533.977966 1460.843262
-1807.130249 -262.682190 1292.409058
-1572.306885 -364.751648 1540.456909
-1615.254028 -540.059692 1296.090576
-1685.722900 -349.230652 1229.206543
-1656.785767 -510.778900 1212.283691
-1559.687256 -521.146240 1367.303955
-1890.632324 -286.885315 1321.720093
-1918.302490 -307.171631 1359.209473
-1657.241333 -521.536987 1206.842773
-1543.797852 -669.247253 1297.464966
-1757.686401 -273.150116 1333.813721
-1639.907349 -318.402802 1332.740845
-1598.055664 -647.335876 1232.829102
-1594.651367 -369.421936 1397.470825
-1675.929443 -556.033203 1190.951660
-1595.892456 -413.796600 1433.725464
-1633.145020 -532.802979 1247.948975
-1927.377563 -313.591675 1384.463989
-1540.705200 -402.410187 1563.513062
-1752.297119 -267.862671 1317.433716
-1693.264282 -344.568390 1525.966919
-1591.750977 -363.136414 1474.839355
-1704.625366 -326.432800 1570.918945
-1565.099609 -461.478699 1414.478027
-1679.209473 -277.802826 1277.060303
-1662.249023 -433.481781 1267.796021
-1818.618530 -282.088226 1544.622192
-1537.464722 -597.595642 1358.521973
-1819.708130 -282.245789 1346.171631
-1586.020020 -393.252899 1397.037964
-1690.764648 -278.810608 1495.575317
-1668.158203 -266.211212 1454.704712
-1618.533447 -360.600677 1463.293091
-1944.019165 -322.764709 1385.999878
-1882.555786 -300.279572 1355.457275
-1866.052979 -319.195160 1435.952148
-1590.072754 -402.161255 1414.682617
-1780.694824 -259.882233 1528.378662
-1610.439819 -355.349640 1363.262939
-1659.218384 -290.178040 1293.292969
-1789.205078 -743.268250 1351.768188
-1734.790649 -274.257202 1396.888794
-1531.209961 -673.647156 1336.916016
-1624.105835 -345.934723 1449.544800
-1633.522095 -656.836853 1169.733521
-1845.698486 -307.300903 1450.375244
-1758.885010 -256.752075 1263.903442
-1701.116577 -335.443329 1218.664429
-1584.737671 -379.139923 1412.562012
-1679.310547 -253.352844 1466.400635
-1652.229858 -257.324402 1404.108032
-1601.323364 -316.644714 1393.043823
-1619.904785 -345.918762 1450.973145
-1749.038330 -268.016968 1504.515137
-1611.891846 -334.465057 1380.496216
-1547.363037 -533.212769 1365.039307
-1561.413818 -473.186859 1424.116699
-1575.964355 -576.231689 1310.684448
-1526.120483 -606.131104 1358.550659
-1601.309082 -335.566193 1399.792603
-1719.576172 -240.185959 1230.935425
-1753.604126 -291.310211 1435.592651
-1647.173706 -287.236145 1334.550415
-1674.073853 -315.131012 1253.576904
-1778.483887 -275.461060 1322.022827
-1594.507080 -522.077393 1338.649292
-1595.542847 -321.986298 1397.209106
-1545.366577 -548.847900 1377.779785
-1664.432251 -341.101715 1565.708984
-1538.926392 -557.987854 1366.200317
-1847.011230 -314.566742 1507.924927
-1870.989380 -311.486328 1418.389771
-1684.813232 -268.529846 1262.339844
-1570.479614 -449.597626 1398.978516
-1616.498291 -344.925323 1338.865356
-1807.940308 -265.565582 1236.522095
-1635.156372 -662.540710 1228.816895
-1552.358521 -519.873169 1428.569336
-1666.966064 -568.053101 1154.048706
-1613.262939 -289.211548 1426.818115
-1713.334717 -277.397491 1408.991943
-1639.547363 -598.279358 1174.817871
-1826.288940 -297.244537 1421.000854
-1626.460083 -288.849030 1354.445068
-1579.804688 -608.906372 1301.739380
-1639.446289 -330.478851 1462.262329
-1708.349731 -254.592178 1474.189819
-1546.854248 -528.797363 1384.842651
-1807.885620 -283.637207 1541.343140
-1683.060791 -310.863861 1251.578857
-1686.114014 -330.559509 1574.204102
-1559.842163 -448.521973 1438.103882
-1586.127563 -442.957886 1447.083496
-1631.361206 -301.348419 1360.803711
-1708.130371 -225.208389 1251.434937
-1771.065430 -277.634460 1420.904907
-1718.045288 -391.810760 1275.920898
-1821.144287 -305.673401 1426.960449
-1535.977661 -597.825134 1361.794800
-1580.382690 -502.040100 1357.728394
-1546.121094 -462.463745 1409.823120
-1846.580200 -286.067810 1277.379883
-1692.466431 -238.361557 1477.334717
-1818.632813 -294.626526 1504.925415
-1584.162964 -637.279297 1472.798462
-1667.845215 -566.798340 1142.222534
-1704.688110 -350.250305 1228.252563
-1624.990967 -311.705353 1374.423828
-1591.787476 -428.801880 1443.416992
-1656.718018 -598.278015 1177.413574
-1591.921631 -453.894073 1430.784424
-1652.433350 -255.508224 1439.535645
-1615.594971 -280.604309 1394.587036
-1688.494019 -419.016266 1198.606201
-1578.438599 -446.868927 1373.077759
-1620.149780 -274.663666 1370.260986
-1636.342773 -646.373230 1182.596436
-1943.869873 -304.086945 1303.348389
-1679.825562 -332.298370 1556.904175
-1864.245117 -288.220337 1270.769287
-1649.517334 -538.326477 1209.949097
-1562.420532 -459.169830 1446.037354
-1667.471436 -301.271332 1283.501587
-1602.716919 -368.542877 1557.800415
-1594.373901 -385.094391 1486.456787
-1801.884888 -259.633148 1232.312744
-1657.763184 -620.546997 1145.754639
-1882.568604 -326.228088 1445.229980
-1697.186035 -437.512024 1183.773071
-1880.039917 -297.678223 1345.403198
-1608.199829 -308.366699 1437.596802
-1701.848145 -300.820526 1229.720825
-1617.869385 -413.514557 1341.692505
-1626.762085 -446.220520 1317.797485
-1596.380981 -367.724396 1540.352539
-1726.939453 -312.179230 1184.573608
-1667.984253 -496.026764 1182.864624
-1589.776367 -408.327820 1383.283569
-1596.993530 -368.093597 1495.469238
-1558.440186 -457.319916 1436.352295
-1538.400146 -578.505249 1363.841553
-1514.541992 -612.858643 1442.263794
-1684.921265 -265.970032 1373.415161
-1548.364624 -584.141907 1343.635254
-1620.497070 -308.923279 1346.557617
-1735.035645 -271.821167 1302.767822
-1790.304077 -280.489319 1338.545044
-1549.724243 -651.083008 1334.559204
-1678.567505 -252.968765 1446.438110
-1562.661621 -597.411865 1323.192017
-1750.336914 -250.633484 1225.057251
-1791.593994 -295.811493 1449.250610
-1548.794312 -496.985626 1387.974609
-1856.543457 -305.959229 1415.729858
-1563.654907 -485.587189 1381.292480
-1688.382690 -688.416016 1153.597290
-1773.540771 -286.700989 1422.676392
-1636.034180 -357.663696 1301.779663
-1542.966553 -525.510559 1367.297485
-1608.055664 -595.985352 1269.761719
-1905.401245 -302.428314 1334.040039
-1595.093262 -561.452026 1447.539185
-1672.679810 -274.455994 1277.671143
-1552.119629 -550.689392 1364.701294
-1562.171997 -583.667542 1331.787354
-1655.406860 -551.873474 1238.666992
-1603.618408 -438.837799 1445.274780
-1540.294678 -554.034180 1407.131714
-1556.139160 -653.381104 1451.840088
-1681.687378 -498.796661 1165.483643
-1572.708618 -539.507263 1339.729370
-1905.680298 -314.160187 1361.897217
-1555.230347 -491.127716 1439.194092
-1595.666870 -640.244080 1254.529053
-1668.283569 -391.678375 1254.155640
-1626.394897 -376.050995 1307.950806
-1545.907471 -603.510376 1369.168335
-1553.137085 -530.203613 1416.192017
-1599.813843 -322.485199 1404.295288
-1610.685425 -379.521118 1452.519775
-1610.872925 -666.025696 1210.159668
-1594.711304 -368.327759 1498.741211
-1605.526611 -469.048065 1336.610474
-1712.058228 -274.992950 1223.340698
-1682.177856 -436.452393 1252.797241
-1972.392700 -312.997620 1377.381104
-1659.318237 -544.077698 1225.457397
-1785.270264 -274.162140 1374.974365
-1751.588501 -287.616425 1461.799316
-1885.331299 -293.797394 1317.876587
-1707.804810 -303.587433 1532.514771
-1567.297485 -470.673279 1384.888184
-1553.823486 -480.669159 1391.147583
-1657.455322 -321.987427 1561.985352
-1730.508545 -277.842102 1219.735107
-1932.311646 -318.444366 1400.556274
-1590.534790 -517.435730 1326.153931
-1603.563354 -629.478455 1239.625610
-1601.332642 -392.696899 1549.800781
-1571.241821 -381.259979 1513.972168
-1676.146240 -261.125488 1342.068359
-1716.603027 -348.209686 1199.230835
-1876.559692 -300.295990 1424.408203
-1922.544678 -316.736664 1400.688354
-1703.674194 -261.008728 1334.696533
-1631.155396 -369.148712 1478.924194
-1579.152344 -516.664001 1352.572021
-1723.416260 -303.084595 1501.478516
-1643.299072 -381.664795 1297.089355
-1679.322510 -421.317108 1210.159546
-1923.760010 -298.924286 1304.092285
-1760.145996 -255.110046 1240.691040
-1585.046021 -616.653687 1269.741211
-1663.549927 -533.779053 1188.149536
-1836.744507 -286.867523 1343.650269
-1673.473389 -454.498444 1240.513184
-1554.496582 -500.108521 1376.570313
-1708.314087 -355.070160 1199.331421
-1619.156006 -565.797974 1262.895630
-1738.456787 -316.170898 1191.935547
-1962.833130 -317.986115 1328.416382
-1739.708618 -317.689850 1518.823242
-1647.537720 -570.685303 1236.829712
-1606.706787 -387.385071 1462.701660
-1558.170410 -459.563721 1402.360229
-1654.231445 -462.704407 1279.622070
-1530.808350 -632.373535 1446.988647
-1664.152466 -280.645569 1298.529175
-1694.933350 -346.984192 1535.916016
-1851.671875 -286.519806 1327.686523
-1543.645020 -508.961060 1419.007324
-1656.839111 -333.726349 1567.432495
-1660.413086 -321.187592 1274.167480
-1638.844360 -586.906311 1195.875000
-1602.068115 -348.228210 1366.891602
-1657.213257 -503.935699 1248.277588
-1799.871216 -276.826965 1373.050537
-1646.187500 -337.541565 1302.599243
-1538.949341 -513.880188 1417.849365
-1703.226807 -402.759369 1478.276978
-1815.976563 -293.424103 1340.116211
-1682.096313 -430.620117 1221.514648
-1602.474487 -356.820526 1418.861694
-1556.968384 -550.511597 1358.388062
-1703.681274 -334.670990 1194.504639
-1743.900269 -316.988586 1504.885132
-1682.545288 -414.509827 1212.775879
-1559.882568 -378.970947 1565.832764
-1588.178101 -390.629944 1397.618042
-1630.253906 -390.268677 1346.098877
-1908.269653 -300.934967 1325.921753
-1608.909058 -497.495972 1316.110474
-1687.714600 -260.936462 1363.546265
-1724.283203 -277.902954 1437.761597
-1524.303467 -613.218689 1379.799927
-1852.534912 -282.309998 1262.538452
-1565.029297 -570.977722 1332.429321
-1558.811523 -460.639862 1393.566284
-1569.757080 -381.966309 1517.195435
-1757.292358 -284.157227 1471.247559
-1689.968018 -248.181534 1265.171875
-1542.248047 -501.379608 1391.326172
-1646.589600 -350.203369 1285.781616
-1826.476807 -294.925720 1452.207031
-1671.020020 -252.282578 1355.845459
-1712.768188 -272.401367 1414.920654
-1664.440918 -515.267822 1195.057617
-1738.702637 -322.931488 1504.096802
-1572.497070 -659.047913 1275.006592
-1516.576782 -655.890259 1368.192871
-1701.881470 -317.819794 1514.194458
-1624.352295 -361.652252 1443.407959
-1659.254761 -577.683472 1230.315674
-1615.610352 -655.550781 1218.725342
-1813.326050 -267.394012 1291.504517
-1676.639771 -533.095642 1158.088745
-1816.323486 -272.117706 1292.030518
-1554.714355 -599.642395 1444.449707
-1692.468994 -476.746124 1197.333130
-1788.565674 -276.807343 1509.092285
-1668.983521 -260.564026 1452.896606
-1541.232544 -691.983948 1369.468018
-1681.362549 -255.586334 1300.155762
-1631.700073 -278.983643 1371.317871
-1790.284058 -255.282150 1227.624023
-1569.949341 -426.948303 1400.939209
-1608.720337 -392.789032 1372.500000
-1673.894287 -358.606628 1524.286865
-1632.045776 -463.567444 1294.255737
-1627.389404 -270.178436 1375.637695
-1604.662109 -306.453094 1402.556030
-1822.543701 -250.970306 1236.951050
-1711.950195 -257.839386 1340.560791
-1872.141235 -289.899994 1274.425537
-1615.109741 -303.092743 1383.479248
-1749.246704 -263.940002 1505.345337
-1676.716187 -334.105652 1253.716797
-1551.568848 -503.747620 1448.088623
-1648.190063 -514.658264 1143.166870
-1709.303589 -244.394699 1262.824707
-1614.505371 -285.297028 1386.815430
-1880.221924 -289.634979 1289.029907
-1708.726807 -441.966064 1179.557617
-2003.042969 -326.525665 1341.578003
-1832.213989 -264.678558 1263.051758
-1747.177124 -275.302612 1393.952515
-1539.069946 -633.123657 1352.894531
-1695.843994 -289.565399 1265.516479
-1788.144897 -264.331543 1230.452759
-1674.473511 -707.737732 1272.829224
-1680.545776 -407.113708 1231.145264
-1635.989624 -328.283691 1454.352539
-1666.581787 -266.128387 1413.088989
-1761.778931 -255.108551 1202.816040
-1726.547241 -252.965225 1477.080566
-1605.489502 -268.864166 1413.408447
-1861.015015 -262.341766 1280.302856
-1615.638794 -401.880249 1372.636963
-1652.591064 -400.061005 1302.543213
-1603.414429 -382.610626 1463.479858
-1767.231445 -338.403351 1541.615723
-1612.071899 -568.643799 1308.040527
-1676.084595 -304.860992 1268.535889
-1890.098022 -307.997406 1385.785889
-1588.916260 -463.859711 1363.269165
-1736.374756 -363.276703 1185.540039
-1785.080933 -270.694244 1299.895142
-1577.665649 -521.011780 1357.103394
-1546.742920 -477.521332 1422.288086
-1619.972656 -263.907013 1448.130981
-1656.484131 -363.820251 1291.393433
-1526.380493 -652.065491 1356.091064
-1580.397705 -562.703247 1462.927002
-1647.617554 -310.420746 1448.006592
-1706.789307 -374.670776 1200.919678
-1600.515503 -577.899170 1298.170532
-1656.794189 -271.126495 1297.940430
-1930.309692 -284.487701 1302.294922
-1633.141724 -607.491089 1184.799927
-1612.388062 -344.911804 1453.906128
-1581.232178 -427.628296 1427.164917
-1567.214722 -452.598511 1448.658081
-1677.956421 -257.708221 1375.353271
-1604.087891 -719.582031 1440.044067
-1543.640137 -540.306335 1407.553711
-1653.060425 -559.239807 1232.010132
-1589.176880 -503.966248 1344.368286
-1685.864380 -495.371460 1158.239014
-1588.282227 -351.725952 1533.241699
-1583.370605 -402.565887 1397.088013
-1610.115601 -422.789886 1349.044678
-1690.055054 -337.325134 1560.665283
-1602.596680 -304.127563 1421.560547
-1620.114380 -273.866058 1379.140625
-1688.654297 -358.465332 1240.571167
-1781.996826 -274.385895 1309.576294
-1804.649536 -283.575714 1302.558350
-1625.625122 -512.106262 1470.134277
-1851.760254 -313.670197 1478.548462
-1711.265991 -329.804108 1540.583008
-1558.093262 -629.165771 1438.320313
-1606.848755 -393.689697 1452.371216
-1757.393311 -262.777863 1215.149414
-1808.044922 -288.647705 1520.723877
-1598.590698 -323.685303 1425.078979
-1695.044556 -253.248306 1274.865479
-1768.502441 -262.844055 1263.346191
-1552.584473 -482.901947 1393.108765
-1756.606567 -266.818329 1260.358032
-1749.240845 -244.967560 1202.071655
-1736.824829 -278.296112 1426.677612
-1623.054932 -339.005890 1350.939575
-1729.449707 -260.729919 1339.790039
-1623.238647 -495.996063 1279.706909
-1649.434082 -571.361694 1173.387329
-1776.247803 -274.966736 1491.889526
-1602.528198 -665.743103 1228.135986
-1867.756348 -289.699188 1368.499634
-1649.993896 -638.491089 1138.550293
-1597.340210 -375.424988 1381.487915
-1594.941040 -330.752869 1395.251709
-1634.530518 -500.219604 1268.992432
-1512.999756 -618.327576 1448.580444
-1567.094604 -491.925140 1437.575195
-1622.888794 -356.363129 1335.279785
-1662.998291 -423.233490 1244.547729
-1809.536255 -268.111664 1262.157593
-1721.538574 -287.118958 1511.316284
-1893.628784 -314.965973 1409.173828
-1617.043823 -442.207123 1323.584106
-1581.448364 -590.946228 1446.910278
-1924.124390 -301.274475 1313.011108
-1608.241699 -496.695251 1462.000366
-1552.576904 -568.779480 1414.268433
-1543.232422 -559.878540 1376.928101
-1724.768433 -263.555084 1330.125488
-1582.857056 -413.874969 1388.416138
-1608.411133 -380.789307 1453.532715
-1572.457031 -529.927795 1355.746582
-1667.766479 -440.809753 1278.997314
-1744.046387 -269.430328 1208.632813
-1629.680298 -247.414536 1369.125366
-1791.599487 -274.959290 1269.666382
-1541.674438 -680.132080 1311.133667
-1605.242065 -451.671417 1364.295898
-1603.952881 -334.479279 1397.446289
-1891.706909 -296.280792 1287.349243
-1641.084961 -325.088715 1304.939575
-1535.331177 -612.086670 1345.599854
-1624.971069 -288.122467 1350.803833
-1593.512085 -501.546478 1351.183105
-1548.254395 -572.891235 1399.192871
-1714.857910 -336.773895 1184.131348
-1779.895630 -277.713715 1357.652466
-1642.526245 -283.706360 1318.167725
-1644.284790 -344.260254 1295.657715
-1560.270264 -461.770325 1393.908569
-1698.106934 -280.635132 1243.437622
-1729.571533 -264.746399 1480.265747
-1763.315796 -258.923004 1219.183838
-1682.326660 -580.231384 1152.429565
-1626.602051 -350.366425 1339.183105
-1640.423340 -358.434418 1486.299683
-1653.726563 -342.773865 1281.800293
-1718.794922 -323.970306 1575.540894
-1617.464355 -405.685455 1347.336914
-1701.955688 -256.982117 1333.470337
-1611.585205 -374.094666 1448.336182
-1536.598755 -674.500916 1387.294800
-1653.923950 -358.597809 1453.703735
-1613.753296 -355.320801 1359.116089
-1642.376831 -355.184479 1319.478882
-1678.222290 -255.961700 1290.122681
-1525.388794 -673.048645 1343.452515
-1812.261230 -252.519455 1235.389893
-1657.405396 -263.094574 1429.804077
-1633.056885 -260.813354 1361.488892
-1817.737549 -309.324615 1551.863770
-1592.372437 -341.308899 1411.180298
-1720.924316 -313.539124 1496.919189
-1854.185059 -284.442596 1309.857544
-1950.658325 -307.708313 1378.078369
-1545.962158 -577.948669 1369.632935
-1616.448853 -292.647736 1387.831177
-1549.369141 -540.372192 1401.689209
-1676.228394 -283.843384 1268.467651
-1884.207886 -309.275940 1401.531982
-1734.364990 -319.022034 1498.100708
-1670.531860 -434.474487 1250.349731
-1706.259399 -283.740936 1226.635498
-1671.655151 -541.110046 1161.036377
-1656.784790 -375.524017 1309.660522
-1657.702515 -272.448456 1292.067749
-1668.999146 -427.989197 1169.224731
-1726.772339 -321.672302 1563.320190
-1547.520752 -488.972687 1396.388184
-1574.054810 -594.591125 1341.074219
-1612.708984 -374.584656 1445.634521
-1690.717773 -309.426636 1534.705566
-1664.660767 -347.146484 1268.357910
-1724.321411 -270.678528 1362.708374
-1786.307495 -283.064270 1508.426514
-1572.676270 -604.690796 1334.436523
-1669.403687 -255.016571 1376.083130
-1544.223999 -493.256592 1394.366089
-1643.468384 -266.217438 1446.147827
-1573.512573 -412.156616 1399.642456
-1711.071289 -283.408875 1236.045166
-1634.484741 -336.259064 1451.526001
-1646.140137 -579.840942 1209.796387
-1524.491577 -618.576904 1348.516113
-1620.655029 -446.523834 1333.584839
-1689.056885 -343.590332 1248.903320
-1908.953857 -317.625153 1438.481079
-1614.024658 -273.177490 1416.719727
-1536.258667 -517.439758 1420.876709
-1799.277954 -278.914185 1328.936523
-1688.703735 -240.415085 1292.137573
-1617.774048 -372.856659 1449.831665
-1816.277588 -290.267822 1388.722046
-1576.963379 -458.583984 1387.004150
-1593.869263 -608.093567 1293.736816
-1582.923462 -391.786774 1495.138550
-1587.017090 -496.920563 1351.743408
-1535.760010 -583.890442 1357.894775
-1552.761597 -522.474976 1376.698975
-1572.170654 -576.059631 1330.515991
-1729.477295 -279.476501 1357.087158
-1651.786865 -365.140045 1303.341187
-1682.681763 -342.087311 1558.330200
-1581.396362 -655.476440 1249.167358
-1658.250854 -623.230347 1218.797485
-1696.930298 -409.141296 1206.028320
-1662.626953 -464.132355 1263.994141
-1678.394775 -273.352142 1266.002319
-1666.148682 -582.735596 1148.307129
-1664.197876 -276.218262 1338.546265
-1686.256226 -481.348724 1173.461914
-1551.406006 -489.491669 1416.416626
-1634.968140 -591.174011 1203.098389
-1810.675293 -269.030823 1309.322266
-1801.882935 -269.725098 1271.446655
-1682.364624 -307.592194 1470.915039
-1625.495361 -471.566895 1298.938965
-1583.649170 -516.201538 1346.647217
-1584.267822 -571.259888 1307.083252
-1908.768311 -321.518005 1447.616699
-1613.486328 -287.327911 1375.108154
-1696.932739 -400.546143 1216.067383
-1665.766235 -313.796722 1570.709717
-1618.858521 -440.617401 1461.368042
-1554.749512 -529.332336 1369.573120
-1965.137085 -313.506897 1373.080078
-1535.529419 -646.510681 1341.532593
-1529.405518 -639.005676 1331.234497
-1665.847168 -266.305695 1376.693237
-1587.685425 -608.554443 1301.729126
-1801.605469 -258.457062 1269.719727
-1795.115234 -276.852112 1333.433105
-1597.178711 -309.186523 1408.156982
-1815.324829 -279.801636 1317.359497
-1641.544312 -535.016235 1226.227539
-1612.019653 -588.262756 1277.091919
-1654.841919 -302.531189 1302.222656
-1684.478638 -444.227264 1191.026733
-1615.159546 -306.561890 1424.656738
-1569.494751 -649.713318 1277.409058
-1569.626221 -642.631653 1299.010132
-1708.320313 -296.642700 1232.634033
-1557.160034 -482.587555 1379.828857
-1558.388916 -444.255737 1421.880859
-1645.076660 -241.416977 1454.419434
-1605.492920 -371.913116 1545.641113
-1691.525146 -337.728546 1230.205200
-1554.708618 -482.190430 1449.370728
-1652.254150 -526.452942 1257.791626
-1581.646240 -456.680634 1428.401001
-1672.653687 -542.029968 1207.523071
-1560.524780 -612.177002 1345.892212
-1811.079468 -273.950653 1285.159302
-1656.749023 -336.344727 1254.572144
-1671.066895 -342.438385 1540.397583
-1534.579224 -608.632751 1404.657227
-1577.412964 -621.457092 1295.128174
-1862.507324 -315.341797 1478.723145
-1588.069702 -392.998047 1424.247192
-1555.100342 -471.595093 1405.968262
-1517.407959 -639.500977 1416.105835
-1604.863281 -334.688538 1384.870239
-1619.806763 -570.359253 1243.638062
-1634.245239 -348.746277 1309.756958
-1823.008545 -301.222717 1446.129883
-1646.330933 -392.624847 1308.814941
-1674.296509 -338.848633 1495.956055
-1647.361694 -460.056427 1490.376099
-1645.544556 -566.658630 1183.666992
-1647.710815 -394.233826 1283.905029
-1645.281250 -255.781555 1338.427612
-1561.500610 -464.156799 1415.022217
-1612.390991 -402.391571 1426.407837
-1811.834595 -274.671997 1309.935303
-1664.387451 -495.154938 1210.973633
-1616.708374 -558.185486 1267.751221
-1794.960205 -269.814514 1520.225098
-1842.978149 -304.000977 1422.777710
-1622.346436 -410.022644 1369.926636
-1874.193604 -321.079529 1470.710693
-1563.891479 -694.551086 1340.462646
-1691.301514 -272.772003 1413.515625
-1540.355835 -579.054626 1374.313477
-1741.378784 -255.523865 1256.354370
-1703.630615 -406.525177 1192.955444
-1681.037231 -376.507538 1236.494751
-1687.266602 -371.666687 1520.870728
-1715.329102 -333.368866 1510.142700
-1608.510864 -377.215057 1447.831055
-1679.777832 -289.886414 1267.604370
-1561.709717 -521.862305 1422.957764
-1553.521973 -380.247162 1568.874756
-1568.943481 -653.104309 1273.458862
-1639.178223 -658.606750 1226.189209
-1653.402710 -282.899109 1291.466675
-1617.357910 -403.005157 1475.393433
-1720.272461 -324.994019 1535.947021
-1553.725098 -553.421448 1410.671875
-1614.992310 -367.432617 1510.316162
-1733.980347 -312.934204 1518.110474
-1941.268188 -317.460541 1380.570557
-1533.574829 -680.703186 1327.503784
-1831.619507 -257.970093 1246.767456
-1567.803589 -537.480835 1429.450562
-1724.413940 -250.479782 1231.264771
-1597.868774 -471.142853 1357.145508
-1576.078979 -434.528442 1408.410156
-1583.316284 -490.445251 1350.803589
-1591.925659 -475.651611 1356.238403
-1695.674561 -370.473022 1218.095093
-1774.768066 -288.817413 1520.991333
-1643.613159 -392.193451 1316.770142
-1719.568237 -282.137024 1220.328369
-1601.097168 -600.821838 1288.436401
-1672.766113 -366.908936 1548.617920
-1566.976807 -495.259766 1365.144287
-1672.918823 -312.103912 1266.558838
-1799.346680 -288.493774 1398.789917
-1728.499512 -267.136200 1224.439331
-1761.543213 -289.982208 1451.237549
-1652.253296 -565.873596 1230.329956
-1778.218750 -287.439514 1404.380249
-1857.818481 -315.241943 1474.701172
-1559.417603 -526.164490 1357.982544
-1569.206787 -624.618591 1310.577393
-1575.921265 -467.159760 1407.956421
-1742.601685 -293.105865 1195.901611
-1602.540771 -535.977478 1301.970581
-1689.265869 -733.520203 1422.027832
-1716.112061 -321.714813 1565.224365
-1592.502075 -505.551422 1326.972168
-1783.967896 -273.424530 1338.477783
-1663.457642 -308.895996 1292.808472
-1674.654785 -532.592346 1149.493896
-1595.482910 -333.229431 1390.776611
-1647.920776 -260.698944 1335.921753
-1930.508423 -284.271179 1305.926147
-1705.030518 -468.848938 1174.817505
-1669.546387 -291.852417 1273.665405
-1605.595215 -730.623291 1224.666870
-1706.202026 -333.900970 1503.226929
-1679.044678 -490.115631 1203.523804
-1699.401245 -240.741913 1483.167236
-1998.701782 -315.167084 1339.396240
-1633.827148 -576.036133 1222.470337
-1662.086182 -564.562500 1170.592896
-1646.998535 -345.373810 1307.756470
-1648.150635 -490.589478 1248.127808
-1635.413208 -616.674377 1202.631348
-1668.826172 -382.439545 1485.493774
-1676.575684 -242.045074 1299.973633
-1780.802246 -260.055786 1263.839966
-1548.000732 -618.702087 1329.435059
-1989.011841 -318.056213 1331.899902
-1601.502808 -314.555817 1409.034302
-1584.261719 -372.036713 1568.730713
-1567.258179 -442.105164 1427.331177
-1688.998901 -390.269775 1207.914795
-1747.353394 -255.826157 1243.429321
-1661.163086 -329.254730 1275.750000
-1662.790405 -592.781128 1160.940308
-1608.077148 -322.866974 1371.539307
-1572.588501 -427.396606 1412.408936
-1659.478882 -310.211456 1286.689819
-1964.087524 -306.512695 1332.087524
-1616.573608 -334.651947 1438.873535
-1594.937500 -438.261536 1447.080078
-1670.238403 -242.922333 1452.959961
-1594.897217 -458.142120 1351.454956
-1543.166626 -498.534851 1419.621704
-1606.951294 -376.705292 1351.830933
-1604.320313 -492.805084 1329.244751
-1786.224365 -245.613586 1218.080811
-1593.030518 -380.505463 1421.902710
-1679.981079 -367.458557 1481.580933
-1594.560059 -385.908844 1512.840942
-1705.772827 -329.228912 1523.193115
-1675.990234 -610.009155 1212.197754
-1849.840942 -288.377747 1335.619507
-1841.795410 -270.435089 1254.405518
-1647.566650 -260.573242 1411.637573
-1860.718628 -298.520355 1368.271362
-1672.842041 -479.469147 1218.569580
-1701.399902 -374.149078 1232.649414
-1665.276489 -525.706726 1173.397827
-1653.624268 -619.777710 1152.680908
-1590.852051 -549.766174 1315.473999
-1889.458984 -307.592834 1454.231934
-1690.185303 -479.013397 1168.383179
-1516.635620 -638.390991 1390.931763
-1593.893921 -382.768524 1527.691772
-1533.880981 -644.939331 1361.265625
-1581.758301 -389.130066 1499.035156
-1667.004517 -443.510040 1241.823853
-1557.016724 -564.239624 1400.518677
-1536.450806 -586.251343 1410.773682
-1677.230713 -265.600525 1468.306396
-1846.102661 -280.948608 1259.231079
-1749.403076 -268.598175 1498.779175
-1687.331421 -270.901886 1270.870850
-1604.700073 -272.188690 1412.644287
-1738.514404 -248.323593 1220.622803
-1930.678101 -308.432617 1340.551758
-1789.221924 -267.440887 1301.692261
-1579.491089 -457.768402 1380.366943
-1562.430542 -559.425293 1350.268555
-1636.092773 -571.998901 1179.045044
-1613.846069 -311.186157 1369.784668
-1691.035645 -408.865509 1199.479858
-1892.620972 -294.641113 1321.717773
-1790.443970 -299.306580 1457.208374
-1699.660156 -379.304352 1249.850098
-1758.624634 -260.825378 1212.243652
-1529.426025 -639.511108 1417.267334
-1815.203369 -300.533844 1451.013794
-1823.413940 -306.547089 1461.984253
-1685.854248 -264.810944 1270.929321
-1595.516235 -340.316162 1419.056396
-1833.996338 -319.985382 1496.184937
-1599.980591 -534.752869 1295.781982
-1542.902954 -513.403809 1387.416626
-1737.541870 -268.624207 1501.916382
-1658.657104 -245.965240 1329.173584
-1680.611084 -354.234467 1510.559570
-1649.820801 -247.985641 1349.685181
-1581.052124 -517.081055 1348.019653
-1848.711792 -297.632599 1396.000244
-1552.092285 -504.579529 1387.890137
-1550.807251 -580.965149 1383.303833
-1601.347778 -394.476624 1519.850098
-1656.850708 -272.921051 1457.638672
-1691.921509 -262.075684 1386.047241
-1610.655762 -519.187622 1328.634888
-1550.462036 -480.439758 1414.080933
-1683.680176 -354.849182 1252.799316
-1642.838867 -366.810608 1481.500732
-1566.460693 -439.098846 1401.476929
-1753.043945 -274.019653 1202.791992
-1661.587158 -601.738037 1187.614624
-1560.541626 -523.872131 1391.288086
-1936.731934 -305.910950 1307.485596
-1743.000977 -239.535370 1210.053223
-1714.926392 -318.902344 1224.583618
-1675.092896 -341.015900 1575.555176
-1718.342041 -315.635925 1187.244629
-1617.219360 -306.700928 1386.090332
-1618.131104 -281.369171 1378.051758
-1820.985229 -297.212067 1354.667725
-1611.029297 -574.433411 1250.568359
-1765.848877 -324.929047 1534.212036
-1696.198975 -297.118835 1256.142334
-1645.337769 -301.844788 1455.773193
-1717.045776 -271.674133 1382.369507
-1623.129639 -400.529877 1522.580933
-1718.468628 -265.929657 1457.869507
-1543.690918 -700.224731 1315.111450
-1707.519409 -322.673492 1221.561646
-1577.192383 -459.140472 1385.787842
-1646.680298 -285.901093 1318.170166
-1628.856567 -561.410034 1245.424561
-1539.828735 -597.843567 1447.003052
-1868.759277 -288.205994 1316.401001
-1680.109741 -342.398865 1548.149780
-1668.821289 -282.212891 1279.466675
-1699.151611 -323.318329 1517.165405
-1657.947021 -301.513794 1270.475342
-1665.201538 -331.935486 1571.143921
-1522.002563 -646.839905 1358.124390
-1617.770752 -368.035126 1468.980591
-1719.899414 -410.315735 1489.343018
-1708.124756 -275.551331 1410.137329
-1537.763428 -520.223999 1381.678223
-1666.104736 -479.560364 1211.239014
-1922.541626 -314.388367 1386.623779
-1605.865723 -376.483337 1471.048462
-1613.113159 -622.856995 1260.010132
-1581.445068 -526.563904 1340.850098
-1741.547607 -237.366730 1205.348511
-1550.654785 -493.001404 1405.119385
-1630.700562 -621.165894 1238.990356
-1734.387573 -241.461304 1251.439697
-1654.394165 -335.217987 1288.147217
-1586.088379 -496.971954 1448.831421
-1733.807739 -321.812195 1507.925049
-1892.993042 -317.043457 1454.025146
-1589.262451 -433.440094 1373.105469
-1855.478516 -309.151825 1437.703735
-1632.426392 -358.600006 1319.922974
-1627.825806 -450.304138 1307.935669
-1665.493530 -488.045288 1229.192627
-1880.480103 -283.364105 1301.591919
-1993.105103 -319.824829 1344.166016
-1656.663818 -299.146271 1311.511353
-1751.291748 -250.006851 1205.649658
-1531.781372 -613.996765 1373.443237
-1595.342163 -464.251038 1455.054199
-1605.536621 -545.641846 1311.116333
-1655.921753 -325.214752 1457.854614
-1605.545898 -382.332977 1372.757324
-1549.520020 -630.653870 1324.005371
-1582.282227 -697.880981 1333.681763
-1699.061035 -266.622009 1478.477905
-1650.588745 -267.139679 1320.588989
-1645.541504 -270.882874 1422.534424
-1711.046509 -285.450562 1236.271118
-1747.344727 -253.095078 1504.804565
-1683.990601 -490.431763 1171.364014
-1671.990112 -249.519287 1433.048096
-1614.417236 -298.282593 1371.116333
-1706.520386 -277.535919 1425.676880
-1531.997681 -631.827026 1394.704834
-1602.823486 -418.646790 1481.535889
-1529.464478 -588.882324 1389.848755
-1616.040894 -380.940552 1366.038940
-1607.685059 -581.014832 1286.428711
-1559.198120 -472.508118 1389.312500
-1601.868896 -509.799866 1331.232666
-1703.649536 -261.701202 1422.172607
-1881.843506 -298.166046 1344.799805
-1640.566284 -322.542572 1450.953003
-1618.088745 -364.003998 1461.761353
-1535.811768 -593.493469 1409.488037
-1590.336792 -642.142273 1234.261353
-1667.232910 -250.363602 1418.178955
-1752.215942 -254.450867 1263.403687
-1640.979858 -295.178345 1444.219360
-1670.189697 -501.432190 1179.970459
-1521.383057 -678.530396 1386.706299
-1545.760376 -491.600891 1420.811157
-1559.279053 -580.119324 1364.580688
-1857.290405 -283.369598 1271.669067
-1668.026855 -341.573883 1577.028320
-1643.004639 -316.688171 1305.488892
-1600.622681 -322.229675 1412.287476
-1591.800415 -415.008636 1376.610229
-1548.578003 -672.401489 1287.408447
-1729.587158 -385.068634 1183.136597
-1670.853394 -374.838531 1299.648804
-1762.372070 -236.570328 1203.273438
-1610.638062 -531.241150 1313.625610
-1685.005371 -424.876648 1227.599365
-1663.769897 -469.752258 1203.159180
-1650.175537 -515.438538 1221.245605
-1582.710693 -444.964539 1413.351196
-1544.619507 -553.509521 1417.666138
-1611.869751 -487.024628 1326.861206
-1670.247803 -489.782593 1239.546509
-1602.598511 -384.462036 1489.916504
-1601.811035 -320.284515 1408.235229
-1608.687378 -275.160339 1412.267212
-1572.885742 -671.800598 1280.115112
-1578.957642 -372.608337 1520.565796
-1660.205566 -260.987030 1367.107544
-1654.935791 -571.737305 1227.282349
-1543.759644 -682.297424 1435.356201
-1644.663330 -663.932678 1147.160767
-1652.378784 -293.282318 1460.216919
-1708.247070 -738.623291 1427.328491
-1534.838135 -640.449890 1326.776245
-1705.289307 -237.870026 1250.351074
-1548.552612 -511.393402 1386.655396
-1694.227295 -428.912872 1186.183838
-1790.141968 -296.361298 1444.599854
-1547.157715 -687.371582 1326.575684
-1601.129272 -328.896149 1422.235962
-1621.647461 -287.424286 1414.241211
-1633.342407 -242.090393 1370.199463
-1702.206177 -258.333435 1252.052734
-1641.016235 -527.791992 1230.830444
-1648.718262 -249.605515 1357.465210
-1606.665405 -353.197327 1470.108154
-1668.775513 -249.452759 1334.310913
-1584.787720 -377.333466 1416.131104
-1602.935669 -353.229645 1374.707764
-1537.396362 -496.562042 1424.346313
-1631.130981 -266.431946 1361.263672
-1630.470581 -368.031738 1478.511475
-1553.567261 -551.133911 1427.871826
-1581.183716 -407.164063 1411.859985
-1772.343750 -313.604858 1527.206177
-1568.906616 -458.048859 1422.770142
-1831.053833 -286.213715 1345.514893
-1614.351685 -628.703674 1235.393311
-1591.045532 -399.172150 1429.625977
-1587.069092 -368.056335 1507.273071
-1744.562622 -254.943008 1243.999268
-1540.370605 -604.665955 1342.020142
-1651.480347 -358.132141 1483.367920
-1680.088013 -254.383224 1292.583740
-1666.004761 -257.572357 1402.453125
-1793.128662 -274.934845 1369.786255
-1617.466064 -298.745422 1363.410767
-1687.842163 -409.315338 1269.467773
-1687.593872 -303.720184 1245.478638
-1614.212891 -535.709167 1270.522705
-1866.928589 -298.336243 1371.514526
-1701.781616 -256.067566 1265.794678
-1757.864990 -279.058289 1435.984619
-1623.908936 -468.710144 1296.887695
-1586.956909 -422.496704 1382.970703
-1918.006714 -279.752533 1294.774780
-1545.897827 -570.042603 1358.450195
-1546.779053 -631.834351 1374.895020
-1606.584473 -364.420502 1370.803833
-1711.744019 -324.154755 1495.420898
-1641.541382 -425.818420 1299.424438
-1652.300659 -545.858948 1229.878418
-1665.941772 -494.536133 1163.440063
-1707.957886 -397.211182 1177.482178
-1934.952881 -320.003418 1398.227539
-1566.952271 -370.975037 1531.673584
-1807.333984 -267.790039 1323.148193
-1550.777588 -549.771790 1405.422119
-1586.808594 -351.858917 1536.331421
-1706.699707 -396.563110 1187.273682
-1539.041260 -520.345947 1405.847656
-1717.071655 -264.788391 1340.572144
-1691.294312 -324.889496 1186.927368
-1602.561768 -325.645325 1417.991943
-1534.182617 -618.337769 1401.354370
-1631.500854 -629.678589 1243.884644
-1624.012695 -632.271240 1171.626465
-1908.155518 -313.038300 1382.101196
-1555.048218 -386.113281 1549.749268
-1660.956055 -451.275116 1255.726807
-1621.167480 -269.104645 1387.747559
-1531.903198 -605.796265 1356.284790
-1707.645386 -378.048401 1201.656128
-1610.606323 -403.091522 1515.160278
-1670.968872 -462.508270 1226.684204
-1632.268921 -402.007935 1321.469116
-1821.747192 -279.131195 1306.888794
-1621.789551 -311.113953 1353.396851
-1620.896118 -625.340637 1178.087891
-1602.812622 -273.363220 1419.356567
-1549.017212 -559.470520 1386.735474
-1677.454102 -337.362701 1574.827393
-1792.126709 -271.794128 1351.184937
-1736.053711 -258.752441 1354.251221
-1640.621094 -599.602295 1195.185547
-1629.426392 -313.426697 1330.906616
-1673.033569 -262.125641 1470.978760
-1659.267578 -601.709595 1184.407593
-1730.430176 -304.908539 1210.311890
-1798.821289 -300.881958 1457.328857
-1587.335693 -361.402283 1535.996704
-1754.147827 -254.138519 1240.785522
-1754.348999 -267.327118 1311.851318
-1650.100830 -441.021606 1158.119995
-1529.515747 -597.453735 1388.427246
-1727.768921 -260.333038 1482.817993
-1735.765503 -270.587860 1469.312500
-1639.303223 -438.497345 1301.854736
-1666.083740 -570.139526 1140.777954
-1648.725098 -574.544739 1190.712891
-1608.599976 -294.524048 1439.810059
-1635.879639 -383.606812 1525.320190
-1619.280151 -525.172119 1483.533691
-1576.845947 -417.507965 1412.230835
-1649.185791 -523.045410 1262.209229
-1621.792725 -649.899292 1194.734009
-1578.291748 -455.267517 1408.310791
-1645.138550 -385.369171 1318.842529
-1724.995239 -264.665771 1388.688843
-1524.223633 -587.325073 1374.143677
-1564.984253 -632.266724 1313.277832
-1668.272461 -483.507690 1220.746582
-1707.117676 -275.229889 1423.001831
-1643.275146 -264.642914 1393.107422
-1675.078735 -374.864532 1271.474609
-1638.655029 -299.266083 1325.110962
-1709.167969 -276.549713 1414.742676
-1542.612427 -530.908325 1411.135620
-1627.817261 -287.510437 1392.822998
-1543.816406 -536.150818 1405.794434
-1601.034912 -393.835358 1532.488403
-1653.005981 -333.250824 1295.153931
-1838.503174 -286.365692 1309.984375
-1570.588257 -431.386169 1395.343140
-1813.656372 -272.001038 1236.238525
-1943.120483 -320.165497 1411.805420
-1645.475098 -277.186310 1320.192139
-1738.066650 -326.200165 1570.592407
-1627.392456 -714.617004 1383.873047
-1540.943726 -594.967285 1384.888794
-1535.784058 -673.755005 1387.485718
-1856.537476 -286.947144 1312.752686
-1715.602539 -269.582886 1492.254639
-1663.433838 -261.262238 1298.483521
-1607.975464 -370.268799 1534.811401
-1594.376831 -350.719666 1420.156250
-1573.183960 -361.891785 1545.133057
-1681.651611 -400.891785 1177.585815
-1551.734253 -661.585205 1299.453979
-1697.214478 -256.058868 1322.698853
-1608.650879 -296.775269 1407.205444
-1729.900391 -357.498779 1192.482422
-1679.494507 -336.218628 1541.870361
-1728.253540 -273.632721 1218.687378
-1528.648315 -622.155151 1363.185181
-1779.776001 -331.534576 1523.629883
-1582.749512 -523.617065 1444.097168
-1681.207031 -278.702332 1268.864624
-1545.524536 -676.223938 1297.550781
-1602.686646 -654.172729 1217.738281
-1535.920288 -634.875305 1419.254517
-1518.438599 -669.259827 1364.187622
-1639.790527 -344.394073 1310.660889
-1670.140991 -504.189880 1202.443970
-1671.556641 -313.305695 1280.743530
-1705.671997 -271.728241 1238.018555
-1650.362671 -510.629913 1232.287842
-1605.972534 -361.109680 1503.852051
-1591.156006 -519.512207 1337.636475
-1534.711548 -512.159119 1413.589600
-1603.751099 -432.098480 1429.699585
-1636.570557 -299.640442 1334.297974
-1601.104858 -525.878479 1460.153198
-1667.196777 -298.295654 1293.951172
-1611.819214 -334.146545 1351.117310
-1675.431396 -260.665680 1435.147095
-1731.736450 -240.090729 1203.276489
-1533.615234 -652.542175 1380.324829
-1626.924927 -325.236603 1435.160400
-1624.975464 -318.569153 1335.960205
-1606.509888 -653.856201 1210.624878
-1541.447266 -568.831848 1415.581665
-1604.535522 -299.523773 1399.834229
-1871.789551 -296.547546 1359.866943
-1622.373169 -362.043579 1527.224976
-1540.067261 -599.627625 1405.389771
-1620.904175 -496.268890 1324.402710
-1541.360474 -544.800476 1425.250488
-1602.426758 -545.640991 1328.364136
-1608.706787 -609.937561 1231.249146
-1597.527954 -360.386200 1477.920166
-1771.513672 -273.851563 1514.996216
-1805.145630 -292.957214 1419.195068
-1697.722656 -416.847687 1232.139771
-1613.782593 -546.327209 1289.583130
-1582.866699 -599.469177 1284.364624
-1697.617188 -364.483032 1209.473999
-1651.382446 -287.702484 1302.930054
-1726.797119 -228.522110 1236.729370
-1695.649536 -321.194977 1584.906494
-1821.959961 -281.766785 1320.144043
-1623.711304 -296.743713 1358.867920
-1828.803955 -287.611572 1330.544312
-1595.767090 -302.767059 1421.138184
-1616.164673 -333.057556 1438.963867
-1587.105957 -368.979767 1499.060791
-1843.765259 -300.109436 1398.697510
-1607.220947 -361.782776 1373.690186
-1584.343018 -669.141479 1288.520508
-1623.931763 -508.153351 1305.869263
-1553.290039 -505.159698 1382.284546
-1677.529175 -458.388367 1233.368286
-1647.268311 -593.099609 1205.676514
-1964.218262 -291.178223 1318.905151
-1565.901855 -368.143219 1571.768188
-1651.940552 -514.240051 1233.142944
-1766.974854 -276.889893 1345.150269
-1680.607178 -445.430450 1213.659912
-1625.779419 -384.331268 1354.586670
-1659.225952 -403.153290 1269.520142
-1577.745850 -427.836578 1415.269409
-1646.623901 -258.403900 1437.147705
-1524.421387 -612.525879 1396.378052
-1672.565186 -264.908722 1348.398438
-1772.895752 -291.206940 1441.826294
-1615.843994 -343.394745 1345.307617
-1847.933350 -301.739105 1422.804688
-1757.527222 -228.236847 1210.004028
-1692.850220 -292.308899 1245.676392
-1620.643677 -451.340851 1324.204224
-1690.232056 -399.522797 1197.121460
-1662.088501 -344.154266 1256.246704
-1624.833862 -682.857056 1199.202026
-1680.604736 -275.394867 1266.662476
-1588.534912 -711.347961 1427.028442
-1647.721558 -341.994110 1577.816650
-1643.509399 -257.986328 1441.494751
-1875.129028 -289.256470 1357.899902
-1661.254517 -349.575256 1566.554321
-1792.159302 -260.041138 1262.524780
-1668.422974 -262.125427 1427.145386
-1545.453613 -552.522461 1370.281250
-1630.665771 -483.381012 1299.117310
-1881.330078 -303.467804 1387.562866
-1726.678101 -252.001007 1295.381470
-1686.638062 -523.638794 1155.447021
-1649.988159 -514.858643 1200.233887
-1621.875732 -333.312012 1431.474243
-1611.607910 -340.723938 1374.829102
-1605.247559 -624.548157 1248.593262
-1618.589844 -418.481384 1453.448730
-1792.872192 -285.235779 1522.121460
-1640.617065 -343.847137 1300.115234
-1572.776733 -391.045990 1529.616211
-1734.943115 -280.897339 1220.905762
-1574.835449 -400.079834 1502.205933
-1660.767212 -327.559540 1273.515137
-1645.687378 -268.824615 1334.918091
-1538.955444 -617.148499 1389.295410
-1734.950439 -324.590576 1564.324097
-1740.125854 -309.015808 1208.147827
-1592.138550 -373.572693 1381.022217
-1604.397217 -555.779846 1304.384888
-1586.088867 -550.107605 1316.934692
-1642.188965 -408.390137 1362.368042
-1605.826416 -465.866119 1329.198608
-1617.970947 -346.792236 1341.810303
-1649.976563 -485.522675 1249.002930
-1775.119507 -286.672363 1402.794067
-1639.340820 -439.955048 1295.209351
-1639.283203 -283.099823 1338.969116
-1727.980103 -326.558380 1581.207764
-1641.922852 -353.700989 1298.948853
-1618.719238 -315.490051 1356.191650
-1588.426758 -559.894531 1315.984131
-1604.380493 -336.471161 1367.917236
-1627.557251 -349.346436 1335.860474
-1779.213257 -276.065735 1400.894897
-1592.352173 -415.822449 1422.290649
-1529.559937 -614.259460 1357.221313
-1724.151001 -284.012207 1211.533447
-1592.104858 -498.934265 1331.958496
-1559.328003 -459.575989 1407.158203
-1770.189209 -268.248291 1209.819214
-1565.188232 -555.859436 1416.369019
-1535.211548 -626.067078 1416.298462
-1946.256348 -281.357910 1304.911133
-1568.294067 -452.727692 1442.658569
-1691.670654 -375.462189 1229.328857
-1700.843750 -333.314545 1237.377930
-1722.723633 -276.574432 1238.412720
-1746.313110 -266.091705 1312.344849
-1605.636841 -568.790344 1272.657471
-1600.360962 -338.655334 1413.519409
-1643.520508 -367.191315 1495.185669
-1700.437500 -296.649658 1236.760010
-1589.390747 -367.609772 1566.165649
-1570.911865 -436.079956 1387.954956
-1610.565430 -463.821655 1447.362549
-1642.410278 -331.334198 1300.973877
-1630.305176 -562.785339 1215.817017
-1650.610352 -313.322418 1312.126831
-1771.740356 -261.482422 1250.997070
-1608.529663 -435.985077 1437.764893
-1666.656372 -324.459961 1463.907471
-1686.596924 -330.073853 1219.663818
-1728.197144 -267.877960 1403.171387
-1754.657349 -269.425171 1381.905884
-1581.975952 -564.544128 1314.850464
-1607.055786 -364.774323 1481.644531
-1613.546631 -309.707550 1422.721436
-1604.921509 -496.068420 1353.154663
-1611.285767 -316.432800 1437.747314
-1563.152466 -459.913361 1417.215942
-1577.366577 -469.325653 1385.849731
-1692.239624 -373.050781 1265.699219
-1602.127808 -374.104584 1461.714355
-1645.799072 -281.779755 1309.031006
-1689.583984 -328.766541 1477.236084
-1608.385498 -417.428772 1357.865479
-1861.918823 -292.436951 1299.815308
-1607.886475 -329.929443 1387.426514
-1827.340088 -274.857513 1262.890991
-1602.613647 -352.625580 1385.719238
-1687.014526 -332.762756 1572.711304
-1560.550659 -483.976257 1431.365845
-1923.471558 -323.808258 1346.890015
-1575.705200 -539.197510 1352.276978
-1666.818115 -290.558777 1289.338623
-1606.755859 -561.635071 1461.925781
-1861.760254 -297.119720 1359.773926
-1551.677124 -476.978851 1390.481079
-1800.377686 -265.603058 1263.429565
-1823.391846 -281.885071 1323.893066
-1587.503418 -454.539246 1380.125610
-1654.188477 -291.247375 1311.864990
-1635.670288 -532.676758 1244.001831
-1697.086914 -295.032562 1244.964966
-1634.293823 -640.061096 1164.473755
-1687.924683 -455.413574 1178.788940
-1642.250977 -389.348541 1321.231567
-1531.941406 -619.164734 1347.854492
-1597.930542 -495.549622 1485.867432
-1561.897339 -598.447083 1330.851807
-1821.356689 -254.708511 1238.618896
-1733.461670 -257.114258 1257.323853
-1775.285767 -276.447662 1342.995605
-1930.496582 -297.132202 1297.625366
-1783.930664 -743.383667 1360.393066
-1534.879150 -643.250183 1405.775879
-1593.998901 -591.422241 1280.204346
-1658.321777 -346.747589 1276.068726
-1654.805176 -276.751129 1301.847778
-1661.062866 -536.007935 1184.025391
-1605.633911 -554.649109 1281.674805
-1817.140869 -282.177094 1516.085571
-1639.377930 -262.407745 1351.694458
-1605.441406 -502.218567 1318.464844
-1756.673950 -273.808411 1417.617065
-1617.518188 -372.658844 1426.341187
-1644.142456 -471.123810 1266.071777
-1571.574829 -635.407104 1310.929077
-1656.741333 -271.945282 1322.805298
-1638.312378 -262.798279 1438.725220
-1566.680908 -474.040527 1375.464233
-1684.126831 -483.566010 1182.691406
-1834.102173 -299.349457 1476.682495
-1593.512817 -385.371765 1480.767212
-1712.842163 -256.425598 1264.110474
-1701.780029 -383.285797 1199.450317
-1719.845947 -238.320679 1245.979126
-1615.415527 -275.363739 1384.923706
-1819.452393 -294.291718 1547.585571
-1533.104126 -678.398804 1384.120117
-1652.444214 -285.893188 1331.013306
-1718.345947 -275.331085 1394.187866
-1599.980591 -528.059937 1326.408325
-1526.131714 -659.570190 1392.783203
-1547.409424 -561.615112 1410.312988
-1597.992432 -545.065125 1300.487183
-1665.212524 -258.721039 1355.804321
-1527.072510 -681.681580 1369.557251
-1636.584106 -585.065918 1209.738403
-1594.073486 -570.271423 1284.076050
-1583.568604 -662.825867 1248.873535
-1685.992310 -427.847565 1161.311890
-1714.926392 -315.775848 1184.447510
-1647.964233 -486.837830 1243.497681
-1723.319824 -373.448456 1196.659912
-1784.724731 -293.181335 1442.615112
-1995.256348 -323.205414 1339.250244
-1751.132324 -255.344284 1207.030762
-1744.486206 -269.954803 1367.091919
-1610.266235 -687.882385 1243.095581
-1674.803345 -461.450256 1154.975342
-1883.200439 -283.741699 1297.622437
-1851.823364 -291.968781 1355.164917
-1799.928955 -275.356628 1327.917847
-1690.520508 -308.634766 1483.105469
-1654.351807 -733.878784 1460.520874
-1715.034058 -254.164719 1320.211060
-1671.911011 -264.890259 1283.446899
-1800.851318 -281.116180 1354.775879
-1653.190674 -411.641083 1285.902222
-1922.064941 -291.039581 1309.057129
-1689.391846 -431.305664 1238.065552
-1658.043579 -257.219849 1336.030273
-1693.490234 -413.600647 1215.930176
-1605.395386 -308.427429 1418.079590
-1537.377930 -610.508972 1401.433594
-1625.789429 -580.879456 1236.886719
-1758.011597 -274.747131 1351.966919
-1609.221436 -383.401428 1435.447998
-1775.105957 -253.045715 1222.260132
-1707.959961 -260.088806 1236.959473
-1692.173218 -413.428375 1165.153564
-1547.368774 -558.118408 1384.880371
-1621.337036 -262.183868 1419.218994
-1627.648438 -328.946442 1308.971069
-1586.243408 -567.934143 1298.705322
-1806.327759 -262.747253 1253.790894
-1787.546875 -274.181641 1371.527954
-1709.328857 -269.195892 1374.988647
-1639.568481 -297.889130 1302.561646
-1657.023315 -519.654175 1143.305908
-1655.860474 -247.021912 1436.854736
-1563.236206 -567.208374 1347.893677
-1575.507935 -616.685608 1304.500244
-1819.733643 -286.090302 1353.720703
-1645.001953 -362.361603 1294.967407
-1628.178833 -486.317322 1286.961304
-1645.287354 -477.183105 1273.146851
-1642.208984 -598.614197 1232.684814
-1697.313721 -435.375366 1201.156860
-1865.289429 -306.005798 1419.720825
-1688.921021 -246.361481 1282.418579
-1787.295288 -286.258453 1402.526855
-1608.715698 -532.188232 1296.234619
-1548.002441 -486.202179 1427.365234
-1830.704712 -285.391205 1388.032349
-1778.670166 -298.674286 1417.472046
-1871.497559 -320.861572 1474.185669
-1596.500732 -322.209229 1410.596802
