ply
format ascii 1.0
element vertex 1368
property float x
property float y
property float z
end_header
1455.300659 654.787231 1491.408691
1539.613770 800.114136 1366.848389
1498.285889 525.234863 1411.484009
1568.912109 482.490784 1338.879517
1468.206055 530.302002 1456.849731
1572.002075 618.113464 1295.123413
1550.965454 482.665344 1371.558350
1546.077393 798.542297 1245.664063
1529.174683 754.732178 1311.230103
1512.684204 633.561829 1388.205933
1681.601440 438.130402 1600.030396
1415.570435 553.354675 1560.678101
1463.600098 693.827087 1471.302124
1596.886353 486.552002 1587.911621
1572.510254 525.685181 1607.295288
1524.916870 377.511292 1442.319824
1679.555908 483.321686 1643.636230
1498.146729 373.057617 1447.609131
1584.494873 440.150208 1554.642456
1504.401367 507.215454 1404.925903
1583.043701 368.640106 1521.696045
1435.012573 555.610962 1489.279785
1531.336914 487.326477 1566.110352
1547.226807 838.406250 1290.824219
1415.060913 604.519287 1516.828247
1536.237427 433.066681 1517.605103
1427.507202 501.994843 1517.849121
1489.286987 744.478760 1369.259888
1539.593994 375.894562 1484.316406
1566.724487 688.768433 1275.545044
1461.853394 517.931152 1451.849976
1499.866333 667.225830 1617.252075
1437.059937 637.300964 1458.591553
1496.188599 577.708130 1415.937744
1503.543457 382.964142 1459.589355
1509.319336 416.894836 1434.401855
1408.790405 571.770935 1519.732300
1625.764160 603.562561 1208.404175
1470.499756 618.360718 1616.589111
1500.562012 569.524170 1603.224976
1527.323242 715.753723 1335.672729
1585.791260 781.348267 1214.601807
1508.598511 618.410217 1399.151978
1550.822388 484.817749 1365.703247
1534.952881 530.834778 1372.230103
1520.938721 697.384399 1338.101563
1488.721313 438.655975 1500.199585
1546.799072 423.726471 1396.417236
1451.241211 614.001587 1458.327759
1512.884399 721.570007 1320.471069
1432.033569 705.651855 1537.538818
1449.036377 567.520264 1574.177979
1550.019653 806.631531 1259.290771
1519.422241 834.573608 1326.553833
1531.397339 467.678223 1540.572510
1536.637817 360.762543 1489.928833
1442.941162 574.837158 1461.439331
1527.266235 505.760193 1563.032837
1467.772583 580.428772 1442.241943
1482.826904 724.983582 1368.909302
1477.196899 703.995789 1460.680176
1446.555664 644.282593 1443.614380
1489.502686 707.475952 1484.406250
1435.308105 572.182373 1570.875610
1565.681396 713.284973 1251.670532
1564.189209 787.184143 1217.077026
1494.047485 634.273071 1568.494507
1454.956421 696.788940 1538.994507
1579.798340 469.551453 1321.906860
1607.547485 572.502502 1669.543457
1475.788452 587.422119 1618.856079
1472.975464 601.948608 1429.476807
1549.814453 659.087219 1303.207764
1520.907715 767.433167 1333.543213
1543.307251 689.340759 1297.187378
1553.448364 472.570251 1567.778198
1685.191650 477.051697 1627.532837
1523.425903 668.477539 1600.987305
1528.228271 414.511047 1380.858032
1558.985718 562.166443 1336.604492
1465.066772 557.713318 1570.987061
1693.040527 490.807495 1640.502441
1473.226074 509.138519 1441.335938
1500.854980 693.060730 1659.425415
1523.478638 615.823853 1646.974365
1459.720581 689.326965 1504.459351
1570.331909 533.216553 1321.057495
1474.320190 512.692566 1444.310181
1508.157837 587.152832 1401.217041
1520.211304 370.546021 1454.658569
1640.459229 537.056152 1650.047363
1400.987183 571.410950 1548.612183
1482.500366 701.563171 1425.816162
1437.211060 621.953064 1530.821167
1574.145142 575.285828 1642.386841
1478.352539 758.506714 1408.332031
1513.873047 608.882568 1655.508789
1550.734131 613.194458 1317.209106
1565.816406 597.844055 1309.790894
1515.000244 405.969543 1442.616577
1459.227539 590.720520 1620.225586
1488.010864 582.834656 1435.356445
1500.595459 710.370178 1478.601685
1426.487915 544.376709 1492.665894
1587.948486 541.350220 1290.695190
1476.831543 641.614380 1431.833618
1433.421631 612.724548 1490.546387
1535.297729 676.186829 1328.171387
1497.709351 563.758667 1596.999390
1452.414673 485.675720 1471.605713
1536.201416 618.751099 1648.796753
1437.307617 643.628174 1475.740601
1510.427368 786.351196 1323.782837
1636.455933 584.881531 1667.897095
1596.115234 548.731323 1258.883789
1533.451538 570.164429 1392.500610
1578.488770 509.488831 1308.517578
1498.173340 696.202454 1370.660767
1707.356567 422.752686 1601.595337
1492.374390 511.617950 1554.180054
1455.865479 518.321106 1485.426147
1567.859497 772.946411 1227.473022
1590.254761 504.028900 1290.739258
1547.032227 381.683685 1465.241821
1531.147705 404.156464 1502.039185
1504.156494 643.991089 1377.165894
1568.390991 524.827698 1600.161743
1492.765991 694.398865 1489.082886
1433.252563 555.291870 1551.118042
1543.467896 503.060486 1386.376709
1436.158569 562.694458 1469.635742
1487.597046 511.996094 1559.702271
1530.306396 404.466003 1433.792236
1441.975342 759.256104 1572.189453
1530.926025 569.766052 1611.024414
1457.197021 412.653564 1498.355469
1446.508057 729.681946 1518.345703
1457.366577 591.453552 1437.005859
1717.562744 409.512299 1598.283691
1518.488647 661.909851 1348.338867
1725.985352 437.867218 1619.885376
1487.250122 474.562653 1438.458008
1517.886475 363.780396 1464.711792
1492.746582 660.296509 1384.248169
1703.481445 706.798157 1202.640259
1408.305664 576.493225 1513.100830
1471.875366 574.276794 1443.876099
1621.727783 587.195313 1212.169922
1435.599487 638.943909 1489.862061
1514.627686 368.155396 1461.526611
1531.735229 756.892700 1288.340942
1540.125854 767.288879 1246.537109
1441.024536 590.327698 1459.878784
1575.900024 715.704285 1234.132935
1695.666382 489.601654 1653.200073
1480.513306 740.794434 1425.140869
1595.873779 663.724121 1241.928345
1487.101318 689.910522 1634.361328
1479.745483 601.337830 1629.103882
1520.091064 471.074890 1401.810547
1486.960938 731.728455 1357.021240
1522.812622 399.826477 1487.870972
1500.795410 513.010437 1560.313477
1545.850464 837.566833 1270.969604
1492.526489 636.318481 1417.075195
1458.502197 518.311096 1470.934082
1620.658813 564.030029 1223.240967
1433.472656 598.222534 1495.498047
1545.671143 598.377747 1341.784790
1592.986572 747.576355 1212.437012
1500.757935 568.850525 1428.545166
1473.141479 619.225464 1421.533936
1493.075195 724.671204 1354.127808
1443.537109 550.259399 1462.148926
1487.878784 479.313721 1436.531616
1495.320679 697.337402 1595.780518
1480.931152 655.003784 1527.877686
1592.175537 525.382141 1281.377563
1651.071777 561.223389 1673.792358
1708.555420 431.190308 1593.958618
1560.446533 363.118164 1509.591431
1562.512451 647.818909 1298.354248
1491.501343 562.325623 1584.341064
1595.608154 599.338257 1290.537598
1506.668091 548.678894 1585.801025
1491.913330 370.384033 1452.955566
1537.583374 658.379700 1326.926147
1480.758057 760.957520 1558.985840
1533.846558 366.789581 1483.087646
1568.349487 799.431030 1388.520752
1416.635254 575.868286 1517.131592
1584.417603 600.788696 1304.504883
1494.210083 706.795105 1468.116333
1443.970825 698.603271 1559.686035
1507.791260 780.424866 1369.092285
1513.721558 483.667175 1546.171509
1635.560913 441.064117 1581.264526
1605.726929 655.086182 1227.713745
1490.079102 710.776245 1520.556641
1453.504883 619.129517 1560.591919
1418.077515 749.368591 1565.658081
1397.906494 560.249390 1546.817871
1637.516357 589.465576 1179.881226
1510.598145 612.970703 1403.503052
1626.695557 528.384766 1246.788330
1723.902588 449.800751 1623.295654
1497.237549 773.593445 1371.244751
1510.191895 512.316467 1572.567017
1444.367554 707.561890 1522.491821
1492.463257 525.307556 1415.840698
1523.092773 438.797272 1401.401733
1460.489014 628.208740 1557.404175
1707.162476 400.369110 1606.130371
1581.556641 691.258118 1252.579834
1485.939209 484.750641 1446.210571
1589.744263 544.921265 1629.516479
1522.880615 482.058228 1402.139893
1601.361938 550.301880 1245.651001
1556.421387 431.688904 1381.437744
1610.025391 658.796875 1287.425903
1584.127930 560.943970 1648.753906
1513.776123 684.388611 1345.018799
1491.102051 698.960999 1622.759521
1559.083008 421.761688 1528.944824
1512.266357 740.132080 1303.286987
1567.085449 512.881836 1408.908203
1458.929321 495.931458 1463.892334
1446.271118 539.662048 1550.017212
1480.994263 724.194275 1598.130859
1574.059448 637.323792 1270.930908
1510.339722 603.586121 1636.482544
1479.831177 641.136658 1422.737671
1509.701172 558.354858 1410.661133
1456.855835 703.096802 1433.360718
1432.412598 575.367065 1593.488281
1583.825684 586.694946 1289.860107
1536.712158 683.127747 1313.723267
1554.349121 428.737488 1379.619507
1667.992310 450.602051 1583.801392
1422.748535 600.141357 1563.794434
1623.851196 600.355652 1198.639526
1608.966797 653.907166 1223.544434
1501.980713 428.352875 1437.961304
1448.196533 762.965332 1571.019653
1413.763428 777.236877 1538.432739
1533.345581 453.339172 1533.977295
1592.721802 573.600220 1277.796265
1427.200684 625.488220 1486.598755
1508.101196 715.585693 1323.563354
1524.212280 610.645020 1653.816528
1521.524780 425.139832 1413.436157
1518.158691 749.382568 1446.603271
1452.330200 587.987183 1595.018066
1448.563354 513.944580 1455.567383
1426.706909 756.069336 1524.361572
1490.172485 680.319092 1381.688843
1565.490112 448.347534 1363.330078
1444.194092 515.840820 1472.135742
1425.683105 514.457336 1518.918091
1632.449463 524.440979 1637.945435
1602.844849 594.722595 1249.063843
1462.965332 475.368713 1464.153442
1434.053101 559.060608 1513.131958
1644.949341 695.352600 1225.515015
1557.310181 369.550385 1497.208618
1583.589111 573.733765 1265.811279
1452.416138 644.626465 1443.827759
1587.258301 575.304260 1282.214233
1442.776001 721.947144 1539.719849
1533.630127 735.324280 1275.743774
1548.530151 820.399414 1298.650879
1468.715454 455.382782 1469.177490
1424.300049 547.130005 1523.316650
1487.973145 657.857971 1521.723145
1551.328979 786.408508 1231.839478
1626.819214 632.231323 1170.385254
1661.875366 540.670715 1658.365112
1447.201904 566.345337 1580.137939
1582.988770 812.335693 1403.465820
1575.154663 667.709290 1263.548584
1539.881226 512.764221 1581.511841
1457.634644 583.283020 1637.366821
1592.378662 659.783875 1250.400635
1513.489746 632.850586 1372.192017
1556.709351 421.099030 1401.283569
1618.323486 556.588928 1651.151489
1467.297729 666.957642 1427.212036
1475.007324 506.764893 1433.025269
1543.736084 829.083191 1270.306763
1414.757935 607.565369 1498.093018
1503.092163 508.655762 1554.539917
1623.088135 600.542358 1215.799438
1629.882202 480.295654 1594.750488
1541.842651 415.129761 1405.318115
1628.617920 670.070679 1646.971436
1455.997314 646.127930 1525.014282
1540.950439 474.155029 1383.846191
1678.088135 471.574707 1620.381592
1466.088013 695.383423 1451.420166
1541.936401 776.050476 1276.270752
1643.841553 603.925964 1212.683105
1492.812988 686.020081 1643.598999
1427.305420 751.682678 1543.967163
1467.666382 459.877625 1458.637695
1475.916992 728.639771 1387.659668
1491.002563 437.514740 1474.379272
1607.267944 539.321106 1633.987549
1473.756348 565.898132 1593.261719
1564.306152 448.394562 1556.026733
1555.495117 493.126404 1374.879028
1530.504150 483.547516 1392.122681
1450.983887 573.788879 1622.350464
1506.545166 682.290771 1638.546997
1590.493286 682.705566 1258.775269
1534.980591 795.871033 1279.809082
1424.955200 574.668884 1491.460938
1553.685547 655.779480 1651.804565
1622.250854 627.623779 1201.085815
1422.893311 518.497498 1538.340210
1613.120850 503.279694 1612.368896
1482.376343 694.833862 1617.210938
1494.357300 667.701904 1543.269287
1458.960571 590.909119 1611.936157
1557.128784 437.288116 1377.243652
1625.756226 553.088867 1215.924927
1573.451294 541.493774 1325.657837
1620.538574 535.244568 1235.951172
1455.946899 643.722961 1494.321533
1680.392090 460.022583 1613.354004
1615.231812 476.569092 1585.493286
1473.465332 685.141174 1639.133911
1657.740479 468.658691 1621.529907
1587.136841 555.831482 1633.073364
1576.532715 715.464783 1250.491821
1554.188232 580.804993 1658.963257
1575.020020 718.798645 1248.907715
1454.899658 731.432007 1562.665405
1515.836914 474.222107 1535.037476
1668.222168 423.288269 1593.137329
1478.261841 501.583588 1434.613159
1463.334595 682.285278 1543.331543
1515.902100 449.386261 1428.789673
1643.804199 452.045776 1589.602051
1505.896362 392.676605 1483.665771
1444.465332 543.720398 1472.187378
1523.939941 566.022583 1608.666260
1574.704712 814.011292 1234.127319
1562.720093 502.149750 1324.666626
1567.783691 502.211823 1349.413818
1512.515381 757.457825 1328.353149
1465.400024 529.903259 1434.405884
1521.722046 651.184448 1615.372803
1525.680908 715.871826 1314.006104
1647.865479 566.540527 1658.479858
1435.429565 540.771729 1539.401245
1502.281982 666.898926 1386.016479
1512.934937 514.940430 1551.729858
1554.797363 464.752075 1565.973022
1606.399170 506.391357 1261.784058
1427.911499 606.983521 1481.312988
1472.418091 747.405884 1403.476318
1496.271118 718.457397 1440.428345
1469.838013 682.492859 1405.309937
1470.565552 427.932434 1496.816895
1540.332153 752.365234 1254.376465
1591.921143 687.389587 1230.240356
1533.133667 579.756287 1633.088867
1558.299316 826.234558 1235.533081
1477.001099 611.084351 1630.938354
1457.421875 693.808228 1524.684082
1668.884155 523.965210 1666.895996
1454.730469 563.794556 1442.412476
1471.449219 581.904602 1625.326416
1459.596313 521.692566 1450.097900
1563.666138 598.026245 1317.133789
1445.592407 492.693939 1500.763550
1478.554565 728.145874 1362.860962
1631.190552 650.963623 1201.275513
1503.851563 550.546387 1590.193481
1444.976074 661.987305 1527.043701
1550.499634 815.444946 1364.495972
1518.406128 670.632568 1345.327148
1547.514160 803.723633 1356.189453
1692.140137 468.558777 1626.933838
1523.827026 725.944702 1313.183105
1525.020142 447.201630 1398.687744
1650.489502 625.375549 1160.722778
1405.890259 565.320435 1545.687134
1451.323486 483.467682 1484.936279
1467.795532 620.535339 1441.147583
1456.524170 510.633759 1488.634521
1483.759644 630.495300 1419.541748
1533.204224 540.880676 1377.652222
1466.666016 611.922668 1448.454956
1490.621094 636.942627 1419.220581
1634.790405 427.559601 1568.335205
1655.708252 663.281128 1152.016968
1506.740234 460.158234 1415.730835
1423.765015 628.185547 1487.218628
1468.122314 595.066711 1621.515991
1474.565796 717.715698 1565.925659
1673.151978 505.525726 1655.903931
1539.026489 772.674377 1282.290771
1488.484009 721.443604 1340.222290
1506.070313 453.638733 1419.817627
1577.653320 368.163910 1519.212158
1548.202148 837.754089 1313.685913
1465.460571 661.785950 1494.177002
1570.887329 551.936279 1322.989136
1517.753662 452.339508 1526.109863
1531.026245 825.908325 1320.955322
1498.630249 757.778015 1390.688599
1446.563599 624.561157 1562.736938
1461.432373 660.886475 1514.184204
1701.926270 432.189850 1602.881104
1496.434814 712.505371 1353.585327
1436.195435 598.379456 1580.630371
1444.908813 599.175659 1575.788452
1494.947754 647.072083 1546.983521
1437.659424 584.262817 1466.022461
1604.153564 677.090088 1214.290527
1495.904297 462.792328 1435.311401
1637.349609 443.858673 1581.034912
1508.604736 410.544556 1404.850342
1662.567261 412.480652 1565.699341
1515.597168 378.096130 1434.831055
1600.317383 679.883606 1228.805542
1521.831421 397.730591 1467.859253
1594.929443 642.744324 1241.218628
1407.406372 595.757324 1534.421021
1464.262817 714.771851 1412.287598
1417.275146 543.456177 1523.428955
1468.873535 561.787659 1576.241943
1477.803345 743.112000 1398.680908
1564.105469 808.268494 1217.066528
1468.154907 661.760864 1497.906128
1405.980591 565.689575 1533.300049
1501.760498 773.518616 1352.360718
1502.212891 497.989624 1422.466675
1518.582520 667.648682 1630.675171
1533.865112 379.357574 1484.140747
1474.874756 474.926849 1456.793579
1528.043213 643.605530 1632.990845
1465.602905 699.119629 1641.456665
1619.942505 444.493835 1575.846802
1566.793701 476.160248 1348.849976
1467.826660 712.672607 1436.069824
1448.444092 578.236572 1462.323242
1584.819702 643.267639 1679.925659
1521.890625 720.321899 1302.366333
1439.998779 755.460510 1579.264648
1637.350098 495.838287 1607.822021
1536.905518 791.653687 1387.961792
1502.110107 453.213409 1513.989502
1515.725830 642.902039 1364.603027
1484.429565 722.981750 1479.115601
1628.101196 487.141571 1604.604736
1459.484131 482.961609 1509.490723
1405.525024 766.680725 1531.617554
1651.497192 567.525391 1172.397461
1459.924805 558.360657 1441.575195
1464.087158 724.289673 1441.426636
1624.069946 395.978088 1537.809082
1442.805054 525.460022 1487.219360
1455.195190 659.921448 1446.635010
1439.738770 577.928467 1461.248535
1651.706055 424.544312 1557.390259
1521.453613 574.640503 1399.963623
1723.815308 424.739471 1589.433350
1472.187012 502.400787 1435.560791
1594.253906 386.346771 1522.828003
1457.418335 708.725464 1548.516113
1591.089600 583.008362 1250.642822
1607.509521 545.574707 1245.123413
1646.487061 590.261353 1213.369263
1569.989746 470.163971 1577.971802
1534.921875 582.256470 1387.122559
1565.168457 599.358521 1296.820190
1620.065796 695.675537 1218.615356
1504.830688 655.494080 1539.493286
1456.930420 673.593872 1499.623413
1593.249268 499.563934 1290.015503
1465.894653 657.455872 1492.225952
1519.128784 645.057251 1592.927612
1511.124268 722.671875 1354.929199
1541.735718 426.633972 1399.080688
1457.021484 526.674561 1452.096191
1548.028198 465.872711 1548.230835
1549.406006 848.402771 1328.777222
1515.858887 370.598785 1454.227905
1441.381714 525.282288 1541.760132
1537.398682 743.889587 1265.039185
1576.719482 687.579102 1245.445801
1498.725220 488.376587 1540.835205
1532.451172 607.069580 1666.285156
1464.692383 628.016052 1439.551147
1493.043579 679.535278 1377.350952
1662.004395 533.212524 1658.531494
1627.675781 395.510956 1536.539307
1522.532349 606.967957 1364.851685
1477.653320 520.391052 1546.760010
1517.587524 627.449036 1648.964111
1743.304688 431.656952 1622.622070
1605.031982 620.733093 1240.588135
1542.413696 788.702026 1272.697144
1464.708374 461.614807 1466.798340
1601.644287 507.379974 1244.671509
1622.079102 569.034790 1236.200928
1564.349365 823.192688 1234.942261
1565.642090 462.009705 1348.996094
1508.508423 545.615784 1420.307739
1476.833374 677.732300 1523.838257
1434.725220 549.750061 1496.562866
1622.246338 379.805786 1549.030151
1539.589722 687.031189 1319.646729
1553.618896 767.970276 1242.443481
1608.341431 664.256592 1185.567627
1556.050171 847.304321 1346.470825
1507.338989 774.312622 1343.071899
1482.561401 421.612030 1477.989624
1585.408081 500.817078 1308.544434
1609.119629 535.056274 1251.290527
1518.226807 451.747894 1521.410400
1570.487671 695.753967 1266.869385
1415.839600 558.990540 1545.719604
1710.107666 400.816437 1618.933838
1485.560425 549.752930 1571.185669
1558.979126 477.423309 1562.638184
1425.455444 552.564087 1492.688599
1560.443604 574.547302 1636.090576
1542.842041 571.984741 1364.677612
1481.264038 576.284058 1619.347534
1553.506348 773.107971 1254.299927
1477.539795 656.882996 1563.050171
1551.838379 390.961853 1499.045532
1402.730347 771.410828 1548.649170
1453.104736 647.800476 1491.589722
1446.761963 653.518066 1482.203369
1553.215942 545.530762 1354.545044
1606.161255 862.687012 1279.689941
1595.915649 509.471191 1607.916016
1509.395386 596.225952 1653.316895
1546.133423 838.671814 1338.092041
1510.203979 436.813202 1420.861816
1635.891479 616.505554 1217.559204
1524.161377 775.630859 1339.840820
1536.869751 582.387329 1358.395142
1760.116577 429.136536 1610.804810
1448.202759 590.529785 1465.457275
1589.671875 460.471436 1581.806152
1488.540405 548.141479 1579.102905
1574.235474 770.242859 1207.174072
1412.304688 546.854370 1516.046631
1459.620850 467.418823 1484.421021
1466.550293 703.341003 1397.947632
1560.505615 588.233765 1671.573853
1700.795288 399.752838 1610.855347
1462.353882 671.619019 1414.386230
1620.298828 568.532532 1647.936401
1531.114990 376.971344 1501.708618
1587.965454 529.995789 1276.016113
1452.601318 697.311218 1527.809570
1416.148071 774.594360 1557.948364
1544.745972 761.639099 1424.446411
1595.113770 525.323364 1602.342041
1579.231445 703.690613 1270.810181
1588.076050 486.392914 1309.324829
1511.343384 418.138947 1502.094849
1735.763062 446.750092 1632.055664
1512.323120 576.858398 1399.244263
1466.693237 663.919922 1424.203125
1522.467651 631.095093 1361.345093
1487.451904 469.418823 1430.059448
1560.858765 486.002197 1573.434692
1445.507080 511.645599 1482.539673
1686.729370 438.228058 1602.291870
1475.342285 619.803467 1436.746094
1568.668457 772.012024 1228.963501
1567.544434 764.076843 1238.858643
1490.604492 648.072021 1621.178955
1491.325195 641.687195 1419.286133
1659.512817 656.295654 1149.007568
1491.832275 700.354431 1559.560791
1557.688965 675.556641 1546.485718
1621.041016 570.664734 1661.807251
1555.139648 623.645081 1652.017578
1420.895996 524.978333 1509.016479
1446.818481 430.958618 1505.661011
1454.620728 553.076172 1474.380981
1531.235107 590.099731 1659.094238
1500.910645 691.966675 1611.205078
1434.674438 743.870728 1558.037354
1502.075684 722.083008 1464.052368
1524.754028 806.762695 1296.937256
1611.767212 598.394958 1257.948242
1528.392212 397.167816 1494.906860
1588.209961 739.831299 1221.741943
1552.833496 505.294373 1566.439087
1637.894165 672.989685 1156.122070
1485.947266 463.915436 1436.117065
1461.907349 484.640015 1444.768799
1438.318726 591.024048 1583.497559
1559.613403 550.179077 1331.049561
1521.201538 600.296143 1376.285889
1716.328125 406.448914 1610.105347
1427.238525 588.693726 1482.937622
1665.972168 399.158600 1573.541382
1430.849731 563.733887 1484.988892
1437.859985 580.796631 1603.113770
1471.979614 717.944519 1628.581055
1624.823853 610.578064 1212.613892
1578.886719 494.701965 1597.461914
1498.692505 718.243530 1364.680054
1589.280396 499.794922 1593.435791
1563.811890 363.154175 1512.239624
1430.797241 561.090210 1519.830933
1592.855347 400.115692 1526.556519
1399.031738 574.501099 1543.802979
1554.471558 556.182617 1323.699463
1628.435181 531.217590 1640.448120
1469.638428 498.001038 1532.132690
1546.487793 402.465729 1406.547974
1632.165894 578.436279 1194.167114
1475.162720 618.704651 1447.350464
1512.807251 402.032532 1441.837036
1498.721558 666.974854 1596.918823
1427.084839 514.098328 1518.342285
1427.352661 557.120483 1543.387817
1506.595459 659.463806 1385.588379
1564.288086 685.112793 1273.974609
1726.786499 813.744629 1293.412476
1657.599243 532.301697 1652.578857
1515.530640 665.136169 1559.114990
1430.446167 569.207886 1490.629272
1535.145752 746.265015 1276.423706
1456.296387 537.354248 1453.850220
1404.894165 598.367188 1527.771118
1518.772583 418.027008 1498.947510
1548.959229 400.993103 1499.237549
1563.966919 650.149963 1295.528809
1519.900024 704.350037 1335.575806
1488.898193 682.837708 1583.108887
1472.795898 686.102295 1426.066895
1514.557739 387.200500 1464.408081
1476.854370 502.986877 1432.194458
1613.963379 600.975159 1259.416260
1404.939697 586.378723 1560.038208
1436.835449 625.362000 1470.012695
1559.787476 383.111572 1490.774658
1598.484619 500.829010 1264.017578
1545.922363 852.954834 1309.285034
1527.349487 767.916504 1326.068359
1549.863647 658.184387 1316.010742
1673.813232 458.309296 1611.778564
1585.148193 609.216736 1259.041626
1406.000366 575.740051 1532.819458
1594.178223 740.076477 1238.234985
1467.278564 671.478638 1430.185059
1634.238525 596.204651 1222.594727
1421.339478 600.818909 1530.780151
1436.009033 543.840393 1481.635254
1483.693481 369.751434 1454.102295
1411.744751 770.817078 1573.072632
1446.967896 644.789001 1449.513672
1491.177490 443.767700 1452.358521
1472.750854 527.084229 1557.113892
1544.596680 445.158173 1528.996704
1534.481567 716.735840 1310.447632
1513.875488 612.131775 1387.481567
1609.987305 492.312439 1613.835938
1430.098022 618.041077 1520.113770
1456.695068 564.464050 1581.483154
1537.874756 788.774719 1263.696899
1504.383911 611.139832 1405.052979
1556.907715 531.614075 1411.553589
1542.719482 770.827820 1240.801758
1550.478271 791.097717 1237.220459
1530.805542 770.299988 1287.419067
1481.465088 489.669769 1441.352295
1489.625488 720.227356 1348.121094
1522.891113 466.145508 1534.525391
1550.932983 554.315857 1358.997559
1658.590088 492.065033 1614.924561
1565.225342 660.294617 1275.878052
1499.692505 397.557129 1457.401367
1605.389648 551.149170 1242.978882
1421.955078 711.097473 1546.482422
1593.122192 625.989075 1687.422363
1466.246338 480.226532 1455.290527
1490.764893 586.757813 1635.154541
1535.727173 571.167297 1357.082275
1464.166870 565.310730 1589.703735
1558.783203 438.818970 1343.763062
1635.559082 537.168640 1224.504761
1512.327393 531.836792 1405.631470
1502.849487 515.290894 1559.467651
1598.702026 483.797058 1589.369995
1495.580444 443.679169 1434.914795
1444.670654 548.509277 1470.557129
1514.364746 363.435577 1457.730713
1480.393188 671.030884 1464.182495
1426.936890 516.745911 1527.941040
1514.434692 758.452942 1365.245728
1565.143555 514.028931 1316.949097
1493.856812 565.282043 1420.941895
1623.713257 585.767456 1217.493164
1463.716675 491.892242 1489.679932
1632.828735 419.162842 1571.165039
1415.834839 589.130615 1510.305298
1411.771606 546.410767 1535.972778
1603.002930 644.693909 1672.744141
1461.692505 710.253235 1395.021606
1637.189819 670.583069 1255.201416
1463.576294 664.792236 1512.254150
1581.921753 558.578918 1299.801025
1470.856812 540.059753 1419.590698
1472.704834 684.882751 1525.928223
1473.614136 495.946014 1449.309814
1729.954468 409.195740 1603.767944
1520.893555 767.408997 1317.159302
1507.681763 684.146545 1359.786377
1434.364136 755.235168 1531.467651
1545.806519 844.652893 1293.820923
1450.734985 647.459717 1454.624023
1528.161255 808.915344 1333.122803
1522.031128 358.505524 1476.389526
1539.553589 561.930176 1375.740356
1515.524536 592.627380 1411.295044
1411.182007 564.225403 1510.532715
1442.814331 744.383789 1551.828247
1617.944092 652.993469 1210.345093
1539.479614 563.573486 1614.227173
1493.269653 617.939270 1601.973389
1467.569214 665.490356 1430.495483
1476.150269 615.277832 1588.161987
1547.897461 658.716675 1658.605225
1572.939697 382.080200 1506.449219
1497.878662 762.493164 1359.781250
1432.474487 590.868164 1501.374390
1536.712524 815.985352 1353.026123
1548.119141 637.940857 1650.799194
1444.659912 741.161682 1550.619385
1511.064453 759.859375 1395.189087
1441.940796 589.597534 1601.547119
1658.498535 550.867188 1667.766846
1484.145020 670.126709 1539.019287
1605.814941 566.761963 1652.393311
1738.409668 420.527771 1612.791138
1419.318237 582.634277 1549.072266
1474.360596 690.736328 1426.233765
1509.738647 441.746185 1423.577637
1542.002808 722.944458 1298.409790
1736.193848 414.516907 1620.852783
1464.421265 725.326416 1382.689209
1565.625366 630.162964 1293.513794
1489.193726 590.383118 1631.460449
1610.555542 586.439026 1267.552002
1414.909546 751.732117 1537.643066
1461.416748 641.571594 1434.825439
1484.508179 740.945129 1381.311279
1606.573730 404.060303 1528.876953
1453.837036 602.600403 1457.109009
1407.366455 572.186157 1537.076660
1580.649780 555.576965 1294.785522
1590.012817 594.011108 1692.285767
1500.187134 747.210571 1335.044922
1544.465454 666.893982 1562.781128
1676.830811 512.464966 1644.120361
1509.157837 437.154694 1446.289673
1587.719238 689.400269 1244.250977
1587.022339 557.035522 1297.523560
1450.095825 505.305664 1490.800415
1561.621338 440.832825 1534.767944
1456.109375 702.741821 1500.266235
1454.876709 599.098145 1455.939941
1434.058960 580.524475 1597.461182
1485.982300 612.114319 1618.438599
1464.983887 724.967285 1429.684692
1527.983765 412.386627 1504.616333
1412.721558 602.472900 1571.125000
1456.479614 621.027954 1584.209961
1439.430664 752.966614 1575.975586
1579.740356 555.482605 1629.187378
1621.773193 590.174805 1136.990112
1698.179077 489.403015 1640.869507
1577.477051 716.546387 1237.719604
1625.396973 490.670197 1619.327881
1457.963257 445.773254 1490.125366
1552.297729 407.696350 1506.882324
1413.482788 564.781006 1551.310425
1590.651001 573.971436 1647.290161
1513.506714 605.493225 1649.234253
1708.925537 404.257019 1594.288818
1532.265747 657.366516 1365.649658
1562.144897 538.574036 1609.967773
1464.443237 482.064728 1461.348145
1477.190063 601.906677 1620.685547
1489.985229 665.946899 1552.918335
1477.117188 481.132416 1456.529663
1478.733154 427.969940 1474.044312
1506.808838 679.273987 1368.314453
1552.204590 495.099213 1380.684814
1564.296265 543.648315 1338.082153
1426.479614 713.823120 1546.536011
1537.517700 652.739990 1648.859253
1465.463745 731.932983 1378.151978
1462.293213 638.407654 1520.857178
1429.073242 630.465759 1484.531616
1651.896729 502.252777 1642.223267
1460.637695 561.964600 1578.895142
1633.299683 485.889771 1610.861450
1575.758301 698.394775 1289.326660
1487.416382 445.482605 1502.581665
1418.777466 555.107849 1500.106201
1516.587158 708.937683 1594.946411
1569.168091 450.761810 1548.770020
1603.122803 511.865601 1623.723389
1599.930908 544.589050 1262.118408
1676.298950 527.935181 1663.150391
1619.785522 658.419312 1178.871948
1672.993286 512.035767 1641.709106
1602.018555 604.354919 1248.560059
1585.087769 495.682953 1306.127930
1637.372681 442.104309 1582.492920
1455.416870 497.339722 1465.602905
1495.804199 701.336182 1609.522339
1553.780884 498.335083 1392.004150
1476.945190 563.338196 1590.859131
1627.005127 670.421326 1174.743652
1444.842163 486.876068 1493.328613
1529.649414 457.349457 1518.950928
1484.766479 595.605774 1632.099121
1496.890259 481.946075 1428.090332
1447.367065 640.274963 1450.178101
1489.721436 716.819519 1600.718872
1524.633057 754.769531 1286.488281
1620.056641 839.592407 1257.800171
1433.268921 635.007019 1500.949341
1516.080811 794.298706 1312.514771
1470.204712 723.531372 1622.102905
1402.846924 787.152893 1549.646851
1554.738281 514.382080 1333.244751
1495.757813 667.838867 1528.698730
1434.986938 542.270447 1477.759277
1444.402954 512.656128 1506.109741
1529.867310 444.031525 1402.378540
1456.647705 673.082764 1427.298096
1468.303467 482.506104 1453.610229
1446.850586 609.215820 1456.201294
1461.386719 523.576965 1549.161865
1636.831177 558.404480 1205.629272
1527.424194 779.735901 1314.794067
1542.781860 633.064758 1342.728394
1605.656860 708.819885 1226.599976
1559.280396 733.825439 1289.853760
1414.524780 736.363525 1552.204224
1543.474731 798.507874 1275.922974
1502.919800 757.815063 1421.358521
1612.107056 583.279419 1233.066895
1545.834351 534.093445 1345.140869
1516.233643 441.506378 1411.274902
1515.506714 390.098907 1432.953491
1486.424316 602.548645 1635.218262
1496.259155 410.287415 1465.570068
1525.102295 658.383911 1344.951050
1542.188965 789.096130 1249.729492
1531.549805 821.470825 1268.140747
1506.917480 733.086060 1321.154541
1670.123291 417.810425 1574.869141
1457.733765 510.658539 1524.126465
1492.621826 502.790131 1549.809937
1534.305908 393.561249 1495.398315
1667.050537 507.457245 1642.347412
1758.317139 418.942688 1613.513672
1530.442871 669.239075 1328.145020
1451.438110 595.882935 1604.630615
1540.179565 584.703369 1652.766602
1504.046509 381.221527 1466.382446
1469.842407 595.747925 1444.725952
1602.316650 629.446045 1270.272095
1415.293945 585.112122 1497.402832
1647.494751 648.741882 1154.238892
1577.261597 442.068604 1549.889160
1517.945557 646.875549 1382.040283
1533.664185 647.174683 1602.581055
1586.148804 642.828125 1265.828247
1460.180054 654.456604 1529.501099
1630.941284 388.012848 1550.762817
1506.890991 594.295776 1643.119873
1508.487305 727.091492 1468.978149
1544.467285 680.485107 1542.962769
1655.332520 555.378784 1664.577515
1505.017212 735.435974 1454.306396
1477.862793 488.625397 1442.222656
1524.278564 818.312134 1310.769775
1481.581787 545.129333 1574.141968
1608.332764 572.062195 1656.445068
1437.780762 749.803101 1510.212158
1468.732666 641.980225 1427.669189
1415.639160 588.841492 1560.018311
1479.002808 710.736084 1381.653076
1530.926025 802.690308 1323.679077
1570.892944 518.026428 1352.210449
1673.424194 421.080475 1582.391724
1480.150146 689.622314 1459.594360
1467.248291 432.234131 1475.211914
1486.180298 647.012329 1534.690308
1627.178345 609.588074 1188.168335
1471.941895 496.558289 1450.407227
1560.909302 638.692139 1320.960815
1646.903931 664.293518 1218.015015
1509.996460 615.193298 1629.947754
1427.379028 763.854675 1567.837402
1534.806763 357.476868 1495.651978
1595.974487 558.761108 1276.273071
1490.142700 690.401062 1552.749268
1496.770752 516.954529 1394.163574
1505.017090 465.464935 1434.854248
1743.280884 422.289551 1615.943481
1487.194092 411.226868 1463.083862
1444.261597 639.382080 1493.850952
1474.398193 696.303894 1641.960815
1578.786377 629.513489 1677.923950
1641.551758 378.354523 1570.411011
1618.627563 607.764648 1195.406250
1667.289673 469.845276 1613.088013
1711.007568 417.629303 1579.833496
1499.499146 744.408203 1342.732544
1592.105591 571.242920 1630.581421
1445.029907 564.292480 1461.939697
1467.461548 692.298340 1427.806152
1526.880005 807.843262 1315.748901
1471.821045 433.571381 1487.342163
1484.262207 677.602417 1543.840820
1561.967651 544.249146 1370.008667
1570.372803 459.806305 1544.485352
1731.366699 451.127960 1629.992065
1632.121948 636.320618 1211.516724
1423.932129 598.620544 1512.355957
1637.220337 666.050537 1253.932739
1624.194824 774.759766 1210.751343
1628.569214 517.604065 1256.481201
1457.836670 657.625671 1451.199585
1530.185425 776.925842 1278.056030
1560.195435 561.917419 1343.816406
1421.484985 612.395020 1500.091553
1506.918579 730.046753 1503.049805
1569.272827 546.781555 1618.386353
1455.604980 686.835510 1433.852295
1478.354858 472.336304 1450.822998
1484.429932 606.530945 1626.910522
1561.931519 673.686523 1288.678955
1531.518921 832.806580 1313.076172
1549.892212 728.173889 1294.066650
1559.877441 840.460571 1334.536377
1581.678589 723.698914 1213.553467
1490.245605 733.188171 1375.185181
1536.249146 786.137390 1256.441406
1514.560059 441.941376 1529.839355
1500.762207 411.987183 1449.329834
1568.307861 712.407654 1254.807129
1488.487915 457.598297 1433.462646
1607.931152 550.793518 1276.006348
1532.294678 571.464844 1368.010498
1583.079590 505.392670 1597.362061
1539.598511 469.979492 1371.952881
1559.237427 526.376343 1597.642578
1469.326050 553.709412 1437.772339
1696.250000 439.851471 1593.725830
1587.048828 666.315552 1255.010864
1476.906250 422.337952 1477.442383
1556.416382 565.315735 1364.155029
1459.781250 690.965027 1458.671753
1524.922119 661.123779 1599.884033
1649.193481 432.110718 1578.423706
1482.987305 748.233093 1362.522705
1463.424316 480.905029 1460.931885
1588.818115 717.349670 1203.186401
1578.794800 404.324188 1524.013794
1520.021606 542.089966 1601.837891
1512.272705 693.882263 1665.236572
1523.019409 375.871552 1457.449707
1472.411255 512.591248 1452.151489
1440.487549 624.003601 1553.213257
1573.871338 648.046814 1299.058838
1485.691895 475.231476 1438.617554
1576.205444 760.517822 1226.020508
1638.290283 583.338867 1176.273682
1571.124023 642.679260 1671.996094
1440.120239 639.655640 1462.022217
1570.282227 583.059021 1300.614014
1551.982666 446.654846 1542.643433
1496.368896 672.345276 1624.039551
1556.590332 438.884888 1533.903564
1472.226929 741.090942 1399.828491
1600.041748 509.737305 1610.238770
1502.075806 547.705444 1580.098633
1612.571899 591.574036 1228.104370
1489.606567 733.344360 1345.385864
1526.391113 770.463745 1386.842529
1559.042114 434.889404 1532.837769
1573.362671 596.866028 1707.209351
1450.176392 553.449707 1452.111572
1542.606812 684.759827 1325.017456
1436.610107 709.789734 1523.132080
1568.114624 654.047913 1299.846924
1622.039307 656.691956 1195.890869
1604.205688 538.591125 1255.083740
1431.145142 515.434387 1499.109741
1627.836914 522.703369 1632.567261
1589.152832 477.807007 1590.803955
1532.068481 780.408691 1273.660522
1455.992554 678.532776 1503.415527
1500.373169 452.099579 1428.206055
1528.793579 384.328033 1458.698608
1467.270752 660.671387 1485.492188
1495.592529 683.310547 1610.915039
1556.769653 443.696075 1548.344604
1598.725342 535.683289 1268.834717
1569.748657 450.262146 1357.892944
1491.945190 683.803711 1391.432739
1427.411621 597.099548 1470.791382
1596.669678 735.700256 1207.461914
1638.464600 472.751251 1603.575684
1477.870850 673.541382 1626.265991
1487.637939 525.821594 1421.439453
1641.477539 597.977295 1169.405762
1495.959717 733.483459 1379.354126
1556.766846 537.899292 1352.035889
1438.447388 757.617126 1571.965820
1421.725464 585.382141 1532.529419
1456.464478 671.062500 1433.491455
1494.229370 746.297546 1349.114502
1514.714844 452.873444 1392.763428
1429.767944 515.152710 1507.625488
1450.689819 639.531311 1446.446899
1539.673340 635.010437 1346.992432
1536.665161 445.672577 1394.940186
1637.716064 593.681763 1176.957520
1572.369507 561.599548 1629.323364
1562.057861 653.733521 1296.666138
1528.593262 632.391785 1635.230347
1406.017212 587.717529 1540.740234
1574.817139 713.010498 1260.356934
1472.701050 433.491791 1472.074463
1470.375366 693.960388 1503.752319
1476.927856 572.267273 1613.348511
1549.260132 423.055603 1391.091797
1463.583618 477.892181 1517.458130
1546.293701 516.874573 1387.455444
1464.419189 661.144714 1418.120972
1555.254150 680.552795 1292.420166
1555.608521 508.365692 1352.462646
1448.133545 616.179565 1588.288452
1603.012573 647.732056 1218.085693
1462.608276 437.089722 1483.250244
1584.409302 659.929016 1276.839355
1447.994751 474.777649 1478.875366
1427.160156 557.991638 1530.933350
1447.032715 565.080017 1462.792358
1442.477417 540.698425 1473.379028
1448.798828 517.495667 1468.980957
1604.874878 533.609924 1239.382446
1709.335205 412.048523 1593.192871
1569.558472 784.764343 1219.909180
1463.004761 514.700745 1534.737061
1513.761475 765.302368 1343.580933
1526.920776 428.698700 1389.634155
1516.578979 449.276520 1524.728027
1448.091431 661.310120 1449.119873
1536.671021 442.566895 1414.916504
1442.159668 673.981384 1530.749146
1531.597656 406.671692 1496.508057
1481.640869 683.968445 1386.491943
1466.741821 728.800049 1376.968628
1430.982056 609.676575 1553.646484
1542.962158 588.143311 1395.037720
1613.278564 572.474670 1227.940430
1577.798340 381.455627 1506.420410
1462.867310 674.030212 1421.183838
1569.717773 472.990692 1344.284546
1720.504395 441.425873 1633.612915
1447.839111 507.958069 1467.554321
1404.479614 571.435120 1561.662720
1568.704346 650.797363 1656.679565
1563.873535 655.636719 1293.910889
1555.645630 575.396240 1336.616089
1596.874512 495.065765 1598.211426
1540.516479 780.944885 1276.570679
1651.165161 425.853821 1589.005981
1502.964722 731.779541 1332.619507
1526.530762 726.484558 1301.738159
1466.453003 674.815186 1431.213623
1611.250610 678.042664 1287.794189
1517.428955 759.958923 1330.384888
1625.421631 549.254700 1650.793457
1569.898804 512.469482 1327.754761
1526.964844 501.900482 1563.100464
1584.448730 557.327759 1286.851685
1574.307861 445.463959 1353.220581
1472.360474 697.217285 1406.100952
1540.198364 628.952087 1652.661499
1522.864380 481.355682 1401.097656
1488.095459 447.591919 1443.801880
1548.095337 829.434814 1290.730713
1557.856201 692.071777 1316.733398
1484.976929 486.819244 1434.488892
1602.956299 588.962952 1250.342651
1460.753174 666.698059 1462.934570
1531.933838 557.711548 1377.553101
1497.978882 700.550110 1589.031616
1637.744019 566.333130 1668.779053
1449.372070 697.388489 1542.428101
1543.373535 390.945801 1491.735352
1503.702026 392.943970 1450.572388
1414.035400 568.478760 1545.930298
1588.415039 431.397125 1549.164795
1517.772461 669.518005 1602.412476
1568.381714 522.359436 1424.211792
1568.708130 810.742981 1376.094482
1487.890991 429.581848 1467.815063
1553.471558 576.964844 1632.115601
1564.753174 838.154846 1336.517090
1483.601807 630.468262 1572.981323
1440.840454 562.020691 1559.518311
1552.646118 428.397308 1366.760742
1621.485229 525.733582 1230.329346
1609.942749 473.744843 1590.841675
1558.038574 749.239319 1266.835449
1579.211792 590.612549 1295.426758
1486.053223 536.217346 1430.909424
1520.870117 643.316589 1370.162598
1484.339355 702.220642 1649.088257
1462.464600 536.963135 1436.786621
1449.010010 683.849365 1519.192749
1545.656860 838.326355 1299.563232
1410.726440 594.452759 1510.527710
1489.463013 746.440857 1360.803711
1534.385864 815.732056 1312.522461
1471.541382 614.372803 1596.602661
1533.979858 409.403137 1389.530273
1560.953735 688.865967 1537.331787
1439.426514 530.412781 1472.390503
1635.999878 525.047607 1639.993652
1506.859863 632.144958 1601.195068
1649.939941 714.973083 1204.467651
1490.792725 408.073242 1457.196533
1451.436279 547.308411 1455.637573
1572.103882 448.794586 1549.291260
1723.717896 453.320648 1630.424072
1578.033447 718.814331 1234.545654
1484.730347 597.033020 1643.522217
1637.700073 868.053650 1289.765503
1503.187622 731.963135 1430.732544
1463.869385 586.732361 1450.596069
1447.896118 661.170837 1474.524536
1476.445190 702.773254 1376.240356
1431.235962 757.712830 1514.808105
1527.980835 504.656647 1576.828247
1577.113037 491.951263 1316.684204
1487.684082 699.222473 1650.777100
1479.187988 643.012268 1429.510132
1550.113403 508.319977 1372.844604
1488.392090 538.607483 1566.723877
1589.894775 577.392944 1271.321167
1521.892578 654.044006 1632.680542
1463.222900 673.736145 1523.484619
1503.542603 714.072998 1333.586426
1657.234619 606.790955 1214.584839
1534.200928 810.797119 1341.546875
1624.424927 734.247253 1183.823364
1565.127808 817.702759 1224.039673
1476.975464 732.148621 1620.916870
1433.668457 589.648926 1489.582153
1444.335449 611.682861 1462.697388
1550.921509 584.046997 1362.078857
1444.163452 514.582520 1482.510376
1464.927002 686.695007 1515.176270
1528.813354 453.518402 1332.547363
1642.619629 474.270691 1603.364990
1492.991333 690.459229 1600.952393
1405.308105 602.571838 1539.321045
1480.503784 537.021301 1578.196533
1471.856201 591.145996 1631.260620
1606.025513 559.168396 1645.377563
1535.177124 502.344757 1566.633301
1553.823608 778.314819 1409.081665
1422.446045 734.764221 1548.632690
1672.588379 689.480896 1175.395752
1514.355225 754.803040 1299.715088
1493.716064 529.127808 1570.357422
1461.912231 732.143555 1596.334229
1676.957397 468.206390 1607.008423
1579.067017 775.138367 1228.534058
1643.578003 479.396149 1629.481567
1532.386353 834.901489 1320.706787
1595.535034 516.667542 1612.709229
1443.272583 570.758850 1613.291016
1455.404053 643.684875 1441.570190
1412.902344 568.326538 1501.016846
1495.976563 691.567322 1374.175049
1483.885376 492.954529 1431.147217
1547.820068 824.959229 1305.918579
1580.055176 708.786499 1247.904297
1476.760620 525.951172 1426.105347
1591.592529 766.107849 1194.093872
1569.284180 599.804504 1685.797974
1709.202026 761.526611 1240.361572
1507.640747 557.757263 1588.195313
1631.993896 433.517273 1573.810181
1467.794434 457.781067 1463.583740
1458.214966 515.729431 1479.468872
1527.444092 467.810852 1538.306274
1535.292725 424.052338 1370.978638
1430.587646 560.085205 1484.108643
1454.539551 542.643555 1469.643311
1446.912476 557.840698 1485.720825
1545.046509 812.258545 1244.953857
1557.167847 826.247192 1331.085815
1453.922852 723.142090 1559.934814
1534.114990 569.270325 1626.404785
1493.350708 542.837708 1579.484009
1487.868774 362.394562 1467.719849
1638.570068 567.676697 1193.488525
1476.672363 492.655426 1536.034424
1550.373047 823.293274 1356.548340
1657.071167 640.907593 1217.862671
1493.393921 451.320496 1432.147339
1458.755005 500.541290 1448.438599
1508.379150 437.869263 1507.144287
1528.240112 529.073181 1394.257324
1465.372314 709.095215 1422.462280
1470.098389 545.257813 1439.959229
1407.255493 591.494751 1553.687012
1625.248047 585.942322 1676.340820
1544.704712 594.204041 1340.674438
1618.783569 638.168762 1189.946411
1482.083740 424.368042 1496.340576
1709.064697 407.903900 1592.689453
1491.009644 679.240540 1582.171509
1549.436157 492.814575 1385.378662
1479.753418 645.155334 1588.732544
1452.509766 651.519043 1458.501709
1607.200928 438.365662 1563.502930
1630.856567 494.851318 1611.344604
1517.884033 446.101959 1410.979858
1541.399658 793.373108 1354.542725
1591.530762 586.780945 1277.680176
1524.410156 653.279480 1620.945190
1499.624023 618.432495 1623.587036
1491.267700 652.182983 1535.969604
1604.262695 520.373840 1268.748169
1441.569336 561.319092 1590.026001
1810.786011 774.654663 1309.623535
1494.703979 405.914978 1467.928711
1507.517456 630.554382 1599.141846
1409.624756 611.027710 1511.566162
1743.338623 410.670105 1623.937744
1537.593628 432.309479 1524.795898
1527.888550 594.661804 1422.475830
1514.861450 385.471161 1443.578857
1542.537231 456.431061 1549.770264
1451.189941 503.023010 1466.666138
1582.137329 530.640564 1615.064087
1637.313110 580.856689 1248.420044
1635.960571 546.553955 1650.932373
1469.441406 533.391785 1559.475342
1411.629883 586.696899 1514.267822
1547.043457 820.281128 1270.390503
1464.226807 713.341858 1653.762451
1547.349976 401.599426 1418.852173
1505.928833 770.954346 1361.122314
1434.948242 624.482605 1489.707275
1522.654663 582.177734 1652.060425
1440.630859 613.329834 1473.218750
1562.897461 438.512482 1363.998169
1600.746460 667.418640 1214.827148
1624.503906 557.358887 1240.318726
1659.439819 484.279541 1633.531982
1572.473389 606.157288 1298.144165
1684.140747 454.528412 1608.244629
1547.245728 405.855621 1415.994263
1519.330078 659.023315 1539.978638
1466.080933 634.579529 1568.593628
1713.330200 468.417114 1651.018921
1492.362915 628.396301 1420.066040
1526.765015 790.153015 1263.026489
1576.567505 495.400024 1312.890259
1539.378784 586.661987 1679.928467
1454.210449 743.973755 1573.782471
1521.053589 694.938599 1587.458618
1481.823120 454.302490 1453.992432
1465.340576 688.434998 1422.971436
1501.691040 765.952942 1350.827271
1633.216431 484.280548 1618.861938
1576.591553 834.518921 1250.396240
1779.559814 696.311951 1236.236084
1516.730103 786.721130 1347.596069
1643.839478 598.120667 1213.851196
1521.206909 448.994141 1389.457397
1404.468262 762.308228 1553.628296
1502.362183 735.558716 1367.688599
1562.532959 450.046143 1329.911011
1655.661743 455.941193 1601.287476
1427.436279 554.822571 1490.275757
1469.844849 448.677338 1479.272217
1625.433716 533.997253 1636.514282
1569.612915 862.430054 1326.768066
1447.670898 476.163910 1482.850830
1458.316040 452.979095 1493.694702
1572.070068 666.073364 1267.304932
1422.557251 527.560974 1516.448608
1519.970825 730.730835 1499.839111
1534.711060 392.447998 1485.281494
1600.123535 731.411621 1194.056763
1529.286011 601.418884 1666.233521
1503.593872 671.687256 1626.047729
1480.333252 657.629456 1514.143311
1467.673706 714.061646 1382.377075
1530.610596 635.816223 1635.033936
1462.638184 463.710815 1485.598511
1547.996826 806.264221 1282.792480
1517.336548 642.423706 1603.111328
1433.978271 504.832123 1493.809570
1546.893921 542.027039 1373.292114
1522.934204 826.140625 1291.467041
1661.210571 584.766663 1157.227417
1526.383179 732.592529 1326.609375
1472.021362 691.152710 1422.794434
1658.184448 564.713623 1185.996948
1447.020630 505.972565 1491.527222
1421.904541 632.376465 1499.710205
1483.765991 522.233032 1552.865234
1472.797119 479.272125 1458.706299
1458.079834 452.351959 1494.503296
1562.240723 486.809265 1362.171021
1510.472534 538.440918 1584.025879
1536.664307 408.078156 1413.810791
1521.574707 777.697388 1322.307007
1536.618530 660.540405 1580.489990
1721.412476 464.492035 1640.925049
1651.025024 665.559753 1204.041016
1530.270996 454.759857 1393.537964
1409.947388 545.101135 1528.869019
1549.874146 602.073242 1330.695190
1491.477173 699.613831 1611.791260
1415.374512 531.412537 1513.131836
1486.425659 506.221527 1531.669800
1530.142212 755.475220 1412.677734
1529.988281 572.248108 1394.059448
1543.342285 572.705200 1351.296021
1475.980469 748.629761 1377.012085
1473.384033 733.159607 1374.812012
1577.136597 532.349609 1292.916870
1553.313354 533.516418 1612.407593
1523.332275 576.696594 1624.733521
1614.748047 518.868408 1634.362061
1526.307495 571.266479 1623.264771
1619.899170 561.163330 1170.392944
1464.610352 672.499573 1463.323853
1586.895874 586.151855 1672.231689
1822.458130 638.526306 1220.334473
1517.395142 441.249176 1513.676636
1453.514893 613.673523 1454.330200
1554.725586 581.065430 1319.383057
1681.747192 479.749664 1642.404053
1533.042725 562.561279 1402.677490
1442.230713 591.548523 1461.831299
