ply
format ascii 1.0
element vertex 1331
property float x
property float y
property float z
end_header
1244.851807 1718.217163 -301.293945
1471.198608 1522.948486 -176.964966
1343.397217 1573.139404 -438.654297
1311.086792 1756.824341 -186.203873
1290.033936 1695.108521 -308.154907
1412.122437 1618.918945 -141.390625
1183.121460 1764.197876 -336.304718
1285.875610 1591.175537 -519.829224
1318.751587 1659.622925 -218.253860
1322.090332 1650.364136 -201.107651
1503.935425 1620.234375 -204.720016
1289.649292 1652.777588 -433.762756
1612.273438 1734.024292 -246.605469
1279.671265 1786.715820 -174.564789
1167.315674 1760.252319 -363.496094
1430.381104 1531.251587 -266.747711
1485.523193 1605.419434 -192.089233
1613.970459 1712.635376 -263.089325
1465.796875 1546.275146 -206.539169
1262.425049 1795.298096 -219.673401
1560.484985 1671.138428 -225.520172
1228.692627 1666.382446 -489.740112
1332.879028 1656.545288 -200.178528
1318.802856 1732.083008 -122.140076
1127.587158 1775.724609 -428.989868
1188.030518 1743.860474 -416.093170
1486.411499 1626.520264 -180.852768
1427.522705 1561.704590 -187.581436
1241.052124 1845.452515 -129.813232
1171.894775 1758.237061 -368.267273
1507.164551 1662.926270 -196.908875
1356.880859 1818.043213 -190.263245
1417.226196 1816.503052 -120.888947
1298.015747 1624.631714 -382.428833
1391.880493 1857.717407 -128.944626
1206.777222 1739.745117 -311.789856
1285.744141 1797.736328 -168.180023
1323.734253 1649.432129 -298.898621
1402.654663 1853.046631 -136.297867
1259.331787 1696.289185 -336.584869
1427.221069 1677.224243 -144.275742
1210.860352 1668.552612 -503.607056
1467.694458 1785.998047 -152.697556
1252.534058 1641.248169 -525.325989
1322.519775 1652.845215 -336.209381
1234.115723 1729.161621 -277.836578
1324.132080 1693.959229 -146.407761
1282.183472 1602.685547 -491.349396
1462.191284 1542.836182 -196.028397
1404.993042 1807.042603 -105.212540
1380.451538 1595.895020 -282.229034
1236.474854 1762.025879 -236.656189
1545.625610 1600.509888 -237.099213
1342.514404 1634.324707 -178.150955
1482.173584 1665.110107 -181.852798
1316.503418 1693.713623 -134.522568
1221.831909 1872.518677 -133.262772
1367.609619 1705.345337 -107.577354
1284.673828 1667.693970 -339.082092
1486.366821 1791.055542 -152.035965
1163.796631 1720.345093 -483.396332
1169.089600 1797.215942 -347.023682
1345.258667 1862.553589 -141.365677
1349.067993 1623.210693 -236.051453
1345.078003 1654.285767 -176.474991
1286.632568 1621.170410 -411.836182
1553.248047 1596.472168 -243.783554
1396.475708 1576.018921 -225.531464
1282.850342 1810.836792 -152.230698
1115.542847 1825.172485 -386.184540
1500.259033 1555.748169 -211.499527
1397.783691 1579.401123 -236.098877
1384.612671 1534.449463 -326.582062
1132.579102 1742.783936 -461.829010
1367.075684 1716.127686 -104.040215
1232.188477 1732.933472 -266.327271
1304.797241 1683.758179 -174.171539
1397.403076 1765.548218 -101.278473
1304.529175 1602.557861 -458.224762
1367.722046 1642.480713 -132.770111
1483.626831 1894.848877 -196.473923
1402.114258 1556.543701 -316.808411
1349.969727 1626.988647 -235.440796
1444.124146 1607.324219 -156.834778
1321.678833 1641.097290 -349.752197
1368.929810 1634.541626 -143.461884
1364.746460 1546.846924 -381.230042
1418.907471 1751.413818 -116.920921
1335.365479 1630.337158 -305.445831
1341.491089 1872.318481 -128.869217
1403.238281 1603.839111 -157.930511
1575.489990 1624.841064 -221.581024
1265.719971 1674.866211 -391.559937
1208.015991 1679.407593 -493.789948
1288.252563 1718.277710 -155.779312
1170.035034 1788.014160 -360.689453
1302.732056 1751.765747 -188.579529
1122.160889 1812.204224 -401.435120
1609.164917 1719.326416 -249.764938
1241.737549 1764.290894 -229.958771
1218.412109 1859.080566 -363.421509
1306.287476 1629.850342 -450.113953
1239.687378 1691.453979 -393.420898
1442.669189 1785.848877 -117.014809
1447.696777 1561.947754 -188.561584
1517.523438 1611.994507 -218.019867
1268.651611 1684.335815 -342.628235
1264.001465 1768.702271 -235.960968
1306.088867 1805.640137 -178.296143
1301.531738 1774.569336 -202.600769
1233.325439 1727.222046 -338.250488
1312.883789 1699.647583 -131.863083
1129.652710 1797.422485 -369.975800
1475.462891 1562.326660 -185.801529
1157.444092 1748.943481 -401.533905
1428.275391 1682.169678 -147.979828
1416.825928 1813.069336 -122.205864
1299.462769 1666.952515 -310.868622
1456.317993 1826.716797 -130.634735
1389.319580 1528.794189 -282.108704
1532.565674 1571.242798 -223.400726
1383.831909 1593.868652 -177.031311
1237.551392 1659.402710 -471.615143
1280.757202 1838.021973 -177.068420
1272.161011 1663.508423 -390.739746
1386.326294 1587.461426 -279.747681
1273.690430 1755.118896 -216.130035
1433.789063 1807.468628 -104.589989
1281.741699 1575.821045 -512.484131
1284.344849 1752.684937 -207.213989
1367.966675 1601.251709 -211.322052
1180.726318 1884.801392 -491.012421
1197.616333 1744.612183 -320.149750
1299.812134 1706.827515 -149.594086
1514.845703 1627.346558 -210.159286
1285.791504 1770.969971 -194.984039
1467.849731 1821.333862 -114.344688
1467.656982 1797.331787 -137.184830
1445.505371 1566.278442 -168.592560
1427.042358 1729.265381 -137.044174
1505.345215 1783.205444 -175.144913
1456.619263 1643.652954 -168.981308
1304.580688 1620.835815 -394.539307
1424.870605 1832.982300 -139.892609
1586.932983 1616.544800 -236.199646
1398.357056 1577.697021 -212.190369
1511.925659 1793.911011 -177.469177
1616.091553 1734.724854 -260.625336
1152.447144 1779.880371 -364.048370
1430.770508 1727.014038 -139.919952
1165.495239 1728.864136 -485.747711
1312.281860 1680.921387 -165.157898
1291.067139 1852.263184 -151.744659
1543.384155 1677.690796 -214.517883
1282.604248 1596.829590 -474.633484
1244.375122 1696.821045 -345.641571
1327.319336 1664.560425 -168.857269
1398.869873 1662.627075 -136.280899
1529.769287 1787.934692 -176.973953
1265.824463 1733.067627 -197.214493
1257.047974 1677.105347 -390.556091
1406.531616 1826.613281 -149.826096
1407.801880 1857.197510 -128.027008
1333.653198 1730.078979 -93.625999
1431.741699 1839.044312 -123.573593
1289.461304 1696.381470 -185.661865
1475.452026 1532.342285 -209.511169
1299.343506 1644.375488 -362.416351
1230.435791 1730.287964 -361.917084
1269.980225 1663.671753 -377.929901
1257.738892 1636.643921 -484.556671
1424.005371 1634.802368 -139.631439
1294.407837 1596.696777 -461.667877
1319.940918 1615.280396 -400.586548
1128.125977 1776.231567 -414.769379
1373.168945 1737.282837 -89.940308
1272.746094 1606.378052 -463.802429
1413.928711 1572.973633 -214.738052
1426.520874 1816.311768 -123.684456
1297.719116 1713.133667 -257.892181
1327.835083 1659.631958 -203.804703
1424.483032 1530.253052 -271.961517
1453.667114 1855.220215 -146.962357
1446.242798 1810.026611 -112.235146
1396.829224 1804.280640 -146.206451
1318.241211 1684.807983 -159.993835
1525.604126 1729.000732 -208.400406
1387.990601 1731.957642 -104.929077
1516.579712 1732.299927 -179.195053
1454.212158 1842.392944 -132.076157
1417.772583 1594.215576 -151.783463
1351.796021 1840.862305 -157.258972
1301.430176 1697.514038 -159.265503
1420.879150 1557.215454 -223.577896
1348.394043 1592.167725 -334.263184
1245.921631 1632.549316 -527.767639
1367.042725 1876.248291 -87.094025
1364.981689 1613.549316 -205.081604
1604.422852 1696.634521 -259.317230
1289.324707 1867.342896 -149.553696
1233.311401 1727.206665 -280.227692
1331.782471 1664.185547 -155.287567
1270.696655 1708.423950 -292.692657
1324.258057 1566.456421 -456.213409
1227.140015 1759.239014 -246.940201
1440.821777 1543.510986 -274.454468
1347.340454 1669.515503 -123.284775
1393.219604 1894.912842 -112.334755
1575.846436 1775.734619 -205.412323
1301.226318 1690.212524 -241.167511
1256.447876 1595.306885 -545.617249
1297.270386 1830.440796 -157.195358
1301.782227 1666.528687 -305.121887
1387.018677 1579.649048 -236.737427
1149.543335 1746.960327 -449.853455
1288.258789 1722.451416 -153.374451
1376.369019 1603.359253 -189.372818
1288.764038 1675.385376 -320.498688
1198.148682 1824.970337 -351.241913
1584.375854 1657.163818 -244.197723
1324.337891 1600.652466 -401.466736
1314.680298 1718.294189 -132.657578
1221.074219 1753.896729 -264.007782
1505.063843 1608.506592 -201.952515
1301.775513 1640.918823 -347.663300
1416.945190 1575.563232 -167.311768
1478.764038 1712.982910 -172.662964
1493.529297 1635.043823 -198.919540
1153.983032 1783.838135 -408.393982
1304.415161 1674.820557 -274.687469
1206.133423 1665.538574 -489.146423
1402.415405 1599.031128 -144.890244
1360.041504 1602.678345 -228.479202
1420.952759 1866.031860 -135.751297
1184.573853 1741.900879 -379.521362
1353.072021 1620.752441 -328.348419
1228.362793 1701.824951 -395.120209
1428.338989 1772.489380 -101.107666
1323.711670 1658.856079 -180.239914
1362.982056 1767.089722 -119.852402
1287.295288 1613.073120 -458.512817
1430.833374 1850.665527 -142.085281
1302.039917 1676.065063 -285.320190
1285.064453 1673.124146 -322.712677
1349.713623 1721.648438 -84.494003
1193.593750 1662.009766 -498.048370
1530.729248 1789.167603 -197.471024
1256.865601 1853.579590 -130.803268
1435.899414 1797.347778 -98.965591
1339.668945 1667.172607 -132.323914
1270.928589 1799.286621 -188.751984
1554.198608 1739.468628 -209.318283
1210.609741 1739.897339 -302.261627
1371.784058 1637.223877 -157.506561
1320.250854 1812.434814 -172.024475
1429.513428 1762.879517 -115.436195
1426.616089 1882.728394 -138.949249
1211.477661 1737.084717 -311.484955
1262.809326 1675.064819 -380.722504
1231.067627 1730.086792 -276.022949
1541.291748 1753.078491 -202.584106
1277.540771 1714.183228 -246.331467
1340.787964 1688.147827 -108.142075
1328.427979 1678.983521 -133.514923
1249.510742 1688.610352 -353.523224
1527.979492 1745.968384 -196.107193
1269.021729 1734.590210 -200.069839
1516.453613 1571.080688 -225.828629
1447.696167 1656.938843 -167.142761
1311.745239 1661.310059 -206.562988
1408.627563 1840.545410 -142.259689
1582.473511 1624.769165 -252.564377
1246.939941 1769.989624 -242.370575
1378.424683 1561.552490 -372.871826
1283.125854 1631.630615 -445.845612
1459.476929 1601.293091 -182.452744
1243.189697 1604.937866 -541.595886
1221.528198 1642.519165 -540.867737
1384.087280 1617.415405 -148.599869
1389.739990 1602.134644 -196.232193
1482.146362 1528.580078 -216.033554
1196.154541 1748.951782 -342.106079
1498.129150 1597.012939 -191.944366
1312.766235 1721.094116 -110.035980
1273.710693 1719.976196 -192.848511
1543.419189 1766.686401 -188.464920
1308.651001 1789.917114 -180.954910
1339.434326 1629.945801 -330.683899
1395.546265 1614.022095 -137.853607
1480.731689 1613.712158 -194.695084
1285.792358 1618.797852 -500.871429
1192.775513 1735.233887 -424.248810
1152.541748 1864.099121 -382.208710
1249.142334 1592.870850 -574.314819
1281.329590 1655.452637 -384.144714
1403.438110 1805.500244 -124.634499
1467.745117 1561.066040 -186.331589
1268.610596 1692.070801 -304.126770
1339.737305 1629.308838 -224.971100
1286.993896 1666.002563 -339.980225
1303.721924 1715.644287 -153.600830
1201.589478 1757.274292 -283.152283
1258.084595 1675.099243 -368.127106
1129.768921 1797.449951 -394.862640
1183.054077 1758.071167 -295.320160
1426.290649 1643.029175 -155.982162
1439.978760 1706.686890 -147.303925
1396.027710 1560.734253 -323.177185
1334.062866 1812.056763 -194.348587
1410.638062 1737.777222 -121.355515
1318.185547 1668.375854 -184.920792
1150.390259 1867.254395 -402.418701
1425.443604 1564.445557 -182.770905
1162.250732 1783.226929 -370.793701
1521.348633 1699.515747 -204.017578
1382.843994 1561.708374 -360.467834
1233.336792 1628.064453 -516.107605
1275.679321 1696.671753 -300.555176
1348.973511 1704.054932 -111.679977
1515.100708 1591.419800 -210.449356
1393.535645 1757.468628 -104.673592
1280.804443 1641.036621 -449.941895
1464.161011 1802.019531 -116.190918
1256.028931 1742.305420 -212.751633
1415.279907 1854.495972 -134.631973
1261.511475 1810.021240 -197.136810
1473.184326 1701.679077 -161.872986
1203.366699 1783.874756 -313.031311
1389.365967 1893.033813 -109.583244
1232.896240 1836.269897 -287.542328
1326.640259 1781.662231 -153.993256
1193.916016 1739.659790 -341.164215
1338.856934 1709.466309 -105.232796
1451.968628 1529.882080 -231.388535
1220.482544 1663.644531 -533.410217
1182.619873 1762.561157 -308.446686
1277.512451 1665.719727 -374.025177
1203.550049 1737.361572 -329.373993
1254.725586 1705.915894 -311.568237
1174.728271 1682.403442 -515.238708
1638.102295 1687.562378 -281.855988
1250.194946 1815.564087 -159.227951
1245.765381 1854.033081 -128.321030
1282.061646 1624.921875 -505.260895
1239.658447 1762.797729 -223.806519
1515.813110 1644.597656 -202.397766
1356.974243 1706.885864 -106.495117
1155.098511 1751.809937 -388.018402
1349.466797 1648.949707 -190.629700
1467.612427 1549.532349 -213.325958
1379.272583 1602.628174 -227.559250
1285.314575 1728.687866 -170.828140
1269.468262 1810.229980 -240.935364
1443.752930 1706.640625 -155.101669
1394.191895 1583.839478 -226.556229
1305.267822 1676.622437 -266.780579
1303.426636 1608.511353 -431.635590
1332.687012 1579.303101 -470.544952
1332.373657 1572.455811 -418.291901
1183.690308 1751.636597 -332.307709
1447.161865 1723.440796 -154.063507
1138.545654 1773.510864 -398.503235
1191.058960 1805.305786 -515.676270
1308.965210 1673.677246 -192.180817
1139.893188 1746.137329 -443.581818
1356.518799 1811.966431 -210.825851
1247.531982 1716.513306 -314.741486
1284.908203 1634.426880 -408.798981
1187.435547 1773.013916 -303.128021
1150.711060 1752.714600 -405.893494
1400.918335 1585.374268 -184.327637
1212.892090 1745.732544 -329.580109
1390.286865 1604.484375 -175.795090
1274.557861 1709.686646 -297.531555
1469.589722 1824.766724 -120.024666
1422.615845 1609.806030 -165.719208
1416.297119 1521.127441 -239.937759
1295.891479 1700.792969 -267.827026
1311.639160 1669.973022 -181.353256
1574.549561 1676.737183 -247.141266
1268.706787 1794.679077 -174.838348
1304.032227 1796.544312 -171.746109
1267.912598 1716.834229 -206.478302
1295.726685 1607.665649 -414.078003
1541.211182 1743.453979 -200.547226
1384.341309 1585.026245 -247.565002
1220.012329 1734.630005 -377.685974
1225.851807 1725.849121 -304.063477
1215.600830 1711.499390 -385.236908
1326.160522 1583.203735 -406.830444
1372.139648 1619.264038 -293.320557
1444.323364 1850.241699 -151.461884
1423.559570 1748.530518 -132.314148
1427.731812 1839.305664 -149.022522
1238.490479 1624.187256 -528.285339
1282.885376 1836.008911 -146.147552
1511.802734 1764.688354 -182.942215
1275.447754 1796.172607 -202.198059
1397.948364 1868.759521 -128.887329
1319.126099 1668.673706 -288.145172
1408.073975 1699.830200 -136.900208
1165.865723 1783.201904 -359.787628
1200.619995 1767.763794 -282.052521
1262.408813 1872.256470 -126.284294
1310.963135 1652.624634 -197.264313
1254.620605 1796.374268 -241.399963
1445.945923 1522.206787 -225.759613
1348.019531 1648.166016 -159.901535
1380.335938 1574.813599 -301.999725
1613.342651 1727.032593 -247.051193
1305.040527 1669.619629 -194.348557
1283.085083 1659.084351 -389.666351
1254.504272 1675.277954 -439.819336
1401.525146 1559.908569 -278.673462
1426.957886 1662.394165 -151.390640
1290.301025 1613.012695 -476.892456
1393.314941 1585.901001 -260.179443
1423.906616 1810.152100 -136.132874
1331.148193 1598.844604 -382.130341
1320.679810 1869.561768 -134.141998
1593.934448 1653.717041 -249.616257
1298.566406 1628.395142 -402.462158
1169.555176 1830.370239 -370.425507
1255.210571 1605.818237 -494.250580
1160.510254 1739.894775 -407.289856
1302.976074 1594.425049 -441.596741
1343.563232 1642.918213 -182.619629
1369.855347 1612.708008 -322.048920
1331.998535 1814.705078 -192.472748
1321.806152 1705.340576 -139.488968
1272.860352 1681.286011 -373.118866
1535.710571 1826.154663 -184.963562
1257.249390 1797.375854 -253.780670
1189.317017 1778.078125 -309.114990
1351.644165 1684.694458 -126.762199
1282.957031 1670.453857 -326.148071
1375.565674 1622.646851 -139.413239
1379.149902 1710.173828 -109.573914
1361.317383 1591.970215 -354.046478
1139.967407 1856.398071 -405.353149
1326.771118 1580.600586 -444.697449
1311.289551 1802.099609 -156.410141
1365.027954 1762.087280 -121.503021
1342.611206 1637.631714 -174.111450
1311.426880 1685.921387 -272.371948
1328.620483 1576.740356 -437.249908
1409.296143 1802.751587 -124.573776
1390.032593 1589.378784 -291.215057
1363.701416 1622.805176 -183.818298
1363.622681 1762.793457 -123.631187
1348.229980 1871.220825 -119.044418
1274.796021 1762.475464 -201.575302
1336.689819 1870.160034 -125.729805
1344.305420 1588.828857 -360.249298
1277.366577 1778.998535 -195.946548
1626.055908 1747.951660 -239.091873
1235.285889 1781.672729 -261.662079
1193.664673 1800.997314 -330.960175
1434.960205 1706.914795 -144.335464
1155.104004 1762.574097 -356.112915
1325.582031 1640.462158 -211.244446
1506.126587 1686.503906 -192.109451
1395.748047 1528.167969 -295.677368
1270.812134 1851.121094 -135.717880
1513.396240 1855.702026 -140.739273
1483.237305 1570.389648 -202.677872
1226.834717 1636.992432 -538.402832
1166.354126 1774.500854 -355.234039
1200.904419 1804.112305 -269.239899
1353.564941 1778.740356 -164.768494
1262.955200 1719.338989 -287.078827
1296.380737 1751.256958 -176.971710
1233.968628 1746.605469 -251.583221
1161.085083 1740.066406 -383.321991
1142.677856 1777.298950 -377.237122
1168.195801 1702.679565 -512.155151
1243.730225 1635.905151 -479.465485
1403.539795 1588.916992 -213.716400
1361.127563 1611.557373 -205.734207
1365.746582 1595.884033 -324.081573
1186.215820 1782.985474 -280.751678
1396.357178 1573.051025 -205.672882
1367.984009 1586.278320 -337.197571
1373.083618 1595.832031 -332.066406
1345.270508 1634.302734 -336.343689
1176.672241 1709.261353 -473.277496
1553.335205 1699.609375 -205.677719
1428.278687 1864.597534 -142.769287
1326.189941 1669.906372 -159.363052
1523.515869 1576.361450 -214.074768
1340.709106 1628.662964 -322.919769
1678.104492 1720.463745 -286.461731
1529.218628 1586.545044 -226.386948
1264.070313 1744.376831 -212.911240
1327.624390 1590.367065 -387.989471
1494.788086 1607.095703 -197.390381
1147.514771 1751.234131 -427.900970
1438.191040 1655.068359 -162.071747
1464.464600 1533.287964 -241.503464
1434.975220 1782.537476 -103.391319
1406.705322 1751.064331 -93.675583
1131.203003 1773.461792 -429.965607
1228.555176 1855.442017 -128.014008
1317.458374 1554.164429 -430.630585
1297.213013 1567.111450 -493.000183
1304.623291 1556.209229 -448.466339
1245.805176 1724.744507 -257.009064
1231.005493 1732.495972 -265.754852
1443.029175 1846.704956 -142.671082
1414.539063 1557.120850 -267.344849
1295.507324 1774.887451 -182.525787
1314.624023 1714.671387 -143.505020
1369.648071 1569.581421 -347.567474
1256.966797 1672.821899 -383.970825
1410.515991 1841.887329 -132.079987
1184.276123 1769.143555 -311.552551
1151.970215 1797.561890 -382.563324
1260.738770 1599.263550 -520.611633
1483.814575 1870.895874 -141.223099
1413.606934 1770.750244 -93.060822
1305.168579 1673.697266 -222.180374
1295.888550 1693.396973 -172.138763
1297.458252 1653.922607 -362.314972
1324.930908 1686.348999 -140.898087
1340.639648 1709.245239 -114.217743
1451.969849 1546.878906 -183.174805
1614.489014 1770.568970 -245.209000
1185.955566 1748.931030 -331.699738
1398.041260 1590.716919 -173.168808
1168.338257 1752.685059 -510.379059
1268.817261 1587.528198 -544.651489
1241.111938 1627.658081 -554.136597
1311.100830 1707.016602 -138.897949
1454.884399 1835.039185 -128.217377
1329.010010 1651.398804 -280.519897
1255.854736 1605.391968 -520.321045
1129.869873 1757.331421 -421.703247
1269.555298 1725.060547 -197.326767
1183.103149 1777.756470 -328.982758
1253.869507 1708.686401 -295.069489
1338.948120 1598.027100 -358.140076
1419.658936 1533.632324 -254.161835
1568.902832 1828.793701 -204.949875
1329.120117 1677.278564 -134.831802
1393.243652 1682.514526 -139.509460
1428.082397 1555.597168 -264.935150
1299.239380 1640.952148 -400.981842
1228.118286 1713.527466 -335.343140
1263.325806 1657.090088 -428.608948
1405.998047 1602.868896 -162.996552
1228.480103 1738.259399 -254.954590
1283.197144 1819.743774 -142.152206
1362.843628 1694.415894 -123.892754
1270.070923 1658.255615 -392.175598
1376.612061 1547.936035 -369.858215
1208.130127 1699.577148 -475.187286
1314.675171 1585.097656 -424.178558
1181.816772 1791.712524 -297.000519
1331.283569 1666.678345 -160.160828
1327.762085 1680.318237 -146.899460
1403.785278 1702.641602 -116.203323
1377.063354 1810.504272 -172.620529
1304.857910 1596.757690 -446.347443
1168.872314 1777.891235 -358.985809
1166.325684 1854.735107 -374.303589
1399.274414 1877.975220 -124.700882
1299.669800 1840.908081 -149.314301
1390.135376 1520.523315 -268.276581
1158.124146 1727.857422 -458.219482
1457.346313 1562.510864 -180.676361
1185.751953 1851.758545 -371.209381
1134.809204 1849.067871 -385.583740
1268.447266 1658.095459 -384.288239
1564.739380 1590.414063 -222.997665
1228.654541 1763.242065 -230.789352
1492.006348 1780.525269 -166.643860
1442.252075 1811.613892 -107.829056
1306.020386 1605.766968 -437.732758
1359.487915 1636.874756 -157.881790
1404.040527 1612.234131 -141.690735
1368.985840 1631.297852 -180.339951
1269.123413 1798.763062 -159.954224
1333.607300 1755.539063 -156.290543
1455.204224 1543.299072 -179.959534
1183.417847 1802.835205 -333.183655
1320.891846 1696.999878 -117.276649
1239.756958 1762.043579 -245.676346
1367.368652 1560.270874 -396.253204
1414.111084 1579.862305 -231.156799
1479.607300 1688.585327 -179.065521
1474.374023 1715.229126 -173.614517
1472.789307 1543.321899 -187.009125
1458.963257 1620.520386 -175.045120
1308.207520 1763.359497 -178.595200
1335.143433 1651.027222 -231.052368
1422.631836 1568.545654 -198.618210
1376.790527 1608.921631 -312.889832
1618.368286 1658.824341 -261.753052
1139.352661 1744.663940 -470.418701
1465.960327 1668.465698 -169.844986
1574.183960 1686.902466 -231.334991
1332.109375 1677.144409 -126.846031
1192.758789 1756.587280 -306.522095
1550.928711 1616.378296 -239.153885
1324.683350 1588.986328 -414.119141
1257.090576 1633.240845 -456.044678
1352.102295 1722.977173 -97.248840
1412.915894 1585.454346 -161.464951
1349.161499 1618.907593 -215.690765
1376.746704 1648.307861 -147.900940
1453.575073 1821.910400 -123.943077
1484.066895 1694.076294 -179.379349
1443.380249 1577.671631 -170.614471
1496.466675 1575.612305 -206.342148
1407.110107 1667.086182 -123.833984
1373.042480 1852.876709 -143.493668
1142.670044 1867.349854 -457.346130
1634.084229 1747.819946 -255.016174
1296.949829 1740.257568 -168.727859
1168.365479 1766.485474 -385.771149
1324.861084 1648.588501 -211.410355
1149.966431 1755.041260 -394.527985
1347.410889 1856.952148 -135.850861
1531.144409 1759.731812 -192.075089
1277.172119 1631.301636 -444.636047
1645.037109 1695.033569 -274.209869
1213.998657 1733.581299 -328.206970
1317.130127 1659.986938 -202.855225
1367.086670 1856.726440 -115.671967
1158.774414 1741.626587 -420.146973
1459.802368 1781.460571 -146.436600
1399.754272 1591.675537 -212.066437
1357.447998 1859.385498 -138.756042
1285.099121 1621.492920 -455.066711
1283.125366 1785.024048 -157.862198
1323.621338 1682.500977 -154.923386
1207.713257 1754.494263 -288.600494
1458.283203 1572.786865 -178.056152
1249.714844 1693.720337 -365.734283
1171.588989 1821.166626 -358.923065
1332.633301 1648.990967 -208.536133
1419.661011 1558.263184 -233.734879
1618.571899 1727.204224 -240.332169
1188.867310 1805.019897 -323.029022
1143.528564 1728.944336 -478.822449
1351.179443 1643.061401 -257.954803
1356.752197 1545.919922 -384.257965
1262.199463 1708.923340 -292.808380
1302.175293 1627.801514 -405.515686
1272.319458 1815.672974 -143.566437
1301.267578 1709.310547 -161.050018
1253.118530 1781.470581 -235.680237
1441.282959 1554.148315 -255.561935
1541.723145 1652.517822 -219.808029
1288.060425 1780.763184 -211.070023
1200.701660 1763.245361 -255.821671
1308.988281 1726.218872 -127.715721
1569.336060 1812.765625 -207.556366
1319.395020 1563.420776 -424.621063
1457.031738 1547.672729 -242.144821
1530.542725 1675.954834 -210.358017
1288.489624 1636.069214 -417.997498
1341.848267 1676.071655 -116.893387
1170.496338 1753.092529 -353.800232
1272.717407 1790.329102 -230.349747
1409.409058 1580.249634 -206.112595
1475.350464 1518.317261 -203.348999
1284.859253 1806.672607 -216.315506
1116.407471 1776.199341 -445.703369
1335.513184 1870.304321 -98.666878
1371.501831 1616.870972 -156.228088
1564.811157 1712.752808 -228.837799
1220.373901 1679.701172 -465.724548
1572.673706 1681.019653 -222.175354
1385.888306 1592.137817 -197.983597
1537.888306 1843.322388 -177.209808
1169.697998 1767.055176 -359.014862
1486.938477 1762.053833 -166.945984
1314.166992 1837.955200 -174.528351
1249.393921 1565.369751 -531.469604
1372.316895 1659.034058 -126.319656
1318.872437 1723.214722 -111.233116
1429.270874 1740.287476 -149.385941
1127.265381 1787.958008 -387.331970
1373.730469 1845.415894 -160.153122
1340.750488 1676.252319 -114.081924
1644.161255 1747.739014 -250.086502
1349.974976 1743.902832 -87.571014
1255.584961 1687.600342 -389.067871
1594.070801 1671.873413 -246.489853
1425.880005 1717.030396 -140.005661
1521.025513 1838.027344 -173.245361
1465.060181 1832.334351 -129.817734
1335.121826 1661.812744 -187.911957
1302.973877 1629.311279 -392.584167
1257.818848 1723.982788 -230.796661
1421.864624 1560.898071 -217.622559
1212.554321 1737.218628 -373.338135
1342.904053 1724.159302 -102.174828
1337.096436 1700.161987 -126.872459
1349.667114 1742.957153 -114.124954
1414.333496 1555.493774 -252.492035
1399.998169 1574.149658 -217.662582
1415.843384 1648.884888 -148.595245
1368.923828 1601.871460 -226.293198
1408.572021 1537.104614 -312.718475
1344.418091 1636.698242 -217.302063
1340.259521 1645.808716 -188.881943
1391.170776 1563.983154 -291.895050
1207.381104 1752.543701 -310.241913
1256.124390 1682.798218 -367.552551
1404.870850 1645.003784 -286.258301
1285.236328 1692.930542 -237.694077
1272.961060 1791.491333 -144.067474
1327.598267 1576.697388 -475.270782
1395.169067 1770.311523 -99.910339
1272.198608 1687.170410 -325.856171
1447.327759 1682.649658 -151.192612
1456.863159 1635.583984 -187.602509
1255.396973 1723.819946 -333.421936
1476.392212 1714.480225 -159.833496
1363.000854 1679.419922 -269.633240
1436.387451 1547.920410 -234.279770
1347.676392 1636.369629 -203.179352
1200.769775 1750.126099 -531.607483
1179.650635 1757.472900 -341.589630
1339.084717 1623.849121 -308.116119
1138.680786 1789.364136 -407.120026
1271.140381 1716.991821 -264.717041
1259.793823 1589.294678 -566.105408
1554.017944 1661.954102 -229.702362
1551.291992 1590.594482 -227.340439
1383.193848 1592.182739 -232.875443
1143.930786 1756.006104 -411.535187
1142.429932 1861.723633 -404.367493
1167.443481 1743.730225 -379.223267
1606.043701 1726.958008 -242.266525
1566.298218 1726.152344 -222.466827
1463.646240 1534.555664 -243.702408
1197.240356 1752.791626 -301.653107
1484.640869 1760.529663 -156.081055
1332.789307 1716.592529 -112.898323
1530.036499 1705.380859 -205.017380
1401.714844 1657.612061 -147.914932
1372.237915 1573.065796 -355.465820
1301.432739 1622.594116 -492.523529
1430.040161 1714.259033 -144.908447
1379.162231 1861.929077 -127.244301
1271.340820 1780.068848 -201.093491
1489.542480 1872.723022 -139.944641
1472.782104 1697.493164 -168.692871
1247.019531 1856.576416 -112.624069
1355.026733 1627.308228 -211.701111
1340.404053 1656.436035 -151.210617
1477.004150 1629.791016 -181.819611
1306.575073 1778.974121 -171.947388
1370.580322 1612.484253 -193.345490
1279.098511 1770.428955 -192.397934
1239.170654 1725.500122 -363.457642
1467.654907 1866.005249 -171.686111
1263.479370 1866.863525 -128.714386
1506.373047 1560.106812 -215.229187
1367.978394 1655.203125 -148.633209
1377.940918 1608.644287 -309.170258
1546.179443 1704.816162 -212.796494
1298.690796 1599.460083 -456.299072
1473.558960 1642.393555 -178.651016
1548.088989 1736.999634 -220.568558
1364.404541 1642.085571 -136.358749
1445.640259 1806.413818 -107.966599
1405.592651 1627.003906 -136.343948
1521.584839 1606.313354 -215.324707
1436.427856 1548.311401 -222.239502
1245.288940 1734.568970 -225.312012
1237.617920 1725.257080 -474.041290
1247.507080 1664.966064 -415.647278
1300.020142 1708.647217 -141.762665
1368.717163 1850.950928 -157.320663
1333.606079 1583.454224 -390.536346
1230.437012 1707.169922 -363.542450
1465.119385 1749.319946 -159.014542
1423.022095 1771.995728 -97.021088
1316.914429 1653.711304 -226.797821
1484.990845 1595.183594 -199.218445
1250.272827 1738.520142 -240.357483
1336.492432 1880.203491 -137.202698
1380.901367 1624.422607 -161.804428
1324.183960 1689.302734 -141.180206
1427.681519 1567.736328 -186.242096
1686.671875 1727.064331 -277.066711
1433.775879 1602.807251 -172.038574
1370.402710 1564.194702 -382.866821
1263.396606 1820.245605 -145.708466
1153.023438 1748.701782 -434.330688
1314.092041 1718.337280 -116.296410
1416.823364 1627.301880 -154.336243
1241.941162 1678.704956 -495.046204
1381.220947 1595.815430 -277.476349
1368.906738 1858.080688 -130.085617
1216.300537 1750.448853 -285.705933
1516.930054 1789.865356 -169.942047
1542.739136 1714.057251 -208.315277
1372.214966 1604.213623 -223.712753
1264.012939 1717.363403 -244.658081
1297.915405 1672.355469 -326.239075
1318.136841 1811.631348 -177.294083
1354.599609 1655.203125 -124.242760
1326.714722 1613.378174 -342.318298
1161.155762 1784.460083 -373.945740
1279.237915 1678.199707 -330.343079
1392.109375 1596.148560 -227.521881
1286.898193 1734.111572 -173.800476
1295.999146 1699.475220 -245.698288
1602.491821 1739.344482 -228.215851
1393.645386 1800.628418 -142.132446
1552.224243 1831.177124 -193.748199
1239.165161 1716.208862 -350.930786
1348.817993 1622.009521 -204.632355
1178.487305 1777.114136 -314.277405
1342.880981 1672.121948 -108.366104
1372.421265 1654.112915 -136.333206
1301.078003 1695.105103 -270.932159
1298.775024 1740.971313 -168.520157
1455.577881 1806.652954 -103.123512
1493.701904 1812.833374 -159.399551
1214.094116 1723.363647 -397.377411
1363.128784 1598.663818 -297.533447
1476.031128 1749.292480 -169.943085
1393.797852 1619.601807 -147.688385
1331.774658 1694.240356 -112.767105
1334.304321 1680.759521 -107.975670
1260.447510 1592.949585 -551.686340
1314.667847 1663.989746 -188.664368
1304.442993 1656.711670 -325.621887
1336.748169 1575.036499 -431.849915
1288.705933 1598.691406 -468.099365
1213.789795 1736.892578 -290.276459
1413.451538 1541.684204 -303.934845
1375.104004 1627.617798 -190.581696
1298.525635 1598.590088 -444.823975
1457.632568 1786.244507 -137.334534
1508.075073 1709.365479 -201.656647
1334.747559 1710.950317 -120.246346
1651.926880 1688.964111 -261.371735
1527.476196 1620.379761 -228.109924
1340.672241 1652.554565 -190.525116
1291.370972 1708.392456 -174.164734
1281.967529 1603.781738 -474.371735
1590.826416 1633.362549 -242.422195
1234.369507 1716.225708 -556.362610
1311.522095 1671.549072 -303.700592
1281.843872 1797.935181 -197.321930
1341.809326 1616.838867 -230.261749
1476.607300 1531.415771 -227.445175
1251.536743 1806.258911 -168.382935
1556.006226 1668.187256 -225.320343
1325.336670 1718.238770 -124.962189
1195.435791 1773.189331 -328.212646
1288.746338 1661.241089 -343.791504
1162.184448 1790.963013 -365.919189
1294.309692 1697.856934 -233.555191
1198.494995 1700.009521 -451.455719
1290.246216 1810.351563 -198.090042
1298.951294 1660.645142 -331.645264
1338.504395 1728.043091 -110.145851
1422.994751 1732.399048 -139.920151
1195.653076 1695.888550 -463.828522
1270.543091 1690.735107 -447.352600
1599.948853 1732.662354 -237.568954
1179.845581 1771.741699 -345.255951
1394.692139 1560.336060 -345.558441
1385.802734 1602.688965 -213.218079
1356.013672 1754.603882 -106.772720
1545.955811 1674.444092 -218.712326
1683.956909 1731.417969 -291.741455
1335.253296 1679.376953 -128.010986
1286.878174 1820.620605 -133.026337
1546.709961 1684.814087 -217.526703
1301.182251 1707.684692 -167.733795
1400.730469 1558.342529 -317.183044
1418.042603 1556.032227 -243.149414
1457.535645 1675.198608 -162.417343
1420.059570 1680.203735 -139.897400
1478.000000 1807.215698 -139.838898
1222.005981 1730.250366 -334.983551
1439.005737 1592.510498 -160.087906
1222.082764 1756.200562 -260.497894
1365.844849 1624.049194 -272.171356
1398.310425 1730.431641 -86.811722
1288.834839 1771.748535 -186.532181
1552.505371 1794.937744 -211.150146
1430.650879 1813.386108 -116.547997
1238.366089 1676.764160 -436.483215
1335.258057 1559.053955 -398.224152
1314.278931 1721.425659 -118.347099
1195.805542 1740.829102 -332.523285
1406.552490 1555.911987 -303.228790
1422.064331 1718.054932 -141.785324
1375.393433 1601.265747 -203.972565
1370.249390 1615.765991 -159.733307
1211.969971 1731.576660 -300.984894
1241.817627 1875.686157 -128.801239
1480.533691 1637.989868 -186.442307
1200.761108 1716.529907 -418.039948
1422.406860 1784.679932 -96.762810
1308.767822 1824.745605 -577.403198
1187.788330 1746.624390 -411.227539
1375.324951 1771.941040 -128.822723
1364.930176 1629.574341 -295.170807
1371.839111 1754.661499 -113.612831
1525.360107 1815.810913 -183.116760
1371.135498 1772.749512 -129.340088
1276.909912 1739.961426 -202.177109
1417.732788 1550.399536 -306.317841
1269.151245 1675.534424 -343.967010
1280.263306 1790.839111 -170.500031
1186.464722 1757.936890 -351.556335
1133.211914 1819.293701 -364.675812
1272.308716 1626.678345 -460.997742
1339.855347 1594.426147 -379.762878
1366.147095 1852.263794 -151.785110
1342.396729 1577.500977 -414.167419
1446.061279 1846.125000 -137.301254
1200.601196 1669.949951 -540.874878
1384.593506 1594.091919 -282.426208
1248.900024 1773.769409 -219.560822
1263.160034 1700.707520 -310.274506
1613.068604 1659.378418 -261.202209
1439.621582 1757.109985 -138.750275
1137.034424 1789.875000 -410.389313
1316.441162 1622.510254 -379.364105
1433.372070 1585.001831 -178.197632
1384.262329 1617.282959 -142.975845
1390.518799 1608.755249 -149.958939
1234.491821 1706.803833 -504.094421
1242.857788 1868.297852 -117.715729
1498.728638 1840.442871 -123.575066
1419.374634 1816.918701 -130.843185
1331.648193 1621.450195 -355.900177
1399.993408 1866.357788 -130.445633
1181.651001 1796.156616 -305.848419
1250.072144 1732.444214 -223.667053
1282.214600 1729.177368 -176.791183
1197.168213 1729.049194 -392.505157
1363.940674 1605.424683 -225.765381
1258.696289 1737.595947 -231.985199
1608.635742 1782.448975 -255.766144
1490.262939 1538.742310 -208.237595
1341.749634 1635.659180 -202.952927
1452.685547 1525.156860 -237.621841
1394.371216 1568.168213 -294.208679
1360.588623 1621.135376 -170.695190
1207.335205 1718.436157 -399.154022
1415.885132 1674.381714 -145.659897
1205.182861 1757.099487 -274.696808
1198.286987 1770.775391 -290.685181
1489.223877 1614.784790 -184.132858
1208.715942 1718.355713 -374.717560
1431.653320 1845.432251 -144.922455
1264.558716 1625.957275 -452.246643
1273.626343 1727.410767 -189.597198
1374.662109 1604.529785 -331.634277
1383.840454 1772.315430 -120.149231
1123.292603 1798.077515 -461.140137
1183.585205 1738.696045 -402.369141
1345.722778 1619.481079 -325.772308
1132.938110 1799.304077 -387.436188
1220.244995 1667.985474 -482.788361
1350.871460 1651.028076 -169.094482
1354.186890 1628.664917 -224.450546
1468.005737 1702.886597 -164.981873
1194.441650 1779.849731 -291.731903
1429.181030 1554.316406 -219.498688
1546.135498 1691.175293 -219.961548
1273.479980 1852.555786 -166.129333
1341.246216 1631.529419 -190.238968
1173.771118 1737.559937 -381.605011
1227.764160 1855.132935 -120.121185
1511.293945 1706.417969 -204.083374
1259.297119 1813.217529 -151.656342
1215.499390 1845.597656 -323.667419
1299.595337 1788.426025 -179.451736
1553.219849 1677.918213 -224.070236
1438.429810 1652.464600 -157.061935
1294.215698 1835.188965 -144.305359
1352.178589 1625.355469 -192.857849
1394.416504 1625.086182 -129.882629
1275.286499 1711.746094 -227.731873
1322.718262 1665.050781 -270.411377
1299.157227 1815.368408 -136.928040
1434.566650 1743.763306 -152.184174
1314.640991 1630.016357 -411.744965
1408.087402 1841.134766 -145.982269
1339.271484 1769.855957 -161.717117
1269.499512 1784.688965 -216.168442
1331.500732 1653.892822 -252.342331
1249.574219 1601.806763 -566.660828
1246.170532 1715.659302 -363.751862
1388.915039 1570.768188 -289.112183
1342.498291 1571.195801 -417.249847
1223.841309 1736.013306 -270.396576
1429.212769 1670.870728 -137.384415
1225.404419 1626.401611 -553.507080
1291.416138 1693.392944 -187.111572
1466.117432 1877.523315 -174.953583
1389.880127 1553.993530 -352.723389
1457.079346 1527.143311 -246.839645
1237.017578 1753.946899 -235.218231
1132.184204 1778.772217 -416.038086
1507.254517 1629.420288 -200.090714
1458.647461 1677.300659 -165.545212
1322.937256 1659.115967 -191.927994
1310.374146 1699.883789 -132.633514
1206.012817 1754.581177 -300.133057
1242.586426 1851.385620 -118.164436
1538.733276 1699.970581 -211.482315
1194.495972 1701.746948 -442.098419
1246.034668 1720.182739 -294.372345
1396.690674 1553.353516 -344.715363
1329.759888 1639.314331 -209.417938
1319.685669 1654.631226 -290.561249
1337.750854 1820.709839 -190.416611
1262.679688 1687.699585 -330.296783
1312.231323 1666.318237 -319.360504
1371.869629 1866.574097 -118.241714
1463.349487 1568.773315 -198.778259
1310.178467 1607.551392 -416.953705
1161.133545 1789.827637 -367.684875
1235.855347 1688.813965 -511.203094
1310.922852 1726.004639 -121.927170
1358.606567 1627.738403 -171.672729
1309.731689 1687.802856 -185.428024
1334.653809 1661.765625 -156.907364
1184.808228 1742.518066 -379.172089
1304.812866 1585.126221 -463.309448
1204.494507 1746.474487 -271.911865
1296.270508 1630.757324 -376.364807
1423.516357 1818.891846 -143.918320
1543.800537 1716.402222 -210.578384
1191.110474 1672.181030 -512.246948
1281.925903 1712.362549 -200.752441
1418.080322 1806.603638 -121.130394
1405.505737 1769.973511 -107.726051
1340.499756 1660.530396 -174.911575
1300.809937 1682.735962 -187.742325
1360.847778 1655.273438 -259.781036
1546.980713 1832.264282 -203.088028
1289.488281 1880.910156 -174.969574
1402.449341 1698.831299 -129.582626
1406.460938 1588.486206 -167.141266
1441.102539 1591.673340 -157.167816
1165.137451 1803.465088 -361.012451
1194.774414 1732.120850 -369.616089
1325.152588 1657.526367 -205.071091
1346.093018 1635.681274 -319.700500
1303.924683 1594.871948 -479.690430
1647.647217 1684.891968 -273.085754
1310.792236 1667.048340 -189.362015
1197.756104 1754.077637 -291.938019
1225.805908 1747.345581 -238.295929
1514.427734 1615.694214 -207.126984
1268.782837 1678.764893 -348.460083
1284.166382 1716.980713 -176.655701
1385.880737 1603.109375 -302.124695
1406.345215 1691.030762 -131.519760
1303.875977 1767.627563 -169.653458
1392.252319 1635.326904 -143.935089
1625.678955 1645.704834 -236.501389
1311.875854 1596.240723 -402.102020
1277.316772 1824.293335 -244.162140
1305.955566 1549.273560 -417.054657
1393.229126 1556.382202 -354.058929
1345.514526 1730.787964 -100.483856
1262.132446 1616.323730 -514.580139
1273.759766 1641.032593 -406.715149
1227.641235 1698.221069 -397.264862
1474.596436 1706.745117 -168.423920
1484.984131 1739.879883 -171.312561
1317.365967 1674.938721 -175.782608
1547.770142 1725.121216 -199.722900
1300.331421 1801.663818 -167.617630
1204.116089 1726.016968 -432.673950
1605.558594 1646.050903 -256.916168
1192.134155 1705.293945 -495.022736
1366.223145 1772.364014 -132.398209
1363.959717 1727.538208 -97.808350
1143.459595 1829.001221 -396.409576
1610.505005 1651.375977 -248.072189
1435.751709 1787.224609 -96.816055
1366.133301 1574.935425 -391.600983
1299.073608 1696.380371 -174.121674
1544.864136 1769.275757 -208.992065
1265.012573 1803.744629 -215.799347
1355.356689 1854.290649 -142.413910
1284.216797 1792.230225 -157.977356
1419.827759 1673.426270 -142.940582
1276.843018 1713.707397 -213.315567
1315.558716 1577.925903 -471.888214
1162.509521 1871.236572 -479.983917
1317.118896 1783.215820 -188.218689
1152.099487 1871.914795 -401.010437
1168.454346 1803.441650 -360.494476
1361.500366 1682.095093 -135.779953
1330.128662 1811.908936 -189.665878
1478.702271 1812.849487 -132.884048
1344.969727 1614.984375 -338.571533
1215.313721 1752.648071 -281.003265
1238.626953 1687.875122 -385.615814
1314.229980 1571.901855 -478.085419
1275.311401 1687.839233 -313.806427
1415.039551 1538.230591 -307.775421
1359.550171 1881.620239 -123.980415
1262.263672 1603.555176 -526.875122
1187.456055 1771.046997 -316.102478
1205.520508 1678.102783 -485.915771
1408.318970 1550.945068 -329.570068
1559.411621 1735.543701 -204.427673
1529.376587 1828.293335 -190.370728
1158.945557 1752.505249 -377.705322
1305.564453 1670.513550 -274.610687
1602.597046 1748.288818 -225.690979
1581.060059 1660.003540 -240.637421
1441.944946 1563.894531 -179.360153
1452.293213 1671.724854 -161.489914
1299.178711 1787.701904 -151.031250
1384.509766 1588.576538 -232.134476
1241.535645 1692.571411 -361.583466
1440.248901 1555.723145 -221.077545
1194.420044 1705.541748 -508.296722
1501.567139 1558.140015 -228.777084
1255.937012 1568.389160 -539.955322
1242.827148 1635.056519 -500.714935
1312.866699 1684.159180 -169.092224
1164.414917 1767.641235 -365.565674
1305.972778 1676.265747 -203.625854
1501.891968 1798.037476 -171.100037
1263.618286 1834.854980 -146.662308
1407.024048 1659.396729 -135.582489
1458.583618 1757.079712 -154.800766
1581.067139 1661.493774 -240.925293
1284.044678 1777.730835 -171.000763
1229.258545 1746.575317 -547.481873
1230.394775 1774.225952 -226.764420
1384.950073 1562.851685 -363.874634
1257.651367 1745.046997 -214.375076
1271.128906 1792.311890 -155.412430
1491.337646 1700.029419 -170.346802
1402.346313 1590.743896 -160.601654
1672.847900 1732.291870 -282.589813
1292.111084 1638.937500 -408.645325
1304.474121 1770.183105 -173.516495
1408.029541 1691.616455 -147.656677
1499.517944 1713.939575 -184.777374
1227.559814 1665.699585 -560.148987
1459.552979 1663.716064 -166.952118
1404.575562 1598.872314 -157.875320
1394.887573 1598.973267 -153.333923
1373.035156 1783.393311 -142.123474
1462.764648 1534.522949 -229.548462
1288.014404 1694.537231 -176.384171
1682.816040 1724.344604 -276.519775
1381.105835 1604.057739 -172.137711
1450.167847 1791.839233 -101.204102
1388.039551 1620.577026 -147.409027
1185.863037 1758.707275 -312.843811
1369.424194 1590.101685 -245.154999
1312.642700 1684.375244 -217.378983
1248.842285 1732.601196 -225.432785
1333.897339 1670.537354 -128.811966
1382.207520 1636.846436 -148.971024
1260.281738 1599.229736 -558.170288
1165.336670 1735.381592 -423.903381
1142.241211 1764.357056 -433.698059
1218.206421 1766.172241 -290.649292
1167.743896 1690.535278 -509.801025
1140.563965 1800.915161 -376.916229
1513.967163 1786.009888 -180.166611
1365.917969 1872.068604 -98.548798
1185.695679 1783.708008 -332.996429
1311.250366 1587.332153 -416.171844
1182.279175 1770.720215 -304.579010
1258.141235 1641.936768 -466.029541
1206.703247 1750.314087 -325.709198
1212.619141 1703.082520 -400.158966
1335.091553 1579.846069 -447.717041
1134.526978 1802.773315 -441.310303
1191.373535 1741.405762 -365.685150
1203.894775 1821.017212 -342.719727
1414.410278 1751.014282 -102.856461
1439.708984 1701.412598 -151.013702
1429.274292 1629.948853 -170.046234
1372.225342 1568.451172 -375.191406
1298.869385 1590.947144 -488.095703
1197.922607 1754.538208 -324.540039
1382.915771 1630.684204 -168.982849
1266.248901 1705.911865 -272.851746
1374.747192 1845.516846 -117.303200
1478.439331 1753.270020 -175.918381
1343.141602 1696.559814 -106.317398
1296.705566 1612.552979 -444.127106
1399.312256 1600.574951 -154.354980
1494.938477 1753.439575 -180.644714
1368.984009 1866.910034 -130.623169
1212.490112 1786.866577 -259.759827
1198.967407 1756.001953 -281.613373
1411.190308 1705.861450 -132.896637
1502.988892 1749.470337 -191.692154
1345.196655 1572.486572 -422.470551
1372.538086 1595.801758 -242.371552
1398.303345 1591.570557 -167.992310
1409.189575 1561.446533 -288.176788
1251.236938 1732.350098 -249.017181
1370.555054 1599.501221 -260.163574
1406.919434 1556.442139 -314.353729
1432.474854 1556.462280 -267.408203
1368.013428 1584.893188 -328.591034
1453.584351 1710.464355 -156.500290
1348.088013 1637.685791 -326.895813
1374.847168 1759.716309 -114.803734
1319.452271 1705.239990 -115.012955
1539.473755 1722.696411 -195.390396
1441.538330 1541.423462 -236.925003
1432.975952 1556.648926 -216.751984
1128.496948 1789.658813 -397.259857
1378.134644 1618.536377 -158.231735
1120.292725 1852.700928 -371.576935
1455.861450 1852.740845 -139.096268
1264.044189 1758.240845 -565.180237
1247.496704 1761.519287 -238.610687
1225.367065 1826.236450 -313.180756
1418.673096 1587.451416 -162.032944
1324.075684 1715.607544 -93.013924
1484.849365 1545.481689 -188.532211
1261.535767 1865.275757 -130.932632
1232.115234 1658.976196 -483.860931
1342.435303 1653.854248 -191.305588
1360.915771 1848.382080 -162.569977
1349.019531 1803.546021 -190.358353
1328.576782 1707.549072 -129.783234
1393.775391 1579.758789 -209.252884
1567.652710 1825.956055 -203.585464
1344.231567 1661.834351 -126.060959
1211.740112 1737.219482 -276.019073
1246.016357 1835.540161 -145.612762
1378.263794 1858.302246 -102.164871
1260.008057 1664.296875 -417.264709
1223.226074 1868.100952 -131.170898
1373.355957 1638.163452 -130.000198
1478.007080 1850.571289 -131.660446
1304.810303 1693.919067 -178.144333
1550.379150 1760.876709 -193.483734
1541.808960 1648.277832 -217.317642
1253.562378 1660.342651 -425.602509
1190.786377 1796.902100 -304.101379
1388.102905 1718.139893 -107.947098
1321.498657 1586.149780 -408.545380
1348.261719 1688.027344 -114.567558
1383.215576 1640.117554 -145.157257
1439.218506 1681.825684 -158.464157
1418.793579 1898.291992 -122.926430
1451.995239 1760.881226 -147.898178
1153.288818 1753.110107 -451.846161
1277.791382 1793.654785 -169.784225
1518.032349 1713.145874 -196.509750
1410.355347 1871.786255 -127.326607
1310.981445 1624.137573 -385.970459
1288.107788 1708.426636 -171.051147
1353.087280 1627.350952 -181.049652
1247.522339 1703.253052 -348.816040
1532.833862 1659.434814 -210.976563
1246.420776 1867.969971 -122.097084
1243.986938 1836.615601 -150.765808
1336.235474 1597.747314 -384.547058
1392.567505 1595.268311 -165.534454
1314.098145 1589.784790 -425.130096
1348.487305 1601.746460 -356.975830
1295.782593 1742.548218 -192.092026
1628.723022 1648.235962 -237.422318
1349.271973 1649.820801 -257.911804
1220.937988 1796.757202 -287.418915
1302.251343 1603.635132 -433.683014
1199.371704 1743.668823 -299.244659
1377.646484 1619.658203 -184.333496
1558.844116 1778.582520 -207.714432
1387.439453 1593.563599 -298.041656
1292.636475 1610.783325 -445.497223
1203.644531 1831.725342 -326.429443
1273.695923 1680.889038 -329.069336
1141.194092 1807.068115 -414.441101
1343.844849 1640.287598 -313.092865
1421.826050 1621.479370 -153.269485
1448.233643 1539.063599 -245.442383
1407.817505 1565.241699 -246.996719
1512.977905 1848.799072 -145.592957
1454.201660 1855.987183 -147.580261
1368.698730 1559.277344 -354.920288
1410.515503 1875.560181 -129.640549
1358.104614 1872.515015 -91.463287
1163.237183 1774.311523 -391.455017
1250.887939 1761.942017 -222.753464
1297.646484 1593.879883 -453.009674
1425.504639 1549.462280 -258.351288
1160.204956 1843.384277 -489.635071
1347.302612 1637.950684 -164.353531
1343.793457 1624.592041 -212.936981
1641.130737 1677.492188 -250.725479
1391.765015 1732.004517 -88.490166
1333.511841 1700.258545 -117.913948
1448.993652 1640.235596 -167.998138
1355.377808 1789.143188 -178.051132
1277.769043 1694.295166 -313.082397
1340.844604 1843.222412 -163.684311
1435.537598 1739.964966 -142.948624
1360.980225 1819.477051 -205.379410
1382.118408 1558.585938 -357.402191
1363.450073 1623.917480 -206.176559
1136.257324 1786.622925 -397.893646
1310.933594 1597.876953 -443.063660
1198.456177 1688.896362 -463.794281
1423.781128 1553.556396 -232.536514
1399.892578 1524.832642 -263.678558
1179.119385 1762.106934 -342.217346
1309.044922 1607.627686 -411.684509
1515.298340 1596.619507 -211.394012
1374.441040 1547.441162 -355.080261
1495.749023 1712.138550 -180.390991
1322.763550 1678.240967 -135.316635
1591.027466 1784.721680 -225.678207
1527.775635 1571.555298 -234.412827
1408.109131 1722.903076 -128.751999
1459.003296 1713.490112 -173.007706
