ply
format ascii 1.0
element vertex 1400
property float x
property float y
property float z
end_header
940.939880 1782.753052 884.290405
808.841797 1953.383667 643.487732
996.842834 1711.473755 770.696777
1062.693848 1689.708374 624.913025
780.489807 1876.506714 744.089111
1011.024231 1915.296265 912.004028
848.037720 1793.275757 747.274902
949.990295 1737.847290 737.665039
955.544983 1898.048950 435.038574
1082.563843 1700.648804 621.425842
804.923950 1877.080933 702.702209
944.805847 2025.964111 868.917969
812.453918 2014.433594 663.882385
753.664429 2020.849976 651.408508
836.029358 1826.972900 717.668091
905.352966 1807.029541 860.524841
955.045288 1911.940674 880.937256
1064.050659 1762.947876 480.627594
932.150757 1854.109253 510.716949
951.216492 1838.326782 569.234070
1032.148193 1859.635864 960.365234
823.262390 1860.493530 695.272949
859.951782 1797.032837 742.533203
948.222107 1798.119629 686.192505
903.410889 1770.719238 769.236023
855.246338 2035.199707 779.096436
1030.216309 1821.230103 462.492523
1067.228149 1953.500244 957.647278
869.840637 1920.337280 566.957336
779.246765 1889.176025 768.386780
825.858154 1892.434448 666.087830
1049.710693 1748.286133 606.599915
932.790894 1947.297729 861.160400
950.412598 1734.846191 758.876526
868.966064 2019.048218 785.890381
863.509766 1765.012329 792.675842
899.509155 1749.981934 816.433960
898.563782 1915.566528 520.004456
851.065369 2065.487305 775.576599
803.204529 2052.526611 727.586731
1027.125854 1951.166748 926.371765
862.102112 1946.513428 602.866394
944.417358 1949.019409 436.594971
868.281311 1973.559937 693.572876
835.684204 2017.137329 704.599304
1037.360596 1855.447510 940.089783
1004.808411 1910.344116 394.747833
959.755676 1837.079102 713.487610
1078.350098 1735.983398 551.892578
786.704285 1983.646362 648.089783
829.077698 2044.238159 753.846497
824.041260 1943.524780 754.758911
1031.871704 1712.889160 660.424255
788.987244 1921.122192 781.483154
957.108337 1819.322144 890.922058
1002.362549 1823.980103 445.659546
986.928467 1887.215088 406.389526
1108.149536 1696.769043 585.981934
853.389465 1819.858887 722.756775
988.883789 1924.644897 896.530090
1084.999023 1720.858276 566.960266
783.891602 1879.928345 733.199768
1034.835205 1786.143555 454.396942
1014.099854 1799.177734 563.917908
930.251831 1892.611450 492.258179
790.552734 1865.157715 740.120483
974.976990 1863.725464 887.927246
970.984985 1995.099976 886.268494
844.244080 1863.142578 638.477783
943.323242 1681.367920 767.477173
948.038391 1860.109375 885.150818
906.778809 1714.067871 882.447021
1072.810303 1724.214600 579.069153
826.371399 1896.133911 681.520508
825.851440 1797.875977 790.142456
797.959351 1857.913574 777.259827
904.174316 1966.379883 854.843689
909.421631 1955.931519 850.607666
917.342896 1961.991089 852.882874
860.779602 1895.453003 569.929565
859.072388 1769.608032 794.181824
982.655945 1762.104736 690.921387
874.288025 1859.210327 610.852783
776.052551 2000.764893 639.385864
919.353760 1962.133301 853.347595
940.281006 1683.165405 774.122742
896.290222 1911.466675 506.800629
811.000916 1916.853394 733.224854
1094.161255 1933.962646 970.961243
890.554749 1935.331909 557.543762
884.915527 1972.687134 701.360046
790.630859 1865.552856 769.124084
988.416931 2016.960449 896.478821
1025.345947 1712.655029 690.253845
1027.253662 1833.178589 924.036682
910.669373 1752.637451 752.825684
865.964783 2034.211792 780.665344
992.256470 1748.235962 722.785095
985.146973 1906.404175 414.051178
829.070862 1851.884888 686.775024
959.029297 1798.141968 620.995667
998.315430 1867.093140 917.336670
831.857178 1928.550293 704.040833
822.855591 2048.913818 739.199585
893.718323 1819.200439 681.293701
993.678162 1817.408569 512.262573
869.406555 2058.065918 789.609375
1048.087891 1950.561279 937.617004
829.052795 1892.993042 685.190247
1030.569580 1822.269653 446.791168
796.908264 1883.895630 722.305237
798.088989 1904.021118 785.148499
1038.150757 1970.805298 947.127991
1066.030884 1735.444092 574.076477
803.037109 1873.071899 711.446228
933.271118 1936.747314 865.978394
858.400391 2030.478271 848.365845
829.825256 1919.694824 681.584106
851.913635 1798.272339 744.302307
1049.189209 1735.933228 628.515686
787.487732 1852.006958 746.176331
928.029785 1846.085571 519.993958
870.552368 1923.373169 626.692017
1019.939392 1715.368652 696.410950
980.344360 1759.252319 728.852722
793.757202 1877.670532 703.869812
998.969482 1826.584351 482.591339
901.250793 2034.291138 861.371521
933.446472 1806.038452 694.253662
999.141418 2003.512695 917.009399
797.945313 1859.138062 745.962402
1101.414429 1745.983276 465.536591
1132.891724 1668.957764 528.162903
965.334473 1778.176147 677.290649
831.813721 1926.734131 670.858154
849.535583 1924.482056 685.453918
796.505676 2050.045654 709.170593
936.786316 1842.166748 564.920044
852.001404 1984.992554 760.057922
873.638000 2040.201416 792.469116
901.727051 1965.785645 842.006775
1113.509155 1715.732422 527.781860
888.600098 1890.426147 532.186401
960.588379 1996.145264 891.678101
1017.056274 1776.526123 557.995972
894.143005 1741.120483 864.455811
1081.988281 1793.431519 474.956055
965.098816 1964.921631 886.254883
1042.093994 1737.021484 609.901245
1024.695801 1852.676270 948.521912
1023.133545 1718.604980 651.604980
816.862915 1872.766846 689.286987
1020.944031 1707.926392 696.875854
908.861511 1747.612915 796.682617
944.578186 1813.899414 633.479431
1012.835449 1824.875854 519.288025
792.195068 1845.954712 763.368896
914.636108 1745.172363 791.192627
1050.628540 1706.242310 674.710022
1127.755127 1696.376953 545.659424
1060.788208 1803.615112 436.266388
900.870300 1861.144287 560.661377
957.673523 1837.972900 702.751648
856.303284 1966.575073 721.165405
1028.569824 1745.958740 613.731750
1048.647339 1707.902954 646.823120
880.509827 1767.755249 786.490051
780.309204 2013.918579 643.615540
926.241760 1718.611450 852.884399
824.866760 2047.991821 738.034363
800.950378 1867.130859 758.656555
932.940735 1900.099609 878.361206
861.011597 1949.405762 825.193542
919.823364 1884.517456 504.534912
799.986816 1862.471313 710.573547
782.627258 1867.494995 776.780090
851.016357 1980.222046 761.443665
965.574402 1864.065308 436.929108
876.278503 1865.707397 591.973389
841.834900 1993.404663 766.975952
807.645264 2039.022705 666.601257
876.259277 1785.862061 741.402100
1107.587036 1741.211060 489.355377
1022.525513 1711.458130 703.890930
953.926208 1723.035767 813.378662
974.847717 1801.390869 929.442871
951.177734 1801.283813 640.500000
1054.392700 1703.807007 673.936890
858.537415 1816.117554 733.890137
832.872620 1984.733765 674.626221
807.899170 2037.754761 705.281006
844.159424 1900.309204 667.889587
1068.046021 1795.985596 441.823669
851.161072 1907.478027 642.475647
773.805603 2022.820190 647.248657
1035.355347 1721.156616 648.636902
933.840759 1963.470093 863.297302
966.552979 1864.593750 435.006622
919.073914 1916.008423 509.965118
985.533630 1823.971924 897.407166
822.037231 1922.708862 684.722168
942.832886 1767.951782 704.275940
1072.649292 1912.803223 979.433044
854.378296 1995.412109 768.542786
796.056274 2053.196533 710.428467
935.520874 1842.243164 873.605530
810.384460 1943.907959 640.182861
1039.653320 1745.256836 602.630127
834.929626 1951.551025 677.474792
859.980408 1860.555176 828.873718
880.984009 1980.315796 830.243347
840.862976 1857.030396 674.980713
936.597412 1727.084106 856.580688
898.498901 1864.759399 552.980530
857.944458 1930.902100 654.134888
941.472900 1905.079346 457.479370
892.505737 1908.245728 838.127380
908.487793 1876.238403 854.398560
1071.208008 1900.307495 419.667725
930.995178 1789.802856 690.688110
1082.523071 1757.239868 496.459167
806.057617 1840.327026 750.132080
1027.283325 1930.061279 405.066956
797.350525 1881.213989 702.493530
975.881165 1712.404175 808.740662
1109.077148 1740.418579 481.840088
834.767029 1824.040405 727.193909
957.943970 1936.280151 424.906067
821.975708 1841.343140 716.713013
796.182312 2029.870605 649.605896
971.315125 1885.664185 424.055359
900.324524 1877.776245 551.255981
848.748596 1893.180542 608.109253
955.566345 1855.129272 470.019440
895.763855 1758.591431 812.858582
847.385376 1876.894653 628.016235
1115.431763 1728.488525 565.721069
879.544067 1965.736206 708.836365
839.754639 1835.371094 808.557373
1021.765137 1766.278931 572.256348
932.726746 1720.103516 875.922913
873.785156 1940.789673 824.386108
967.675232 1760.202271 720.370789
894.193848 2054.434082 827.043274
1035.357056 1799.139282 508.610657
925.957520 1721.217773 846.356506
875.039001 1869.039795 586.447388
1058.266724 1725.935425 599.673706
1017.691345 1686.226929 698.584534
906.757202 1966.277222 845.501892
1019.609558 1822.455566 433.236023
893.619995 1869.771606 566.151550
964.988953 1926.085938 898.562256
823.197144 1938.442627 815.404114
1108.070557 1882.153564 445.066071
874.420715 1782.967041 738.227112
937.347534 1916.400513 452.604950
1084.524292 1916.842529 424.502228
1041.476807 1742.522705 599.240845
783.272522 2026.740723 648.745605
1053.536499 1955.356812 947.300110
837.671875 2001.119751 672.697815
867.030579 1929.468750 820.538940
992.018005 1829.399414 499.810669
790.012573 1993.387085 641.043579
838.127380 1924.632080 671.883118
864.804993 1763.755737 798.363159
795.996704 1854.783936 782.917053
877.306519 2001.170898 734.425903
880.014893 1825.853882 677.448486
1023.133545 1935.788452 938.967651
889.624878 2072.420654 771.818420
933.445984 1869.229980 503.791534
797.285706 1937.963623 805.373718
896.816040 1852.911865 850.430237
811.281555 1828.499512 796.082275
831.938904 1853.999390 818.730835
778.756348 1990.972534 626.930786
879.967651 1861.204346 595.822266
824.944946 1826.860596 736.329102
925.439880 1878.392822 863.024719
917.294678 1728.878662 845.067627
859.393555 1861.072876 826.190552
912.560303 1868.905640 537.072876
851.452881 1808.614014 759.098267
947.318848 1982.493652 872.578857
911.479919 1742.276855 784.157288
944.117432 1713.349854 810.170288
891.657654 1878.964966 829.024170
953.279602 1862.513062 481.518066
871.464417 1864.690918 597.549744
777.004333 1994.403076 644.733582
784.491394 2045.778564 720.937683
894.471008 1753.583008 810.153809
853.738220 1822.526001 709.700012
795.817627 1845.739380 747.941040
863.338440 1907.975098 563.346741
955.919006 1917.687500 444.799927
857.181519 1793.275024 745.359253
918.118347 1707.709595 879.674927
902.825562 1827.200317 675.887512
1026.466675 1744.957642 641.995911
961.890076 1965.642822 499.289795
784.139465 1969.388428 643.823792
1007.115112 1942.021851 410.022766
954.484314 1792.663452 665.060303
936.940796 1832.199463 616.954407
950.052551 1847.614868 552.708557
982.235840 1724.930176 733.177917
829.961609 1827.948853 729.865662
1068.123413 1723.556641 588.942505
1079.482300 1751.782959 568.480957
888.468323 1846.695923 828.118225
868.388855 1888.496216 579.668640
865.339783 1857.670654 640.905212
950.932922 1847.769531 529.310303
858.250671 1941.323853 687.598022
952.593201 1780.047607 879.399658
824.056274 1858.370850 688.839966
1057.856201 1707.583008 694.099365
874.488098 1993.174072 663.968689
840.526367 1971.465332 689.700867
997.692383 1988.296753 892.080933
750.629822 2015.443970 625.363098
884.422241 1766.422241 759.964539
806.572021 2044.917725 668.707642
1024.160156 1721.534180 647.215759
1017.130188 1716.383789 682.721008
794.667480 1947.544922 794.473206
922.174194 1849.102295 564.614563
862.129089 1945.455200 639.619812
836.962036 2076.614746 761.540283
875.279053 1846.923828 673.507507
980.697754 1845.653442 436.466125
901.464966 1808.274658 853.177612
993.016235 1844.227905 443.946411
866.251892 1779.126709 773.385010
868.249451 1832.416870 825.751648
819.670227 1872.598633 694.133362
810.858093 1832.583984 739.911743
1025.305298 1782.916138 555.079102
917.945313 1747.999756 752.218750
1072.170898 1769.429443 539.933899
833.680176 1935.483154 733.491638
993.883423 1822.303955 913.408081
882.547302 2030.208130 852.963257
1024.358643 1762.287476 626.448730
791.729919 1878.023193 706.658508
949.306396 1846.396484 495.246857
832.430603 1816.345459 753.077087
1056.280640 1921.111694 950.316589
939.544739 1832.325073 582.234375
857.344543 1962.622070 700.099365
943.317322 1846.748657 550.735840
968.829041 1853.991699 896.079956
809.439514 1957.159424 643.870789
1059.140381 1718.850464 604.377197
825.779602 1835.909058 720.439270
1110.750244 1686.256836 593.091614
808.242371 1944.242554 680.800598
1014.849548 1715.641113 686.327515
863.411682 1995.067261 732.207336
859.291077 1860.679321 630.970093
792.311890 1986.654053 654.047607
947.210266 1782.949707 892.366821
826.855835 1949.312622 642.154968
984.598633 1718.918091 770.474182
926.256714 1721.100952 827.230652
957.158508 1716.972412 791.502380
929.229919 1721.192749 886.592529
1086.501831 1722.097168 595.551819
989.980896 1816.797119 534.103333
877.329407 1919.995972 629.422913
794.991028 1859.061401 766.964355
849.791504 1823.718506 703.132324
1046.831787 1780.098145 485.062134
897.424622 1753.842896 802.278687
972.410339 1909.634521 892.986267
1005.838135 1806.233643 913.297241
1002.500671 1818.546387 551.507080
1127.569946 2000.507690 448.712128
860.394775 1799.183594 777.240723
823.110352 1933.266235 638.277466
838.390869 2049.320801 760.947998
978.897583 1839.905151 905.682007
839.798096 1990.158081 770.156250
855.914612 1845.348389 819.891602
973.306885 1798.321533 908.008545
893.063049 1759.107178 781.028870
1108.823242 1673.490723 558.335022
972.244629 1696.776001 792.222473
858.386536 1771.825073 839.627136
956.024902 1850.746094 469.822876
1022.434692 1809.180176 486.671478
836.293335 1914.791016 804.161926
1048.666992 1697.727295 686.191833
1084.290039 1720.343384 573.718506
1015.601196 1773.598755 577.652405
1005.916992 1824.745239 533.628479
963.413269 1767.469604 729.443176
887.187805 1913.221191 540.593140
902.849609 1911.257080 858.260559
987.181763 1747.510742 729.318237
979.078003 1844.845825 906.258789
818.015564 1811.449219 793.155212
829.559998 1936.058960 735.575562
911.143616 1743.469971 875.649658
839.931885 2027.164551 791.912720
991.045837 1943.940674 418.884369
1104.446167 1697.407837 568.923645
870.753845 1855.462891 641.053833
861.249634 1917.065918 821.585693
926.994934 1818.044312 869.549683
817.645630 1892.625854 690.653137
991.070618 1686.869873 742.019287
852.480164 1914.203857 679.235413
1028.892822 1837.766602 931.706482
802.723816 1933.889648 778.939331
919.243347 1845.525146 609.102783
787.932861 1908.714722 784.275574
1096.055420 1726.713135 548.324158
965.126282 1814.537720 602.568665
879.838806 1875.213623 585.590820
874.044983 1875.612793 546.266846
841.801758 1944.136475 683.819885
905.368469 1854.138306 553.059204
844.278870 1922.750122 645.895996
961.829041 1830.986450 896.674500
1042.619629 1899.776001 951.223511
1026.960083 1683.929810 700.986267
935.706116 1778.280396 883.010864
964.665588 1820.035767 711.602234
816.445007 2029.574341 737.029114
945.316895 1969.876099 869.785583
828.742798 1934.930054 671.348938
1006.398315 1846.508667 417.332062
873.760681 1870.845459 826.543701
782.468445 1967.689941 616.951782
923.007385 1978.426392 854.767761
872.169678 1773.438599 831.482849
845.526184 1996.384644 714.710449
865.573608 1906.521973 824.465149
990.510071 1875.686890 405.991821
1079.691406 1696.235107 633.581665
881.189270 1777.858887 756.357483
856.133972 1850.796265 652.726624
928.158630 1738.065674 844.005493
764.744324 2015.961304 648.406067
869.548706 1843.924194 670.591370
896.555298 1941.927979 583.444702
913.179688 1975.152466 851.492126
850.491333 1863.389893 655.058167
839.488892 1844.865845 692.839478
942.431274 1788.191406 887.515381
1005.467407 1761.426392 643.405884
794.062134 1845.334229 760.692810
912.679688 1756.822266 769.121094
947.665894 1805.870850 652.522766
884.601563 1950.073120 829.054138
937.862427 1820.748779 886.147339
938.220276 1803.185425 662.772949
999.017456 1729.673096 700.365540
951.912659 2031.717529 860.124573
896.634949 1943.174927 840.589233
929.043457 1710.975952 876.898926
932.252747 1729.237793 899.719055
1033.897705 1711.579712 666.640503
820.088867 1934.351807 695.161621
901.257019 1779.137939 854.681580
789.658691 1847.815063 764.011475
974.672791 1711.020142 798.785278
883.251282 1900.587769 590.994507
899.282837 1838.285645 629.750305
997.396606 1848.370117 442.614227
983.195251 1809.129639 914.201721
881.519470 1903.862793 560.526917
854.368347 1806.668579 700.023987
912.341187 1823.060669 865.003662
896.625366 1705.713501 881.610779
885.263428 1881.270020 546.035522
1122.994751 1689.671265 564.517822
853.345215 1865.557129 630.358337
837.220764 1832.469971 753.584106
968.798401 1852.312744 895.659546
1038.676758 1960.401245 934.638245
959.085205 1870.784546 452.200348
938.692810 1915.730835 871.533447
921.874756 1915.344360 870.074951
989.205444 1801.759155 922.122253
863.739502 1891.370483 566.282837
818.322693 1924.311279 701.787048
1091.613281 1735.576782 547.536865
1036.134277 1755.801514 602.159241
886.473450 1751.920532 828.669373
888.568359 1851.208130 620.478455
925.506042 1726.618652 864.971313
797.044861 1839.754883 767.843994
844.643921 2006.402344 714.001953
931.008484 1815.619995 640.932739
805.906982 1860.393799 763.860413
843.709167 1957.439331 730.632019
824.348633 1969.648071 811.574524
840.405884 1802.115112 757.467102
954.787170 1935.050293 881.378906
855.381958 1957.516602 712.183105
782.781860 1885.231567 725.396667
878.161011 1908.174194 609.740234
790.655090 2009.078979 648.503235
882.550171 1872.197388 579.898926
785.424988 1860.554443 739.362732
957.326172 1781.598511 675.468628
791.451294 1870.125244 729.054443
1101.830200 1690.836548 591.674744
792.182617 1883.548706 747.579346
847.388306 1830.929321 714.671753
1116.253784 1732.851929 510.641815
911.203735 2006.971436 839.503235
884.755249 1790.006470 743.739807
916.346497 1878.119263 496.858246
982.239197 1821.160278 570.996338
845.386597 1996.143433 728.905945
1134.462769 1691.282837 528.488708
1026.201904 1913.367554 930.127197
871.456848 1837.891235 831.515869
828.236267 1835.489990 798.416199
858.194031 1978.454590 750.291443
946.191833 1833.426636 886.552185
798.656433 1860.426270 736.557800
1118.445068 1871.089478 452.622986
966.988525 1962.146606 474.143402
787.606018 1871.432739 722.529541
938.621277 1885.783569 477.625702
845.923950 1894.512695 657.835449
949.327393 1842.825806 482.354980
905.149353 1894.225098 850.994507
944.219604 1812.929932 622.794617
836.010742 1916.681641 667.420227
934.926208 1741.786133 764.346985
1076.853027 1703.787842 628.164734
1010.798218 1959.021118 912.283142
1095.799072 1963.276611 431.526093
905.943909 1774.668457 858.264404
926.789063 1970.138550 551.895203
981.767151 1849.219238 427.692169
1053.017212 1795.877441 437.902985
881.671448 1786.623535 757.953979
861.476440 1915.260620 818.524597
1064.830811 1766.911987 560.045105
812.400513 1811.979614 783.605896
796.388306 1880.919800 737.420898
940.642395 1912.208374 866.837402
1027.327515 1734.091553 642.054688
895.517395 1874.734497 557.561401
1092.948486 1769.471802 486.144592
842.588623 1931.659912 707.011719
796.085571 1844.026245 781.387939
884.350708 1908.032349 585.310242
868.714050 1792.355469 737.353210
803.440002 1918.961182 765.876099
901.252197 1929.455688 584.023743
845.058777 1825.622314 700.421997
810.290039 1986.540894 665.751099
1016.471313 1888.858398 396.377594
902.994812 1838.971313 655.319641
938.410645 1840.841309 606.872437
998.648315 1807.916382 512.712891
1034.666748 1782.762451 535.564026
1122.031738 1763.540283 502.119141
758.133118 2015.949097 620.237793
960.768860 1922.769775 439.053619
799.246033 1856.042358 717.884888
896.306396 1857.550537 579.537964
841.552979 1849.881470 667.193481
928.430542 1730.313232 789.270020
1010.932251 1817.426636 452.042847
1085.678711 1756.977417 488.747101
956.314758 1905.296875 448.335144
855.331360 1865.406616 825.144775
978.948730 1792.475220 650.692932
819.739136 1860.037720 718.168152
820.364807 1830.761108 739.711243
849.267700 2044.906372 775.578796
975.445984 1961.051025 449.424835
861.425842 1889.187744 584.107849
1030.988281 1777.404053 525.498962
911.544006 1882.559937 505.803375
845.993103 2060.536377 770.943970
936.737000 1735.743408 908.654846
1022.816101 1822.502197 480.613129
831.462219 2031.234009 646.247192
788.399902 1918.129517 787.067383
920.482605 1862.034180 560.873230
931.236267 1727.381470 800.952087
958.507385 1896.104614 896.382507
833.396790 1821.180054 732.576782
963.458862 1728.549561 751.934570
909.459900 1838.901978 865.736511
1046.853638 1768.403931 596.554077
821.299072 2036.626343 742.846863
868.100647 1841.714111 829.309021
820.497131 1958.005127 812.602478
844.829468 1914.985718 667.319397
823.312378 1960.602539 787.545837
889.745422 1919.338257 838.940491
1105.105225 1776.335938 509.029572
961.737671 1821.466309 895.442078
1013.572632 1777.609375 586.377563
949.342896 1898.907959 452.047302
1148.321533 1779.812500 479.837830
1018.714417 1832.038452 944.306946
929.966187 1954.607666 515.880371
805.016479 2015.601807 659.336121
851.767700 1888.484863 647.089417
838.534790 1932.963135 810.291565
907.318054 1866.922485 563.888306
844.880127 2050.373779 768.123535
797.128540 1845.855591 741.897766
1180.086060 1939.131226 491.174255
1006.027283 1711.882813 731.569580
946.731567 1881.302368 880.233032
872.250061 2018.597656 792.930542
968.404907 1712.594727 794.130859
955.608398 2041.828247 862.860352
858.602539 1845.500610 820.944885
968.737915 1805.945557 593.020325
982.823792 1779.346436 617.981445
1066.147095 1764.325928 505.922638
792.322144 1845.084473 749.627441
864.952087 1907.811890 833.254517
817.064819 1952.710938 668.284302
885.306152 1810.302246 841.948303
795.988647 1856.926636 724.748718
817.582764 1937.783569 643.788940
838.192261 1911.902222 675.725403
835.588074 1888.252075 799.544312
1031.874023 1877.989502 947.914795
838.136780 1819.588501 802.069824
851.663391 1776.142822 777.155334
980.195313 1984.942139 881.841187
924.591797 1794.046143 874.510559
813.097107 1959.499878 647.406921
949.657898 1837.440063 883.899109
882.259460 1931.771851 618.972534
943.799072 1923.264160 470.153625
938.642395 1864.719116 488.714325
942.112244 1984.154785 867.399353
1085.995117 1703.266235 637.674866
956.197449 1951.008911 878.632080
942.579956 1718.718018 835.232849
903.787659 1782.087646 855.734863
1042.469116 1765.402588 583.825378
826.801208 1955.674438 773.435364
866.821228 1943.240967 820.184875
804.480896 1954.005737 821.578186
948.982483 1900.229736 437.354248
865.333496 1825.755981 832.260437
894.105042 1980.558960 837.737000
1083.502686 1711.951416 618.333557
982.863342 1713.871826 776.290710
798.009644 1942.670166 798.618896
938.532471 1789.116333 687.140991
1012.655212 1747.717285 687.093872
843.870850 1905.113037 815.089294
1146.691895 1970.531982 466.669098
949.328613 1798.980591 885.744385
792.964722 1998.217285 661.555908
1029.387207 1705.615479 714.602234
907.081482 1961.510986 846.988525
787.665344 1992.603516 642.673096
956.466919 1728.213257 762.135681
989.134216 1881.137939 911.363159
942.927368 1816.261353 605.749084
1037.054565 1819.322510 453.131561
1014.700317 1763.522583 613.616821
888.726135 1888.800537 835.079041
895.372192 1797.331665 851.786987
1018.304504 1714.232422 704.998779
1029.604858 1755.750000 625.041931
1006.240662 1810.162354 490.241058
1093.200195 1745.986328 545.925232
821.096741 1963.812988 641.587891
909.561462 1820.515015 863.571655
826.832092 2029.803101 745.577576
857.710388 1935.649048 634.524902
991.883789 1765.918213 648.191101
870.803894 2028.222534 811.986328
896.229370 1878.679810 570.734802
900.793457 2002.733276 720.858276
983.005066 1803.838135 909.574951
847.028503 1880.067627 644.692322
868.813904 1873.587402 600.555359
858.479370 1912.174438 805.121704
855.717834 1842.873291 834.750488
885.437683 2031.478638 848.022705
891.036011 1746.926147 855.321777
911.293091 1778.776978 860.204163
907.446838 1856.335449 675.309631
1122.838013 1715.528076 506.576813
993.961182 1947.608276 907.079834
811.697327 1993.766357 670.287170
1047.681396 1883.167603 942.928223
878.531067 1761.718750 816.236938
1121.678223 1704.961426 530.277161
1014.434021 1769.290649 607.948242
874.903870 1769.873657 772.575134
817.466125 1964.571411 653.450989
995.057068 1838.717285 429.329102
920.177490 1904.276978 859.151733
1091.831787 1727.790405 495.088562
1101.441284 1773.091431 433.943207
951.829529 1888.797485 422.054047
1003.371582 1802.741699 516.725647
845.938354 1788.902832 780.624084
1007.797485 1720.414429 701.920715
980.966064 1785.807983 667.956787
1021.596802 1865.258667 939.282593
943.842590 1718.482910 872.131775
996.196899 1954.974487 902.619446
860.226013 1859.146240 634.687012
989.029114 1718.438843 758.895874
813.167786 1823.252808 759.502747
991.898865 1778.786011 611.054016
854.852844 1798.405029 748.088440
955.363098 1850.241821 481.803192
824.663879 1865.022827 681.219055
776.652344 2047.725708 707.517334
790.820435 1891.128052 716.476135
847.400940 1801.231201 746.776306
1060.421021 1937.966064 961.425293
830.846863 1921.966431 803.826782
965.494263 1713.915161 833.336060
917.405945 1852.682129 558.376587
1043.922485 1871.509033 939.718445
1068.743042 1766.087402 493.604645
963.904236 1953.124268 440.382111
808.477478 2037.406738 738.851379
931.569275 1724.968140 901.629272
934.804504 1831.703857 586.593872
879.591309 1877.735474 832.353577
984.393127 1794.056396 605.773254
998.590942 1947.612549 899.453552
1098.142578 1724.780151 540.188538
967.214478 1945.948730 445.375732
886.209595 1868.351318 552.760681
984.647766 1827.031494 519.161987
841.762939 1832.055908 700.835693
867.683228 1804.570068 707.028625
1030.180542 1769.064453 549.491760
866.129272 1896.493164 832.201233
843.882568 1912.840210 643.938354
897.759705 1884.989380 848.451111
959.767456 1745.751221 740.194641
891.740784 1873.304321 553.573547
857.986023 1897.658081 605.623840
827.815979 1843.219238 715.422913
797.573059 2013.266968 658.261475
836.751770 2003.230591 755.447693
834.113892 1799.352173 782.008728
1016.537903 1765.708374 593.488098
799.622620 1871.933228 713.811584
917.943420 1717.091675 874.065186
877.321655 1961.026489 699.196350
1269.613037 1909.175659 552.638062
947.438110 1729.525513 884.346313
967.541077 1844.752319 547.362427
876.776733 1916.455933 629.952148
846.625061 2002.519653 820.479980
827.348145 2009.277222 759.546448
891.439636 1957.270508 607.084839
908.481628 1888.712036 540.661987
1039.472412 1870.544800 967.395935
820.019897 1977.113403 672.763245
914.405640 1828.371460 669.634644
826.044189 1814.340576 770.378174
885.027283 1856.029663 600.781250
792.889526 1915.264771 753.448303
1033.663574 1763.417603 613.198914
986.799744 1821.948853 559.898315
868.907532 1737.908081 874.141113
846.575317 1925.495239 816.556091
992.919373 1862.484131 912.208557
836.080505 2029.465454 733.900940
822.399658 2064.498779 750.246826
1112.024780 1680.064453 579.037842
963.060669 1833.804810 559.924927
887.029114 2067.541992 865.357300
966.823730 1911.085571 423.673828
943.266357 1719.005005 813.608093
804.839600 1875.420288 689.042175
845.291687 1934.037720 649.329346
1011.175415 1889.936890 396.399475
790.874084 1884.090088 764.263306
772.038086 2005.206665 634.406616
1067.606567 1923.519043 963.830139
851.560059 1877.715698 815.439514
905.549011 1850.472778 570.837097
853.199768 1984.071899 728.066284
871.576050 1762.118408 804.609314
969.845947 1761.652832 700.695923
899.038513 1836.464233 634.777405
831.060425 1979.815552 693.314758
1000.313110 1972.269165 907.114075
800.380981 1907.417236 732.073242
1028.929443 1687.673828 699.763794
966.941223 1721.251953 796.723083
959.384705 1823.144897 574.557556
1074.493652 1681.535156 616.030762
987.978027 1958.056274 420.221558
890.361450 1855.888062 641.524414
1089.495850 1711.796875 541.818054
1076.885742 1799.185181 455.792603
1023.383179 1937.721680 925.599487
931.531311 1744.593628 765.751038
832.539978 1917.982178 684.620789
1082.863159 1765.547119 554.010681
1055.738892 1717.992920 631.330383
862.314453 1861.162476 809.891235
862.990906 1926.137939 564.598633
861.924866 1847.800415 669.120422
839.341553 1783.682373 798.640503
836.332336 1835.013550 699.985229
849.873169 1895.310669 584.694580
898.954163 1771.219360 852.156250
817.847290 1856.942017 727.043274
994.677551 1801.852539 913.959167
876.567017 1799.494751 704.656433
979.448608 1992.307373 887.327271
780.514160 1889.176147 757.863159
887.773438 1875.484375 565.306091
833.969604 1865.540405 672.275574
907.323914 2044.459229 796.663208
784.862183 1961.431396 647.176697
861.985962 1980.539063 682.220093
807.995728 1898.103638 709.479614
1050.310181 1773.198364 497.464142
860.607361 1940.250122 815.665405
1007.349060 1835.809814 920.088196
994.860901 1906.604126 911.206909
912.954773 1787.320313 861.307739
1055.237793 1808.928345 456.034821
908.988098 1770.166504 735.291016
950.914001 1805.705200 631.126892
965.372803 1784.207031 648.208069
1010.331726 1929.151978 917.349243
947.035645 1809.021729 617.045959
961.916626 1873.336060 459.579285
1036.157837 1699.259888 691.317932
800.756958 2043.011963 720.109375
834.927795 1807.694946 766.568665
1043.942139 1888.129272 932.706421
773.387695 1873.652100 760.170166
889.986755 1932.751221 609.957947
825.545166 1826.006836 800.076294
1027.820190 1786.733887 508.145599
1050.865479 1914.165161 933.518372
918.659424 1985.855591 852.199524
958.580627 1865.062866 459.156311
796.472656 2029.900879 625.472168
954.488403 1723.130981 821.341980
892.629944 1745.976074 807.270630
844.929932 1821.172363 775.724548
990.432373 1710.785889 775.651184
1029.757935 1799.274902 511.785248
909.417358 1793.784546 707.714600
863.596375 1913.891724 605.182739
977.187195 1844.363892 539.515564
990.817688 1833.886230 453.953186
955.113220 1865.079834 437.201630
1010.153687 1706.281738 740.845581
1105.372192 1688.266357 603.761108
859.885437 1786.759644 736.108948
934.695984 1776.133301 697.268250
1014.951355 1793.450317 565.224792
957.682251 1793.919800 894.730774
884.971436 1925.880737 844.014709
882.824646 1993.888794 735.178284
939.930969 1727.948975 893.377380
810.382629 2048.209717 737.049377
843.894165 1796.035400 788.481384
863.653076 1867.947144 605.342102
862.999756 1916.322144 582.361328
840.179810 1862.839355 659.112671
958.182312 1859.050415 435.526978
931.809692 1841.255371 875.341553
875.249268 2050.477783 789.932922
880.880493 1738.491211 856.869873
1066.512451 1778.017090 452.996338
864.414978 1788.015015 765.679443
875.326172 1867.039795 598.868469
776.128113 2004.695435 612.418884
945.889221 1700.341309 832.627502
901.358582 1763.768799 749.074402
818.989319 1840.401978 744.165161
927.795959 1843.248657 561.905884
785.474060 1868.151978 737.047424
1057.686279 1798.088623 447.070068
998.200378 1824.231812 547.601135
967.453003 1940.404541 436.844635
1053.602661 1952.667236 922.887451
1028.354492 1708.708984 706.622986
961.623413 1995.665161 879.853333
1000.239197 1870.377563 916.773499
782.298279 1985.465942 607.192932
825.363098 1939.116211 667.376831
832.703613 1867.189331 656.616882
992.877136 1764.252686 711.655029
887.184021 2064.033936 858.628906
887.058411 2035.285645 861.406982
930.250366 1901.422485 482.056091
1006.311829 1769.384888 593.869324
837.312866 1911.455688 815.991150
1104.936523 1707.079834 515.281738
853.450745 1980.091675 729.525818
914.856384 1716.432251 868.682983
969.028198 1702.688843 807.157959
934.427490 1764.914063 881.173706
909.271057 1870.839111 511.562347
985.884827 1761.170288 646.834778
867.642700 1895.538086 554.251709
1045.916504 1751.762451 626.091003
864.163208 1873.005859 612.058167
860.757690 1916.837402 657.080078
1027.569214 1812.069702 446.290833
944.384583 1931.508545 503.503448
902.003479 1767.825562 739.287903
885.153381 1853.978149 602.015137
854.414734 2027.055664 776.474426
796.106018 1924.384277 802.860901
1087.047974 1918.755493 966.886780
850.490540 1867.821045 642.912292
822.337158 1926.032471 711.612976
825.755798 1937.840088 748.417053
855.843994 1946.530151 702.858948
842.096130 1806.208740 765.226196
980.150879 1980.485107 512.089722
1103.982422 1730.708984 544.141174
872.168945 1817.953369 833.774719
834.393921 1982.254028 680.019104
1135.813354 1691.193726 541.861023
816.735535 1957.064453 697.474670
990.052856 1719.929077 744.353577
898.281921 1960.491089 601.571228
1000.103638 1833.679932 417.367310
984.402283 1698.442993 738.766541
970.474915 1836.629028 484.254364
873.467102 1897.474121 567.911316
1025.194824 1705.303345 724.350586
858.517029 1868.280884 633.625488
1113.661011 1705.012451 561.032166
848.552673 1925.018311 697.141052
906.128296 1953.417725 839.127991
947.965454 1912.659668 467.786957
947.532043 2037.775146 880.473022
1046.564209 1711.503296 649.832336
877.744263 1762.858643 807.252869
920.446289 2014.893066 850.413452
820.973572 1856.414673 706.764709
849.137756 1857.603516 813.851013
893.369568 1742.418579 839.677551
837.530640 1829.508179 710.728638
1056.879395 1797.572021 450.739594
812.859253 1954.897949 812.513611
781.997192 2016.632813 639.954468
1115.088135 1688.355103 585.923157
824.714294 1866.825073 813.084534
883.676575 1818.710938 696.702942
963.500671 1988.348877 894.331848
920.331238 1770.647461 741.314941
934.479431 1722.123047 816.603271
981.709351 1837.418335 904.839050
925.376892 1864.447998 868.903015
943.534607 1870.533569 473.426117
989.876038 1829.561890 441.369537
891.123657 1853.003662 689.950684
929.255676 1843.237793 581.870544
889.197998 1893.534912 537.760498
1131.349365 1708.072876 503.037140
818.847351 1858.297607 696.719238
1026.350342 1927.610474 941.752014
868.263794 1996.557861 840.215149
841.428833 1963.689697 759.734497
823.185974 1965.674194 789.386841
1001.831665 1716.346924 741.699097
928.934509 1914.501953 505.542816
849.035706 1804.265381 743.963135
1008.278137 1947.670898 410.954041
849.064087 1968.991943 826.071045
891.241150 1759.481689 784.986084
874.153137 1930.882324 630.911926
920.357849 1712.562744 864.466370
943.211365 1761.578491 880.666077
977.336548 1822.565186 541.643555
1108.035156 1738.478760 529.821472
782.593445 1845.529541 778.226685
1093.552856 1698.256958 594.038452
765.350464 2021.530273 641.493103
901.511292 1736.457886 842.891235
1002.494141 1843.026489 464.237244
810.323914 1860.153809 716.362000
993.702942 1832.868774 914.369690
1123.003052 1710.674561 540.580688
930.082642 1904.490967 492.091766
890.502563 1729.729492 881.225159
943.583801 1890.009399 886.345276
887.166321 1789.581421 741.278381
837.035828 1795.666138 778.366638
854.936768 1863.041016 632.078735
952.460938 1739.448608 758.156738
1026.537354 1777.538696 547.043152
972.175598 1891.869629 408.953583
1021.664856 1920.295898 924.173462
869.188171 1925.630005 643.002991
1054.597656 1963.503540 957.287231
1033.551636 1870.033813 969.517578
821.205078 1853.927734 678.485352
890.183167 1841.095093 696.550049
868.620789 1932.873535 619.885071
983.083740 1874.124390 892.353821
851.004944 1985.900513 734.262451
810.333008 1844.667480 740.864990
870.317383 2052.893066 789.727600
918.836243 1712.486450 871.488586
895.257385 1884.753052 529.165161
810.899963 1954.193726 785.567444
907.431885 1922.442871 848.602905
886.561462 2053.329102 792.292847
1080.828369 1949.586304 416.290924
932.727905 1763.978760 733.520996
921.887451 1786.127075 706.773193
828.098816 1872.247559 661.207275
964.831238 1827.198730 554.312805
949.657593 1851.961060 871.807983
1008.889832 1914.007080 916.870117
1030.072144 1893.814453 944.528992
830.090820 2032.555786 753.328735
849.781189 1799.869507 752.993103
829.369934 1808.434692 761.204224
813.019226 1832.008667 753.279053
931.404602 1906.426758 447.098175
948.741272 1890.234375 889.799194
803.436218 1865.278564 704.109009
836.908813 1989.167725 822.775940
917.405396 1932.464966 549.031799
890.551880 1818.511353 843.967896
807.298157 1950.435791 799.382263
1130.688110 1699.690918 540.088074
967.203918 1815.917847 594.393311
915.442078 1718.145996 868.878784
884.919312 2051.548096 814.789368
961.711182 1753.643188 744.157959
1068.649292 1841.033936 421.501923
964.864075 1820.420776 577.359680
808.383545 1950.801392 815.003906
1015.786011 1739.707520 686.211365
818.136108 2039.668701 722.307434
973.279907 1785.687622 632.965149
1005.625427 1768.094849 644.522156
998.424988 1760.867920 695.545654
1050.233032 1711.270264 641.971436
840.004639 2029.837646 755.073425
1117.089355 1661.275513 506.906860
813.950195 1843.552734 734.452393
1001.365234 1842.979736 406.352997
929.519653 1899.560425 488.075531
808.637146 2044.830566 711.468506
997.682739 1706.473511 756.765198
1079.487671 1699.364502 640.332520
953.309326 1760.066406 738.941711
916.121460 1890.734497 491.298859
844.876160 2024.758789 771.904358
836.220459 1833.622314 721.657532
1046.667480 1671.918701 638.299255
1003.288635 1975.682495 908.425842
850.758606 1880.291626 633.402283
1018.879150 1710.420532 719.250488
923.387085 1808.138062 661.381226
952.909180 1896.944824 436.074493
1013.196411 1709.211548 726.861023
1055.930542 1880.528931 950.080200
976.071533 1746.898682 744.813110
882.156372 2043.466797 788.370544
1028.713989 1801.478149 448.161865
897.054199 1759.115234 776.886719
1085.040771 1737.551392 497.797607
866.685364 1892.161743 577.867310
1058.094360 1784.983154 516.039490
1046.762817 1724.442627 600.711975
913.272766 2017.257446 858.290649
823.105408 1839.419067 739.023743
783.675537 1873.153198 739.877136
825.285645 2032.209351 752.942627
898.374329 1880.889526 546.039734
794.528931 2014.496460 650.435974
868.439880 1786.323486 750.936401
837.979919 1775.954956 827.662109
955.468079 1928.325195 883.698303
967.366638 1871.391479 450.537262
806.205811 1926.952148 806.451660
996.274231 1776.205444 643.449951
876.052673 1902.046997 611.150940
943.671326 1717.205566 856.556030
941.490234 2004.707886 693.770569
979.084290 1898.200562 428.130096
850.351135 1849.954468 670.475708
980.707764 1838.383789 448.365540
1003.900085 2001.163818 919.999756
896.399902 1779.298828 718.621460
856.237549 1913.317749 580.106689
998.425476 1748.663208 665.532288
853.342712 1928.808960 647.107178
981.335571 1838.010376 469.146301
945.728455 1831.441284 609.323853
834.014587 1920.839722 670.309326
823.431152 1954.572876 819.424194
852.440552 1887.825195 614.137146
984.484375 1884.302612 398.751770
927.916809 1891.980347 471.546631
806.171387 1893.793945 780.416321
939.651428 1727.212036 820.162598
849.412537 1985.224731 790.728699
811.578857 1854.233643 726.029907
1059.739502 1682.540161 652.928833
901.200562 1800.208862 698.021423
834.166260 1805.817627 771.067749
1033.049316 1760.416260 581.153809
838.228455 1786.704590 792.443359
1014.510864 1812.157593 494.895020
921.502625 1795.654053 866.705627
983.092529 1806.886475 569.609985
842.844543 1834.993652 688.878845
991.784363 1827.797852 464.630829
1046.966919 1847.111328 407.201965
899.550293 1912.468994 839.276917
813.566772 1919.207275 723.680664
925.193420 1841.430420 560.296082
1030.055908 1764.555054 595.326721
829.716553 1949.755859 623.796997
936.938721 1917.464111 496.426971
875.908020 1901.111816 597.649658
923.828796 1711.345581 883.333923
938.308899 1718.015381 841.929199
824.826904 1976.532715 804.250793
951.360107 1864.862671 503.121582
856.512268 1826.684814 693.708923
876.787048 1833.225586 676.928040
860.173340 2030.210205 773.508972
781.847717 1880.414185 738.563354
983.354309 1741.461182 728.404846
849.931274 1999.240723 759.313599
1077.064087 1698.201172 628.752319
1033.803467 1722.655640 643.349976
956.010620 1951.354736 515.899048
878.788635 1752.298340 826.109680
929.873474 1926.937256 523.091431
1085.321045 1769.709351 532.854370
1041.667358 1745.221558 599.077393
989.554932 1846.544800 420.184418
870.367981 1883.256714 565.216248
989.308777 2007.595093 910.616333
953.732056 1940.714600 448.152618
843.779480 1973.250366 827.695496
1045.507690 1704.793823 670.555908
903.734070 1981.942505 853.039490
821.082886 1937.556519 687.523499
973.370667 1788.868042 902.032654
952.646667 1698.807251 809.895325
954.253296 1805.538696 611.405396
968.516663 1980.518066 516.715515
899.529175 1762.188843 870.324402
927.707092 1907.012207 866.645813
820.867981 1847.070190 718.676453
807.069153 1848.121704 785.824219
904.104797 1840.311035 856.855713
1123.132202 1738.469604 510.101440
895.721863 1835.249268 642.594910
1065.863281 1722.393188 603.213318
844.159363 1860.971680 663.605469
1059.739746 1779.667480 523.607117
849.687195 1984.022705 777.049072
931.541687 1734.086548 867.530396
901.128174 1904.215820 539.204590
1050.693848 1689.547241 640.832275
843.646790 1930.908203 642.056152
866.249512 1963.502441 716.853149
793.142395 1876.778076 711.461548
835.275635 1881.356445 652.746094
1044.217041 1793.313965 484.826630
826.721558 2043.951782 702.824524
963.015137 1948.813965 872.320984
844.340881 1827.497681 746.262634
850.816833 1897.584839 600.079285
892.705933 1876.836426 520.682434
996.848145 1698.583252 753.102478
921.319092 1806.978394 684.684570
840.617126 2048.853516 768.203979
800.075012 1974.315674 637.920776
813.255493 1861.196045 694.739868
1026.637939 1757.745728 610.918762
853.096619 1779.036987 818.561340
917.339478 1728.052124 838.195313
1031.700562 1735.284302 607.488892
1042.152588 1719.608032 634.423767
1061.488037 1679.620117 645.747803
889.442993 1832.797241 844.704224
962.538330 1768.935181 890.541565
973.522766 1924.932007 402.693939
807.216248 1834.976074 755.043213
958.092163 1840.876831 537.505127
845.681091 1912.645752 679.651001
1015.109924 1837.843262 939.173401
797.517273 1970.356567 651.751831
866.261108 1951.623535 625.347656
932.876343 1807.650391 646.855530
949.915833 1815.624023 608.745239
822.167480 2009.326172 818.438110
970.905212 1882.203491 896.722351
942.366272 1759.301392 738.000916
839.265747 1793.363281 777.255737
839.568115 1855.616211 805.708984
824.069031 1926.642212 696.174011
1016.192688 1802.491821 516.026001
1134.225342 1688.303467 550.682129
913.735779 1856.926147 544.894043
995.108337 1838.900757 456.035553
940.013977 1924.292969 872.575806
949.164917 1748.923340 900.656616
875.225769 1856.646729 620.958740
990.799988 1829.204468 475.115845
782.530212 1995.169434 621.629700
948.249329 1802.898315 682.641724
896.998413 1738.595459 867.444214
996.402405 1766.309448 672.378601
840.004333 1861.892700 668.307678
838.386047 1855.692261 664.175293
969.185486 1835.533203 475.012970
1005.773682 1720.359131 706.040588
800.934875 1927.078491 753.772583
834.964478 1995.899414 713.118469
973.811829 1840.128296 473.410065
890.055725 2043.402710 852.117188
860.148132 2022.692261 820.990540
874.632202 1980.766479 734.428650
897.274353 1847.686401 598.850647
872.775879 1770.284180 775.479492
966.214844 1958.906860 439.089020
1007.580017 1830.459595 462.126556
880.685242 1879.586182 536.753235
937.125122 1802.324097 877.413086
979.309143 1716.193359 771.638306
995.029968 1903.443237 921.219482
899.914673 1930.050659 539.017700
869.877930 1920.755615 824.265564
838.956116 1808.593262 753.504089
1101.051270 1708.739136 600.087036
862.601563 1889.616455 616.134949
904.405029 1727.276733 846.397400
927.491638 1743.978760 763.081299
941.924011 1897.666382 464.378693
951.373901 1845.206665 462.816498
1023.518799 1737.541870 650.319214
859.437317 1861.407837 632.539978
999.030029 2007.102661 904.618164
935.253235 1806.836914 644.601501
999.382019 1717.614014 747.104431
887.644592 1891.462402 541.561401
1051.714600 1666.381836 605.071167
896.636780 1737.906494 826.760193
1027.875122 1854.103638 395.257294
942.194092 1793.451904 679.687866
928.773010 1841.737061 560.969604
889.038452 1770.098022 756.548279
1048.521606 1705.427979 660.507690
1029.163330 1716.130737 660.256592
778.870056 2030.053101 645.424011
864.096924 2055.180420 784.391235
945.783447 1928.096558 432.204865
900.687256 1903.230835 848.304565
1046.639282 1895.192383 942.694336
1030.148315 1806.064087 478.251434
1157.118164 1750.985840 487.993927
1022.878418 1785.823975 534.630676
829.077087 1800.316772 789.211914
1095.840576 1706.393311 532.834473
794.863403 1991.512085 675.528748
1061.826904 1682.628174 649.799500
1028.413574 1863.347778 931.861938
1000.990540 1857.735107 917.174683
935.117249 1870.133545 495.716431
944.232300 1822.065063 596.370911
867.057495 1839.626709 676.365417
888.744568 1871.137573 544.077515
819.560791 1969.720947 667.388062
827.964355 1823.824463 744.635132
911.485352 1766.641113 748.940674
854.770691 1790.069702 801.490479
953.160461 1837.605225 599.026978
798.907776 1963.201660 624.354980
793.776001 1925.294312 808.731506
932.308167 1895.370361 494.314148
790.641846 1978.646973 657.592468
853.459534 2007.038330 811.355591
892.929993 1773.400269 768.305603
896.006470 1813.578979 849.567200
1125.652954 1729.537231 474.618622
1059.176270 1705.328003 651.284607
943.827881 1837.398804 578.881714
939.873108 1896.995117 469.567963
837.439148 1837.538940 710.734863
843.776123 2035.970459 768.961121
925.205688 1941.972778 870.878418
1008.759644 1713.470581 760.887207
842.824036 1798.832886 786.306763
788.920837 1867.423950 723.145203
952.255981 2024.851318 867.930054
906.069092 1935.201172 857.913025
805.207947 1828.595215 772.289001
849.260498 1779.601807 827.078735
989.992798 1869.780273 911.779358
980.096436 1874.732544 915.928589
856.255249 1880.512451 633.071777
865.499878 1774.852051 782.668762
866.687317 1960.742188 639.534302
862.355286 1993.934082 840.250671
795.688782 1853.426147 736.196594
969.173767 1826.492065 898.525818
956.666992 1795.184082 644.201538
983.431519 1791.730957 917.427795
908.218567 1885.546875 513.860229
1037.458130 1880.546021 938.216797
892.619019 1868.912476 556.111267
1035.220581 1725.914917 670.802124
866.106873 1791.466431 800.021484
790.178223 1915.732788 791.558777
1109.112061 1678.014160 578.846069
856.758362 1945.098511 814.641479
809.322815 2001.150391 665.530090
885.503967 1868.603516 586.485962
949.667419 1731.479248 763.130005
1060.282715 1709.011108 627.031433
957.704102 1815.888794 604.049866
839.887878 1938.037842 652.532654
878.908020 1911.161011 831.790527
828.920776 1801.556152 816.226074
1019.146790 1889.384155 929.621094
967.319946 1836.089233 478.086426
795.079346 2050.406250 703.898193
977.042664 1714.611572 814.671936
1010.425354 1841.355957 415.700897
942.001038 1719.427734 817.851013
809.703064 1944.614502 645.755066
945.964783 1824.799927 578.717163
857.457886 1769.736572 787.313049
841.327209 1997.560791 821.575439
1016.006775 1808.586304 504.299255
948.099731 2032.503662 865.890991
850.424377 1853.565674 676.659302
836.541077 1797.374390 772.205872
974.089355 1841.287476 499.365723
901.391724 1854.543457 578.859314
899.997253 1877.581055 856.870056
961.804382 1718.438354 782.266663
840.829468 1972.351196 777.639648
876.693542 1903.551514 831.240845
1027.015747 1834.368164 426.391296
838.951233 1918.185791 649.853577
813.749878 2014.535522 663.773682
932.137207 1828.908325 594.049744
908.378479 1852.318604 634.286865
952.625549 1761.340454 896.779053
847.704163 1856.539795 660.240295
979.979675 1744.433228 707.429993
857.908691 1880.070190 630.409241
810.722168 1935.672119 670.425537
929.680176 1828.197021 608.642090
804.347412 1955.406860 665.813293
986.027527 1804.796021 600.159912
1035.271362 1961.076782 928.407654
880.390259 1751.185547 808.768921
825.646179 1855.909546 702.149353
901.774658 1847.997559 862.437561
943.160706 1846.823486 526.815796
929.542603 1999.741821 599.132690
808.380066 2044.074585 689.244019
749.029053 2011.413330 633.753296
1026.740723 1807.786865 502.457123
951.680969 2016.132935 883.472351
970.169128 1839.663452 443.372711
906.008057 1989.995972 853.748169
1039.450928 1755.793213 640.148926
984.387695 1948.327881 901.624817
988.825989 1892.324951 423.193481
862.430542 1961.482666 720.109192
998.130676 1833.685059 504.467438
868.146423 1905.112305 578.688965
804.192444 1958.735107 655.852539
780.857971 1859.249146 761.955261
949.230225 1840.406494 495.951355
893.082947 1893.956543 844.451904
1138.476685 1694.777954 524.707336
814.527832 1829.838379 732.360596
