ply
format ascii 1.0
element vertex 1304
property float x
property float y
property float z
end_header
-381.557129 -1778.097290 1491.594360
-194.106964 -1618.694702 1494.739136
-182.186050 -1593.397827 1502.321777
-145.176361 -1606.943481 1432.181396
-226.641617 -1658.141846 1528.257813
-183.338699 -1609.351318 1496.452637
-259.812134 -1690.100342 1260.457275
-335.383179 -1605.602661 1498.322510
-125.279747 -1621.951660 1391.959595
-55.780537 -1679.844360 1320.266357
-280.429260 -1674.004150 1592.146973
-178.760941 -1727.163452 1221.309570
-310.087494 -1574.468018 1422.539185
-7.707497 -1698.185181 1292.373047
-307.989594 -1601.835571 1487.424927
-380.802246 -1636.876953 1379.045654
-83.910446 -1666.012573 1330.930908
-307.614990 -1636.857178 1307.294189
-425.315033 -1661.130127 1267.937256
-55.400219 -1692.401855 1306.047363
-253.514923 -1627.106079 1365.791138
-185.319717 -1580.927246 1543.692139
-65.256836 -1689.321655 1468.492798
-254.196930 -1587.358765 1403.716187
-117.966377 -1652.246582 1349.042114
-255.263153 -1717.525391 1206.078247
-280.083466 -1678.359985 1603.709717
-254.483917 -1674.757324 1283.845093
-379.935822 -1756.838623 1471.366455
-162.561386 -1673.237427 1311.693604
-201.853134 -1605.665039 1545.772217
-394.227783 -1834.712891 1508.821411
46.533504 -1653.911499 1391.200195
-353.418030 -1613.341675 1502.251343
-351.720398 -1630.868530 1523.729492
-35.825417 -1643.947266 1426.205444
-357.877777 -1677.510620 1262.564209
-36.472733 -1724.580444 1242.708984
10.519113 -1694.266968 1454.568726
-420.816406 -1666.744751 1277.915283
-12.121077 -1768.285645 1198.017822
-322.239197 -1602.800293 1388.032349
-337.394867 -1605.884399 1351.839722
-434.790619 -1747.263550 1297.265015
-179.214935 -1610.180176 1582.344604
-314.131775 -1595.734497 1373.690552
-410.222046 -1830.155151 1413.826904
-49.856518 -1635.771484 1409.518921
-108.775772 -1678.520020 1301.873291
-250.945297 -1635.942261 1340.292603
6.165454 -1705.327637 1238.025024
-365.832031 -1606.204956 1372.303345
42.934109 -1664.745239 1336.286499
-341.696320 -1644.225830 1467.865356
-59.851662 -1649.041138 1360.204956
-202.027344 -1581.532349 1539.080688
-391.429718 -1654.167114 1322.114502
-138.664047 -1647.394165 1354.345337
-177.453033 -1608.142334 1452.526855
-155.296738 -1644.984619 1382.758545
70.940506 -1778.568726 1363.553467
-172.787003 -1564.570801 1570.190063
-206.924911 -1614.084961 1556.019043
-218.598938 -1615.050903 1485.470581
-329.997559 -1579.629395 1443.169067
-341.926758 -1612.524292 1459.180786
-349.998962 -1610.801392 1509.058594
-349.266235 -1649.547974 1303.943237
-335.969055 -1579.158813 1414.279663
-165.906189 -1729.967163 1188.936279
3.805197 -1661.191895 1424.158081
27.873302 -1669.285522 1429.869629
-225.188980 -1617.438599 1466.736450
-407.165771 -1640.081787 1335.547485
-381.704712 -1641.765259 1368.825684
-285.210236 -1638.225586 1328.144775
-217.281799 -1654.863892 1376.496704
-30.329613 -1739.360352 1189.222168
-329.069305 -1584.926636 1421.329590
-346.271240 -1642.982422 1540.252319
-108.687386 -1677.033936 1481.773315
-302.675446 -1664.800415 1574.079468
-249.833878 -1678.000854 1303.352905
-213.105713 -1605.274902 1460.436279
-396.420929 -1644.620605 1323.422119
-359.928894 -1610.323364 1381.832031
-121.283768 -1690.137329 1284.897461
-3.082873 -1659.021729 1379.989136
-431.782043 -1722.013672 1304.141357
-406.182678 -1661.341064 1319.020020
-202.599579 -1640.817505 1360.358154
-440.498871 -1697.845947 1277.741089
-405.561035 -1747.247925 1419.228027
-235.531982 -1712.204346 1213.256470
-346.169067 -1704.958496 1506.711548
-102.626892 -1670.390503 1320.245483
-235.190155 -1652.952148 1580.012817
-302.767761 -1700.056274 1554.461792
-89.603241 -1757.044922 1160.160889
-282.701477 -1571.296631 1463.443726
-396.885559 -1847.961914 1506.339600
-367.621613 -1622.566772 1372.452881
-293.653015 -1586.588623 1411.701050
-413.122375 -1748.934326 1378.731689
-183.433105 -1606.631470 1446.849487
-205.266953 -1594.919800 1552.192749
-254.645782 -1701.638184 1247.556763
-235.924637 -1601.711914 1495.628296
-446.743622 -1903.858276 1416.993896
-398.382721 -1797.324341 1454.111694
-219.948135 -1710.291748 1181.567505
-424.834900 -1853.246216 1429.329224
-289.513245 -1583.430908 1392.614624
-304.014435 -1655.176636 1288.567993
-299.371002 -1700.398071 1218.895996
-318.760315 -1567.232300 1426.156250
-279.669983 -1621.298828 1328.944946
-179.989548 -1609.510376 1564.442017
-253.898270 -1629.127197 1354.594849
-407.196075 -1648.476929 1296.217896
-252.678299 -1648.223755 1495.602783
-183.456573 -1642.769287 1356.342285
-115.305672 -1743.980347 1170.374390
-120.293686 -1710.673706 1250.468262
-312.614410 -1659.515747 1542.747192
-397.975220 -1634.226929 1316.090454
-378.866516 -1660.243652 1393.430420
-333.940826 -1633.982056 1311.720703
-302.287537 -1698.189941 1236.825317
-366.442078 -1704.247192 1554.547729
-343.786926 -1647.156372 1288.737183
-254.552963 -1575.034424 1446.312012
-324.648712 -1635.100952 1306.208618
-420.401611 -1741.392822 1354.005981
-342.599915 -1598.843384 1425.422607
-404.348724 -1636.120483 1298.788574
-397.138580 -1831.765015 1525.496704
-271.965027 -1589.265991 1432.721802
-243.885910 -1639.316406 1480.099976
-83.552971 -1626.086914 1403.878052
-325.841248 -1623.538086 1325.933228
-197.696182 -1614.890381 1449.515625
-243.555801 -1578.252319 1446.819092
-318.959259 -1652.910156 1526.050659
-228.155533 -1614.147949 1394.294189
-38.827759 -1654.603271 1354.042847
-160.083328 -1608.916382 1435.248779
-61.192856 -1626.529175 1400.030029
-127.908012 -1726.771484 1219.328003
-163.134216 -1710.197754 1255.803223
-425.666840 -1750.703247 1317.307739
-408.357117 -1750.481079 1388.061523
-17.704165 -1648.034912 1398.627930
-385.193665 -1823.984985 1516.612183
-343.202271 -1670.645264 1257.897339
-379.139160 -1744.185913 1472.327393
-233.916290 -1700.241577 1239.193115
-378.395721 -1650.836304 1248.704224
-99.712135 -1623.273071 1437.321777
-22.800688 -1651.214233 1352.348267
-460.350922 -1909.432373 1413.569946
-426.114319 -1738.644165 1332.053589
-115.914261 -1741.212524 1174.587524
-398.230621 -1627.124756 1334.270996
-61.226315 -1719.167480 1128.671021
-280.785065 -1636.897461 1323.442871
-376.816803 -1753.189209 1477.703979
-187.094696 -1657.570801 1340.969849
-322.287354 -1573.082886 1423.737671
-443.003204 -1915.514526 1386.101807
-19.308250 -1717.510254 1261.089355
-260.461548 -1597.321533 1385.935913
-440.490509 -1763.320923 1333.663452
-216.962616 -1632.532837 1499.847168
18.609447 -1666.024658 1423.081787
-146.833221 -1611.458252 1430.099976
-130.635162 -1632.417114 1395.488647
-405.669861 -1706.114258 1352.109619
53.772366 -1686.393555 1311.325806
-379.329010 -1680.581421 1402.804932
-146.884125 -1735.057617 1166.090088
-263.218536 -1619.873657 1355.300903
-152.113495 -1650.897095 1347.465088
-413.268036 -1695.626831 1319.004272
-101.614632 -1756.015991 1156.541016
-340.725128 -1629.482910 1312.182617
-303.021149 -1645.110107 1521.548706
74.696320 -1725.775024 1434.815186
-304.153900 -1771.753052 1588.254150
-198.662704 -1637.989380 1383.513916
-324.593964 -1592.744263 1493.425537
-193.920990 -1625.883789 1486.274292
-386.440582 -1711.741211 1418.603394
-299.004364 -1569.994751 1475.048218
-61.743320 -1612.609863 1418.294312
-244.488205 -1707.618408 1250.650635
-294.574188 -1600.783569 1495.094971
-448.870453 -1742.183960 1302.317139
-341.954834 -1592.021484 1515.872925
26.643370 -1716.141968 1281.799194
-17.500931 -1758.050171 1170.538696
-267.531128 -1666.401855 1598.387085
-397.476318 -1735.995361 1396.633789
-112.784416 -1605.975708 1421.177856
-333.075958 -1608.021606 1367.629272
-247.711975 -1703.811890 1269.632690
-149.190170 -1639.980469 1473.463867
-254.518127 -1607.266968 1367.741943
11.866144 -1693.230469 1317.772339
-152.424271 -1628.602295 1386.236206
-276.934937 -1671.195801 1516.535645
-131.065094 -1629.759888 1390.291382
-365.637909 -1615.169189 1375.639404
-320.749359 -1600.572754 1367.008301
-332.554993 -1606.500610 1367.723877
-37.269920 -1644.077271 1417.692505
6.479250 -1750.244263 1274.484131
-163.910858 -1637.125732 1452.705811
-244.166153 -1608.791626 1490.250610
-339.622162 -1705.148926 1237.613159
-243.384796 -1666.658081 1318.021606
-186.169250 -1592.948853 1587.748901
-202.185593 -1605.277954 1412.282837
-227.024734 -1639.789673 1368.920654
-92.699936 -1632.212402 1397.020142
-295.103790 -1595.295654 1383.140869
-336.644745 -1597.838135 1500.302490
-425.138794 -1740.159302 1337.240112
26.163080 -1661.730957 1404.240234
-228.534103 -1702.805908 1540.450806
-274.485840 -1708.270996 1207.515991
-21.639952 -1740.726440 1218.762817
-294.337067 -1588.306641 1396.658569
43.531712 -1654.972656 1368.010742
-362.937347 -1714.900024 1490.315308
-395.280579 -1805.811157 1470.444946
-108.821007 -1630.392334 1413.367065
-209.337296 -1599.924927 1416.069336
-349.705444 -1654.059326 1279.892090
-318.709747 -1589.134521 1493.973389
-109.689674 -1646.285522 1378.010742
-374.287231 -1727.676514 1580.330933
-319.394806 -1579.822021 1482.670044
-215.488449 -1608.599609 1514.013672
-82.673645 -1667.420654 1332.503906
0.237119 -1663.690186 1360.093140
-371.992065 -1641.967041 1284.835327
-391.704987 -1708.820557 1401.003662
-135.127167 -1570.026855 1578.821899
-269.928131 -1685.654297 1252.801270
-371.724670 -1725.118652 1467.980469
-20.692385 -1718.784058 1274.444336
-324.167908 -1674.330444 1553.821045
-5.144067 -1928.545288 1283.224854
-64.104256 -1627.333618 1394.120361
-184.987732 -1651.383789 1341.200928
-324.481049 -1595.884766 1496.650513
-293.117279 -1617.446045 1364.944092
-418.924957 -1687.334351 1281.473389
-330.654205 -1566.882690 1438.795288
-263.105682 -1628.544067 1349.175293
-156.984863 -1645.823120 1462.243652
-194.879883 -1683.389404 1547.144653
36.344769 -1644.024292 1424.301636
-45.250244 -1760.292114 1150.408691
26.322037 -1654.234375 1405.873291
-226.864853 -1577.931274 1444.013916
-212.054352 -1675.116943 1300.835815
-202.706589 -1606.538574 1554.787720
-337.355011 -1722.655029 1562.858887
-350.444427 -1577.298340 1401.869385
-4.469934 -1760.259277 1238.705322
-291.526581 -1686.711304 1596.397095
-68.267159 -1621.689087 1412.500122
-294.018890 -1638.161621 1311.703613
-161.202988 -1688.825684 1284.138306
-226.367874 -1635.703735 1505.534668
-35.323288 -1664.342896 1328.332764
-390.768799 -1688.865601 1407.074829
-169.446686 -1605.379639 1440.110596
-242.223892 -1611.383057 1497.425781
-295.572388 -1626.480347 1326.708374
-365.785278 -1708.966064 1570.259888
-215.384888 -1589.286987 1430.293457
-0.582577 -1646.245850 1413.509399
-49.476181 -1765.607178 1143.248779
-187.206421 -1598.716187 1526.149658
-338.365509 -1641.337402 1306.640259
-333.509003 -1626.467773 1515.386475
-44.065025 -1641.421631 1368.386719
-369.242249 -1726.484741 1482.827026
-272.788269 -1710.418335 1226.021118
18.479364 -1657.516479 1402.742798
-290.876404 -1689.599487 1208.188110
-435.708771 -1793.962646 1340.010254
-210.895065 -1624.937500 1455.695801
-244.939041 -1652.479492 1495.105835
-91.538246 -1617.490601 1394.404907
-14.853650 -1656.520508 1421.822510
-425.514008 -1651.342896 1283.915771
20.460186 -1651.728638 1374.997192
-399.478210 -1789.320313 1478.399414
20.907602 -1648.579224 1432.531616
-138.166870 -1650.032593 1367.123657
-288.719055 -1588.351807 1485.964233
-308.707825 -1619.188477 1332.306152
-29.526863 -1754.433594 1114.182983
-395.446411 -1820.720093 1519.746094
-318.043579 -1577.765747 1404.161621
-138.200058 -1693.522583 1282.473022
-263.737671 -1615.082153 1356.403931
-91.874268 -1642.100830 1375.638916
-419.783783 -1687.419312 1277.624512
-371.381744 -1655.354004 1385.169678
-109.271461 -1747.265625 1175.143921
-315.381348 -1567.473755 1455.808228
-406.299377 -1709.228882 1353.628296
-334.433105 -1575.721558 1509.042847
-416.023010 -1716.075928 1346.072510
-341.069031 -1661.384399 1267.515869
-118.851860 -1745.327026 1179.572388
-274.642670 -1670.650024 1283.930298
-276.289368 -1667.701538 1587.272339
-281.913666 -1604.643555 1368.304565
-29.508549 -1758.818237 1150.060913
-235.081223 -1636.188843 1352.959717
-247.240219 -1698.161621 1228.428101
31.902098 -1678.619751 1319.588623
-234.939911 -1609.659912 1497.364624
-309.274750 -1565.681274 1449.360474
-298.330658 -1658.961182 1286.032227
-334.212189 -1609.983765 1359.017578
-128.099060 -1607.098022 1419.764893
-398.738251 -1698.217407 1398.871582
-77.357193 -1694.541016 1276.824341
-353.737366 -1633.363647 1456.099365
-158.883362 -1733.168335 1236.952026
-173.346375 -1640.647705 1479.006714
17.661285 -1828.856445 1256.208374
-403.147827 -1725.303467 1376.615723
-438.673706 -1795.397949 1362.937256
-296.344971 -1692.873413 1597.682495
-77.841278 -1746.206543 1197.209473
6.541833 -1661.654785 1441.491333
1.302197 -1702.246216 1458.909668
-369.094177 -1621.531860 1378.672974
-255.279510 -1628.309326 1362.486694
-355.048981 -1613.619629 1397.315430
-76.332123 -1655.618774 1357.734375
27.801052 -1671.660767 1323.613770
-387.353088 -1636.484741 1350.913086
-188.938553 -1591.075439 1557.685547
-362.563385 -1675.069946 1232.811646
-361.823639 -1676.779053 1280.472778
-235.693192 -1638.573730 1477.397339
-206.840668 -1592.133667 1429.388428
-388.569244 -1652.955444 1282.728638
-418.063110 -1848.977661 1444.450928
-252.585526 -1615.524292 1354.377930
-333.619873 -1674.547852 1262.537109
-296.917114 -1612.422729 1378.433594
-262.950043 -1622.274536 1342.780884
-132.104050 -1655.847290 1341.752197
16.401512 -1656.771484 1397.858276
-297.446289 -1732.134644 1598.753296
-397.786743 -1732.755005 1403.829224
-342.286987 -1583.248169 1459.887573
-423.763489 -1805.887085 1421.965088
-267.606201 -1658.031616 1583.093140
-40.051022 -1753.472900 1284.521240
-211.422302 -1611.489868 1401.628906
-384.837036 -1672.908936 1394.123535
-413.609009 -1875.874512 1468.437134
-77.260361 -1676.582031 1349.630493
-189.621811 -1615.639526 1586.305664
-354.781219 -1641.160767 1292.580811
-375.381042 -1685.005005 1553.076660
-312.301392 -1625.395874 1317.653320
-98.117577 -1675.723389 1321.160889
-401.699280 -1643.553589 1299.457642
-39.341511 -1663.469238 1335.978149
-141.938644 -1756.728394 1162.937866
-455.743042 -1750.053833 1317.494507
-349.759399 -1716.539429 1505.342041
-333.509491 -1590.220825 1382.204224
-348.865601 -1691.762085 1238.725464
-370.441650 -1756.648682 1506.427002
-388.587036 -1786.408936 1471.625854
-267.284424 -1690.949585 1524.907593
-65.555702 -1623.125488 1395.995239
-427.317230 -1810.212158 1415.154297
-352.088531 -1620.604858 1433.314697
-209.969040 -1598.519653 1436.010254
-145.747116 -1608.389038 1412.849609
-286.574585 -1680.816650 1206.646118
-382.135132 -1776.179565 1465.657837
80.607193 -1704.981079 1335.161011
-279.804535 -1586.144531 1428.796387
-321.718689 -1658.025269 1298.203613
-336.902435 -1620.485352 1323.679321
-273.344543 -1594.546631 1414.939697
-166.194153 -1642.732544 1470.565796
-368.333923 -1632.795410 1308.101318
-396.380157 -1664.013794 1347.826172
-334.644562 -1599.625610 1440.615234
-162.392059 -1640.416016 1363.294922
-353.482056 -1692.912109 1248.900513
-395.630859 -1722.408569 1396.032471
-144.200653 -1566.359375 1582.164185
-234.218063 -1697.499512 1231.873901
-225.345001 -1632.430542 1491.305176
-96.804413 -1633.991821 1379.344849
-35.724789 -1638.134155 1375.173340
-398.081390 -1831.547363 1476.506104
-452.380829 -1695.603149 1280.889404
-315.390961 -1581.169922 1469.543335
-229.384384 -1669.911743 1534.518188
-360.416992 -1665.955200 1447.731567
-234.530045 -1687.727051 1297.405151
-188.476517 -1610.059814 1495.088379
-314.254089 -1755.753662 1585.696045
-52.638874 -1660.616089 1443.139404
-7.961247 -1751.513672 1172.513672
-2.641394 -1742.465576 1228.511108
-386.220673 -1665.006226 1383.665649
-398.547607 -1732.978394 1398.854736
-437.909546 -1848.868774 1388.739990
-416.196289 -1804.870972 1397.362915
-310.562531 -1593.905273 1483.221436
-406.890381 -1769.617920 1417.127441
-401.209808 -1732.632080 1383.264526
-299.769379 -1594.204834 1376.311646
-360.548218 -1720.380005 1577.941406
-273.062317 -1693.696899 1251.560547
-204.733459 -1595.690796 1529.714111
-300.160065 -1629.979370 1332.348145
-331.370056 -1684.550415 1226.813721
-271.544312 -1620.728394 1343.581909
-202.458893 -1704.490112 1247.816040
-420.678864 -1690.437744 1296.805786
-311.027374 -1674.987549 1251.762451
-219.854004 -1660.414917 1529.270630
-144.231140 -1600.455811 1433.315308
-330.908112 -1607.542725 1370.682129
-114.425270 -1621.901123 1462.463623
-63.397377 -1762.522217 1182.922363
-301.205505 -1660.943481 1597.478271
-272.830322 -1674.514771 1559.511963
-21.518139 -1661.134766 1413.293457
-368.967865 -1665.553833 1287.017090
-145.513474 -1673.247559 1324.540771
-326.195374 -1622.793213 1340.713501
-116.400269 -1705.693726 1254.844849
-300.942383 -1716.019775 1608.505127
-277.711731 -1580.946289 1416.332520
-324.241760 -1603.456055 1339.806030
-76.759323 -1623.790283 1408.253540
-97.681580 -1624.228271 1384.101318
66.892822 -1801.208252 1380.395874
-253.391953 -1670.776367 1318.700439
-288.790527 -1660.487793 1210.634399
-24.368172 -1660.011841 1435.604858
26.789263 -1638.804443 1404.394653
-152.303268 -1630.005493 1388.766602
-141.772461 -1630.004761 1381.488281
-364.859802 -1589.893066 1406.184204
-384.825897 -1825.848022 1525.286621
-216.352341 -1589.933228 1573.331909
-174.967484 -1645.249756 1353.268555
-50.476574 -1717.588989 1246.901001
-150.953232 -1624.807739 1390.773315
-358.917664 -1671.431641 1462.122681
-140.354492 -1685.208984 1310.694580
-395.361298 -1645.974365 1307.047607
-138.536682 -1706.780396 1231.787476
-104.022644 -1619.345215 1470.283813
-262.108582 -1585.129639 1444.543213
-17.268988 -1645.266846 1389.692993
-79.245697 -1763.188721 1146.049561
-162.747864 -1677.427856 1304.000366
16.869900 -1673.712769 1319.452637
70.618408 -1759.349854 1353.227539
20.854834 -1653.653198 1404.600220
-187.131775 -1614.282227 1441.376221
-405.786621 -1670.478638 1298.765625
-231.798203 -1645.769897 1537.145874
-255.626266 -1587.470337 1407.293701
-431.034119 -1775.570435 1344.042603
-391.066589 -1708.497070 1425.046021
-361.111603 -1623.049316 1331.644775
-402.173218 -1804.291992 1458.187378
-95.754250 -1729.504639 1217.691650
-298.011719 -1679.406494 1579.272339
-422.779449 -1698.151367 1290.794312
-316.269684 -1608.010132 1492.906738
-40.935741 -1695.942627 1294.239136
-311.037994 -1603.362183 1367.605591
-157.522720 -1609.332642 1441.864746
-236.184937 -1646.755005 1601.167969
-97.515465 -1751.387573 1184.142334
-201.016006 -1629.534058 1600.257568
-155.697098 -1687.448242 1290.936279
-20.445969 -1706.589111 1277.614624
-225.526718 -1640.179199 1486.851196
-390.115509 -1695.369263 1395.034790
-268.230591 -1585.906982 1424.041626
-365.718597 -1623.771729 1319.246460
-3.460065 -1709.241455 1250.350586
-294.625397 -1590.381958 1403.634644
13.535323 -1663.037109 1403.375732
-240.113251 -1730.369751 1197.598511
-359.743805 -1751.321655 1507.631836
-376.370636 -1723.031250 1564.838623
-289.592651 -1583.492188 1431.532227
-263.462738 -1680.302979 1305.819458
-100.946785 -1609.771484 1404.097046
-379.779144 -1635.080322 1315.546387
-235.235474 -1590.135620 1431.808716
-330.100861 -1615.808472 1360.561646
-280.636566 -1633.991089 1306.717773
-91.636742 -1644.023071 1445.830688
-352.650574 -1688.998047 1500.692871
-282.916565 -1655.062500 1592.006714
-340.900970 -1602.466675 1509.743164
-248.721985 -1652.265015 1609.792480
3.709246 -1708.532227 1281.117676
34.412777 -1655.033081 1342.039307
-306.956604 -1567.297241 1480.185547
-180.427841 -1731.052490 1188.722046
-420.148468 -1878.279663 1467.027344
-288.716003 -1612.593262 1494.164673
-405.479797 -1651.163086 1278.126831
-365.931885 -1725.282349 1514.876587
-289.451355 -1684.100342 1588.569092
-376.533417 -1772.457520 1503.743164
-390.860687 -1657.814087 1350.055298
-92.522667 -1734.140259 1275.313477
-299.086914 -1565.513916 1472.667114
27.068319 -1702.640869 1451.650391
40.482761 -1693.751831 1288.845703
-247.853790 -1630.485840 1484.573486
-228.695938 -1721.692139 1211.637817
-253.197815 -1617.677124 1474.748535
-250.216324 -1689.143066 1269.661011
-160.807587 -1621.652954 1441.623291
0.031679 -1727.476807 1475.657715
74.270905 -1671.349976 1339.230957
-283.537567 -1621.780518 1335.277832
-64.598572 -1704.828491 1266.578125
-199.749695 -1609.039551 1413.644409
-241.060364 -1588.090698 1434.588623
-260.994202 -1658.955078 1616.598145
-115.330505 -1638.979370 1388.519897
-356.136230 -1686.056519 1474.367554
-173.998535 -1614.978394 1439.771606
-183.898087 -1598.524292 1424.766846
-306.916351 -1688.350586 1241.394287
-218.935303 -1719.355103 1180.118164
-87.095711 -1762.701538 1157.923462
-285.998505 -1662.604492 1288.986816
-266.984924 -1625.408447 1336.039673
-264.811127 -1656.093384 1335.607056
-404.015717 -1662.966431 1315.469727
-39.734249 -1749.703613 1161.971924
-353.112915 -1585.295044 1403.386841
-61.742176 -1758.325073 1192.548706
-195.191528 -1575.073364 1543.872681
-323.249512 -1623.324463 1328.895874
-228.425598 -1645.882568 1525.392822
25.745108 -1666.150146 1429.656128
-362.445221 -1613.980225 1520.410645
-414.884979 -1836.555176 1435.925781
-376.337891 -1762.164673 1588.594482
-275.224701 -1664.945801 1285.563232
-6.868010 -1749.948120 1289.632446
-156.068909 -1601.944824 1416.032959
-372.764984 -1782.348633 1566.138306
-206.441360 -1615.718994 1559.866455
-266.412415 -1668.063721 1594.294067
-350.915497 -1666.294800 1498.801392
-417.632507 -1886.062500 1462.884888
-447.478851 -1854.813232 1358.263062
40.746387 -1657.794312 1339.607666
-387.396729 -1813.766479 1537.468750
-310.920044 -1595.970459 1381.912476
-332.123199 -1617.134399 1342.655762
-130.953735 -1727.551880 1237.538940
-350.038208 -1646.494507 1464.321045
-176.654266 -1704.100952 1266.680298
20.390495 -1739.013916 1233.552490
-312.466675 -1682.201172 1253.335815
-165.230774 -1608.905273 1433.723633
-260.848053 -1699.477905 1232.764771
-361.456299 -1639.112427 1411.922729
71.652405 -1800.668823 1380.681274
-350.702179 -1706.328125 1558.598999
-163.189072 -1562.756104 1564.556152
-6.371195 -1656.731567 1340.605957
-156.926239 -1564.952881 1585.153809
-135.826004 -1746.620850 1182.888672
49.353153 -1660.807007 1387.747559
-354.321381 -1610.743896 1352.413086
40.130165 -1667.652832 1328.663574
34.930382 -1675.365112 1348.020020
-31.294357 -1733.017700 1195.816284
-335.864777 -1581.096191 1454.675049
-313.939056 -1615.178101 1344.871704
-45.964256 -1711.487061 1267.245361
-240.704926 -1579.705811 1441.531738
-150.191879 -1733.229736 1166.804565
-445.888458 -1831.837524 1374.310791
-232.270630 -1657.717896 1331.538452
-237.861954 -1626.672852 1367.888184
-411.751556 -1760.694580 1391.500732
-363.346191 -1630.031616 1410.218872
-338.516327 -1589.491699 1424.915161
-347.230652 -1651.630737 1287.541870
-142.753159 -1719.490112 1256.180908
-225.812790 -1594.949585 1443.392212
-441.127686 -1910.996948 1431.898560
-166.064331 -1656.085815 1494.510986
-42.249718 -1732.825439 1200.181152
-286.590240 -1656.861938 1276.396851
-261.219360 -1573.357666 1457.580322
-225.866821 -1642.153442 1364.246338
-414.312500 -1658.000854 1292.281250
-192.721756 -1595.776123 1536.583984
-40.952938 -1672.442261 1450.399414
-95.407532 -1613.358276 1419.092285
-267.720154 -1628.937012 1352.900024
-171.219589 -1577.094849 1581.169312
-55.349316 -1681.345825 1455.068970
-99.675545 -1637.209839 1397.457764
29.933846 -1718.445679 1281.847412
-210.458435 -1617.288452 1516.565430
-377.764526 -1643.650391 1294.168823
-122.536476 -1606.066895 1429.283936
-316.789246 -1585.122192 1445.783813
-408.623199 -1646.641968 1324.122437
-248.084137 -1667.351807 1529.373657
-394.919159 -1740.655151 1420.297485
-462.535675 -1880.853882 1387.763428
-286.366425 -1669.203857 1577.199219
-228.800873 -1596.960571 1417.243286
-118.129936 -1703.044922 1263.803955
-137.846085 -1644.358154 1368.302612
-61.735855 -1649.932861 1360.507202
-198.694077 -1589.411865 1550.566650
-373.882141 -1633.789551 1396.460815
23.404274 -1651.948853 1342.556519
-315.748108 -1583.454834 1419.657104
-278.886719 -1619.346558 1349.984497
-386.390289 -1638.194458 1343.335571
-312.048065 -1572.868042 1413.014893
-371.450226 -1613.571411 1345.007202
-135.094849 -1707.823853 1261.156372
-138.365051 -1671.540771 1313.744141
-237.816315 -1641.824707 1612.726440
-189.678894 -1592.769409 1507.462158
-75.407265 -1684.333984 1304.274536
-295.465332 -1709.960693 1219.075073
-47.088440 -1752.416138 1162.478882
-203.894119 -1601.876099 1411.967651
-273.225067 -1668.281494 1617.222168
-270.384705 -1612.326660 1333.333618
-22.910740 -1658.079712 1422.338623
-169.828918 -1696.667236 1292.143188
-168.372894 -1600.863037 1428.694214
-427.948303 -1905.232544 1421.655884
-123.142471 -1742.002686 1148.927368
-177.117676 -1731.600952 1179.629395
-324.845673 -1626.937256 1519.716553
-267.880402 -1594.732544 1408.566406
-316.394806 -1569.660522 1479.004150
-329.588226 -1587.966064 1505.556641
-355.663239 -1608.245605 1358.535889
-426.947479 -1811.759644 1345.790771
-270.340302 -1576.458130 1451.358398
-397.275879 -1681.894043 1327.021240
47.380638 -1816.247559 1322.905762
11.178108 -1649.026855 1401.908813
-203.220795 -1709.112549 1257.836060
-176.756668 -1655.141846 1352.415649
-479.726593 -1859.885010 1374.625854
-188.757126 -1585.999023 1548.061523
-355.816132 -1693.797119 1488.802734
-207.893661 -1626.020264 1458.502563
-284.474121 -1678.274292 1586.893555
-394.981018 -1769.543213 1472.543457
-376.728455 -1776.624268 1534.872437
-401.879486 -1687.609253 1342.799683
-177.979034 -1564.049438 1596.852905
-433.211487 -1771.335327 1356.519409
-100.464317 -1614.581665 1432.921509
58.180496 -1666.397827 1345.116211
-184.138809 -1683.874512 1290.884155
-29.836262 -1724.547241 1268.609375
-302.500854 -1700.578857 1567.291016
-371.379425 -1681.827393 1430.046021
-231.144226 -1628.350586 1374.765747
-392.117157 -1776.879272 1451.658813
-402.429901 -1691.809692 1362.018799
-353.492615 -1652.573608 1453.934937
-379.686707 -1709.752930 1565.709106
-194.463272 -1619.272705 1396.163330
-91.972679 -1683.514038 1294.959961
19.369877 -1661.255737 1383.779663
-387.588226 -1612.822754 1359.453247
-64.434837 -1669.303223 1453.174194
-283.274841 -1685.620850 1573.074463
-350.179016 -1643.516968 1518.853516
-322.954865 -1596.733521 1378.214111
-27.078487 -1725.043457 1236.021606
-400.057251 -1721.726685 1392.924072
-148.822830 -1677.875122 1298.148926
-286.373383 -1666.331543 1212.189331
-145.928131 -1661.548584 1338.919922
-192.717117 -1694.028931 1265.567871
-165.242905 -1719.465698 1224.157715
-396.491882 -1797.550415 1495.347900
-423.611694 -1730.253418 1327.748779
-187.267410 -1598.249634 1588.455688
-292.184326 -1679.868408 1534.052612
-375.371826 -1807.782593 1536.627808
-149.575485 -1707.186157 1254.271118
-78.940117 -1623.775269 1432.757568
-432.070099 -1814.969727 1377.239868
-369.722351 -1700.484375 1451.847290
43.296463 -1651.057007 1370.160400
-102.454674 -1661.239990 1342.442139
-396.746368 -1668.450806 1281.290405
-174.416107 -1717.717285 1230.567261
-325.288300 -1579.825928 1480.327271
-55.269844 -1745.888428 1237.642700
-174.364441 -1734.737549 1182.866699
-447.371704 -1853.610107 1370.772705
-452.156128 -1895.494873 1384.462524
-355.967407 -1657.776855 1465.029053
-361.510010 -1669.416504 1440.127563
51.076748 -1674.648560 1372.433838
-251.532776 -1706.536133 1216.391846
-305.849792 -1601.830933 1387.617065
-73.036095 -1638.193237 1372.853394
-175.630157 -1690.172607 1279.546753
-243.912964 -1714.880615 1209.395508
-44.558884 -1626.562988 1413.419067
-364.968079 -1648.769409 1422.974121
-446.729614 -1676.963257 1276.326294
-412.933716 -1801.184937 1424.028442
-150.528992 -1607.462524 1428.372925
-303.484070 -1607.726929 1360.869873
-357.077698 -1672.154541 1470.656616
-129.467575 -1698.507813 1279.051514
-72.860123 -1741.211182 1176.291260
-13.547459 -1702.042603 1277.609741
-388.593079 -1790.600342 1487.331177
-274.184692 -1704.580322 1202.168091
-193.542755 -1665.394775 1323.189575
-316.699860 -1672.174805 1257.358154
-157.071671 -1666.468628 1342.880981
-336.977051 -1577.517212 1408.722900
-338.339966 -1596.188354 1371.333008
-348.433136 -1633.812988 1526.857178
-217.547714 -1625.448975 1491.727173
-118.783180 -1744.251953 1146.920044
-220.232651 -1598.684570 1503.678711
-392.846863 -1678.336670 1376.850220
-353.578125 -1656.590332 1485.896729
-72.096802 -1626.742798 1380.474243
-225.257034 -1595.064453 1423.217407
-355.418243 -1657.096680 1543.481079
-382.631378 -1748.524048 1465.927612
-334.152496 -1600.786499 1435.062378
-392.157471 -1674.291138 1270.256348
-209.187897 -1645.211914 1353.099609
-185.986023 -1648.177246 1370.152954
-190.159668 -1607.095825 1530.847778
-267.840393 -1644.490356 1327.672363
73.559578 -1701.812744 1448.540161
-417.088654 -1778.434204 1392.407715
-72.999100 -1654.048340 1466.466797
-24.282568 -1701.617188 1286.021606
-310.903564 -1622.879150 1503.418457
-373.547791 -1685.921143 1438.543579
-424.800049 -1772.500732 1363.766357
-272.109711 -1675.679932 1543.501587
-359.776184 -1734.640503 1514.300049
-20.023598 -1648.355591 1385.447510
-390.916351 -1649.550537 1335.388550
-332.666626 -1611.098999 1513.646973
-200.583923 -1615.872314 1575.357056
-78.959412 -1604.042236 1416.609375
-212.250290 -1624.394165 1553.489380
-302.658173 -1691.942749 1601.344482
-18.913532 -1749.131714 1178.666260
-166.961212 -1615.728638 1396.171509
-220.211411 -1583.517578 1433.451782
-278.860504 -1610.019165 1350.581543
-1.794179 -1744.396973 1205.457031
-265.730011 -1574.619629 1464.435303
-289.511444 -1666.136230 1550.074463
-382.555328 -1752.321899 1579.240601
-203.480774 -1706.383789 1261.736084
-294.475952 -1609.217896 1363.355957
-416.328430 -1687.683228 1267.827637
-344.435028 -1662.143555 1279.068359
-435.412079 -1683.477295 1266.074829
-278.152527 -1781.016724 1571.248047
-225.050049 -1588.463257 1508.699219
-351.339203 -1631.714233 1523.730103
-413.236969 -1674.907593 1250.949463
-231.890808 -1643.506714 1506.773804
-234.051376 -1711.611572 1212.144409
-208.643417 -1721.221436 1181.328125
-172.192917 -1613.371338 1401.003906
-236.318237 -1591.257080 1443.642456
-195.305542 -1651.454224 1346.349365
-352.632629 -1646.994873 1292.724487
-378.307800 -1606.921143 1362.954712
-19.090092 -1656.925049 1409.004395
-236.822037 -1621.412476 1370.866455
-317.766235 -1616.449829 1346.078003
-371.725067 -1682.624268 1463.660645
-375.678558 -1620.411377 1385.416748
-320.236664 -1663.195557 1271.202148
-381.585907 -1665.557251 1411.498779
-129.003052 -1612.399902 1435.801880
-284.561646 -1665.391724 1600.963501
-227.901260 -1619.010132 1478.232178
-277.772797 -1581.970581 1424.646362
-328.221771 -1567.884644 1468.582397
-203.312164 -1604.764648 1538.332520
-362.448853 -1652.040405 1443.641479
-240.631256 -1632.614746 1610.742798
-200.519165 -1694.698364 1240.741943
-388.638947 -1775.856201 1434.176147
-295.973511 -1757.400635 1583.018677
-296.339600 -1583.748657 1441.598511
-305.281403 -1692.115967 1211.012451
-47.535408 -1723.288574 1223.288208
-322.387360 -1686.753784 1242.250122
-80.302383 -1618.965820 1419.701294
-297.390564 -1576.648682 1450.731445
-345.261444 -1660.334106 1271.798462
-54.300808 -1662.424438 1434.056885
-132.727463 -1634.613281 1392.634888
30.260756 -1656.829346 1352.243652
-202.515747 -1597.386963 1532.236816
-347.860046 -1668.136963 1479.547607
-284.090790 -1667.962280 1527.508667
-169.294540 -1573.488281 1592.172729
-231.661407 -1654.420654 1511.764404
-324.356262 -1562.214844 1463.702271
-188.940887 -1639.372559 1383.645386
-145.230209 -1745.390259 1162.350586
-184.469620 -1645.457642 1550.454590
-317.391785 -1581.069336 1404.136108
-177.259476 -1606.772339 1423.670410
-378.685120 -1602.418457 1376.174561
-386.041290 -1719.080566 1430.664795
-428.429565 -1786.627930 1367.493774
-334.492676 -1628.378174 1347.101440
12.123679 -1656.159546 1346.424561
-419.083252 -1762.995728 1372.589600
-92.416176 -1640.856445 1468.134766
-387.892487 -1811.956787 1489.633667
-367.166260 -1667.747070 1394.834473
-252.613205 -1684.026245 1274.603516
-336.143860 -1592.289551 1447.549805
-242.990768 -1596.932861 1412.231689
-103.949661 -1662.974243 1343.436523
-203.130722 -1640.267822 1363.528931
-239.595734 -1606.208984 1377.349609
-358.880676 -1637.471924 1332.461914
5.538529 -1641.837646 1405.244019
-185.953079 -1618.598389 1492.559814
44.551270 -1752.239868 1267.262573
-258.011963 -1678.519409 1305.929810
-28.538082 -1725.486328 1266.485474
7.212877 -1659.314575 1375.684326
-347.795471 -1653.001343 1443.857300
-340.336334 -1666.007446 1546.714722
-125.079391 -1710.066284 1262.213013
-298.315643 -1628.493530 1323.531616
-226.735474 -1659.661499 1333.944458
-239.531036 -1708.522827 1275.833984
-8.558623 -1675.403809 1333.427734
-418.075806 -1817.797852 1449.167725
-331.452454 -1586.892578 1391.020386
-87.813293 -1687.467285 1298.199829
-226.104416 -1706.848022 1225.530029
-395.131897 -1847.540894 1476.831787
-303.822052 -1628.514893 1339.385376
-329.774750 -1600.490356 1499.394775
-406.096466 -1718.107422 1374.993164
-160.404297 -1624.575073 1405.431030
-365.485077 -1649.500366 1525.015503
11.888513 -1908.091431 1314.595947
-363.766144 -1703.904175 1555.687866
-407.573181 -1863.625488 1490.403931
-149.592056 -1723.580078 1217.597168
-385.267914 -1829.190796 1532.150635
-135.694473 -1668.686157 1357.218262
-103.565552 -1685.665649 1324.862427
63.693779 -1665.352295 1369.430298
-233.194992 -1710.075562 1524.651855
-25.040636 -1770.036743 1119.363403
-237.958115 -1657.358276 1535.858765
-250.359283 -1708.939819 1271.452515
-185.490768 -1631.539429 1499.588745
-345.803497 -1629.800903 1310.557129
-334.715973 -1619.043091 1345.046143
-395.948090 -1687.228027 1360.832886
-232.972076 -1708.051147 1271.622925
-404.801453 -1672.288696 1331.575439
-253.276001 -1589.064941 1419.926880
-176.930527 -1608.140015 1426.408325
-332.975372 -1631.427002 1327.030640
-136.493607 -1612.428711 1405.729858
-117.596992 -1688.711182 1296.193237
-71.248726 -1730.514038 1225.571777
-157.104095 -1680.156372 1302.812744
-392.201843 -1753.087769 1438.184082
-225.505188 -1605.838013 1458.228516
-181.730026 -1585.352173 1537.651489
-182.054138 -1750.351074 1184.070190
-8.203411 -1661.266113 1341.128784
-252.710236 -1575.257202 1439.551025
-120.720276 -1636.962769 1377.740967
-150.294479 -1601.018555 1424.576538
-204.804672 -1626.464966 1575.128662
-226.118088 -1642.848267 1531.447876
-377.422455 -1658.888916 1408.143921
-435.887207 -1792.845093 1337.439941
-287.188812 -1588.585449 1396.276978
-429.611023 -1787.849487 1363.204346
-69.275848 -1642.076050 1396.940918
-354.019562 -1676.049561 1465.655151
-432.063721 -1819.023560 1413.441528
-208.932602 -1610.094727 1481.107300
-408.524261 -1661.094116 1347.758057
-116.346710 -1647.737183 1355.909180
-388.517731 -1747.132568 1428.226318
38.241604 -1678.379883 1313.791870
-406.004486 -1717.409424 1361.881104
-233.609055 -1612.465820 1484.778320
-65.066681 -1759.964844 1138.298950
-360.268524 -1683.011841 1531.514648
17.051815 -1637.694702 1396.331421
-369.884766 -1678.580688 1443.362549
18.143318 -1727.034668 1233.721191
-213.678482 -1600.172119 1417.767090
-118.153961 -1615.172363 1457.661743
-369.300659 -1624.714478 1369.192383
-351.994995 -1609.201782 1495.449951
-367.280212 -1772.632568 1525.936768
-319.921997 -1765.732178 1584.403320
-263.580719 -1647.994751 1616.982300
48.058964 -1664.404907 1340.762695
-220.721863 -1601.083618 1460.370850
-427.361694 -1718.428711 1317.877441
-285.273346 -1686.549316 1622.582397
-337.085968 -1703.436035 1230.744385
-357.144196 -1666.748657 1483.033813
-303.315582 -1660.456543 1293.503540
-415.943970 -1747.065918 1353.588989
-261.135956 -1650.870850 1606.351318
-12.920372 -1761.256470 1202.517700
-250.792786 -1686.979736 1354.821777
-321.173035 -1599.899170 1358.907471
-95.554710 -1697.499512 1301.823730
-378.231812 -1808.230347 1528.429810
-1.515100 -1655.856934 1386.660034
-215.284637 -1588.811035 1540.329468
-367.840729 -1763.867798 1517.573486
-194.978897 -1614.521729 1493.596313
-218.446259 -1631.764771 1505.803467
-399.314880 -1855.817017 1500.444580
-429.697815 -1864.864136 1426.166260
-199.060654 -1600.830933 1447.246704
-18.693941 -1687.490723 1332.364868
-419.530060 -1789.246826 1418.258789
-363.248840 -1681.137451 1254.038940
-452.435669 -1838.844727 1349.707031
-299.581970 -1615.899048 1348.555420
-393.006775 -1678.513794 1380.693359
-364.702667 -1733.715698 1494.442627
-65.722092 -1680.245850 1479.663940
-168.828079 -1602.880005 1430.270874
-174.857300 -1648.652344 1376.909546
-389.143066 -1729.639038 1430.460083
67.239761 -1682.209717 1389.365479
-388.554932 -1692.225952 1401.398682
-404.671722 -1748.348755 1398.975220
-392.875397 -1627.890015 1347.031006
-361.151764 -1669.818237 1524.956909
-410.703125 -1743.052368 1380.625488
-26.427578 -1651.140625 1396.638306
-126.752937 -1742.660034 1177.588013
-214.920181 -1616.427124 1475.676270
-427.344391 -1691.352295 1278.035034
-134.262024 -1612.088135 1399.783691
-92.219635 -1621.682007 1410.971802
-188.743423 -1573.886230 1587.536499
-154.296997 -1745.620117 1176.759399
-428.236664 -1721.566772 1319.759766
-169.266052 -1732.683105 1224.604492
-379.503876 -1606.784058 1384.094482
23.511436 -1911.607300 1354.891846
-317.272583 -1669.206055 1532.862183
-66.236298 -1748.742188 1167.046387
-201.908035 -1657.630493 1328.142944
-303.493347 -1589.156128 1385.457031
-358.222290 -1639.662354 1520.502686
-195.964523 -1612.714600 1588.057007
-363.215210 -1651.034912 1552.305786
-146.703491 -1576.343750 1553.178589
-426.693756 -1657.708252 1286.801880
-287.031677 -1640.843384 1296.563843
-451.295532 -1884.223022 1378.846680
-370.362610 -1621.490479 1327.538940
-319.084991 -1564.449341 1479.504028
3.850891 -1651.394043 1407.818481
-63.530258 -1623.342896 1388.227295
-280.204803 -1678.238525 1287.432617
-356.168793 -1674.772827 1471.154053
-403.630035 -1787.638550 1426.931152
-44.932785 -1744.202515 1178.073608
-317.971558 -1669.014282 1544.980591
-291.909058 -1686.613525 1596.149902
-242.016708 -1624.758911 1372.821533
-150.303497 -1732.535278 1184.576416
-38.632999 -1640.981812 1407.277100
-371.206757 -1801.767334 1511.513428
-371.035858 -1638.909912 1300.742920
-158.600388 -1688.385620 1273.409058
-229.815735 -1602.217407 1402.108643
-285.800873 -1704.042114 1231.432251
-280.969818 -1614.697144 1349.523926
24.379263 -1685.150269 1275.911987
-33.404217 -1767.537231 1143.191162
-333.079315 -1681.684692 1540.224487
-216.087601 -1614.414307 1476.365234
-282.899139 -1605.870483 1357.425781
-94.531990 -1654.791260 1363.295166
-400.652802 -1674.808472 1258.097412
-169.140610 -1722.620728 1198.143555
-16.222393 -1698.886475 1459.933838
-59.953846 -1742.538696 1177.617065
-324.938599 -1659.134033 1283.863647
-203.099869 -1602.257813 1416.516724
-384.474762 -1749.848267 1423.761353
32.617847 -1884.983154 1357.345215
-360.396240 -1639.662598 1511.080688
-14.664200 -1766.889160 1204.072388
-245.535263 -1712.035767 1194.586548
-164.937851 -1716.962646 1228.387695
-409.283722 -1666.978149 1317.559814
-47.584030 -1652.897217 1419.948242
-236.138565 -1696.221558 1263.323730
-406.801849 -1782.945923 1420.519043
-209.340927 -1701.138916 1260.995850
-46.963001 -1641.002441 1401.365601
-391.452698 -1655.162842 1279.358643
-346.393585 -1593.808716 1408.008057
-207.780594 -1690.115479 1279.123169
-381.839478 -1648.941162 1410.244385
-292.375854 -1610.718262 1379.516846
-339.553467 -1681.552124 1256.092773
-273.216187 -1584.515625 1414.510376
-279.484253 -1669.883911 1281.820923
-418.323059 -1673.651489 1329.769165
-294.503082 -1682.262451 1257.429077
-312.565002 -1711.994019 1565.082520
-265.295410 -1650.015503 1600.007202
-226.878555 -1620.003052 1491.834229
-23.684345 -1639.465576 1365.917969
18.185963 -1673.000732 1451.579956
-382.447906 -1802.796509 1513.742676
-260.145569 -1593.503784 1402.613403
-117.247780 -1729.803833 1224.298706
-297.155365 -1611.289063 1349.791138
-159.960541 -1721.334839 1165.496216
-28.414757 -1680.292603 1437.100220
-169.992096 -1665.573608 1319.043579
-201.347488 -1708.903198 1219.701904
-166.663757 -1787.709106 1515.748657
-391.249512 -1744.385132 1434.549438
-84.488213 -1627.751099 1392.931885
-330.395813 -1578.458374 1461.395020
-152.145020 -1620.212280 1395.413940
-289.668365 -1668.449829 1290.007935
-361.283844 -1612.832275 1511.334839
20.199131 -1668.261475 1400.836548
-394.977753 -1683.165649 1247.264404
-360.150330 -1613.159546 1509.807007
-342.876587 -1772.256226 1602.515259
-459.865540 -1808.170532 1343.026367
-245.379715 -1697.645752 1249.233887
-197.950348 -1714.211182 1207.305176
-309.518768 -1695.611206 1545.451294
-57.892895 -1663.074951 1442.524536
-40.584946 -1685.017578 1297.712280
-29.909105 -1646.095215 1384.720093
-291.112000 -1660.852173 1518.649170
-351.796722 -1623.609253 1315.583740
-98.190315 -1720.640869 1236.869385
-284.150146 -1684.837036 1564.662354
-215.663315 -1721.321289 1186.148804
-365.183350 -1618.520264 1321.498047
-13.337551 -1642.905029 1400.689087
-354.789520 -1650.340210 1302.294434
-63.645115 -1648.069824 1380.267578
-314.705444 -1583.479614 1405.000854
-209.840927 -1734.200195 1191.970093
-235.083878 -1705.387207 1283.079346
-272.983948 -1581.236328 1418.207520
-381.048035 -1730.778442 1452.708008
-326.051819 -1667.914795 1549.266235
-354.826477 -1684.863770 1491.424683
-205.713196 -1611.450073 1478.984253
-96.474480 -1679.967896 1327.583130
-285.455902 -1583.740723 1474.574707
-282.342163 -1679.137329 1271.797363
49.967609 -1666.716919 1409.623291
-173.261978 -1650.744385 1368.630005
-42.509235 -1686.744507 1326.989380
-19.646036 -1652.124268 1402.300537
-410.627258 -1654.382202 1291.470581
-246.129654 -1600.133423 1453.586304
-155.374786 -1683.095825 1293.974976
-138.525681 -1622.753662 1406.587158
-340.082947 -1671.226196 1257.992065
-417.513855 -1823.023315 1456.163696
-408.187286 -1699.432007 1348.643921
-265.953796 -1671.613403 1296.770630
-308.312500 -1602.693481 1497.928711
-221.083923 -1704.291260 1223.756592
-217.745132 -1582.705322 1430.109497
-422.764160 -1672.504395 1268.819336
-209.779602 -1595.408325 1419.436401
-370.485504 -1694.024658 1450.438354
-363.767242 -1642.887207 1412.361450
-356.302155 -1701.084961 1561.801025
-399.233185 -1661.186401 1327.879272
-374.383209 -1698.736206 1446.633179
-192.998154 -1721.630249 1174.313599
-213.868729 -1682.122437 1271.358765
79.578995 -1711.302612 1393.018066
-352.895660 -1580.137695 1411.256104
-399.466553 -1687.301392 1351.272217
-237.486115 -1668.209473 1355.589478
-419.743439 -1792.952637 1395.507202
-76.166733 -1648.251465 1450.474121
-182.996323 -1603.922485 1557.089233
-204.024979 -1589.342651 1423.366943
-110.346756 -1734.743286 1203.269287
-42.622868 -1645.318970 1406.695313
-393.507172 -1659.375000 1385.122070
29.419996 -1654.844727 1417.626221
-82.877731 -1707.528931 1287.069092
-287.822357 -1599.391724 1380.327515
-168.990662 -1596.090942 1523.113647
-85.360245 -1614.058350 1404.225708
-79.105812 -1668.202637 1331.384888
-153.718063 -1735.404541 1229.916138
-368.769409 -1719.851440 1563.425415
-351.126953 -1658.138550 1263.101563
-140.747971 -1644.170776 1377.252197
-316.024780 -1694.199585 1243.318848
-179.048264 -1647.032104 1546.853638
62.538342 -1664.363525 1400.803833
-286.675995 -1702.283569 1246.063843
-73.207031 -1648.368896 1443.875000
-272.166473 -1602.359985 1368.117676
40.623722 -1717.456299 1266.437134
-438.922150 -1891.442749 1412.181763
-458.155060 -1749.965942 1314.044556
-306.455475 -1578.062256 1425.703613
28.094069 -1656.239624 1374.963379
-168.439178 -1611.361938 1436.603149
-375.905884 -1614.453491 1347.228027
-380.924957 -1680.627319 1412.622559
-185.386383 -1625.200928 1390.163818
-420.569885 -1773.753052 1336.669312
-449.744385 -1847.795898 1399.187744
-368.438904 -1677.661743 1551.433594
-51.519276 -1723.579712 1257.234375
-332.812836 -1601.049805 1467.341187
-67.692551 -1623.068604 1406.882568
-425.758728 -1816.089111 1397.041626
-361.492432 -1750.488403 1519.785767
-164.229858 -1661.411377 1335.116455
-129.652512 -1624.341553 1386.338989
-356.543335 -1638.841431 1404.821655
-425.545197 -1844.365601 1453.604492
22.458162 -1736.286133 1258.688110
-165.080719 -1686.803101 1295.742188
-445.705902 -1886.615356 1386.724243
-52.951054 -1655.943481 1371.669434
-232.853409 -1690.366211 1531.266235
-352.431274 -1684.030884 1501.250732
-147.343399 -1680.428101 1299.730591
-67.212440 -1621.020264 1405.909668
-223.957138 -1656.894653 1334.155640
-162.237091 -1715.989746 1243.151855
-412.053711 -1829.853271 1425.002441
-66.938446 -1766.232910 1143.818604
-291.885468 -1692.211670 1563.670654
-197.920914 -1628.184326 1493.100708
-188.080917 -1717.993164 1219.505249
-146.024277 -1586.130127 1545.191528
-127.893120 -1622.208252 1393.706543
-371.979218 -1745.662964 1518.073242
-444.699402 -1911.995117 1417.229736
-195.958572 -1607.411865 1593.586304
-263.962219 -1622.562500 1344.913818
-383.598785 -1776.265137 1488.314453
-189.567169 -1611.149902 1405.381104
-60.376343 -1748.816162 1173.331665
-225.335358 -1652.711304 1517.472778
-313.463318 -1631.117065 1507.084473
-348.347870 -1595.016968 1371.397827
-31.898447 -1721.919312 1229.315552
-401.305725 -1638.541016 1343.299805
-135.873856 -1695.316895 1284.357544
-33.400665 -1675.543701 1328.313721
-50.355915 -1658.499023 1450.494385
-64.156448 -1748.294678 1171.956421
-202.018906 -1704.666504 1233.321289
-443.045166 -1780.711548 1326.871094
-320.673584 -1664.544556 1288.584961
-207.996475 -1608.579468 1501.194092
-358.471313 -1708.890015 1572.268311
-296.357941 -1577.737915 1445.547607
55.609760 -1678.185425 1415.325806
53.483921 -1723.958618 1273.464478
1.565318 -1651.595093 1357.579712
-468.953979 -1919.343262 1404.242310
-361.057373 -1587.465332 1399.018677
-138.790726 -1625.200928 1388.553345
-448.690063 -1836.207886 1358.756104
-370.827393 -1780.700439 1586.422363
-330.000122 -1595.629028 1352.623779
-146.047729 -1642.104248 1371.641724
-401.527374 -1845.048950 1489.669189
-181.255768 -1630.971436 1383.647583
-48.586857 -1669.006836 1339.910400
-136.000275 -1661.276245 1350.429565
-302.372284 -1692.181274 1243.187134
-335.283325 -1606.642944 1508.338013
-255.252716 -1625.857178 1478.784668
16.772106 -1654.957153 1369.891479
-337.118958 -1603.526978 1466.552612
-236.963989 -1686.499878 1389.271851
-18.241705 -1749.799927 1209.087646
-25.922739 -1735.328003 1189.449829
-343.101868 -1625.047607 1447.253784
-158.010345 -1681.399170 1289.662720
-428.210876 -1691.167847 1281.512573
-284.685364 -1584.975464 1418.757568
-341.398712 -1604.779297 1456.553223
-280.262299 -1666.948730 1548.926270
-147.450867 -1676.312988 1311.695190
-201.084518 -1700.456909 1499.731812
-140.142426 -1694.652710 1285.360352
-72.450302 -1752.268066 1227.377808
-338.979614 -1735.209229 1583.332886
-14.369089 -1660.995361 1423.763184
-213.831818 -1680.943726 1305.075928
-240.909546 -1593.624390 1391.855713
-215.492966 -1600.018433 1495.795044
-288.803619 -1679.822876 1597.056763
-371.705994 -1618.622559 1321.748779
-420.070984 -1651.495972 1303.739014
47.623535 -1645.967285 1439.863159
-259.938995 -1683.513306 1269.886963
-43.940216 -1696.231812 1481.664429
19.202766 -1761.935181 1258.138184
-264.272217 -1603.998535 1384.149658
-349.707520 -1634.453735 1523.318970
-314.137695 -1587.812378 1396.984253
-105.278275 -1616.060669 1405.486084
-59.222496 -1767.300903 1154.226929
-226.722458 -1622.111572 1536.833130
-261.161652 -1708.082886 1220.108643
-134.727249 -1617.804199 1459.841675
-416.376678 -1691.269165 1302.888062
-152.106781 -1618.182251 1397.059326
-287.899536 -1583.897461 1469.312622
-451.111267 -1917.848633 1412.589600
-364.734283 -1784.206421 1544.500488
-224.597366 -1598.180542 1445.718750
-306.502747 -1668.797241 1268.092407
-332.351044 -1578.024292 1474.272217
59.870544 -1661.291260 1401.059448
-44.091473 -1670.224731 1455.657471
-99.797150 -1638.554321 1374.911499
60.893822 -1662.976563 1386.484619
-294.882874 -1594.195923 1377.605591
-4.573997 -1715.194702 1463.011963
-291.478394 -1689.656494 1568.099854
-202.848663 -1587.190674 1547.204224
-234.049591 -1609.995972 1531.708496
