ply
format ascii 1.0
element vertex 1407
property float x
property float y
property float z
end_header
768.151001 1941.942261 499.153748
637.915283 1989.482666 512.575439
921.368103 1907.932617 257.285187
576.897888 2026.224365 317.818665
1013.097839 1982.503540 418.345520
808.719543 1987.163940 485.011749
892.530823 1982.857056 516.723267
706.545776 1951.968506 493.737427
649.218262 2003.835571 311.730408
769.351318 1964.143433 225.806824
593.726929 1995.464600 459.221344
858.646973 1920.408691 367.574677
951.890076 2035.885132 247.360443
969.508118 2111.910889 236.837646
675.417236 1984.746826 425.372986
907.044678 1972.552856 490.751373
933.178711 2027.202637 175.390244
741.821289 1985.167236 276.748413
913.876526 1925.785278 214.554749
856.766541 1926.398682 247.297089
964.896729 1938.003662 377.083923
957.531433 1979.599976 360.547729
724.019897 1962.524414 445.508423
916.309570 1977.481812 582.751709
998.721375 2137.036377 367.239807
979.006592 2045.620972 452.976715
708.494507 1959.906982 486.130981
964.753601 2074.785400 291.005829
883.479248 2027.541870 559.183777
930.569275 1894.963135 273.656464
614.437073 1964.049316 245.112076
582.797852 1998.378418 488.136169
558.863464 2022.518188 290.936279
664.766785 1989.104858 305.587982
992.768616 2141.986816 315.743805
570.797974 1997.251709 477.830475
818.729187 1936.685303 267.853912
1009.656433 2027.426880 438.027435
986.169556 2153.339844 176.693436
662.937683 1994.629639 436.011627
887.213928 1970.142578 544.050293
657.947815 1982.393555 262.113861
803.773621 1947.558105 226.895264
794.792236 1949.188721 419.150177
755.941284 1947.464966 480.032928
667.997253 2049.599365 554.073608
570.839844 2004.150513 281.554474
617.647339 1982.216064 504.341217
984.481506 2050.586426 502.103058
927.908325 2030.843262 474.178436
863.199890 1921.014038 406.276184
715.337952 1971.138184 237.894684
541.189819 2027.292236 409.410889
958.203369 2072.353760 205.888245
710.451233 1985.890991 318.261963
996.364136 2063.104004 492.523743
935.965088 1954.609863 446.057861
906.163025 1998.090942 542.006592
957.154419 1904.334961 425.893890
632.160645 2010.789063 540.776489
986.356201 2097.222412 334.026672
936.737183 1906.551758 319.142517
687.207214 1980.305664 281.711121
811.064880 1978.013184 492.579590
917.931580 1903.076294 422.102661
597.962402 2018.101440 538.032288
962.974976 2042.016235 484.844940
853.152954 1946.837158 214.128006
972.299133 2026.029907 365.066193
765.513672 1963.072632 275.778412
940.816589 1962.409424 299.252502
968.055420 2093.263428 217.753998
708.812988 1957.129517 501.270172
685.441284 1968.863159 499.908295
769.437073 1952.755859 444.198517
931.314453 1991.996704 452.646393
967.761902 1970.087646 435.392334
759.910950 1965.294556 371.465668
969.819336 2095.882080 269.585693
1011.091370 2156.221924 369.081573
991.188660 2011.829224 452.049072
814.863770 2028.975098 517.078369
887.994141 2001.838989 482.266327
785.827026 1975.128784 487.034149
960.232483 1929.156982 367.793915
915.681824 1931.987305 460.583282
704.471741 1990.309570 509.775574
517.792725 2023.882080 363.033295
668.122681 1992.032104 321.586395
858.934692 2061.987549 472.758148
772.985779 1910.504150 218.581924
831.599915 1964.056030 482.803589
858.354675 1916.305786 371.023407
864.205688 1923.955200 424.868103
962.419983 2005.343262 444.003296
780.808167 1960.548828 339.253357
958.531189 2045.493408 511.019562
1010.240662 2053.589355 443.525665
733.037842 1950.703857 490.694061
983.147583 1969.839478 432.554260
677.491882 1977.772827 512.701660
930.514282 1934.523926 291.255310
929.704773 1956.720581 170.266830
504.829407 2020.251343 368.273529
868.175720 1929.356934 259.068390
948.465454 1927.361816 386.807800
887.318726 1963.810059 583.154236
894.329346 1958.494019 562.324219
672.172852 2000.362793 323.756989
897.978271 1971.038452 584.928772
838.367004 1932.991333 451.800415
965.890198 2026.989258 547.661621
991.598877 2068.947266 500.096069
973.403198 2041.846436 353.046814
793.069458 2002.340332 497.786987
926.346924 1900.604858 402.259308
769.611145 2014.608154 525.290100
932.710510 1985.139526 215.886673
793.451111 1936.778564 309.744171
879.680237 1926.584351 233.955170
666.331543 1980.939087 247.036606
1015.343506 2140.659912 398.631744
924.017090 1951.091919 212.242767
961.740234 2071.951416 251.859604
864.182861 1970.064087 487.666565
553.053101 2112.000732 519.919861
899.967651 1934.047729 194.469040
948.423096 2010.215820 239.258148
861.532776 1928.803223 228.840195
788.044067 1975.760620 297.766357
1014.696167 2111.062012 445.245850
625.483521 2010.515015 563.822266
950.844788 1902.811035 399.320374
868.859192 1909.905029 311.448792
652.051880 2011.537109 555.235046
811.580078 1989.347534 498.010162
969.211914 2153.384033 197.935287
976.438660 2177.099365 204.334656
964.392395 2078.157471 253.563660
664.090454 1984.331543 248.491776
617.261719 1998.124512 295.973450
748.320801 2015.216797 514.677063
882.084351 1918.069702 437.123871
688.170654 1992.822144 226.361206
988.573792 2199.413818 234.679443
981.296936 2038.834839 376.426788
797.905884 1967.225586 399.728973
912.772766 1961.232056 554.229553
685.106079 2104.691162 556.817139
887.992371 1912.930298 335.546082
645.221802 1988.989624 276.287903
890.405457 1991.371948 502.996643
928.822266 1941.213379 316.146118
535.135986 2039.331787 333.479126
931.783264 2003.992920 177.113190
700.395874 1956.349121 220.451416
630.484253 1997.340332 406.019470
661.471130 1989.963623 234.497238
888.806702 1934.036255 203.113953
617.579285 1998.587769 330.954315
643.089111 1989.655762 387.363586
878.809448 2054.100342 474.257721
719.119446 1984.751709 536.207092
1001.639954 2130.563965 361.117462
550.369446 2016.560913 260.264832
893.363586 1993.297241 462.629944
796.767334 1957.917114 381.187134
707.767273 1976.393433 235.006012
840.976135 1926.431885 419.976013
940.768311 1892.367554 300.901337
814.679077 1931.406494 460.088470
988.117859 2081.111572 361.315613
598.155457 2015.753418 518.549194
693.091248 1982.181396 269.467346
873.505066 1915.190430 398.460938
785.670654 1979.038818 310.762756
918.826538 1933.848267 231.690369
961.204712 1986.243774 347.183655
939.466736 2001.802979 247.937210
849.789673 1928.862305 223.827209
878.058044 1911.472168 411.978760
920.410156 1927.593140 280.452454
896.207642 1919.173340 301.445374
694.133911 1959.754395 500.506592
797.111938 1968.052490 484.756927
654.891541 1988.482300 281.519104
995.187073 2116.394287 355.719208
905.961975 1918.637207 195.296387
959.000122 2036.131348 513.216431
916.652283 1903.245483 312.459503
810.384827 1938.235352 339.652802
827.415955 1937.332153 388.012665
680.720276 1999.863770 531.478088
553.819763 2007.789429 345.935486
989.197327 2215.067383 175.873520
901.696777 1907.909546 411.611816
792.434998 1947.961426 482.619080
951.210083 2026.577515 522.522278
659.062744 2007.117065 295.054901
742.831726 1985.721680 282.922638
930.614990 2021.057495 189.400360
814.069458 1936.633057 315.852875
942.887451 2046.235107 185.200958
987.851929 2040.540039 379.939789
596.367310 1986.532959 506.256104
995.608154 2127.822266 340.062286
627.326355 1997.744141 527.425049
941.633301 1952.018555 327.133118
764.318054 1958.974731 462.555420
912.101074 1976.178101 182.792023
653.222534 1981.241699 305.328064
827.286560 1932.382080 262.987488
1001.505615 2099.368652 357.053894
937.112671 2029.595581 491.113464
676.663696 1987.056152 288.544067
817.414856 1938.274902 468.682251
992.963745 2172.722412 283.412415
909.288940 1920.549805 284.741974
726.724609 1980.584595 320.582123
834.284363 1935.261230 450.402252
839.293457 1922.001953 275.137390
884.062622 1967.981812 544.116028
955.004211 2012.926025 308.772919
980.305176 2020.228516 445.156525
728.946228 1967.734863 413.986420
938.793030 1990.639893 223.844635
729.392151 1971.976685 398.075500
566.005188 2014.315430 361.666809
644.441772 2000.080688 557.342651
996.628967 2132.851563 339.511780
739.259583 1972.393921 513.193970
823.539124 1926.334717 305.009827
628.080505 1990.824341 333.405548
952.363464 1893.798706 408.897430
893.545654 1963.416382 538.597900
962.315857 2039.321777 550.067505
928.377319 1973.059937 241.186371
861.767151 1923.812256 435.287689
955.096985 1940.424316 384.639435
582.843811 2008.873535 270.471069
842.502075 1920.837646 448.766479
924.088501 1930.951294 282.224304
896.346680 1905.837280 349.619019
729.765564 1966.386963 270.573120
550.533203 2017.959229 400.947174
999.671936 2132.179932 308.313690
923.599976 1946.648071 230.289429
863.773071 1920.867920 441.479797
532.474182 2007.130859 317.780731
970.751099 2013.132202 359.739563
588.383484 2003.214355 524.048828
798.810120 2002.520142 304.146515
994.390503 2067.887695 397.153961
963.204224 2015.443726 446.561584
854.165771 1931.912842 210.603348
987.291138 2125.048096 347.338715
783.308533 1957.622681 502.641022
967.618896 2064.029541 253.094376
983.075012 2030.122070 461.176941
632.274902 2001.933472 431.376953
896.308716 1902.790161 426.163666
904.289368 1994.986328 513.036987
929.402039 1995.181030 176.737534
848.213013 1921.820923 355.816376
888.656738 1928.366089 455.633514
949.598389 2014.725830 325.661407
791.602356 1974.894897 353.469788
979.063110 2139.563232 265.798553
931.660583 2029.354248 532.687256
666.937195 1979.681763 492.404236
594.474731 2012.871338 280.496338
853.692505 1969.199341 491.716461
957.099365 2119.858398 179.803772
735.297485 1963.179443 295.497925
748.802368 1954.144165 497.164642
938.240479 1917.412476 376.899445
874.942993 1923.805786 179.381409
633.042236 1977.880737 492.926239
921.619019 1992.307007 183.219513
990.371765 1954.106201 424.716248
881.717773 1910.126953 425.838837
847.299866 1970.474854 509.317352
717.629272 1924.178589 230.388596
959.100098 1976.239014 331.198456
922.780945 1904.778320 390.115112
993.713623 2037.733276 506.343170
714.820862 1971.771729 360.112396
891.975891 1908.863037 318.514404
548.924866 2017.414429 414.161102
985.897644 2015.148804 438.914276
936.293945 2031.115967 527.549194
1003.976379 2072.517822 399.397430
943.204590 1965.887085 321.403534
908.328613 1981.806641 581.927490
633.460754 1994.781128 522.821106
678.284912 1985.024048 475.320129
907.897461 1896.592041 404.794586
766.048706 1922.976563 220.817520
562.148499 2015.756348 417.311157
947.359070 2039.840942 171.871582
784.062561 1953.749878 393.517242
727.153870 1959.066895 471.957306
967.928467 1937.759399 443.228455
1005.401184 2168.864502 286.443024
727.962585 1974.254883 263.333862
910.531128 1918.947266 280.465088
936.879700 1910.977661 378.813904
843.185120 1921.809448 315.727234
835.176575 1927.126099 401.934296
844.151123 1922.212769 309.158234
991.107849 2073.585938 391.681091
796.602844 1954.018921 258.639404
920.875549 2029.333130 177.661957
847.654724 1917.346436 284.969818
657.819458 1989.459229 260.356018
718.596985 1963.247559 464.126678
811.317078 1925.834351 447.738098
538.201660 2181.437256 357.972565
958.697144 1908.177246 412.179443
951.009277 1910.382080 398.162872
892.276123 1910.731445 387.575775
932.036011 1920.759521 329.018341
822.238647 1932.200928 444.056976
862.622864 1923.061035 256.884766
768.754944 1946.098999 477.099487
913.699158 1895.215454 385.033661
992.899841 2049.863525 387.629761
914.602295 1895.791870 308.301117
651.838379 2001.921631 346.177704
892.695740 1922.328613 319.975006
866.927917 1909.831665 382.870667
858.042847 1931.781738 452.127167
829.235840 1942.250366 187.289459
982.373657 2068.242920 388.879364
952.282959 1943.816772 387.990082
973.216614 2107.337891 273.246857
891.856445 2026.350708 581.857910
804.233398 1954.848389 268.676727
802.051147 1944.978638 201.858963
836.330078 1922.263550 358.374451
881.270630 1992.599243 470.822693
847.862976 1935.975586 260.933105
544.263062 2010.368042 263.855896
590.535706 2000.347778 435.296082
909.095825 1917.907715 450.815979
879.509338 1908.146729 353.513397
1027.277832 2092.108154 420.924255
898.086426 1911.978638 431.532288
599.867554 1987.317627 491.961792
570.537109 2004.960693 466.383728
971.666992 2094.839600 230.547516
827.117371 1932.786499 258.430084
882.239197 1914.570801 431.184509
788.334595 1970.343018 198.471237
952.894104 2094.452393 219.341156
1000.531128 1977.081055 420.340546
577.238098 2001.337769 518.577637
951.778442 2071.622803 222.318970
929.864868 1944.337158 268.172791
672.683044 1970.063599 501.644928
621.227844 1995.328491 264.596954
566.824402 2046.736450 324.027435
601.517456 1997.467651 379.450806
642.160400 1985.684814 270.188110
1012.883728 1991.022217 433.038727
942.221191 1915.327637 329.839050
1011.653015 2035.996826 412.159790
934.659729 2023.015503 198.179489
820.244629 1943.623169 265.659149
737.076111 2007.896240 515.175293
915.150330 1951.981323 188.412888
725.626343 1968.722900 378.043121
967.134888 2068.134521 284.998383
909.264282 1912.135986 183.756348
747.968262 1965.545654 504.004791
751.261719 1969.452881 419.419098
891.273621 1906.979492 415.713806
941.742065 1997.721191 212.712036
714.369873 1967.267456 492.167664
979.252319 2117.985596 233.575211
881.421814 1972.339844 527.024841
623.525269 2039.054565 572.837646
842.465088 1919.045166 401.383087
915.046692 1952.754639 598.255859
666.867432 1992.152832 302.507233
734.664185 1948.005127 218.537506
594.558655 2005.807617 300.688782
856.124451 1969.752930 495.134674
535.088745 2025.951416 421.506500
940.401550 1928.276733 385.120087
624.762695 2015.616333 541.119141
644.041260 1983.715332 267.827667
805.218994 1950.937622 365.220001
750.628174 1958.800903 261.260406
964.298218 2034.050293 497.980225
841.784912 1932.763672 299.894623
579.041138 2000.760864 528.129761
972.553162 2013.427490 342.158173
693.290466 1985.527710 358.204193
543.255249 2012.322876 312.473877
602.168274 2023.973633 545.942322
770.256592 1941.317505 487.781342
594.822998 1998.770386 384.791412
1002.303284 2047.289185 403.364563
712.317139 1969.391602 454.094727
869.778992 1962.663940 515.550049
897.004944 1899.311279 378.887451
878.828552 1902.760254 345.883209
772.516052 1987.471313 498.699707
750.323914 1965.911621 374.640778
625.559021 1987.302979 450.515320
578.107605 1990.476318 512.856445
881.912109 1908.487183 402.631989
765.745789 1968.973511 214.934143
552.283447 2005.969727 296.844727
711.021240 1981.448608 281.523529
774.433167 1972.123535 259.406769
894.624084 1957.027954 446.800720
795.690491 1936.860352 460.781342
1004.788452 2120.509766 384.099915
976.262634 2048.230957 526.954163
586.658997 1999.541138 525.951965
953.894653 1958.230347 353.123413
862.427856 1961.181396 480.571655
756.306885 1950.296265 467.678253
973.746094 2117.737305 263.734467
973.952820 2062.147217 470.767242
797.843567 1940.690430 458.536163
606.679993 1998.310303 501.797394
836.246094 1976.685059 468.345184
689.566895 1975.656372 397.601959
947.171448 1958.181030 333.876007
938.433472 1981.026123 245.419479
973.037048 2075.554688 298.406525
814.150635 2005.664063 505.221436
550.094055 2065.147949 542.732727
907.182678 1980.809204 597.748535
862.540527 1921.983521 252.064758
608.477722 2011.517334 244.813919
1011.458923 2143.177979 391.596710
580.842041 1982.399536 495.087769
959.801819 2003.131592 468.345673
979.035278 2021.361206 361.143738
619.117676 1994.848267 543.194519
968.475586 1947.201538 401.183289
927.186523 1898.730103 379.546051
943.350220 2003.184814 265.325684
983.071533 2103.483398 272.037170
927.635986 1937.677490 272.043823
916.713379 2056.848633 521.599731
636.438965 1977.171143 476.217987
931.791687 1931.182739 444.581573
895.750488 1915.795410 442.571899
573.692688 2002.635254 539.901917
686.883118 1982.183105 516.284851
779.941101 1962.037964 424.226654
910.650574 1916.276001 445.740753
958.045837 1931.670288 394.284454
579.164551 2014.604004 252.753510
899.622498 1900.221436 401.682007
613.382324 2002.780273 399.573853
971.577637 2115.279297 207.536346
738.591248 1957.106445 508.524109
1016.010986 2013.174683 415.922791
677.579651 1986.310181 512.430481
628.435181 1990.031006 278.123322
960.787415 2075.081787 234.497604
788.975159 1971.217285 268.925537
904.476990 1962.353149 189.477539
932.415833 1925.005737 275.738892
664.320618 1987.176147 261.539337
746.376892 1970.540405 347.636749
901.689026 1961.618896 514.265015
888.642212 1909.349121 418.989960
867.081909 1910.212891 335.788177
826.957703 1937.539917 229.169876
570.127808 2029.170288 374.942902
713.111816 1975.427368 240.612442
653.086060 1997.461548 544.688782
887.616089 1915.746460 241.816498
924.506287 1894.577881 332.013947
572.690979 2058.470215 386.288635
1005.781433 2039.695068 431.884857
873.116882 1968.462524 588.280579
834.014954 2035.789673 524.280762
724.663696 1986.390625 531.120422
842.367004 1906.375610 325.580963
793.591003 1952.461792 411.420349
966.002625 2089.830322 257.898376
744.570984 1986.479004 284.264893
899.225891 1983.319092 540.663574
740.523315 1961.210449 211.015930
890.513855 1918.494507 433.520599
957.434998 2030.952271 280.743195
850.738647 1912.963745 358.633026
922.365784 1956.822021 278.224915
820.468079 2010.275146 311.716888
1029.000366 2079.070068 437.935303
953.113098 1925.745972 403.091675
996.021545 2186.094971 221.279922
675.349609 2071.368164 563.723267
992.555054 2091.253662 500.551849
916.314636 2004.275391 575.686462
520.139771 2030.477417 458.977295
655.299927 1997.823608 262.423676
1027.825562 2113.690674 404.935242
781.709167 1964.343262 216.058395
573.181274 2019.568481 420.266541
754.372070 1974.773926 304.018860
914.637207 1920.601807 439.194153
962.562134 1979.372192 441.134491
905.179443 1940.227051 180.593948
944.656311 1984.257568 304.661774
971.236267 2027.073120 364.239105
897.719543 1910.087402 239.988586
872.825256 1920.516113 246.664688
882.528137 1984.131226 507.346863
888.220703 1904.451538 307.801666
949.504333 2004.237427 294.007629
819.067261 1940.701050 192.321808
871.401245 1910.594482 392.787567
692.515503 1979.590454 318.748169
985.506836 2046.720581 498.472565
910.513245 1910.907715 353.508057
785.519836 1950.272217 430.976837
871.002014 1910.183594 254.943329
992.302979 2169.546143 293.285400
865.643005 1909.822754 302.089813
560.544312 2016.993408 388.594604
916.567200 1964.632202 450.151093
936.980225 1896.714844 355.442566
828.084412 1936.826172 192.057709
966.207336 2032.208374 512.319519
954.899963 2055.899170 211.328094
952.979736 1984.947876 444.824280
635.755798 2024.509033 563.175903
828.208435 1939.966553 355.922241
709.253906 1974.782349 233.423615
614.841370 2001.569092 317.604462
810.087769 1948.998291 218.589096
713.520996 1974.650391 397.609131
777.877747 1948.295532 446.447906
755.786499 1973.039429 314.274841
652.258606 2014.159058 538.711670
983.594482 1961.733154 408.929535
1008.347961 2044.589966 443.426422
929.252930 1899.223633 405.333496
881.185486 1930.363281 191.577515
670.553284 1986.163818 345.831024
958.480835 2037.401001 273.880859
827.118591 1936.049438 412.476898
923.267700 1912.802124 425.724487
556.922302 2017.942627 389.870850
856.245850 1944.742798 471.966919
930.991699 2023.874878 467.287384
959.113647 1982.802124 350.634399
682.742554 1985.858276 319.802979
673.587708 1980.298706 334.196808
931.950134 1935.069458 304.507172
872.957275 1911.546143 300.815369
733.158630 1966.916016 373.775085
943.450989 1955.562622 303.293671
991.983704 1971.229614 433.670013
987.862488 2073.909424 329.726746
812.557922 1940.016113 236.189316
907.620728 1938.071289 206.582581
938.538391 2069.091797 179.966782
944.653625 1905.901367 414.655579
712.013062 1969.354614 513.438477
976.108337 2033.789795 446.980927
944.452820 2019.927124 171.870026
713.344727 1969.919189 459.914459
538.274170 2025.801758 303.951599
817.704529 1935.924561 302.000549
581.450806 2020.318970 402.990143
563.747559 2107.889648 552.289551
830.919006 1924.182373 375.489166
776.236877 2026.321777 523.957825
839.028137 1922.654541 319.386230
833.052979 1964.760132 493.033203
907.786011 1910.754150 232.795212
623.710083 2005.047974 276.555542
672.085327 1983.958984 261.652863
988.533630 2117.321289 328.373779
702.980225 1982.850830 367.810699
1038.510254 2119.460449 417.643646
667.267456 2001.364014 430.970581
585.255432 1999.299805 278.427734
751.206360 1947.746948 212.168076
604.058655 2001.507324 520.380249
721.876404 1960.292847 504.692291
977.405701 2032.442993 365.558472
960.700134 1945.588501 439.417175
953.388428 2101.822021 186.384537
1004.652283 2153.228027 365.412720
859.121765 1928.810303 190.801956
926.608337 1915.615845 334.710144
691.963745 1973.991577 417.511902
945.551819 1984.806274 273.363068
952.067627 2034.083984 170.162064
920.445374 1907.129395 425.406036
956.147217 1927.180298 352.913086
982.713318 2045.609619 532.407227
880.856812 1978.557861 473.622101
822.288452 1936.300659 253.596863
798.572693 1932.282959 286.418640
900.661316 1958.123535 468.713531
944.032837 2065.252197 193.482971
883.819031 1990.200317 560.732788
974.286621 2028.650269 481.149109
928.343567 1909.389038 220.677216
909.770081 1907.579712 237.612289
846.556641 1924.440430 373.286896
539.980103 2117.558105 460.714905
950.057556 1996.456787 293.199921
579.945679 2002.366455 535.778137
726.463135 1977.675171 301.104065
948.336914 1999.838501 271.662201
773.505005 1922.679565 219.412598
644.244812 2008.148926 317.098022
649.759705 1998.529663 421.071411
624.466370 1997.662720 239.409485
941.639221 1937.027344 341.345154
900.151794 1906.435303 400.914154
761.713806 1954.964478 455.643250
938.322937 2055.285645 201.805786
529.713501 2025.234131 277.967255
791.674500 2028.229126 517.261353
866.740479 1936.222046 464.672211
988.137817 2077.406982 378.591461
694.472107 1965.532471 480.763824
686.622131 1969.299561 509.179932
832.475464 1925.691528 455.973297
970.549377 2051.295410 331.123260
489.027985 2036.244873 366.316437
640.267456 1992.543823 294.360077
903.113403 1928.796509 459.909180
1002.923645 1997.357056 452.579651
865.521667 1969.773804 496.172394
853.440857 1914.164307 341.157257
806.538025 1988.557861 372.928253
935.696960 1901.399170 403.074005
967.949097 2118.865479 189.572342
580.087463 2012.138428 336.966309
991.306580 2094.583740 443.691650
913.653625 1914.588257 417.879730
1013.651245 2088.957764 404.738007
891.750977 1967.486694 586.856445
739.814209 1949.567017 518.538818
782.308838 1955.444336 318.647705
984.262939 2129.233154 343.178223
647.829163 1989.018433 495.266663
858.219421 1919.044067 284.263763
878.525818 1915.850342 366.980225
979.961304 2179.097656 213.202896
996.704163 2105.970703 372.802887
840.843445 1925.789917 374.530396
830.615845 1940.737427 256.230499
979.505005 2179.400635 203.791351
641.232605 1977.503418 475.243988
891.586914 1958.750122 550.818665
765.307129 1944.053101 493.066559
739.899719 1961.418945 248.510025
861.928650 1924.610474 433.314240
730.022339 1973.288696 507.095093
967.701355 2124.791260 224.053787
717.642761 1971.578003 426.453217
946.907776 1912.963867 356.354706
649.793457 1999.091675 369.214539
872.910889 1900.329224 310.725555
545.234802 2014.925049 389.620972
643.705811 1981.209106 234.818665
732.477783 1970.024048 391.811218
832.747925 1947.399902 225.957275
796.156738 1987.786987 511.287323
632.855103 1994.300781 373.474823
984.664185 1986.679199 429.770111
961.871765 2066.605713 260.717072
859.516663 1920.525635 353.212250
823.430664 1937.200928 427.359375
507.904419 1969.927246 277.540497
883.815125 1914.364380 423.770813
964.503479 2123.536377 205.512344
639.898315 1996.719604 555.295959
944.713623 1927.003784 301.913147
864.743896 1920.594238 336.145416
887.834961 2030.305176 566.416016
954.574524 1991.720825 459.387115
905.755310 1972.303345 601.226440
657.039917 1988.552856 337.157928
861.957703 1910.864624 364.380493
840.952209 1964.095093 486.757629
874.270996 1943.905151 196.084747
689.134216 1976.463013 408.212280
930.902527 1951.604980 271.452240
832.884460 1963.415527 464.941833
964.949646 2159.071777 216.988815
737.462524 1963.888550 403.290405
665.294495 1997.402466 393.917999
1011.976746 2175.719238 308.870392
812.024658 1995.453369 489.900757
967.022400 2055.761230 324.469330
820.059509 1939.136841 260.283997
628.183044 1990.957031 447.458099
859.197205 1978.899536 516.356323
726.116455 1974.670532 216.524048
511.946625 2019.072021 421.149567
690.397217 1994.201782 318.579437
789.125183 1940.410278 471.497803
992.303040 1991.910522 442.110199
972.563843 2102.843262 273.235870
870.424744 1911.501099 361.657379
750.147827 1961.653687 383.262543
814.441528 1943.250000 429.554657
960.807617 2040.352051 281.575348
852.019958 1925.622070 325.325348
960.158020 2050.407715 455.823120
948.715820 1979.232422 302.170227
746.742249 1950.446533 489.229218
689.854492 1975.425293 264.678162
843.976135 1925.099731 450.694153
568.273315 2021.782593 317.150391
846.255127 1928.064087 312.794983
909.866272 1997.935791 559.842102
872.102478 1944.853760 455.359619
1004.658264 2125.802734 339.918732
650.641846 1980.438965 474.564026
970.916687 2091.378174 269.289032
930.173950 1979.350342 237.643524
829.698792 1932.788452 430.067047
542.995483 2019.244629 432.003265
974.238342 1963.321899 441.951263
870.351746 1971.567139 517.451843
905.875977 1953.349609 605.554016
972.900391 2046.260864 345.496552
568.770752 2020.821289 315.859955
905.436462 1906.873291 312.676575
957.661499 2019.311401 312.327789
905.531982 1912.575317 353.423920
932.157227 2003.942871 200.112503
694.774170 1963.270630 494.348816
987.351929 2053.816406 386.629974
815.663025 1935.232300 193.824921
896.939514 2005.065186 489.279327
691.938782 1965.865479 473.363312
789.014282 1951.808228 237.872009
971.666504 2038.541504 347.396515
534.023254 2188.809570 327.428558
549.335022 2014.700562 330.433167
962.075928 1972.436279 439.246918
729.246338 1981.546265 306.347382
568.602600 2000.537109 492.747559
879.640564 1962.516846 467.019745
907.236084 1910.511353 310.297150
585.180908 2020.425049 544.261047
805.673950 1943.241943 322.684418
671.205017 1979.890015 468.377686
941.035583 2002.259155 218.979630
938.838989 1958.841431 347.746887
961.021790 2084.671631 238.043060
1013.483032 2025.879028 436.501587
784.753601 1974.775024 490.302643
750.062012 1955.276123 517.074402
856.279968 1923.002197 273.877045
900.361206 1999.368286 519.745117
940.302551 1975.308350 274.177368
1006.677673 2140.092041 376.751343
691.872375 1990.150757 527.659973
866.906494 1911.431152 390.129822
665.510498 1994.919678 531.182373
975.455811 2042.299316 350.102692
680.428650 2009.991699 523.585266
557.504272 1996.323975 478.118378
683.594543 1979.103271 521.356018
933.683044 2065.438477 197.497986
893.984009 1917.908325 231.981873
886.636047 2075.905518 464.588898
936.548767 1912.029907 317.822845
959.805298 1979.830322 317.699005
869.993774 1923.594727 249.893555
914.166626 1921.494995 447.961029
983.957947 1944.598633 420.314423
656.429016 1962.968628 231.356903
659.467773 1993.954102 520.599426
579.098206 2001.653076 494.141541
844.717773 1916.897827 340.304413
921.795959 1992.618774 175.725494
889.392761 1900.300415 330.356354
525.695801 2007.648438 495.605560
581.618591 2003.770996 476.453613
762.636719 1954.067871 511.430695
958.525574 2034.014404 497.690125
957.673767 2084.823242 215.071960
890.244385 1918.501465 429.889038
553.364136 2007.984253 281.917053
968.777283 2016.317261 349.161041
895.028564 1898.472778 401.547668
914.773499 1912.304199 393.104034
676.316711 1995.230957 365.803589
989.571655 2110.899170 329.666077
676.692200 1957.906494 240.402405
915.931946 1921.975708 206.529770
972.956421 2158.012451 176.091492
988.886108 2048.608398 393.334625
906.592712 1991.519409 566.281921
517.514465 2088.868164 385.246246
621.183594 1997.553223 329.998840
876.049011 1921.845093 449.242920
912.336853 1968.600342 176.838287
602.174255 1988.026245 240.979919
826.219543 1938.518066 400.936920
931.094666 1931.878540 311.617767
688.569580 1980.880737 387.222473
571.127258 2021.704224 407.363678
554.469788 2017.637695 320.641510
995.349182 2177.549561 297.000885
642.125366 1984.720947 507.917297
853.498291 1914.905396 350.165283
645.633667 1992.688232 554.966003
964.596375 2055.171875 470.337952
726.120178 1978.068726 523.134949
933.796021 2075.018799 189.223648
909.820557 1980.116577 481.276031
802.799744 1944.963013 272.657227
845.009094 1917.621826 363.764343
917.736145 1902.422363 328.380310
811.577332 1939.164063 447.626160
931.146240 1952.026001 209.617523
559.924316 2008.410156 411.179169
971.918213 2049.328369 326.771576
590.919250 2004.424927 457.018738
883.916260 1949.372437 604.496033
979.364685 1941.143799 421.994110
928.875244 1910.282837 338.640625
892.796021 1949.182251 175.609634
924.155151 1902.075684 413.143158
761.558472 1960.518677 505.930298
558.136902 2011.511841 463.935791
989.864441 2080.408447 382.304871
598.127991 2001.239990 449.281708
576.338257 2022.262573 328.468109
945.201416 1896.598755 436.092987
987.249634 2071.200684 377.061554
857.374512 1995.807007 517.191223
905.792480 1898.660767 374.858704
974.498352 2074.346680 306.459473
820.919678 1932.621704 310.766876
825.076294 1922.978760 291.685974
685.066772 1987.320923 438.113312
523.113525 2027.917114 287.135132
935.531860 1918.813965 355.044464
863.674133 1956.977417 575.638916
983.889343 1995.063354 405.054626
879.333069 1986.728516 496.048370
561.124268 2008.677612 466.385742
868.875488 1914.447021 436.700836
944.911011 2075.110107 223.164749
754.354980 1957.743408 260.256714
973.534424 2029.840576 468.458588
720.221252 1976.055298 495.381256
679.552612 1995.337891 249.812973
898.938599 1983.823120 537.855103
1000.180420 2152.531250 448.414154
983.711914 2182.973389 188.546249
907.782837 1949.725952 203.881882
899.600037 1961.211792 535.342468
939.534668 1925.410034 325.800751
925.478638 1909.722412 342.620911
960.385376 2041.821777 340.530457
722.664246 1977.073364 271.513000
872.284668 1928.479858 219.555374
806.413940 2006.320190 323.272003
982.271301 2141.221680 258.022430
932.100403 1981.672119 219.315399
602.473206 2000.163086 415.192078
762.876648 1953.036011 444.537781
648.330994 2033.494995 570.042603
956.154114 2031.194214 550.452332
663.744812 1986.182129 287.866425
900.926758 1960.154175 554.814209
909.777771 1905.896973 395.035339
962.671021 2013.026978 331.277374
648.179260 2004.365356 542.262024
773.661621 1960.984009 357.481781
994.642212 2154.479980 253.232422
841.842285 1914.974365 409.140839
742.824585 1965.865601 356.458221
999.736633 2149.677002 265.837372
875.679932 1916.104492 335.055237
966.856140 2091.787354 240.321808
570.618469 1959.120728 261.993073
813.119568 1930.222656 344.955963
548.077454 2066.135010 533.779053
981.829895 2118.221924 326.636322
848.741089 1962.408813 485.920288
699.535645 1984.670654 292.143646
747.927063 1978.610596 427.741211
844.408081 1917.523193 359.904785
799.847473 1941.958252 478.853943
705.855835 1958.690430 481.899017
655.082397 1965.303101 245.025208
804.300232 1940.995972 234.235794
810.731323 1939.615479 259.050751
939.031189 2025.276978 176.640533
689.517822 1986.141724 337.629608
926.579041 1922.550781 316.066193
756.659180 1949.492798 472.904449
942.834961 1988.908569 449.758820
661.353088 1988.435791 485.269470
960.024353 1944.958740 348.045166
884.405212 1918.952393 257.015961
676.829407 1985.529297 229.495544
986.300232 2072.735107 472.094818
725.281738 1968.537354 414.986664
702.738220 1979.443604 336.380829
701.049927 1964.514282 477.205139
727.738892 1977.176147 397.348663
903.190063 1935.493530 185.007446
793.865234 1962.777588 369.751831
722.667358 1962.011597 464.464355
542.434387 2007.269043 370.102478
528.677307 2019.452271 364.000458
861.483215 1925.899414 448.271393
631.327209 2009.475586 592.756592
959.767578 2038.864380 550.095703
898.022217 1930.378418 196.836884
936.643433 2019.152222 553.106445
675.898682 1979.283813 255.077164
887.608704 1905.297485 379.268311
958.904236 2044.195679 331.320831
963.271729 2128.119873 193.266220
614.181030 1982.837646 505.277283
849.652832 1930.925171 206.826324
999.826416 2155.919678 169.437714
869.056091 1926.147217 314.937958
965.919983 2166.441406 215.140411
891.055542 1912.202026 240.117325
886.069824 1957.302490 612.217102
617.620178 1997.476929 394.411957
707.283630 1989.508911 311.628235
878.651550 1917.688232 453.218170
586.629150 2004.680908 305.606476
563.453796 2009.402710 501.718597
693.291992 1980.083374 420.443878
685.696838 1992.281128 238.018066
962.409058 2118.020264 203.809357
957.967285 1943.421631 440.562836
742.346741 1969.893311 421.213776
983.969788 1959.571533 415.689117
646.055664 2000.764893 375.862762
833.149841 1910.017090 355.925446
616.867188 2002.875977 546.988586
792.638916 1948.620605 471.396912
932.934265 1896.635986 408.628113
979.221741 2201.065186 187.820831
941.648560 2017.148560 281.899048
978.287109 1999.974487 387.258148
737.434082 1971.667969 438.774902
792.932495 1954.037231 399.274475
606.219238 1996.381226 284.018402
717.357300 2021.889771 542.020508
898.109192 1958.630005 606.253784
875.054688 1901.873901 310.103149
935.866028 1943.565796 281.088257
779.841248 1958.733887 367.578949
645.095398 2019.710449 562.348328
698.173767 1983.202881 456.608521
722.940796 1972.538574 445.862244
563.743286 1995.988281 497.306061
635.732483 1984.231201 509.849701
929.598206 1904.899780 353.968628
531.306580 2022.387573 370.987579
642.423584 1993.463745 518.207031
916.847839 1981.128784 527.623474
945.796204 2015.835205 269.101563
928.925476 1953.960938 266.302216
968.682373 1965.468018 397.142639
674.592834 1992.871826 261.077667
935.139709 1941.716919 295.121033
757.514893 1949.468872 505.918243
958.513367 2025.326294 317.461029
958.481934 2101.363525 231.687637
884.510681 1986.248535 491.869446
679.938354 1989.151611 454.374725
742.019409 1956.093506 460.954376
959.458496 2076.833008 236.123581
889.822021 1957.863770 611.891968
891.289795 2008.494507 474.034912
782.379089 1972.184082 510.155396
916.209045 1989.478882 586.528687
635.385254 2003.796997 537.797852
986.567993 1962.656982 423.869629
915.179504 1975.360840 176.583206
949.792969 1981.233154 325.641754
936.942017 1939.019775 356.649841
891.874023 1926.669800 204.943161
589.196716 2003.268921 247.544037
669.192078 1980.691650 236.839417
980.833679 1960.371704 414.860779
788.514221 1981.188477 407.413574
904.839294 1920.312622 208.613831
565.193298 2015.046265 254.076218
714.541992 1983.685425 305.415527
685.190125 1998.195923 346.029510
924.156006 1920.069458 327.403900
763.001953 1962.337891 261.596680
969.578125 2199.027832 233.060791
955.629822 2037.442627 263.767090
950.184692 1911.535400 440.197083
894.460083 1904.084473 390.176605
754.517822 1954.538818 451.681152
863.731384 1962.162598 569.487610
671.535583 1979.722412 400.704346
929.755005 1893.020630 351.403809
570.307068 2015.848145 450.811127
941.462708 1938.323730 269.762573
931.759277 1950.437744 252.735214
683.154236 1966.091919 491.215851
863.575012 1908.706543 322.795258
668.116821 2036.907837 553.010010
770.946228 1964.095825 392.862854
826.880981 1941.162964 214.231140
827.194824 1942.807373 374.679810
841.393005 1925.333618 308.173889
986.097778 2147.585205 273.361145
1015.631165 2117.543701 437.314636
813.780518 1931.079346 283.794373
791.593750 1948.945190 251.383438
676.763245 1967.937256 501.272461
746.605591 1965.010376 424.991089
960.384888 2083.861816 229.326263
603.505859 1998.848633 267.745270
663.672974 1987.535889 424.888580
768.316772 1970.129761 422.853729
928.168762 1945.160034 260.318970
650.089355 1990.741455 275.638550
818.588257 2024.441406 513.378052
984.270630 1994.028198 393.819061
1016.909302 2053.557617 425.213135
975.321655 2037.949219 357.670990
929.373047 1956.867310 452.378387
841.121948 1925.644531 304.053345
991.437317 2133.611816 320.021179
828.780823 1955.847290 188.935516
804.627441 1947.747559 377.246613
512.580444 2059.971924 396.203064
901.793518 1978.228882 541.926575
961.298584 2011.497925 334.541595
1023.864380 2036.813477 416.441254
940.555542 1895.869873 433.582733
936.075073 2033.630737 202.392471
940.651550 2037.856201 458.822662
925.712952 1950.450439 170.851379
821.432373 1953.135010 400.356171
641.309326 1988.990967 368.333954
969.724060 2003.941406 379.997284
767.007874 1975.630859 527.876282
950.495911 2043.264893 234.865494
805.222656 1943.355713 264.207184
509.200989 2023.549683 283.377716
631.053101 1989.630127 328.886292
859.643738 1931.090942 230.575241
1003.732971 2107.037354 357.015686
878.173218 1982.863403 507.341583
983.269043 2115.179932 469.310791
940.912415 1904.075562 414.369904
899.486084 1995.793213 472.275146
572.379211 1998.416504 465.440918
902.938354 1934.984497 180.994476
642.132874 1983.794922 454.063049
948.060852 2032.153320 512.428772
548.049194 2009.000854 468.655762
974.037048 2012.964478 537.637146
675.932190 1999.607788 277.909088
855.637146 1917.560547 328.388367
901.745850 1964.254028 173.452744
877.403076 1916.836182 446.854889
618.382446 1998.034546 565.002441
955.307739 2030.228516 468.733490
911.735107 1901.576660 389.841309
674.830322 1976.248657 263.681610
989.451538 2171.358643 266.145905
827.871643 1960.823730 471.070557
956.704285 2039.136230 167.355225
746.732422 1963.820679 215.410217
806.506836 1932.605347 453.053192
984.187744 2127.626221 305.009949
908.437622 1921.709595 444.247223
720.762268 2015.114624 544.089417
562.064331 2044.918823 321.250671
968.023499 2017.908203 469.223633
964.303833 2037.494263 307.469604
717.905090 1980.873779 283.654358
557.862793 2008.151855 442.397583
947.089355 2007.513672 222.406464
702.730896 1976.850830 277.865295
641.269043 2001.957397 241.647873
941.471619 1917.655396 399.529449
882.566833 1965.648682 594.589050
973.106079 2067.050293 365.190948
877.101746 1912.644897 383.848816
885.170471 1989.492065 486.391388
631.368896 1999.494019 550.528503
643.737000 1997.398804 358.971100
529.151062 2049.225342 483.465790
842.348450 1921.329834 392.723114
1015.138428 2114.740234 396.021210
613.508118 1998.126099 533.785156
928.015869 1921.099731 327.807800
822.621338 1935.622192 217.335510
863.040771 1965.449829 544.139099
779.186096 1968.498047 239.322601
939.676025 1904.921021 344.663116
562.136902 1997.681396 507.096863
895.932129 1918.752808 188.293427
1018.915771 2121.129639 403.918152
880.738037 1999.479248 563.625977
985.274048 2078.330566 368.164978
738.270203 1970.988525 524.666443
511.485779 2031.990234 341.515259
867.402405 1963.058105 506.229156
974.758484 2101.955811 234.445358
940.714172 1900.621460 426.125854
904.273071 1960.863281 598.342407
957.559631 1995.592285 338.774597
970.648621 2127.017578 185.030457
887.877441 1910.331909 443.225983
835.465698 1934.045898 448.586884
915.531128 1960.287720 169.343887
578.339355 1994.441528 469.948090
966.123108 2095.431641 240.673569
942.684509 2061.320068 188.181381
914.320068 1907.635376 378.235321
945.424927 2082.645508 203.681168
840.595154 1931.479370 443.284088
976.812134 2019.868286 393.293304
968.019653 2091.621094 262.314758
996.736328 1973.722412 414.613678
578.530396 2086.888916 585.416870
590.967041 2023.308838 355.910675
859.267334 1966.319824 501.673340
933.408997 1985.327759 215.324615
627.617676 1990.687622 535.055725
681.246582 1982.542480 389.249603
950.602600 1977.470825 313.965668
886.885742 1956.056885 545.613098
766.073059 1952.640991 242.074036
964.257935 2084.336670 247.501602
694.601013 1982.154541 369.300262
712.250732 1978.780029 455.244873
979.196716 1953.073486 420.468872
605.636414 2006.055420 358.921204
910.229675 2003.056763 456.184967
768.700500 1961.516724 501.344452
967.010620 2110.282227 223.800674
914.493835 1912.016724 354.042145
815.219604 1990.158325 493.593994
812.877563 1938.143066 437.647491
954.020325 2053.462158 172.050003
547.476013 2045.114258 381.890015
772.372742 1954.833862 232.354141
924.372864 1948.625488 247.869080
578.107117 2008.421753 247.186417
876.543823 1915.082886 436.566437
929.594788 1909.775757 346.589233
544.966003 2149.356445 430.472778
853.643494 1920.131348 430.335663
985.480591 2085.838379 467.052612
943.281799 1995.614014 166.893494
759.357117 1969.176514 382.124390
863.054382 1915.099121 313.611969
964.065125 1945.949951 397.270447
718.444702 1954.875732 479.665100
950.970642 1904.257202 429.454926
824.336060 1986.267456 483.191986
516.243347 2028.786743 389.773895
868.712463 1956.659424 589.521851
558.819336 1998.772705 487.064972
592.647461 1995.791016 523.023376
924.539490 1956.918945 221.315323
920.681580 1943.862671 190.799866
741.222656 1960.318604 428.343323
889.404236 1906.058472 436.874481
890.181641 1960.675171 182.069305
892.043152 1907.920044 276.047455
566.167542 2031.545288 374.784485
649.671204 2047.686890 580.362061
650.027649 1989.063110 516.462158
592.736450 2019.365967 317.819305
958.361023 2046.212646 271.208893
901.741760 1924.813354 189.157364
917.488953 2010.955200 458.069550
808.870850 1973.957642 493.087708
934.248962 1924.319702 252.015945
762.728821 1986.632202 299.003510
919.864929 1909.706909 262.629852
787.177368 1952.627319 224.867630
911.056946 1900.402832 333.862762
923.171753 1901.399170 402.564056
774.248901 1983.903931 275.735138
850.255127 1915.500122 391.388733
895.203430 1957.160645 473.520294
863.309998 1907.799561 413.845154
901.503113 1906.097168 307.622864
947.571106 1912.286255 419.586212
550.701721 1997.853760 425.416565
713.302795 1972.692505 258.660461
916.679688 1902.875366 415.127350
913.733704 1906.783081 281.319946
693.270081 2051.567383 539.357788
638.297485 1991.601929 513.333130
698.543945 1982.408569 460.662354
800.125793 1986.546143 345.018311
678.217896 1988.397217 414.226471
718.717590 1974.369995 406.273346
641.641724 1977.951904 489.907806
632.031433 1991.062866 275.927277
784.401062 1968.056030 373.656708
800.578491 1958.089600 257.812744
673.752991 1961.449707 487.071106
959.025513 2054.832520 170.378265
988.499023 2156.554688 294.163788
897.351074 2016.378052 469.227173
922.348511 1894.353027 313.877472
945.938477 1906.896362 435.349182
780.060425 1968.345459 320.559845
636.602112 2002.264771 238.295349
845.462708 1924.051758 380.716797
1040.591431 2045.297974 429.571045
504.230042 2004.795532 269.499023
899.699097 1980.057861 522.365479
777.070007 1965.022217 506.882935
764.736511 1947.394531 478.745087
867.033630 1914.351318 399.087158
912.379578 1981.543457 180.996796
913.516418 1915.359497 421.453705
859.796570 1919.014404 253.885147
906.812805 1901.878662 368.242523
605.584351 1997.437500 515.746216
631.752380 2019.743286 580.138062
945.038818 2097.045898 181.459518
721.729553 1971.275757 238.614136
955.243713 1999.118408 462.192780
980.154724 1958.337158 410.588806
938.111206 1922.645264 434.316986
850.012817 1926.159058 445.126556
756.056519 2008.169800 510.536987
963.448486 1949.822021 437.249725
548.648132 2003.700195 525.018127
974.394836 2096.847412 289.599335
717.920776 1982.760742 308.869110
916.404846 1968.831055 596.090881
844.009583 1917.629272 355.877075
1010.674866 2016.391846 425.955200
835.547363 1919.191162 194.929092
1017.530029 2068.572998 412.659668
717.910767 1973.472900 538.606079
871.364258 1908.195313 370.872772
966.655579 2045.929932 466.074982
910.929749 1903.182617 257.583221
591.634155 1992.953735 525.244873
998.991333 2166.333252 267.557037
751.877686 1940.349731 211.673172
685.868347 1973.301514 295.795837
553.955444 2006.501709 507.896057
892.945862 1926.460693 187.333878
818.041321 2068.076904 523.688354
661.230286 1987.984375 433.748016
876.159363 1913.804321 319.363739
660.266052 1988.043823 516.245422
642.828308 1987.157837 331.039093
1002.277893 1967.527954 444.192810
916.814941 1903.825562 412.869385
809.038086 1939.544556 199.863358
990.004333 2127.217285 312.146667
670.482056 1985.390259 262.511017
870.795959 1919.300049 235.949432
902.644348 1965.140869 603.309998
731.921143 1969.811768 257.582672
1010.500366 1997.103027 451.932892
957.985840 1963.613770 379.729340
956.832581 2026.279663 254.850449
947.194763 2050.064697 226.311234
826.491882 1978.361572 496.456787
889.043213 1981.902710 516.898071
966.925842 1952.899902 405.493835
736.673401 1967.169312 404.184906
958.505798 2077.257080 255.461655
614.411499 1995.930908 295.357910
992.930420 2181.786865 227.850113
824.185791 1929.400635 319.576263
526.799194 2013.561279 425.853119
909.211609 1900.557739 383.827759
995.684692 2010.145508 435.579254
651.628357 1996.509644 567.740112
1028.910278 2104.491211 424.609497
723.252136 1972.231323 407.454712
996.340393 2189.013672 268.615265
920.483521 1918.890625 330.788483
812.400818 2004.058472 499.145508
900.598328 1916.777222 446.111389
716.551147 1954.278198 474.667969
856.891235 1926.084595 222.136047
760.212585 1971.593262 241.559006
943.305054 1922.045288 307.376373
582.387024 1991.653198 497.589996
863.526306 1920.617798 410.550079
788.419617 1974.313110 408.264862
991.160217 2167.103027 181.020248
981.691101 2131.450439 267.985382
663.846802 1981.907593 397.850311
982.535278 2035.382813 352.939514
642.565552 2004.627930 539.934814
977.296021 2031.454468 449.969574
975.057312 2139.925537 182.246613
955.666931 1959.749512 315.656219
933.894470 1990.386108 228.499649
935.421692 2002.524414 460.309662
771.924866 1945.699585 449.189453
948.843567 1978.582642 267.771851
882.628784 2026.128052 482.914551
913.930115 1905.828003 378.306122
949.296509 1948.897461 382.070404
679.497681 1988.466553 313.503662
854.177734 1923.274658 369.053223
958.612000 2036.765991 509.077637
931.152405 1991.337524 170.686523
663.136658 1988.884277 409.539093
627.319763 1973.790894 494.108032
570.947449 2017.651978 321.302399
962.960449 1991.364380 457.675659
907.837708 1978.935181 543.966248
789.752869 1945.975342 465.557648
874.807617 1913.555786 402.850861
918.268127 1966.616699 179.096558
1012.074890 2133.661377 360.811554
814.729614 1933.580933 380.516235
561.591919 2024.534668 420.782867
962.538513 2093.038086 227.986633
704.237305 1985.129639 308.292816
958.453918 2051.473145 473.989624
686.745178 1954.567017 489.353058
654.984802 1993.844727 551.938232
819.731445 1965.758423 477.440887
719.852173 1975.313232 381.706055
915.518127 1946.453613 173.907272
566.879883 2006.518066 515.722046
952.051941 2081.338623 202.865936
888.687744 1902.116333 317.393524
924.358032 1893.885132 389.117554
812.273743 1947.789063 248.337265
902.542908 1922.139526 300.539001
878.871460 1904.199951 360.032562
790.812988 1949.661133 246.602814
670.030273 1965.816650 512.812927
760.490479 1957.982544 243.493225
702.783447 1957.390503 477.066284
676.463745 1991.939575 297.369293
977.204041 2159.814453 465.736359
734.310242 1957.173950 473.363831
974.683838 2042.869385 346.253845
780.276855 1946.391235 495.934326
1025.937622 2108.924072 444.958466
768.921326 1962.767090 350.723602
804.735535 1952.951782 273.737701
799.108032 1954.552856 491.082825
1017.612122 2069.927002 428.749634
586.616882 1988.614990 493.788239
635.434143 1989.007935 278.521179
839.451721 1915.916626 260.686066
911.606323 1927.870239 270.144562
767.146240 1959.189331 522.513977
801.201355 1957.631348 258.007233
901.741943 1936.812012 177.754669
967.779175 2053.761963 314.863647
915.178223 1909.383545 357.987366
590.355530 2014.188843 569.193298
936.458557 2044.123535 175.493164
859.273560 1913.498047 368.903839
764.389587 2023.490234 522.764343
627.650391 2002.784058 237.849411
933.036926 1921.676147 438.924744
931.310303 1982.635986 237.460388
882.264893 1959.107056 575.110962
626.338257 1997.007446 547.770081
789.753784 1966.699463 506.466400
612.546326 1991.025391 462.009247
944.018311 2017.955444 213.680527
941.005737 2048.821289 193.718521
648.567566 2012.451172 332.067566
940.875488 1969.836426 443.811554
906.588196 1929.593750 450.087708
934.519409 1897.606567 411.225372
577.535645 1992.648071 512.058777
928.306091 1903.023315 423.306488
733.018066 1951.467773 486.792145
856.462341 1908.416504 340.547211
706.299500 1961.974365 487.110565
931.784180 1898.810791 231.660080
713.794556 1963.811035 482.597717
885.301453 1932.910522 208.053528
735.488708 2040.547607 540.848083
788.518616 1949.881714 253.739868
961.619995 2031.768311 450.378082
988.446228 2154.313477 270.638794
935.310181 2027.738892 173.994461
903.161926 2016.346802 460.272552
