ply
format ascii 1.0
element vertex 1368
property float x
property float y
property float z
end_header
-677.719482 537.688782 2099.611084
-535.015503 423.821289 2037.092529
-652.147034 484.121399 2048.160400
-558.210693 239.724625 2024.600952
-690.133972 494.178741 2074.729980
-486.031189 480.820862 2034.838501
-278.270416 369.286987 2055.499268
-738.743713 453.615662 2018.595215
-711.497864 246.489990 2207.985840
-474.252686 280.704651 2033.253662
-664.487549 293.071869 1997.313843
-716.724487 277.695251 2225.620361
-312.178864 382.861176 2085.306396
-517.265747 555.812439 2033.435913
-686.554321 310.963531 1997.828735
-719.755066 445.872955 2019.311401
-725.464966 390.660583 2003.116943
-566.448853 447.191406 2031.278320
-526.800171 490.812256 2008.062622
-664.240540 400.118195 1992.850586
-431.801880 540.318970 2031.704590
-790.144348 429.390137 2144.983643
-612.943970 387.714355 1998.336914
-531.474976 283.749054 2033.129639
-268.922546 364.146240 2058.278809
-493.770599 544.492859 2024.477051
-540.812195 559.461670 2116.616943
-431.954865 628.776733 2101.412354
-434.003754 340.140991 2043.837646
-707.003479 260.880615 2126.258545
-492.762848 265.285950 2036.713013
-719.211975 339.467377 2078.676270
-696.211731 258.550537 2021.826050
-719.589844 456.832336 2098.623291
-505.266968 358.510345 2041.811523
-612.645935 371.777100 1995.973755
-579.578064 491.398773 2016.954590
-368.979645 547.874207 2030.550781
-706.735718 219.121582 2308.046143
-269.858826 382.976837 2055.031982
-544.888123 222.105453 2032.303589
-755.786255 485.696533 2148.796387
-756.665527 444.326965 2131.535400
-747.359863 372.626617 2226.588135
-415.838776 413.259338 2043.102539
-726.601685 350.397278 2119.482422
-516.012878 242.990219 2043.488403
-658.748596 179.711823 2027.321289
-579.891968 431.543518 2026.968628
-579.438599 216.286865 2020.951538
-686.040039 533.929810 2077.613770
-633.009705 402.586151 1993.437622
-465.475189 312.818176 2046.006226
-287.293030 421.511841 2237.156982
-442.461975 543.167542 2032.934204
-682.499268 515.477539 2044.656494
-711.278320 259.480988 2177.309082
-743.047302 358.416382 2244.967773
-448.780579 282.829193 2039.972778
-582.898438 334.668213 2018.705688
-489.314392 380.005646 2038.513306
-597.105469 484.170898 2022.057983
-697.935669 282.715546 2072.231445
-601.278564 527.679199 2059.164795
-429.938507 504.692993 2034.748657
-671.081848 498.630127 2105.126709
-335.009735 295.308228 2053.406250
-677.790710 187.047119 2112.191406
-685.541016 301.378937 2006.185181
-614.386902 398.149353 2000.208984
-744.462463 449.724609 2094.753418
-741.559998 352.846985 2253.863525
-773.439575 440.336792 2141.306152
-498.316589 393.361237 2045.252808
-550.396240 230.839294 2026.862793
-679.880066 574.943970 2054.365723
-575.409607 444.098785 2028.187256
-296.537628 477.654785 2057.223389
-402.977692 345.796661 2048.900146
-715.000671 310.101532 2129.883789
-730.950439 396.155243 2030.317505
-523.001709 276.233612 2045.300415
-406.632874 602.973572 2057.726807
-676.065796 442.063049 1992.804321
-549.770813 517.678101 2010.047607
-380.531921 626.226685 2068.407227
-749.221619 555.141785 2116.111084
-664.657410 465.963562 2050.056885
-716.048340 249.960449 2232.121582
-517.004883 478.709808 2025.001587
-381.654938 556.733704 2049.417480
-699.166443 259.453033 2161.007324
-696.215881 368.199585 1987.170776
-613.440796 473.969910 2006.320801
-683.131226 522.290588 2099.657715
-626.121155 472.270996 2009.209595
-728.278076 322.441742 2206.677734
-722.070251 287.703705 2266.185791
-424.787750 398.631683 2043.891479
-361.273163 577.931580 2049.082031
-690.273071 519.847168 2047.141479
-761.164307 449.955841 2181.510742
-756.427490 399.863129 2242.153564
-628.877014 356.757111 2007.767944
-412.290741 384.709869 2051.098877
-329.898224 522.675537 2038.215698
-449.648743 559.259583 2042.785278
-672.806763 526.110229 2028.911011
-698.969788 320.341003 2083.949463
-641.328979 187.724365 2027.279419
-308.623840 305.820099 2063.822510
-734.648193 434.748566 2011.059937
-573.219971 490.876831 2016.265015
-432.603485 379.329712 2049.249512
-558.412537 426.053497 2020.973633
-695.353333 380.849609 1996.759888
-659.668396 578.684753 2038.260498
-366.628418 282.933502 2038.637451
-563.317505 507.876678 2012.245361
-692.889526 232.666870 2119.765381
-660.305786 272.464294 1998.905151
-455.304779 305.552246 2036.952881
-568.858582 320.708252 2006.299683
-413.588074 317.576202 2044.933228
-560.563904 358.374786 2035.225098
-556.143005 446.354156 2034.204468
-326.328125 533.236511 2031.851929
-286.316742 475.430969 2051.364502
-690.671509 480.198456 2060.661865
-692.433777 288.058472 2031.991821
-451.587646 575.203186 2046.928223
-609.257874 259.800995 2028.331909
-683.780823 407.699707 1987.891968
-549.345581 231.840057 2038.906738
-772.372253 410.028229 2155.264160
-425.985962 518.815735 2031.437500
-717.599243 316.317139 2157.443604
-376.990540 337.294952 2079.181152
-585.318542 308.618774 1997.810547
-620.301819 459.725464 2003.503418
-580.682861 350.197235 2032.743530
-383.112488 549.432739 2027.217529
-563.680237 251.993652 2029.047974
-718.444885 420.225281 1997.252930
-666.900024 411.296173 1992.650513
-604.116272 220.034943 2026.084839
-337.686676 517.368713 2046.882568
-743.384644 401.681000 2130.564453
-603.629822 271.353729 2015.382935
-748.532654 460.485352 2145.582764
-683.007751 260.305603 2036.644287
-764.076721 521.111450 2156.437256
-730.424622 453.230621 2080.787842
-488.821899 341.603333 2048.208008
-711.184082 274.859253 2122.493164
-360.900970 421.839355 2054.217285
-415.381866 506.694366 2039.429688
-363.284424 503.741913 2043.435913
-650.709778 538.248047 2033.448242
-729.694946 453.199585 2071.820557
-626.110229 492.927673 2040.204102
-370.344391 313.541901 2062.280762
-438.259888 611.002197 2045.034058
-518.080261 548.358704 2045.665527
-347.704620 423.072937 2070.342285
-773.991577 439.880035 2190.385742
-730.162231 347.689362 2155.561768
-655.177490 282.876373 2000.275391
-685.721252 233.249146 2127.132080
-691.890259 381.036438 1999.709839
-435.467346 559.873474 2035.400879
-305.729553 460.018402 2273.193115
-733.578491 378.064178 2158.768799
-784.727173 428.646118 2219.158691
-746.271301 491.092285 2136.944092
-770.373657 467.990814 2166.821045
-503.173584 500.869904 2030.903076
-675.514465 195.700043 2165.874268
-682.814392 234.214676 2103.351807
-544.482727 524.940308 2023.593262
-503.112427 306.915375 2029.840210
-333.965118 495.960785 2034.260864
-675.738464 399.882904 1991.329834
-644.666870 253.027679 2007.285278
-726.602295 474.493561 2112.371582
-687.640686 345.377075 1989.273193
-368.802979 527.024658 2031.413696
-407.867279 459.721130 2046.291016
-529.971802 546.081726 2032.828491
-501.667023 303.489075 2044.322266
-589.518311 464.347931 2005.427490
-316.390930 449.240051 2035.361572
-656.771423 481.701569 2040.776123
-593.607056 333.187256 2009.603149
-700.757263 193.607391 2300.919434
-534.064392 470.977142 2017.578613
-616.481079 260.704773 2009.326050
-658.702454 219.814499 2015.847900
-673.032166 589.084534 2101.280762
-748.661316 373.582947 2245.908447
-724.183838 492.865479 2130.727783
-756.543274 439.517334 2056.000244
-745.546509 440.216888 2043.332642
-654.756592 399.688965 1992.327148
-775.332825 433.957947 2090.921143
-502.539124 528.451355 2010.448608
-334.137207 582.273315 2049.201660
-389.974091 518.310181 2040.798706
-421.033905 371.916504 2047.177979
-502.452393 348.371613 2045.694824
-681.008362 528.958862 2085.124512
-531.816956 564.283997 2078.700439
-433.218323 270.915436 2040.147827
-693.097351 583.484619 2048.103760
-692.026245 275.439789 2011.807007
-637.468079 231.574799 2014.958740
-675.675171 416.131989 1989.224243
-480.399628 271.366577 2039.081299
-695.314331 346.940033 2005.978882
-726.257874 377.620087 2049.301025
-759.478699 395.300293 2190.218994
-337.892334 342.947144 2073.171387
-760.750854 500.822998 2166.462402
-586.603821 471.311157 2008.098999
-727.098877 357.418701 2121.898438
-677.877625 389.607910 1988.480957
-661.323792 475.849670 2109.603516
-693.946167 180.926376 2155.026123
-642.352844 277.302795 2007.205688
-748.478516 447.400909 2105.567871
-323.022919 494.453033 2037.560791
-632.185974 285.605621 2019.349731
-714.214417 289.735321 2206.602539
-641.415344 537.149231 2083.111084
-495.514343 417.090240 2040.757568
-413.567719 605.813171 2047.599854
-458.799561 340.254089 2053.614258
-718.512878 385.770172 1993.441772
-305.675812 532.935608 2045.793335
-703.878723 560.846680 2055.719482
-685.345093 385.717926 2002.167847
-691.996033 368.891754 1999.570435
-551.027649 495.805542 2015.361084
-784.432983 417.101349 2234.358398
-624.934021 392.134918 2005.206421
-678.824829 203.395676 2056.218994
-717.985901 285.132416 2147.232178
-465.186462 571.971924 2054.877686
-416.570984 368.668243 2051.688232
-656.038330 493.956696 2069.920410
-326.966278 322.718842 2055.058105
-480.315979 243.927078 2049.264404
-327.282379 468.410278 2092.134033
-383.337006 447.005066 2048.207520
-447.608429 604.349121 2070.354492
-722.700989 262.225525 2197.338867
-565.273132 307.203461 2009.866577
-596.987183 384.406952 2004.070557
-680.285950 410.505432 2004.553955
-685.040649 542.110535 2049.744141
-730.443115 385.098511 2076.192627
-479.518524 565.257568 2044.715942
-751.778992 460.673737 2162.703369
-654.324341 553.157776 2104.246094
-733.442566 328.723999 2249.960938
-612.185364 247.844681 2033.380127
-487.083374 266.083557 2039.317871
-646.970642 529.155518 2116.541992
-504.351318 478.337616 2026.684448
-762.481995 439.511169 2119.217285
-365.220215 286.122986 2037.818359
-675.639771 189.675964 2123.257568
-774.768799 420.810516 2105.489502
-689.862793 348.464294 1991.909180
-407.096863 557.335571 2033.544312
-734.903931 508.696289 2138.900635
-751.114990 412.135773 2128.204590
-448.326447 339.240997 2035.449585
-723.326172 304.485199 2216.354248
-570.879150 307.689636 2035.706055
-713.964661 268.703705 2275.014160
-676.682434 203.374435 2044.987915
-399.742249 431.586273 2049.244629
-411.831146 346.386627 2055.986816
-642.327393 413.617279 1993.435547
-492.699615 486.848114 2028.374756
-650.859497 487.589355 2049.942383
-642.075562 500.831146 2040.438721
-289.713226 412.324677 2054.917969
-547.717407 303.330902 2047.536377
-524.002991 387.235321 2044.422974
-628.115784 392.254761 1993.786011
-664.387146 470.335205 2089.977539
-729.987305 402.054382 2008.976440
-365.925323 330.835785 2052.565186
-439.939758 299.074890 2043.334717
-610.501038 266.998474 2014.102173
-452.719208 400.126404 2052.897217
-541.050842 471.959045 2029.869629
-508.885498 442.460846 2037.271240
-421.490479 403.227631 2048.458496
-654.212830 439.647125 1996.976318
-633.960999 494.871643 2049.549805
-655.851318 463.305817 2008.891235
-486.353424 371.924805 2041.949463
-440.765137 576.533569 2049.576660
-427.073608 619.878723 2078.075928
-507.791443 251.953415 2009.318115
-409.113342 269.038361 2027.632080
-769.217224 420.015045 2052.530273
-516.031555 294.246307 2029.502441
-748.370239 532.044312 2119.389893
-613.621338 206.799469 2002.573242
-603.997314 358.293091 2004.449463
-659.661316 479.226349 2102.347656
-642.302246 492.449615 2063.663330
-529.055237 374.580933 2037.040894
-755.759766 490.803925 2183.065918
-614.567566 339.159515 1997.400391
-544.366638 529.982666 2005.870972
-636.224731 392.857086 1997.395386
-486.252563 394.337708 2037.419312
-745.997253 447.199036 2120.500000
-433.139893 461.987427 2055.668457
-604.051819 520.600708 2061.704346
-725.737854 287.143921 2290.856689
-334.475311 470.223145 2063.540771
-722.205078 402.323700 2021.979126
-373.269409 385.948975 2054.343262
-575.548279 349.826996 2032.424927
-579.355652 513.605408 2059.741211
-722.413025 386.524536 2015.202637
-542.297913 528.389526 2019.050415
-685.379456 194.823349 2243.569092
-322.574310 472.538086 2065.735840
-665.567078 489.000732 2057.623047
-457.262329 468.313629 2037.128662
-709.462219 294.297852 2156.341309
-408.470917 364.758850 2065.885742
-789.515015 429.500244 2116.510986
-731.874695 431.863739 1995.420654
-408.584167 566.007629 2029.062622
-526.145325 262.313934 2030.426514
-369.990173 569.139771 2037.278564
-298.624542 459.790161 2088.877686
-685.190308 559.015869 2061.567871
-692.395203 400.788483 1993.054688
-673.611816 507.935974 2056.374023
-729.256836 335.555786 2198.594238
-357.930023 531.845093 2030.848999
-283.705780 330.347351 2062.559814
-740.277344 349.666138 2164.238037
-744.945496 368.282227 2153.132324
-731.223267 359.918518 2124.913330
-570.171509 233.520386 2015.377930
-342.070374 335.449066 2049.052490
-654.435913 423.345734 2000.362427
-367.071289 297.545013 2011.108643
-715.564758 370.355438 1995.777832
-566.135498 479.166748 2011.461060
-551.231384 232.861954 2043.226563
-438.517090 320.640015 2051.257080
-680.575500 408.506927 1988.598999
-757.263733 437.737488 2052.227295
-668.960876 449.468384 1996.784424
-750.848328 466.941101 2193.656982
-655.154175 358.748047 2007.611816
-602.221191 385.095215 2006.131592
-304.861877 366.321686 2060.368652
-685.796082 375.417847 1989.937012
-691.390076 430.019653 1991.039063
-612.258606 499.424835 2057.768066
-583.564758 512.341736 2062.490234
-708.302185 285.646545 2171.079834
-657.944153 625.822571 2035.994141
-636.102539 320.425812 1997.162231
-622.861145 451.799255 2003.962891
-719.681274 343.042542 2110.466064
-676.852234 179.531036 2081.960449
-698.627014 537.593811 2111.593750
-658.972778 186.320862 2033.886719
-558.140808 279.064026 2036.114502
-680.951599 281.878174 2014.381470
-731.785156 385.418579 2102.056641
-374.144806 469.731232 2040.063721
-679.120361 240.979950 2059.810059
-688.419739 419.242584 1990.614502
-605.327637 477.896759 2003.857788
-622.061707 382.567871 1998.005737
-611.972595 199.006226 2024.163086
-544.962341 543.084229 2051.664551
-627.979553 195.425278 2034.271484
-655.622314 203.398285 2016.555054
-760.499878 510.257355 2179.544922
-470.685364 497.117523 2021.897827
-474.493530 542.237061 2043.794678
-355.252106 338.708191 2086.993652
-492.061859 561.822754 2081.029297
-712.438232 345.404755 2120.187256
-753.210754 389.914612 2232.440918
-482.495483 286.568420 2039.433472
-682.348328 254.496536 2010.348999
-571.772339 527.757568 2061.826172
-716.011536 343.964325 2029.953857
-364.662109 547.118103 2041.467163
-384.450104 277.637939 2060.978760
-662.163391 469.744751 2079.436279
-679.593994 297.055115 2001.690552
-438.500671 383.523773 2049.589844
-419.689667 392.953674 2041.060303
-744.547729 315.024658 2276.800537
-542.615295 235.455383 2041.349731
-664.454529 183.388519 2087.598877
-327.343903 527.848755 2036.621216
-334.100433 556.590698 2034.831055
-402.603119 533.000061 2019.882080
-740.553711 401.497467 2095.654541
-292.090790 486.832153 2045.380737
-491.288177 511.322052 2019.494019
-569.838562 376.719940 2049.905029
-693.242004 438.465485 2006.027832
-391.667236 361.208344 2049.031006
-531.427551 522.759949 2005.634155
-410.709686 408.430847 2049.970703
-703.290344 239.434769 2262.940430
-676.674561 335.472137 1987.666504
-727.002502 315.118408 2155.295654
-563.515564 465.675537 2016.336304
-736.429810 366.696533 2156.044189
-322.721436 325.420227 2052.456299
-693.331543 581.508728 2037.536865
-372.744690 398.530518 2085.497314
-670.502808 494.711517 2075.829346
-601.379761 294.150574 2012.535767
-714.178467 234.422592 2279.637695
-576.013062 468.639130 2022.990845
-516.785400 322.081573 2050.591309
-628.719421 284.051331 2007.559448
-663.948303 202.366791 2026.428589
-512.177307 516.796875 2008.857544
-564.039795 530.165649 2030.483521
-636.986877 484.288391 2040.188477
-674.258362 428.299438 2004.455444
-462.614105 524.335754 2022.286377
-452.726135 581.801025 2054.968750
-686.200012 246.990189 2093.654541
-291.615570 372.232391 2061.990967
-331.300446 483.391174 2039.016235
-530.633362 531.411377 2015.413818
-756.731262 485.478851 2120.695557
-484.448914 429.868896 2037.448730
-489.440674 566.697510 2034.042236
-711.037231 407.940796 1989.654419
-713.740967 280.037964 2146.101807
-546.757874 378.860382 2044.003052
-393.810516 604.617004 2039.137573
-578.869263 225.952560 2037.888672
-718.939636 285.238434 2231.601563
-609.195435 230.551361 2034.606201
-689.599487 414.637695 1993.976929
-320.668518 422.156494 2046.798950
-685.486938 418.923584 1991.926025
-478.446442 458.335114 2039.089966
-505.462189 332.505249 2052.683105
-325.681976 552.604675 2228.511230
-704.819702 243.433792 2266.830078
-728.733154 454.337646 2055.983887
-743.767883 399.122314 2116.391357
-450.917175 584.417664 2078.209229
-706.032410 238.168884 2256.815186
-423.815735 536.702026 2039.077026
-447.494080 487.840332 2045.570923
-676.987427 313.225830 2015.347290
-426.642181 482.321777 2036.304199
-358.309937 588.247253 2047.488892
-705.899475 310.578400 2044.527100
-669.251038 179.978500 2050.591797
-389.748444 531.246460 2035.529663
-721.170227 467.511353 2118.653809
-492.021027 567.756409 2094.040771
-693.611572 566.592957 2036.886719
-686.034729 221.748123 2146.520264
-664.088806 253.680435 2013.074341
-601.667053 353.332153 2001.411987
-555.424194 452.368134 2030.833862
-665.908020 524.935608 2070.254883
-768.037720 421.893585 2093.419434
-523.252686 492.496765 2028.095459
-662.815491 472.426086 2042.600098
-724.801453 338.428345 2149.018555
-744.210632 459.814453 2242.447510
-328.848175 468.048645 2050.186523
-570.610962 297.245270 2022.300781
-685.090454 202.876236 2226.263672
-544.576965 222.861572 2021.854980
-399.646118 376.829193 2070.920410
-406.107758 528.049133 2029.512329
-388.699677 447.318207 2057.011719
-315.724762 530.577026 2053.416016
-779.007996 450.798065 2211.620117
-752.321960 380.587646 2260.636475
-455.180115 521.401550 2016.439575
-783.434875 428.739441 2144.982178
-569.085388 229.423264 2039.588989
-567.784363 410.717407 2072.106689
-565.738770 545.665894 2041.967896
-805.226746 432.973724 2225.390381
-696.732056 325.519745 2027.820679
-694.231812 288.893707 2040.502808
-439.740814 402.937653 2055.521973
-366.101563 478.694183 2055.165039
-422.835815 464.031219 2035.309570
-689.300659 549.157532 2052.069580
-625.897400 434.332214 2002.422607
-352.769501 456.065216 2047.985229
-727.668274 305.307922 2277.784668
-362.905090 505.329407 2046.760376
-706.161133 261.638611 2206.419922
-625.606812 495.509796 2037.484741
-486.225739 501.464264 2022.624756
-704.587219 421.943237 2007.008301
-574.766968 515.009644 2037.369263
-449.533691 394.117706 2046.228394
-770.074829 517.300964 2175.724365
-675.775574 486.838074 2070.194580
-734.914307 499.878998 2130.219727
-804.030640 422.269226 2226.510010
-464.952484 382.533661 2041.552979
-600.768372 383.291626 1990.122925
-671.111328 572.005981 2065.251465
-576.169617 397.007172 2026.271606
-485.442322 544.777588 2022.801392
-386.201874 294.663330 2039.718994
-658.802307 483.105865 2102.487305
-750.293823 370.079590 2266.389648
-441.898865 294.422852 2037.878540
-572.629028 224.279190 2035.726440
-342.635681 413.732483 2071.848633
-682.770325 311.358551 1989.544800
-714.041687 458.970703 2018.712891
-741.318298 362.943848 2200.463379
-493.655853 450.747833 2029.179321
-650.232971 231.918549 2029.904907
-484.748352 548.997498 2024.418945
-687.950867 562.127075 2059.730957
-364.024170 529.690552 2033.675293
-404.738037 333.439545 2051.886475
-416.708984 622.412170 2065.759033
-729.344360 448.554443 2028.777344
-316.863495 353.557800 2084.562988
-622.487549 229.509613 2014.250000
-655.218018 463.402588 2014.179932
-329.422546 413.979340 2079.817383
-530.753296 573.817078 2097.076660
-370.846802 313.472961 2046.352661
-411.076172 374.694824 2072.061035
-325.915039 463.645020 2092.465576
-364.695099 460.010071 2058.366699
-333.496887 566.461914 2044.343506
-736.699768 399.389618 2053.481689
-713.073486 454.953339 2054.441162
-657.049500 206.992218 2042.934448
-718.591614 296.908020 2196.544189
-623.255188 438.664642 2004.675781
-455.334381 329.314514 2049.533936
-671.051514 247.865601 2002.078735
-698.656738 248.909332 2116.893799
-470.830597 527.758911 2019.686035
-604.003967 484.933228 2017.591064
-417.796631 559.805359 2047.000977
-334.828674 482.152985 2039.492676
-739.655823 366.335205 2180.590332
-512.026367 237.126312 2038.717773
-769.372131 455.542206 2222.181396
-694.760986 467.811707 2105.616211
-534.942810 553.552185 2091.470947
-682.196533 231.121323 2102.513428
-561.276672 328.129211 2043.296143
-663.374023 375.370270 1994.329590
-694.145020 211.226135 2279.990234
-604.002075 503.674103 2043.276001
-762.284119 521.023621 2153.312256
-443.263550 520.520630 2026.652344
-696.304077 204.733505 2302.580078
-693.585022 291.917084 2031.471802
-638.177185 477.849823 2011.469482
-722.108459 304.409698 2227.218262
-456.938446 318.437042 2045.469482
-664.582642 502.723358 2043.895386
-684.495117 190.030273 2158.058350
-476.654694 305.970093 2037.245361
-739.184509 380.430542 2148.418457
-280.614014 403.007141 2057.921387
-685.073364 229.536194 2014.371826
-340.814514 343.197357 2046.874512
-663.205566 461.084106 2001.428101
-624.806091 450.663239 1997.018799
-653.170349 479.725525 2037.325073
-567.039917 298.103363 2011.015015
-525.884583 555.533142 2028.072754
-467.776550 337.944397 2033.981079
-592.602051 455.230927 2013.154907
-307.620300 345.945435 2064.123291
-460.288055 330.477966 2047.215820
-711.369019 282.387543 2194.513428
-767.915039 455.341644 2169.155029
-688.089172 459.654053 2030.470459
-732.900696 501.071503 2140.565918
-701.352661 470.612946 2060.652100
-725.702698 304.666718 2226.938965
-478.824890 405.975586 2038.995972
-762.860779 518.562073 2143.617676
-678.731689 489.578430 2048.611816
-552.978027 401.763367 2026.153442
-617.601990 301.793243 2015.646362
-422.954712 264.825287 2041.712158
-745.653015 322.725250 2269.418701
-413.526306 385.737915 2069.098145
-691.086304 314.775665 1997.157471
-642.951294 315.108063 2002.307373
-570.568970 214.935181 2040.141357
-696.682556 457.982483 2033.610352
-397.798279 316.038757 2036.361206
-555.864685 325.326660 2018.569458
-772.533386 443.118561 2093.766357
-299.817627 456.689484 2049.567139
-768.905273 435.834534 2119.523926
-740.648743 387.872864 2123.119141
-596.398743 253.656464 2022.529297
-723.451355 332.953552 2137.910645
-729.635681 426.684540 1992.231323
-723.000732 454.131805 2068.009033
-280.021179 341.984741 2052.213623
-423.006561 334.600922 2049.886475
-383.197449 299.674805 2052.197266
-671.053772 478.564850 2069.628662
-365.083588 560.183167 2040.173096
-481.187897 346.377167 2042.594482
-660.468384 480.186615 2039.853516
-641.309570 443.477020 1998.930054
-697.995300 278.376556 2104.574463
-786.042297 431.876678 2184.877441
-720.746521 327.635681 2127.431152
-645.951294 425.996613 1998.584961
-695.225525 189.828751 2191.921143
-341.355560 318.739838 2052.203857
-505.685791 550.547913 2049.991455
-393.787933 525.106567 2031.388672
-460.910767 576.390381 2056.654541
-664.518372 423.345551 1997.705933
-652.426575 481.905945 2040.747925
-731.883240 391.336945 2137.546387
-715.638855 314.399811 2251.781250
-658.517334 199.725220 2043.568115
-661.406860 225.532379 2008.823853
-722.306519 328.120605 2145.128174
-673.431152 201.491638 2127.479004
-748.379211 482.152893 2158.461182
-488.853760 536.371460 2018.543335
-567.886047 398.950378 2026.508057
-740.891663 391.199860 2189.113281
-761.912537 445.915131 2086.832520
-530.694885 483.159149 2022.803955
-714.270325 327.917969 2083.081055
-403.289154 552.982666 2034.762085
-625.050842 445.676636 2005.466187
-450.282379 420.556946 2049.428711
-456.232727 380.098785 2041.364502
-658.735962 179.823898 2028.612427
-589.710571 490.002563 2014.225708
-552.469238 468.308136 2014.889160
-474.511536 377.423279 2036.168457
-685.968262 276.442993 2093.538818
-744.283264 355.939026 2241.634766
-456.295044 353.529755 2048.322510
-703.954102 286.503571 2126.176025
-637.925232 496.623993 2061.956299
-413.432404 562.139832 2033.488159
-694.861389 581.782166 2078.935791
-713.294495 432.961304 1996.029541
-674.658508 529.407593 2042.738525
-562.003662 356.909454 2033.087158
-683.132385 232.675186 2084.466797
-701.368530 414.376740 1996.482910
-486.671082 548.077026 2023.376221
-327.135895 446.277618 2054.651367
-595.169800 332.898315 2005.731079
-811.480164 424.696808 2153.406006
-393.455383 621.011597 2064.518799
-596.256470 211.747849 2026.781616
-444.772888 564.910461 2053.588623
-663.817993 181.404221 2068.355225
-663.540283 512.519958 2036.297852
-460.448700 267.105774 2002.715088
-533.764587 259.578033 2034.849731
-288.218170 336.730255 2063.894775
-568.674561 502.151978 2012.448853
-713.349121 268.007660 2249.359863
-677.807983 203.090546 2007.941895
-336.906097 545.921692 2030.658569
-674.948730 499.684082 2060.639404
-515.167725 509.992554 2022.442383
-663.833557 634.923096 2033.465332
-395.686859 401.976593 2051.928467
-433.298615 262.742279 2044.495605
-730.097778 311.147400 2187.447754
-456.139313 254.339096 2028.141724
-711.144592 469.469727 2106.958984
-664.438416 423.296936 1993.544556
-346.848358 456.521576 2044.212524
-401.444244 579.865723 2033.686401
-685.119934 269.783691 2004.977295
-717.268005 470.514221 2133.242188
-554.168213 559.022583 2035.512695
-678.148315 228.470688 2091.378662
-333.515594 362.881012 2062.087402
-642.698303 247.940323 2008.008911
-748.679810 488.252777 2112.279053
-576.196472 448.509735 2018.910645
-663.642639 333.428406 1994.293945
-566.500549 234.554138 2015.110107
-538.298340 364.713196 2030.328491
-465.015778 257.544373 2046.961792
-340.286560 610.823914 2180.415039
-695.465088 321.420380 2028.666016
-661.035889 404.029907 1999.805664
-745.860840 402.348541 2148.849365
-521.511597 441.173553 2029.045898
-421.892029 604.301208 2051.147705
-719.014404 335.115234 2116.873779
-669.951660 533.055908 2046.057373
-293.665344 451.957062 2209.804932
-527.994873 325.521606 2058.121826
-661.003357 391.409363 1994.803955
-330.129150 303.136627 2060.078613
-591.618713 212.120361 2021.551025
-673.642029 291.260956 1995.229492
-588.656311 447.777924 2025.501221
-801.140564 422.975677 2184.376953
-430.104034 611.062988 2058.091553
-472.436523 515.234009 2013.959351
-541.646118 230.603424 2006.781738
-649.082703 193.563187 2005.096680
-461.606567 480.948761 2033.498047
-451.072754 601.084961 2107.093994
-709.955383 251.147369 2186.823975
-720.131287 372.839264 2027.585449
-506.717377 531.706177 2012.603027
-419.487732 284.205200 2048.600586
-648.304138 470.222290 2021.456177
-695.494507 192.345779 2209.320801
-636.194031 468.749237 2000.034668
-698.925537 262.344025 2136.397217
-677.054626 231.192413 2084.910400
-695.446899 287.450989 2134.040771
-661.154297 201.583633 2047.999756
-616.913452 412.283752 2005.195313
-453.259430 570.303833 2060.767578
-650.363586 549.827454 2050.246094
-335.493652 298.677582 2072.009033
-682.191589 339.059509 1991.268555
-711.625671 588.734802 2047.569336
-450.651733 560.838989 2041.058472
-727.977417 473.442596 2249.230713
-703.306458 300.265594 2091.787842
-741.765076 330.868378 2219.357910
-687.134705 233.805847 2127.190430
-626.758850 445.747406 2004.497192
-514.805542 552.709290 2022.446167
-409.711395 604.101685 2047.740479
-415.117188 549.274536 2044.835083
-757.794006 444.758026 2043.855591
-651.967285 472.882446 2059.801025
-679.053162 241.220947 2056.314941
-344.156677 446.487976 2063.794189
-753.716492 522.564819 2138.809082
-720.585876 249.065109 2266.113525
-477.702698 524.143982 2034.741089
-536.722046 418.000641 2028.926880
-698.057434 446.733215 1994.404053
-702.490784 307.161804 2073.525879
-454.553955 270.502258 2054.337402
-471.454071 365.764862 2036.053955
-539.099182 523.327087 2016.009766
-699.218506 424.548126 1995.241333
-693.246155 246.657318 2143.188477
-373.334564 453.170532 2041.588257
-636.497559 288.859802 2005.161621
-716.869751 454.567505 2079.502441
-431.504333 589.996765 2038.769165
-600.467957 481.715240 2008.094360
-519.237976 277.065399 2045.456665
-725.547729 351.941223 2064.332031
-750.752319 472.640350 2107.956543
-756.705200 493.531738 2174.886963
-595.258545 307.819214 2015.718750
-316.665070 417.683228 2090.122070
-699.799500 334.207306 2058.125488
-362.219818 567.594910 2048.994873
-697.429871 585.072327 2035.045776
-559.532227 530.752930 2029.413940
-523.754211 529.491089 2026.858154
-681.717590 532.940186 2053.623047
-406.147491 378.548248 2052.038818
-673.264648 417.577332 1992.379517
-594.166992 442.217163 2015.271606
-682.334717 193.958069 2206.273682
-642.732483 509.554077 2038.876099
-576.162537 492.301056 2016.768311
-366.794098 292.295166 2044.343750
-653.714355 223.160492 2015.880249
-670.743896 514.534302 2104.599609
-426.326630 496.206451 2049.660889
-741.652222 351.872314 2225.925537
-510.039673 429.493561 2033.012207
-305.403931 327.077606 2055.289307
-502.693695 443.079407 2032.887695
-742.324524 454.564819 2130.089600
-702.493530 224.606659 2287.051270
-706.060791 306.784576 2097.422607
-685.999817 227.592712 2111.250244
-443.703949 547.041138 2034.510376
-667.798645 196.644577 2134.672852
-755.340759 498.732788 2190.833740
-682.457947 469.898865 2043.036743
-749.218933 493.793304 2128.344482
-684.693787 243.293167 2030.055908
-745.401306 376.790497 2226.837646
-777.336914 437.851807 2112.977539
-361.362885 342.739746 2041.651001
-723.178040 463.290009 2061.139893
-715.950623 295.916016 2124.243896
-566.434143 302.406281 2043.789307
-724.669678 379.689331 2070.427979
-616.862610 464.764404 1999.782349
-615.224609 242.491318 2021.948975
-695.653442 232.945724 2190.710449
-497.336731 406.907928 2042.848511
-629.209167 322.237152 1998.117310
-478.536041 488.042450 2032.687622
-660.919922 456.771759 2014.185669
-703.558472 310.786499 2073.161377
-727.410522 357.531586 2125.812012
-742.930725 558.895996 2114.906982
-702.743835 473.779022 2097.114014
-650.390320 460.762329 1998.670532
-291.981659 382.659393 2058.896240
-684.035950 319.639893 1988.270996
-710.715881 417.491852 2007.379761
-706.952942 293.765045 2120.683350
-666.532043 199.395248 2110.207764
-643.290588 556.751221 2046.034302
-648.989258 506.064453 2039.614502
-486.939545 336.563293 2043.963379
-297.971680 347.169586 2060.805664
-721.511353 318.933624 2109.206055
-751.331787 436.516235 2038.562256
-693.705566 421.057037 1986.335693
-587.345764 344.775269 2016.777222
-352.423096 353.111938 2044.288208
-627.037415 456.184814 2005.888550
-485.711975 519.932007 2018.982788
-458.417633 570.407349 2047.685791
-532.753418 559.024658 2112.005859
-621.056152 484.150543 2034.342529
-757.198914 518.290466 2113.627197
-671.998230 201.135330 2140.411865
-674.435486 180.285278 2070.049316
-767.423706 513.688354 2123.608887
-435.219421 339.962891 2050.309814
-501.743011 551.153259 2047.772217
-633.887634 399.645691 2003.649292
-644.890015 512.325439 2036.298096
-682.143921 522.770569 2055.953857
-586.569519 468.568848 2005.944702
-788.661316 433.236298 2211.485352
-738.332947 349.639923 2216.301758
-621.935547 481.069427 2052.231445
-677.960938 256.820496 2032.030762
-668.627258 540.582275 2045.405396
-736.550415 346.138062 2211.922852
-594.244019 532.509705 2084.447021
-669.657654 184.386688 2060.356689
-699.973206 291.316376 2042.395874
-674.390503 225.705490 2061.274658
-715.508057 395.274139 1999.448364
-735.502991 384.261261 2063.373291
-388.764526 600.916992 2047.113647
-443.472046 282.604980 2057.941162
-682.238342 451.999756 1999.243774
-633.602417 478.291107 2029.781372
-556.684814 540.453430 2024.113770
-437.033356 571.355103 2042.320923
-755.027100 497.904236 2144.296631
-356.423004 336.653046 2046.854614
-367.193298 482.518677 2055.219727
-555.918884 489.119141 2014.388428
-467.320953 293.113312 2034.959229
-406.571411 540.491516 2025.296631
-361.531952 570.706299 2037.670166
-366.117371 542.884399 2029.550537
-712.765747 311.790039 2097.425049
-663.577820 502.000427 2039.831665
-595.885132 232.109451 2024.394653
-724.897217 296.426117 2245.064941
-751.904053 454.673248 2145.710693
-669.335571 175.308868 2024.870972
-340.584198 297.063171 2058.862793
-716.000977 340.070984 2072.111328
-694.981750 206.806107 2291.514893
-603.902527 472.649933 2009.497437
-337.142029 554.858643 2032.796265
-799.833008 439.602325 2211.708740
-727.949524 339.587555 2158.346924
-728.622498 570.231750 2108.197510
-597.711853 250.476440 2035.006348
-658.527100 344.677490 1996.513306
-426.735535 300.689575 2039.662354
-604.406372 297.262665 2007.318237
-494.538788 570.899841 2112.399902
-649.014465 409.947113 1999.358398
-692.479065 429.104980 1992.132202
-452.346008 443.604797 2035.284546
-673.421021 510.445770 2074.438721
-688.614136 208.434784 2211.124512
-765.751709 505.477661 2125.589111
-531.319031 280.782288 2030.434326
-783.944946 427.997253 2113.569580
-452.487549 346.898560 2051.928955
-278.743256 454.806610 2061.376465
-369.334167 603.837219 2050.366455
-643.159973 433.953156 2003.398315
-720.713196 479.368805 2121.964355
-776.932983 414.984894 2172.983887
-717.445251 280.040222 2251.340332
-613.257629 469.748749 2010.725830
-729.536499 309.168213 2281.807373
-709.406616 251.402054 2241.240967
-593.756836 413.816742 2003.842651
-727.954956 509.979858 2126.725830
-516.212219 551.975769 2024.614014
-700.830322 305.652771 2129.618164
-744.700684 390.269958 2148.294678
-573.122253 381.176544 2027.665771
-504.638245 239.280746 2036.493652
-568.385376 533.886963 2021.545532
-687.659546 204.392944 2137.133057
-708.679077 332.042389 1998.677490
-670.134766 396.551636 1991.307983
-455.510803 379.029907 2043.597412
-710.523987 255.309189 2182.098145
-611.133789 318.814301 2005.022461
-765.317993 389.320709 2243.067871
-500.125946 483.964264 2021.390991
-767.472412 472.302521 2150.130859
-662.467834 217.107452 2051.192139
-718.648560 339.792603 2074.683350
-608.050415 508.377228 2060.306885
-758.553894 529.119324 2146.915771
-535.848633 388.480347 2044.227051
-776.424622 462.057129 2119.205811
-672.004272 541.893005 2039.001099
-661.392395 506.748810 2041.125854
-425.202026 272.216888 2051.765869
-583.047241 459.732117 2013.002441
-775.682739 436.505646 2108.708252
-481.844238 439.835754 2041.753662
-656.393555 217.998825 2022.180054
-508.489899 475.985535 2027.631714
-671.460815 201.926407 2117.610840
-777.869751 430.705505 2119.702393
-384.049255 517.064392 2024.949585
-691.545837 482.146820 2053.205322
-433.844208 608.083679 2075.598633
-480.348114 249.939331 2046.814453
-511.626801 552.599060 2052.410889
-450.503693 594.383057 2065.614258
-534.726929 271.982574 2030.068726
-745.099426 440.316803 2050.036865
-605.853760 537.415588 2099.213135
-732.211487 494.020355 2134.267578
-723.916992 283.149933 2287.477051
-430.427643 508.821777 2034.384277
-765.898010 443.794037 2183.680420
-423.871124 307.982117 2035.607178
-423.439148 442.697052 2044.879395
-468.765320 462.282806 2052.666748
-668.363525 192.669571 2027.772705
-688.329407 178.693848 2123.446045
-726.699707 363.641205 2102.261963
-264.945557 371.546021 2191.503174
-458.307037 506.919678 2030.370605
-726.517273 443.431488 1999.222656
-726.394836 410.486389 2013.595703
-720.164185 291.642578 2163.485840
-729.988220 316.686005 2247.358398
-474.662842 251.201004 2036.399902
-713.690735 289.101288 2182.310303
-682.363098 177.655045 2079.288574
-772.716980 440.804688 2199.975586
-400.680878 608.097900 2063.131836
-705.975769 277.046936 2152.537109
-352.310150 353.050873 2066.836182
-739.588196 365.733917 2198.552979
-682.001099 305.217163 2000.246460
-699.751343 282.930542 2085.327881
-784.328003 420.839233 2238.360840
-325.201416 356.825012 2045.787964
-698.543884 298.461212 2041.353882
-710.824402 259.590424 2173.266846
-716.023926 371.125458 2016.543457
-677.856873 203.229156 2182.506104
-768.662415 524.814148 2156.107910
-627.982605 231.123596 2023.366821
-662.865662 382.714661 1992.162720
-465.999207 329.117188 2048.599854
-743.898743 355.884796 2237.511230
-576.224243 498.423615 2012.544678
-685.617371 459.816528 2019.508301
-664.589294 224.026321 2016.129272
-554.012695 384.261292 2043.309814
-574.314148 285.772980 2017.984253
-307.429565 505.179718 2056.031250
-410.119049 605.729736 2070.497559
-640.310303 520.145813 2056.975098
-294.624176 489.293274 2140.352783
-514.675598 319.991272 2030.864746
-751.138184 459.687836 2193.711670
-484.390961 549.334717 2048.476318
-696.953857 302.569122 2056.770020
-688.143921 275.082214 2005.682007
-467.509491 375.815399 2046.639771
-709.987122 335.668640 2060.056885
-417.641571 620.996826 2110.644531
-559.298035 216.639130 2041.625122
-581.241699 504.235382 2024.545654
-748.713745 331.105743 2268.976563
-635.726013 357.940399 2007.382935
-685.860901 529.125000 2094.308350
-673.483032 200.885559 2135.517822
-520.329285 487.442139 2019.547974
-673.185120 199.933350 2096.006592
-624.054932 284.366974 2002.105957
-503.168152 453.748383 2027.190674
-369.080933 317.633240 2046.402100
-701.203735 189.879791 2274.148438
-459.575073 521.698792 2025.396973
-698.151428 222.308456 2180.628418
-656.782959 445.294739 1991.860596
-395.515015 566.500977 2035.163452
-718.166748 331.704041 2104.081787
-458.545380 356.005249 2045.875000
-461.938049 385.659210 2056.215576
-555.275757 456.306274 2029.134521
-666.686035 319.551331 2013.176758
-484.326233 514.846558 2020.119385
-423.138123 483.698059 2036.537598
-665.523926 241.375122 2032.481079
-384.587463 600.635803 2038.498535
-707.725464 194.245697 2282.141357
-669.019653 283.668793 1996.621460
-541.949524 256.113342 2031.920532
-354.826447 422.033417 2054.933838
-751.214050 358.868164 2224.955322
-615.085693 280.421295 2009.679810
-618.185486 203.689713 2021.094360
-597.120789 481.514160 2012.642700
-718.517395 286.165039 2225.965576
-600.672607 392.384644 2063.380127
-524.934082 557.598267 2084.150146
-391.856659 491.139435 2042.865356
-495.599060 429.842865 2044.709839
-455.374939 573.500305 2055.944336
-665.780457 216.335892 2027.957275
-494.141205 503.309631 2021.371826
-333.004150 540.149475 2032.790894
-577.447144 560.130188 2066.571533
-682.175171 198.063202 2276.728516
-716.646912 230.943832 2292.763672
-491.995697 429.880981 2031.314331
-701.990417 265.020752 2103.016846
-702.322388 399.775909 2004.254150
-638.825012 336.406036 1995.720825
-472.878143 451.263214 2039.093018
-452.082489 331.266479 2052.018066
-575.963135 497.265533 2012.314819
-336.371613 341.854279 2058.032227
-678.934021 532.539185 2066.358643
-720.422424 277.695099 2296.105225
-738.793274 417.420105 2034.820801
-337.085449 579.108582 2063.973145
-476.459595 516.606079 2019.334839
-577.086243 314.964447 2012.656006
-643.328186 254.140335 2014.692627
-397.142212 608.944275 2065.368408
-602.339905 499.306396 2024.212402
-695.723511 192.827835 2204.742676
-721.635925 357.218231 2088.139648
-547.954468 510.507568 2010.460571
-706.283813 253.253769 2250.741943
-536.409668 525.801758 2013.953735
-692.344299 269.344025 2037.990356
-472.179840 361.871918 2041.790771
-469.811523 549.923096 2029.144165
-455.054047 260.262482 2048.374023
-698.355652 312.556732 1998.173096
-546.516602 405.711578 2032.086670
-755.882324 509.158264 2136.332764
-740.733521 471.857056 2120.443359
-757.400635 538.901794 2139.754883
-613.463928 425.432251 2010.244629
-425.701508 478.385925 2037.261963
-716.757141 318.911621 2076.180176
-677.318420 521.823730 2093.059814
-685.662659 560.375427 2033.302246
-501.732361 251.870316 2039.831909
-683.015686 544.301880 2073.023926
-574.272339 549.720093 2037.380005
-560.127380 366.035828 2031.930298
-339.490265 539.767883 2027.782715
-626.741638 349.902466 1993.279297
-749.647766 514.436890 2143.226074
-386.441650 536.451843 2027.378540
-397.323669 570.319702 2031.837402
-353.162445 567.354675 2036.092529
-597.130737 273.316864 2014.430054
-309.109131 350.929901 2069.090332
-684.388550 575.807190 2048.717041
-382.116119 547.747742 2052.675049
-616.634766 199.622009 2038.007568
-775.760864 427.281494 2122.665039
-628.515381 466.667755 1998.904785
-719.403992 353.987244 1995.146118
-661.846191 537.475525 2047.143677
-737.000916 378.600830 2135.499756
-685.696899 409.177826 1989.579102
-731.810547 375.184723 2148.273926
-675.792908 524.388184 2071.414063
-553.480286 479.386688 2014.119019
-693.763367 567.411682 2081.468750
-498.151703 315.303802 2054.445313
-696.750183 368.292725 1995.985840
-422.612061 451.563232 2047.063232
-704.800964 298.044617 2087.007324
-671.531067 313.947601 1988.703003
-681.151611 178.521896 2100.146240
-593.887939 284.991302 2013.036499
-258.270813 362.994659 2159.233398
-444.656586 540.196838 2029.838379
-600.227966 485.432404 2020.156372
-655.787964 502.236389 2053.754150
-708.202393 285.649994 2154.690430
-576.129333 249.421005 2014.145508
-495.115265 518.252808 2013.331787
-751.948242 408.562073 2081.655518
-486.072083 483.671326 2031.507080
-723.182190 296.063660 2252.371582
-702.265076 601.353577 2037.671631
-447.795441 561.612122 2034.083862
-445.476074 448.013641 2051.496826
-338.684631 312.233459 2069.396973
-411.199310 580.213257 2036.521973
-306.948914 326.226166 2063.637207
-700.908264 225.941116 2265.386719
-634.483215 272.981018 2011.072266
-368.388367 344.994141 2058.637939
-742.887878 397.185730 2152.621826
-758.144592 395.061768 2182.580322
-606.431580 527.686646 2082.116455
-656.959839 190.229828 2011.021606
-388.669983 561.809387 2031.940918
-454.808350 486.303497 2044.308350
-604.762817 487.018585 2024.440308
-461.743835 386.772003 2042.827026
-349.634644 519.286865 2052.173584
-546.044617 510.400726 2015.292358
-473.003784 447.931580 2037.192017
-670.020813 190.142090 2117.063721
-558.629150 242.412598 2035.228638
-733.979675 319.593597 2272.191650
-530.504028 465.440552 2030.959106
-350.494476 624.900391 2158.768799
-284.158966 437.327271 2175.550781
-692.967590 431.251282 1989.380615
-639.586426 375.522552 1992.351318
-406.121277 355.562317 2047.203979
-735.623230 365.206573 2241.550049
-512.134827 450.021790 2044.633423
-475.344757 554.372009 2027.775635
-697.353516 284.489075 2040.408936
-704.749512 411.729309 1988.111328
-606.679016 327.493042 1990.520752
-697.678406 249.718445 2225.106689
-756.158936 433.338287 2046.856567
-394.133270 513.493347 2032.480957
-517.653198 360.466461 2035.624023
-532.507507 521.137878 2020.521606
-391.908966 594.350220 2057.075684
-382.597809 373.933502 2043.687622
-347.392517 613.421265 2108.709229
-377.176331 472.128662 2043.475464
-614.712280 413.195282 1997.512207
-349.700867 451.421417 2066.188477
-606.760986 528.190247 2085.726074
-636.166870 323.532135 1999.647217
-338.985626 390.424744 2054.958008
-750.358337 395.080841 2252.211182
-662.313904 231.298965 2021.585327
-453.562012 410.456451 2044.253174
-394.457733 301.277649 2044.901855
-636.655701 452.551483 2004.954956
-499.167236 559.298401 2076.068848
-728.548401 329.488495 2122.447266
-680.152039 215.011246 2109.949219
-712.004944 291.625061 2092.867432
-715.710388 332.315491 2059.693848
-386.047455 344.898132 2050.375000
-286.660797 332.370605 2065.308594
-692.457764 613.998108 2038.832153
-762.066528 392.286743 2214.364258
-466.578583 552.540894 2042.580200
-571.508728 248.251297 2027.893799
-689.837158 200.929291 2255.997803
-778.801575 437.647675 2212.797607
-563.823486 373.078186 2081.359619
-671.405884 397.397644 1992.021240
-410.622070 280.541229 2051.304932
-339.948334 416.185364 2055.995850
-349.819489 506.534027 2053.999756
-799.086792 425.052612 2169.915771
-689.540466 268.978577 2080.981689
-356.285614 441.465912 2049.420898
-653.601440 495.934814 2051.486084
-563.145325 495.107635 2012.304321
-364.319183 578.340637 2035.976929
-553.579590 286.428436 2040.545044
-670.602173 184.061600 2065.197266
-706.465759 444.888519 2014.821533
-682.850159 555.383484 2058.223145
-724.666016 369.121368 2097.097656
-393.652039 533.817200 2044.598755
-696.676270 437.444244 1995.190430
-753.057617 418.012634 2054.082275
-750.243469 547.152954 2120.009033
-669.159790 429.776337 1997.261230
-722.374756 552.727600 2127.871338
-426.650116 469.499786 2063.055664
-704.885315 266.009491 2172.978027
-761.239136 405.987335 2161.737305
-342.162354 573.515259 2046.872925
-784.119568 420.393524 2166.724121
-637.817932 402.612915 1992.545166
-700.595398 276.629059 2214.807617
-473.594452 315.376740 2032.088013
-451.373657 548.742493 2040.136230
-486.843445 522.287903 2014.916748
-470.979248 586.208313 2134.111084
-740.862244 369.612213 2197.674561
-544.409790 310.763245 2030.201294
-683.678284 440.250977 2007.701538
-708.116211 387.354706 1997.952881
-466.548737 482.229858 2041.418091
-510.853241 300.798523 2046.882202
-659.952698 462.209442 2038.074219
-469.018036 252.844498 2046.325195
-286.416687 472.333649 2103.413818
-610.313293 407.977814 2016.422485
-508.902649 233.386337 2054.587158
-547.573608 249.113266 2029.608276
-500.496613 392.354462 2037.421753
-722.670349 389.028931 1993.564819
-292.374329 493.797577 2049.306641
-747.804749 470.112793 2161.731201
-752.647705 444.169281 2031.899902
-649.357361 437.577362 1997.217407
-736.618958 353.626953 2214.469238
-341.233459 350.600189 2052.484131
-328.672913 442.821960 2097.782471
-675.470215 298.911285 1998.825195
-706.075928 324.860504 2057.480957
-743.612244 421.830383 2033.981201
-791.409973 447.881836 2224.983154
-687.634033 274.174866 2035.249268
-421.644928 622.856812 2045.439575
-488.743805 246.194763 2035.307739
-672.815552 334.553711 2000.957886
-434.270233 547.053467 2032.161987
-735.308044 362.901123 2156.741455
-652.737793 215.174759 2020.127686
-575.789063 525.903687 2028.942139
-685.017090 235.119888 2073.941162
-685.563538 189.977432 2161.850098
-340.544067 408.695648 2057.189453
-700.261841 385.889465 2007.935059
-666.075867 530.350464 2058.112793
-721.764404 456.541962 2101.629639
-693.384338 435.846313 1997.397095
-642.787903 495.345337 2046.181152
-663.772644 517.199707 2064.684326
-797.679382 425.985504 2163.666504
-444.705994 476.632385 2039.791382
-745.461243 388.896942 2181.030762
-533.458435 374.240082 2036.801147
-740.796265 320.751007 2236.340088
-571.200684 506.990753 2017.811279
-721.870239 328.835052 2272.442139
-422.262238 568.427124 2046.122437
-647.141602 285.970520 1996.406006
-362.983002 468.769897 2058.563232
-547.489990 442.400726 2027.847168
-613.781189 524.438599 2055.773193
-601.491394 213.959961 2038.669434
-519.148315 351.742767 2033.175049
-438.065063 590.772583 2043.266724
-663.870239 588.844482 2035.177979
-339.643707 314.723175 2050.199219
-756.727539 438.466766 2067.750732
-755.101196 489.171722 2167.479492
-567.967346 268.436188 2022.275146
-725.650696 334.644104 2245.273682
-368.024170 340.753204 2049.154541
-664.207581 373.398499 1992.839478
-338.937103 547.146423 2035.576660
-703.797485 465.175385 2046.515747
-429.312134 455.391693 2036.865479
-663.320129 179.164780 2030.776001
-683.409180 602.296021 2072.418701
-610.712341 504.961700 2039.002197
-692.647095 232.026443 2000.929688
-697.688354 244.748550 2121.472412
-649.921021 449.556244 2005.565186
-515.711914 361.493500 2041.743164
-683.093933 440.896271 1993.176270
-431.038361 293.011536 2041.094604
-735.329529 411.223907 2016.905518
-500.419006 535.879700 2020.252808
-761.483643 392.170746 2210.411621
-580.368530 238.900299 2023.910522
-517.735962 241.442078 2032.759399
-388.556396 572.647217 2059.220215
-657.797607 465.275818 2001.673096
-756.539795 443.717468 2143.494385
-757.154175 418.018799 2033.197876
-726.372498 448.176239 2062.956787
-700.900269 447.307037 1991.421631
-693.742920 588.909546 2052.101318
-663.028809 416.395721 1997.233765
-564.225159 518.672424 2051.350830
-430.742126 265.442200 2044.981201
-547.196289 221.640213 2027.965942
-519.558289 529.012939 2015.860962
-727.286865 291.908905 2205.550781
-755.806824 467.009827 2175.863525
-680.734131 467.212982 2093.695068
-720.116089 303.593170 2134.291016
-690.601440 229.681458 2147.734375
-378.292847 343.146729 2052.358887
-680.530518 193.533295 2182.348389
-759.608093 440.562836 2103.417236
-413.073090 576.270447 2040.971558
-478.659027 487.049805 2031.057739
-635.339661 515.701050 2049.802490
-657.026794 497.460358 2075.893311
-782.518066 415.945770 2203.725586
-696.099426 216.904022 2249.073486
-692.532410 262.747375 2102.741943
-693.554810 241.279480 2142.009277
-504.687439 569.150024 2029.627441
