ply
format ascii 1.0
element vertex 1381
property float x
property float y
property float z
end_header
1804.752930 1005.378357 583.598877
1879.245728 1132.940308 564.627930
1743.837402 1225.262817 655.961060
1693.214233 1181.880127 571.477417
1951.388306 1227.520386 524.976318
1825.717896 979.883850 560.660400
1825.768066 902.552246 665.825928
1891.248779 1116.447388 531.230164
1861.329468 1062.012085 519.060791
1838.347412 924.576782 600.747559
1858.546631 808.266113 681.997131
1703.103516 964.153137 790.577942
1691.419800 1087.752197 710.249268
1876.564941 1078.371338 476.957947
1653.362305 1127.871582 707.317932
1734.690063 829.988647 832.906189
1742.133301 1229.273682 666.503357
1815.464966 861.530151 690.275696
1845.456177 846.384033 664.253723
1769.312866 819.901245 799.106689
1933.196777 1231.022095 557.860657
1764.274048 1212.406738 580.871765
1941.666626 891.508972 575.763855
1724.758545 977.664795 748.455261
1855.556396 1094.746338 474.223572
1840.163086 1160.768555 540.795044
1709.480713 1144.331299 597.385132
1705.736572 971.481934 775.127686
1943.129028 861.500427 589.321045
1832.080811 1119.443726 517.218140
1773.530273 1135.981689 502.399780
1766.318359 1005.897827 653.437073
1799.662720 1160.601685 511.671539
1846.719116 919.110352 577.757324
1785.410889 1211.635254 558.966736
1796.962769 1267.340454 712.569885
1822.502319 972.872681 561.611267
1882.035889 840.771118 624.597717
1723.490356 1074.266968 656.824280
1674.261963 1097.659058 653.295654
1830.588013 933.244873 619.760315
1859.555176 1115.470337 541.674805
1757.156982 881.484924 779.544922
1690.863403 988.278992 768.946411
1832.075806 1036.562378 555.383850
1797.067871 882.728088 711.878174
1755.258545 1066.605347 576.685730
1792.499634 1215.164673 591.324890
1835.804810 914.318115 617.919678
1722.673950 1229.030151 707.571838
1796.966797 1215.137085 499.982971
1822.080811 1082.417725 538.711060
1895.527344 921.282715 582.786316
1671.005859 1230.527832 738.768372
1791.773315 1206.415771 524.125854
1896.820313 1066.184326 431.667877
1877.676025 848.193420 599.056946
1774.899780 939.511047 698.341858
1786.602295 822.122192 793.471191
1803.867432 1224.098755 585.677490
1819.958618 971.661438 589.408936
1705.452881 1245.919556 738.565735
1828.161621 964.635986 561.379883
1703.298340 1193.543213 608.919006
1768.284546 1179.108521 497.127319
1788.555542 1309.177490 804.670166
1715.851685 1238.526367 684.230103
1632.333008 1172.705811 695.425598
1875.296753 1081.669067 485.996826
1900.146973 960.995972 542.131104
1842.206665 997.210266 540.026733
1746.476807 1172.829590 537.447144
1870.026367 1109.538818 517.554138
1739.027344 1267.018555 781.591248
1724.558716 1259.957764 772.280396
1849.908569 915.370056 579.737732
1861.889282 1315.364868 747.854675
1714.769287 1103.956055 595.741272
1949.571533 840.271240 603.753662
1909.002808 1223.870361 565.927063
1659.699585 1160.294189 679.553589
1730.633545 879.358948 814.018616
1770.086548 971.201538 674.972107
1712.397827 916.886902 795.011658
1894.481323 967.597290 565.110046
1842.116699 1058.756348 555.816223
1815.883911 1312.725952 785.097473
1768.558228 1247.223022 689.672485
1678.128906 1162.826660 595.459229
1698.671387 974.796570 784.417725
1687.142578 1178.179199 614.600830
1915.421387 1221.613403 547.947388
1830.699707 951.992126 610.083801
1890.293945 1194.802368 549.134216
1637.719360 1196.463013 651.152466
1970.589111 839.331604 583.243652
1824.928345 1158.756714 537.610168
1928.556641 836.983215 590.149658
1805.111572 1037.230103 555.645325
1736.029419 1218.112427 645.809937
1842.053467 803.898071 710.274353
1743.538940 903.020996 787.861511
1810.367310 1011.236267 550.476501
1636.316284 1195.631226 710.667542
1883.977661 1232.897217 569.855835
1820.216797 893.500061 670.339783
1820.688232 1113.908569 530.565491
1660.498047 1117.583618 694.625977
1825.925781 938.497925 637.714417
1776.420776 966.906982 675.995667
1945.644043 826.896790 603.581055
1843.301636 906.365906 593.974670
1713.879395 1197.278809 593.448059
1708.549683 1116.767700 596.958618
1836.649902 924.746582 589.263489
1830.428223 1292.837524 720.839783
1680.895996 994.928284 780.937805
1795.282593 974.028931 638.731628
1713.316895 1156.963745 545.294250
1707.109497 1057.590942 728.422852
1828.736694 1296.298340 752.744568
1824.771729 1210.848267 528.003967
1746.914795 876.872681 812.701782
1656.088989 1104.141968 728.352417
1695.208130 1052.267456 723.905273
1877.203125 791.591370 641.440247
1676.192139 1234.700439 708.830627
1845.905762 992.591858 558.734192
1707.265381 1087.632690 690.001831
1801.182739 1241.791016 636.273926
1623.053467 1199.952271 696.174316
1690.048340 1170.802368 572.127014
1708.233032 1025.724121 733.961609
1924.037964 1182.112305 499.947449
1914.550171 1081.008301 419.035583
1867.436279 1038.895020 534.408447
1861.822632 1301.244141 743.026489
1760.247559 1209.794067 589.772583
1827.731934 968.416809 559.698425
1777.057007 1193.623413 521.688660
1685.076172 1064.437378 714.717529
1724.449219 1257.619751 734.660522
1892.608765 798.790710 633.426331
1849.687134 1032.649658 543.608276
1728.050171 981.437744 740.295532
1898.319702 834.122559 584.520203
1859.983398 815.624634 663.678528
1961.034302 889.059631 601.760498
1842.592285 1226.299072 524.849609
1768.943359 1050.083618 624.907776
1717.474243 858.005859 826.991516
1889.269287 1126.119629 526.134155
1759.025635 1108.829834 538.282715
1781.953735 1041.563843 605.632935
1820.723633 1259.948608 644.531128
1817.307983 1250.517578 623.411865
1820.693604 907.610046 648.370483
1636.256836 1137.401855 728.496887
1823.843628 964.579041 589.279114
1678.570679 1057.187500 744.854004
1738.666138 1224.756348 664.781311
1758.894043 960.483276 706.559448
1861.494507 893.867065 592.420227
1805.726807 904.101196 705.782959
1665.661255 1143.860840 692.185425
1735.582886 1270.995972 775.198425
1725.118652 1042.519897 712.105957
1838.681152 804.663818 671.793213
1828.893433 848.931641 716.194214
1847.674072 1332.433472 809.771118
1915.787354 1293.599609 708.891174
1849.029907 824.334473 705.681885
1697.612793 1155.578369 575.185669
1700.628662 1130.969604 593.499268
1755.980469 1015.942200 656.842346
1702.201294 1171.548706 562.106812
1751.835693 941.752563 765.171143
1850.073730 1227.412231 538.541870
1834.832520 868.157043 762.844666
1720.384277 1171.350098 556.502441
1754.139648 1220.593140 635.234863
1852.500854 1268.298462 560.114319
1742.586060 1281.353394 771.503906
1766.747803 1032.194580 658.242371
1788.344238 1060.643066 581.954224
1731.091797 951.522583 752.872803
1613.793945 1181.644287 714.190735
1790.848022 1032.520386 608.357727
1804.566162 917.194763 695.896973
1723.408569 1073.520630 664.643188
1665.663696 1080.266113 758.731689
1732.965210 1212.024292 634.593872
1885.462769 1206.082520 555.427734
1833.885620 933.685425 574.418030
1761.852417 954.769836 734.374878
1705.229736 1133.915649 584.143799
1878.208618 915.512634 571.116333
1863.097168 1076.405640 519.772339
1729.399170 1080.501709 596.928528
1764.274170 1070.819458 553.720886
1641.001343 1169.233398 670.178040
1689.968018 1126.823608 625.412537
1639.431885 1092.358032 720.312744
1862.544800 1220.489136 547.970947
1780.930908 893.176086 735.170654
1790.820435 1277.065430 761.313965
1800.482300 1009.438354 588.964905
1855.248047 912.616760 583.207886
1676.402588 1164.978882 597.318298
1670.619629 1069.822266 744.136536
1808.971680 942.194336 630.889771
1914.181519 976.763611 574.375977
1694.840210 922.212830 783.235901
1859.638184 908.659058 587.663757
1875.318237 1270.640259 645.173645
1688.086060 1137.769775 597.174744
1878.100586 936.017334 549.267822
1726.208008 1232.321045 712.175232
1822.711426 844.619385 714.269958
1778.667725 840.417786 798.318726
1701.352295 1246.768799 747.703552
1868.629883 1309.176270 756.758850
1929.192383 1176.801514 506.687164
1758.601685 1293.986084 804.197693
1850.626953 1248.511108 611.140198
1761.151489 1114.571533 526.301331
1886.030396 1079.395874 454.111572
1657.408447 1133.938232 669.386353
1794.028809 807.447632 770.309143
1754.779541 929.054993 743.199158
1934.953735 1303.391846 611.679016
1697.383667 1129.716675 592.747498
1922.688354 1315.096802 631.549744
1604.773071 1188.584961 701.773254
1734.229980 1134.024414 570.872681
1885.569092 820.177979 610.036011
1757.124512 935.832336 734.306885
1838.324951 1074.982178 534.763550
1840.204346 1229.859497 533.494263
1755.279175 1221.501709 633.465637
1749.693115 1082.823730 592.097778
1645.366089 1146.541748 691.648560
1887.219849 869.324341 586.791809
1949.135254 856.540222 582.420776
1870.863403 1315.747925 787.067871
1854.232422 959.931213 561.975586
1874.046631 914.702271 588.247192
1830.384033 1095.747070 523.157898
1753.579346 1205.526611 598.986938
1922.508667 1237.409424 571.305908
1880.338623 1265.873169 632.907227
1756.468384 845.809631 809.727722
1716.996338 933.786621 792.543518
1667.740234 1150.120239 620.578979
1762.829102 874.401123 804.389038
1882.433350 864.558838 606.251709
1788.088745 859.026794 737.937134
1837.145264 846.608154 685.606689
1860.133911 999.582886 536.946228
1890.008911 1016.741089 547.071228
1886.444458 1225.929077 559.620056
1878.875610 1099.482666 473.407745
1814.486206 1121.815674 533.930298
1865.952759 1024.317383 549.067810
1777.690186 1235.398193 639.935120
1708.821289 971.525269 757.913391
1689.280640 1143.036621 583.844788
1906.400757 812.056763 604.340149
1780.937378 1202.795654 525.460327
1876.796265 1077.833496 463.756958
1711.639282 1122.882324 584.988708
1877.055176 1126.716187 547.844910
1811.417969 951.019104 634.131042
1843.180176 901.163452 576.131958
1711.090332 1090.789917 699.600769
1809.386230 1257.637207 678.807861
1714.170166 1270.371460 775.898438
1781.232178 1335.343262 813.433228
1862.635986 864.876160 642.015076
1780.080200 802.338501 828.164795
1814.695557 966.549438 586.264343
1872.127075 1075.183960 491.600525
1682.783081 1124.452026 640.184509
1729.906494 896.670837 813.158813
1784.414795 867.338013 754.392944
1894.214844 1073.755249 459.246246
1812.906860 1265.576416 697.162354
1804.422852 807.047974 764.591248
1775.669800 1116.177368 523.574829
1723.601196 959.517090 768.891541
1723.747559 1248.806396 728.316956
1682.363403 981.271179 776.494141
1780.792725 1074.954346 542.963623
1759.440063 1200.719849 567.375854
1892.164185 1304.597046 691.909302
1672.360107 1171.940552 607.765503
1672.511963 1178.260010 598.224670
1715.781372 991.868835 739.786743
1892.985229 829.379517 589.025085
1875.330688 866.786499 603.812500
1830.830322 1069.020508 538.126526
1884.680420 1086.382813 489.468262
1856.592163 955.944824 534.799438
1813.769897 1133.437134 530.154053
1741.189087 1098.477417 561.517090
1651.264648 1159.617676 661.563110
1621.726074 1161.026367 725.375061
1736.273071 1151.335083 518.348022
1761.488403 873.201843 761.533569
1859.863647 800.963440 675.925720
1740.830566 1006.138977 708.140869
1741.555176 1024.713623 695.206177
1686.366577 1228.904053 730.562317
1807.000122 1291.906494 818.173035
1782.511475 852.338013 763.245911
1704.164673 1117.831909 620.393433
1645.126465 1195.556152 648.710449
1983.366699 819.911499 699.260864
1844.064819 886.447449 629.195007
1655.014038 1206.246582 692.507202
1858.402100 901.468567 598.221191
1737.711060 925.768921 748.498291
1899.983398 1308.290039 730.262512
1897.535034 1155.428833 538.847534
1804.166016 1270.439087 707.062683
1693.531616 1197.971436 597.170837
1724.656616 1257.078003 772.485657
1807.375488 1293.692749 740.981323
1906.467651 960.154297 559.636475
1891.090454 1177.890015 532.576904
1881.681152 1179.470459 539.876587
1937.209106 820.896545 573.506714
1845.247681 1269.331421 667.909729
1691.094360 1104.800293 639.018616
1848.390625 923.728882 575.322876
1834.414185 931.679749 600.842285
1675.834106 1065.948730 726.272339
1730.383057 1255.987427 756.373596
1916.414917 1092.967896 446.882507
1853.415161 980.494080 541.811707
1726.014160 1248.193726 724.783447
1729.093262 1274.917969 777.049683
1914.715332 1292.868164 627.572937
1879.603638 1111.420044 507.692902
1922.345825 821.920471 588.113464
1721.206299 928.193787 796.493774
1668.541016 1187.137573 643.801758
1892.447876 1096.894775 455.849976
1718.116821 1007.926086 732.133240
1740.422363 939.829529 756.368408
1809.965332 1323.899780 820.452820
1782.346802 1037.209351 577.514282
1687.997192 1123.769287 631.699646
1761.307251 1128.718872 517.593201
1903.403320 874.943176 574.720947
1731.103882 1146.812622 537.658203
1846.135742 982.558228 549.458679
1897.411743 1206.943970 542.748901
1863.549072 1074.629517 493.180573
1807.310425 943.205078 647.278442
1677.480347 1208.090088 655.493042
1681.527100 1235.421997 740.991089
1765.821655 1123.838623 507.357819
1872.777222 1092.543091 490.867798
1758.270630 1092.255981 558.994751
1874.214233 1254.062866 563.311707
1907.732300 864.101074 579.893799
1686.207275 946.512695 774.128723
1684.060791 999.243591 781.169861
1740.643921 1094.396362 569.650269
1719.388184 1142.138306 554.877136
1623.696899 1192.008545 702.062866
1753.263062 1252.913086 717.227783
1728.812378 1133.806030 550.409607
1885.112427 904.984192 585.151245
1888.662109 958.277100 546.898315
1678.836304 1011.200562 775.301086
1749.666016 1123.706055 522.033325
1883.762573 909.243958 582.127319
1707.781738 1246.515503 722.280579
1867.209106 1255.961182 636.858398
1844.926147 970.535339 552.596924
1725.169556 986.793884 746.462769
1741.748657 895.850525 767.933777
1832.741089 922.732910 606.526733
1767.076538 1192.467163 536.215759
1822.705200 1104.786865 529.339539
1919.053223 1198.282104 508.628387
1875.973145 1114.568848 534.635376
1708.099731 1126.610962 586.355896
1717.419189 1143.434326 587.781799
1827.354858 1243.552612 534.695923
1742.340332 855.534607 798.982422
1856.824219 1009.801758 547.860535
1706.851685 1093.107910 612.709167
1740.972656 1192.878418 582.594116
1673.478638 1169.289307 618.607727
1865.768433 897.223083 593.647949
1719.558472 1073.242676 694.326172
1931.247681 1226.228760 538.304138
1679.070679 1222.473755 740.581482
1666.481323 1097.301514 707.282410
1795.554810 1121.539185 529.154236
1803.226318 1029.447632 543.885254
1876.609009 804.421997 659.832458
1802.950562 1067.004028 537.111511
1824.047119 1198.108887 525.087524
1711.987549 1218.929688 656.125305
1642.391724 1189.855103 646.999512
1760.847290 1232.298218 658.750000
1822.159180 973.512268 562.831970
1759.367065 890.458313 775.492004
1646.515991 1117.237427 738.596130
1731.609619 1200.297241 604.053284
1767.095337 1014.765808 637.178528
1801.965576 1083.600586 523.635498
1846.685669 1242.813354 516.013123
1818.942383 842.880554 718.778503
1678.064697 1110.665649 651.447693
1697.965820 1159.650879 574.402832
1745.477783 1081.942383 554.642883
1798.084229 912.731995 723.102417
1838.996094 807.352844 713.379028
1851.601563 920.885742 594.530212
1889.759766 1278.697998 578.498474
1954.139404 1235.573486 533.294983
1879.754272 1256.677612 555.193359
1810.096558 1241.862549 627.987732
1705.309204 945.726807 801.940857
1856.783081 825.232117 637.150574
1639.690308 1212.823853 671.496277
1861.893799 1032.730591 534.351685
1848.666260 1305.452759 824.520630
1674.903931 1179.773804 613.817444
1745.806274 1077.771118 641.538452
1856.848877 1095.204834 553.242004
1905.061157 836.915405 585.412720
1771.439087 1250.227905 695.961487
1813.947632 796.454834 738.017578
1705.515747 1258.313599 748.336121
1900.754272 1083.571777 448.733124
1676.848999 1165.333252 614.900696
1900.869507 1275.946045 583.707397
1786.651245 998.782410 636.630737
1821.571167 1163.291138 533.176697
1667.406860 1088.577759 715.423584
1791.559814 1252.682983 653.915833
1857.158813 861.077148 614.360535
1928.005615 834.292053 594.345215
1919.053955 798.927368 609.673645
1823.794922 1017.450623 538.572205
1733.394409 852.553894 827.287781
1778.577881 928.769897 701.404297
1830.170166 1259.048584 658.832825
1872.947144 876.138000 579.217163
1855.835449 1089.584717 535.175476
1864.520752 815.517395 647.672180
1829.142212 871.547363 713.120239
1697.762329 1149.627808 600.674011
1713.882813 1156.418701 550.358826
1816.620972 829.340759 722.551453
1768.010864 1248.802734 667.375977
1857.284180 812.709534 665.209473
1889.474854 809.036560 618.235718
1818.661865 1093.734497 535.533630
1741.051636 1124.556152 545.528931
1821.458984 1231.274414 596.536682
1836.280151 943.466736 605.908936
1802.685547 1245.826294 663.453491
1763.681641 1120.048340 521.624512
1682.880737 1022.096313 753.608459
1789.847900 1068.837280 531.301697
1813.692017 1309.341187 810.133362
1784.414063 1251.849121 680.371216
1871.332031 832.488770 629.169312
1715.625977 1106.971924 591.404907
1726.589600 912.079590 778.871643
1971.131592 854.696106 574.210693
1939.886597 1162.447632 495.315521
1806.637329 874.541382 704.401184
1720.730469 1154.001099 542.965332
1643.535034 1077.587280 744.061584
1721.888184 1228.463257 660.081848
1731.713379 1129.235718 567.894043
1957.509766 1234.700317 526.650757
1689.530273 1123.824097 618.774841
1648.453613 1237.392090 734.677246
1721.740967 981.004456 726.317139
1912.386230 850.391602 585.587219
1936.976196 997.672241 554.238342
1675.129639 1163.156738 620.801086
1726.146484 1133.960327 572.139648
1706.459961 1085.575439 651.089233
1863.274170 1226.649292 545.361084
1793.783691 870.408264 777.763977
1889.077393 1314.381958 750.453064
1854.435059 940.254150 558.623535
1730.019897 1185.382324 571.274963
1634.791504 1049.130981 723.443726
1690.577515 1134.938599 592.487610
1688.793579 929.800659 799.822205
1759.436523 1116.823975 522.501221
1943.402100 1095.618042 488.040100
1727.113770 1234.212646 681.165649
1940.522217 1224.640381 541.476196
1857.218506 887.057007 595.676636
1775.903687 1091.121216 528.591370
1802.266357 848.009888 805.816406
1723.450928 1080.735352 656.114868
1792.735352 1035.984497 569.860840
1701.538574 1087.381348 695.900696
1848.828613 801.711304 690.123901
1795.836426 1271.151611 720.264771
1922.422607 800.484741 626.202393
1678.756958 1200.665161 650.247620
1652.643677 1205.880371 694.226746
1791.065918 966.488708 656.361816
1909.474365 853.788452 603.593994
1777.791382 1263.530640 711.316833
1745.644653 864.420776 805.267334
1903.160278 847.232605 597.953674
1734.797852 1093.854370 590.119507
1697.489502 1166.059204 570.463074
1874.909546 1323.800659 766.117615
1707.130737 1073.423340 681.299072
1783.170288 1145.025146 501.958344
1941.352173 937.541016 595.517090
1936.829468 1240.189087 567.076599
1763.386108 874.683899 780.184814
1865.193726 1304.948242 758.033997
2003.918213 831.011536 714.482788
1768.890503 1140.009033 501.567383
1886.152710 1187.677612 547.252197
1775.443481 1248.179688 675.819092
1737.607910 1213.841431 621.001648
1737.697510 1003.139832 725.027039
1959.684082 943.416992 602.101868
1850.269531 1254.457031 631.414734
1838.483521 929.649536 577.430359
1789.084229 1060.178955 534.575989
1784.346191 889.353516 742.276367
1688.268433 1164.096191 603.361694
1786.113647 1082.395508 535.635620
1868.257446 1097.614380 507.297485
1817.523193 1029.159302 541.027527
1740.536255 1144.887817 531.683960
1727.453125 1074.395142 618.637817
1937.714722 939.181763 596.489685
1669.459106 1131.745117 662.506165
1833.822998 830.400085 757.984863
1891.784668 976.775696 567.527039
1775.760498 964.483826 693.879822
1659.145386 1117.192993 695.516479
1732.429077 1085.576294 582.295410
1949.662231 1227.891357 528.206604
1669.874878 1065.446045 749.431519
1840.949585 967.944214 557.846069
1790.739502 1254.955688 690.163940
1712.017700 1091.000366 680.138184
1675.959473 1127.788574 649.614136
1701.047363 974.713623 793.862976
1736.361450 1274.803589 772.447937
1711.011475 1094.753906 604.517273
1820.123047 982.652527 592.986816
1846.969360 1274.050171 688.070068
1845.273926 897.211426 630.408203
1739.118530 1141.297852 526.303894
1720.598999 1135.855225 562.639587
1769.936035 1084.568726 537.468201
1775.155029 1273.482788 723.058655
1932.599731 1209.138428 512.802856
1759.864746 1268.052002 769.143250
1803.857056 1228.108643 583.861145
1735.567749 1000.051819 724.884827
1776.965332 1106.253174 523.351440
1693.924316 1109.675171 630.124084
1817.372070 956.052307 592.289734
1840.483643 825.727051 841.807007
1903.663696 1281.792114 588.816345
1894.776123 1116.371094 533.944641
1911.657227 901.147766 582.158997
1750.581177 927.536194 732.869507
1910.958496 1203.555054 572.057007
1867.308960 840.639221 629.751038
1807.936523 936.297668 652.433289
1887.033936 1065.202515 443.513733
1734.973633 1270.092529 759.759888
1813.181519 987.977234 584.603821
1724.947998 1139.403198 547.659119
1772.991211 1283.921021 777.835754
1777.906250 808.365051 829.250916
1841.046753 1270.727661 674.625488
1841.344971 930.500549 562.019653
1703.076172 1068.108887 728.326660
1637.904907 1173.361450 672.929688
1916.746948 1305.744873 611.146362
1820.573975 945.977539 651.668091
1671.233276 1165.936157 624.978149
1719.096924 955.268616 793.833923
2049.739502 858.453918 732.402100
1745.491211 946.083496 747.417542
1700.740601 1259.713257 767.098389
1638.885742 1170.511963 719.581970
1837.425293 882.722534 637.153320
1705.624878 1083.417969 707.010315
1694.633911 1116.916504 636.178406
1810.298340 1008.469971 549.128540
1918.890381 854.770142 569.975159
1716.051270 1210.169678 644.539001
1754.490112 1023.363525 664.378906
1745.927002 1179.208374 553.826172
1818.546509 1236.687988 537.965698
1765.416992 1034.362183 615.266052
1713.305542 1019.307983 736.712463
1666.664551 1199.079102 620.532654
1863.920776 1076.988403 500.376404
1630.291992 1186.026489 727.506958
1756.395752 820.940979 834.866211
1602.000977 1195.292236 693.026001
1703.242065 984.576599 765.247925
1751.166016 853.415344 797.760437
1791.174316 1288.741211 742.719727
1829.821289 1289.511353 736.520508
1823.499023 1104.548218 529.898682
1853.250122 1244.989990 593.729248
1679.718018 1083.970703 701.986694
1634.778442 1163.834595 726.473328
1839.382813 881.928833 633.764465
1685.524902 1098.528076 665.483154
1682.794189 1031.056274 777.657471
1901.381836 1059.928955 556.263123
1803.146362 933.454346 662.393250
1764.048218 1004.620117 662.033447
1841.736572 838.187256 662.987976
1869.781006 1226.342407 556.818054
1699.284668 1085.871826 678.973511
1831.349365 1295.477173 726.641479
1720.206299 1060.234375 704.010132
1768.330078 1104.476440 526.813110
1871.708618 826.714233 618.937500
1941.845581 823.696899 567.367554
1758.866089 925.185303 741.181213
1749.147827 1146.399902 508.796814
1725.951172 1091.872314 604.114319
1910.497070 826.178345 778.716736
1763.693970 1088.610840 541.736389
1687.473877 1199.547119 627.973389
1907.855591 987.103516 552.850952
1788.209473 1117.669434 506.760254
1753.981079 881.707947 781.943481
1757.780640 813.558411 815.033020
1735.185181 988.837219 725.358398
1762.990479 921.451660 739.279175
1764.324341 1173.664917 518.697021
1862.812012 1084.954346 488.970337
1778.973999 970.536255 664.520569
1896.542236 1204.505493 516.742859
1723.057739 911.354492 800.573730
1688.690674 1022.435486 758.966675
1913.609009 1282.089233 582.621887
1825.611328 1261.099976 643.040039
1843.821289 1080.282715 527.311279
1827.582520 1216.897095 519.512512
1729.062134 1094.295410 601.534546
1839.552246 865.055603 663.841370
1798.306152 1144.681641 507.322632
1783.958008 1333.437988 811.606140
1809.942261 899.919617 678.787842
1755.989380 1187.231445 570.838928
1729.133667 974.137939 744.058411
1775.571533 1136.244263 511.928986
1639.892944 1168.989258 679.051819
1816.391479 1305.702759 837.468506
1784.987549 918.675049 747.820984
1684.494873 1109.693970 649.548096
1736.155640 1133.506348 567.201660
1815.875244 1234.395020 606.944275
1805.494019 1227.989502 529.459778
1733.029053 1172.936279 537.720154
1703.685913 1219.644287 682.670715
1824.984619 871.251587 665.177612
1736.130615 1220.001343 641.409119
1929.373047 1301.214722 608.351013
1706.637329 1209.963379 651.914246
1946.732910 809.046326 628.278076
1799.217896 1281.472656 748.034424
1860.171997 1050.696411 558.257019
1756.187134 1050.924561 637.546082
1864.916992 931.607483 565.955994
1683.712158 1223.029663 712.410156
1677.020752 1246.026123 754.272461
1831.083374 889.908875 653.868164
1772.783569 1154.201294 514.910278
1862.468506 1075.886108 520.156921
1810.492676 1314.780884 829.165100
1692.031494 1262.165283 763.276184
1844.272461 916.311035 587.088684
1803.065430 998.986145 575.975403
1703.475098 968.851929 777.702759
1786.297729 1050.295776 556.948303
1853.101563 1078.564209 504.100006
1738.625977 1151.868896 536.552063
1804.973389 1286.702759 728.747925
1893.951294 1163.332275 560.211121
1785.596436 1038.055786 604.781982
1750.206421 937.370605 725.633301
1834.553467 1270.510254 717.034241
1765.457275 1024.455444 656.958313
1784.364624 1055.399780 581.623047
1945.367798 812.218323 594.566284
1888.106689 1084.163818 459.466980
1713.464111 1087.699829 612.711731
1764.098877 1191.419556 551.613831
1885.362305 781.558594 678.642151
1791.339722 1021.791870 554.905457
1899.245605 860.616699 576.077637
1694.752563 980.669006 792.100098
1741.588989 1103.036255 556.285767
1718.066040 1081.417358 640.329285
1777.243530 1191.514771 525.378113
1935.477905 1218.469971 515.058594
1659.577026 1132.962280 665.052856
1815.478149 1134.717896 531.395142
1672.954102 1157.604614 616.839844
1805.762817 1222.648682 587.277527
1731.961914 1155.176147 521.165649
1750.465210 990.946655 693.108521
1839.868042 814.205078 735.341980
1872.229492 1279.643433 644.616150
1811.531860 1007.818848 551.557861
1693.099609 1050.966919 725.116211
1893.881470 1160.153076 575.605286
1723.586060 1132.677490 558.018188
1677.078003 1055.837646 740.516846
1683.572632 952.175903 789.819824
1866.427246 865.673828 612.357544
1748.018066 1079.558716 610.686523
1675.446411 1229.169922 723.449280
1739.432373 1011.403259 684.326721
1902.484741 1279.159058 577.434814
1852.087280 1046.324341 560.420959
1641.145630 1124.118408 737.188110
1840.202148 1240.068848 586.600220
1866.314453 1096.786987 509.827942
1887.296387 1120.862549 491.349640
1697.918579 1193.730957 575.385498
1643.261230 1092.573975 741.218384
1723.280029 1197.980347 587.102051
1713.229248 1005.373352 743.746155
1880.171387 1227.461792 540.929626
1810.561768 919.926086 655.037903
1616.494019 1218.872681 713.333618
1767.308960 1052.218262 578.453064
1713.504883 1081.852051 687.050659
1875.119019 1200.164795 540.222290
1929.473389 1254.212036 588.946472
1754.409180 1093.782104 542.336487
1651.399780 1043.968018 736.003723
1871.614258 1076.700317 487.402802
1903.431885 1105.867432 467.875916
1884.251343 788.999390 632.445862
1761.998779 1220.646362 601.545898
1691.748291 1113.798828 631.586121
1796.302734 1232.860718 627.516052
1777.905029 1204.499268 534.077698
1885.862671 1309.753418 735.769653
1844.083130 1088.691162 518.060364
1814.877686 1128.071289 529.050293
1668.287720 1111.722656 689.291809
1786.056641 1047.790894 564.193848
1762.335938 1153.992798 503.499756
1791.591675 992.248840 637.959106
1848.901733 1282.330200 699.758301
1882.940918 893.369873 590.287903
1687.342896 979.052979 769.646240
1717.575806 927.992615 791.945313
1758.414551 972.664612 697.010132
1789.081299 1158.473511 507.324280
1793.226318 1240.682129 642.654480
1837.031738 1235.333740 591.331604
1891.861572 1127.570435 526.241272
1858.047485 1315.258789 845.745056
1751.139893 1091.002441 678.320007
1737.712280 1084.256592 574.819458
1715.007080 1083.562866 623.539612
1803.013916 1165.104492 521.583618
1717.500244 1084.430054 624.618713
1720.613281 819.404480 825.666626
1886.082642 1121.445923 538.592712
1713.228882 1077.758057 602.361877
1971.205322 928.834412 604.333313
1844.914429 1109.910400 508.305450
1811.016479 914.460266 684.533813
1725.351440 1199.920410 601.752502
1826.265991 1111.415649 537.505615
1789.491943 1217.677124 570.237732
1666.434204 1236.471313 748.818542
1860.406616 1253.711304 617.611084
1871.776978 797.238953 639.858154
1924.981323 1087.373413 434.702393
1859.492188 864.948364 602.799744
1863.923462 1071.312988 504.456573
1825.813232 1083.500000 542.262756
1731.411255 1216.952515 647.243042
1895.347656 908.491638 572.228394
1865.173096 939.209167 560.441711
1839.238159 855.481934 669.605957
1686.198486 1015.144409 765.966370
1824.432861 1117.145020 532.196045
1764.536011 889.387268 745.577393
1789.683594 1207.508667 526.376770
1872.320190 961.422119 545.073425
1740.342529 955.991333 750.660400
1851.641968 1260.314087 557.381958
1924.694092 1138.589600 471.842926
1827.511841 970.084045 564.184631
1826.913330 1286.158936 727.599670
1811.921265 987.715820 572.116882
1758.579590 999.611816 673.998169
1844.996338 1249.506470 620.058167
1757.288696 1042.737549 660.398560
1791.557617 1056.823242 547.727295
1740.991699 1166.878784 518.457458
1822.024292 1240.171875 615.292358
1956.159058 955.858582 598.673096
1920.781250 1254.909058 581.523010
1843.062500 838.112915 677.090820
1948.743408 1238.466553 597.640564
1795.195435 1044.513672 540.655029
1835.895996 1238.353638 538.535889
1636.644287 1210.555542 719.187073
1846.359741 1076.194580 515.377380
1861.411865 1117.227295 482.291321
1629.974609 1178.290771 698.696716
1783.736084 1262.922974 710.309814
1705.426025 1105.186157 624.484924
1731.142090 1273.770508 773.728271
1795.157227 1100.180664 517.134094
1708.085083 997.665344 740.000183
1770.749756 1293.593384 807.307922
1939.795288 851.844543 583.690674
1827.926880 1088.003418 536.465454
1811.597900 1295.672607 767.799377
1824.506714 924.650757 615.865540
1789.103516 984.566467 637.297363
1766.010986 1108.441650 539.616882
1885.582397 1316.177124 727.862122
1734.692749 886.341064 820.536499
1800.370239 1301.464478 811.460693
1888.500854 1120.242432 525.892517
1857.647705 910.909668 583.135254
1783.761108 911.006104 719.216309
1766.622437 1284.147827 759.944031
1653.721802 1065.498291 734.044922
1893.801514 1301.241577 713.348633
1701.506592 1211.624756 644.090088
1662.961792 1146.932495 666.277466
1648.254272 1152.490967 685.987366
1662.789063 1090.587646 762.526611
1908.995605 1165.200806 566.702759
1756.477783 939.874573 738.679626
1703.048584 1027.705688 752.412476
1661.739624 1107.428101 738.804321
1723.979858 1090.567505 589.244324
1728.530396 1219.072876 616.054016
1812.397827 982.103271 577.992310
1905.964722 1184.324951 550.053040
1861.453369 1260.884399 577.747131
1738.279297 1188.231934 562.270569
1937.734497 823.347290 606.096619
1762.557129 1108.716919 529.793762
1821.495361 940.154602 636.758545
1941.356323 1151.113403 503.229309
1913.276001 1290.513306 606.847107
1831.227539 922.790833 574.888550
1870.113525 956.203918 570.940369
1639.484985 1121.879272 730.751221
1733.151367 1080.060425 612.380737
1826.803467 944.276123 616.840515
1800.051025 833.916077 801.738525
1802.708252 1006.165039 569.925720
1719.185425 1234.981812 725.164124
1819.867432 1254.859131 655.822083
1678.074829 1097.684082 665.668579
1819.495850 918.232544 680.119812
1776.222412 881.934509 753.534668
1793.746582 1077.874878 526.118164
1900.570801 1285.185303 614.964478
1801.693970 1245.270386 654.359009
1750.271729 1202.146606 587.317566
1756.308716 939.683533 731.957764
1630.182495 1181.073120 695.807373
1645.664551 1165.941895 674.723633
1829.822510 971.495361 555.077759
1642.080566 1154.293823 723.944092
1779.183960 1018.174683 611.868225
1810.633667 972.116882 614.081055
1787.361084 1189.492798 508.673157
1817.196167 823.482300 728.609863
1773.759644 1230.884644 631.217773
1691.887695 1049.653931 725.260559
1740.978271 908.930420 772.946472
1760.587036 1067.414917 672.217773
1749.088135 881.729065 798.889893
1957.690918 1226.512329 605.686523
1684.132080 991.335815 785.404907
1668.670532 1210.857544 668.913574
1701.992676 1000.738831 743.201233
1828.520508 903.919189 647.184448
1773.615967 956.423401 686.750916
1823.160889 1240.188232 595.994568
1822.209229 1100.907837 529.590088
1801.948853 1077.854126 525.719177
1884.523438 836.862061 616.398743
1821.892090 1018.096436 546.542542
1795.258667 1029.873657 561.973145
1862.104614 1087.317505 499.018005
1862.834717 917.839478 591.475952
1699.598022 977.584778 775.533569
1894.555298 1114.757324 493.718628
1817.888184 970.292908 609.965454
1842.351196 902.451111 614.588440
1835.743164 1080.987061 550.942261
1718.827637 1090.691895 692.484192
1609.297119 1205.930542 694.351624
1827.388550 1003.149536 546.902100
1660.089844 1116.868530 693.147949
1680.109375 1013.603333 775.737427
1845.371094 861.604309 649.605164
1699.136475 1206.869629 677.094238
1690.672729 1051.532471 743.802917
1929.858521 1113.662354 458.116699
1719.357300 803.717834 813.390808
1866.989014 1103.526123 464.549286
1802.773804 1222.988159 553.444031
1785.450806 1276.493286 787.017822
1683.159790 1035.043945 745.641968
1875.334473 856.548584 605.521851
1857.765747 1257.550171 554.347107
1850.545898 1203.698364 545.864563
1816.912109 1029.896362 542.393127
1780.053223 870.377991 740.226868
1872.047729 889.221619 589.490601
1659.378540 1182.730103 648.374756
1884.538330 834.145081 606.049500
1737.017212 1038.272217 715.481934
1748.125000 1108.272461 566.443970
1878.877686 851.841003 590.998535
1771.642456 971.573914 679.107056
1870.662476 951.476013 539.508240
1642.730957 1202.665771 662.152405
1848.233276 873.240234 610.706360
1843.646851 1250.087402 599.414429
1811.631226 1286.472290 771.217468
1814.617798 868.965576 704.305603
1769.988159 1254.635742 733.073730
1862.184814 1314.639282 749.704102
1784.993530 867.716797 805.561340
1739.970215 1215.031982 634.651978
1869.065308 835.522888 646.978271
1816.119263 1265.624023 693.433472
1863.402466 1288.512207 699.568542
1786.003174 1073.886108 538.489136
1746.412598 1022.850830 670.649353
1709.770752 961.271423 765.159424
1943.075562 825.395142 611.564758
1961.026367 1232.538940 610.672668
1775.008301 951.352966 680.394470
1952.975952 799.684509 663.049011
1836.588623 938.402283 572.168518
1898.976563 869.532166 585.644592
1710.959595 997.485229 751.218384
1839.225708 912.574463 597.546753
1761.813110 1182.809692 515.033203
1846.453613 1092.017090 515.447510
1681.787476 1160.646606 596.911011
1699.288696 1203.892090 634.818298
1708.582764 1184.078613 594.221863
1766.404663 1263.032349 727.193909
1815.871948 977.681396 575.941589
1809.462036 1053.683350 543.510010
1879.737183 1228.985352 556.794128
1643.808716 1131.402100 715.433594
1765.214355 1245.067017 682.083496
1829.753784 1261.264160 697.435059
1889.439941 1286.147827 675.745361
1896.739868 1300.160522 675.066284
1687.527100 1098.341187 662.967957
1666.482544 1155.648804 629.996460
1707.473145 952.018250 792.873779
1671.191650 996.621582 775.452698
1815.168335 843.182861 728.475037
1703.375610 943.371033 801.505737
1772.683105 1031.901123 626.050964
1727.279541 1092.664673 599.846069
1841.616821 814.771606 812.225586
1716.203491 1163.255005 548.838989
1674.014038 1029.916992 773.081482
1820.116943 1252.317749 625.207336
1937.307251 1155.298584 485.913727
1794.980591 1009.370178 588.874695
1761.771606 990.652649 676.225647
1898.627197 834.336792 592.276611
1622.079712 1194.337280 687.079285
1733.652100 1232.173950 682.321106
1931.340454 1218.446899 539.275635
1824.844360 932.572205 592.969604
1849.241943 865.166504 640.377136
1707.069214 1205.396484 623.153381
1638.644409 1166.953857 708.324097
1650.319824 1147.368408 673.938477
1809.000122 981.712280 615.630127
1745.109741 884.115906 809.092529
1711.381592 1120.331177 602.422607
1687.739624 1188.597046 582.323303
1896.030151 1238.047241 565.910828
1896.817871 821.255859 620.108154
1687.411987 1108.854858 650.880676
1759.716431 1265.285156 736.709595
1778.187988 1215.992432 576.284729
1965.642334 808.038208 645.482178
1740.020752 1171.918945 531.222534
1713.050171 1173.900635 546.254761
1642.820313 1164.095459 669.370972
1677.639160 1107.545410 698.909302
1982.879272 872.403992 605.626648
1711.399292 1196.968628 605.721680
1862.856201 1232.621338 548.206177
1744.290894 1090.412476 569.782104
1681.163574 1115.519775 680.251160
1778.577393 982.140747 672.518127
1763.965454 1178.900269 520.041687
1669.689819 1250.619751 745.641357
1801.418945 1239.511108 628.722900
1713.405151 1174.395630 584.765320
1738.152954 896.429382 784.014343
1691.990356 1156.593872 576.285645
1827.441162 1077.844360 550.145508
1722.124023 1264.828857 762.093567
1836.723389 931.176880 583.040833
1742.054321 1241.480225 698.667786
1844.933838 1313.600586 787.565186
1815.002319 1050.275391 544.531982
1719.679688 921.242554 796.540771
1781.907837 1246.581665 643.770386
1734.085083 1022.588074 683.688965
1727.760376 922.646790 769.856567
1861.665527 867.587036 587.855347
1917.589478 837.329407 587.739563
1840.523193 902.987610 606.206116
1779.864258 1232.461304 629.896240
1833.877686 918.368713 582.560852
1679.090820 987.239563 782.870361
1965.958740 851.815247 588.395874
1803.238525 1067.606812 640.253967
1892.681152 1287.303711 585.960693
1924.646973 1268.111694 583.037048
1909.361084 1206.417480 525.287231
1648.703125 1187.368896 669.753845
1755.756714 954.333618 719.160339
1736.675781 1217.396973 625.853821
1669.977051 1129.709961 650.790710
1850.947144 860.636719 632.293457
1647.394287 1192.123901 673.874023
1704.676636 1177.889404 594.100952
1755.520264 1236.728638 663.223999
1828.034424 1064.224243 529.858154
1858.030518 1088.989746 531.961487
1675.931152 1110.321411 668.749817
1759.567017 1134.766968 512.937988
1912.552612 867.273926 569.148743
1735.057251 1135.466675 558.538513
1699.475220 1095.603638 637.605103
1795.553223 1273.767212 721.927917
1774.526489 1076.964600 551.570557
1740.153687 1027.907593 672.236755
1840.831421 1252.116455 634.302856
1783.482056 939.349548 700.709351
1812.015869 900.134521 666.390076
1892.747314 1122.841919 547.486755
1882.602173 1091.058472 443.126984
1745.673950 1083.391479 571.077087
1734.349609 952.101929 757.358337
1782.637329 1132.898071 505.733826
1777.466309 1209.942505 574.677490
1696.573853 1121.031372 611.785400
1810.340942 970.939026 618.483887
1660.496948 1101.723633 743.163757
1903.056641 1070.156982 443.386932
1685.073975 1092.101563 681.253235
1840.766357 920.693970 583.236816
1913.681274 1213.650024 552.549500
1886.434570 1291.964478 663.464661
1737.435303 1088.086914 592.688843
1643.921875 1170.450806 688.816589
1657.522095 1178.390015 640.557312
1806.176147 958.420654 634.867981
1764.999756 1082.989502 631.005676
1892.736450 822.964783 593.605896
1695.951294 1087.693115 676.167053
1894.110352 868.780334 586.650146
1745.482056 1146.741821 525.320068
1646.372314 1092.200806 748.178955
1890.065674 817.566711 628.386841
2064.229248 856.004761 710.369202
1828.408569 1035.814819 540.544312
1690.442871 1107.633667 626.160645
1894.951416 1272.574951 618.755188
1777.748657 1062.681885 561.723938
1705.252930 1061.203247 727.073853
1700.240723 1239.042847 719.562683
1711.117554 1231.195435 677.428894
1779.124512 1134.034546 516.844421
1898.234375 1050.668701 453.429810
1827.159668 1148.584229 534.698792
1786.979248 1089.160889 520.359924
1863.993408 830.019470 635.103577
1784.837036 944.137146 722.815430
1871.349854 799.475220 645.530212
1912.760864 1197.790161 485.274384
1941.068970 1187.657227 492.472015
1768.289795 1029.784546 633.141907
1682.328491 991.434998 782.226501
1851.450684 1088.053711 490.482178
1703.364624 1247.432495 729.970825
1928.948730 931.827576 595.312378
1846.583740 1021.224060 529.553223
1661.569458 1211.612671 686.299622
1663.355347 1221.151855 679.182861
1864.708130 911.342590 594.594238
1740.095947 1078.302612 646.754822
1826.476318 1095.321167 534.965271
1741.470947 1013.029724 715.549255
1683.795654 1051.010010 747.029480
1956.400513 1017.430359 588.297852
1782.966675 968.131226 663.983337
1846.765137 844.941528 650.125793
1692.832764 1247.903687 760.086243
1877.363770 1278.584106 578.379700
1675.105469 1056.410889 768.778442
1817.546631 1262.888672 684.519653
1781.876587 978.412659 650.846008
1751.817749 1232.323242 666.493835
1691.686401 1108.935181 652.768921
1836.832886 981.059387 547.775757
1741.028442 925.747437 787.711731
1681.747070 1136.889038 629.923340
1886.270142 1078.450928 465.516296
1794.852417 875.588074 732.015747
1754.193604 970.098328 707.575745
1757.517822 1074.738525 571.805237
1674.638062 1062.948853 729.904175
1698.437744 1202.965698 642.262329
1806.814087 945.148132 649.167480
1838.031250 1247.928467 621.179443
1773.505249 1040.312378 604.390991
1724.473877 897.105225 816.713440
1816.298828 1099.367065 528.845886
1783.810913 1054.637573 542.691895
1852.453247 979.195435 551.121216
1793.287231 942.494385 691.131592
1830.031006 1252.504517 645.479431
1772.056152 1278.264404 762.813293
1883.713257 878.874695 575.624268
1642.012817 1216.003662 693.467285
1839.310059 827.473022 701.216248
1825.450195 1315.991943 822.739868
1867.846924 1193.782593 544.846619
1735.249390 1250.238892 728.612610
1780.830444 1230.271973 632.189697
1757.415649 1232.969849 656.578918
1878.707031 1298.591797 557.362122
1915.930542 948.692810 581.850708
1734.110229 905.685730 781.554688
1727.792847 1027.136353 688.319519
1661.911377 1102.165894 739.447693
1785.116577 1212.092896 578.391785
1722.941284 967.543213 750.566833
1753.210571 1252.917480 692.094788
1842.766113 987.194153 537.718262
1792.415283 1226.438965 579.054932
1745.270386 914.193604 765.879578
1848.150635 876.237305 626.360657
1810.150513 952.173096 620.174744
1733.470947 906.775940 804.223145
1759.634399 1116.644165 545.267334
1920.803711 1021.720459 572.032288
1774.404297 868.075989 811.307312
1813.361694 990.856262 568.115662
1809.698730 835.154846 802.451233
1699.764160 986.491882 761.902161
1753.271606 1124.603638 526.947327
1682.168091 1209.480225 654.332581
1712.393066 945.081055 779.443542
1804.818970 1242.393677 527.825317
1659.010498 1183.154419 610.793823
1740.872314 969.162109 722.825378
1902.721069 1280.010010 681.315491
1671.340820 1129.402344 657.410278
1852.271118 867.972107 606.430603
1784.739014 1216.937988 516.449890
1716.732666 1116.032959 604.855469
1863.944702 994.747192 548.822205
1744.219482 1214.039795 628.451111
1894.993530 831.980652 596.594727
1807.256348 1139.030884 524.084717
1737.798462 1236.397095 694.700378
1912.376709 1204.132446 539.096863
1826.987549 1252.741089 620.516663
1737.764282 899.102661 777.332397
1761.607788 1079.059204 577.666626
1821.769897 1007.828247 551.938660
1861.122314 1098.539063 487.608917
1813.705444 986.996338 568.780457
1746.461060 1166.169800 504.576721
1727.257446 1146.118530 578.563904
1805.878540 1275.034668 698.654541
1937.010986 880.585938 575.823853
1818.618652 821.929810 851.669739
1623.337280 1214.244873 716.696960
1787.772705 996.388306 630.659241
1746.538452 920.842834 761.695984
1780.067017 1270.795654 737.353577
1916.598633 1174.151001 532.007141
1891.370117 917.097534 576.806152
1735.301147 1172.169922 534.785828
1677.716919 1140.484131 621.073425
1952.692261 1222.960449 517.051208
1737.947998 842.164490 840.414429
1789.172729 1210.816772 546.331055
1680.515991 1027.182617 778.663086
1912.188721 827.057861 594.453735
1843.164185 887.131653 623.011169
1789.013916 828.453186 789.254944
1881.985352 806.812378 634.918335
1751.751221 1200.291016 586.256836
1778.851318 913.070374 726.135803
1910.046021 1172.467651 543.496277
1817.212402 1036.108643 550.177979
1644.203125 1200.701660 653.904541
1637.595947 1166.566406 712.073120
1854.417114 934.728577 552.341248
1878.786865 820.682251 628.114258
1621.487549 1183.950073 712.647827
1751.334595 907.244202 765.230652
1681.075562 1092.244873 697.860535
1751.332886 1124.719116 542.432007
1735.377319 1027.482788 705.775452
1767.980591 1134.877930 510.405212
1635.242798 1204.968384 678.859497
1832.989502 1214.706909 517.188354
1805.805664 1232.470093 625.777405
1751.184692 906.686157 764.642029
1815.380615 999.164795 556.095032
1898.571289 1004.694214 565.344727
1856.014038 830.055359 668.440674
1738.528809 1092.629883 582.237366
1767.675903 1237.400757 658.976501
1861.368042 842.340271 734.107300
1776.746216 992.171814 656.569641
1917.935059 1094.975098 429.415344
1922.388916 884.320923 594.723450
1718.251953 905.173035 815.056946
1941.015503 880.943604 593.107239
1925.360107 1104.346191 440.793823
1675.836426 1119.604248 657.626343
1816.973511 832.301147 733.905090
1935.812256 1170.134888 480.251556
1726.905884 1065.729980 630.593323
1772.363037 1175.705444 497.742493
1827.930298 974.483582 544.189819
1838.260376 912.298889 586.681763
1759.652466 922.352905 754.002991
1804.484497 1040.787354 547.904968
1796.323120 1095.706909 524.497803
1887.327271 1090.383423 452.397461
1664.330566 1140.847412 643.218079
1776.136230 1271.626465 739.283447
1657.440186 1143.843384 685.368530
1913.822266 1141.008545 517.552246
1906.421387 852.164307 577.722168
1709.342407 1078.532104 634.757385
1825.905640 933.360779 595.854126
1746.878296 897.892212 776.829712
1919.185425 1195.622681 477.062073
1889.044556 869.990356 600.294678
1860.837769 1080.582642 514.405457
1901.050781 1114.226563 534.650940
1694.076050 1101.926880 664.255554
1632.230835 1173.009766 706.077332
1783.184692 897.063843 761.344910
1865.994873 1080.884521 524.221069
1652.923950 1130.162598 726.408020
1689.834351 1089.339722 700.230774
1696.590088 1074.807007 645.401733
1752.721069 1242.788208 666.678589
1695.624756 985.232971 772.407715
1852.938599 819.657043 681.728943
1904.549683 1113.404297 442.381073
1868.563965 1096.403198 484.293091
1782.290649 1129.172974 506.002563
1707.799561 973.635620 767.093506
1891.707031 948.973816 558.597717
1783.168701 1178.969604 508.529816
1723.964355 1255.307129 747.935242
1679.093262 1196.579224 612.828186
1906.544678 1210.351685 540.087402
1777.993652 1070.884766 601.660400
1859.192993 1273.480103 666.355957
1709.105835 997.876648 747.393311
1770.964966 1198.780518 515.515808
1735.683960 1079.292114 609.591797
1919.488770 1112.840576 458.067200
1766.106201 854.222046 784.490906
1840.602661 1255.847900 545.491699
1749.604858 991.142578 700.662659
1762.772827 888.195129 793.440735
1804.943848 973.071228 608.158447
1829.968262 971.072266 556.498718
1855.681152 1327.544678 818.619385
1880.475220 841.088379 617.534302
1728.114014 909.854187 801.683167
1671.244751 1234.608765 742.992188
1912.621094 1095.030518 445.786469
1817.154053 1024.199951 540.923401
1782.772583 1209.981445 523.909729
1932.848633 1299.817505 633.898743
1820.247681 1281.662476 721.491028
1944.345825 1208.397461 500.666595
1722.574219 1286.724609 778.226868
1857.648315 1122.561157 523.802979
1763.359985 1232.248901 681.337708
1849.603516 1103.062500 497.283783
1871.709595 1292.615723 740.801819
1756.083008 926.836426 727.157593
1725.010010 1132.297852 547.345764
1713.184326 1082.445801 599.636292
1800.667114 805.708069 759.917358
1725.596191 1012.590027 726.238159
1701.639771 1206.549316 629.436096
1711.253174 1120.685181 583.401062
1718.305786 1150.778076 547.886169
1748.268433 1242.324463 689.804321
1802.453857 1020.356018 560.195557
1932.545288 1178.435425 486.398590
1825.024536 1111.016846 523.877319
1663.009033 1103.035767 744.475464
1924.406982 1153.663940 502.647186
1818.165527 1227.195190 526.739868
1801.182739 1024.159546 560.353394
1736.046387 1195.322144 573.225891
1864.352783 866.157898 606.832214
1883.328613 1273.630615 653.501099
1870.251709 854.762451 607.054626
1776.637451 889.835388 736.907959
1830.766724 911.074524 652.308105
1764.719971 1121.057617 511.963379
1807.533203 1234.967896 621.221191
1853.102661 1253.118896 556.389099
1856.098145 1210.110596 543.261719
1874.078857 1073.132935 500.416138
1813.353027 971.361816 588.218506
1760.173340 1257.999146 720.570679
1716.650391 1089.098877 628.629578
1817.683960 1202.965820 526.631653
1815.172363 980.863525 577.313477
1817.097534 1052.326782 545.419312
1740.281860 1238.479980 668.024780
1678.729126 1123.393066 645.341431
1742.337402 923.394958 768.520386
1775.942993 1177.733521 506.252136
1907.371826 1281.129395 573.277100
1802.820557 850.131287 733.027588
1812.320557 798.695313 792.910278
1767.107544 1006.107666 658.895203
1763.393311 914.477783 798.233337
1637.743652 1213.322632 695.600037
1813.105103 1240.324341 623.089172
1740.276733 957.812622 768.319275
1824.857422 959.908997 568.753174
1799.880249 1018.595337 607.951843
