ply
format ascii 1.0
element vertex 1381
property float x
property float y
property float z
end_header
1196.675659 1796.204346 432.670959
884.175842 1983.911499 491.205078
1232.971558 1946.990479 201.847305
1082.259766 1800.032471 278.074249
949.008301 1876.576538 462.500793
1091.116455 1840.973022 428.945831
1167.422119 1782.185425 431.697327
1222.590820 1899.587769 290.137787
1075.004761 1816.287964 164.184204
929.496582 1890.186523 277.628540
1211.534302 1873.227417 268.929718
925.739929 1875.155151 452.154358
906.072083 1929.807739 474.145752
1197.158081 1816.018799 307.215149
1137.251953 1777.785156 396.954651
1223.975220 1847.518799 422.503845
919.682190 1993.236206 480.593506
1241.921631 1942.039917 356.213196
1084.865356 1830.259521 166.670776
1004.487732 1852.881958 440.868408
1252.554443 1967.639893 289.175446
1126.916504 1776.290649 303.121979
1091.626587 1790.979736 339.971222
1288.373535 2029.149658 181.815033
1088.965820 1861.022339 488.201538
1274.960327 2019.467163 340.029755
1233.689575 1927.218506 358.958252
1182.543335 1787.064941 346.771454
1089.879150 1864.762573 563.332397
1155.419678 1790.470947 227.382431
886.715210 1912.887451 233.434479
1261.732056 1962.427856 287.283905
1032.609009 1849.151611 231.483139
938.243713 1884.197021 438.914551
996.889893 1871.653076 383.386505
1233.938110 1921.780518 260.455963
1218.169312 1880.895874 164.759308
1124.007690 1781.597168 356.131378
952.953613 1877.443359 304.818756
973.414490 1859.448364 201.904556
1198.875488 1908.879517 522.718506
778.479675 1950.855713 266.640381
836.376953 1912.845947 167.314651
1104.990234 1794.409912 238.034882
1160.637451 1786.498901 320.009552
1199.423218 1838.972534 272.334015
1228.312622 1857.461792 420.716034
1084.583984 1864.381592 577.478577
1233.314575 1898.286011 284.283417
899.831360 1899.079102 371.038055
1205.268433 1915.057495 492.821960
1215.248901 1877.000732 245.127960
996.587769 1874.294922 473.584412
976.357178 1889.033691 467.825775
1240.823853 1917.919189 248.795532
1215.478760 1956.902466 496.507294
798.500183 1958.426270 227.826569
1017.983765 1891.943970 463.321838
1094.031494 1876.732300 533.096008
1222.052734 1890.646606 232.170746
1219.042847 1858.517944 159.511627
1069.993042 1809.394775 419.069977
1205.199951 1856.565430 169.678268
847.322937 1939.086914 450.280670
1073.720093 1876.619995 474.726990
1095.432129 1882.833374 540.093323
899.636963 1913.701782 311.042908
1263.716797 1995.391113 224.556900
1167.597534 1784.999390 426.362885
784.497559 1946.573608 270.812469
1199.843140 1858.012085 380.109619
803.831726 1997.344727 464.675659
1237.126343 1933.504395 267.929657
1197.892944 1833.305664 238.756668
800.177307 1968.945313 447.355011
775.135742 1952.916138 303.308350
1060.171997 1833.294800 336.999146
905.758911 1901.139648 231.239853
1231.252441 1961.976440 499.050903
862.586792 1928.769775 233.353851
1195.194214 1810.804810 419.559021
1241.623047 1943.264771 283.309631
847.090698 1920.395386 308.005890
1121.279297 1905.565918 449.384033
1120.895264 1903.301758 438.180756
1168.474487 1794.473755 257.055237
1166.613037 1914.099976 440.367065
1272.321533 2014.674316 239.810013
870.443604 1922.812378 453.322296
1195.563721 1836.777466 244.222260
870.027527 1907.252319 165.713211
1194.532837 1836.013306 299.475433
1081.066162 1805.458374 209.269058
1068.524292 1803.719482 318.127472
1191.647705 1827.812378 330.416962
778.312561 1950.593140 195.269928
1175.387085 1791.372925 289.351685
775.410278 1956.040527 358.595215
1163.298340 1940.194824 472.349457
1088.539429 1901.039185 529.556580
1006.849854 1857.544189 437.687988
879.348755 1900.865967 190.397888
817.150818 1927.464722 179.549683
930.376282 1943.188477 481.539001
947.166321 1882.427612 359.493866
985.291687 1867.580688 467.466095
894.026245 1906.497559 221.540253
857.163513 1948.136230 478.091797
1077.852661 1893.726929 478.302643
1196.188477 1898.963379 433.474152
1152.274658 1900.155640 436.413086
1238.489014 1929.266357 239.084808
864.264343 1905.195801 414.195557
1093.795898 1859.502686 579.985229
1072.608887 1821.883667 424.477875
1180.801514 1925.774902 533.205322
864.526245 1912.922974 423.588409
807.044800 1939.812012 313.711975
1189.328979 1821.476440 243.265320
892.841370 1912.113037 441.653137
1153.182861 1780.828125 425.818604
1066.634033 1862.686157 432.146027
796.345215 1959.010254 453.867950
1268.530273 2008.294067 267.275024
1142.519409 1933.690186 440.999664
834.580139 1924.883301 360.343781
947.055237 1877.047852 272.271790
1228.307251 1963.181763 468.457733
1142.017700 1863.706909 441.452240
1223.150391 1929.729980 439.825134
1127.146729 1800.226929 160.871002
1125.999268 1790.593628 328.827698
957.723206 1881.361572 185.315781
789.287903 1954.001099 275.148254
1113.098145 1802.834595 168.682632
1088.470703 1797.873413 408.614807
1033.743530 1916.523560 463.262115
1262.254272 1979.047974 156.181870
1030.041870 1836.077881 368.411804
1265.579102 1947.877441 413.823120
1215.749390 1882.373901 300.473053
1121.183350 1803.345337 435.449524
1182.386597 1820.370972 371.930328
1061.233521 1819.509277 201.116028
1286.350098 2033.026367 159.087463
976.153259 1865.902710 214.658249
1242.761230 1949.914673 213.016678
1140.033691 1793.046997 428.333435
1084.418091 1792.381348 309.056488
1040.516846 1839.634033 337.443451
924.352051 1888.579712 402.548096
1144.508057 1776.093994 252.257813
830.066406 1935.598633 276.979462
1135.861328 1769.722290 312.406036
926.704346 1860.644531 166.899933
935.129150 1879.034424 430.961273
1087.867676 1883.561646 274.134460
1132.687866 1777.021973 325.938324
1226.543823 1843.586670 412.545471
1269.338501 2003.942749 321.292084
1137.562622 1769.427979 283.119293
1243.199341 1945.279907 319.070404
1239.295166 1935.549316 184.030075
1108.186279 1786.141113 286.893066
1050.178589 1825.491699 210.361099
1180.377075 1810.254395 229.602478
780.383606 1934.973755 391.741882
1248.858154 1970.541748 227.342712
1174.269165 1791.248779 172.857025
1171.528442 1776.740234 350.680328
1261.010620 1984.407593 360.223999
1244.599243 1947.906494 331.250183
861.621399 1921.906128 437.715942
1255.950806 1949.150757 215.711868
1167.387085 1932.498901 473.898376
1119.833374 1788.692871 345.410675
939.545837 1886.474976 242.833511
1189.075806 1835.146240 362.307159
810.300537 1927.562256 202.139893
808.128235 1908.461792 170.600967
976.817078 1891.798340 474.995148
1229.202393 1938.671265 517.847351
972.140869 1879.436157 385.978088
1027.074341 1859.222778 164.369064
1201.691406 1822.125366 416.542603
817.213440 1939.286499 230.554550
1178.863281 1781.222656 265.536407
1155.289551 1913.113525 486.804993
961.990906 1866.657715 409.580994
1151.700317 1771.625610 301.939850
841.677063 1930.378784 264.079010
989.716309 1856.682617 254.598953
1181.210693 1811.375732 360.165222
1071.265259 1823.729126 434.062622
1004.602295 1856.189941 366.763580
1110.079834 1870.001465 438.113495
1116.537720 1785.317017 395.894348
1066.130249 1816.915161 208.959854
1126.063232 1783.105835 286.452820
1183.836670 1814.510498 285.698303
1018.109436 1908.705078 467.734009
1092.992676 1817.713501 174.586502
1273.056396 2043.078369 198.276443
1103.154053 1875.003296 562.306885
1063.404175 1803.391724 356.178253
1110.882568 1791.672852 170.841171
1249.073608 1892.712524 408.477661
784.665100 1946.017334 220.858292
1164.233765 1784.914917 170.365829
1256.520508 1954.759766 366.738953
1220.521118 1922.680420 435.649323
953.362366 1871.759277 169.344543
1098.576050 1798.680786 371.017395
914.338928 1897.675781 243.551971
842.126526 1958.926147 493.513977
896.063843 1906.852173 385.061920
824.912537 1922.677368 419.211304
1228.084961 1906.788940 201.232513
770.029297 1955.331543 239.141418
875.949402 1912.096680 365.203583
1210.596924 1897.218140 288.255249
1117.729492 1804.269531 174.830032
1184.475464 1821.500732 357.031250
1087.061279 1866.278564 532.716797
1255.444580 1890.459473 417.059143
1151.901611 1785.317871 346.788757
1091.432617 1793.638184 322.466095
1047.792969 1822.680420 163.703049
961.347046 1863.506104 225.399597
1039.888428 1842.960327 425.822449
1183.092407 1811.126831 250.610382
1128.167358 1778.422974 390.687653
964.455627 1878.146240 336.223633
1207.739502 1859.772095 297.655762
932.468445 1895.049438 318.936188
1214.951294 1937.775879 504.638062
982.071289 1870.447388 411.248688
773.623718 1946.640747 397.613556
1228.420288 1917.088867 188.075058
1096.776367 1800.602417 420.603973
1088.342896 1797.898926 241.299789
877.236633 1891.527832 211.375946
1069.378052 1815.409546 407.868561
1117.821411 1780.416870 289.736450
1080.702881 1795.707397 295.506409
768.930481 1984.359497 403.704224
1111.170776 1788.877197 260.225708
761.046082 1953.543701 357.467072
1191.701050 1826.007446 287.604279
1096.699585 1792.261597 263.955017
1022.192871 1847.311157 222.934753
934.311951 1885.115234 320.369598
1221.111694 1877.918457 352.540314
1258.278442 1983.105225 159.158951
1190.544678 1925.817627 515.249146
1199.678467 1833.973022 300.045074
1050.365356 1809.321655 170.128250
1196.842896 1857.256714 172.611084
1018.238220 1851.500244 179.501526
1194.527832 1830.046021 344.712860
1154.943848 1773.078247 388.112854
1007.730652 1859.843140 333.724365
884.383423 1941.798096 467.457947
1191.434082 1883.125854 454.000671
1202.558105 1904.122192 504.747833
844.504700 1916.395996 193.892258
1082.597900 1862.421387 494.117401
1153.971558 1773.697388 250.361053
1064.881714 1822.114502 248.431488
820.644043 1925.131104 397.438904
1028.544678 1892.467529 339.277588
1105.818970 1794.059326 341.499359
962.816528 1894.490356 478.878937
1217.716553 1883.047852 204.905563
829.636292 1945.167969 465.986359
1145.852173 1784.372559 188.475174
1190.722290 1821.742676 218.829514
830.203674 1931.928223 471.953949
1204.166992 1912.553589 436.717072
903.113464 1890.370850 453.962067
1197.868896 1858.949341 425.549652
1010.201721 1848.097290 415.828979
1105.500244 1799.736450 363.037109
1190.076416 1832.247070 230.584167
915.638733 1935.164307 460.085052
826.700867 1918.609009 174.771362
808.987488 1956.771484 472.788177
953.726624 1877.788574 229.365997
1078.934570 1873.981079 438.183136
955.775696 1883.670044 448.457123
1075.214966 1868.600830 532.124329
951.594482 1930.804199 463.030457
1188.395752 1840.578125 430.304596
1090.872803 1796.737671 399.182892
1056.012451 1842.764893 236.686325
1089.364502 1864.102417 574.397400
868.338257 1915.299072 307.120697
1148.129028 1780.175537 214.635254
1089.643433 1785.703857 261.714111
799.067078 1935.536133 352.109863
1187.644897 1872.283081 434.532318
1268.583618 2006.074463 241.129501
1228.339111 1919.515015 450.153656
1230.519043 1926.629028 263.577972
1264.703247 1992.446655 344.048859
779.599854 1946.973755 324.203430
1116.015991 1875.255615 539.336426
959.346130 1860.983765 439.092255
1257.540039 1970.874634 273.424103
1026.296509 1911.217041 463.733856
1173.369385 1796.627686 362.263397
1162.572632 1926.988281 470.896729
1091.358521 1796.687256 261.758636
828.532776 1943.934692 387.947540
1230.128540 1917.241333 380.259888
937.404602 1891.889038 385.312897
1174.224487 1796.262695 309.869354
1007.288818 1866.898926 442.214447
1085.574219 1804.413818 355.119629
879.422485 1912.229492 180.514145
886.731262 1903.665161 435.715729
1060.404175 1816.979858 310.470367
1201.960938 1862.369385 311.075256
1255.071411 1972.932617 233.195572
1112.828247 1869.256470 517.464417
857.002319 1934.594971 319.421722
1282.935303 1945.534058 423.769104
1092.244385 1847.198730 471.744141
994.954895 1850.723755 426.147034
1113.113159 1891.170532 562.325256
1165.405396 1793.090210 249.667053
857.288452 1933.953613 479.157898
1123.858521 1789.646362 243.094223
1220.514526 1894.102051 358.408997
785.660767 1965.009033 424.571960
1292.346069 2030.193115 160.100388
1204.871338 1845.126831 357.604706
1057.593506 1823.839478 186.561279
998.759888 1852.694214 397.160828
1265.844360 1972.053711 338.767212
793.108459 1936.564453 274.549225
1223.755249 1902.431641 310.596741
1149.659546 1792.318848 284.309296
1134.701416 1778.792480 383.499939
1260.462036 1983.843872 312.452820
855.273926 1918.868408 467.999939
1115.675537 1890.067261 538.899902
964.335266 1863.260254 202.594696
1232.493164 1921.236328 360.962891
935.450317 1894.013184 288.698853
1144.270996 1770.290771 309.840149
1069.355591 1883.036011 470.104126
968.011108 1943.901978 470.926788
831.683289 1963.023315 472.438110
1251.128662 1965.825928 273.624908
1227.016724 1912.824219 313.333923
1075.887695 1861.254272 464.212036
864.083740 1915.989258 462.942352
1092.261353 1869.761597 442.443329
1108.290649 1887.013672 447.014557
949.115906 1893.122925 261.513824
1035.890747 1831.787354 382.628906
1190.644165 1825.640259 173.738129
1170.825195 1892.555298 439.435211
1216.720215 1887.667969 280.315369
1264.833984 1986.073364 211.367706
1268.048950 1999.620117 286.660950
1110.391968 1785.756104 396.728577
950.733521 1895.237305 266.236938
967.050598 1873.478394 391.379272
954.350647 1881.778198 320.675751
1121.781860 1884.251953 468.776215
1163.429199 1791.360718 361.892181
1088.215942 1800.197876 320.613647
1181.316040 1920.799683 491.460754
923.501831 1879.981934 462.023804
1035.480347 1887.156982 470.070892
930.565002 1890.463867 374.050171
849.752808 2158.116943 352.976654
1222.881958 1894.966309 286.195404
1264.202515 1989.438477 202.490494
975.275452 1871.817505 307.014435
798.211426 1925.533203 409.792450
986.946655 1856.470947 433.570038
1053.557007 1828.130493 207.471848
1126.657959 1847.867798 427.959412
846.441284 1940.429077 280.630493
1168.196411 1781.200928 358.411743
863.706970 1914.505127 415.202728
848.666992 1937.926636 343.899384
826.896545 1923.122681 418.670654
1065.563843 1816.536133 195.218994
1187.534790 1810.298462 164.083618
914.610107 1890.942749 440.945374
1035.207153 1852.234375 336.025299
855.688721 1938.338623 283.046448
872.686523 1948.073730 474.672150
868.182678 1929.711426 312.301208
1218.328979 1854.938354 448.071472
888.220459 1905.329834 338.651581
822.399597 1914.430786 174.173645
1254.064453 1945.255493 317.567169
975.365173 1873.505249 308.585876
1159.606934 1795.020630 432.036438
971.705017 1863.444214 253.976028
1264.014648 1927.172729 427.871216
1112.650146 1853.032227 432.612061
1209.439331 1937.895386 455.800568
785.658630 1930.744873 371.335266
897.541687 1899.890625 199.855743
978.223938 1879.931030 283.002380
1105.408325 1801.331299 199.808441
860.262817 1925.469482 390.765686
965.766968 1884.036255 456.079193
1146.904175 1856.651978 433.088287
806.867371 1950.916260 382.374725
1219.500610 1903.715820 326.691101
1125.407715 1793.213867 169.293274
1202.051025 1849.853394 238.960373
982.995300 1882.645386 270.028320
1234.728760 1899.251465 227.218628
1240.224609 1932.345825 354.001465
924.712585 1866.394409 165.165512
866.694763 1922.227051 270.082336
980.965088 1859.180786 421.311981
1258.880371 2005.771973 436.264648
1059.389893 1820.237915 344.196991
1282.617554 2034.146851 181.975250
800.626465 1932.800659 402.476471
1049.011353 1824.216309 201.168579
1231.783203 1917.618286 353.624573
1185.590332 1824.377319 196.095688
918.820313 2023.073486 477.643433
1196.363403 1836.780151 366.588745
880.591919 1915.492188 446.275391
1256.494995 1949.982056 430.233429
968.856567 1876.208862 475.197876
1215.145020 1865.419678 257.342407
870.402222 1942.271484 470.355499
920.638184 1893.191284 309.716888
1289.384277 1991.117432 157.239502
1117.150269 1903.289673 546.992126
837.102112 1963.947754 493.526550
1096.435059 1865.072266 518.764038
1201.370117 1924.015381 492.922821
1116.387817 1866.587036 534.916199
942.149353 1881.866699 308.422211
1248.732910 1958.907349 322.197357
908.668457 1897.117920 458.089386
1134.707153 1776.701294 349.061829
1055.021973 1805.322998 284.616821
1155.872192 1802.365723 173.112625
977.889221 1875.004395 292.363678
1272.796387 2010.219116 346.995270
1096.780884 1800.327026 414.598358
870.983643 1913.540649 280.916779
1147.924316 1772.928589 343.583252
976.814331 1892.294067 460.256653
1054.133301 1829.187988 316.760315
1033.464722 1862.187988 224.577499
1165.260620 1766.115356 223.641678
1272.454102 2036.309814 280.586090
1144.338135 1780.909058 307.077515
1183.206421 1781.493164 251.165741
796.549561 1952.704834 434.184814
1069.282715 1859.362549 433.713623
1053.394409 1850.956177 378.229156
1263.722534 1965.514282 244.629791
1219.480469 1930.263062 510.055573
872.410889 1921.048828 163.968399
858.691345 1945.933716 248.308151
1246.853516 1931.125977 268.665131
960.768005 1878.083496 177.041504
1251.622437 1931.990723 422.073059
1135.566650 1781.722290 402.086090
805.171448 1936.175049 371.031372
1088.112671 1858.092041 511.311066
783.797485 1959.893188 334.851746
898.955078 1905.586670 241.639587
888.627563 1910.364258 437.692230
797.637634 1973.738403 292.596252
918.226013 1936.212524 462.096680
1097.284546 1809.870850 178.889771
969.800537 1897.030029 486.845459
1214.090576 1874.934204 287.294189
1157.489014 1788.344360 237.021286
1211.245361 1846.598755 434.011719
1002.688660 1857.143677 298.966187
1107.761719 1857.852539 538.799194
1015.278015 1848.235352 401.905304
1099.711670 1792.182739 366.330292
1213.061646 1903.061035 290.844604
1007.970947 1843.537476 425.757050
1046.177856 1832.366089 417.197754
1079.984741 1860.818604 469.601593
1111.449219 1785.024536 347.484283
1168.219849 1794.344604 195.349899
1275.213867 2016.786377 273.574615
1215.508545 1937.725464 490.841248
1072.264893 1805.774292 269.051605
1123.816406 1800.953857 178.421844
970.460327 1881.101685 363.534027
1082.354858 1864.790649 547.351318
981.696289 1865.458130 464.188293
849.680847 1917.010132 199.960510
1053.110962 1835.772095 315.379883
1215.715698 1886.719971 248.514877
929.970337 1894.546875 382.110321
931.908203 1912.179688 459.567078
1227.916626 1906.035034 296.622894
899.489258 1915.442261 322.937897
1161.487427 1772.311523 254.482224
1059.667358 1816.726563 309.523407
1180.197144 1812.946045 343.094299
1118.632690 1836.410645 439.032471
1186.185791 1926.713989 457.177612
1108.883301 1885.606079 451.588226
1100.484497 1811.417236 423.230133
987.119873 1928.912109 482.201904
821.071289 1955.823242 448.127350
985.934998 1862.870972 409.082916
1061.714844 1823.135376 206.790970
1248.365356 1924.189209 163.008728
900.850098 1900.873779 207.135910
787.614685 1986.083008 296.605682
971.116028 1873.805054 307.632721
1240.270020 1850.828979 447.188782
944.069397 1892.727051 328.092438
1138.404053 1784.959351 211.349701
1172.571655 1821.330322 162.055557
1126.640747 1788.325806 217.989990
1000.035828 1859.219360 444.655487
1080.453735 1815.869751 435.933075
1222.028198 1949.413208 455.677277
863.382019 1930.259399 403.278870
1081.335938 1864.162598 455.560486
1079.215698 1797.588867 331.361298
1020.053772 1850.754761 372.480377
1081.111816 1824.334351 169.348724
1142.815063 1778.006348 386.649323
1069.761230 1862.854370 452.611816
777.209106 1954.891968 214.773666
843.346252 1927.251099 302.393188
1267.241333 2006.514771 381.420105
1181.149414 1915.630981 479.927216
1080.374512 1807.420044 286.993683
1242.054810 1900.506958 433.908356
896.026489 1917.901123 366.807953
1089.093750 1867.205933 441.123810
803.649719 1888.662598 184.003189
1157.898438 1771.759399 291.672607
1141.317749 1799.670776 413.533020
1118.733398 1785.039673 263.523010
918.301392 1902.777222 463.792877
1157.381836 1777.692139 235.921631
1079.285767 1819.211426 425.153900
1079.143799 1801.767334 281.207886
1065.671875 1863.140015 527.644714
1224.739502 1906.853638 250.222992
1117.739014 1902.484009 554.511108
804.145691 1907.794800 171.096451
850.963684 1951.383179 491.622437
1249.147949 1960.126953 181.414261
1153.062988 1838.895874 430.231506
799.173584 1951.181763 224.249344
1224.084961 1910.831909 263.563507
974.844666 1874.296875 424.528748
1094.227173 1871.618652 549.402466
917.694580 1978.051270 467.255646
1219.556519 1885.641602 246.165421
918.532288 1890.975464 344.208832
815.474487 1948.214722 457.861786
1182.424561 1806.897949 409.751434
1177.527344 1926.314453 517.154114
1128.349731 1790.747803 169.521667
1122.840820 1868.745483 431.690125
1160.886108 1775.133545 243.893921
989.156616 1858.750854 451.752930
923.432068 1892.139160 398.339844
918.719360 1884.754272 443.244080
1179.561401 1811.668579 374.017639
915.704163 1888.262695 193.032776
1233.172729 1927.612915 331.299469
843.885498 1968.940796 492.710907
1181.153687 1790.493530 163.972305
1075.189209 1861.750122 516.112793
1054.402466 1808.558594 183.822342
1277.148926 2020.087402 206.847321
964.989563 1874.556885 218.212326
1009.728577 1869.552124 311.768036
1081.265625 1796.798828 272.588959
1132.413452 1779.965454 352.291534
1153.440552 1790.143677 187.337585
1004.007141 1947.739990 471.086151
1255.915649 1973.330200 238.769928
1249.921021 1923.482544 162.093750
770.404053 1948.600952 365.815094
1263.227905 1956.244873 430.708221
1112.784912 1785.365967 372.173492
981.631104 1868.579102 342.100800
1241.018799 1884.790527 426.726654
1089.824097 1808.313110 255.163864
967.987061 1860.838257 200.572723
1078.967041 1877.588013 584.151245
829.906128 1923.239990 204.109421
1077.396973 1870.979492 534.703064
1007.456177 1856.011353 221.390671
1138.614990 1781.314331 222.802551
1219.203247 1890.132813 427.502747
1077.764526 1805.677612 366.270020
1178.250610 1801.805908 290.742889
1121.895508 1792.502808 226.311768
1161.258789 1875.653442 432.326996
1227.134033 1906.567871 286.618500
1004.374695 1862.479248 256.194305
1271.213135 1980.870361 206.999939
1181.348145 1804.278564 368.437653
1231.301880 1897.477295 395.085693
799.136108 1939.479248 432.063416
1235.506104 1925.111328 264.352356
1146.916016 1884.318726 433.478882
1116.249634 1848.357666 439.905151
896.783630 1914.899292 204.107712
1082.814087 1823.593384 424.777283
1280.584229 2026.043579 224.135010
1157.304565 1784.269287 421.950684
1242.416992 1941.187256 318.771210
1157.235840 1774.052856 406.480896
1245.157227 1927.018188 326.629974
1091.546021 1811.139038 416.693787
1211.569092 1876.310669 183.845978
1181.465820 1811.652832 327.952454
1057.123535 1874.652466 478.487152
917.715271 1901.617676 459.221863
1113.109985 1891.167969 558.888489
1247.168701 1925.298096 225.865372
1262.547119 1985.638306 203.035416
1261.075073 1972.844116 381.556641
1123.941772 1780.063232 276.916321
920.795410 1917.564941 468.065521
1168.552612 1803.313110 388.577972
1036.610107 1846.673584 362.679779
998.986206 1847.793945 208.939621
1126.565796 1781.151489 402.917816
1185.260254 1809.562866 366.387177
783.562134 1954.023438 332.351074
1112.234497 1888.495728 435.683929
837.572144 1923.524780 372.396667
1105.920288 1785.236694 325.735016
1193.812378 1833.449585 256.643219
1241.301025 1969.613037 202.497650
1069.360718 1820.799316 364.081116
1219.246094 1849.529175 158.810455
818.387756 1925.277954 420.442291
1220.131226 1896.734985 251.374985
903.107361 1907.969849 252.845535
1220.234741 1918.348389 349.839508
1169.791748 1794.207642 273.074158
1187.961548 1920.303223 504.807220
789.872620 1963.247803 463.156830
791.592468 1947.678589 438.857452
1109.261475 1861.910034 510.932892
914.931396 1885.408203 243.085007
1210.387329 1879.847290 276.548004
921.242371 1895.929565 169.307159
1109.276978 1856.718872 490.130035
815.842407 1951.491089 468.428009
920.989563 1885.157837 186.228745
879.575684 1965.933228 482.657227
897.646973 1967.399048 472.009186
1075.377563 1861.679321 512.390991
884.343750 1988.785522 485.163269
1040.050659 1893.875244 462.054993
1198.514893 1849.278687 174.165466
968.729248 1819.298584 183.469406
861.844116 1915.901367 193.453918
1240.665771 1927.200684 157.862534
812.156372 1928.324341 402.025696
814.742432 1929.102417 213.245270
1204.052368 1820.566040 157.998383
946.240295 1823.342529 183.682449
869.558044 1933.271484 453.214478
1116.059204 1890.072632 451.381683
1115.265625 1804.654297 187.032928
834.426392 1921.532593 199.466156
1178.278320 1830.905884 310.399689
1158.167480 1767.750977 233.871674
1107.266602 1878.344116 498.537994
1277.671387 1976.168945 158.566315
1225.166626 1918.729126 471.836334
1095.662964 1790.899414 313.927216
1000.875366 1867.462158 376.115997
773.250305 1957.117798 391.649445
911.376953 1901.033447 468.441956
829.376282 1936.960327 274.500702
1068.450317 1873.996460 445.654602
1234.631226 1929.347656 354.176147
996.301758 1855.701172 403.079681
1008.785645 1862.871094 344.361755
1114.837646 1788.742676 249.529541
1184.223145 1817.958740 327.518219
1104.072998 1878.239380 503.849762
1260.948242 1983.804688 368.097656
1206.601196 1861.974121 313.861420
854.153015 1927.358765 312.753815
909.846863 1917.681152 362.990601
1153.826172 1773.383301 254.839767
868.169922 1933.622192 460.502289
1192.536377 1907.629761 462.643555
1161.302734 1796.600342 432.773895
1216.996460 1929.127319 497.700562
1286.204224 2019.996216 189.788010
1106.719971 1854.598633 449.480682
1174.174194 1770.697632 325.308777
856.974487 1981.128906 501.255341
1234.846069 1924.365723 198.551468
1101.695435 1850.561401 485.615356
1162.632813 1783.143433 202.726288
1233.253784 1896.951538 203.767822
1002.393372 1861.816528 176.037430
1127.740479 1777.880981 288.902710
907.821960 1906.533081 270.945435
1244.825317 1911.880493 161.345657
1198.622681 1850.764771 208.292053
1276.879761 2019.903198 211.238312
1036.552124 1849.437256 356.959381
1184.698364 1822.715820 296.970886
937.813232 1894.661987 360.647675
1059.598755 1829.688232 378.616150
1168.437744 1771.439453 210.707397
823.697937 1940.730103 466.226532
1182.058838 1812.669678 344.121674
1238.877197 1932.777100 259.843414
858.622070 1933.629883 448.568146
1089.727539 1790.484863 326.636261
770.078491 1947.938232 405.401917
954.166748 1878.814941 275.606903
1265.183472 1993.662354 266.235565
915.743408 1899.994507 242.775146
718.430603 2009.584229 339.186920
1028.583008 1856.752686 386.825134
1120.963501 1786.211304 414.579681
1010.005493 1844.214600 403.544525
1053.807129 1882.577759 434.202881
1239.442383 1915.154297 236.254517
1182.520630 1813.389038 431.990967
1137.679443 1774.691895 351.679749
1223.084351 1958.158081 446.171875
969.779358 1895.290649 446.735626
1079.321899 1809.668213 208.188187
947.955566 1884.827393 308.810791
1100.050049 1848.926758 550.788330
894.194763 1947.665039 462.668793
1225.173828 1852.175659 428.794342
841.216675 1905.157227 167.509338
848.880554 1937.994751 339.658905
1064.688477 1835.489136 423.576111
1232.796021 1959.715210 440.695801
1087.082886 1806.029419 418.384247
1190.038330 1852.046753 235.696121
1107.937378 1795.217896 416.438904
1112.478638 1789.258301 235.885178
1061.629028 1827.219849 163.933090
879.935974 1898.841797 196.783966
856.129272 1914.346680 394.034821
855.969116 1933.935913 336.737610
1117.401855 1892.466064 467.484894
1035.737183 1853.422241 384.711487
1120.701050 1892.538696 515.745850
1033.222168 1839.134766 167.149658
1220.210693 1894.234009 176.401611
1196.041260 1911.480957 456.858521
906.789673 1956.179688 472.831207
1099.662231 1795.861572 386.050812
1117.040771 1881.270386 491.175873
1246.552612 1929.900879 230.582047
986.948914 1869.474487 219.422562
1256.777832 1949.297852 179.457458
1235.681641 1933.221191 310.187592
1206.355225 1910.454590 525.043579
1014.294495 1854.208130 433.883057
919.994934 1915.463257 271.560425
923.571350 1891.308960 167.058609
1118.227783 1791.427490 208.150162
1240.856812 1902.306030 401.146515
974.866943 1867.680542 463.141052
926.840271 1943.711792 463.084930
1228.275513 1911.354248 304.329285
1149.810181 1775.630981 330.260895
1154.427612 1864.263550 433.392334
1221.763672 1889.642212 430.423035
1070.810669 1827.251099 173.084030
1185.246948 1902.304565 434.353302
1177.687378 1795.846436 245.455322
1235.244263 1927.623413 372.302155
1124.778687 1789.521118 269.924164
1195.935181 1844.908936 257.031067
1124.791260 1785.021973 252.962265
843.518250 1904.721436 181.967209
894.993896 1908.376465 307.313690
1176.336182 1917.660645 487.409973
1131.219971 1800.320801 415.164246
977.687500 1898.291504 466.688751
1082.306396 1799.497925 318.233215
966.863525 1882.517578 343.537506
872.258240 1912.477417 433.956848
1181.695923 1832.122192 207.040359
928.264526 1894.079102 420.795471
1030.764648 1843.353149 351.501984
906.516296 1899.638184 386.974152
812.343323 1984.289185 308.178436
995.261597 1893.961792 451.161652
831.831970 1949.432495 298.432037
1138.814331 1781.702026 413.099457
843.996460 1949.890869 468.530060
961.405151 1878.951416 327.370789
781.052490 1946.992065 182.787262
865.807434 1944.526123 202.947433
998.827881 1862.694946 232.051163
1254.610840 1965.830566 255.524689
1132.208862 1780.253540 255.534531
882.857483 1982.635620 484.650574
965.135437 1887.782471 455.975037
1118.973267 1890.982422 560.675903
1102.885498 1806.399780 421.225708
1098.821045 1859.326050 456.471313
793.146729 1946.209473 301.127563
1242.904419 1943.480957 335.913483
881.490356 1910.781250 316.664063
1105.584229 1779.774780 295.674316
947.221130 1872.905884 440.582153
1024.181396 1854.367676 206.492142
866.358948 1924.138916 221.815765
1267.196289 1928.396362 418.342865
1245.469604 1940.660278 225.350113
1093.783813 1800.697510 413.348083
820.865173 1952.844238 222.470825
1038.760132 1872.557617 435.004333
1250.652710 1953.570679 432.152222
1027.191895 1859.694824 442.805420
1019.707886 1828.316772 164.872696
1035.917847 1836.642334 402.893494
1243.818359 1942.328247 271.379456
864.061890 1910.379639 207.737762
846.154541 1916.604248 423.083954
997.273438 1853.564819 195.082428
925.343750 1893.606812 382.084747
1247.415527 1929.399048 296.253693
1118.531128 1783.825684 348.066498
984.839905 1860.038330 210.004074
1181.977051 1817.812622 278.835083
785.069519 1953.755737 373.551910
1053.180298 1827.118042 223.268768
1222.787109 1949.318848 472.431854
983.912659 1867.741211 219.636871
992.046875 1867.643555 455.557526
891.433228 1930.062744 446.945435
1275.086182 1996.291016 177.525574
1206.001343 1865.842285 359.385193
981.537354 1863.005615 443.219696
1180.313354 1810.126343 288.678589
1154.857178 1769.408936 355.686981
1185.847534 1865.711548 428.849701
1036.308472 1832.526367 411.847748
1053.883423 1826.996582 405.559753
1215.590820 1859.682007 206.599457
1083.767212 1803.599609 411.531250
1230.650879 1984.358032 440.731049
1111.629639 1782.425659 378.930206
954.528015 1879.566772 341.164429
961.145935 1888.517700 303.469330
1076.258789 1804.653687 378.288635
812.883850 1942.316162 333.592285
1213.891968 1878.118164 328.448456
855.631836 1918.709961 437.873657
766.248474 1958.239868 340.468048
1113.885742 1790.027588 371.616150
1002.283936 1861.380127 317.404816
938.044800 1877.084717 208.326904
950.796387 1893.533936 258.325134
1037.974487 1829.830444 416.902252
1218.527222 1831.590454 426.781921
949.970642 1878.601196 360.305298
1068.424194 1822.891602 179.561310
977.050720 1871.062378 456.646301
1123.631348 1837.103882 430.703522
965.692688 1953.494995 462.914948
1098.524902 1880.256226 484.612396
918.035706 1891.446533 299.047516
1249.443726 1960.037476 329.758759
1141.511597 1784.233032 416.164459
1199.673584 1847.232544 356.367950
822.263794 2007.381470 482.496368
1140.354126 1906.004395 436.709229
1198.832520 1835.285034 383.891724
1088.584961 1798.224365 329.629150
1233.147217 1917.494263 343.961090
929.179993 1877.133301 227.802795
889.699402 1894.319702 165.617981
1094.560791 1799.445679 396.459351
1128.187378 1806.760010 421.382324
1212.873901 1829.249756 446.777710
1163.256836 1795.437256 330.252930
1029.499878 1876.733032 449.492676
1109.548950 1815.226929 426.262878
1091.124512 1800.402466 402.402466
1076.581543 1802.727783 338.795563
863.373230 1941.531250 491.847809
1094.479492 1805.194214 226.382324
1122.178833 1802.237915 431.147919
1181.151489 1836.348877 250.785889
1066.654785 1818.255127 408.349609
1217.952515 1940.584839 448.370453
1056.895020 1814.048096 168.876190
962.635437 1885.541748 317.497955
1142.685425 1771.546997 248.389099
863.322083 1971.948853 492.860809
1214.814087 1889.090454 440.121460
1214.807373 1880.807251 353.028900
778.142029 1946.040771 397.435059
911.314026 1905.847046 253.779770
1144.274170 1792.205811 332.159485
803.005859 1935.254272 347.809998
1152.375488 1773.587280 328.075195
932.757996 1901.340210 308.005371
761.395081 1959.218262 389.696350
1150.192261 1786.285034 427.785492
1232.737427 1918.094238 334.182587
1195.570313 1881.137451 435.663483
1187.917847 1832.251099 209.225571
942.092834 1986.452637 489.361420
1139.704102 1773.671631 262.748077
1174.579834 1814.916748 210.319427
1169.926514 1794.238403 276.935150
1083.176758 1805.065674 365.822876
818.351563 1961.077026 464.395538
1183.892334 1818.728149 420.447418
940.358215 1942.321899 463.850189
1094.181885 1873.211182 448.902802
1259.357178 1906.396973 408.384186
1262.946167 1988.090820 232.882553
862.362610 1921.804565 419.634827
852.646912 1919.281738 177.933060
858.824463 1904.058716 422.851227
951.560181 1877.616455 365.692413
898.365112 1901.716797 218.650299
804.796692 1932.647827 423.459259
1096.574951 1847.435303 521.185730
1122.605713 1782.017822 386.856964
834.378967 1916.156128 415.674957
1184.679688 1808.967407 326.499573
1244.367798 1921.982422 156.865631
1142.338745 1768.513184 322.769348
870.292480 2003.761475 492.676636
1017.925232 1849.123291 289.531494
1221.530029 1897.483887 189.093094
956.692139 1878.552490 424.881073
1248.943237 1972.286011 255.245422
1190.262695 1916.975952 444.390656
1291.312378 2046.126587 157.674515
830.664856 1942.689331 229.303650
1155.104980 1769.107300 349.753693
1163.271606 1800.420898 383.154572
902.416443 1929.631348 463.164886
1276.595459 1987.695801 162.507172
1195.305664 1810.051758 347.367371
1253.058350 1986.246704 348.077637
903.839722 1908.259888 279.078979
1221.422485 1897.893921 315.805817
798.222839 1943.172119 231.742249
1174.702515 1778.906860 332.394165
987.142456 1866.789551 229.335403
819.324951 1932.371460 169.887634
1230.874756 1854.355591 422.876190
1116.367554 1789.795898 379.186035
1045.646729 1834.159790 274.754822
1228.584229 1890.109741 345.775513
1107.397217 1829.766602 432.618652
789.375671 1932.542725 402.165405
1052.973877 1863.608643 455.167175
1150.587280 1795.336670 402.374969
961.619446 1915.115356 479.982147
1250.143799 1978.182373 327.386658
960.119385 1874.369873 346.059387
978.707031 1873.722656 342.832092
1109.138306 1868.497559 523.196716
1035.105347 1837.948608 197.440628
891.995300 1920.800537 244.259979
1068.351318 1801.359985 295.246643
1171.272827 1805.608032 396.219421
825.276855 1914.583862 425.644653
845.689941 1923.607178 471.783447
996.297546 1836.108276 167.490417
1260.029419 1977.473511 362.533264
1090.219482 1802.191162 234.407379
1126.770630 1781.256714 332.932526
1220.355347 1942.874146 503.328064
1222.241821 1879.695435 313.233459
1192.258789 1902.937622 433.990021
1175.789429 1779.093506 270.437103
1210.590332 1820.779785 402.658417
840.860107 1948.928101 489.394623
977.527344 1871.715698 262.357849
992.757629 1870.347900 269.929291
1153.810181 1787.188354 165.103745
1140.537720 1925.327026 451.548706
1266.031860 1989.185669 326.353302
796.920715 2056.830566 313.647461
918.797791 1887.504517 262.863129
842.448608 1926.545898 215.730331
854.560669 1942.298706 240.717392
1068.767090 1837.596069 180.791931
1200.045410 1852.737549 238.516174
825.257568 1929.303223 331.540955
1096.292358 1791.995361 335.566162
1183.127197 1817.315674 216.651672
1200.469238 1815.403076 406.277252
1103.381714 1795.591919 365.042847
1119.614380 1770.981567 317.358521
1020.245056 1840.942871 423.861786
1049.454224 1833.473511 387.427521
1233.203979 1922.478516 331.262115
931.409546 1882.570435 410.411896
1061.450684 1870.495728 573.897400
1121.659668 1795.552124 413.979980
1134.995728 1774.493164 386.735565
1197.175293 1901.324341 480.447113
787.713684 1937.639648 449.396393
1213.905640 1863.660156 379.723297
1023.803345 1840.609863 357.976776
1213.331543 1831.176392 410.724548
1021.304077 1853.589844 331.698181
1038.878052 1837.222290 195.566391
940.676697 1885.891235 317.381317
1089.832886 1794.194824 369.006195
1142.967407 1776.682739 293.403046
970.147156 1876.530884 357.846283
1083.947876 1796.536987 392.151855
872.964478 1943.381836 471.868469
786.833740 1977.891968 250.772049
932.226013 1887.654053 469.140839
1182.589111 1801.296875 257.552551
866.781189 1917.529907 243.010223
1196.023193 1845.963867 299.215271
1059.800293 1817.702026 329.224670
986.115417 1866.418335 406.770966
1253.011597 1939.265137 229.745514
803.136536 1946.582397 286.128082
1159.388184 1794.026978 191.911346
1246.828735 1907.324585 401.574280
1074.155762 1857.536255 446.728638
987.744812 1880.803833 378.244232
1141.101563 1797.098389 160.321594
1184.281006 1819.821899 236.127014
1058.004639 1892.604980 451.701477
1153.097900 1789.354980 192.483627
1020.297791 1883.978638 446.084106
1222.272339 1932.401978 443.223511
957.028503 1866.130371 429.989502
1044.009277 1838.547241 397.237030
1265.293579 1986.747070 305.969635
1055.847046 1892.636353 341.751526
1029.466797 1854.961182 443.676575
1032.466797 1844.411499 438.749786
1252.107544 1901.000366 419.389221
1000.410889 1863.615112 306.117371
1103.521606 1865.845337 430.340729
980.949036 1865.821655 240.434433
865.592468 1907.583618 243.809326
1168.846436 1786.118530 167.872162
1044.644531 1833.875000 429.005402
1111.429688 1792.908447 253.216934
1106.628052 1789.684814 380.985962
806.253174 1934.407959 363.701538
1199.864502 1836.666382 431.482025
1032.737427 1881.278198 463.379578
1217.097656 1855.341675 159.730347
1205.990845 1877.140991 433.623322
1111.807617 1863.203491 487.093994
1228.261597 1889.311401 350.439606
859.999146 1919.683838 330.041443
886.560059 1914.680298 236.989105
843.813782 1917.105225 183.622620
853.712463 1914.223511 425.858887
875.556763 1929.165161 391.092499
1004.033936 1848.969849 243.409515
1258.434204 1978.700684 336.956665
960.968262 1864.931641 430.730286
1234.823364 1923.235718 301.668457
1043.465088 1844.805420 234.212753
1071.414429 1876.819092 466.627563
1191.011597 1856.967896 306.134949
806.355530 1941.956665 402.841766
1248.464478 1875.362305 444.221863
787.314453 1949.008545 175.156754
841.641052 1922.074219 356.672577
1062.341187 1840.743042 165.897675
880.726013 1910.867554 336.970764
1209.293457 1836.103760 158.213806
1165.203735 1792.291260 282.457764
1129.194458 1789.117188 370.034271
1114.558716 1894.232788 490.676422
1067.792236 1882.565308 252.426254
815.180786 1933.767822 437.184723
893.783386 1906.276489 243.247025
1109.128052 1787.193604 294.609528
835.833374 1914.567627 425.236847
1090.913452 1863.998291 490.690796
766.357422 1952.029907 236.148331
1273.944580 2007.380737 287.366486
1220.129883 1877.999390 431.419312
1227.470093 1925.502441 183.108902
935.025024 1876.443237 454.138245
1111.853027 1780.248169 171.590363
845.564453 1930.042480 481.365021
910.370422 1892.654175 408.474182
1220.010010 1949.184326 441.950500
1261.299316 1990.272705 171.012589
905.839294 1912.078003 235.293594
851.185120 1929.008057 300.657318
1238.968018 1928.153442 388.662262
1151.938965 1773.652466 350.092438
796.807800 1934.847168 418.331726
781.106018 1971.424683 436.907623
928.856995 1904.692871 247.918930
1097.525269 1790.541260 334.227997
1083.769653 1811.875488 420.254395
958.439941 1886.763916 478.599335
928.317078 1936.425903 460.005310
967.244080 1872.215942 445.436432
1101.422974 1822.888184 432.214355
1032.902344 1841.255737 175.196518
1124.735718 1884.854492 457.594391
1214.849854 1909.627441 451.607574
1079.117065 1811.856567 395.905762
1107.625000 1871.115845 514.772217
915.379883 1937.514038 475.634552
842.049438 1919.951050 404.597290
1228.087402 1925.314575 455.333588
1235.920654 1928.194336 317.327148
1080.759521 1808.201172 381.110596
1256.182739 1950.312134 300.705353
1160.865356 1781.798584 248.728134
830.951355 1945.395020 333.414673
1203.253784 1834.991333 421.297791
1004.670898 1844.868042 425.612274
1005.881287 1867.656982 382.742035
1151.371216 1773.034424 394.390625
953.266968 1881.956299 387.475067
1136.062256 1777.290039 357.012238
843.124573 1919.612061 392.716156
916.994446 1899.752930 425.320526
1189.341797 1834.559326 192.146454
1066.761353 1820.770386 410.334778
1239.213867 1931.722900 365.941803
1251.297119 1977.237549 177.807312
888.256836 1968.217407 479.838287
1215.051270 1943.430054 505.393829
1133.652588 1779.029907 340.378479
903.620361 1915.182007 235.247940
875.646240 1937.644165 352.281769
1088.507568 1868.137451 444.942261
1088.997681 1793.862915 265.774200
1197.702393 1825.032959 406.793365
1147.895020 1828.468628 426.435211
863.544739 1945.717163 491.238068
1128.280273 1784.017822 412.024567
1193.409180 1785.724365 166.567047
1199.150024 1845.848267 307.129089
841.729370 1948.615845 485.409576
907.785706 1902.164185 352.966309
1127.052734 1785.959961 288.336273
1259.973755 1981.002319 225.219849
818.910400 1942.794312 193.231369
1016.126404 1853.770264 340.737305
1104.161987 1801.209351 413.047211
1126.282349 1778.595947 281.679657
1061.176636 1831.816528 225.399094
1180.194092 1812.661865 347.072815
1034.050293 1844.608765 425.267914
1208.286133 1862.442017 300.700073
1063.490112 1822.949097 394.535034
1062.801880 1851.766846 448.572845
1137.744751 1770.358643 301.668121
833.917786 1924.896484 270.015106
1179.985962 1793.916870 267.132568
840.182739 1917.048584 198.317429
973.613220 1872.827881 459.933716
1095.961670 1871.729248 568.357666
1225.102783 1885.828857 390.583679
1148.771118 1783.199341 180.287216
922.506470 1914.621338 457.809570
1199.634033 1854.447266 336.690582
1089.974121 1869.364136 556.965515
1161.611206 1772.104370 399.984436
1266.891357 2042.768066 214.928680
1181.793701 1803.133911 292.656219
1061.717896 1831.732544 173.730072
1115.281128 1785.577515 384.551025
1176.169678 1780.279297 252.444366
1199.267944 1843.557007 214.812714
1104.748047 1795.004761 373.729004
1220.367676 1896.156860 301.273651
1194.817749 1832.987671 392.502319
866.695557 1924.395508 235.884964
1077.671021 1814.765747 393.306091
1096.385986 1874.772949 485.446320
794.899902 1948.133301 440.270538
925.555298 1891.965820 281.124908
841.161194 1923.886475 227.602615
1190.091675 1919.772095 521.620056
815.782959 1946.429199 465.800995
1197.663208 1833.769043 394.316437
1252.444336 1986.234741 426.285858
1225.861328 1874.392456 400.700470
1057.461182 1833.363770 386.007690
956.707397 1879.528442 288.490540
1165.180908 1781.594360 186.318954
1206.114014 1861.329590 344.825958
1112.854248 1789.077759 302.047150
996.920227 1853.763306 438.762421
1270.032715 1931.956421 414.168701
942.224731 1886.292969 388.733459
1223.798096 1905.524780 310.287598
1071.380981 1816.762573 198.865952
1176.296997 1792.299316 392.667236
1206.826294 1861.425537 360.239166
1218.739136 1873.166016 383.294098
1237.761230 1934.191528 383.520386
1193.081177 1915.381836 439.983734
977.289001 1870.227295 345.382538
1279.620972 2020.837036 220.442291
1080.502319 1807.314575 235.752502
1163.293335 1773.408813 222.906113
834.381897 1933.984619 339.292053
868.032349 1915.388306 342.514465
1134.271851 1780.893677 412.518097
1050.425415 1830.682739 245.468781
1126.855347 1804.408569 175.885696
1163.881836 1795.713989 405.870544
1018.437195 1862.933594 348.711151
924.191162 1885.140747 184.814835
1216.417725 1844.837280 404.654785
934.185608 1940.685913 473.735535
1174.930664 1780.576782 220.433578
1257.993042 1973.276245 276.186707
1126.880859 1808.476440 424.474243
1160.455078 1774.652100 387.658020
1212.353882 1876.073120 190.072525
1265.083496 1994.240723 319.741669
1206.551758 1912.977783 499.661682
1169.628540 1918.423950 482.925049
1225.866089 1841.686035 418.751526
1076.310913 1814.837402 436.287689
949.222351 1885.601440 195.425995
1076.237549 1805.639893 259.243561
928.060608 1876.949341 441.993103
906.885803 1902.062744 236.162277
1051.279663 1842.946655 309.987274
1260.851685 1980.662842 354.787201
955.755737 1906.068359 478.151337
1016.565002 1895.068970 464.519043
1135.145386 1781.928101 258.639374
1122.503662 1887.341431 473.090424
1052.862427 1887.472534 462.551758
786.806091 1952.399414 232.551727
831.133118 1957.971191 249.581772
1146.899902 1924.495117 482.174377
860.497192 1919.694336 313.765533
1210.915527 1927.155273 514.085388
1031.289429 1842.017944 427.260651
1161.406616 1764.866943 253.148773
851.156250 1930.519409 415.564301
1228.671631 1908.216553 157.728622
1131.896606 1775.351563 347.193695
1163.817139 1784.865601 309.980591
840.498962 1932.263794 336.061218
844.782104 1958.884277 475.087250
789.004578 2019.392944 443.487640
1254.317139 1973.030396 323.875092
974.497620 1870.508179 356.380768
976.213501 1877.340942 385.498322
1139.311279 1788.973145 208.928268
1143.260742 1778.552246 278.267090
1226.406250 1958.737183 494.517578
1221.026367 1841.377808 428.244598
1180.991943 1808.473511 201.402817
929.103699 1886.246338 287.362701
794.889709 1954.070190 457.675751
1000.542786 1851.210938 247.111404
981.500732 1854.112183 424.624634
979.876099 1874.816895 184.473480
939.264893 1891.300781 327.427704
1177.830933 1779.906128 197.108749
1068.069946 1813.940552 251.937469
1188.506470 1932.947510 500.392181
988.409424 1863.683350 366.495422
1084.575684 1806.881348 218.861542
928.694092 1908.227783 287.698212
1201.372681 1928.101685 528.825012
1202.355835 1848.462280 279.145264
833.497681 1932.203613 282.041077
1233.640015 1844.314331 445.217041
1237.068970 1929.928955 342.329224
1209.698608 1848.146362 432.469543
929.664246 1894.359375 345.155518
1141.590210 1804.607300 165.445969
954.323486 1891.949951 258.858612
1099.017456 1793.885498 299.192505
1152.924683 1777.459106 412.396851
1059.373291 1816.325439 206.540833
1091.438965 1792.434326 349.944855
920.996155 1917.684448 470.164886
1106.049683 1802.535400 428.663361
947.647949 1878.469971 400.214539
891.542969 1992.602051 472.060150
917.073853 1892.102539 179.649277
946.192078 1885.134644 329.626984
908.928284 1903.295776 368.142517
1060.283813 1821.376709 403.188660
930.977661 1908.039063 227.670151
1066.721436 1797.884033 249.492630
1135.231201 1777.373169 333.731110
1106.044189 1803.091064 337.156982
1217.438599 1882.275879 218.259552
1148.824341 1762.343994 181.730743
853.104553 1938.632935 470.822144
1227.240601 1889.847900 247.023651
1184.391113 1836.787720 425.112885
1207.998413 1934.013916 455.716553
1211.425415 1815.389282 438.680878
1181.563965 1816.539551 353.819061
979.882568 1871.522095 214.437195
1043.055542 1835.426392 222.320389
1194.093506 1836.003296 338.420990
1177.282227 1803.291992 444.133881
855.234131 1902.451416 182.016815
1064.854858 1817.621582 284.975311
1112.443359 1891.473022 491.599609
949.019958 1873.583252 433.484589
887.079163 1988.284912 493.753815
1077.754272 1888.631958 475.632721
828.049866 1942.850952 437.406830
887.707031 1913.162476 284.633057
1023.430969 1849.515015 340.653992
1263.872437 1995.294678 169.471283
1230.673828 1886.112061 428.843170
935.514771 1896.189453 347.868042
1132.651611 1780.471802 168.536453
824.451050 1932.457642 451.355835
1123.162842 1852.179810 432.658539
1224.619385 1950.947266 431.425598
1151.862305 1784.882324 168.319641
1241.559692 2017.239624 427.930176
1016.343323 1863.854492 258.299194
1216.421997 1882.841797 354.276520
1091.130493 1800.234863 217.320969
1094.473755 1863.542603 526.095154
1218.502441 1873.106812 387.006531
1148.781738 1772.378418 345.904053
1047.006592 1830.993408 187.053848
1020.032104 1858.583984 224.755981
1158.619873 1810.384399 431.415253
1146.261475 1835.218872 430.224121
1043.762573 1834.499146 378.401917
1174.210693 1795.814697 173.150406
803.331238 1939.278931 383.202240
1034.196533 1848.956543 341.184937
1200.519531 1930.828979 480.712616
944.149353 1871.600952 443.448700
996.782288 1870.344238 281.785187
1120.306763 1786.947021 236.745651
1229.901978 1895.251221 430.199463
1225.118164 1957.942383 458.757111
1168.669434 1766.455933 213.542252
987.754211 1868.053345 307.752899
1136.442261 1782.695190 261.759796
1229.597290 1894.706055 221.115036
964.376465 1865.594238 174.450027
1189.448364 1818.354980 279.085114
883.867065 1968.805664 479.941406
