ply
format ascii 1.0
element vertex 1408
property float x
property float y
property float z
end_header
635.036560 2160.221191 246.817062
652.830322 2161.235107 244.869843
355.189972 2057.841797 443.086945
596.772156 1966.687744 554.602173
759.125305 1950.777588 421.065613
513.134888 2312.736572 345.390289
399.322235 2163.628418 419.077667
382.819794 2058.904541 369.062469
480.476746 2026.680054 398.231415
525.170654 2096.331055 248.569031
610.879333 2140.410889 271.628510
383.951813 2176.148438 453.395691
653.097046 2155.624756 215.238922
482.217590 2286.651123 415.723724
383.107880 2060.140869 387.860504
467.513611 2198.952881 349.388031
540.108704 2045.252563 352.649780
634.590332 2092.754395 247.784286
522.559692 2075.550537 259.072296
387.668335 2251.921387 490.935242
668.851563 2021.792969 321.825867
792.186829 1969.972290 402.596191
714.994690 1961.250610 434.158661
699.389893 1974.022949 395.002197
536.355164 1972.987671 507.069702
409.472168 2165.485840 406.168640
430.881805 2294.763184 509.427094
479.823334 2105.818848 249.478165
550.224731 2021.709717 439.464142
782.787842 1924.859741 481.767853
404.194397 2081.387695 338.013519
455.246490 2017.345825 453.872803
619.346802 2089.042480 273.583130
449.896820 2112.254639 308.379822
623.811646 2002.695190 413.867645
542.366638 2127.705322 252.862244
581.865234 1985.467163 498.099548
545.115723 2047.517944 414.246063
534.805847 2029.776489 337.486389
614.706177 2024.549927 327.911194
674.816284 2151.956543 186.002777
394.898590 2010.542114 440.068970
662.551880 1995.564941 384.917419
409.428131 2006.828857 468.056427
753.572632 2032.666626 346.814728
468.294739 2139.873047 306.843353
495.128754 2099.412354 229.953735
479.244385 2086.092285 268.619537
661.806580 2053.859863 297.657806
807.940674 1919.450928 455.510529
582.948303 2260.432617 265.002747
666.771729 2074.145264 304.614044
421.532593 2026.896484 437.451263
491.842163 2142.110107 263.208313
570.428467 2057.112549 264.712280
420.930695 2043.754639 367.199432
485.315582 2055.893066 318.274963
506.419739 2240.162109 315.298981
709.023865 2104.746826 196.955643
762.549377 2010.404053 353.544006
415.078186 2317.380615 517.865784
397.025085 2167.818359 423.678345
488.809479 2011.440186 476.810089
607.973022 1967.812744 556.927490
484.018494 2085.155029 280.395752
420.216980 2148.621094 377.535645
395.029175 2157.071533 417.367249
658.550293 2089.555664 287.691193
766.933411 2053.114746 350.099487
747.705750 1969.966919 439.100159
708.934692 1992.180054 346.433777
343.544952 2092.755615 439.174683
559.331055 2063.699463 260.846680
426.119904 2113.512695 367.827148
681.537720 2029.331421 300.807556
572.400085 1998.055420 457.701019
525.987000 2079.935059 250.149933
607.957214 1948.850952 575.891846
773.567444 1956.135254 420.818909
831.233521 1981.744141 403.993286
672.868896 1955.330322 488.240143
451.428253 2018.428345 478.777893
696.790833 2016.366333 320.453766
688.536377 2125.086914 172.668549
609.109009 1948.182373 544.625610
599.128906 2267.153809 252.614014
471.749969 2056.541260 328.316498
631.340637 2030.788208 341.789856
484.317841 1996.268677 501.352386
583.791687 2019.199829 399.823090
506.321533 2273.625000 271.064240
569.365784 2048.197021 326.859863
511.988251 1999.453247 493.291687
718.146912 1977.666626 374.731659
454.564819 2035.537476 384.629456
686.087830 2118.481201 193.948151
469.486603 2203.539795 332.049042
440.220215 2051.761719 342.143311
802.109192 1977.616943 371.283478
834.125916 1948.236328 427.848541
591.461792 2109.568115 264.482025
376.948303 2224.273193 496.851166
462.451782 2000.098633 464.411530
661.935547 2001.071289 429.675659
747.678589 1963.003418 445.176270
687.447571 1961.073486 555.105347
600.995789 2013.909058 422.440552
478.783630 2286.074707 395.226746
436.553955 2041.280762 380.269592
613.040894 2110.929688 258.398529
398.829620 2041.118042 415.773560
637.499146 1999.676025 409.120697
594.153625 2051.857422 356.586823
689.487000 2001.984863 381.894958
697.043457 1960.487671 471.436646
510.978149 2005.167480 475.093170
641.854370 2018.312866 329.865143
657.058533 2010.132446 347.294647
549.129883 2189.211670 264.694397
667.252563 1991.479980 406.186676
441.192535 2075.912354 311.819824
403.372437 2274.956543 510.107544
358.236542 2195.632080 475.707062
441.961548 2262.028320 415.885468
617.192627 1990.486694 435.375854
467.967285 2064.657471 294.110016
645.067078 1906.910278 580.072632
535.639954 2318.793945 289.915070
875.342773 2026.351196 481.085175
523.139587 2156.375000 250.042007
420.583435 2224.354980 432.902679
391.657623 2253.133057 506.753448
502.102051 2042.059570 329.049164
458.020325 2064.332520 322.263214
382.005615 2191.526611 470.390503
506.755463 2294.867676 362.112579
356.034241 2163.866699 464.654327
394.388245 2271.222656 514.078735
621.176270 2080.438965 307.999573
577.761292 2099.208496 269.112305
504.011902 1969.742798 535.684814
532.075806 2015.086426 461.199921
610.154480 1970.645874 501.705017
482.099518 2041.231934 344.734375
659.475342 2163.718262 230.653061
519.295715 2286.336182 326.749054
596.531433 1957.706909 529.648682
546.960266 2290.892334 299.738129
782.878235 1973.702515 405.578644
594.194519 1935.466431 583.305664
538.880676 2178.908447 252.047318
468.429047 2154.869385 300.185791
486.251038 2057.533691 293.888489
624.788574 2130.410156 250.099655
790.785645 1962.645020 420.812103
705.987366 2039.844360 312.195374
610.048035 2132.966309 225.780594
580.801819 2079.279785 287.275909
407.885742 2066.784668 334.289490
527.074951 2042.548340 359.992126
808.431824 1918.836304 460.574432
409.731659 2047.555542 377.814026
507.786987 2023.911743 391.408020
389.295197 2069.382568 363.714539
529.229187 1991.320435 511.408844
605.878113 2053.646729 288.542786
393.653473 2242.096680 497.030701
537.909973 2019.169067 384.990204
644.492981 1987.304565 496.087158
350.029755 2098.593506 444.601440
429.125793 2320.083740 493.440277
384.628021 2199.618652 474.133942
439.026520 2231.382813 414.529144
616.257935 1996.486084 449.235077
477.914917 2089.458008 245.942200
492.032318 2266.421631 360.164246
537.357483 2034.492554 384.768341
536.113770 2006.561646 489.335236
406.031982 2163.714600 393.306305
619.930969 2035.550537 297.491913
812.922058 1959.976318 405.746857
547.567932 2061.476318 282.358734
380.592041 2168.197754 454.174988
463.314056 2275.609375 417.009369
604.450500 2253.184570 218.815063
389.548920 2115.656006 405.013947
567.214417 2055.373779 275.520569
600.941223 2074.802490 295.516998
707.538025 1983.734253 408.059723
536.606934 2152.840820 256.582611
384.174835 2151.721680 429.642883
418.645203 2075.553223 358.226410
628.664307 1989.816162 438.000183
742.870178 1980.683228 392.548553
417.343811 2171.190918 406.415771
427.659241 2122.324707 343.907288
409.331024 2109.199951 370.978363
660.212219 1983.578369 437.672729
606.242004 1984.421143 472.339722
552.683533 2096.030029 391.646667
618.587402 2219.116699 240.327377
620.049072 2155.047607 273.804352
636.079224 2065.989258 311.985046
436.163513 2124.102051 337.580536
504.233765 2033.900513 338.865692
692.700806 2042.574585 295.697937
659.521301 2111.399902 212.056931
596.349060 1990.867188 490.344330
427.074219 2070.707520 311.358490
435.991241 2201.483154 415.426239
543.929199 2062.894043 262.466309
598.624878 2197.930908 265.588379
614.414795 2069.589355 302.885132
782.797363 1979.340210 396.513123
380.534302 2064.192383 388.047516
472.177673 2026.767212 401.763336
593.296204 2216.384766 238.997192
483.808929 2022.347778 405.773529
413.216461 2057.016113 349.216583
455.506561 2232.004883 389.181091
440.586731 2303.347900 467.674286
535.804626 1971.061035 516.242920
671.210449 2002.220337 352.214539
760.180786 2021.595337 351.539734
655.742859 2124.201416 214.771042
483.543488 2028.383789 412.619202
423.155151 2224.748047 429.559479
423.044769 2148.034912 378.308197
690.744141 1980.211792 415.135681
401.428772 2032.240479 459.543365
619.652100 2036.523193 313.156097
470.349823 2057.536865 305.657013
834.955261 1937.894653 470.079102
661.167786 2125.617432 194.538483
787.747375 1962.118042 567.289917
446.998627 2253.711914 399.839996
670.236694 2040.813965 297.029510
607.649170 2098.069580 263.866241
606.862488 2094.989258 265.089996
677.342529 1999.414917 360.878754
463.429138 2032.769409 380.014832
753.055603 1993.088867 375.440460
540.199585 2166.591797 259.517761
559.662170 2025.087280 393.551544
553.923279 2076.471436 254.058441
808.584229 1941.174683 435.456940
477.463470 2038.450562 346.750946
554.412109 2134.333008 259.640289
669.483337 2137.044434 224.290146
638.259338 2104.336914 252.084518
666.439697 1971.542358 455.506622
619.099609 2219.789551 214.314575
651.757446 2162.787354 229.825394
563.738037 1953.426392 552.902588
492.881317 1971.001099 524.797058
688.425049 2126.044434 314.456421
449.735596 2241.633057 388.928162
392.415161 2304.015869 525.444397
516.843506 2252.957764 255.512009
422.963898 2039.267456 424.102631
514.979004 2242.668213 264.384338
679.437134 2141.939209 194.364517
681.198181 1969.175781 484.276215
516.568115 2064.833008 274.163757
479.749969 2098.781250 270.257050
406.837860 2115.591553 367.923096
638.064331 1988.780151 470.948975
376.612549 2157.572754 439.817505
574.434631 2044.508911 312.202576
606.106873 2030.140503 343.229034
540.347229 2041.228638 313.225647
506.912537 2034.180298 405.066223
635.834656 1988.116699 438.130219
642.258118 1970.906616 473.812103
508.639130 2278.500244 344.111969
448.771027 2187.146240 369.501190
474.425842 2041.594971 341.412628
489.036224 2062.523193 314.380524
702.309143 1991.958252 340.948273
501.024384 2075.663574 249.345062
739.900879 2043.656006 335.466644
451.434387 2135.284668 299.956360
669.889832 2109.524414 199.080811
534.913086 2085.895264 240.797134
729.170349 1969.894775 416.823303
433.740112 2029.391235 415.565155
613.986816 2030.393799 339.740845
544.135742 2296.298828 284.647064
420.685699 2147.468506 381.427155
495.472321 2230.690430 333.061401
658.266235 1981.820557 429.183197
496.510681 2056.394775 295.580933
585.709229 1927.060303 592.717896
721.080444 1920.976929 566.868042
505.801788 2242.408936 272.476227
454.870514 2180.396240 347.918793
811.331116 1933.638062 430.410797
372.633606 2159.145996 464.363434
481.212097 1997.598511 495.167450
785.830811 1993.046631 371.840454
489.036835 2037.253418 337.972229
604.646484 1965.381714 507.381134
701.295532 1998.721313 339.820526
518.901733 2305.337402 305.082825
574.345947 2023.893799 434.368164
462.549927 2036.388062 362.470459
812.201172 1945.410156 419.591461
479.030762 2055.419922 307.839050
610.611145 2116.321777 235.179611
519.317078 2307.696045 351.639709
583.274597 2003.043945 447.795624
590.835388 2225.514893 267.367035
458.141754 2130.235840 306.503235
403.173401 2159.257080 399.444427
489.177399 2049.605225 328.564850
451.751129 2248.825439 410.838135
372.311951 2088.305908 409.466980
685.317505 1984.618408 380.163177
621.270935 2096.553711 251.125107
432.213989 2027.990601 459.805023
455.371063 2128.807373 320.034027
471.122314 2098.088623 280.191803
416.819061 2033.750244 420.472961
679.393799 1989.244995 421.822693
672.908325 2092.704590 231.300018
728.405029 2017.754761 331.358063
628.665771 2003.002930 425.417389
674.591858 1901.154419 595.608948
556.871338 1965.101074 523.627502
469.504608 2087.125000 274.572479
413.162018 2307.950195 493.546875
734.530151 2067.006104 343.763336
626.383423 1954.748779 520.301880
493.952087 2225.186523 323.718018
667.835693 1965.312378 470.205231
515.796814 2143.948730 242.208542
767.250854 1963.401978 394.039734
616.118042 2171.497559 267.202637
511.721344 2242.194336 261.140900
642.748413 2055.882568 306.304779
399.998169 2196.232910 429.866058
711.181702 2012.750122 329.229401
479.884125 2015.737305 457.064880
544.141846 2047.585571 298.548218
412.240295 2235.697266 456.419189
424.987122 2051.639404 348.981506
536.301697 2045.371582 298.266571
459.026459 2031.059326 350.801453
622.605530 1905.478760 608.462708
572.372864 2263.811035 268.044830
568.945313 2033.548462 411.149506
488.158783 2076.253174 256.375336
492.934509 2030.417236 362.181885
487.708649 1991.675781 515.462952
441.352570 2089.123291 282.794006
690.521423 2108.642578 316.405548
424.508331 2059.351807 351.068878
580.331665 2261.514648 266.811371
510.432861 2263.276611 311.827454
380.966278 2091.424072 383.714081
500.552124 2036.801025 422.940552
592.915161 2238.935303 255.581909
593.475830 2098.784180 278.613831
436.045593 2157.022217 365.839661
705.411926 2053.396240 320.311066
642.819824 1998.072754 414.634399
401.621063 2059.481934 431.563629
642.432373 2016.304565 343.726257
779.989807 1979.994995 376.737244
434.622009 2287.716553 463.350159
497.209167 2017.862305 446.856903
553.132690 2051.174805 342.688690
757.912292 1920.607788 489.993500
561.879883 2037.753662 413.918243
498.737213 2086.872314 250.494751
547.769287 2073.320801 262.435516
627.419312 2110.395020 221.651627
662.678955 1984.320679 437.937866
539.617188 1970.674316 519.235840
564.449585 2147.204102 267.613434
421.141602 2270.793213 452.345337
782.780701 1948.448364 564.140381
520.699585 2033.991089 344.682312
456.822021 2155.411133 337.293060
725.208313 2027.696411 312.805359
501.725616 2129.052246 245.392303
461.963257 2083.192627 267.815216
739.572449 2034.364868 338.769531
413.479248 2303.092041 509.496521
621.655762 2220.612793 203.704147
592.501465 2285.764160 297.429688
745.504150 1985.342896 376.155640
703.617859 2009.244019 329.748413
632.535706 2018.833862 350.744110
493.114105 2148.040527 237.693741
531.138550 2228.537109 271.902557
843.529053 1949.463501 412.715881
434.004822 2268.681152 445.777161
817.885132 1943.864990 418.509033
623.754272 2093.491211 276.671631
434.408356 2147.542725 361.975525
472.660492 2194.443115 336.801941
628.794495 1935.398438 556.161926
427.126648 2249.500732 428.140900
585.571960 2247.215088 266.937927
678.482849 1917.494263 597.148376
669.953430 2043.340210 306.463776
524.573975 2307.118408 335.255219
645.419373 1896.078491 626.603333
516.415588 2004.772217 475.844574
603.052002 2096.122559 281.661072
650.283508 2145.040527 223.180191
387.060760 2142.936523 427.558075
581.046387 2177.667236 283.033112
709.529968 1966.279663 434.854706
534.567383 2045.717407 330.665558
754.370056 2002.247314 358.116699
580.449402 2251.273438 274.080597
635.196472 2015.377319 347.351654
574.063171 2016.575317 415.109039
439.608002 2048.524902 365.014343
506.792877 2040.096191 352.385559
581.238525 2105.356201 271.014191
643.541016 2045.943481 296.556396
598.939636 1992.199707 448.740479
500.548401 2139.211182 234.818741
491.730713 2162.020752 282.160400
774.636536 1948.169922 412.949738
590.217407 2047.986938 295.535553
534.825684 2070.895996 254.998276
607.196899 1936.648682 576.530823
409.646454 2062.353760 346.321411
584.483765 2253.748047 257.128296
653.038513 2155.574707 215.749664
727.869507 1987.411255 357.340912
742.280579 1980.020508 379.024719
505.348022 2017.687012 357.278992
469.059601 2011.432129 461.669647
392.719116 2109.898926 386.551392
796.817627 1982.801636 388.150848
786.394836 2004.520142 366.135437
764.826904 2021.413086 355.415771
543.687500 2257.213623 278.042786
595.871704 2223.076904 216.055817
365.390930 2038.146484 445.530273
400.876831 2306.731689 515.421143
442.109314 2276.108887 424.669495
439.058746 2053.332031 331.391052
498.885620 2322.772461 398.628326
564.410400 2262.636719 290.527679
657.651306 2097.886719 299.360138
420.990967 2126.730225 366.175079
634.439026 1891.288452 601.221252
678.889954 1893.576294 636.349670
507.649353 2261.931152 348.945190
455.402222 2033.084839 389.886261
547.084778 1961.063232 552.294617
716.164856 1986.063354 346.422546
418.591003 2230.520996 426.929688
549.666077 1996.996704 472.618835
655.726257 2125.745117 208.048248
539.725525 2099.425293 237.354080
749.077942 1905.707520 575.152100
428.189056 2027.716064 433.327240
567.338562 1956.737183 533.229187
423.030731 2062.242432 382.935242
584.458862 1988.422363 480.356689
430.697662 2118.638672 345.724274
607.477600 2009.764893 423.562531
627.384033 2094.866211 296.858521
459.001007 2264.027100 391.442993
495.716125 2222.893555 324.282990
554.299438 1907.438965 541.901794
558.380554 2058.678711 278.261993
600.463440 1999.803955 444.162842
632.446594 2215.981445 229.901672
519.972412 2260.965088 273.143768
584.444641 1989.637207 455.930359
542.935303 1935.505981 562.043945
521.544617 2298.381348 298.350433
596.799927 2223.932861 239.981842
391.843719 2259.735107 508.035370
626.600769 2111.210938 260.967651
400.836975 2279.660400 493.466858
563.508240 2218.899170 255.246384
729.685730 2045.182861 330.079010
415.913910 2030.525757 444.484344
840.557800 1989.853149 380.993042
444.175873 2319.806396 477.536804
503.516235 2236.489746 334.523987
390.860687 2057.164795 386.400055
596.495422 2269.648682 259.719666
832.232971 1978.675903 408.237335
585.880920 2252.242676 260.466431
479.416565 2123.391602 277.439178
683.180847 1982.270630 465.406219
770.916748 2058.083740 662.123718
601.564331 2167.147461 280.196655
737.524475 1961.552979 402.169067
648.737976 2139.686279 217.463852
453.710541 2019.039673 452.099731
398.822327 2117.036865 392.467529
691.660706 2000.393677 333.146210
755.000061 2020.899780 658.330139
604.992249 1938.478271 555.399963
642.031555 2201.512451 216.049713
332.501862 2065.721436 430.576355
662.167358 2108.223877 207.025940
491.387207 2047.590454 330.997467
656.948547 2016.192505 392.842560
524.641663 2083.470215 246.084106
570.215759 1969.868042 527.250122
390.619690 2168.346680 436.101776
762.388123 1905.711670 529.203186
686.195923 2025.642944 305.005554
428.878418 1996.455811 480.029816
546.408508 2130.724854 263.014954
481.044586 2220.843506 341.750000
854.722473 2007.341553 498.267639
501.493195 2286.535889 367.398651
577.240906 2143.919922 285.207703
496.109833 2049.029785 335.386719
582.129333 1984.783203 503.243164
446.837830 2333.489502 475.900574
573.762390 2006.406250 459.181732
601.632019 2036.515381 334.575043
569.825500 2156.000732 278.931213
407.349365 2102.871826 356.133270
729.026489 1964.057739 439.483337
571.632568 2226.892334 284.999969
607.562988 2230.362305 221.721268
648.029236 1893.206421 628.327393
556.625122 2008.298096 465.626770
563.229126 2023.634155 398.262390
595.660522 2039.185059 341.578186
445.215179 2029.282593 415.289795
423.641235 2104.709473 333.326752
380.764496 2025.481812 449.748871
581.722229 1964.296265 529.051941
435.608582 2119.482422 339.346313
625.166321 2015.763184 380.538239
662.395813 2135.631836 267.119080
507.669098 2167.044434 241.280304
589.806396 2224.138428 258.062653
583.637024 2055.197021 276.445770
523.931763 2050.016357 298.875275
573.567871 2023.359009 396.106934
691.366089 1994.898804 496.391846
516.526611 2298.719971 329.471832
521.697205 2289.690674 278.145630
752.954224 2005.592529 348.728943
744.195190 2061.746582 336.701477
562.779114 2264.131836 294.232971
469.547699 2068.604248 324.543793
500.098267 1953.691650 526.989136
577.347534 1945.947632 548.811218
457.244873 2028.991699 443.130554
507.521210 2319.458984 307.357788
584.796692 2042.798950 316.620941
581.419067 2203.194336 259.885986
569.747437 2048.235352 320.696594
368.098755 2055.643311 418.543610
706.524963 1994.973633 330.998413
593.317444 2239.070557 251.976105
641.901733 2153.048096 177.498566
487.463867 2034.574829 347.298309
759.773865 1983.538330 379.934448
645.833130 2090.166016 279.616394
408.795135 2116.447998 383.761810
696.807007 1905.565552 565.636841
637.080566 1968.608032 483.515320
378.266357 2049.225342 421.463470
450.981415 2038.618652 377.556976
643.398743 2003.811401 393.683289
462.860413 2063.968262 334.604553
407.547791 2062.760254 337.680603
395.865051 2241.368896 464.850433
649.238953 1994.263306 420.517426
443.002045 2147.360352 348.689667
434.416595 2030.844604 408.772003
561.744629 2234.860352 280.028595
379.359222 2051.551025 403.271332
642.299316 2105.667725 255.379150
506.549255 2036.607666 415.827057
464.274536 2071.974609 328.071869
696.311890 1995.533081 369.557281
748.541138 1897.687378 555.571716
386.876160 2171.734131 447.313416
466.162537 2223.822510 366.498077
446.670715 2053.540527 328.604980
452.789185 2205.992188 382.717804
765.673401 1916.841431 489.915100
406.228729 2278.114502 526.361328
516.418762 2233.664795 262.972717
500.589081 2032.498901 416.483856
457.555908 2013.991211 497.506958
610.359863 1933.485229 563.170166
562.909729 1978.773926 544.331970
477.675232 2029.901978 382.826874
818.242310 1985.317993 394.804657
614.852295 2191.988525 314.683136
545.793640 2062.589355 258.243530
485.709198 2157.553223 291.858124
736.471558 1987.233032 369.982697
584.319031 2005.757324 421.262238
556.278015 2080.895020 251.789749
538.988464 2080.594238 263.717896
518.318726 2080.501221 248.700226
561.712402 2209.739990 262.954193
354.587494 2056.022949 424.424683
345.895996 2075.936035 432.311615
396.783356 2051.459717 382.319397
388.044342 2210.472900 480.734283
754.030457 1981.742798 364.329346
609.899109 2092.980225 281.020630
721.831543 1904.944580 573.890808
802.281128 1975.108887 382.668671
352.609772 2115.877930 450.780396
590.846436 1994.020142 469.912750
580.831055 2022.578369 419.533600
491.091919 2075.926514 250.014587
729.518494 1964.569824 384.877197
444.214935 2128.147217 325.010956
463.845306 2316.145020 438.827576
528.710693 2037.278198 365.566803
404.390961 2063.235596 341.081635
585.344666 1933.605713 571.083801
474.793732 2065.793457 289.696014
751.675598 1934.950684 467.933777
562.281250 2006.669312 458.829742
506.563416 1982.240967 521.760437
519.924438 2333.115234 298.588776
501.156891 2110.607666 245.057312
386.648468 2055.397949 376.362274
854.787109 2062.969971 550.224243
510.286438 2067.335449 270.215759
383.823700 2148.525146 428.190643
690.848450 1935.251343 553.663940
763.632080 2079.432129 349.640167
617.435303 2026.514038 323.699402
754.283447 1990.082153 360.708832
509.284760 2086.695313 242.654938
507.190613 2232.065674 303.494415
545.561340 2045.981934 346.884705
804.489563 1942.333618 526.121155
380.829071 2201.531494 484.997437
570.835571 2026.243530 381.423279
362.682220 2081.483398 430.924225
531.192749 2116.205078 239.078476
663.479980 2183.508301 215.283646
382.712036 2271.222412 500.003021
548.272827 1961.358032 535.274109
644.258057 2135.103760 222.584991
551.057922 2234.839111 276.726715
527.219543 2048.445557 300.759094
530.323730 2059.177246 288.751373
788.240112 1994.939941 363.017914
574.579163 1947.888672 534.671082
597.153625 2143.057129 287.199127
434.390106 2102.391113 314.788788
426.153381 2160.248779 398.450623
600.801575 1993.836426 438.392609
511.000092 2028.009277 369.658997
615.944092 2215.753418 248.711792
772.079529 2014.912231 369.555817
633.196045 2145.485840 237.124435
520.766235 2313.508789 355.896667
688.267883 1990.753906 391.680420
729.609497 1965.958496 426.073761
405.558319 2062.087158 369.610535
721.840088 1957.717529 446.374054
422.167847 2102.150146 361.203522
542.644592 2124.014893 242.694733
720.178467 1972.959229 672.135376
418.563232 2318.965088 508.801117
441.917053 2038.799805 357.193146
576.906067 1993.362183 477.577484
405.579437 2282.527588 506.681549
666.656921 1971.413574 450.073761
370.989319 2139.192627 444.541229
558.621887 2075.272461 256.932709
445.413757 2001.588135 493.990540
507.784241 2093.158936 232.442352
569.676575 2256.999023 285.610748
495.600616 2001.294434 477.932983
347.883942 2106.519531 444.994995
708.509277 1958.059448 468.543091
462.637054 2022.284546 372.566772
654.975281 2010.951660 367.900879
584.586853 2200.600586 269.293762
587.515991 2116.187744 288.912598
658.112671 1966.530273 567.428772
501.813477 2027.801636 471.628265
761.026306 1945.886841 440.755951
603.501099 2094.344971 281.868958
451.502930 2186.709473 358.039642
820.667419 1970.273804 404.253326
516.231934 2131.739746 242.451767
570.791931 2230.266113 250.310028
512.244873 2020.182007 481.571381
505.501770 2064.386719 289.277039
446.066345 2195.846680 380.229797
611.760010 2306.752197 344.310944
486.179321 2048.460205 323.678192
586.503662 1945.252563 551.609497
465.045746 2309.738037 437.914520
681.057312 2000.939819 372.108307
429.284393 2068.158203 312.753784
386.920258 2132.785400 406.673126
416.348938 2054.715332 408.279266
492.023010 2063.791504 269.348450
716.621704 1948.978271 486.414948
431.090912 2223.150879 423.752350
528.020874 2032.827515 341.753387
621.929199 2166.727539 308.989746
442.071259 2197.490967 382.860474
621.567688 1942.343628 550.462585
530.527649 2030.009888 414.447693
661.010193 2125.352295 198.084183
376.857300 2110.056396 418.136139
383.828278 2068.918457 402.129913
586.706726 2041.441040 316.544098
823.884033 1938.352539 491.722778
518.413391 2164.787109 227.738953
782.384644 1963.163452 389.906403
499.070496 2102.059082 217.954926
434.076752 2038.073486 404.898071
665.239563 2048.280029 296.331573
749.595337 1911.501587 551.437561
402.214264 2101.148926 362.099792
625.368469 2152.590332 290.999664
579.038635 2012.594482 419.725922
466.565399 2057.775391 329.091888
456.313110 2315.312256 449.703735
596.555786 2125.372070 249.798828
529.827515 2043.382690 291.644775
494.423279 2027.633423 388.930267
621.188721 2066.182373 305.845459
538.466309 2038.797729 314.269562
496.326202 2264.276123 374.424713
631.341125 1938.123291 555.930664
686.640869 1977.283569 416.898102
447.995300 2109.406494 286.332306
644.537476 1947.548706 526.051514
455.147064 2082.024414 284.056000
591.409851 1983.508423 483.518097
568.554016 2240.991699 273.967316
715.360107 1937.106445 519.553467
750.909546 1916.148071 556.927063
394.878052 2157.474121 405.158203
359.985138 2108.033936 435.809662
812.624695 1934.465942 437.598511
646.895325 2007.897339 388.853668
494.523315 2172.811279 257.529388
600.424377 2128.592773 289.015900
565.908936 1965.128418 550.700439
665.703979 2208.094971 238.417587
425.901245 2226.685303 410.034698
525.557495 2033.872192 363.797028
676.421265 2141.252197 206.194016
404.344391 2324.992920 534.900391
459.326538 2120.922119 321.842041
734.982971 1915.946655 558.250793
671.067322 1913.442261 606.730713
748.059875 1918.717529 502.730286
543.898804 2053.314941 302.654907
550.068420 2049.496826 300.599304
460.229004 2089.286621 282.144897
495.392334 2096.489258 249.798248
511.238403 2277.840820 280.413086
600.654907 1958.865967 529.278381
563.233093 2252.300537 278.925629
446.286957 2282.305664 444.139130
750.550354 1940.462769 476.832764
416.004059 2243.194092 456.308014
520.177307 2108.404541 245.379669
770.551514 1941.110962 420.139160
393.568542 2204.169434 465.411377
583.118713 2182.366211 280.042023
768.527710 1987.980225 615.100159
449.502167 2100.629883 303.555573
828.377258 1952.408691 397.808960
530.669495 2054.866211 297.604858
535.732178 2039.253906 318.869843
745.888062 1933.934570 560.073547
412.877655 2109.926514 360.818085
532.763611 2048.899414 422.479553
477.629242 2148.217529 301.706696
715.352356 1966.073608 481.877655
726.193298 1935.083008 513.555359
704.146729 2008.861816 330.478333
662.955872 2045.131348 299.727570
441.114349 2182.388184 377.459534
549.822693 2044.291016 318.751099
643.543701 2140.212158 211.575180
621.465820 2116.266602 261.002319
650.887268 2044.830078 293.228882
575.074890 1992.448242 480.625336
643.257996 2123.520996 230.219666
898.391418 2099.348389 506.257477
616.226685 2160.590332 296.288177
420.973083 2046.713013 375.178345
395.772003 2169.283936 429.484680
467.311432 2121.291748 293.848145
584.203552 2224.884033 272.104858
524.988464 1972.625000 547.239807
442.089172 2033.209717 420.989532
588.810181 2100.134521 273.095398
329.055878 2084.201172 434.235687
487.012268 2220.577881 255.668274
569.387024 2248.269043 275.886414
606.875305 2105.663086 282.661774
531.259399 2326.459473 306.298065
533.249878 2104.005615 250.451752
477.453979 1984.934448 516.421936
624.359680 2172.208984 326.332275
587.805420 1981.296021 504.521973
661.085632 1913.292480 570.638428
807.723633 1976.274902 375.294128
412.715759 2209.407227 433.010254
501.472321 1990.914429 519.320801
440.576691 2233.262939 393.928711
355.014740 2079.565430 412.771515
579.165161 2070.683594 402.736786
731.206726 2045.134766 329.002411
385.931335 2242.376465 508.249939
530.705627 2291.698486 291.183655
541.216492 2041.159180 306.979095
466.503937 2085.168213 267.425537
396.449127 2150.180420 409.868286
509.188629 2288.846436 298.198181
400.960510 2070.777832 337.188141
459.923981 2172.873779 334.358185
582.806091 1998.581177 444.274933
731.654297 2003.408569 331.005463
541.626099 2046.124878 334.222229
671.351135 1950.653687 515.956970
684.332153 2064.701172 321.950043
377.912994 2267.426758 498.076782
505.503082 2027.684326 370.300873
747.349121 1920.105591 537.896973
774.165405 1933.968994 525.304443
619.298889 2100.098145 251.544220
632.541931 1985.386230 457.160919
598.114380 1971.511108 527.151672
694.268494 1990.393066 404.470520
512.611511 2171.988525 245.314682
598.725159 2100.402588 273.711609
378.524811 2287.183350 510.220428
501.197327 2160.249023 243.633148
642.591980 2013.515259 361.998871
621.737122 2163.968506 269.223419
570.860291 1916.125000 557.666809
637.433289 2005.505127 399.322754
650.533020 2112.215088 208.204544
743.221497 1977.067627 514.401794
519.782898 1961.431274 544.912231
617.109436 2013.298584 396.142059
382.417358 2067.651367 393.969330
739.254028 1973.154785 378.298828
649.074097 2150.299316 208.679016
454.685760 2315.283936 435.056641
573.984314 1936.385986 583.857971
652.595886 2122.288818 190.399673
608.794067 2030.171509 340.220520
457.503265 2116.972656 300.864441
384.753784 2204.021729 461.521271
478.119690 2057.266846 309.998138
419.668762 2054.398193 364.763458
444.096954 2098.656494 322.425598
438.411011 2185.379639 376.372009
660.958374 2056.479980 298.536865
626.596863 1873.720947 590.340210
524.744202 2080.350342 261.750610
496.523987 2015.680542 365.543182
386.228058 2225.694580 476.071686
821.904724 1919.180420 471.946625
566.253601 2324.343018 307.518890
498.420837 2019.303467 373.132874
561.426575 2057.938721 271.729767
499.548004 2077.287354 244.805405
716.113647 1898.784912 580.951721
699.619019 2089.682129 327.269104
732.592407 1950.505737 495.018463
489.224487 2023.854858 460.343475
779.520691 1992.609375 367.324005
472.851501 2020.794434 415.729523
369.875031 2132.531006 454.289215
585.373413 2207.174072 288.348663
613.148926 1995.438110 479.998138
498.601166 2264.474854 270.398804
758.532776 1997.978882 364.294952
536.538452 2181.795654 250.610641
623.494812 2054.313721 306.923431
600.735718 2096.491943 266.009644
666.392090 2021.907715 308.066711
469.681000 2079.094238 257.511353
423.900879 2060.470459 349.993530
763.298035 1963.394653 412.849762
602.605591 1961.920044 528.169250
667.350159 1993.093262 380.747589
515.399780 2219.044189 264.920593
456.569641 2137.687012 317.344910
440.875885 2061.703857 313.081238
738.220032 1991.808960 381.445648
688.056213 1965.458740 466.533691
842.954590 1980.910400 388.576263
436.009491 2094.290771 301.942169
590.686279 2231.653564 221.756256
471.019623 2030.028931 381.858154
500.704926 2139.370361 240.467773
585.737305 2004.987427 436.160980
450.606232 2024.242554 460.392181
559.756042 2242.446289 252.500656
632.777649 2055.968750 299.439087
413.863373 2286.983887 525.988464
697.289612 1976.445068 407.607239
643.853149 2111.101563 199.391571
466.251038 2010.322754 493.030823
569.532410 1926.077393 569.038452
351.424255 2069.088623 361.348083
669.086243 1896.611694 637.164368
493.447998 2152.973633 278.552917
697.169922 2025.162720 328.040161
421.578186 2281.558350 474.671509
738.916626 2033.299316 319.247864
512.553711 2133.811768 239.555573
795.176392 1989.019775 370.313965
447.116455 2006.050171 476.760712
625.054016 2080.852051 303.014893
530.448792 2125.567871 246.287399
563.141296 2026.295044 414.774139
754.804443 1950.205200 569.125671
618.352478 2229.397461 210.955872
417.608826 2029.137085 463.876343
781.330505 1927.342529 465.237671
558.994934 1956.978638 539.396057
651.019226 2155.218750 222.902405
626.137268 2142.256348 284.050507
403.835632 2253.419189 480.968842
485.437347 2078.046875 264.412079
470.669342 2035.787231 368.740845
403.968048 2125.003418 382.447235
663.159485 1989.554810 403.866425
700.006287 1982.120728 434.118256
441.795837 2065.273926 301.219177
629.836487 2147.181152 253.064087
784.588440 1918.256958 486.075226
609.525330 2032.451660 305.060425
545.235474 1962.553955 534.207031
592.300171 2247.068359 256.380554
622.465881 1948.806641 538.125244
479.221863 2034.483276 419.975525
399.514221 2042.455078 416.781281
485.737488 2292.107910 371.325439
762.025330 2003.699707 635.934204
552.335327 2081.638428 263.733490
506.429565 2062.591309 297.688232
609.223267 2124.935303 275.279938
680.859375 2030.129395 334.680573
681.211243 1970.778198 478.201141
764.067749 1930.995239 535.675354
467.446472 2103.100830 267.763275
535.869446 2185.370361 263.395691
491.889740 2149.756104 253.811249
484.380798 2319.954590 414.905212
525.358704 2035.119019 334.846283
486.252716 2035.928345 373.332214
556.989014 2054.931641 289.121643
568.953125 1963.868286 573.681763
631.724731 1893.669434 599.613586
447.700836 2067.669678 305.530731
821.578918 1974.763184 386.039337
643.316833 1991.242432 423.805328
756.649658 1954.871216 422.928253
456.683044 2030.375488 397.859100
411.706573 2166.689697 400.832489
474.079163 2223.536133 358.997833
404.607849 2138.840820 401.980988
686.403931 1895.730225 606.443481
631.853394 2091.578369 252.928284
461.212921 2163.144287 316.034302
535.773315 2031.656738 348.144196
472.827637 2253.740967 382.539001
507.987274 2308.982910 371.743561
603.889709 1953.488525 542.517029
492.678925 2193.658936 307.663025
465.587250 2247.854248 389.826324
477.191498 2055.372070 305.063080
609.713501 2210.867188 252.507019
441.962769 2062.218994 305.336823
574.330627 2022.908569 394.337830
477.741028 1979.260010 519.280762
628.906982 1921.837280 590.144836
400.632233 2170.376709 422.338989
470.108185 2074.693115 310.924652
330.620544 2085.765381 425.506165
505.464020 2083.367432 236.906769
788.445190 1921.478882 471.825897
389.631805 2264.053711 503.343292
510.894043 2064.071533 274.267334
450.851440 2138.265137 318.082672
476.670746 2064.260254 281.552734
725.919373 2001.483276 336.352905
662.331421 1978.654541 481.195587
617.329834 2037.192383 295.661591
542.111450 2039.121338 329.077148
529.866516 2088.864258 252.829926
462.924896 2024.057739 434.403778
667.076538 2005.988403 345.834869
653.888916 2042.216797 294.266632
626.439636 2210.947754 225.153214
639.229675 2028.834229 320.242218
439.940094 2170.741211 368.871094
578.659546 2212.542725 265.607330
512.094299 2112.573486 237.358002
732.035461 2016.755859 346.971558
597.437561 2098.493652 293.599915
476.805634 2038.097534 355.332611
639.234741 2029.654175 331.970795
614.473145 2239.479248 213.943771
437.349609 2079.331787 321.720825
509.587738 2023.270020 374.553833
499.311523 2052.258545 328.357788
463.293945 2141.699951 332.014313
629.939148 1972.445435 528.130127
632.991028 2109.986328 225.942978
340.290833 2066.445557 418.134186
480.325928 2034.477539 364.422424
564.775085 2204.871094 283.198395
576.593201 1976.106201 483.433136
596.036438 1980.135864 479.091705
666.116150 2130.885742 183.289963
556.406677 1959.241455 531.537109
662.736694 2142.095215 202.740036
425.874725 2050.659912 354.178955
571.160156 2208.854980 282.348145
646.391418 2022.874268 348.824646
476.666107 2036.177124 352.907959
697.283203 2011.933594 326.072113
571.972412 1959.045410 578.459167
353.230682 2111.103271 447.535431
643.530090 2119.558105 219.991135
409.085358 2052.641113 364.894684
794.978699 1946.871582 434.901489
338.091827 2073.881104 438.383179
641.344910 1991.591797 447.891510
629.733459 2107.418945 245.903351
530.019470 2042.865112 308.833466
499.513519 2188.376221 243.357086
468.757629 1982.889526 514.041016
348.718597 2051.057861 428.193024
586.313965 2111.876709 265.800720
547.202454 2094.958252 386.328461
729.855347 1899.210327 656.099060
700.321228 1977.489746 437.588928
426.800568 2272.479004 464.290924
605.197083 2114.846436 264.586639
629.312378 2205.229248 192.140717
479.105377 2052.078369 328.591736
490.926483 2203.134277 261.645355
657.933777 2029.294800 301.360260
674.113037 2155.231934 186.245239
665.677307 2136.739502 184.781845
500.361572 2205.058350 250.151535
605.794800 2155.990723 287.805481
634.026733 2105.449463 265.888336
492.984619 2047.957520 353.463165
627.822388 2090.938965 283.107849
447.149628 2217.009277 374.959198
552.668701 1996.925293 495.253418
477.288574 2116.316162 263.060577
683.439087 2062.808594 290.085510
542.575684 2070.145508 249.193726
735.253967 1965.558716 409.145172
655.520508 2128.246826 214.902145
504.360901 2327.189697 392.952667
669.088257 2029.992065 308.128479
555.125793 2037.699951 309.992584
667.146057 1998.742432 355.103912
376.094910 2215.287842 484.633270
436.907288 2192.748779 390.442749
721.229492 1907.852417 578.194397
483.077881 1999.709473 512.594543
636.296021 2027.974854 346.061859
698.751892 1908.299805 580.654968
489.234161 2287.715088 364.872467
719.606262 1977.152588 365.923676
522.872253 2023.061646 345.673004
685.791382 2162.034912 224.716049
637.479919 2011.103882 394.660065
664.437805 2134.547363 185.045929
649.488892 1926.066040 553.004578
767.174927 1906.896362 523.323181
796.848999 1971.456299 564.090027
619.462341 2112.815186 235.337006
465.359192 2026.160034 414.203735
461.667358 2076.547852 273.540314
358.509308 2078.435059 452.095581
481.307739 1993.425415 483.584290
375.476654 2071.841064 371.856354
486.118500 2217.605713 333.976105
755.625427 2013.822021 358.008301
668.158752 1992.896729 402.051666
546.489136 2072.976318 258.603973
478.817932 2141.710693 284.257080
833.966614 1964.737549 395.018768
470.645142 2025.129517 402.746613
811.347351 1930.871460 435.863464
427.325409 2149.094727 362.236877
827.323792 1959.361084 431.805145
392.256592 2064.611816 374.289673
793.923523 1958.898804 415.309052
556.901855 2009.342651 451.779694
444.176880 2035.829956 394.890991
787.334656 2000.800293 369.757721
457.754608 2015.444458 512.480042
589.129211 1947.538452 590.114929
764.406616 1947.629028 485.227600
484.432037 2157.609131 279.722595
494.324799 2171.023193 242.406921
358.057587 2147.192139 461.261292
490.521240 2045.601196 328.634888
490.520538 2141.427002 268.944672
424.911255 2278.694580 451.678314
543.582397 1951.918823 557.738281
555.150757 2197.847168 277.681122
452.452240 2029.635376 423.281219
571.629761 2051.976563 277.768005
649.559387 2023.657593 320.769775
824.367798 2047.569092 383.879547
838.601807 1970.357788 425.171326
773.479919 1949.960815 429.375000
478.945129 2017.932373 397.158508
451.123260 2308.062256 456.010956
633.424622 1968.003906 572.952026
431.517578 2042.405762 385.530762
442.815765 2040.076538 368.372925
486.595459 2295.801514 372.969879
789.329529 1943.120850 438.207733
794.242615 1932.381592 435.208038
520.675171 2035.540649 453.454254
460.715454 2013.324707 461.479858
426.281464 2047.835938 422.975800
664.766296 2049.827881 310.257568
582.651794 2091.988281 277.581238
466.436859 2099.947510 272.572968
523.891602 2094.119385 232.656754
547.477966 2040.143433 323.834961
476.084320 2064.659912 333.361267
523.895691 2082.816162 241.168350
623.939819 2118.250488 221.033493
564.488770 1961.757568 521.327148
617.543091 2113.517334 230.207031
531.081787 2174.097656 252.008087
822.077576 1986.909912 373.716003
416.764374 2068.590820 334.495422
780.824829 1949.953369 424.090637
497.915192 2031.636719 384.208588
530.306641 2087.464355 238.862228
858.320740 1997.618896 388.356232
795.725647 1929.838379 436.428894
612.743713 2037.816650 301.509491
444.488342 2111.156006 315.992401
698.790039 1945.664551 508.540558
457.086731 2031.318237 455.619995
543.984619 2087.624756 240.804337
543.836731 2315.550781 303.862885
730.231689 1993.734741 354.620972
484.358734 2103.764648 263.317322
429.408325 2038.457031 387.045105
781.448242 1977.700073 384.915070
597.264893 2104.229736 281.569550
440.905396 2109.564697 312.991119
804.467896 1972.499146 365.833496
715.357422 1971.734619 372.817566
489.909760 2113.199707 266.653839
697.032043 1953.717163 477.926025
525.543823 2180.421387 253.619110
459.463623 2057.861328 321.396118
487.421783 2134.397705 274.842316
473.607147 2018.485596 453.018524
722.413391 2006.077881 330.504822
625.441528 2026.088989 382.746460
489.303314 2049.420898 322.070221
430.886505 2220.065430 437.320404
666.267334 2164.815430 200.704590
430.213348 2195.452637 406.338531
456.932281 2032.785034 390.310272
668.476135 2120.866943 202.793900
626.190247 2049.842041 295.377625
353.012299 2068.735107 447.609009
382.606567 2067.263184 375.102783
666.893250 1894.944946 626.153809
641.058044 1951.021851 519.045898
694.972046 1943.747559 565.564758
450.627991 2025.179810 438.449280
467.189636 2054.335449 319.353729
664.541626 2112.366943 206.853058
598.315125 2241.728271 202.307205
603.501404 1970.355103 521.300110
610.350891 2108.661377 267.051086
584.792358 1978.206665 508.581970
639.475830 1939.666748 552.267395
653.203918 2137.287109 181.709183
799.840271 2004.954712 365.891083
803.030762 1916.593262 457.812836
452.714874 2182.697510 339.270721
464.583557 2254.330566 396.114655
875.252075 2017.698242 399.734375
679.937988 2038.174683 298.941406
705.341980 1987.790771 349.927490
509.540344 2006.904053 475.657074
661.640381 1923.936157 579.730469
421.056824 2049.845703 434.741058
810.088379 1962.189087 419.668396
467.675201 2069.928467 310.601288
554.479919 2085.670654 260.768646
408.920502 2157.975342 385.035431
518.639587 2091.447266 231.670410
376.120361 2074.608398 396.627686
689.390442 2003.339966 331.962189
505.356232 2188.443604 242.398209
534.441528 2086.813721 249.021484
587.659363 2103.253174 288.063141
466.920074 2029.637695 461.640686
827.735535 1928.046143 442.045288
603.896057 2013.964722 406.502472
594.661133 2172.763916 297.639069
460.200989 2228.006348 379.445343
453.863251 2009.258423 504.279907
504.281281 2231.613037 290.713531
417.316345 2050.423096 419.403931
684.817566 2153.304932 223.219513
502.797760 2165.345215 223.767899
478.645630 2057.275146 303.024445
866.302551 2012.684570 386.032623
761.243408 2050.072754 358.850494
846.138611 1953.255859 434.068665
601.356750 1983.531616 471.229889
511.296783 2046.756958 333.936340
426.438019 2019.159058 475.066162
458.676270 2202.219727 383.230164
388.321533 2156.546875 420.030334
475.530212 2046.387939 317.359833
573.047058 1991.545288 476.103912
745.256165 1975.396484 398.351929
461.841980 2142.252441 318.590302
433.869568 2056.746094 323.201874
328.968903 2049.813477 409.684601
775.617310 1973.652466 380.347687
572.230347 2061.680176 276.689301
675.915955 2144.884033 226.845657
340.635406 2058.049316 435.740601
443.741577 2223.401855 384.654755
662.061340 2048.037354 292.042114
374.755493 2056.072021 392.061005
797.264465 2117.895020 667.626038
404.170959 2072.671631 311.962097
653.910339 2010.293945 330.479706
424.027222 2084.783203 305.807495
363.451874 2156.371338 473.366974
466.457672 2152.311768 334.978607
459.706390 2057.916260 311.008972
526.093384 2013.148193 466.342621
454.857697 2248.079590 405.343018
607.542236 2217.133545 236.795334
359.927917 2058.478027 400.404572
819.919189 1992.978394 365.227692
381.125031 2194.624268 483.150208
561.883301 2078.096924 254.415253
361.345856 2071.981201 393.189911
668.875549 1979.442749 443.495087
748.751343 1944.457764 497.425964
747.936890 1972.007935 386.656097
391.477203 2109.716797 385.323730
410.502686 2100.508789 358.854492
505.577209 2299.952637 288.325134
461.302246 2109.417480 290.019012
373.746674 2073.279053 388.324768
794.793945 1985.778442 387.031769
756.588928 2032.444092 352.638550
607.966492 1999.473999 431.270050
495.040710 2167.422119 246.152573
676.562866 1902.019897 602.626282
592.305420 2226.007080 238.506805
433.609314 2093.839600 304.752991
405.445374 2271.588623 495.649506
632.411133 1978.437378 463.894653
663.829041 1953.965454 557.529968
708.203857 1986.387451 363.890167
450.342804 2080.051514 302.518097
487.261230 2277.944824 358.506104
678.896179 2011.572388 335.704163
612.185974 2211.986328 228.410538
517.672119 2037.253174 467.307617
647.355957 2213.610352 234.624527
390.288940 2043.738525 451.157440
566.319092 2226.560303 247.575027
558.819153 2255.321289 279.702576
685.255493 1981.496338 416.486084
580.728088 2206.039795 293.900757
366.205444 2279.295410 499.613007
653.287476 1994.725830 406.601990
451.496399 2072.719971 296.957764
633.860779 2071.999512 308.550323
478.600922 2219.623535 328.893433
823.403870 1977.202881 527.801025
811.707458 2078.448975 391.544281
392.247650 2199.561523 456.863068
529.705078 2222.622070 240.361343
515.325989 2021.026978 406.703094
583.831848 1976.568359 513.527405
476.824799 2149.685791 286.824402
530.366455 1995.647949 490.076630
771.193604 1929.046265 493.953766
820.343384 2103.301270 620.898315
601.894653 2019.836548 393.697327
463.052063 2034.367188 398.291565
654.799561 2113.787598 222.624115
522.247131 2299.251465 333.784088
475.986633 2073.145752 314.219452
600.981567 1934.086670 574.784973
503.954163 2312.928223 400.122589
501.797424 2034.101563 347.524414
559.354858 2051.956543 287.296387
769.322144 1941.590210 425.097900
499.582001 2207.085938 265.279266
462.756226 2088.391602 294.056610
367.633423 2056.652832 401.861664
514.610840 2010.789429 469.701172
483.984222 2259.008545 350.014832
688.897766 1981.282959 403.741547
554.628906 2289.372314 303.686066
584.942810 2040.368164 309.865326
559.722168 1972.244263 521.899170
517.825073 2299.237549 351.738556
767.474548 1966.738037 399.343933
556.396484 2246.390869 290.937225
425.113007 2027.527710 436.646240
398.850067 2062.671875 365.032562
592.852478 2112.733643 264.981995
452.092102 2038.963623 368.245270
635.734192 2092.642578 275.397095
386.251160 2243.723633 497.174225
636.326477 2008.685669 370.190430
401.499695 2086.938477 342.645050
823.836426 1919.020996 463.325378
610.054626 2253.474121 225.951706
486.489319 2299.662109 395.909241
536.156433 2095.434570 242.422836
401.340973 2259.646240 495.317993
615.905945 1949.139160 551.254822
494.138916 2040.889282 329.999786
484.974030 2191.623535 313.945679
457.838776 2008.852295 512.312073
373.511078 2063.747314 404.010773
572.828857 2009.023071 464.891266
440.146698 2084.792480 285.463501
559.142273 1960.598999 535.217285
520.965149 2177.636719 252.502487
651.270813 1954.161499 512.335266
464.145447 2059.610840 327.295410
768.065308 1965.342773 397.449310
740.308899 1931.962036 570.434082
664.222473 2032.752686 306.939941
485.205658 2054.402832 306.910553
817.362061 1955.316772 421.543274
390.575134 2204.931641 466.646118
655.400269 1909.594116 618.861084
537.899353 2036.655273 324.389954
501.018341 2106.259521 247.288437
649.440186 2061.607178 308.139069
695.741333 2037.339966 319.693085
825.795898 1932.738770 452.609375
731.697571 1985.442871 351.779388
529.790833 2043.200317 357.308746
575.555298 2006.690674 433.946991
572.965454 2002.159302 456.155884
439.017242 2161.857666 359.784546
630.155273 1996.375854 436.121185
717.129028 2022.318237 312.415863
488.683350 2027.233887 373.914459
476.469818 2048.765625 316.910309
566.533508 2014.906982 454.753632
516.318481 2181.028564 251.010925
625.353882 2009.445190 392.662445
431.570526 2298.249268 476.869476
500.206757 2228.226074 275.557953
675.855957 2099.339111 191.662201
699.806519 2011.458618 317.410767
554.624878 1960.970093 521.309265
628.374329 2138.589355 249.722366
548.166931 2055.955322 272.833771
444.078705 2017.848633 443.323761
407.751617 2050.487793 375.711914
497.974640 2204.368652 257.778168
628.629883 2028.299316 378.010742
697.108032 1974.880615 414.808136
648.676575 1935.610229 567.884094
344.524139 2069.980469 395.912598
569.875916 2056.784912 277.643921
362.200104 2168.594971 476.573395
481.412903 2208.253418 331.296692
585.672974 2011.162720 417.511902
634.406860 1993.569458 424.765015
599.839600 2248.449707 228.241440
457.682068 2246.168213 380.278290
