ply
format ascii 1.0
element vertex 1374
property float x
property float y
property float z
end_header
975.531677 1713.524902 833.833557
925.689636 1797.899536 586.922668
1272.296875 1680.323730 634.468018
1284.803711 1648.448730 621.746094
1098.099609 1747.414795 821.233643
1015.806396 1770.369019 650.927124
993.983398 1718.301025 816.045410
1305.255859 1757.070801 694.574463
1126.272461 1720.854980 508.031677
889.015808 1819.244873 614.561279
1251.904053 1641.435059 604.424622
1273.288452 1704.124512 557.395325
1177.209473 1740.298584 410.033081
1315.588867 1881.313110 543.007935
1205.664185 1672.307495 549.816528
1128.754272 1679.172729 773.718201
1171.805542 1765.277100 597.155518
1114.138306 1702.143921 664.035828
1143.316650 1704.838013 636.832214
1289.701660 1646.826050 616.702637
1241.819824 1713.038696 680.412537
1152.571167 1700.869385 546.826111
1054.086670 1761.158447 581.828125
1061.804321 1768.922363 523.212952
1083.790649 1733.900269 605.474731
1346.311890 1739.973633 679.304688
1200.930054 1765.135864 439.721069
1252.899170 1672.764526 700.853821
1350.255981 1739.521118 726.073547
1243.016846 1689.228271 660.748718
1275.350220 1734.267090 527.570679
1114.802612 1758.902954 426.141235
1117.043213 1682.722778 770.541199
916.953491 1789.698242 620.734924
1227.960693 1680.351440 731.101868
957.925049 1771.198608 612.784668
1081.922119 1712.940308 710.159546
1116.669556 1732.211426 553.204468
1273.960449 1931.771851 497.411041
1092.142090 1675.669189 761.361267
929.102600 1746.078247 797.025696
1030.319946 1765.867798 545.141602
1098.951172 1684.787720 805.757507
1138.317139 1740.925659 452.093781
1262.467896 1680.584351 685.595947
1030.678345 1696.502563 783.011230
997.558472 1736.879272 773.764832
964.574036 1733.760864 778.625183
1250.197266 1685.354126 652.143005
1165.645386 1684.688110 603.490417
1037.753296 1765.390381 526.632446
1210.634033 1770.042114 439.049530
971.288208 1792.341553 653.264465
1347.778687 1777.876343 646.761658
1090.039185 1752.598877 845.891602
1180.539429 1699.814941 729.823486
1130.926880 1739.996460 413.340851
1362.270752 1739.181885 628.614075
1331.873535 1813.687744 592.451111
1204.692261 1657.377930 589.821045
1050.886353 1756.640381 625.573486
889.321472 1811.933105 768.392578
1145.651978 1678.072632 739.183472
1259.997314 1830.283936 488.623932
1180.896118 1770.357666 396.821381
1277.772095 1645.591553 610.104187
1131.494995 1662.221191 742.746155
1007.842773 1769.136353 570.615051
1272.736572 1892.917847 469.187622
1126.836304 1725.076416 561.662231
1301.914673 1929.611084 512.128540
1270.584473 1642.630127 561.473877
1167.421021 1735.838257 401.274353
1372.779419 1734.657715 731.679016
1264.757446 1709.739014 702.226685
1115.991699 1754.107422 456.832031
1084.767334 1696.010742 727.635132
979.654175 1773.256958 608.936279
1010.772217 1754.587280 500.605530
1264.208740 1705.285156 558.231262
1285.920654 1758.030396 538.213989
860.235962 1820.964966 627.853210
1019.533020 1770.287720 629.492188
884.976379 1793.832642 674.426514
1338.799316 1712.035156 611.335938
1114.386230 1730.527466 500.319977
956.086609 1782.043457 620.496887
1332.993164 1774.887085 667.257629
1021.076538 1733.615845 715.321350
1375.647583 1789.302124 664.367126
1041.068115 1714.086792 871.376648
1198.742188 1687.152466 697.061646
1311.184082 1691.150024 621.135620
1358.273560 1829.087158 678.914063
1265.332764 1755.661377 690.237549
1268.262573 1789.483643 503.005188
1234.925049 1806.985229 453.265930
1064.532837 1763.406250 880.956238
1174.003174 1745.796997 784.483398
1192.189819 1812.753174 426.780579
1105.357788 1751.129639 470.996033
943.324463 1768.878418 716.521240
1186.793579 1679.512817 537.247986
1190.099609 1767.290894 382.129425
1373.685547 1757.749756 618.648743
1330.114258 1916.838745 575.272949
1082.697144 1743.918091 525.982849
1244.902222 1797.182739 477.058350
1256.202026 1664.329834 754.846252
1202.057617 1754.925537 433.998535
1222.027222 1744.945313 468.453888
1386.742920 1796.240845 611.524963
1159.955811 1683.628906 553.914185
957.265564 1731.924316 788.671631
1245.938232 1690.441162 688.992981
984.347168 1710.770874 816.920776
915.164856 1791.247314 641.085144
1034.130005 1718.543823 878.208008
1253.171021 1645.349487 568.679321
1010.942261 1750.097534 662.534851
1360.489380 1762.794067 650.302551
930.436462 1783.290039 679.050293
954.054504 1787.616821 548.749084
1134.439209 1727.968506 480.427032
1253.474609 1676.924805 730.161072
1038.737183 1701.997803 756.222168
1108.103271 1674.564209 746.003662
1221.628906 1652.292236 649.272339
1366.416382 1796.029053 684.008240
1290.486938 1692.876099 636.416504
968.684814 1780.122192 597.601685
1328.773438 1749.674438 682.033997
1230.706421 1710.994141 681.192383
1052.110962 1768.609009 524.893616
1323.721924 1870.489624 544.796997
1135.467407 1694.501587 630.458984
1007.021973 1743.376709 694.388123
1265.000610 1676.443115 572.611755
1152.314453 1661.777588 733.890503
996.828308 1742.299316 519.755493
1262.476318 1641.599365 631.593140
867.807556 1803.505005 710.865417
1159.489746 1721.880005 442.748840
1059.136475 1712.867432 713.658997
1240.240356 1674.206787 694.912170
1288.732666 1644.414551 782.483765
1251.947510 1679.895264 545.289734
1358.693481 1886.599976 602.259399
1312.383179 1925.443848 533.318237
1302.582397 1898.920898 506.109863
1222.946655 1685.964722 701.433472
971.108093 1731.335815 851.527649
1183.287598 1698.601685 488.259644
1231.962891 1706.163330 500.593719
1204.152954 1697.593506 473.887573
1276.076416 1767.676636 537.313416
891.240234 1803.503052 617.919128
950.403748 1739.604736 776.394409
1038.759644 1742.358276 649.666443
1370.824829 1744.845825 599.457642
1249.381470 1658.762695 780.661743
1148.929688 1764.361816 413.396301
947.588623 1783.957764 635.034119
1291.549072 1643.033325 779.860779
1207.970459 1678.125610 494.945007
1092.984131 1725.455200 670.315247
867.010742 1804.278442 641.887756
1078.685547 1697.058838 789.833557
1310.379517 1680.432983 608.045044
1317.892700 1738.828125 644.750305
1248.938599 1840.976685 468.880798
988.477905 1843.713989 886.990967
1153.184814 1722.598999 494.332306
1127.353394 1711.279175 659.759888
1167.197388 1683.241089 646.214905
1225.450928 1659.596313 585.327759
1069.333740 1706.970093 731.789124
1160.355591 1671.944702 710.400330
1134.398682 1698.399292 775.742737
992.476074 1758.026611 681.278687
1213.494629 1842.183594 415.169983
1187.121948 1795.144653 415.970215
1342.874634 1726.429932 716.381775
1232.590210 1876.377197 438.138550
971.069641 1785.885376 568.948242
1233.358521 1700.125610 712.675781
1116.109985 1691.376343 699.628784
1215.583984 1683.945435 698.848206
1289.351196 1651.196533 738.125671
1345.153931 1728.086182 738.921631
1171.162720 1671.394165 697.320618
1104.928101 1723.662231 617.008667
1182.422363 1675.501953 631.902405
1311.631470 1767.470093 700.008667
1306.756592 1859.520508 547.698669
1147.944092 1690.124390 606.945190
1342.332153 1723.285767 724.912354
1346.323975 1839.420898 602.788574
1087.417236 1699.607910 773.728821
1332.742432 1709.510620 590.482544
1183.622192 1719.428345 745.374390
947.508911 1748.528076 785.150146
1314.606201 1909.458374 534.269836
1186.929199 1735.057007 437.775208
920.355469 1778.075928 660.793152
1344.968384 1908.916260 573.047241
1242.818604 1724.574097 508.152374
1213.680420 1673.806396 512.331726
1320.946533 1821.207642 576.294556
1223.646362 1761.263428 464.068390
1167.600098 1668.918701 627.515808
1254.171753 1655.440552 777.031982
1142.302856 1690.410767 780.815308
1373.753174 1790.722168 690.323608
1159.712036 1688.792114 587.187256
1098.713135 1680.743774 784.138794
1188.874634 1694.569214 487.079010
1140.613647 1671.814087 697.647888
1093.866699 1727.917114 618.869629
1288.134766 1704.435425 721.683716
1347.108765 1875.716431 588.867737
1337.669800 1768.364868 652.682800
1309.212402 1669.538452 760.413818
1309.741455 1849.034058 548.992371
1281.809814 1656.444214 746.015320
1268.295898 1875.340210 482.803680
1151.453003 1675.320068 693.395386
1158.286255 1698.784668 510.857452
1084.101807 1722.511963 652.332336
1249.529297 1696.893066 710.683594
1044.681152 1754.735596 478.141388
933.350464 1792.854126 651.253479
1256.462646 1694.314209 680.176697
1248.928101 1679.589355 648.825989
1287.236206 1645.663330 779.307312
1061.663818 1703.677979 771.971375
930.778198 1748.922729 842.691589
972.853638 1713.413330 853.316895
1134.908325 1711.323975 610.050415
1333.826782 1711.994629 626.841919
1334.685547 1865.644531 577.965088
1141.992432 1700.395996 613.914246
1237.264160 1704.358765 726.015015
969.573059 1739.741577 746.915894
1213.158813 1697.281860 733.612854
1244.578613 1676.423218 682.142700
1327.930542 1919.319458 568.120483
1141.594727 1689.999268 558.048523
1260.763428 1709.204224 703.164246
1119.034424 1670.591675 733.729736
1272.456055 1733.559692 530.480591
886.877319 1789.923096 703.651062
979.133911 1722.730713 878.017334
1205.931519 1664.685547 610.406860
1183.046875 1798.350830 409.566833
1159.051147 1731.866089 780.594360
1121.999756 1732.035645 492.020721
900.546265 1753.692017 774.373535
1320.285156 1746.193726 754.784363
883.881775 1800.279541 598.890991
1008.440796 1784.004517 509.797333
930.567200 1747.239746 562.923523
1027.088623 1700.631958 762.514893
1165.250244 1679.143921 659.730042
1033.894287 1706.663086 834.281555
1286.715942 1709.023926 566.268066
1055.299316 1705.958496 831.697937
984.882202 1772.850952 517.227356
1069.745361 1754.378418 528.698792
1200.055054 1667.559204 605.727051
1235.314575 1729.091064 492.863037
1147.716553 1675.587524 729.531555
1118.872559 1733.257568 459.241180
1349.658691 1740.220825 618.319458
1017.112061 1756.335938 639.743225
1217.564453 1677.386597 665.173584
1231.791748 1917.755127 433.835876
1266.604614 1644.304199 617.878357
1131.220337 1704.128784 784.384827
1063.056885 1759.036743 529.845520
1231.778809 1875.890137 426.330322
871.230469 1781.701782 723.883972
1282.712158 1668.994141 726.175537
1297.181763 1851.737305 528.862305
1105.703491 1681.015259 727.600342
1143.697876 1674.960327 736.882751
1400.017578 1823.750977 622.653320
1190.552124 1664.812866 619.683105
1174.626099 1673.965942 538.078247
1281.486206 1677.230835 571.927246
1187.291260 1738.672974 445.041931
878.325562 1799.967041 653.114136
1277.898438 1691.410034 574.073669
1239.660889 1797.636108 462.490326
1119.848755 1726.733154 503.040497
1238.122192 1676.970581 728.849609
1272.095093 1713.077271 543.231873
1029.132202 1770.975464 580.344666
1350.023926 1782.397095 667.590271
1252.122681 1839.655518 475.830719
839.545227 1863.964722 681.746399
1265.569092 1650.925293 569.614441
1119.838135 1695.860474 691.307190
1318.893921 1961.466431 530.706787
1160.343872 1676.998657 609.622864
1114.601929 1703.576416 676.130432
1312.542480 1828.440552 571.629639
1296.486938 1751.950439 550.314636
908.051331 1765.942383 749.559998
1040.491211 1764.192749 565.307190
841.367676 1809.257446 685.200012
1319.023193 1904.499268 559.347656
1387.659546 1814.106445 626.491272
1128.967041 1698.146729 600.302246
1144.822144 1679.387939 597.900513
1335.266724 1741.900635 718.133667
918.363525 1790.258667 568.348267
1157.844482 1676.913940 682.963318
1244.821899 1913.002808 435.194000
1234.057861 1696.894043 477.847656
1140.290527 1783.384766 553.458313
1083.979980 1743.898193 846.282043
1271.608154 1758.238403 527.010315
1351.307861 1730.621826 614.794373
1356.890869 1729.693970 692.325806
1137.219482 1677.631714 766.899231
1136.773071 1710.444214 539.222351
1231.654419 1695.824341 717.552185
1214.382690 1688.689331 671.977417
1236.015991 1644.646606 612.242249
1109.743530 1729.288818 492.955841
977.541321 1729.694824 790.486206
1198.215576 1678.184448 533.373901
1236.322998 1646.800537 628.378723
1017.326843 1760.803223 632.306824
1073.386963 1699.738770 720.769897
1111.725098 1718.721680 493.827393
1031.612671 1726.752930 892.309387
1249.622681 1689.863159 540.461670
897.767700 1754.146973 776.927612
1065.971191 1693.076050 756.016541
1285.063477 1886.439209 500.977631
932.654907 1739.674438 779.815796
1213.595825 1679.471802 535.245667
900.878174 1757.928833 774.864075
1225.733276 1812.894531 465.396820
1202.834595 1667.677979 575.951477
1297.920532 1970.062866 495.576080
1101.884033 1742.020996 591.854675
1269.720093 1653.591064 584.992615
1156.287598 1727.689331 443.698242
1323.751831 1768.309814 671.539063
1246.373169 1658.713745 754.678467
1291.116333 1655.301392 593.659058
1148.496460 1690.253418 668.278503
1280.829346 1767.611206 688.488770
1211.686646 1656.053223 606.203308
1226.624390 1870.504150 421.932556
1146.439209 1712.106323 488.532593
1360.524048 1759.666992 619.535400
891.986816 1818.292358 721.706360
1210.059326 1832.141479 408.895538
1273.241211 1665.257690 752.268921
1242.993042 1900.252930 443.079773
1262.587036 1652.218872 562.319702
1235.325317 1868.448853 443.951752
1162.084839 1677.034668 738.874756
1215.441406 1681.798096 484.214661
1142.796143 1713.105103 511.764191
1107.791382 1752.741821 451.354462
1046.328003 1727.924805 702.499207
1130.571045 1679.148193 727.382141
1004.149536 1755.389404 670.245789
1055.368164 1762.455933 599.975220
1334.867188 1942.370728 546.595520
968.286133 1713.984863 837.464417
1224.223389 1674.349854 549.854004
1019.410706 1765.568970 537.687256
1196.707520 1664.550415 657.507568
1347.507446 1754.618286 623.021423
1371.944336 1787.338989 656.348206
1271.940430 1654.389282 585.456665
1246.134644 1697.239502 709.819397
1084.084473 1697.953369 812.497437
1211.651245 1660.245728 643.173401
1228.595459 1648.071777 624.315186
1167.086670 1709.731445 465.353882
1160.796997 1684.523682 602.038208
1025.113403 1714.128052 757.630127
1300.126953 1860.875000 529.687805
1132.635376 1711.652344 649.065369
1172.944702 1725.917114 441.653717
1208.012451 1666.648804 554.280579
1303.174805 1743.125244 692.668274
1323.442505 1701.576904 585.399902
1091.176270 1738.205444 443.611694
1103.301270 1755.209595 457.100555
1069.355591 1765.428345 563.306702
1177.970459 1733.229492 401.090637
1228.706299 1672.984009 489.820099
1210.374023 1685.086304 709.182129
941.727478 1815.649048 709.215393
1240.085938 1734.837891 502.938019
1296.316162 1890.130127 521.082214
885.910156 1807.209717 616.939453
1333.504395 1754.409058 682.070313
1283.153076 1738.380859 665.970642
1291.966675 1775.537842 554.778687
1181.940796 1676.131958 619.412781
1184.459473 1668.558105 655.105286
1290.233398 1886.361938 508.207733
1345.109863 1793.147217 665.619934
980.394287 1778.380981 581.096802
1266.178101 1668.636841 734.695618
1059.645752 1758.516357 587.782776
955.443115 1780.210083 622.715576
1227.136108 1686.331177 509.494507
866.421814 1811.995728 634.321167
1297.483398 1838.601196 539.547363
1022.243225 1704.767944 853.427551
990.071228 1715.552490 862.222168
1084.407959 1691.350464 794.772766
1228.130371 1749.848389 470.397827
1248.368896 1667.325317 711.391785
1289.816162 1701.796387 742.327942
1039.617065 1757.718140 539.693298
898.596985 1796.318970 606.847107
1299.995728 1720.906982 644.940308
1341.522095 1869.757202 583.078491
1392.255615 1865.430054 621.963745
1308.330566 1857.669312 542.342590
1274.641968 1738.905884 669.749939
1325.542114 1892.084229 552.001221
1229.538086 1736.947632 759.146057
1278.573853 1641.722168 584.250244
959.289307 1724.956177 796.578491
1320.442749 1699.796509 619.728760
1197.322388 1687.305786 732.391602
857.252686 1826.162354 627.269531
930.182861 1762.066650 762.951477
1142.208618 1721.884155 467.904999
1344.794434 1756.966064 678.391052
1329.136353 1746.881226 730.031311
1067.756470 1691.318970 770.839905
1281.874023 1665.145386 744.867615
1209.942261 1787.843994 435.510742
1142.252075 1683.102905 677.477295
1257.388184 1684.144043 717.466125
1300.740601 1642.791626 787.772217
1331.567261 1814.238647 578.124451
1142.704224 1701.406006 664.288330
1084.432983 1704.052368 701.628662
1130.592651 1733.778442 472.767242
919.625610 1774.164063 689.237244
1236.156494 1800.998413 462.971497
1267.989136 1768.780640 524.093079
979.273682 1769.968506 889.388428
1099.725586 1738.772095 518.999573
1353.869629 1858.946411 587.780884
1082.756714 1702.868774 706.663391
1305.170776 1667.268677 769.229004
1308.672485 1651.560303 761.216064
1340.951050 1732.278809 605.340027
1353.559692 1756.026367 634.527161
1201.236938 1658.723877 608.898743
1265.390869 1638.391968 587.008484
1393.880981 1838.590942 628.282043
1335.447876 1847.162109 568.315125
1270.589844 1672.619263 725.499390
1208.762695 1649.136353 657.731995
1203.020142 1663.699219 667.638062
1297.372192 1694.917725 741.877197
1295.604248 1659.764282 771.824829
1346.976563 1903.897095 581.873779
1244.851563 1663.282959 505.846313
1094.391479 1741.374878 509.068756
1116.256714 1694.364868 792.059326
991.861511 1760.766113 671.895691
1091.262207 1776.564209 870.301941
1239.403931 1815.095703 469.098053
1266.506958 1641.762817 624.278687
1321.130127 1717.018921 589.250122
1247.151611 1776.125854 480.125061
1185.456299 1679.572021 533.356445
1192.376343 1674.426758 558.444641
1128.193604 1708.099487 610.441956
1351.706055 1755.083740 707.181763
1239.522949 1881.598389 411.757996
1196.280151 1768.433350 785.105347
1339.844604 1906.083252 571.943481
1143.318848 1674.138306 722.468201
1153.349243 1684.334229 766.569702
1167.691772 1743.437622 783.584412
916.032410 1763.904175 728.568848
1336.758545 1738.388062 632.031311
1168.488647 1679.087158 633.308533
1172.314941 1711.301270 456.627686
1247.870728 1657.251587 765.986023
1275.866089 1769.725464 534.230225
1259.175171 1761.163818 511.548309
1007.044495 1730.049683 740.653748
1273.917969 1875.471924 477.606476
1316.258301 1848.047241 556.254028
1105.920044 1674.401855 751.182617
1264.506836 1799.774048 509.695404
1068.685791 1737.373169 628.146484
1141.370728 1683.024048 599.351685
1003.069946 1709.404541 839.607605
1202.081909 1665.869629 535.455261
1201.707886 1792.625854 387.179321
1245.411377 1874.400391 451.917511
993.175171 1777.866821 558.623291
1391.548950 1811.373779 607.670410
1294.251587 1704.465088 740.251587
960.904236 1801.473999 621.641907
1312.176147 1729.984131 642.765869
1362.230347 1822.135742 607.957642
1219.627930 1668.268066 599.260620
939.250977 1785.191650 626.859375
974.052917 1761.338013 698.101196
1144.438599 1699.727905 563.767517
1061.126587 1736.713745 626.299805
1281.168823 1730.043091 542.981262
1341.271973 1753.235352 635.625244
1229.680542 1689.265259 688.989075
1023.787231 1697.465942 822.970825
1081.226807 1688.914307 774.752686
1125.033081 1760.452026 583.034363
1110.959717 1754.900269 483.035034
1027.183228 1697.029419 770.873901
1022.485168 1705.286499 815.047729
1099.848267 1752.533936 522.381897
1192.619019 1685.425659 491.430817
1282.399780 1810.034058 513.319641
1110.910034 1727.019409 596.120544
1366.101563 1737.029053 727.139160
1143.743774 1673.502808 697.810608
993.355713 1751.919434 700.063843
1379.695190 1824.116699 612.005249
1326.491821 1736.679199 589.970886
1132.093994 1715.174927 511.729614
1270.612305 1889.176392 478.185822
1199.203735 1667.016846 582.817871
1073.028809 1726.836670 650.697937
1308.139648 1844.032471 548.745972
1235.821533 1849.309082 456.984100
1187.297852 1674.212158 679.207214
1321.300293 1683.734131 586.985229
1386.340942 1832.694092 617.299133
1309.529297 1678.359497 588.569763
1246.229614 1656.471558 586.209778
1351.057373 1736.501953 609.083801
1163.069824 1677.105835 592.085205
1166.628784 1670.723511 684.570313
1240.393188 1696.188965 683.726013
913.215271 1809.378052 614.058044
1139.812744 1677.253662 742.370789
1251.794067 1781.354248 494.625702
1064.633057 1764.625977 545.717773
1169.478516 1684.040649 720.216492
985.023193 1731.419434 783.862610
1279.576538 1655.943481 742.079956
1273.860352 1645.901123 624.143677
1321.572021 1715.199707 628.258667
998.867188 1770.180054 573.532959
1033.573608 1705.258179 863.521240
1374.916748 1800.721924 703.101318
1308.399902 1791.040039 586.354614
1219.963501 1850.762329 423.194580
1141.351074 1670.707886 701.274414
1070.528809 1734.556030 666.560181
1126.067993 1707.980225 526.331299
1002.372681 1705.816162 862.708557
1063.866211 1703.544189 826.849731
1164.375732 1721.734375 394.050659
976.550110 1730.970703 783.988281
1358.480835 1775.205933 686.242615
1146.508301 1715.076904 479.492615
1043.751587 1718.105713 750.175781
1000.646545 1770.641846 545.385254
1124.516479 1751.307861 449.450897
1360.428101 1758.901367 599.644104
1223.609863 1842.317261 429.410919
1098.624268 1754.821655 508.230225
1093.560913 1679.216553 772.667114
1233.591187 1686.287476 707.774414
1209.717529 1684.884155 547.911438
1066.728394 1747.086548 466.334625
1109.501831 1697.450806 695.124939
979.520630 1932.556396 841.996948
878.505737 1808.357544 624.802063
1271.948120 1696.066162 570.809387
1127.140381 1681.193970 697.304810
1086.371704 1711.057007 818.990479
1362.210693 1739.598633 601.416321
1260.232544 1672.421997 697.783997
1138.441040 1688.999512 671.097229
1403.230957 1786.552612 604.736450
1383.062988 1761.639038 718.785522
1157.602905 1678.459229 632.294434
1288.846802 1919.508911 510.402344
941.133179 1780.772827 599.336548
1290.188843 1752.827393 575.095276
1228.021240 1659.514648 561.737854
1342.932861 1734.712891 625.113159
1365.383667 1776.408203 696.343201
1300.868652 1902.803101 532.563599
1170.124146 1684.650024 508.326477
1224.160645 1721.286987 481.669617
1166.493774 1733.571899 395.573639
1309.602539 1843.405029 548.874146
947.098328 1751.848877 776.226685
1111.985596 1739.213989 478.810852
1136.155762 1716.975830 501.768097
1058.350464 1735.207275 846.776245
1294.837036 1671.964233 718.087830
1279.759644 1920.151245 483.177948
1018.696960 1696.070679 835.235168
1237.059692 1644.823608 608.947144
1167.590820 1687.140015 547.810547
927.330566 1801.064697 645.603577
1258.639648 1871.755127 469.705963
1350.410645 1895.614502 570.582031
1169.177734 1758.442749 416.132385
989.239258 1712.609619 857.603027
1383.021851 1766.011719 708.116882
1228.643311 1678.168213 474.764191
1147.095459 1732.322876 775.598328
1307.467285 1954.362305 512.556458
1101.232910 1721.542725 527.774170
1135.302124 1741.411987 479.934998
1323.799927 1747.575439 703.130615
1251.795166 1810.919312 482.194305
1245.428955 1807.775269 480.499756
1024.768677 1708.789673 788.021851
990.561890 1720.800293 798.323486
1364.156616 1746.713135 685.104614
1283.443604 1997.969849 473.449097
966.694031 1789.634644 566.705444
1121.083130 1677.052734 766.375000
1277.971191 1783.811890 690.802124
1223.537598 1690.293457 688.671753
1297.113770 1646.233398 774.303040
1245.632813 1718.082397 488.831116
1316.837891 1785.958618 581.658325
1177.796631 1676.444336 720.274658
1047.367065 1704.439819 823.409546
1302.267822 1843.494263 539.840149
1166.086914 1706.386353 498.065155
1188.143311 1676.316284 559.713135
1104.217041 1679.197144 756.707703
859.837097 1810.754028 697.440247
1043.780151 1688.993042 771.469299
958.720154 1787.297852 550.420898
991.814636 1742.507080 720.685303
1239.768677 1725.026855 478.615631
1075.534790 1702.189453 730.856323
1279.905396 1693.288574 730.207825
1007.179993 1712.513916 784.229736
1162.308228 1683.074951 602.468018
1283.526489 1746.314941 539.359253
1251.094727 1646.432739 585.480286
914.736572 1753.834717 756.472778
1325.387817 1713.722290 619.488831
1309.876099 1800.966553 576.311279
1297.652954 1714.144653 582.620361
1034.686279 1723.816895 713.501587
1176.846436 1689.060669 496.866913
1115.356934 1673.951172 744.329407
1049.069336 1759.017212 606.360779
1124.208618 1681.891602 699.259155
1275.950073 1706.491943 534.306335
993.079224 1769.776123 651.155151
1224.487793 1693.217041 474.313141
1195.936768 1667.505371 592.104919
1341.480713 1728.479370 713.017151
1014.387024 1713.826538 822.148987
1288.807983 2004.165649 470.518005
1247.894165 1814.812622 475.567566
1233.400513 1890.067505 416.464478
1248.157227 1909.706543 446.566833
1023.418701 1875.622314 922.866455
1139.751221 1712.423096 509.075256
995.577393 1783.517334 569.314148
1315.917969 1670.958496 780.521423
1286.382324 1776.662231 531.493652
1344.091797 1768.513306 641.697998
1284.295044 1714.777466 731.414673
1024.660522 1777.214844 515.030273
1373.501343 1885.959106 603.553345
986.506165 1756.876099 654.391907
1190.919678 1691.245239 698.118958
1149.722656 1681.589478 671.200256
1298.241699 1832.000977 537.416870
1059.198975 1757.682007 528.120972
928.827698 1744.986938 815.550903
940.282959 1772.374146 690.861816
1118.447144 1676.596069 780.513855
1130.592041 1678.946167 702.018860
1302.657104 1748.512329 581.839905
1303.902588 1747.123291 578.507874
1265.927124 1893.509399 474.601563
1241.101685 1795.016235 479.442932
1330.949585 1714.525269 587.462036
1196.802979 1803.667603 398.807648
1096.590088 1765.142334 531.047424
1204.154541 1674.312378 534.362122
1132.494873 1729.250732 470.495697
1298.324219 1684.334595 742.139771
936.500488 1890.613037 803.125244
1094.494263 1678.832275 785.883972
1278.939697 1755.170288 672.041504
1139.905273 1691.787476 554.599060
1022.359558 1703.845215 858.149414
1164.518433 1778.601929 407.392792
1034.930664 1722.424194 855.775085
1273.268555 1706.304199 768.832092
1254.114502 1658.939331 648.223999
1365.484009 1798.387817 682.003052
1373.247437 1788.169067 605.644165
947.686584 1760.511719 558.124329
1125.543457 1718.468994 539.526489
1228.266602 1652.601563 646.856995
1061.630981 1725.620728 691.731506
1297.249146 1838.903442 519.963989
1267.371338 1790.021973 513.261719
1264.006348 1686.450806 554.223389
1336.178467 1699.221191 599.504517
986.730103 1782.959961 553.669067
1217.324829 1681.653320 526.219666
1202.155884 1700.005493 473.790833
1178.685425 1677.951416 636.271973
1385.882813 1856.764648 611.844055
1225.014160 1659.083984 561.645813
1141.389526 1760.342773 422.177612
963.381775 1768.397827 691.804749
957.424927 1778.237183 561.600952
1270.770874 1874.380371 469.791138
1344.618042 1773.184326 678.307068
1158.788208 1696.055908 541.431946
965.420288 1778.184204 610.611206
1241.790527 1676.548584 719.643860
1117.162231 1698.168945 770.371277
955.921631 1760.003418 727.554016
1197.486450 1692.966309 692.725037
1049.887207 1712.804077 746.813416
1291.003906 1890.240112 513.807312
1114.856079 1728.937378 799.947754
1220.438721 1661.431519 646.437988
1274.994263 1837.972412 514.766052
1348.521118 1765.239380 687.049622
1217.338013 1751.839111 439.929413
1324.944702 1775.605225 665.804688
1058.693237 1699.543823 779.722534
1252.712891 1792.175781 499.274750
1184.522583 1669.819092 581.742004
1282.779541 1687.612793 716.061035
876.136658 1781.840332 691.736694
1186.446777 1751.820068 408.090271
1337.359375 1832.862427 593.083130
1063.468140 1733.654663 874.717896
1223.421753 1873.375610 446.639435
1105.295532 1710.532837 648.982727
1210.841553 1698.538940 721.509949
1108.449829 1750.557251 440.804474
1351.854248 1739.305908 710.867188
1152.264160 1673.748901 682.306946
1101.912842 1746.142700 480.050537
1307.743774 1694.455933 772.582275
1077.979248 1686.166138 788.342468
1036.616089 1771.402832 564.928406
890.145752 1820.442871 687.322327
1156.959229 1696.530396 551.347961
875.871399 1815.788574 705.683228
950.577209 1746.478149 750.676147
1179.900635 1666.382935 641.152039
957.053040 1777.666504 637.496277
1268.476318 1682.392700 563.122864
1369.368042 1767.939819 611.401367
1263.702759 1652.898682 563.316528
1214.970459 1701.717896 458.691406
930.441650 1769.334717 718.255920
1086.402222 1685.136719 788.114746
1194.175049 1681.752686 550.693054
1092.411377 1701.118774 777.131836
1271.085693 1652.068481 612.157654
1319.810669 1848.138428 547.750000
1204.798218 1652.088989 637.138550
993.484741 1774.332764 569.414185
1009.093140 1723.871948 843.181946
1082.315308 1681.403198 764.294128
1276.711792 1815.712769 503.846161
1343.677612 1746.921875 629.446472
948.611816 1791.722656 652.613281
1240.025391 1808.260132 472.571167
1248.868164 1827.583862 471.303345
1160.181274 1691.577148 567.279053
988.542175 1724.962891 850.638184
1271.453735 1688.210693 534.919983
1329.350586 1826.162964 580.880371
877.366943 1795.726929 671.400146
1233.265625 1911.641968 427.211304
1144.387085 1723.728271 474.716583
1141.195923 1732.031372 444.803955
1060.446045 1726.216553 674.972717
1032.964111 1762.231079 554.238892
1243.678589 1793.076904 476.234619
1191.397339 1664.765137 633.454773
978.780457 1737.718018 740.812683
953.565063 1717.855957 827.505371
1281.108276 1699.072021 656.944214
1194.629761 1685.307129 712.142212
1210.566650 1699.070190 740.277161
1261.637939 1679.989502 692.741272
1261.601074 1701.917358 540.646851
1162.531372 1750.968872 399.912231
1129.337402 1714.153076 545.631165
1281.213623 1750.534912 550.281677
1174.778687 1790.094238 408.672333
1026.382568 1733.748779 708.570251
1233.491699 1709.053711 499.569061
1280.053955 1954.675537 428.060486
1356.362061 1791.606567 660.350525
1149.977173 1689.389893 550.016724
1238.438477 1650.797974 581.102112
1023.280212 1708.924927 808.293030
1215.686035 1666.039429 535.248718
1065.564575 1732.295654 868.802856
1200.098022 1709.877930 487.840668
1288.736816 1884.796997 520.393860
1248.335571 1704.690552 512.281189
1165.474487 1762.196289 410.985809
1154.333374 1700.235962 573.214722
1243.711792 1676.410889 701.025757
1376.018433 1753.890015 705.258362
1086.205322 1701.635498 767.357971
1364.456055 1740.312744 710.503113
1182.729980 1664.460815 689.764526
1040.085938 1713.777954 803.449890
1066.873291 1733.820068 641.371521
1144.689453 1759.595947 410.004181
1239.455566 1726.253174 518.908752
1052.204102 1758.339722 521.844727
1185.261108 1699.913818 499.935211
892.683838 1764.183105 761.268616
1294.495605 1783.214478 539.412964
1264.059448 1657.533691 571.831848
946.773743 1817.569580 636.796265
1093.397217 1716.005615 657.869141
1140.233032 1730.092529 496.498047
1176.252563 1686.518677 513.266663
1320.378418 1772.201416 588.887146
1257.699585 1640.283325 585.909973
1059.018677 1706.594971 770.723572
924.625061 1783.695923 624.973022
982.137451 1786.866333 542.447144
1203.323730 1712.744629 444.276672
957.225037 1767.850220 715.376099
928.856873 1789.461670 635.665588
1025.772949 1722.020020 873.583191
915.897461 1794.290527 683.157837
964.618103 1735.956055 785.049255
1271.456177 1722.462769 688.233826
1227.417969 1689.932617 675.060425
1152.337036 1685.241943 601.027161
974.388977 1763.215210 670.966064
1147.348267 1713.514893 586.969971
981.500122 1798.301025 723.141968
1044.998535 1694.804321 767.261780
897.387634 1808.126221 618.677917
885.560364 1787.262573 669.693420
1285.541626 1639.513306 789.629578
1252.954590 1646.437744 578.358459
1358.024414 1756.679199 686.830444
1287.724854 1755.233887 549.762573
1023.656128 1705.676514 835.258484
1255.962769 1722.596924 542.039673
1134.478516 1728.804810 473.066254
1095.610229 1721.747314 660.982178
1244.765381 1769.529663 489.267609
1034.085327 1704.065308 773.176880
1368.284912 1765.954224 702.606567
1282.913574 1662.858643 764.008972
1143.079346 1759.632935 413.101929
1269.925049 1764.661011 532.604736
1254.930664 1724.343140 515.420227
1037.747681 1721.929932 742.445984
1145.377319 1674.336548 739.962891
1236.919678 1790.581177 461.441833
1112.195190 1672.039429 755.791138
983.027283 1732.746704 788.593506
1372.040161 1735.919067 724.575012
1213.777466 1662.223877 618.153259
1080.618408 1688.233887 780.813721
1192.714355 1712.917969 445.897644
1009.446411 1731.029907 720.489441
1235.886841 1711.319580 495.309601
898.291687 1761.359741 725.097534
1294.027222 1672.300781 754.934448
961.248779 1723.547363 804.138489
1177.737671 1683.747681 571.569702
958.266174 1779.113770 594.504944
1283.318848 1784.606445 536.004944
1273.873047 1872.472168 487.927521
1259.102417 1911.153687 411.415070
1156.634644 1670.476318 748.817505
947.148193 1789.835693 643.028198
1273.249512 1669.707153 708.806946
1008.867615 1709.357788 807.296875
1108.387939 1677.426392 746.116028
1148.614258 1680.173950 704.306274
1264.094971 1726.946289 690.740601
1305.056641 1765.123657 670.011658
1129.165527 1712.306030 526.801270
1281.381836 1805.194580 526.133484
1247.960938 1684.856812 538.158691
1173.535400 1709.166382 460.870026
1261.609741 1679.551514 746.102417
1287.692017 1899.594482 499.398590
848.521179 1813.126343 677.190002
1215.308228 1661.006714 633.624756
1072.156860 1716.326538 698.070190
1017.334656 1774.845825 584.262573
934.247681 1793.716309 645.085876
1213.608521 1657.019897 590.953674
1032.520020 1709.684692 831.009827
1057.746460 1721.983398 705.238831
1123.152588 1705.624146 680.111816
1134.599365 1708.654541 530.540955
1128.892456 1720.286987 778.812683
1365.782104 1781.591553 686.443542
1355.775879 1879.411987 600.812622
884.991516 1822.432007 610.554565
1305.823975 1879.497803 537.718018
1184.867920 1775.071411 393.131897
1058.883911 1748.357056 878.045288
1355.704468 1732.645020 602.054504
877.319580 1792.332642 714.907471
1346.141113 1875.318848 587.725769
1147.863892 1688.817627 662.923706
1250.320557 1837.057983 461.117096
1226.946655 1658.412354 574.365662
957.091309 1734.059448 857.975464
1181.685303 1691.574829 495.607147
1310.975586 1749.322510 681.898682
1031.411743 1753.787720 620.689636
1264.028687 1742.891602 673.920410
1187.686157 1721.860474 445.549225
1096.904419 1745.030518 441.485779
888.208984 1771.692871 742.673706
1369.747925 1847.047852 608.585693
1129.063721 1728.088379 471.417053
1082.910889 1725.002197 656.513062
1123.157349 1755.452515 423.724152
1034.994141 1759.549316 531.371155
1064.013550 1702.930908 819.391357
1023.666260 1767.118530 605.260193
1346.697021 1723.887939 746.385681
971.304443 1738.514893 759.970337
993.967468 1751.455200 667.860229
1228.086182 1708.658569 685.678650
1156.527710 1683.725952 569.971008
1190.306885 1667.934082 607.798157
1048.689331 1707.344849 830.198975
1165.495850 1695.128052 510.710083
1305.387695 1646.406006 792.429077
869.324951 1794.345703 675.169800
1208.794434 1664.795044 555.202393
1381.014648 1758.919067 718.359070
1177.213135 1705.715210 459.193695
985.320679 1753.711914 719.684631
1065.147461 1720.546509 824.475830
1290.487549 1686.893311 729.557434
1128.198608 1729.761353 472.414246
1227.232300 1687.100342 681.186096
1238.969604 1673.947754 700.836975
1211.316284 1685.988525 555.846680
1004.710815 1741.252686 705.655823
1348.336792 1754.031372 598.580322
973.639709 1703.518799 823.605103
1183.834717 1755.299927 428.597229
1239.367676 1877.495117 445.869690
1109.972412 1684.579956 785.914612
1106.931885 1770.625977 845.861145
1334.116577 1908.506592 544.429321
1237.974121 1675.229004 703.735107
1336.979126 1710.905518 592.787598
1140.454224 1701.728149 610.554993
1223.916382 1689.348022 682.394897
1091.757568 1693.313721 742.514160
1349.703491 1685.895142 602.870422
1368.375854 1721.236816 727.043152
1224.124268 1868.455566 422.525391
955.999573 1741.266235 760.295410
1254.795776 1686.847412 538.079895
1122.584717 1730.552368 606.966736
1251.880493 1696.267578 692.601074
1286.304688 1778.295166 545.678772
1186.433350 1745.854736 435.163361
989.531006 1699.583496 821.574219
836.391052 1798.200073 634.587708
1059.218628 1760.543091 471.734589
1134.135254 1707.901001 544.306885
907.225830 1798.499878 661.098938
1166.171021 1678.281006 656.011841
976.774963 1777.911133 644.141602
1025.504761 1765.040161 648.961975
1229.165894 1738.279297 501.955566
1187.477295 1691.513428 524.759766
1105.791382 1737.994263 492.489868
1158.591431 1706.319580 482.334839
1282.032227 1794.977051 533.089111
1012.215149 1739.397217 755.008179
925.667419 1764.236572 722.160950
1213.821899 1674.528076 509.059998
1151.794189 1731.318970 436.769928
1237.596436 1650.096436 613.896606
983.912842 1758.942993 718.647827
1249.625732 1647.397949 608.150635
1170.937012 1741.125854 441.010498
928.666992 1804.395386 601.046814
1017.046631 1719.532959 750.181396
1172.957031 1703.260376 468.920990
1261.547485 1749.270264 702.053101
1013.304016 1725.394897 735.416992
1279.896851 1686.709106 720.992554
1133.563721 1672.807495 718.472656
1121.060791 1724.789917 502.312531
1302.366333 1949.578857 510.156525
1144.543457 1692.061035 760.666748
1232.148071 1658.895630 555.387939
1185.591675 1779.750244 397.770905
1114.807739 1731.796509 535.397339
1272.079956 1669.033691 633.596619
1251.016235 1816.325684 485.135956
1164.313599 1682.124878 675.917236
1217.587280 1683.991455 549.461426
1311.168823 1647.836548 781.425232
1201.185303 1718.454956 742.704163
1196.715820 1676.681152 677.583191
1134.909180 1669.681641 716.479065
1073.551025 1682.757690 777.382385
1091.988892 1675.796753 748.764832
1172.645508 1712.887695 737.857300
1360.826538 1770.327759 614.501587
984.332153 1789.314087 672.543640
1200.879883 1663.323364 671.747314
1182.938477 1671.264893 584.149292
1063.425903 1693.087646 743.696777
1185.774048 1667.822266 582.708252
1237.238159 1896.277954 449.583771
1232.773071 1730.643066 482.901428
989.975281 1771.292725 576.396240
1044.489990 1702.735474 761.663269
1057.828247 1728.232178 685.987183
1356.220825 1869.769287 604.019165
1210.129639 1669.523315 553.193787
922.284363 1795.583862 596.811340
1016.032227 1736.541748 718.841797
968.377014 1717.030518 811.316223
1288.920288 1658.307251 757.378479
1058.932129 1735.968506 886.233765
1189.733887 1724.293457 437.155334
1013.151672 1697.240112 839.551025
1131.724121 1704.383423 573.345215
951.183899 1725.733398 819.766907
1306.054443 1713.824341 637.314087
1154.787964 1671.993530 686.104370
1213.102539 1751.191162 767.303345
995.004333 1786.292236 531.688843
1148.132080 1673.542847 693.614868
1014.466553 1770.535278 632.701599
917.778198 1748.000732 793.605408
1175.993164 1726.268921 409.629761
1293.657349 1680.296021 748.392212
1099.190674 1690.768677 710.755188
1196.543335 1686.541626 490.214142
1252.154175 1683.575317 651.530945
1338.700928 1755.208252 636.321838
993.816589 1775.418457 607.988281
1258.535522 1753.871948 518.664124
1267.847656 1967.515747 457.454681
1179.128174 1710.846924 471.309113
924.643250 1799.240356 595.200500
1150.019409 1723.102539 454.200500
1169.803345 1673.812012 595.898682
1196.220581 1779.425781 425.833618
1362.687744 1719.984741 733.741882
1178.964844 1713.690796 495.260620
1085.449219 1721.150146 681.239380
1321.998047 1882.018188 568.695435
952.527832 1805.427734 568.106628
1256.783447 1725.525391 697.338440
1220.346191 1673.042969 528.562927
1039.307007 1733.634888 682.586304
1127.145752 1682.697510 692.233398
933.477356 1745.159424 766.257751
1255.333862 1887.940186 460.138458
1308.867310 1735.434204 643.356812
1345.246338 1719.948975 731.632507
1251.192993 1671.147705 739.927063
1090.860718 1683.194214 739.086914
1267.186768 1699.025879 692.475037
1333.832520 1757.782104 680.134094
966.685913 1763.219971 683.722595
1095.081299 1682.350830 745.103943
1205.143921 1684.805786 479.709442
1304.035278 1966.606079 508.564667
870.523987 1809.527710 645.710327
1068.300659 1770.285889 563.474304
1224.509888 1738.464722 474.216858
1357.175537 1794.343018 672.209412
1326.959961 1688.550293 591.838318
948.212769 1789.797363 553.475037
974.697632 1713.363037 813.524170
1139.416016 1686.881836 543.745789
1166.343872 1683.951294 560.147095
1248.178833 1671.185181 715.434753
1356.108276 1877.704834 682.200562
1233.809082 1656.051880 646.498718
1305.631104 1691.880127 754.037170
1041.795654 1731.628296 706.577087
996.285522 1730.095459 742.336853
957.574158 1722.083984 841.828674
1108.369873 1703.737915 785.926147
1004.009155 1778.412842 569.710205
1052.542725 1722.989746 699.882446
1292.214478 1697.460938 737.777771
875.978760 1802.984009 634.309265
1255.953735 1849.031616 479.338379
990.150513 1718.014893 870.683777
1031.175049 1764.611450 490.416138
1014.169800 1771.599731 573.817261
1358.278931 1760.593018 700.075256
1109.707642 1727.581787 442.303131
889.244202 1767.290283 775.911255
999.119141 1720.352905 780.439758
963.995789 1728.407715 853.608887
1226.789673 1713.341064 477.203094
1266.907471 1756.011353 519.738586
1362.660522 1837.972534 661.251892
1011.596375 1735.426758 707.313477
1282.271729 1627.427490 795.799744
1293.521484 1914.883789 501.773193
947.285217 1783.353760 673.558289
1039.872070 1704.265747 784.498230
1182.524292 1717.309204 757.523743
1298.398071 1990.221680 472.015686
1334.171143 1915.302856 559.999817
1079.010986 1746.196167 518.996704
870.428711 1763.969604 608.348999
1266.224731 1703.775146 698.870605
1189.987427 1775.853027 422.631012
1150.453125 1714.300415 493.975189
1040.672974 1705.443359 838.727966
1154.648682 1699.204834 544.848633
1236.628174 1691.746460 688.063599
1032.406738 1791.287598 496.276459
1003.069031 1766.670044 680.166931
1251.052734 1668.103760 645.912231
990.902771 1770.182739 577.301147
1025.321899 1769.483765 585.500122
1041.596924 1699.143188 774.308044
1099.759888 1713.244507 673.459351
1358.439087 1747.192261 605.350586
1197.450073 1710.695190 448.119995
1205.485962 1673.859375 507.841339
1040.452515 1755.094238 914.849304
1328.014282 1688.456665 589.867432
1014.797852 1771.861450 559.685547
1338.787109 1711.926514 620.925171
1357.133057 1736.662476 707.656006
990.062500 1714.935059 866.743896
1363.741089 1758.921753 696.894653
942.426697 1791.230469 583.795410
1307.144165 1938.774292 513.093994
1323.140869 1799.447266 597.309021
1146.114258 1761.993530 416.671387
1145.886719 1713.507324 411.469177
1091.065430 1736.249023 534.447144
1265.613281 1684.710327 729.348999
1282.037231 1780.731079 533.541443
1190.214600 1690.695923 485.530731
1249.677368 1692.506836 705.291016
1263.694702 1722.476563 706.624695
1007.835510 1718.423950 784.003418
1204.007690 1762.574585 775.692444
1283.530640 1678.710815 724.745239
1245.350830 1670.924316 522.502441
1178.317383 1673.046509 649.240051
1160.758423 1737.307983 426.724335
1271.380737 1651.843872 732.845337
1270.893188 1703.078979 554.521362
1254.273926 1804.375244 487.213104
1287.187256 1632.210571 791.084412
1176.667725 1662.590454 676.231628
1306.663452 1809.760864 557.572937
1108.830078 1687.631836 708.099487
993.181396 1767.914185 572.266602
1349.117065 1872.858765 594.045776
1141.363892 1675.040161 702.236938
1241.057129 1678.772095 706.806641
944.894287 1839.412231 831.951416
1355.649292 1897.225098 592.042053
1224.436646 1665.553101 578.619080
911.164124 1802.719238 606.222534
1116.302612 1684.772827 706.355591
1373.150879 1794.243774 612.790527
1249.450439 1650.868408 594.705811
959.404297 1767.704956 696.569031
1269.188965 1705.352661 707.888611
1199.709717 1709.538086 737.920837
1010.795654 1719.066162 835.549194
1164.979126 1676.465332 736.042053
1250.105469 1792.999878 709.080200
1084.899658 1692.589722 756.408936
1116.742065 1672.452026 750.692261
1132.247437 1742.580566 481.541077
1139.669434 1717.692139 597.158569
1318.845581 1748.204346 714.444092
1171.000000 1677.424438 569.121948
1186.053833 1713.135498 449.029419
1169.153931 1668.321289 675.121704
1063.661865 1757.442749 525.855286
955.350342 1731.738403 802.951538
1232.196899 1901.034546 437.450775
1189.873535 1755.222046 390.152191
1064.217896 1703.954468 803.041931
1270.531860 1823.372925 504.977448
1030.191528 1753.562012 620.869873
1232.366455 1653.809448 569.614807
946.503540 1775.656738 686.635498
968.003113 1719.424683 860.557251
1377.657349 1845.114990 615.311646
1149.708008 1713.503540 775.130432
1041.923706 1698.995605 786.619568
1073.191040 1693.251465 788.376831
1104.956055 1752.698730 461.732178
1013.037598 1710.377075 792.014587
1205.734863 1695.846313 696.829468
1087.182251 1717.859253 672.484924
1282.767456 1833.526123 521.791077
1015.831543 1731.962402 879.321594
1047.073853 1725.657593 710.035034
1347.379395 1779.792603 667.627380
1131.631958 1730.231567 785.707336
1261.618286 1757.948608 513.912231
1138.271851 1726.761108 479.133636
1372.706665 1746.305176 709.647705
1232.555176 1700.487549 503.578369
1213.777832 1712.708130 439.966278
1032.497437 1770.003662 493.440125
1054.035156 1757.890991 529.321167
1227.960571 1651.069702 630.838196
1280.177979 1701.090088 713.925354
973.201233 1751.649658 699.829224
1158.214111 1683.747925 590.646057
1212.784668 1818.544556 396.177338
1204.958618 1673.437134 581.750122
890.739136 1791.534790 663.733398
1143.189087 1667.173584 728.312195
1183.587158 1676.541870 586.665222
1341.801270 1856.154053 593.876160
996.548340 1765.161133 615.207825
982.992554 1719.333252 872.106934
979.754944 1785.583740 546.989502
1238.839966 1792.987793 469.519867
1100.863525 1762.915527 462.268494
1037.794678 1713.074829 759.838623
888.271851 1795.109741 654.735535
1019.275208 1706.703857 820.135559
1151.755737 1696.739258 519.797607
1195.045166 1674.580322 531.475098
1123.941406 1719.340210 572.337097
1046.912598 1700.716675 792.694031
1346.514404 1749.727295 694.135071
1254.904175 1648.998047 636.194580
1074.033325 1753.963623 590.176514
1040.180298 1716.726318 854.436218
969.307556 1767.349365 652.489197
1245.949707 1924.258423 444.648499
1061.193481 1690.582031 754.687378
1129.997559 1705.090332 639.839355
1349.291626 1727.026733 722.658569
1049.049561 1706.974487 768.027710
1063.296021 1709.406616 736.099426
882.932495 1783.224121 722.759949
1301.271606 1675.109131 589.657104
1174.743530 1720.689331 427.672455
1266.102905 1678.269653 699.788208
1106.742554 1749.669922 539.716980
1398.317505 1845.885498 647.386963
1234.839111 1657.777588 553.888000
1368.557983 1779.202759 625.599426
1259.237915 1756.501709 519.246887
1370.318115 1738.292236 721.653992
1257.703369 1692.390015 650.046509
1099.813354 1731.247437 823.643494
1296.522949 1916.889648 491.148102
1282.430298 1660.722656 747.056335
1340.437256 1730.725586 601.233093
1006.959534 1748.116089 692.739746
889.550110 1809.481934 629.714966
1144.810547 1694.274170 564.395691
1023.990417 1776.318481 504.928467
1205.936646 1658.209961 630.290161
1282.633423 1649.237427 779.702393
1101.705811 1712.666748 664.059753
1029.083740 1760.745972 538.284302
992.574158 1708.879272 810.827454
965.233215 1716.369263 822.946106
1268.734741 1752.684814 535.405029
1166.762695 1675.642456 584.902161
1141.858398 1697.136475 580.533569
1329.756348 1750.016602 636.999268
1149.050781 1707.102173 590.061768
964.060242 1720.765015 862.710999
1228.690063 1665.566772 556.633057
1262.517822 1795.563599 523.427429
941.752136 1769.020020 674.647766
1292.219604 1657.255737 763.474426
1178.114380 1735.409668 415.107544
1213.315063 1666.329224 663.510376
980.364807 1776.388184 622.276611
1157.634888 1686.642212 586.223145
988.572998 1733.644043 765.127258
937.143799 1732.948853 820.927917
933.529053 2004.814331 756.936523
1115.812012 1684.275146 713.421570
1298.780884 1822.226807 542.890015
1268.158691 1889.099976 461.028900
1042.969116 1704.469971 850.050110
978.549072 1715.184937 863.188904
1209.604004 1668.768677 537.911560
1283.297241 1662.493530 742.940491
1102.814819 1719.100098 654.795654
1380.672974 1737.874878 723.185730
883.165955 1812.570313 626.840881
1002.593384 1766.674438 616.593140
924.430237 1796.333374 598.547546
1072.092041 1684.285034 757.203918
931.603516 1764.026978 756.907532
1381.026855 1787.414551 701.396667
1286.573486 1723.008545 577.112061
1090.485352 1693.679932 747.428101
988.224304 1767.733154 664.126587
1096.070190 1704.913452 806.802673
1277.976196 1682.369141 560.174561
1218.941772 1648.609863 620.951172
1316.703003 1685.062378 773.134338
1280.204346 1723.096924 552.497070
1128.759521 1750.320435 444.170959
1136.826782 1696.202271 673.302063
858.685364 1884.597412 700.326172
1297.679321 1725.697021 574.861023
1369.785645 1754.942627 713.079468
1281.471313 1725.218262 561.511597
1154.051392 1681.015259 650.387207
1094.510010 1755.615967 471.676270
962.146790 1784.275757 630.230896
1306.544556 1888.506226 534.179443
994.828186 1713.321167 784.775024
1141.672607 1715.100952 467.311523
1114.457520 1763.337646 835.995728
1226.553711 1723.684448 484.282745
1320.017944 1706.779907 612.297363
1215.163452 1849.193115 408.756500
1251.856689 1658.039307 614.874573
1167.962524 1677.231323 706.212891
1256.079590 1728.741333 695.094421
1157.178833 1717.847290 497.028503
1191.208862 1676.635254 578.825317
1232.606934 1670.559326 743.086548
1352.024658 1764.784912 692.446289
