ply
format ascii 1.0
element vertex 1408
property float x
property float y
property float z
end_header
630.919983 1979.751221 561.083740
531.904114 2021.557495 638.042358
833.431763 2089.331543 461.460327
520.580383 2013.598755 340.303711
404.605042 2035.876587 374.497192
773.255920 2051.669434 248.586441
799.797241 1975.263916 347.344025
467.596222 2017.613892 470.276886
840.247681 2129.209717 342.472961
759.735535 2056.764404 227.805435
846.366272 2039.004883 377.941010
365.120209 2034.294189 420.799744
698.940247 1968.243652 530.054382
381.567627 2036.908569 390.369843
739.278992 1993.360352 225.544800
792.164612 1975.453247 341.375061
713.687744 1995.409424 193.012848
456.814697 1990.005249 562.932129
858.881348 2099.753906 455.626892
458.859528 2013.800049 464.988525
858.252686 1993.136353 404.537384
603.312500 2003.770996 418.379852
607.851990 2003.295044 418.324402
697.151062 1973.582764 428.321686
473.042419 2028.241821 329.732544
685.346863 1971.055176 535.015625
787.495178 1989.259155 503.156982
737.079834 2025.681519 209.024231
759.837769 1959.343506 380.197632
487.594757 2027.184448 365.220001
738.435242 1965.197876 382.568054
840.339050 1995.269897 387.450378
449.712189 2004.242310 564.970886
852.929932 2014.568115 423.116364
463.927521 2155.822266 603.811218
751.008728 1964.432861 418.463135
515.544189 1985.452148 596.614685
565.061157 2016.892090 363.423157
788.899109 2203.192871 269.003052
595.505981 2007.690674 587.154236
715.827881 1975.320923 441.613708
674.332214 2011.163208 208.052338
816.760193 2243.701660 273.686951
467.922333 2024.750000 385.337830
811.935608 1954.737183 373.975250
494.854767 1999.408447 578.343933
696.020508 1975.807007 315.516022
663.054199 1966.638672 500.672424
871.071777 2090.657715 428.622925
394.819855 2107.664063 497.995605
746.565369 2131.447754 203.999069
569.457703 2004.187866 480.362213
702.402832 1974.312866 512.569031
479.127838 2000.367676 617.866943
761.859192 2035.362549 235.963684
544.447388 2017.468018 357.439941
796.994934 2073.962646 472.508240
847.234558 2104.552979 461.292480
771.125854 2027.234619 473.960999
502.276855 2017.577515 373.261658
776.743530 1989.242432 538.889709
706.599121 1969.471191 312.339020
807.707214 1962.549072 347.764496
834.921875 1964.167114 391.364349
789.376221 1956.249023 358.543671
606.566956 1994.902344 456.274689
463.686920 1998.558838 612.721252
838.619019 2021.263062 444.000092
815.557617 2041.371826 527.040100
818.889526 1973.811646 345.940613
844.047668 2067.877930 531.708191
814.736694 2217.211426 276.926758
643.592102 1997.198364 555.122437
836.233215 1959.215820 404.577362
841.712219 2190.589355 351.070374
819.606445 2147.767822 318.023132
388.757996 2028.312256 454.095551
605.977295 1979.376221 560.242249
801.869873 1957.147827 440.023529
741.565796 1964.424561 412.077423
883.799866 2170.764893 442.273468
572.327393 2009.200928 418.004608
638.076904 1989.463501 465.344238
805.214783 2051.785645 314.235382
882.078857 2112.042480 477.110809
564.860596 2008.151733 620.496277
533.498169 2000.170776 635.171204
430.307526 2007.863037 363.307983
789.685791 2135.427246 291.487335
413.197632 2032.948730 391.981598
820.959595 1995.654419 571.536377
851.502930 2232.418945 362.304443
852.003601 2092.921875 479.443054
899.282654 2079.497070 495.285248
579.184082 1989.415039 532.768738
770.276733 1966.611084 421.590637
546.016846 2018.151611 287.313110
662.049805 1974.128052 560.085632
754.864380 1970.670654 254.720749
743.947693 2138.541992 193.189926
425.326355 2048.101318 458.793915
598.704651 2012.142822 608.984680
816.653259 2118.892090 331.475708
793.943970 1992.868530 526.455139
910.423584 2124.221191 410.454865
420.364899 2071.103760 448.531067
812.718689 2052.634521 534.464172
665.006042 2016.296631 211.729019
786.997620 1954.825684 427.837677
838.823914 1974.586060 410.271149
800.706177 1954.827271 412.031433
795.227783 2066.869141 299.281586
765.021667 2260.017334 207.868393
894.215149 2124.163818 412.159180
772.557861 2104.082031 245.029892
593.363953 1996.936401 488.257568
594.920532 1998.950439 460.359589
522.430725 1995.025269 584.748840
543.996582 2001.406128 625.483337
633.578064 2012.968262 239.761841
656.452820 1971.182983 524.943359
621.387024 2013.043823 261.935181
649.275269 1989.060791 485.611298
458.434174 2044.208618 460.611633
585.848267 2025.087891 343.941467
716.442688 1967.663452 352.803528
822.418213 2006.722046 430.364685
505.282227 1997.051392 571.659180
531.897766 2022.196533 459.617188
715.098206 1956.820190 337.959869
817.008728 1988.539063 326.399506
465.808502 2007.361816 511.840302
777.943054 2033.653320 474.635651
764.821655 1955.843384 395.123993
656.353577 1996.093506 287.123505
817.023926 1953.934082 407.145966
808.421387 1962.364014 358.481567
667.684143 1989.397461 303.665283
835.984497 2134.680176 356.716278
852.517578 2088.759277 386.319702
498.054474 2035.480713 326.245850
755.389343 2058.684082 220.321320
870.442505 2111.654053 470.445740
788.803162 2077.478027 280.481842
834.655029 1993.870117 597.053101
840.567383 1996.678467 381.413605
405.739441 2015.548706 506.907532
818.647644 1955.999023 404.460480
646.731873 1973.813965 539.726563
469.197235 2000.117310 566.305847
533.089478 2012.135498 425.874664
685.293579 1968.264526 494.255859
562.136475 1995.840454 589.779480
612.472778 1999.483398 439.714355
858.440979 2051.350586 386.599243
666.411865 1978.047119 536.608948
496.057434 2008.907715 309.938354
610.176331 2076.436035 619.245117
677.757507 1974.455688 512.700500
533.905701 2018.547119 472.967285
463.804443 2023.579834 372.361755
680.921082 2029.197510 577.239624
772.729980 2192.406738 209.475739
566.285522 2023.449707 385.596588
477.393982 1990.994629 617.208862
485.301544 2030.089966 360.344116
586.203430 2013.773560 371.081177
840.524231 2200.677490 341.672028
602.039673 1983.375366 555.993347
821.677368 1951.827759 371.975067
694.993591 1997.043823 568.888855
565.899963 2015.488770 346.330414
512.434631 2064.533936 677.132324
660.677856 2011.104126 236.766785
784.909912 2034.951050 467.308350
494.163361 1989.793701 579.962219
421.279907 2081.825439 426.995148
729.628784 1989.670898 221.214035
740.689575 2018.999756 194.112564
489.504517 2007.217896 582.334839
739.782227 1970.571411 273.901367
640.917603 2011.914185 302.526550
503.902863 1997.109985 578.783325
759.484863 1965.167847 357.081665
805.922241 1996.080078 534.472107
832.103638 1965.228394 397.404633
836.600159 2075.136963 447.118439
713.894226 1969.533813 381.007141
791.984009 1951.895752 432.271820
544.092651 2011.906128 314.824585
765.318848 2099.141602 234.044281
617.974792 1994.236084 466.539948
802.072693 2027.886475 509.151367
752.713562 1995.857910 227.287750
882.725403 2096.512451 398.348663
698.321411 2013.786865 429.837494
634.385864 2006.542847 229.858002
576.144592 2002.616455 613.544983
806.149170 1983.280029 589.438904
580.041931 2028.739746 615.682495
707.323547 1984.316284 278.962219
394.803955 2016.663330 487.855591
798.730042 1961.486328 354.491425
894.347717 2132.068604 424.528900
843.994751 2008.056519 587.445313
467.886292 2032.415161 472.460205
705.443115 1981.644897 465.606049
735.397339 1970.758423 294.592072
746.556458 2118.212158 192.458984
783.116760 1959.609009 374.954926
746.750183 1969.076050 389.337738
824.185120 2027.845215 351.762177
859.440491 2039.754028 422.964294
541.899292 1996.554077 284.430634
655.323975 1998.096558 253.108383
673.615295 1994.945313 268.582916
469.681732 2030.963257 327.272339
602.982178 1977.711182 526.242065
684.947388 1988.606567 272.655304
790.963135 2266.656494 283.326569
556.294617 1989.748657 521.507507
826.371643 2140.986084 314.302185
495.980927 2025.420166 475.169098
413.387970 2053.802490 502.955139
542.024719 1991.188843 601.604248
436.956116 2015.081055 540.759399
872.403992 2126.254639 462.517700
570.074158 1988.065674 517.266724
701.192749 2004.638794 551.835327
559.350525 2003.928345 271.747040
848.886963 2006.849854 419.795807
763.565552 2018.147705 475.899292
811.781006 2090.784668 489.025360
432.284485 2027.181396 374.017639
703.235291 1966.935669 339.585754
638.584106 1996.335083 329.047455
755.349182 2104.442627 175.797028
719.371948 1971.422485 323.685425
514.024292 2020.282104 356.892273
816.757813 1951.583252 392.371918
750.243225 1963.055908 393.814056
873.587585 2124.156494 388.703796
574.241150 1970.501587 278.225494
782.846741 1972.402954 318.709869
825.852905 2021.770386 365.220490
780.156677 2134.322021 232.008942
787.209656 1974.064209 328.195892
632.998840 1995.099976 416.843292
722.958801 1964.390991 361.897400
820.195129 2019.410400 535.213257
569.872314 1998.850830 660.559875
519.802429 1984.995850 589.796509
863.207397 2105.856689 427.160553
797.636719 1959.212402 446.329285
653.404236 2015.673706 366.424286
807.886475 1994.110718 326.412537
567.146729 2011.385986 406.558899
812.761780 2070.345459 483.404938
737.421082 1991.126465 484.555298
809.060913 2177.329834 299.227051
673.532227 1973.313599 496.752045
534.684570 1989.725464 563.005493
660.026123 2026.412598 588.166199
491.551575 2019.897827 541.178467
768.463928 2004.313721 488.145782
464.520752 2133.273926 618.586365
712.772217 2021.134766 191.829773
769.693848 2131.342285 198.915054
532.417969 1988.081909 602.482422
469.504425 2026.912354 353.143463
646.245361 2003.311890 429.770569
904.378601 2166.229736 401.025726
665.145691 1980.109497 560.600464
847.573242 2187.691895 361.202362
801.760010 2010.722046 478.838898
748.375061 1959.430298 368.331573
768.851685 2103.660400 237.144958
902.490112 2083.660645 500.784332
801.535767 1961.702637 393.694153
774.287903 1959.738525 359.569824
612.233948 2012.730713 256.802368
870.186157 2127.605469 451.995422
799.735962 2006.352905 319.922119
428.696259 2021.475952 404.859375
754.847290 1956.396606 448.066864
426.915771 2020.225708 405.186920
649.328979 1999.457275 274.694000
695.230347 1980.507446 448.072754
711.229614 2078.291748 560.765503
399.790833 2019.502075 486.491272
696.926636 1975.604492 510.694336
590.843628 2020.747925 307.905182
730.491150 2083.319824 190.926041
731.087036 1964.578003 361.612518
515.484619 1990.752441 603.441895
865.284851 2087.911865 511.688629
833.875061 2141.321045 368.757721
851.261353 1958.724976 419.207581
404.915375 2011.274414 514.838501
782.102966 2070.793945 274.346130
727.142517 2003.270386 492.230560
693.367249 1992.673950 553.529602
481.926331 2109.121582 645.302917
605.974915 2007.329712 280.857574
549.849548 2015.146606 334.408783
514.689026 2009.972290 413.958008
450.649536 2045.509521 457.765869
903.999023 2111.245361 397.413940
639.516602 1994.684814 565.064209
792.825623 2051.902100 483.845825
469.248016 2003.576538 556.749390
696.593323 1973.161865 386.435944
523.739807 1987.042114 595.456970
839.968018 2172.046387 348.344116
596.530701 2025.885132 357.424133
515.584167 2033.832642 305.354279
776.568970 1975.746460 456.174530
847.520203 1977.276611 400.199188
718.365723 2000.672607 549.461731
712.630981 1986.560913 248.210037
373.106659 2030.920044 390.087097
706.848450 1974.527466 283.450439
863.831299 2057.971680 420.838501
471.463043 2036.877441 327.850494
521.851135 2007.754883 627.329956
851.113342 2077.116699 494.416595
494.316498 2017.440918 341.679749
721.104065 1967.802124 416.004639
796.306824 1977.987915 557.899536
539.953369 1997.286377 509.593323
544.444885 2008.916992 302.612061
899.145752 2198.353760 414.841827
874.190552 2077.282471 455.883453
784.055725 2280.855957 214.901505
863.401245 2066.366211 536.065308
767.710999 1965.375488 443.829041
414.072052 2021.989136 513.778259
556.304810 2020.562134 337.591858
642.432861 1991.439087 430.938416
676.714233 1978.928711 302.019226
471.013214 2035.477417 451.882263
785.216125 2004.463501 310.693268
387.738617 2023.177856 457.088776
759.232483 2029.114380 244.545486
811.256165 2196.083008 292.201111
774.590271 2231.078125 199.887283
425.994720 2023.400757 359.245117
782.535645 2141.847412 250.779114
866.795898 2031.373779 403.051239
894.993958 2159.627930 404.072784
502.116577 1999.999023 639.936646
560.440430 1996.623413 649.078430
596.926880 2027.434448 359.953705
825.680542 2171.034912 323.038025
813.397888 1950.225708 416.018005
560.162170 2018.405640 501.919403
672.735535 2010.295288 204.739105
764.664368 1967.335327 269.680878
468.071686 2014.201294 423.829681
842.751587 2192.082520 331.212708
426.033447 2024.835205 377.848206
811.356628 2046.500610 308.906403
815.970093 1963.973755 431.808258
809.994080 1998.831421 346.239105
576.439575 2015.468750 395.464508
571.398865 2029.281250 343.432739
692.758545 1988.238647 458.069733
863.541931 2026.570435 419.572235
838.758667 2007.430054 384.561035
735.312195 1975.236084 252.809082
828.140930 2073.198486 488.611938
871.972656 2057.586426 421.695282
839.002197 2061.507568 359.515991
794.007751 2007.826050 512.917847
451.691589 1999.764771 573.870911
799.525452 2012.011719 467.496002
670.559937 2062.169678 575.509277
829.209595 1961.930176 356.408752
858.353149 2050.406250 417.772156
660.821472 2029.723022 560.504700
712.672607 1969.408447 334.044159
854.575500 2078.613525 531.229248
461.865479 2011.681030 326.476349
514.733093 2069.564941 662.134766
736.238647 1964.888550 467.415283
685.734802 2035.925903 385.139404
508.471466 2066.720947 662.369873
815.508362 2166.193359 311.932373
613.575684 2041.386963 605.919800
786.592590 1971.179810 308.774048
834.002625 2047.577148 367.543335
772.928406 2030.190674 267.655884
535.286987 2002.318359 502.927338
488.300537 2036.911743 405.870880
670.237122 2032.804199 427.235321
737.251831 1970.448975 320.853058
535.772095 1984.805176 568.089539
901.183533 2133.647217 417.133789
788.098938 2053.843750 489.173187
714.787964 1982.092651 279.887360
636.236084 1998.390259 419.732635
782.006409 2032.179688 480.799286
570.182312 2018.185791 627.670227
898.297241 2110.425781 407.178741
512.747803 2008.621582 511.919067
552.824097 2007.647705 548.372253
664.034302 1994.222656 468.903839
865.580688 2071.948975 532.785339
786.754028 1966.738770 302.192444
846.871582 2094.981689 380.705261
640.726135 1999.257080 285.299469
707.613831 1991.943359 426.282471
710.667297 2022.521240 541.103760
560.818420 2019.507690 359.594391
585.088318 1999.541016 489.813538
559.391602 2017.541748 446.409515
439.214386 2010.190918 539.899109
773.418701 2177.270996 178.005402
761.951660 2247.395264 206.722595
640.204834 2007.017822 408.974823
506.687317 1987.040039 580.927063
634.288269 1989.492188 577.118164
746.083191 1971.397583 350.895386
498.284210 2019.300049 351.338745
565.153809 2032.598633 271.558136
655.881836 2005.815308 247.789719
436.758636 2044.414917 404.303986
753.447937 2002.577637 498.692657
799.709229 1999.633423 518.180237
476.841614 2034.822510 408.296356
844.770081 1990.594482 595.332397
744.100220 1982.635254 219.592438
490.822266 2020.831177 400.399719
745.301697 1993.959473 250.571503
794.076721 1968.637207 433.320374
805.883362 2178.466797 285.678925
501.525940 1995.772583 625.163269
781.396484 1987.691162 301.275330
780.718628 1972.994751 294.294586
728.561890 1980.106689 240.521515
600.893616 2015.138916 343.345398
812.321533 2067.773682 329.339813
691.899048 1980.415283 411.452057
764.543030 2014.453735 469.649536
747.036194 1971.484985 476.230560
758.240723 2187.164551 210.473083
382.509583 2030.292358 452.934387
647.463257 1998.466797 310.822815
440.203003 2080.751221 585.315735
839.384583 2043.707642 379.336670
463.571289 2031.271240 401.169830
596.298950 1997.959595 271.520447
486.030945 2026.680542 343.074615
737.438232 1966.440308 460.015564
771.345459 1954.500244 363.039551
742.788696 1969.945435 470.350006
772.330872 1987.876587 258.763763
611.171814 1995.637695 442.121033
748.328430 1974.559326 366.386902
490.012024 2010.689697 390.623962
545.692322 2014.654785 393.851532
459.093750 2019.269409 373.017700
475.503845 2016.796265 501.524139
768.887695 1954.437866 452.600159
710.134888 1978.341797 298.713745
694.427979 1983.346436 544.973511
683.663879 1989.298584 304.400238
576.085938 2088.532227 659.137451
731.448425 2009.544189 507.146179
863.385132 2133.394531 464.397949
576.249939 2000.085571 446.408600
632.857361 1984.250610 249.147308
762.137512 1977.893921 278.548920
827.547485 2063.966309 450.078766
436.473755 2107.626953 569.351746
416.420929 2050.714355 547.218994
762.822693 2004.703369 255.250900
518.921448 2007.179565 457.281769
690.476929 1965.651855 530.687195
613.505554 1980.185425 529.628418
711.394592 1978.784546 344.640503
681.822815 1976.756470 304.728699
394.471893 2036.197632 395.474915
817.876343 2147.370850 297.368256
734.958435 1972.034424 463.729431
689.337769 1974.589722 502.520691
649.038147 2032.655640 391.984100
563.251221 2012.529541 645.347839
758.601013 1989.532104 229.962021
584.724304 2023.832642 276.481903
699.705566 1983.087646 293.368652
634.310059 2002.849487 439.661896
820.074341 2003.674194 562.179565
886.221130 2122.896484 483.356537
841.439697 2081.167725 467.769928
710.940430 1970.472778 367.453461
801.867065 2008.141846 512.124878
826.377136 2145.235596 335.513672
765.309326 2115.278076 230.386246
572.655457 1997.442505 567.591370
815.334961 1978.794678 358.726105
672.132141 1979.529663 341.405212
793.692749 1981.058716 294.267792
768.944580 2172.886230 226.002106
691.873901 1979.691772 463.736145
753.732361 2018.680420 480.860321
841.382568 2036.302002 431.143463
785.163879 2257.572266 195.987885
512.083435 1997.973755 587.241333
692.384277 1981.308350 284.566437
750.698120 1970.031128 362.003113
472.056091 2013.908691 627.728760
842.915039 2093.017334 373.683075
828.652161 2025.002808 445.368011
489.700867 1989.843018 582.603271
851.975220 2073.235352 501.911835
800.850403 2035.801025 510.043732
496.621735 2024.157593 331.992188
637.090332 2004.344849 570.618103
742.976501 1958.129639 360.197754
889.166382 2105.489990 502.169708
779.945496 2079.882324 272.211578
584.568909 1978.638916 559.694092
534.207275 2014.834473 438.037994
742.356934 1964.164917 452.854706
827.125427 1993.366211 583.674622
452.922211 1997.508789 599.396118
709.558960 1977.899902 271.172516
794.647583 2039.875366 488.979736
460.550140 1997.171875 622.735962
779.060059 2233.588867 236.499542
737.316711 1960.877930 403.000946
791.167358 2106.132813 280.706848
647.013123 1998.319336 402.841492
672.734741 2017.909180 341.533722
822.912903 2104.072021 316.905090
544.165588 2012.026489 530.350647
797.973206 2219.783447 266.868530
812.900085 2025.003662 332.005737
738.096680 2068.910400 201.493332
875.095520 2115.764893 469.738495
694.768066 2032.296875 547.346130
767.053528 2182.036133 222.602921
715.536072 1977.803833 414.735077
795.343872 1971.676636 303.241150
784.368469 1981.542969 280.498383
729.867310 1987.474121 281.739532
594.755798 2001.190186 414.261292
763.009888 1977.564087 459.015106
559.144531 1990.339478 546.404724
375.640533 2037.449951 389.474945
695.604065 1989.130493 271.307648
608.703369 2003.185059 597.262512
584.335144 2001.863525 261.018463
842.082214 2095.930420 383.900848
751.479553 2069.316895 215.784439
746.689819 1960.062012 423.927582
488.183044 2030.096191 459.387695
663.357788 1996.451538 323.803925
777.412781 2109.812744 260.744720
767.399353 2011.596680 261.191193
818.751831 2011.521851 343.694641
735.235168 1963.625488 342.202942
757.594849 1958.006714 421.697540
836.130798 2141.520264 363.461426
866.542236 2065.941162 425.446228
867.068726 2072.823975 547.926270
568.590942 1997.003906 649.193237
758.460571 2038.397461 214.388535
827.819031 1988.309937 384.206116
496.887817 1992.211670 618.689758
770.012817 1957.793823 310.356079
734.882690 1971.220947 357.564392
517.273621 2022.191772 354.048492
687.734802 2000.084961 367.510040
703.620605 1993.523804 516.083374
655.916077 1981.028931 572.914917
886.791016 2063.167969 390.552246
619.181885 2085.143555 624.737671
643.955750 2022.385254 341.712250
495.642761 2021.148926 416.393188
564.181519 2005.273804 393.612488
664.109985 1999.778076 220.987610
722.922974 1964.494995 473.482208
666.681396 1966.473145 555.005066
465.665192 2022.479126 449.445435
722.569031 1979.188965 305.880341
827.423401 1974.939575 388.210175
618.985962 2012.610474 601.687622
683.160522 1976.097778 541.854675
773.985779 2269.923828 200.218079
448.274872 2207.069824 564.953430
725.595764 2029.149414 198.056900
842.771484 2116.328125 381.818604
699.059692 2056.647705 381.323792
444.712738 2006.794556 557.505615
732.184204 2023.380859 202.790848
657.669495 1992.220703 425.050018
758.709167 1962.055542 307.833984
554.925598 1995.263062 514.914978
723.090515 1973.964966 366.563171
848.347778 2077.800781 473.548676
889.421997 2085.317139 401.668182
892.662537 2080.022949 525.976501
791.970276 1961.153687 377.086395
582.105835 2009.782227 305.230652
583.248230 2009.568970 395.469666
456.251495 2022.671875 468.864532
827.023987 2202.049805 323.528625
878.419189 2116.585693 422.978455
757.283264 2010.305176 244.423080
705.704590 1976.490234 307.508942
769.810242 2002.451660 495.463104
563.954651 1999.103638 530.413208
855.708374 2005.965332 411.583252
609.954712 2010.922363 373.838074
838.445679 2063.333984 367.471191
759.557373 2141.929443 221.725052
754.593201 1955.449097 444.187256
795.952515 1993.395752 530.617371
682.210815 1980.810425 323.164124
831.653870 2074.883057 362.390259
710.599670 1993.974487 216.169434
473.368958 2016.618896 324.205688
477.962524 2023.855957 419.008728
867.747131 2076.675049 387.866455
774.512146 2013.712524 275.013641
527.758850 2020.528687 392.292938
763.263672 1967.520386 285.710571
533.753540 2020.886963 463.567230
496.871155 2017.727783 365.851532
633.588379 1983.886597 236.919220
853.406067 2068.625000 536.238342
552.779785 2013.587769 301.106812
740.810669 2117.635742 189.057907
904.394348 2165.093262 409.088776
538.434753 1993.010864 580.877686
780.226685 2000.146973 471.701202
547.736206 1997.723877 614.460144
835.676636 2069.213623 360.670654
696.645508 2000.341309 207.990219
683.808777 1977.825806 532.398376
809.711670 2007.752808 539.172852
829.342285 1992.919922 595.266724
666.497681 2003.657104 210.849289
719.719238 1998.642944 177.691437
432.246582 2032.615723 576.985718
731.572754 1971.509521 281.248627
516.605957 1987.566162 588.054321
854.745117 2105.656494 456.683350
649.696228 2008.173340 312.437286
810.174805 2046.087036 324.141998
780.886658 1999.762329 531.793274
778.638000 2069.332031 268.592316
633.153564 1976.796997 520.188904
577.356384 2001.757202 646.580566
792.317017 1970.014038 454.961670
569.785522 2011.827881 309.102478
570.766296 2013.969604 304.115021
794.263733 1952.660278 374.734558
802.528076 2030.273071 506.955261
592.280457 2006.408569 399.812653
782.791077 2036.027222 477.150787
832.362305 2037.225220 366.870148
544.720703 2011.428833 284.211975
846.135864 2058.968994 380.569824
548.853638 2009.316895 650.855347
627.217896 1999.466797 444.208832
490.232483 1992.367920 616.236084
650.308899 2000.583496 295.168488
820.987854 2054.998779 337.519958
449.464142 2004.461426 521.266296
743.614685 1974.179321 461.162506
513.646423 2027.030273 457.637848
484.507019 2003.895386 535.607727
767.438477 1977.432861 294.619446
741.685425 1965.002197 393.026520
449.574493 1999.091919 523.138306
797.710388 1987.349365 317.286865
842.033386 1990.376099 390.476044
704.002991 1969.889893 364.328094
707.233948 1983.012695 447.372559
893.885071 2147.122314 403.373566
704.222900 1976.632935 332.678589
711.865723 1975.744629 366.236237
832.440796 2048.621094 361.091980
856.101074 2030.828613 429.055969
707.995056 1979.086914 441.118530
794.394775 1977.118774 302.513763
628.887329 2001.269165 423.078400
850.358154 2207.103516 362.209839
815.589478 1956.975342 366.532959
863.037598 2068.325195 430.860504
566.355164 2005.875610 615.753967
469.627045 2024.325439 360.645569
819.043091 2093.045410 333.041992
810.108032 1998.382568 310.641602
888.304321 2136.356934 398.544281
754.099731 2211.779297 201.709641
464.229828 1998.386108 549.351074
407.613373 2031.914185 370.399475
461.759247 2021.834473 467.395264
549.690491 1997.081055 545.342407
886.462097 2032.281372 404.276001
833.102112 2134.887939 346.440247
590.481140 1997.434692 559.443298
540.453308 2007.115723 461.991150
838.133118 2002.655518 582.038757
828.925415 1988.681152 368.594177
650.070862 2018.542114 311.539703
462.813202 1997.948364 330.065155
779.581970 2133.749512 247.722473
695.917358 1996.020020 244.694458
712.258545 2007.400391 208.121597
850.775452 2108.792725 385.055054
537.345703 2010.251831 433.805756
759.641479 1962.341309 467.587708
746.832947 1970.590820 338.993591
661.461243 1963.057495 546.058716
758.362488 2135.399902 220.288315
830.785889 1952.900391 399.600098
685.881287 1993.443359 446.803650
740.728699 1967.977905 401.841187
837.629028 2076.316650 459.664581
845.830688 2078.399658 495.606110
640.922729 1988.078979 488.564056
677.674988 2008.891846 355.601624
585.094543 2016.278442 370.967285
395.941833 2055.263428 460.663544
820.709412 1954.281006 417.237976
674.492065 1966.612549 497.453949
752.089539 1959.458618 357.477844
434.225281 2029.030518 529.337402
785.447205 2028.260254 494.443909
817.216614 2130.552734 330.574799
618.202881 2009.615845 323.405029
703.949097 1986.708008 507.162750
711.224121 1967.644287 325.296265
702.370850 1975.636353 387.055481
785.968628 2066.643311 282.291473
394.027374 2029.979980 386.329071
454.542999 2027.760742 349.404572
563.858459 2006.300537 625.898254
641.334045 1991.162231 246.112991
775.114990 2287.423340 214.483475
693.476440 1980.746582 349.212463
572.921143 1996.747925 475.093018
670.959595 1973.757813 499.771820
768.124390 2203.455322 221.440430
589.989990 2009.167603 293.162689
785.460571 2009.515381 284.820007
860.018494 1995.954346 402.595825
450.622925 1997.596436 579.058105
850.475159 2208.368896 360.130798
763.099609 2017.034180 510.428711
698.445374 2003.996216 197.600540
666.755859 1975.946289 490.030701
427.727966 2040.306152 393.036285
710.370667 2008.592529 196.478088
674.416809 1970.371460 493.978241
533.808777 2014.019653 336.663971
623.908875 2003.422974 357.797424
711.932617 1988.762207 410.713562
794.369019 1959.997803 448.523071
743.342041 1973.285034 265.545837
784.585815 2250.357178 243.951797
849.508972 1988.497803 593.360535
466.163971 1996.908691 620.274536
572.145752 2006.310913 300.136292
859.986389 2089.074707 496.381897
765.683716 1962.642944 405.589264
629.838379 1991.647461 488.712799
499.179810 2014.085327 492.437286
385.112427 2027.427124 403.514618
414.053406 2011.006348 457.717194
453.392517 2019.309448 385.226959
643.167725 1977.547852 572.727661
546.450500 2000.830200 569.298279
783.621033 2010.413818 533.954651
560.210083 1998.745972 485.326813
752.668274 1982.452393 257.913727
822.367004 2158.073242 336.134369
479.500854 2150.326416 646.149841
628.578613 2002.840820 288.694550
774.139221 2078.407227 258.200562
796.259399 2052.875977 292.603180
729.090149 1974.092163 335.432922
675.761353 1974.791382 521.769348
400.532959 2045.754761 485.251740
465.420166 2025.379272 343.255188
739.860107 1970.075806 460.994019
443.363098 2008.466309 501.528870
810.778076 1996.773804 521.171631
775.597168 1950.253906 401.520264
533.266052 2002.996460 617.598083
457.952148 1999.016602 612.926636
781.544006 1991.644531 497.910980
700.431885 1976.585449 303.942535
776.871765 1964.588501 294.956696
786.998291 2228.666504 227.323105
895.913452 2135.784668 415.786804
793.121887 1960.369629 433.611084
637.251099 1999.059448 306.978973
678.537903 2016.133667 216.368362
866.507568 2053.084473 439.927429
767.995117 2150.869873 228.972443
811.232910 2002.469238 550.804749
650.787354 2017.088989 340.655334
860.219116 2024.792358 420.927063
736.539001 1999.177734 168.221817
427.042114 2083.548096 429.838043
785.312988 2041.580933 288.783752
765.158203 2025.938354 243.519577
816.209473 2017.539673 344.873505
700.821167 1976.215210 532.451416
815.909363 1971.244263 331.432373
799.304321 2036.734009 315.263397
760.766113 1957.230591 367.589020
565.186462 1989.350220 577.447205
593.650879 2023.560547 637.419495
577.955688 2008.490112 400.522247
689.051147 1987.634399 286.767456
778.279480 1956.018555 366.583771
709.464600 1993.772705 496.448822
828.027954 2007.424316 372.697540
771.139221 2129.012207 236.237579
480.496582 2022.500122 354.521301
576.310242 2020.100220 327.746338
773.819946 2271.341309 207.392288
707.300903 1984.726929 243.183853
840.758118 2044.824585 380.434479
527.440491 1989.654175 567.612549
619.610962 1988.703491 569.668457
836.834229 1993.547729 598.564148
892.921814 2109.863281 409.717712
779.010681 2238.685303 195.438034
479.282257 2094.549316 643.213074
571.334045 2010.138916 319.377686
774.078796 2251.279541 190.122574
617.512634 1978.343384 518.457458
494.241730 1981.417480 590.960999
898.969604 2094.728027 514.382263
699.952148 2011.170410 399.292786
418.485565 2021.012207 353.775513
756.327759 2123.220703 215.460464
600.840942 2017.235352 362.239685
831.045776 2040.786987 553.905884
803.895569 2130.006104 295.712799
750.864502 1964.619995 304.566254
815.893066 1957.263306 399.966156
501.960327 2018.468262 522.683105
741.899780 2010.844238 167.644669
403.552765 1987.991577 376.068115
571.139038 2003.884644 600.036133
518.696960 2013.285278 331.746735
642.781738 1992.486938 462.398651
679.057678 1988.666260 419.343597
848.764648 2096.288818 368.276031
778.154602 2016.952148 490.959930
873.341736 2178.898438 391.653381
744.785461 1981.724854 246.330429
850.724548 2025.153076 382.718475
806.507507 1993.946655 550.494385
768.457214 1975.165894 359.237457
761.603699 2175.666992 215.145142
831.554565 2179.052246 336.789063
556.201965 2007.136353 432.376923
770.480164 2284.780029 203.336136
649.487366 1971.955688 518.297546
823.101013 2044.641968 347.471283
800.225769 2032.290771 289.843842
663.311768 1971.852173 513.798340
534.621643 2008.485474 654.118042
657.802734 2036.426147 410.310760
779.159302 2026.411987 278.887848
898.783325 2120.937744 411.973022
615.657959 1994.287354 565.179443
631.530823 2001.523315 325.065826
608.136902 1999.255981 416.529541
710.778870 1976.614258 421.447968
818.777283 2011.536011 544.893738
467.605286 2040.210693 339.545197
698.187744 1980.810425 270.524139
681.708069 1986.652588 274.598694
511.089691 1992.645508 579.431335
465.652313 2002.964966 548.092224
674.636597 2007.511230 218.825043
486.292999 2012.386108 522.655762
818.971497 2056.324951 448.347504
817.036499 1954.561401 417.332550
772.176514 2075.714600 255.565262
641.069580 1975.409912 519.446777
817.846985 2122.652100 320.883301
579.152405 2005.437012 613.346741
567.076294 1996.559448 615.087402
794.069214 1990.176880 315.533112
690.154541 1976.631592 442.316467
845.586670 2066.778564 466.042206
645.472168 1985.695190 565.724854
851.546692 2076.990479 510.920288
822.430115 1989.369629 543.382813
778.584961 2261.918701 203.554291
833.057739 2165.184326 362.203033
877.749634 2101.679443 447.678284
587.788696 2001.108765 470.555298
790.617004 1954.043579 431.416901
599.214172 2000.086792 458.188538
531.439331 2023.292603 341.221222
768.755615 2018.602661 470.570313
529.442749 2012.614136 406.794830
777.638977 2079.317139 282.197510
669.385681 1992.700684 340.699219
722.635437 1973.453857 481.093628
590.984619 2074.985352 642.008179
719.948914 2017.242798 195.983551
506.045868 2004.537598 491.229462
756.633240 1979.002197 218.839813
666.812683 1983.804199 550.194763
442.160950 2021.139404 386.225647
814.409607 2007.808350 345.875793
473.636292 2017.506226 370.824127
798.009277 2030.156738 315.106995
468.551300 2002.094727 578.361389
537.157898 2013.100952 533.392151
551.618530 1995.480591 634.464722
651.141785 2002.327881 432.027100
729.369751 1982.087769 232.786789
824.529785 2020.538574 548.353699
635.320679 1980.940918 510.233795
520.493530 1985.155273 584.082214
481.806213 2022.562500 416.282227
832.020203 2089.708252 351.856781
664.561279 1997.537354 388.581848
539.053467 2021.267578 456.605896
536.659241 2006.183716 623.891052
707.987976 2013.170410 185.835938
517.151611 2021.761597 384.081329
889.612549 2113.903320 460.111145
746.098877 2123.952881 185.352371
555.856323 2009.392334 423.202698
805.750916 2128.544922 302.313934
736.403503 1958.744019 385.508667
561.507446 2008.432495 310.560669
557.463684 1983.143921 574.094116
496.047272 2005.850342 646.360291
829.730164 2034.758789 435.644867
820.426758 1994.795166 534.763611
447.407715 2043.334717 469.189453
852.313354 2078.327393 459.189911
611.966064 1986.464233 578.403748
544.388245 2003.066772 458.135284
893.859070 2180.618164 435.016998
689.210693 2030.971802 559.258118
594.312988 1993.934937 511.009277
721.009460 1975.949097 399.107117
602.182312 1991.916992 511.048981
720.112854 2004.148682 176.684769
672.349548 1986.029297 471.156006
591.285950 2006.329224 302.394165
724.945740 1974.096558 436.741852
472.746307 2018.346680 447.831573
687.121765 1975.840820 415.144226
838.073486 1995.260132 575.260620
776.270752 2102.139160 257.126740
767.662048 2066.047119 234.258087
866.863037 2024.751465 395.533325
661.456238 1988.611694 275.950775
672.063599 1994.999268 460.835266
867.322693 2115.646973 444.938202
747.176880 1986.323486 231.089828
503.707855 2026.562378 390.238525
846.302979 2174.177979 364.493866
501.842590 1998.057739 595.885925
604.302368 2008.863770 304.788727
538.592407 2017.432495 438.374573
610.515930 2074.442871 626.291016
511.407715 2008.577026 518.688110
680.704468 1995.446899 247.391586
579.094299 2011.603638 300.001129
586.606689 2008.079712 460.258240
610.189209 1981.380981 540.993713
791.452576 1958.536377 339.936432
522.921814 2020.499878 304.342529
815.668823 2091.273193 501.009583
862.110168 2000.367310 405.867371
679.984558 1991.516113 378.703735
825.136292 1958.720825 415.739319
750.256042 1960.940796 377.095490
775.488159 1956.251587 397.394257
758.249939 2001.246704 485.196930
796.443237 2118.781738 286.493469
375.575409 2033.911499 392.451599
477.408722 2047.135376 431.755127
817.508057 2003.696045 554.553894
582.958374 2005.340942 305.842957
643.278992 2015.870605 326.279572
849.581604 2103.535400 437.705872
636.112915 2009.134033 358.503723
549.935059 2005.597046 346.733856
540.368103 2011.866821 321.459320
545.961731 1991.069946 619.164795
792.550049 1971.664551 374.172211
748.488770 2120.181885 185.504852
773.219543 2205.290039 225.988434
872.566589 2050.187500 409.238251
744.572693 1967.948853 401.253510
435.533691 2043.048096 581.857849
479.459961 2005.540039 570.092102
510.404572 2020.884644 308.757172
833.358887 2234.548340 333.010223
710.489441 1976.468994 362.487701
557.237183 2005.135864 294.271301
557.848694 1988.502808 589.943237
807.624573 2076.502197 310.099731
871.067688 2185.805908 391.670959
513.559753 1989.997437 626.551758
849.272461 2092.535156 463.540253
703.989563 1978.448975 386.363403
645.529663 2007.910400 351.047791
642.041870 1978.717285 559.935120
601.371338 2001.611938 329.805176
850.052185 1977.605103 586.961975
830.885010 2005.045654 574.410950
641.797607 1973.586914 518.664551
650.403625 1993.722900 568.669434
843.327515 2196.177979 331.399506
694.502319 1981.538818 394.005341
381.567902 2030.245117 419.170654
621.474243 1994.282837 488.226410
893.823059 2113.274170 421.136597
793.367859 2035.760010 498.030151
783.289185 1996.299438 487.857574
513.819458 2012.084839 487.259125
838.350037 2132.112549 358.520020
540.542053 2025.379395 654.369141
549.836426 2005.929565 337.478516
646.681702 2018.665039 564.318665
620.619751 1995.234619 496.739807
825.358582 1991.073486 558.850708
796.675903 1950.521362 416.643280
631.414001 1966.481079 246.382050
652.775269 1968.727295 566.067078
673.525146 1986.994751 438.000824
889.216003 2166.344238 420.725159
652.010071 1963.139160 550.981506
676.050659 2000.644287 239.291351
702.562744 2007.071777 530.083618
702.291199 2006.202148 515.736694
620.590942 1991.824219 510.822540
692.593567 1976.867676 352.719421
826.463074 2000.780029 356.982574
738.754333 1967.907471 415.139740
850.803955 2195.342285 457.729065
460.935608 2030.314941 351.235382
782.734253 2038.587280 271.686096
892.817566 2150.806641 428.620758
418.782074 2022.055054 407.326508
500.316895 2034.822510 330.800415
554.331177 2033.411987 276.321411
443.273071 2005.601318 556.610779
541.175293 2036.579102 362.761230
487.834991 2015.721558 639.907898
759.330750 1958.390381 402.133057
422.473297 2004.033203 540.372681
587.354187 1979.915771 589.276672
740.822937 2125.602783 196.423431
836.383545 2214.467041 356.064819
645.742371 1993.750610 481.485260
775.065247 2146.660156 241.522644
725.805725 2020.498779 201.486816
741.792114 1957.816284 407.391418
654.628479 1975.482544 503.948883
847.161621 2006.673462 558.981323
649.000061 1999.575317 446.427246
755.182617 2143.111084 215.201813
676.306580 1978.607910 552.466187
656.283386 1979.436523 523.070984
811.203064 2090.394531 302.555878
750.005981 1961.512451 313.622040
874.061584 2094.633545 485.554596
494.004120 1982.460327 582.717224
825.646179 2237.933105 334.877502
605.864868 2007.209351 374.326630
521.416321 2027.958374 348.018616
824.716675 1999.385742 437.784485
577.247620 1982.769653 561.018921
775.217346 1983.838745 255.680862
907.599243 2057.911865 420.721161
790.010742 2197.678223 261.036652
746.471924 1978.068481 466.331787
785.251221 2135.445557 265.386414
701.605347 1979.283081 272.623993
702.260132 2008.247437 190.099670
734.131714 1977.355957 280.931427
659.428284 1986.946411 283.200378
749.612854 1979.600708 472.054718
754.767883 2202.817871 193.846039
384.574890 2031.496826 391.522064
803.139832 2180.146973 287.328003
760.094421 2021.000122 488.904846
666.462402 1980.763916 550.120850
787.716736 2077.529785 274.562531
638.011169 1998.467651 237.635742
785.287720 1974.464722 461.443054
686.028320 1978.324097 515.236877
651.699463 2031.910889 580.746521
432.746399 2014.815430 406.027344
856.289001 2203.246338 373.232697
828.492371 2068.577637 352.180542
759.224426 2122.437988 227.998199
788.344788 2015.110596 483.305603
662.163574 1994.258423 318.126831
690.729736 1963.376953 480.419586
815.289246 2162.780762 330.924164
551.797241 2012.351807 301.497192
792.168091 1995.652588 527.734131
417.742126 2013.353394 469.161346
468.886414 1996.881836 576.517761
705.055542 1994.153442 418.118317
821.073059 2007.091187 533.969360
843.881714 2014.911255 432.965424
825.670471 2095.438721 362.579865
812.995972 2031.709473 528.173584
839.988892 1957.584229 407.593994
819.503967 2040.614990 529.825439
547.908020 2011.232544 399.560547
734.853882 1955.854126 346.483612
590.538330 2007.145630 396.013672
796.039368 2171.056396 276.387970
531.089600 2003.278564 473.901642
820.477661 1983.387085 381.611969
799.672241 1995.781128 336.623871
826.369812 2157.638916 311.945984
833.227356 2026.822510 374.485077
866.097473 2031.917114 413.209839
725.749023 1959.760376 385.682800
808.519531 2045.655273 330.190277
684.452820 1985.026001 264.760590
627.185913 2003.636719 290.317780
446.160461 2040.831299 414.128052
475.441223 2021.510376 513.692078
767.280518 2116.530518 230.576065
839.121521 1986.517212 412.679901
788.542603 2053.294434 290.802948
728.220581 2109.625977 521.994507
438.209473 2020.770142 385.445465
548.605225 1978.341064 594.183472
539.109924 2017.520630 406.779602
618.368652 2015.540161 400.028656
765.604553 2213.189697 196.700348
430.450439 2024.057007 447.109802
675.907776 1988.170532 277.706116
805.074463 2145.509766 306.587341
778.620422 2255.390625 192.659683
631.512024 1991.144775 492.160217
799.530640 2216.838379 250.390106
460.770721 2004.727661 546.448608
785.538635 2016.898071 281.745605
632.941406 2000.020752 410.464935
879.602478 2066.739990 496.379059
731.664185 2028.476685 201.191559
692.638123 1978.325562 546.816528
629.148376 1983.336548 582.052124
605.254089 2017.075317 263.979462
761.026062 1958.243774 405.566681
813.683289 2194.480469 280.447723
829.557739 2000.779663 428.065186
800.654724 1992.592407 520.459595
562.820801 1992.095215 604.306519
503.282349 2001.627319 566.927246
728.688354 1968.081787 388.574921
396.629852 2035.713623 383.519409
773.604858 1949.559326 385.837250
749.758484 2131.097900 205.336884
380.079254 2035.648560 390.616150
786.195251 1980.608765 284.218597
804.397644 2004.680786 533.835999
761.050415 2047.597290 245.288101
578.516907 2002.514160 260.708954
705.930664 1973.728638 380.319611
733.749023 1962.484131 378.489685
862.119995 2011.087524 403.971771
785.617615 2248.283203 223.418015
553.831787 1987.518066 605.849670
560.426208 1990.052246 588.995422
544.137146 2021.393555 664.559326
593.204895 2026.633179 334.924438
602.618774 2010.787231 421.866821
767.468140 1970.172241 466.418884
666.666748 2000.880493 368.003754
786.552307 2001.720581 544.057495
847.890503 2074.652832 486.270691
764.625000 1985.016357 255.751541
804.888916 2030.808838 515.472046
801.153931 2042.525635 566.872192
566.322266 2017.611694 286.705139
883.122681 2155.519531 439.870941
867.851868 2064.010254 421.088959
856.164795 1997.820557 408.866425
588.406067 1997.694336 479.509125
595.900879 2016.388306 405.656097
863.483093 2229.091553 358.103607
510.948303 2010.352173 471.392242
795.313416 2161.172119 257.235260
738.037964 1970.892456 368.132507
869.157837 2201.488525 384.741577
806.912537 2220.673340 284.202850
771.345032 2226.114502 250.710938
738.717285 1990.567139 259.586792
860.076050 2093.302490 435.106506
799.087708 2012.907837 491.477570
591.909485 2001.103271 602.412720
835.414673 1989.462402 583.694214
800.769897 2004.541870 503.910095
687.794189 1965.583740 213.290817
791.822327 2024.289673 552.631958
576.203735 2015.575928 391.500275
811.492493 2094.421631 506.784271
423.794159 2023.483887 379.264069
759.003113 2225.873047 206.919052
849.638977 2080.845947 482.702820
477.821960 2006.610840 566.612610
815.219360 1952.302734 400.295532
788.900574 2077.128174 284.288940
826.756104 1999.591553 529.774475
795.580505 2223.633057 268.273193
832.360291 2150.656738 355.524719
814.891724 2002.825562 496.101685
775.548340 1995.250122 460.528076
874.449890 2088.912354 494.137726
782.415100 2148.811035 263.495575
585.907715 2007.135620 302.575195
401.949219 2015.010376 422.533966
843.000305 2134.832764 359.547211
550.844971 2016.708496 446.189362
501.620850 2020.781738 426.783875
723.935974 1970.854126 486.200165
767.915710 1955.430420 373.956543
761.953125 1962.965698 329.663086
680.192932 2003.824585 448.595703
642.339539 2022.906372 231.824265
404.675537 2066.889404 477.431427
823.416748 2056.459717 351.734375
795.972961 1962.891479 442.811401
879.191467 2046.074463 399.639557
710.103821 1998.867676 543.294128
748.021179 2084.282715 211.974030
417.463562 2021.275269 413.788940
697.170898 1999.616089 385.304108
759.287720 2012.461060 530.685059
795.409424 1989.187134 488.680206
834.315369 2094.217041 480.787476
834.007080 1954.623657 414.843201
564.807251 1997.699463 534.139587
446.500641 2039.597290 420.207947
813.051086 1954.157227 366.573364
531.617920 2011.229126 470.220459
860.768982 2025.463135 411.372162
739.504211 1978.086792 321.480469
797.362976 2098.934082 469.652069
805.129944 1961.095825 333.053589
718.826050 1981.460571 279.090149
704.300842 1995.612915 541.247498
838.529663 2205.562744 360.366058
686.252380 2000.014526 270.132324
804.228638 2030.035034 486.561493
779.983521 2210.517822 234.307236
893.616821 2034.308350 400.605103
887.663757 2103.712891 496.231384
574.582153 2022.438965 615.856750
754.800049 1976.988159 292.173004
817.820496 1996.904785 534.313538
900.740906 2085.025146 490.380768
798.091858 2015.218994 305.604065
578.036804 2001.443481 652.535889
761.607178 1957.601196 380.387726
536.648071 2022.428955 373.364746
709.707336 1978.849121 431.667084
597.782288 2005.072388 291.339264
791.336548 2035.108521 482.098785
780.194092 2147.343750 234.676346
747.509277 1976.990356 252.194046
741.958374 1955.302490 333.791901
719.755249 1980.699707 264.086761
885.460876 2079.148926 398.701294
444.357513 2049.220703 426.771149
805.400024 2059.504395 319.150177
813.522583 2089.838867 460.608124
480.000000 2027.078613 334.645660
861.350769 1979.597046 423.725952
437.071320 2021.731934 387.473145
437.681702 2029.646851 527.571594
757.680481 1958.510132 389.492493
596.678894 1977.922241 560.230713
664.496765 1986.889771 449.148041
879.171997 2126.517822 432.382629
431.803162 2030.274170 350.380402
815.721191 2178.568115 328.774231
774.225037 1957.762207 418.725952
785.381714 2194.504883 245.668533
842.884888 2094.336670 470.356323
705.525452 2029.014160 196.554031
789.531372 2188.380371 261.239044
609.141724 1995.359741 251.974472
814.089355 2013.138184 535.571289
632.700317 2006.372925 244.023636
835.440674 1972.438965 360.203278
792.365662 1999.390503 542.231140
789.401184 2003.316650 506.406403
836.854492 2065.646240 374.840149
786.693359 1954.855347 367.770569
454.107941 2024.986450 416.273743
812.477173 2185.209717 314.735260
841.217651 2239.182861 344.124268
451.576324 2023.236572 410.486328
807.549866 1950.879272 410.894928
765.565125 1993.977051 523.078552
487.025970 2016.902954 314.159454
483.930084 1991.375732 590.469116
655.353943 1977.418701 487.797333
599.330627 1999.392090 467.545471
781.157959 1956.426758 312.637878
574.227417 2011.733887 331.624542
868.388794 2035.205200 412.368835
764.352478 2127.983154 224.851120
505.710846 2015.743774 538.891418
845.339966 2012.366821 581.296143
801.105713 2285.148926 184.535187
734.926697 2011.393555 528.438171
676.086121 1971.301392 518.278687
660.953674 2007.823730 321.881805
761.800537 2053.138916 246.191483
875.719116 2175.915771 392.581177
609.282715 2053.606445 604.399780
828.878052 2022.511230 550.828857
798.170044 1995.163086 317.222656
770.243958 1968.755249 337.779480
568.296509 2010.331421 399.018768
826.488281 2055.840576 526.336792
537.443298 1989.865723 620.584229
879.776855 2130.947998 476.270752
743.467285 1965.386719 290.458069
844.012512 1983.159302 400.711243
839.666260 2047.536987 441.053253
437.803345 2031.343384 344.369629
532.267334 2005.867920 508.080902
404.801910 2036.312378 487.436249
628.719421 2005.314087 452.282898
659.596558 1968.996948 514.180054
687.552429 1992.804443 251.623306
804.384094 1994.818848 532.521729
816.610657 2163.749268 313.955536
765.022217 2007.593872 500.819397
727.906677 1986.782227 487.734833
473.826630 1989.062500 595.171692
808.799805 1957.616333 339.676361
657.609741 1984.046387 467.225281
692.839905 1977.047485 366.218842
665.969360 1990.456787 286.907867
709.979309 2004.284668 184.521301
716.932190 1988.590576 234.490524
668.583801 1988.627563 485.457214
559.250122 1989.187622 534.639404
754.112854 1961.912598 441.350281
858.085205 2085.236816 483.508636
886.591370 2063.407715 425.177979
781.054688 1965.937622 304.300934
865.153809 2131.354492 448.478943
645.807129 1963.805298 554.156372
538.594666 2007.521484 402.024292
454.251495 2039.868774 468.462769
565.280823 2024.274902 330.329529
813.561340 2002.226318 555.859924
812.987061 1964.425781 341.890594
807.501099 2031.865112 316.867920
600.976135 1974.526001 545.999878
749.140076 2172.781250 203.510132
840.987732 2102.279541 379.998352
810.346008 2189.216064 298.279602
612.492615 2008.212524 274.531708
864.113037 1994.747192 390.392487
781.257080 2006.342896 275.658234
783.017639 2252.352051 259.457031
677.466125 1973.248291 536.466187
771.633423 1962.998779 301.261780
685.621277 1990.642822 460.689453
753.448547 1962.879761 382.943909
796.598755 2145.269775 279.600098
601.746643 2020.632813 331.421906
539.904419 1991.891113 623.052490
812.302185 2005.040405 342.428680
631.863770 1987.281372 527.345093
539.852966 2026.653809 298.474182
846.779785 2085.291748 367.628723
642.576233 2073.268799 593.101257
558.834290 1990.154175 585.662109
666.386597 2002.247192 420.770844
759.441711 2214.690186 193.252594
748.493347 1982.825439 311.272156
885.339050 2024.670776 389.801758
809.274719 2040.982544 306.348602
800.063293 1955.036499 352.322784
758.200012 2003.571899 467.298218
741.962341 2135.541748 200.929184
815.653137 1996.690430 593.927124
523.596252 2020.621460 371.787262
738.519836 2057.798584 204.635620
819.628601 2006.721802 448.577515
