ply
format ascii 1.0
element vertex 1427
property float x
property float y
property float z
end_header
2149.577148 56.083527 1.984414
2135.687012 65.143761 133.072327
2201.533691 220.085236 107.084709
2163.879395 -86.835960 47.706532
2137.486572 183.562820 -144.870743
2120.832031 -102.882454 19.482288
2155.979248 371.724457 -144.320953
2209.773682 353.753021 -202.019348
2116.332031 271.616760 -302.700836
2290.801025 166.782654 132.648010
2152.663086 41.500748 113.802879
2304.192871 -5.891011 86.770622
2213.167236 24.272421 130.873016
2126.598633 76.322838 68.841225
2136.438965 267.848724 -64.713387
2114.930420 65.069641 -151.760834
2130.157227 101.568832 30.743460
2151.602295 100.981712 144.345123
2370.454102 18.858852 101.788452
2103.655029 60.896999 -148.316620
2150.195313 89.444717 174.578568
2131.396484 154.372818 -62.662846
2164.390625 46.211601 137.051300
2298.585938 -117.623093 14.344190
2112.270996 290.990601 -127.646225
2246.354248 179.528915 111.278664
2180.114990 358.586182 -177.549088
2145.008057 152.871353 78.529297
2145.008301 344.121674 -90.600143
2167.729004 124.164597 132.553543
2349.156494 119.816376 144.151825
2148.449219 117.723495 134.318573
2253.576660 -116.586258 33.103767
2158.035645 231.568375 -274.273163
2127.577148 178.700241 -58.586887
2118.333984 69.419296 -125.952995
2361.184326 -27.759262 74.153084
2111.466797 267.816742 -195.439926
2126.418945 49.954002 50.577068
2284.556152 152.390411 100.009850
2209.065430 -94.287102 50.351665
2301.087891 197.966721 156.713806
2139.262207 253.976471 16.724054
2134.867188 57.320786 126.886162
2090.417969 70.829262 -210.846664
2121.322266 -36.276573 18.176172
2125.199219 47.118793 1.025355
2091.467773 134.542206 -265.047668
2137.698242 186.966324 -28.514971
2117.656982 -24.052580 20.806267
2126.923584 101.630890 -88.800575
2175.428955 113.791832 167.431671
2219.056641 -78.965233 58.077881
2116.836670 36.466206 14.306191
2372.072266 -83.627052 46.308914
2389.448975 -123.867226 0.739170
2160.463379 -104.551155 44.740650
2123.403320 189.307541 -178.319061
2133.720947 132.246475 -67.979309
2120.035645 -47.965431 -34.087967
2140.301270 106.500023 34.496666
2332.922852 -8.280499 79.977272
2133.266602 -96.823288 60.228142
2107.400146 83.969727 -247.232224
2190.316895 333.783051 -93.232040
2123.564697 15.748837 99.603531
2394.220215 -1.056229 72.087585
2310.810303 47.807480 123.738266
2150.485840 177.855759 68.929527
2241.432373 -125.580307 15.192484
2332.762939 -138.548996 6.600457
2226.464600 10.421976 110.479561
2352.681885 -54.132885 41.933338
2100.024170 311.991272 -168.740952
2136.073975 117.828545 94.200317
2137.752441 291.806824 -86.268867
2365.279053 69.988182 184.580429
2117.391846 64.254906 39.541428
2187.577881 -107.734116 43.819416
2136.583740 161.764694 12.814597
2155.248779 201.859665 -209.375931
2163.874512 18.614168 -29.423508
2106.647461 -16.003479 -122.786011
2153.085693 232.663818 22.454248
2124.875000 2.564352 50.346600
2107.441895 -25.680246 -100.072899
2215.501221 272.002075 175.048004
2141.300781 145.580902 65.161911
2105.071777 87.581985 -178.914459
2146.471191 89.680702 142.370514
2138.398438 41.863735 152.685883
2130.009521 64.247551 84.699417
2127.684326 258.172058 -33.445995
2089.544189 147.406433 -296.991364
2130.902832 132.608582 -49.333332
2144.010254 78.061775 150.530853
2198.867188 221.015915 132.921265
2134.927734 37.998051 77.694443
2106.928223 72.342125 -209.966110
2235.654297 41.024429 119.806046
2358.128662 -47.627525 61.073723
2148.169922 283.011688 -20.113136
2125.111084 163.745041 -93.080688
2226.553955 58.505703 141.851227
2085.126709 95.978233 -277.301849
2117.477783 -112.507385 46.718178
2138.238281 -48.043106 96.073952
2290.112549 54.628540 136.818802
2189.652832 -71.099693 68.569763
2205.146484 163.005920 79.237686
2124.401367 -37.444279 54.832214
2224.862793 -40.729836 67.574974
2142.781738 69.815331 128.895630
2132.997803 278.502502 -78.693268
2143.548584 20.492184 136.254074
2170.669678 44.215828 139.762497
2224.984131 -80.165962 53.928040
2127.481934 43.014435 -4.947400
2346.904297 56.395893 154.910812
2102.366699 98.721146 -190.354202
2189.715820 172.710129 113.304001
2144.421387 248.980362 -38.848831
2119.163086 105.712715 -116.203773
2225.702393 221.734756 136.047363
2175.204834 102.799568 184.671387
2135.543457 120.547562 50.693199
2136.513916 64.892052 -31.416773
2141.652344 143.629745 49.245880
2142.218994 282.343323 -46.144318
2102.049072 65.821175 -185.458862
2135.893066 88.840393 121.061874
2226.687012 16.391981 125.340103
2226.535889 369.072632 -184.936676
2211.018555 80.370354 183.787674
2132.576416 213.089691 -6.207456
2128.481445 4.409709 47.305172
2146.357178 192.905396 37.775745
2140.247314 79.682739 136.659393
2264.020508 73.779465 187.949280
2202.885498 246.788177 146.934738
2178.988281 102.953926 167.234192
2147.642090 29.889294 124.392921
2144.334473 171.950943 43.378994
2310.294678 126.845573 139.239380
2090.604004 232.489609 -209.413239
2194.476074 -72.159966 61.541748
2376.563477 37.277264 111.960289
2174.197266 297.102295 -56.435020
2115.080078 40.956852 -95.371635
2189.399170 289.885498 -60.360413
2157.171387 -42.224926 87.950478
2162.509277 302.993134 -79.552872
2076.762451 30.995680 -186.933975
2337.727783 52.897434 129.667999
2178.373291 38.964584 137.269119
2122.759033 88.552628 -110.500023
2123.977539 -49.487343 38.786427
2317.801025 175.764084 168.914856
2150.478516 208.065536 50.575356
2119.417725 -26.739756 1.715943
2126.903564 314.997467 -138.323059
2143.693115 218.169571 13.875786
2119.087891 105.607437 -141.775803
2185.564209 -17.244719 96.397545
2298.189697 74.815048 178.801117
2114.609375 -2.662655 -115.452080
2119.169189 300.870300 -120.415764
2141.428955 90.658920 113.590523
2106.368164 289.949890 -123.370033
2120.199707 159.220413 -140.375748
2092.561035 272.742218 -226.605972
2129.724854 241.405457 5.748259
2122.813965 39.432919 -106.906021
2278.397705 257.977142 123.093155
2316.020020 27.683165 112.058563
2421.773193 -138.062698 -10.635148
2188.884766 226.130249 48.478249
2136.158936 115.633919 93.503662
2238.494385 81.031136 173.854233
2122.501465 21.750113 59.020065
2291.474609 33.098049 118.085480
2112.313965 16.411179 10.505989
2180.778320 -95.140327 51.587143
2144.044434 26.221930 131.364273
2128.403320 -17.065664 106.245018
2097.123291 286.204590 -204.750748
2202.806396 204.186188 137.603775
2130.139648 102.813309 77.690475
2095.495605 61.254681 -175.014740
2132.747314 26.330175 -50.516617
2187.603516 97.202950 173.310028
2162.784180 354.692535 -130.795670
2067.697266 74.679901 -251.493240
2222.629639 232.605087 137.642029
2137.226318 -58.339218 87.047707
2132.086914 8.712741 45.789585
2264.196045 -137.088913 17.658575
2330.915771 13.657017 113.673782
2204.379883 236.894226 134.932724
2115.974121 -5.901361 55.390831
2221.907959 118.526199 145.342987
2409.018555 29.447979 121.210876
2302.303467 -103.464966 26.194979
2135.286621 70.592278 131.561508
2257.618164 147.357468 99.004745
2424.737793 -145.199692 10.644172
2141.659912 5.485393 129.251007
2134.797607 25.750612 121.270477
2145.751465 314.801819 -103.845222
2120.195068 -44.570168 60.667477
2151.459229 -14.995464 121.500893
2183.204590 206.354401 57.581039
2141.446533 186.993835 -34.519505
2127.575195 228.761047 -1.191747
2219.654541 276.671967 -37.763348
2104.553223 20.164167 -160.979324
2199.290771 196.605087 89.284256
2352.611084 24.390850 106.174759
2108.936768 226.098724 -228.146790
2173.089355 186.773758 48.035145
2194.491699 313.180664 -72.324142
2289.128418 180.960098 165.835342
2240.611084 59.467892 147.712631
2295.405762 83.079300 172.735397
2146.571045 182.601471 60.246689
2099.179199 193.957825 -246.231842
2220.678711 66.939301 163.467178
2312.002686 111.688110 139.516113
2131.353760 178.310318 -28.415691
2129.308350 115.005791 70.442772
2096.020752 146.012100 -208.991699
2132.962402 226.371933 -8.873493
2134.728271 -50.922562 27.544254
2124.722656 228.382080 -41.892212
2116.319824 -4.017445 -97.718933
2327.727295 122.478386 143.751465
2296.197510 -115.256607 20.433681
2196.670166 143.990082 120.254456
2351.060059 104.498993 133.303436
2156.147949 270.419617 8.993192
2110.973145 242.857666 -230.824997
2143.432373 139.357803 106.282951
2119.578613 31.739225 40.109566
2187.942383 362.320923 -134.806564
2175.950928 215.537827 23.688780
2187.899170 365.947113 -117.703377
2119.737061 -32.934044 -12.112871
2144.920898 137.117569 30.647741
2091.025879 44.656124 -213.437485
2151.834473 95.576797 161.703354
2254.394043 -101.364098 35.073524
2150.939453 239.471664 25.580013
2185.764893 97.796242 172.200775
2127.833008 12.473749 -54.451420
2122.176514 -15.781725 44.937584
2126.599609 17.020487 90.099998
2137.653809 322.548218 -108.373611
2307.270020 59.260548 151.646988
2142.751709 199.631470 -292.304443
2083.590332 92.575005 -251.884766
2149.461182 334.102448 -202.908096
2161.967041 60.405571 144.562332
2201.916748 265.410675 149.823547
2127.050537 10.808037 100.755775
2209.487305 190.493927 126.279228
2227.719238 318.535858 -86.279495
2221.261475 129.886215 121.742485
2120.461670 49.766708 27.909025
2324.063721 -6.205676 88.922928
2314.703857 31.718763 116.558800
2199.685303 -97.492775 35.038284
2159.664063 68.060326 139.965515
2161.620117 319.940491 -83.207047
2241.198486 158.480606 86.484421
2217.917969 84.355240 182.554337
2208.396973 -114.588638 26.951035
2110.017090 332.724426 -190.659103
2382.101807 76.021393 150.144012
2133.849365 132.810425 84.425522
2120.494141 68.526306 -69.574371
2108.685059 -18.155342 -109.243721
2220.197266 122.522964 147.870209
2117.789063 167.747314 -110.489868
2167.810547 303.289246 -71.293030
2175.196289 66.097153 143.006851
2139.062012 40.471630 138.792679
2096.415771 89.059891 -208.554535
2135.947998 339.245575 -198.148697
2197.812744 199.114746 54.868675
2218.047363 -77.770432 60.853905
2117.877930 -24.344599 -2.530075
2167.502197 196.783615 63.394009
2166.447266 -51.898781 78.666077
2103.415771 298.597595 -165.913437
2137.893799 353.111023 -159.640167
2111.171387 76.385323 -153.959488
2108.824951 323.591370 -175.845261
2136.273438 40.939266 83.342796
2157.256348 128.982254 143.546082
2119.546143 -29.350218 -40.555038
2134.042236 -118.276855 51.652683
2319.230225 83.881477 168.044052
2146.353271 -72.933037 77.123642
2133.158936 73.061920 68.198517
2135.966309 -110.006950 11.907138
2324.366455 -119.279770 12.953608
2143.400146 68.690987 111.708412
2152.360840 -73.321182 64.758614
2124.824463 69.278931 -56.504215
2287.311768 96.215118 156.638519
2118.644775 138.672012 -147.165909
2124.786133 203.355164 -257.540405
2121.603271 3.460085 -74.087181
2121.503906 -24.835232 -94.769028
2123.162109 -4.922240 -29.752745
2138.706055 35.814503 -21.303253
2282.407471 -129.281113 11.174503
2142.839355 200.571884 6.875554
2302.233154 170.400925 190.548126
2342.189453 141.835968 157.484558
2187.144531 207.056671 34.536911
2118.320068 -35.095089 -0.193905
2126.792236 142.527832 -64.314987
2116.707520 316.257935 -131.360306
2133.256348 -96.554977 64.142471
2130.781006 117.678772 51.488941
2214.897461 271.062531 -22.074224
2164.319580 110.619324 179.362091
2065.044189 4.447663 -112.023979
2189.768066 177.239304 91.288094
2147.371094 31.690720 -52.950134
2303.076904 103.297295 139.926407
2256.249023 241.639511 114.611320
2147.906250 112.074379 125.286453
2160.938721 74.550026 142.240234
2254.305664 13.383901 112.725990
2213.023193 235.281799 131.013626
2112.133301 12.661286 -93.772430
2278.547852 61.728657 174.151688
2116.324707 196.883041 -168.100540
2135.489258 -99.500504 3.546082
2242.969482 79.710617 173.846573
2120.685059 26.204420 16.745869
2138.643799 342.485199 -122.889343
2212.731934 78.714493 181.229141
2129.508057 238.470627 -145.534531
2158.609131 302.855255 -63.017460
2262.135742 -0.661667 100.425232
2125.997314 -39.866493 81.472023
2118.578369 231.129608 -59.176807
2161.083008 269.938904 -7.742103
2218.584717 237.513596 137.754883
2270.868896 -31.993797 89.803902
2351.113281 161.637802 169.092972
2149.332031 322.552277 -97.263695
2182.572998 26.531647 127.005714
2368.544189 63.119396 162.800934
2120.291504 317.206116 -120.472305
2123.644775 196.718170 -84.974670
2148.481201 125.608231 9.226545
2113.065430 112.528732 -167.384552
2220.094482 -11.545546 97.034271
2133.203369 -140.358658 55.888577
2145.434814 314.221527 -116.764465
2116.736328 182.873260 -139.021530
2304.234375 132.125504 170.071243
2088.476807 49.473537 -189.584412
2290.861084 244.206085 -279.736481
2130.745117 9.568298 114.342545
2139.073242 119.462318 -59.581406
2146.561279 -87.738876 50.006409
2285.498047 117.923576 135.269287
2242.661133 -96.108521 37.261478
2112.905518 -27.602459 -90.901230
2136.786377 104.582787 -83.633926
2106.661377 1.359633 -130.470352
2119.218506 3.282581 -64.716385
2297.287354 187.943726 151.639313
2146.662842 311.305817 -92.852066
2167.330078 203.910843 45.436401
2204.081543 168.950348 98.208038
2135.367920 121.615273 -150.935242
2254.597412 -10.052848 95.222359
2131.469482 75.370796 -77.008659
2142.321289 322.578308 -106.211411
2140.586426 213.984970 -30.506826
2222.910645 188.686707 111.656525
2254.996094 -105.545181 30.719322
2139.180908 276.775543 -25.217201
2130.341309 241.366302 -104.054649
2124.910156 -67.629616 -37.905186
2342.967529 -33.832325 57.273857
2161.533936 271.795197 -10.775649
2139.866455 7.347927 78.961189
2122.541504 -4.499385 26.797935
2176.781250 7.482542 117.396248
2136.968262 143.478973 -24.419369
2128.214111 135.417480 -72.404846
2139.982910 22.870350 -27.246462
2145.559082 80.870033 152.347046
2135.916260 -26.612070 87.525558
2117.443604 -47.284485 22.967485
2119.548828 -5.306936 21.813313
2145.441650 -114.051659 58.769787
2169.512939 175.935577 56.928612
2095.936035 177.117508 -222.021164
2091.690674 43.581120 -179.832703
2098.225098 242.190903 -246.912750
2316.752197 151.074646 150.754547
2125.058838 229.434479 -29.211733
2132.708008 163.823654 -25.252556
2129.050537 132.196594 -100.669548
2133.037354 300.177460 -89.175606
2172.339111 278.623932 -20.323252
2122.925781 144.628922 -215.466644
2368.096191 27.548265 107.681007
2229.916992 183.633484 110.372162
2154.212646 95.958000 -6.576277
2228.789795 223.894547 147.864410
2110.685547 247.982452 -102.268944
2161.079590 212.637985 46.448605
2108.063232 122.838615 -188.816742
2222.548584 218.185654 154.568390
2115.351318 237.311829 -166.909683
2125.341064 -59.378510 81.443619
2102.979492 251.335403 -186.058365
2124.280029 230.847015 -52.792423
2325.997070 156.572556 166.658676
2102.103516 88.128975 -182.865631
2126.135254 181.375977 -70.081741
2373.596924 -136.709747 -0.092525
2254.013916 250.179077 155.260300
2207.054199 149.074142 94.032700
2402.558838 7.475869 101.670898
2203.801270 246.817932 137.440781
2160.248047 81.787880 155.677597
2178.107422 212.317291 63.116264
2119.354004 12.359251 -78.049057
2194.935059 222.457413 136.484741
2139.632568 308.740295 -220.610901
2180.462402 233.354111 37.378887
2357.007813 -86.263893 32.277645
2126.347412 174.961945 -100.277016
2119.350830 53.819073 40.095299
2126.968506 125.654015 -74.840775
2119.809326 265.072662 -128.109894
2113.269287 -20.447132 -65.289955
2188.089844 63.899117 151.322708
2197.052246 7.722265 100.978966
2311.059814 197.674713 189.842773
2413.074951 -103.466499 9.829899
2154.708008 209.805420 37.412750
2380.280273 69.481903 174.087845
2262.527100 -14.177675 93.640862
2209.126709 65.511452 155.775955
2174.541748 237.184494 0.495652
2141.632568 326.966980 -85.980934
2084.234863 112.874664 -257.750702
2120.856201 245.803711 -42.697830
2105.605957 170.734344 -248.503143
2148.595947 88.173492 108.992569
2106.706787 149.750046 -205.255890
2242.640381 -30.714270 72.395172
2176.057861 213.915955 33.040867
2119.027588 18.015106 76.481071
2150.587646 282.817902 -59.268513
2207.571045 95.742737 168.858170
2178.349121 -70.179451 63.834213
2200.064941 284.926819 136.732300
2123.539551 22.413431 -30.178558
2134.336670 88.690872 41.382545
2117.023926 29.320227 -79.186707
2146.445313 91.208229 147.246613
2133.995117 349.739624 -131.691330
2131.610107 182.547607 8.733267
2274.225586 -79.480530 52.540913
2113.551758 151.940720 -131.973175
2267.500977 158.585876 -332.743134
2336.130371 85.112808 171.005402
2131.351807 127.351837 -87.995331
2208.941162 297.290039 155.090088
2190.196533 190.299744 108.385262
2118.374756 -33.990723 -7.211438
2132.867676 69.452393 65.944832
2111.018311 15.094166 -175.844589
2238.305420 254.170364 171.015259
2142.157715 214.981216 22.905649
2137.194092 277.708801 -26.769165
2342.162354 55.218189 132.615677
2105.406006 144.367676 -188.582611
2145.960693 316.848969 -106.855812
2138.404541 336.208710 -145.519699
2136.377930 63.743683 130.510895
2133.103516 93.140015 77.990356
2186.406006 378.993378 -124.217896
2117.192139 250.247803 -75.402863
2213.190430 170.233444 129.173203
2138.743164 82.323776 -27.510429
2335.647949 -140.002213 20.832022
2130.040039 -89.271294 58.689026
2124.119141 8.856287 91.922363
2131.403564 132.138062 -63.642952
2210.216064 83.750511 180.246658
2172.797363 344.880219 -102.407654
2131.603027 64.345947 18.722034
2095.091797 158.362030 -245.972946
2212.143066 329.888519 -86.575531
2344.524414 123.603226 145.448593
2183.694336 180.929642 59.053802
2122.626465 -4.310285 57.315796
2100.246582 113.288406 -207.309021
2131.582520 82.966690 -32.853565
2223.647461 342.028992 -103.445900
2110.955078 161.429626 -148.235367
2110.620361 17.882025 -86.691269
2137.336426 74.021317 2.323527
2300.215332 -126.725449 14.682364
2134.443115 268.645081 -54.885628
2223.375488 120.818680 132.710907
2315.415527 -92.746124 38.219959
2133.185059 255.400208 -65.121696
2137.460693 74.239944 135.065063
2195.157715 191.529602 78.338509
2198.606445 241.054230 143.634857
2145.364990 69.264420 -51.590355
2204.956787 213.958588 142.186874
2257.208984 21.238071 127.527191
2251.162598 245.803955 146.085419
2201.509521 -56.557793 59.539722
2128.004150 94.629730 38.366135
2121.114258 14.965638 98.681053
2127.014404 210.177612 -25.333429
2125.166748 94.270241 59.685310
2260.409668 239.655609 105.530151
2209.269531 -68.201210 62.154366
2132.209473 -61.731377 67.557869
2190.096191 -7.895444 108.909149
2120.849121 166.712814 -136.062744
2129.672607 256.841858 2.604357
2118.115967 212.284790 -154.863266
2120.396240 285.555786 -102.649376
2096.134277 219.874176 -248.892731
2164.350342 353.812561 -107.473763
2110.232422 135.790253 -255.722855
2101.591553 -90.991570 28.004944
2180.569580 36.643909 150.794785
2120.106689 98.613052 -131.248047
2123.958252 45.363922 8.099738
2120.599121 -72.580017 33.452312
2164.906006 282.459442 -38.715790
2191.693604 329.797333 -104.392220
2105.869629 44.764458 -153.435455
2123.186035 38.625530 19.094990
2318.976074 -99.524223 43.798126
2174.936035 127.015427 -2.747993
2199.563477 75.729805 162.674774
2195.252686 182.312576 122.850067
2189.387207 193.458618 108.216225
2104.711914 155.501755 -264.219208
2299.688721 2.945394 109.581306
2098.931396 192.626358 -252.501160
2202.854004 249.668549 126.545486
2116.884521 -6.702761 -61.210381
2305.806641 10.668433 114.222435
2130.979004 238.801620 2.500853
2142.280518 223.866425 6.932337
2159.409424 260.585083 -19.060148
2132.763672 230.985916 2.165170
2314.305176 68.146568 168.100327
2175.622559 96.522827 162.517273
2121.131104 -10.295528 84.410202
2120.292969 124.371056 -128.072266
2141.850342 207.881424 -84.629486
2123.379639 287.796509 -98.534286
2103.643066 32.508522 -117.929863
2126.494629 -91.611954 55.925182
2131.126953 -72.227005 -47.953495
2329.307861 -109.780457 12.085496
2092.767822 107.638184 -231.921066
2230.424072 272.202484 -33.598526
2125.736328 47.062489 -94.460289
2371.828369 -129.647003 13.000257
2095.498291 246.487228 -205.332993
2372.520020 39.261879 113.234085
2136.196533 178.325272 35.529388
2132.447754 -43.048294 38.519753
2137.112549 221.204681 24.621416
2372.466309 -70.799126 42.549473
2114.948486 241.072571 -143.526718
2381.599609 -22.629957 74.799820
2113.397217 293.765778 -125.754585
2261.604736 65.037498 161.506714
2259.571289 166.147171 103.594955
2205.778564 -131.770920 30.360666
2082.886963 142.160873 -285.238068
2345.464600 74.258720 161.433502
2138.700195 93.836861 102.916031
2402.370361 -118.158081 16.543434
2105.699219 146.767715 -205.030838
2106.334473 190.896225 -225.531342
2190.031494 132.334000 132.606369
2104.959961 319.744141 -176.640060
2083.755615 100.510025 -268.718079
2150.523926 271.389893 -33.412537
2406.509521 11.980026 88.042915
2125.362061 167.354462 -91.080582
2310.108643 190.399963 183.662231
2350.640869 -58.102692 51.682003
2131.004639 9.266367 -25.004740
2104.692871 30.979601 -145.162384
2119.208008 44.028557 32.698227
2136.615967 203.773514 -15.664905
2115.024170 -28.201210 -50.268532
2271.821533 118.930893 136.708893
2186.616699 182.337769 86.810364
2192.228027 -127.090401 38.085709
2178.016357 2.874241 118.286995
2153.625977 126.532204 132.799240
2172.920654 137.937149 136.301819
2128.611816 94.600792 81.800926
2316.105713 -55.029606 60.868439
2117.133057 -22.575739 -31.266247
2173.219238 104.287888 158.306747
2264.721924 91.327301 171.890808
2126.413330 226.553482 -18.447632
2118.236328 211.487228 -120.865166
2113.883057 246.987061 -144.294510
2236.759033 274.264923 158.006027
2207.661865 224.932495 122.983681
2196.287354 269.081451 129.496094
2136.468750 297.100586 -66.417198
2133.511719 59.101383 -104.633255
2168.172852 14.079278 -38.252068
2119.616455 171.108200 -100.194443
2140.422363 142.630341 13.743126
2117.221436 -52.958038 -8.901759
2298.018066 186.100754 156.238876
2145.592773 -7.405131 115.243683
2127.259033 294.278564 -97.316406
2130.196777 231.816208 -270.082031
2122.049561 18.676146 85.703270
2408.881592 -22.205864 66.266953
2402.344727 -17.243927 85.641663
2241.417236 273.191254 -24.125217
2332.324219 43.836830 132.260132
2136.299805 79.431091 116.928062
2322.545898 151.425171 157.009079
2146.912109 208.628967 5.417439
2359.516602 65.518982 160.056305
2360.598389 137.392639 137.764206
2136.048828 69.882828 -9.999846
2334.553467 -93.170403 35.091263
2099.840088 95.048874 -242.457016
2133.930664 70.772232 87.509033
2105.476563 198.917160 -178.633270
2125.404785 -6.390927 49.955036
2107.960693 314.483429 -157.520432
2236.977539 56.520226 146.782074
2347.995850 165.105881 178.386887
2106.606689 114.103844 -185.368851
2126.559570 51.600513 -38.770664
2120.998779 336.833557 -145.404587
2128.793701 101.152222 80.146584
2265.933838 29.001694 108.362564
2120.702637 233.435684 -41.443951
2169.449219 -87.390190 71.445930
2125.411133 66.903152 -105.257828
2138.673340 80.212234 136.506805
2106.169434 -18.727852 -103.604301
2264.355713 141.400757 104.866371
2131.407227 193.948608 -80.562065
2139.409424 113.271393 59.435108
2087.741211 65.475014 -241.000397
2168.686768 -41.551270 84.316345
2128.750000 32.223602 107.279472
2368.346191 102.746117 132.849457
2124.429443 -23.901503 -11.865108
2120.475830 -2.030548 83.878944
2263.115967 -34.614426 88.709846
2147.096680 274.643860 -29.732742
2342.641846 89.987846 160.122330
2157.318115 100.532112 163.347778
2125.848633 58.997513 66.912376
2085.382813 203.415985 -265.716248
2140.906006 149.152512 70.356766
2383.455078 41.394123 118.094620
2158.125488 351.263672 -83.935165
2119.404297 -26.189066 -66.948051
2265.374756 19.380836 112.321960
2202.072754 231.767960 128.030258
2127.018555 -87.895180 -2.936370
2167.862061 38.356033 -46.347466
2243.686035 161.209503 98.285988
2158.944092 96.212975 170.086823
2265.495361 48.070667 120.656136
2287.943848 -2.753487 107.125122
2225.110352 221.663513 134.726288
2086.527344 156.790543 -271.268860
2135.623535 8.802830 -33.692886
2134.774414 202.161804 11.645780
2091.071533 81.940697 -241.614685
2157.630859 -9.159022 116.682495
2099.825439 37.106956 -204.635437
2106.310547 42.796165 -121.712845
2128.708496 -128.211975 50.176865
2309.490234 -90.940666 39.833126
2092.112061 133.043884 -239.073883
2130.857666 22.377645 111.794014
2109.263184 138.629639 -190.537109
2250.206299 79.493362 178.898529
2178.295898 373.340881 -112.256622
2271.864258 -83.464943 46.218647
2132.006348 318.252502 -141.753647
2138.506836 107.249596 51.510963
2292.996826 165.890747 173.300354
2117.340332 -18.126764 -40.938713
2239.059570 -82.250610 51.204582
2136.641113 -44.973747 39.327805
2107.623047 30.855783 -123.124741
2134.733398 93.317215 63.028286
2161.988525 102.679672 137.209702
2148.953857 163.048981 15.426664
2098.842773 61.377491 -204.432785
2129.962158 210.826981 -70.881790
2107.532227 68.627892 -147.645782
2142.680664 140.411011 94.089211
2304.599121 73.566956 174.683624
2134.968750 -51.723911 24.145424
2103.597656 278.603882 -203.493454
2370.847900 -134.254135 -9.230745
2125.761475 -63.591728 -48.333534
2115.353027 292.423157 -155.293777
2141.016846 99.742638 122.621941
2143.623047 252.800079 -12.707429
2061.419922 89.693596 -273.474701
2123.451172 218.557251 -179.385193
2165.671631 166.298843 96.590378
2196.176758 136.679092 117.450645
2228.093506 269.018768 -5.039876
2283.291748 68.547897 174.668106
2194.446045 -24.837830 90.445877
2124.863281 28.642422 36.268055
2115.199707 118.206581 -195.235062
2325.780762 -16.789309 94.025414
2124.377930 11.150215 78.811691
2107.628906 227.103119 -232.868149
2141.202881 139.855591 58.429840
2102.234863 172.846832 -256.215088
2339.677979 110.966972 139.619705
2128.924805 -87.585136 8.447239
2273.775635 33.517883 123.589615
2282.433350 28.001007 127.096634
2139.763184 34.901241 -34.676544
2124.079346 74.139984 59.063972
2105.573486 -35.066246 -89.639870
2146.697266 165.472610 -43.762421
2186.747559 161.941833 87.147179
2135.333984 291.227325 -78.360870
2254.867920 -13.204571 96.835838
2142.575195 83.114876 146.773438
2121.500732 31.473549 45.819572
2414.812012 -22.045729 81.174278
2229.915771 -67.325089 51.144058
2133.770996 121.891869 -136.844238
2143.304443 266.839447 -34.011024
2137.410156 179.352127 40.328144
2097.755859 -37.594799 -87.958145
2146.547852 354.287689 -129.309631
2275.548096 -18.651596 98.146805
2256.535645 170.565750 97.452423
2242.007080 -36.005699 81.838654
2079.849609 119.425766 -300.616669
2196.250977 205.654922 117.760849
2136.328369 193.344009 14.450238
2269.721924 5.750733 114.375816
2209.982178 302.890961 -73.406944
2419.158203 -33.638115 40.081547
2236.317139 -7.191804 99.440819
2130.625732 170.868790 -86.555023
2125.191162 -0.464323 8.525857
2310.779297 59.250763 166.797775
2108.771240 288.764130 -172.612381
2220.778320 80.098282 173.933395
2128.783203 169.372955 -131.331726
2309.135498 -133.767014 8.113127
2286.001953 135.101608 161.438919
2141.195801 55.403564 137.538254
2127.796631 -1.183078 -60.105892
2126.069580 61.694115 -94.780365
2152.949219 113.327187 144.650146
2310.358398 126.735214 136.052353
2158.047607 349.656708 -166.306274
2309.771729 70.531609 175.545609
2141.921387 169.777420 68.054070
2125.843262 242.918106 -169.639206
2149.729248 138.487213 -271.460480
2125.722168 155.712173 -101.784134
2136.860107 -79.219788 69.464493
2195.087158 189.673111 70.810890
2176.584473 193.252838 60.726112
2308.539795 25.096659 111.225929
2098.952881 309.530121 -185.332001
2132.112549 168.254410 -48.132820
2401.203125 51.693508 136.628281
2119.681396 10.199827 -39.787441
2134.994873 18.636629 100.046127
2170.896729 41.704220 144.224167
2150.646484 166.737305 65.260719
2119.141357 4.680091 6.230588
2234.714355 246.830444 136.509964
2186.912598 -75.039528 59.725414
2286.795654 153.457733 149.794495
2118.013916 69.126854 -77.737778
2109.875977 185.327667 -156.271637
2117.057129 10.716618 9.648103
2201.687988 325.798126 -93.004875
2131.512695 68.600426 -73.110764
2165.968994 118.050850 142.666214
2086.156250 -1.181497 -141.178833
2289.329590 -12.456298 92.713295
2109.805908 269.337006 -131.154831
2141.571289 219.660202 30.526293
2131.894043 69.501091 101.326363
2299.200195 163.480484 171.296310
2122.100586 21.588097 79.475723
2131.960205 234.852310 -52.052902
2130.735840 165.282928 -53.411587
2198.591064 270.108856 121.015175
2241.257080 174.161896 97.386032
2147.086182 138.255936 95.358246
2095.813477 189.260590 -273.376526
2127.008301 244.214355 -16.059738
2132.147705 73.296463 -89.061417
2373.591553 -137.385269 -0.371388
2133.879395 185.365570 -91.765221
2117.123535 -108.746536 31.589111
2119.181641 42.215355 50.057415
2186.104248 234.114853 51.033203
2153.592529 -88.164436 70.894165
2140.960938 196.274612 39.831959
2172.145996 -62.123081 70.806709
2071.889404 87.113098 -271.903168
2143.959717 25.943579 -13.980030
2101.886475 282.879486 -139.648117
2325.074951 141.743378 152.299118
2243.700928 208.422867 131.515701
2259.906006 98.654633 161.991913
2265.657471 81.760078 174.975891
2173.583008 -15.011393 108.302727
2135.306641 88.092209 65.328690
2138.520264 346.255188 -162.322403
2129.526367 -61.815350 66.940170
2144.681396 226.365311 34.862133
2284.239990 -106.551537 27.585199
2124.299316 242.533966 -27.618610
2263.033447 57.060566 142.372116
2240.676514 113.954819 148.484299
2283.465332 174.846176 141.767273
2172.234619 74.182762 154.911896
2122.709717 -33.530891 -61.132729
2223.507813 206.964981 126.235168
2120.631836 -9.761672 1.147098
2134.653564 332.733582 -121.143272
2094.032227 60.650143 -222.302063
2119.952393 -19.289825 14.992153
2409.061523 36.357071 113.287933
2144.406250 119.251114 119.156540
2133.795410 -10.533390 56.794666
2362.152832 -59.982048 47.635296
2223.247559 206.476852 75.830162
2148.636719 113.203445 -44.586346
2169.168457 344.980286 -91.929298
2319.263672 11.332234 113.113037
2119.841064 -60.663269 -0.930961
2112.535889 248.672211 -197.777069
2124.278076 162.431854 -98.174065
2241.381348 236.591446 141.652252
2332.284180 56.091949 136.808716
2128.243896 167.238205 -137.188324
2135.817383 204.736404 -85.744690
2130.255859 52.014980 -60.564533
2246.386230 -15.129450 96.712944
2137.699707 130.181549 80.755653
2347.004150 -52.506435 69.438667
2326.181396 147.211639 160.060684
2099.253418 -18.994751 -112.090973
2132.229492 159.178467 -25.918861
2187.868652 291.624023 -49.472221
2132.190430 125.000130 -54.581146
2197.545166 108.978615 151.972656
2113.490967 266.525909 -58.788902
2198.504150 285.565369 -45.797848
2097.248047 173.111328 -245.705246
2135.347168 136.358505 -57.275646
2121.890625 163.511810 -87.473824
2121.301514 -18.720232 1.551941
2311.825928 42.053196 122.526985
2316.887451 184.410202 178.120377
2167.114502 100.673523 178.126511
2149.865723 -1.494847 95.545212
2307.459473 -11.902684 88.986671
2192.247803 195.076187 107.252853
2218.530029 207.843857 72.706474
2170.463623 -65.554382 72.023392
2128.479248 206.336105 -77.736977
2115.468994 226.228455 -245.478851
2299.694824 171.845001 158.632828
2203.075195 -1.549739 108.401474
2110.821777 68.917107 -140.853363
2115.332520 -6.460344 -123.116539
2158.821777 148.068710 103.930962
2103.917236 38.802006 -168.099411
2142.806885 266.622803 -6.937440
2110.454346 -11.135594 -115.396790
2301.937012 39.761475 131.826324
2185.173828 201.183975 95.296387
2121.894531 -34.553112 45.318497
2291.673584 187.307648 164.507843
2125.180176 95.190582 -82.501190
2229.751953 81.240936 186.532944
2132.839844 218.355026 18.525627
2146.397461 153.272842 -24.532381
2165.933838 101.907425 147.332718
2127.731689 -18.105976 -9.275064
2133.864014 226.231766 -24.579672
2187.585693 146.547394 96.944336
2162.477051 112.319931 158.685471
2109.548584 257.031525 -163.847504
2151.093018 60.906330 140.839905
2377.850586 -36.036095 64.752884
2120.813965 136.357803 -130.401260
2132.076660 123.754059 -27.842407
2133.108887 110.832115 -79.731941
2125.701904 256.251862 -36.516102
2229.337158 78.108475 196.123001
2221.478271 240.700867 137.296249
2110.305664 -5.288257 -95.593231
2339.556641 -49.565037 58.719311
2307.255859 48.061840 124.422928
2257.482422 -96.286346 42.420773
2240.875244 4.553596 103.436989
2192.465332 76.179909 159.112259
2125.630859 238.784317 -184.826889
2363.973389 -75.143303 52.594776
2128.813721 224.710342 -37.773235
2128.019287 65.327011 101.627373
2145.697266 50.837414 121.173988
2117.898438 161.437027 -168.285446
2130.010742 103.267754 -132.226944
2232.484131 41.310417 132.395035
2123.593262 117.634636 -83.877319
2190.486816 56.060863 147.016190
2312.901123 8.218853 102.491730
2129.329834 64.681488 80.627022
2157.216309 353.942657 -151.191330
2094.373535 201.329102 -260.686554
2159.198242 -81.781563 57.674316
2291.573975 27.953646 116.331108
2248.296387 139.758865 119.533707
2129.631104 132.461823 -63.566780
2117.432617 93.167694 -142.113571
2134.697998 -63.183250 13.275173
2122.768066 300.913483 -104.713875
2309.575195 0.611990 89.874519
2179.370117 28.017601 124.644447
2080.064453 150.661209 -282.038940
2406.499268 15.452986 92.147934
2119.488525 -53.638172 -49.094425
2401.640137 -91.087891 37.980930
2142.361084 42.716305 106.333397
2190.170654 179.393066 93.937622
2316.399170 -124.811859 9.230239
2104.585449 268.932007 -239.088135
2211.123535 278.024994 177.003937
2335.279785 55.657169 136.771805
2124.240967 257.093689 -61.395496
2154.989258 324.422577 -100.126122
2408.816162 -150.720444 18.883125
2178.018311 68.164818 161.130661
2093.705322 119.185730 -201.849258
2116.733398 7.312339 44.881672
2261.023193 234.183670 38.163174
2180.129395 -33.455158 94.877388
2141.092285 344.992523 -140.059341
2262.346436 78.350723 185.174637
2094.289307 172.124161 -255.881714
2120.130371 5.475486 -74.820061
2342.027344 66.936630 164.071243
2142.170410 99.992027 36.450821
2108.499512 158.048569 -247.672714
2236.562256 -88.473892 49.212189
2130.097412 267.180603 -94.026955
2187.050049 196.272385 129.667145
2234.334717 69.373749 176.347626
2225.772705 -96.390221 42.186054
2326.373779 131.299942 149.141434
2211.560303 -47.142223 81.047234
2239.465820 -25.449347 89.191719
2120.971924 212.208481 -99.833321
2120.913574 92.692955 -134.080505
2215.373779 27.405909 122.182045
2281.731445 18.022373 121.235382
2116.360840 174.619858 -147.525528
2115.403076 219.614410 -174.734558
2096.360352 194.035019 -284.169983
2123.295654 11.979274 80.354698
2119.960205 197.824799 -263.948608
2106.776123 191.917984 -199.552460
2114.498779 -9.623564 -60.531315
2246.419434 319.466827 -79.165230
2185.785156 239.222046 49.586956
2136.367188 218.066315 22.877857
2225.796387 214.260468 85.106003
2124.536865 121.883247 -92.695602
2142.368164 163.460678 57.569496
2140.667236 153.834686 83.552048
2107.922363 296.868011 -181.756119
2080.427490 74.761551 -247.807983
2126.919434 229.394943 0.206564
2121.495361 207.448227 -111.681450
2317.170166 190.665833 181.646530
2142.424072 -54.109615 72.328522
2108.154785 109.190384 -137.871552
2338.208740 114.888199 140.361710
2132.254639 265.706940 -59.564674
2330.588135 -74.277069 44.996796
2195.604492 165.406921 115.320572
2204.395264 364.155029 -103.939598
2127.774658 104.572990 -144.779236
2221.904297 189.579483 123.986839
2152.867188 37.304310 144.743271
2396.176270 32.399632 106.619644
2148.053223 63.593655 102.834389
2362.811768 -10.768093 73.023872
2315.551025 -50.545654 65.436935
2364.654297 -38.879662 66.528908
2195.548584 206.968811 99.876961
2265.656982 79.017357 172.899155
2286.598877 38.831318 117.820549
2211.932373 329.758545 -92.543335
2220.796631 136.815475 135.355026
2134.035156 115.166130 -50.433475
2190.617188 -121.170410 25.397240
2120.340332 -7.498086 -3.032689
2147.602783 349.891602 -146.248276
2112.624023 87.054428 -145.187531
2409.710938 5.887272 86.504028
2138.982910 -84.106361 32.950436
2359.073486 56.608948 150.758789
2222.303467 193.947540 125.920486
2279.697266 241.900726 154.535065
2213.848145 -60.629734 70.594337
2118.046387 15.803951 2.449769
2162.172119 313.660034 -72.664688
2109.030518 240.817184 -211.878601
2120.007324 102.075439 51.181026
2280.115723 108.310951 156.484497
2170.029053 359.120117 -146.073532
2168.912354 263.110931 -12.248730
2307.634033 -11.792587 89.990257
2235.993652 12.948895 109.302643
2136.421875 63.234123 136.076401
2138.051758 174.004944 -42.026711
2095.823242 54.523972 -223.646164
2142.568115 85.755623 144.319733
2133.418945 32.027855 119.939781
2358.835449 4.055043 95.094215
2127.042480 -71.784187 62.992085
2124.242676 -53.792011 53.807869
2360.192627 167.249527 172.097641
2305.467529 -127.255478 1.704681
2211.759277 -28.924978 85.580139
2129.886719 45.715466 -89.097900
2144.379395 154.642700 -36.213821
2128.291504 187.995087 -94.684822
2166.253906 23.237089 130.045410
2111.190430 256.767090 -88.998283
2129.473633 -14.652303 24.198927
2153.808594 109.766479 158.427521
2251.584961 111.078667 150.966766
2399.642334 62.565262 153.403870
2277.396729 120.053299 165.631195
2109.720947 214.127151 -181.506561
2122.123535 352.581787 -172.316574
2111.720215 255.611160 -229.054916
2126.739746 203.713501 -61.770367
2205.465332 235.448425 136.114349
2122.991455 335.981750 -143.013367
2140.867920 171.199951 35.351437
2165.584961 223.117203 41.782352
2267.359131 144.626587 98.006454
2109.771240 29.272200 -199.002625
2078.677734 76.835251 -232.181808
2122.140137 -111.488937 28.861366
2124.837158 326.138336 -170.194992
2127.216309 232.399551 -70.131729
2196.220215 181.705597 107.336624
2120.143311 262.180054 -63.782806
2133.935303 -32.258816 33.657707
2196.209473 218.298157 123.497223
2300.956299 96.580849 169.838181
2130.774414 -64.802765 -22.509193
2120.370850 -28.266052 -54.762741
2115.259521 78.030968 -142.994446
2131.766846 183.429047 -5.278537
2113.451416 -15.180176 -0.296761
2141.804199 68.304947 -61.922150
2093.636230 -10.754161 -127.976730
2080.293213 111.501556 -303.375946
2098.256592 52.523903 -162.348618
2121.978271 171.514374 -128.922745
2146.264160 116.220329 105.025757
2197.185303 248.099670 7.638364
2122.470947 254.030151 -77.045662
2140.533691 -73.495857 81.922203
2120.926514 -45.509949 64.878815
2118.416504 -25.346972 -29.668833
2119.425049 16.747580 11.692698
2261.168945 -124.211388 17.182575
2214.455566 278.032196 -249.595184
2112.018799 258.285248 -196.603561
2096.732666 240.786926 -204.776367
2244.750244 88.456528 180.823486
2078.292480 -6.496445 -98.528877
2257.775635 -49.717827 73.204353
2136.264893 40.057285 -86.800888
2172.862061 250.942917 16.103262
2138.781250 333.010101 -95.437927
2124.943604 -59.611485 -59.181305
2327.012451 163.108673 169.619308
2259.609619 151.183014 109.581810
2126.504395 232.545273 -49.509430
2225.310059 242.109726 28.734993
2108.639893 95.936134 -236.137619
2111.577881 110.818901 -221.453629
2390.391113 -65.570633 23.564392
2137.856689 169.015503 -23.654730
2126.050781 -80.245140 -13.950482
2313.389893 141.696182 143.017700
2191.569580 172.479004 114.362892
2141.924561 152.662811 41.299740
2194.324463 -128.582840 48.720852
2137.212646 112.497917 -235.793716
2254.145996 -77.349930 52.457539
2108.928467 315.492310 -152.716064
2197.999023 146.599594 110.995758
2200.987061 169.063797 101.302055
2221.532959 250.408783 172.560547
2131.605957 20.403303 72.824310
2289.815186 38.539658 123.994736
2160.682617 198.786102 31.112780
2317.344482 149.712967 159.627487
2116.313721 229.011673 -122.411919
2114.952393 -18.772173 -89.999313
2273.965576 7.503980 92.225426
2163.812988 23.682955 -45.249840
2144.006348 297.413971 -82.302376
2211.739990 -127.745728 34.965351
2231.404541 101.208504 161.689148
2189.407471 335.235321 -98.148178
2139.466309 148.814590 77.407677
2122.969482 -10.090721 -51.003036
2105.531982 57.576694 -213.296524
2173.527588 221.188339 -282.747498
2209.886475 203.079514 85.422150
2153.860107 363.163574 -124.549454
2132.565918 305.198669 -83.749908
2135.178955 120.048882 -33.693855
2272.621094 106.875023 149.872650
2158.674561 261.793518 -20.011951
2142.815430 283.230774 -60.294067
2323.174072 102.467010 156.906540
2321.492432 166.750473 177.063980
2344.437012 -86.597801 35.697483
2133.568115 75.661827 -67.943306
2124.628662 183.783325 -226.484222
2208.099854 249.283279 158.000381
2250.814941 -61.227692 62.733677
2306.995605 70.867493 173.816208
2216.317383 184.305893 107.408333
2141.242676 203.213669 12.353353
2158.632080 204.596039 45.870899
2206.678955 359.962036 -189.832230
2113.621094 -7.709023 -59.564590
2276.911133 -123.751076 26.016529
2166.664795 16.684227 114.626755
2193.260254 252.779037 112.761307
2124.709717 288.225220 -103.941193
2122.718506 69.867378 67.489296
2120.132324 -5.285765 -119.879257
2328.890137 10.105800 100.101807
2170.598633 347.763794 -118.082817
2117.518555 -25.672323 -65.765503
2179.842041 31.082239 126.428673
2138.397949 247.197525 -76.359917
2237.707031 121.773796 157.618820
2130.936035 330.235596 -96.339981
2148.012207 135.168137 -2.166491
2362.725830 53.306683 157.727036
2259.310791 -118.798042 46.805298
2130.859863 211.930222 -32.557381
2080.540527 170.428497 -254.506149
2228.521729 -25.781828 87.392433
2215.958496 124.938477 130.444199
2115.410400 -30.597477 -87.692337
2124.101318 -48.451485 95.847839
2152.727539 249.731033 -10.716102
2119.241455 73.113014 -187.217941
2124.598633 12.146219 105.724350
2359.655273 17.138313 100.520775
2347.107422 141.990616 160.135986
2119.545654 -114.691536 49.370106
2197.462891 329.636139 -87.546127
2353.253906 -58.190521 55.402069
2133.030029 228.012924 -31.146524
2124.359375 345.660553 -134.715469
2344.811523 168.966965 173.667862
2117.695313 266.151398 -195.006485
2127.401367 282.243774 -92.891808
2228.582031 250.313782 -269.803345
2167.943604 359.465057 -124.731941
2140.666992 105.197784 -1.118304
2396.978271 -56.922379 49.689049
2283.988281 -121.061241 15.096592
2102.141846 -73.968414 -20.429993
2101.621582 230.859589 -223.569016
2210.774170 90.971207 178.047363
2199.604492 206.297546 64.864677
2104.515869 72.261612 -183.161804
2185.553223 101.770119 167.819366
2338.592773 11.172197 101.594208
2133.843994 92.645805 98.148003
2196.271240 242.239487 104.582481
2176.535400 79.530312 160.504135
2305.872070 -53.474724 56.512867
2406.102783 -28.588060 67.449829
2308.628906 -52.810757 49.719894
2142.770996 284.693542 -33.273289
2307.940186 91.345512 152.824448
2133.599365 23.027065 -56.065895
2126.157959 281.493073 -90.964310
2119.515381 321.485474 -126.304489
2138.167969 163.938507 57.710308
2149.584717 323.074402 -84.695412
2137.146729 254.048141 -16.132269
2109.014404 274.146545 -103.670876
2130.128662 -9.749501 87.081902
2147.945313 119.831718 126.144653
2132.296143 198.171356 0.020947
2213.697266 195.443756 103.436958
2131.499023 86.582710 65.381058
2126.370850 195.371185 -260.660278
2114.799805 80.646759 58.761223
2090.314941 114.007286 -279.524292
2130.924316 1.132299 114.529892
2101.105225 43.767021 -184.217972
2268.103271 233.215515 107.273796
2119.112305 193.892746 -266.277222
2130.347656 -83.684952 35.692863
2109.636963 268.699005 -145.667282
2326.970703 -58.491253 55.012589
2269.215820 107.891342 148.892258
2380.367432 -36.061878 59.701595
2155.195068 12.975679 -31.674850
2122.121338 8.066286 40.509266
2117.790527 -39.046215 -51.540508
2220.246094 147.333740 119.130943
2113.644287 4.876087 -97.553734
2120.399902 33.058186 40.671295
2128.846436 104.071365 83.772606
2195.210449 137.294617 118.508492
2308.594482 107.699242 170.255814
2144.187744 159.400116 28.954842
2141.806885 165.110565 77.538925
2198.634277 106.480682 167.058640
2154.007080 117.651741 143.053452
2225.023926 238.482544 22.814768
2165.911621 -123.226440 33.094852
2179.623779 275.139282 -247.823334
2137.980957 88.274414 105.863342
2132.220459 137.902740 -199.281372
2100.978271 97.883003 -195.573242
2406.973877 -59.216908 55.764008
2198.156494 351.394165 -107.718834
2203.650391 207.412781 92.114677
2100.688232 46.595161 -201.735809
2392.448486 -136.789093 -3.400969
2151.606934 91.065193 149.315979
2186.891602 -18.965410 97.702751
2128.974609 216.147430 -11.266020
2208.101318 211.216385 145.319305
2282.220215 77.355171 169.959595
2178.680908 38.496567 135.787750
2109.858154 191.038681 -198.671646
2098.855469 69.522644 -253.048599
2112.509277 101.076744 -116.467293
2117.426758 178.674622 -112.955177
2231.021729 78.875092 175.423126
2274.911621 123.312042 142.820724
2119.658936 41.589176 43.280590
2075.226074 7.993356 -120.233032
2308.573486 160.325897 78.977760
2111.954834 110.623512 -230.686234
2045.525757 114.508995 -278.531128
2147.153076 285.887695 -30.852859
2191.622070 290.443542 -27.480753
2229.462402 269.810059 160.077866
2389.079346 -138.941376 -1.263185
2157.910889 132.961578 114.623756
2124.394287 220.431671 -173.766068
2138.166016 34.509388 92.369629
2333.661621 25.972433 112.388184
2244.296387 151.780563 104.170708
2107.468750 187.638168 -167.864014
2184.514160 355.429962 -99.694862
2331.760986 -55.876766 69.320473
2142.259766 231.229645 3.097214
2164.163818 126.830360 126.951897
2175.369141 164.127151 74.771156
2136.959717 160.313751 16.552225
2130.366211 200.302277 -122.591377
2295.488281 201.569275 168.028030
2342.842529 -57.146694 53.624142
2090.332520 162.887466 -279.443146
2128.274170 41.222748 55.769405
2133.484131 276.383789 -98.715118
2125.169434 -16.446602 76.723167
2141.114990 -135.437759 48.970306
2128.551270 49.143066 -122.853806
2120.051025 257.955139 -164.531067
2211.827881 -20.060362 99.909828
2140.584717 157.966248 17.438433
2133.016602 138.664169 -21.642208
2139.983154 37.815792 81.266594
2127.244385 221.889374 -39.118877
2398.121826 5.895433 84.242958
2238.497070 78.027672 182.253082
2279.134277 -139.078903 36.019287
2206.498779 277.500458 152.333420
2110.978760 269.266785 -139.465439
2145.333252 362.181641 -92.986046
2172.574219 25.455376 133.495255
2267.817627 64.542252 181.497147
2112.215332 -8.674916 -110.222099
2302.553467 57.811596 126.321884
2170.307861 357.038605 -108.747093
2124.995850 231.346436 -51.428059
2132.467041 65.572151 95.730186
2130.834717 77.413780 78.983879
2112.826904 130.755249 -157.091125
2137.584961 97.651703 88.914642
2214.955322 235.944611 131.514603
2107.129150 6.894417 -118.185226
2130.738281 179.649567 -82.077477
2109.477051 96.470337 -172.619919
2397.467529 48.506195 108.543076
2117.792236 10.368261 -48.130264
2094.181396 103.435165 -271.007416
2126.412598 263.562531 -157.005768
2126.224609 -3.219633 105.441856
2370.644775 3.026558 92.965195
2126.367432 153.041519 -67.744057
2380.795654 17.860319 108.911911
2224.855957 82.625755 183.091385
2123.224854 -35.010162 54.986588
2111.909912 15.037159 -102.534828
2118.123291 156.110153 -166.514664
2119.798096 -97.224442 -3.280616
2362.345947 45.174862 123.715881
2202.540527 196.898712 65.814362
2200.681396 252.229279 138.976929
2133.620605 221.098297 7.621865
2247.078613 63.764759 163.577637
2142.675537 132.946365 62.856976
2139.484619 199.711441 10.408277
2126.443848 44.940681 71.214584
2136.291016 2.334919 75.259720
2187.221191 19.956793 123.361305
2318.323975 -72.001350 47.994686
2125.053467 287.088989 -137.093857
2079.029297 140.397507 -278.431641
2114.459961 192.693420 -143.045212
2132.872314 -81.650154 48.643456
2171.189209 263.394897 -32.163967
2177.076904 214.027374 41.070042
2216.081787 233.677505 137.550552
2214.802979 4.345384 118.612854
2281.634277 63.385883 180.385483
2171.615234 -42.501511 83.907150
2153.797852 -96.327492 65.217308
2142.400391 163.027985 -28.448803
2164.474365 -5.081774 105.938316
2119.429443 247.213394 -208.160522
2224.128418 124.375809 136.603760
2114.240479 67.572823 -162.553238
2168.279785 347.590057 -122.984955
2130.996582 42.390182 63.771072
2116.260742 226.904343 -124.031303
2130.523926 -44.223637 62.168480
2175.184326 19.842691 -36.728878
2109.958252 202.747620 -200.594269
2305.334473 -0.228307 96.412041
2090.678711 94.107376 -217.831161
2281.995605 17.761747 105.081245
2237.351074 -74.007187 65.725151
2181.517334 152.857330 95.160683
2162.009033 253.228745 31.235241
2301.704102 157.846008 172.213654
2088.323242 140.795837 -264.965210
2355.804932 -56.005905 55.909370
2115.259521 4.181174 -66.498238
2140.183350 171.903992 3.416632
2127.402588 4.411478 102.385025
2113.068604 99.155304 -113.206223
2226.160645 129.704376 126.071793
2132.942383 86.052223 60.384388
2127.812500 -54.578228 31.309393
2328.836182 182.895264 -325.112610
2228.111328 256.523834 146.350906
2128.537842 40.341648 99.647980
2249.461914 30.523582 120.685150
2133.844238 103.150848 72.276085
2186.907715 185.834854 88.977173
2136.618164 -15.270049 93.755081
2154.186768 122.370415 136.453094
2133.594727 -74.349800 -38.413086
2197.721680 -126.849960 18.358194
