ply
format ascii 1.0
element vertex 1389
property float x
property float y
property float z
end_header
937.545166 235.181137 1903.118652
787.360168 309.598755 1944.102051
894.477173 154.977127 1959.811279
877.948059 400.525635 1903.507324
1139.044434 405.047668 1882.105713
1074.666382 556.970581 2019.550293
1098.930298 482.260406 1934.552246
784.600647 184.216324 1950.656128
1033.258911 328.109436 1852.264648
948.858704 174.796494 1946.758911
736.701111 336.135040 1955.913452
1132.897705 454.820343 1916.822876
726.775085 292.617645 1948.530029
1024.612427 518.945801 1874.920288
765.418457 234.698669 1959.145874
971.379578 524.617920 1821.748779
1074.889282 463.329742 1845.724487
1024.335693 560.125366 1933.877930
913.095581 389.629303 1884.532715
1194.590698 314.202240 1944.956055
1080.295410 582.974854 2081.078857
789.928284 374.459991 1911.088867
863.132568 317.112671 1933.537598
1161.904419 447.274139 1927.731934
1031.530151 348.026947 1846.236328
792.726318 155.980774 1981.699463
1156.882202 425.630798 1970.448608
1018.630188 563.528259 1917.874146
1162.968506 436.967224 1965.318359
1150.245728 256.019226 1899.734375
848.691406 496.607025 1864.849365
896.857666 492.482544 1852.395264
863.099426 367.872467 1912.434448
1131.260742 362.405945 1950.988770
953.359192 414.594513 1852.103882
942.776184 556.380066 1832.084717
1084.283936 581.102783 2084.412842
1150.705811 483.805878 2013.150146
764.516052 312.064850 1955.194946
1163.161621 436.774963 1942.431030
999.977966 630.018982 1972.030640
981.980042 581.859680 1898.726685
998.352478 191.842133 1921.771851
903.520752 452.043945 1879.079346
1187.287109 326.293701 1957.805664
1059.501587 322.355347 2059.496826
946.278809 494.572327 1835.273071
820.250183 438.278961 1891.293457
951.317810 236.793594 1903.720459
1163.532959 434.928650 1924.240967
870.882141 378.496735 1909.940552
849.043884 216.752396 1949.272461
1009.716553 230.380707 1914.941528
1009.502747 520.263306 1875.288574
990.059204 276.324280 1881.851807
1079.820313 399.269714 1833.599609
825.673218 398.385529 1909.297363
1176.234985 430.180359 1907.093384
915.965942 569.337769 1843.715576
986.030273 280.419098 1890.172363
909.667664 187.061661 1926.068726
871.653809 508.577972 1870.544067
1018.144287 363.717865 1831.942383
893.331787 112.826271 1951.666504
985.515930 220.186203 1903.908203
995.172119 613.141113 1996.663940
762.850769 272.733643 1962.488159
774.005432 169.800293 2013.722656
900.700806 180.363373 1929.379517
885.929077 456.326538 1884.380127
1203.832153 463.054657 2028.262207
979.336548 440.718475 1836.546509
1031.069458 446.797821 1831.396729
1179.472046 484.166565 2007.309204
895.258240 359.230225 1903.416870
1006.178772 332.300110 1859.009521
1007.474243 245.391953 1892.626831
1058.214233 526.840027 1935.565918
1014.762329 398.429718 1831.497803
1187.815552 253.253006 1901.354736
995.545349 201.827026 1906.247925
1150.507935 408.874756 1915.384644
1014.874878 247.748978 1893.572998
1076.059814 524.310974 1965.948486
892.944031 108.145134 1981.751587
1093.440308 303.475739 1885.429565
1008.450073 586.454956 1954.780518
881.410278 481.119171 1880.636841
944.207153 583.154480 1808.038452
822.829956 197.690125 1959.504395
1031.110962 449.020935 1815.403809
1093.032471 383.529449 1836.949219
748.706238 318.749634 1948.437500
1151.765991 391.908661 1969.665894
1061.329224 311.875000 1908.679565
1036.836060 246.176956 1902.012573
899.254333 310.428711 1912.377319
1174.639648 269.230408 1923.230347
1130.918945 383.417694 1949.523193
899.932373 170.185303 1932.169922
970.017395 397.454865 1843.119141
936.264832 208.336029 1920.170532
1077.200317 579.191284 2069.580078
881.090271 164.139801 1936.513672
1064.576660 353.403473 1837.172241
1051.593506 424.496460 1834.194092
751.329590 250.599487 1966.945068
1182.353760 255.726624 1916.362549
1177.021240 417.642792 1924.002075
989.425903 534.638062 1815.979614
901.266418 364.733459 1907.277954
907.623413 337.085236 1904.193359
908.190430 225.608261 1914.740356
1181.410889 493.270569 2034.895996
1031.178467 552.669800 1919.890015
928.589905 193.086197 1923.651855
978.699158 471.196564 1825.140747
965.116577 582.529358 1877.044189
1000.866577 263.200012 1885.406982
1070.868164 445.534210 1836.092163
964.649414 417.161804 1847.503174
1088.256592 495.823792 1930.742798
1019.338440 421.046814 1834.433228
1137.246948 264.359619 1892.538818
1164.761963 451.379486 1916.354980
816.891418 309.336945 1932.200684
958.442444 181.614349 1949.974854
1128.828247 407.603333 1843.374756
985.711975 516.992615 1820.824951
1047.584717 252.703934 1971.845947
1169.853760 422.550598 1884.477661
1017.602417 350.379333 1853.489624
879.636963 350.097107 1908.622925
1015.009827 270.106262 1888.954346
858.760376 495.151184 1858.901611
1103.777954 471.701874 1893.356934
941.544983 324.699036 1914.180542
893.198059 232.765076 1940.841797
1069.571533 265.614838 1987.517578
1158.555420 412.996490 1904.764893
970.061768 312.377502 1885.366455
1123.319458 377.153137 1877.923950
1207.323608 333.421173 1958.081055
733.837463 299.071503 1958.440186
947.218201 173.366211 1942.350098
916.151855 398.501617 1889.992554
876.541138 193.386993 1956.863037
1222.285034 370.414948 1985.703125
810.671143 286.506348 1945.880127
1002.412048 185.251297 1992.873169
835.023071 337.317322 1924.865601
910.166870 564.048828 1849.321167
1031.556152 560.986633 1952.750244
864.852600 454.726929 1879.348267
902.318787 359.268707 1900.419312
971.933289 360.553223 1859.979492
1035.424927 415.041504 1822.508789
946.388977 145.632767 1953.465942
1110.561768 337.668854 1885.249146
899.501038 512.746216 1849.259033
1139.788452 292.790863 1896.469238
1048.655884 606.215271 2070.810059
1108.671997 375.932343 1917.989746
1039.441528 539.795166 1934.588013
1216.848022 357.538879 1971.025269
830.407654 215.849716 1962.951538
1064.328003 515.383057 1904.745850
1075.864502 393.283051 1835.381714
713.739563 300.226501 1956.389648
875.833862 312.117249 1928.936401
1109.202637 527.619263 2033.285034
998.083252 505.062317 1819.166992
1091.743652 308.525024 1893.383057
1058.704468 542.625061 1973.449707
905.879761 175.585358 1931.791138
1113.711548 316.589569 1889.107300
1013.173767 240.555283 1895.300049
1159.571411 431.281799 1966.457764
1150.321289 423.622772 1900.192383
906.469971 397.768707 1901.081421
1121.155518 278.428253 1950.132690
1149.067383 278.059235 1899.654297
1014.638489 420.597229 1823.873169
1081.895020 355.370544 1831.487061
943.206299 375.182617 1883.994141
1188.010498 336.837006 1947.605103
1119.986450 315.724091 1893.679932
714.206543 281.452850 1975.956055
1001.122864 501.872650 1818.618530
737.308777 300.556488 1956.779175
727.362000 336.816010 1956.678711
1167.105469 418.486115 2043.211792
1181.433594 410.347260 1961.362305
856.905945 455.772003 1877.624512
836.852295 321.913055 1946.504150
1045.954590 528.305908 1930.012939
1029.017578 295.501038 1881.832397
897.615845 430.749634 1891.342529
1049.593506 396.325531 1828.076782
797.128845 142.355988 1966.147705
902.461243 404.280426 1911.625244
733.088867 340.965424 1959.870483
987.179871 552.162170 1866.736816
1029.037476 494.817352 1837.269043
941.963135 580.971497 1810.263550
994.619202 573.268921 1909.298218
725.733643 301.890778 1949.889526
1003.071472 399.258453 1838.643555
939.058411 430.252625 1841.994385
781.978699 410.987122 1923.284790
1097.727295 347.334869 1960.845459
1053.323730 417.385315 1816.596680
895.789978 339.284180 1905.116577
1187.783936 252.145920 1893.226196
854.013672 472.319580 1883.699585
915.135620 142.375946 1945.580078
1042.359497 364.617523 1828.852173
1043.286377 422.469299 1815.104980
717.275330 333.653473 1950.632690
939.082886 559.593994 1850.117676
856.678528 394.701660 1906.605103
1008.461731 482.296722 1817.762695
959.397644 359.437592 1889.981079
1205.978760 474.168854 2026.167480
1008.303894 427.100128 1822.358032
1008.029480 334.826660 1876.213989
894.915894 410.344818 1887.304199
783.899658 356.631256 1932.531006
889.252808 275.719727 1921.034058
691.899658 281.852448 1968.430786
1131.827148 272.794373 1892.451416
807.298584 351.634003 1915.051636
1063.677002 403.240753 1814.670776
830.905762 404.947449 1903.821655
916.363586 571.765686 1838.629761
986.078247 587.564209 1899.260010
872.907043 506.944366 1868.232056
1175.864136 384.714111 1966.901733
937.728271 116.925354 1965.191284
840.440979 392.708801 1915.416504
985.760437 517.963440 1821.424072
904.452698 324.000824 1908.240234
1091.430298 290.178253 1908.307861
900.026001 321.073151 1908.337524
1140.990967 457.004395 1929.978638
1141.061523 375.125824 1949.250977
861.981812 112.068916 1988.961060
906.905396 469.250305 1857.484619
953.077087 456.219757 1836.986938
1113.589600 449.938934 1900.430786
1118.747803 419.440552 1843.536865
943.016663 221.239594 1904.842651
1128.200317 267.261902 1934.981201
884.954163 484.247253 1860.802979
1133.038818 505.228638 2060.884277
1038.856812 243.621841 1906.106934
1094.430298 375.276672 1822.640137
965.198303 595.762085 1912.443970
892.725220 418.567688 1884.833740
1016.801086 269.313934 1907.194824
958.559082 372.518066 1882.537842
1140.427124 437.304504 1873.091187
1090.357056 486.961151 1951.106079
912.536621 318.116821 1901.813843
927.990723 165.274185 1950.097046
1012.827393 313.587433 1866.418579
1125.045044 332.217560 1890.140625
1065.846924 342.131622 1842.341675
1011.145447 403.527374 1824.170532
1007.441345 636.786987 2046.190063
851.315918 498.732971 1857.717407
1110.798950 327.429718 1915.825439
1120.921753 505.583099 2015.549072
1137.467896 384.420349 1900.513550
887.102234 111.413780 1960.371094
1015.074768 607.149963 2036.462524
894.561279 104.668869 1991.290649
987.629761 504.577393 1812.528076
1102.525757 337.125397 1888.903931
1009.411438 570.653503 1935.835571
1163.957397 241.099197 1882.013550
969.981262 607.555176 1967.779419
794.702271 236.835709 1961.560791
1029.751343 508.971344 1819.640747
1097.027710 504.176575 1966.923096
1065.620483 493.341644 1893.405396
941.013184 573.205261 1826.205078
944.373840 201.091385 1911.138672
832.382019 112.123528 2002.773560
857.854065 106.386139 1968.169556
1039.327026 501.572998 1861.456177
917.657288 433.269196 1922.114868
909.397949 549.158081 1850.003418
771.686157 321.256897 1942.858521
872.542664 111.841644 1985.332886
854.763245 348.796753 1928.152954
991.914185 549.456543 1872.724976
1180.207397 334.984070 1962.134644
913.894226 428.657318 1878.213989
1130.267456 384.412262 1937.037476
1085.926025 353.870514 1889.571167
1025.516357 636.232239 2087.941895
940.444519 218.831879 1910.007568
869.622803 268.611511 1925.864868
1127.751099 389.821747 1882.486450
1066.260132 391.318481 1832.912109
801.314819 314.900452 1938.703979
1110.647095 365.286316 1908.740234
1105.791992 447.769623 1885.635498
968.243042 220.670517 1921.547974
786.432556 295.783295 1949.358154
1138.205444 396.661743 1956.179565
857.203552 242.817932 1940.975098
955.829834 190.302719 1908.307739
1114.609863 371.674530 1934.083862
1018.941650 248.943771 1928.584595
1154.230225 416.903229 1919.972900
1206.367554 383.150208 1999.770752
787.962219 345.065704 1933.125977
959.085388 414.893738 1850.165649
952.173157 194.009262 1920.859131
938.525208 261.447113 1901.625366
1179.034912 316.126373 1950.773315
1176.726563 395.133575 1985.385986
907.952026 553.159851 1830.569214
815.100220 406.909637 1900.544189
863.558105 143.758148 1958.293457
940.740601 189.237213 1940.541382
829.789490 399.784607 1912.520752
897.978760 96.975517 1969.580811
821.162903 360.449310 1926.690430
875.998413 220.368011 1939.525757
1085.022339 525.810852 1983.609375
1022.804138 398.202148 1827.255249
1026.928955 530.110229 1861.304688
1005.875244 488.944092 1820.487183
1151.840698 263.757263 1885.791992
971.402405 188.081177 1931.238281
959.626282 553.365784 1833.971558
787.305481 390.426514 1914.806885
1091.421631 537.325989 2042.004639
1108.684570 540.101929 2025.528442
812.942688 267.176575 1944.289673
785.028442 320.390381 1958.433350
984.197021 236.039886 1894.063232
896.662781 253.215912 1926.469849
887.704224 122.411774 1949.908569
776.565247 373.254608 1922.447754
1065.718262 427.351349 1831.629272
824.309753 218.081146 2183.075195
1152.796509 340.348114 1965.221436
1043.235718 401.126923 1821.723755
734.626770 274.060822 1961.884521
1103.354858 327.067413 1900.456421
1007.012695 467.823029 1809.952026
1137.261230 401.740417 1917.328125
921.861755 509.505737 1837.842773
1057.068115 397.855591 1830.395020
1102.592041 285.074951 1907.951782
988.952332 625.892517 1980.275024
974.102966 430.191681 1841.691895
1128.096069 307.492188 1905.802856
877.439087 512.600220 1857.921875
1103.232788 455.189728 1883.969604
1060.069214 523.483398 1948.245728
906.460693 505.916870 1852.957153
1180.184937 280.229401 1891.734131
949.549255 124.707993 1977.584595
1158.392456 454.187378 1911.758057
1132.325806 507.942383 2044.052124
918.946350 468.365295 1850.645752
1023.773560 416.712952 1829.585938
1066.827393 378.950043 1822.746826
1141.064697 422.907959 1842.129761
1056.244507 539.316284 1957.187378
967.432739 400.580505 1842.792358
850.561707 128.845215 1955.473022
1002.721436 357.125092 1862.475464
1094.261353 381.126556 1826.467529
896.892700 132.296677 1945.362793
770.450562 222.911514 1965.232544
1011.159119 581.613770 1937.651978
806.362793 142.519714 1980.943970
1184.911987 425.569733 1975.715698
1089.297974 505.473328 1959.423950
905.527039 449.593231 1878.513550
1189.994385 391.073578 1968.582764
1127.864990 481.458527 1997.571655
998.574768 459.232941 1822.312988
1109.085815 488.044403 1974.228394
757.776306 343.274048 1930.263184
1187.589111 435.805634 1891.271606
1150.535400 453.249451 1916.730225
943.437561 603.488037 1836.006470
1026.082153 273.131500 1878.787231
775.140137 334.089386 1941.168945
1136.545654 429.514954 1863.839478
893.583984 399.530304 1899.861816
919.725159 367.307648 1893.575684
1069.215210 492.943542 1879.687500
1074.644775 326.472992 1868.457275
1083.790649 400.136841 1824.467041
1088.987427 469.730957 1874.423706
921.797607 100.928955 2007.956909
789.829956 233.425323 1962.787842
1019.874695 367.783478 1849.263672
1087.156738 446.428955 1817.557983
913.601685 147.118484 1953.473511
791.429565 172.183014 1975.005493
1112.609131 468.511902 1928.139648
1116.376099 479.274323 1954.385864
1194.080566 394.749878 2016.829102
1135.286255 488.197540 2025.528198
1082.541992 351.140442 1883.521118
986.120605 382.680328 1846.550781
888.789551 197.944489 1934.636108
976.855774 564.783508 1830.446411
1080.555542 484.974792 1906.236206
950.333008 204.357452 1916.893433
927.206604 441.983490 1850.603271
1167.002441 426.601105 1961.381836
1128.911621 419.570984 1857.180786
974.968811 607.348328 1941.031494
735.095886 283.151093 1970.780884
901.283752 541.565247 1853.909790
903.768860 149.698547 1943.594971
693.421631 241.829910 1988.402222
1142.675049 299.168671 1939.887085
1167.079590 387.806854 1971.103760
761.958496 230.368378 2001.443726
1027.474243 239.520279 1946.434204
909.176758 473.100403 1854.605591
868.451294 346.105835 1914.721558
997.634521 315.035095 1873.885986
1188.663574 386.907501 1945.988403
987.083618 252.747711 1890.144287
977.995056 240.496658 1898.870117
1068.653687 488.371857 1894.447632
1048.923706 355.358215 1845.461304
954.761475 194.536804 1923.412109
927.075989 176.978653 1937.627075
1214.629272 317.434845 1928.579346
1059.957642 333.466125 1890.191895
961.336243 471.150696 1833.502319
836.570251 380.087036 1913.074829
1026.527588 260.624207 1915.902222
868.938416 105.988266 1969.774414
940.696777 132.257889 1962.352661
1059.713623 498.602783 1881.412598
1048.134888 476.976166 1810.553955
711.391907 352.402191 1949.051270
978.685608 501.738068 1820.536865
1061.583740 595.626099 2076.437012
870.640930 97.653259 1999.270630
1008.132874 537.498657 1862.186523
1074.316650 352.266754 1837.059448
934.673096 302.687561 1898.026489
923.619690 279.401794 1914.323364
961.303162 496.770447 1827.669434
809.137085 376.156189 1907.719604
1024.729980 554.325989 1933.320190
1000.959595 373.419800 1841.569092
1076.321899 345.726196 1899.196411
987.299988 470.153259 1828.345215
1019.418457 493.200531 1823.708496
969.208374 394.545380 1839.062378
743.469849 281.853180 2001.753784
838.676086 384.920715 1913.693848
758.996765 365.575409 1930.908081
1031.211914 586.860535 2001.872192
909.665100 155.282257 1953.017456
874.916077 216.235184 1935.806519
1076.158813 392.595490 1821.511108
786.483643 349.275269 1927.288574
912.102722 290.058197 1914.394775
993.806946 610.859802 1964.137817
1082.178101 351.604919 1899.229980
1211.018433 375.283386 1981.114014
1169.582642 469.972961 1961.264282
1000.769531 409.878235 1828.248291
1004.964172 607.900024 1993.705688
943.925964 502.852844 1836.635132
795.500732 405.047180 1917.162109
1174.705322 452.817932 1924.361084
952.509888 492.661987 1846.458740
990.564392 377.459229 1880.981689
790.996399 427.180206 1903.334229
1020.374268 458.146271 1808.890137
959.911804 549.382935 1818.897827
832.841187 375.377197 1918.529419
1083.503662 321.798737 1902.329590
1108.763672 497.859619 1978.048096
1129.655029 403.216858 1858.111816
1021.816345 560.992554 1932.891479
1129.182861 495.022675 2027.838257
950.939026 121.430984 1997.681396
998.089172 518.398804 1832.149048
946.981384 573.047180 1854.842896
1096.805298 327.547272 1915.098755
969.646240 499.680237 1819.491455
1026.449585 239.388290 1913.875610
1045.173096 277.172852 1890.435059
1021.855896 241.783447 1893.529175
834.963196 267.049011 1939.783569
1160.530396 260.952698 1953.843506
1013.557434 502.074585 1836.304565
801.248474 336.237000 1929.914795
999.745239 382.447876 1849.130859
1034.787964 551.177246 1939.203857
932.527161 189.178604 1931.861694
955.465942 455.317749 1831.674316
825.582886 475.221558 1885.664551
999.281067 599.664063 1943.224365
1009.592529 232.886948 1917.850708
1183.489624 464.562256 2001.253662
1159.897827 436.553833 1928.780640
893.325500 216.977737 1934.979492
959.201904 342.909607 1878.677612
983.170654 564.860596 1867.952026
908.491455 561.488892 1850.600220
793.162170 175.957718 1969.504150
969.794434 303.912476 1897.008545
996.481995 371.775848 1845.250244
932.744812 310.343353 1900.119263
1041.385620 538.113464 1926.310303
1022.211304 636.966492 2081.978027
978.804993 402.636566 1839.262207
1026.954590 619.942810 2051.605713
720.410950 326.854828 1948.949707
990.817200 429.414886 1844.989990
879.536804 125.704292 1972.025635
1123.976440 256.557495 1889.306274
853.720337 173.262634 1938.047852
1101.523682 555.812988 2069.358154
1152.453369 455.913177 1914.045288
1015.422729 288.310944 1868.832031
1008.712891 250.162064 1898.592896
1143.066284 236.909088 1879.791626
855.299866 393.552460 1909.775879
1103.381958 374.829559 1827.964600
971.450928 608.806824 1886.856812
922.222961 309.239471 1904.239746
994.747864 243.561005 1891.637085
1153.361450 412.322266 1964.664307
871.319275 515.848511 1877.489380
976.478882 527.765198 1823.001343
671.255005 299.289398 1972.418457
956.750549 141.951172 1990.337891
846.239075 257.647247 1934.891479
1050.102295 374.219604 1829.673950
908.352661 338.501434 1911.483276
802.078552 373.861450 1915.194092
918.964355 507.490692 1833.209595
1098.127808 530.460999 2011.039429
820.264893 219.197479 1948.295776
966.988525 215.044159 1912.000122
708.543274 347.305389 1924.502075
1076.277344 339.363800 1912.966919
849.369629 234.536636 1959.648438
1123.987305 483.839386 1978.213623
1048.081909 312.769379 1887.422119
736.250854 287.185822 1974.656738
1104.479736 392.549835 1837.236694
851.402893 293.404877 1932.079346
958.146912 216.384781 1899.949829
1054.043457 326.000549 1871.964600
965.003601 599.342468 1907.717773
1020.961426 431.601013 1823.155273
962.196106 402.312805 1913.961182
1205.220581 477.893646 1961.018799
1163.432983 364.283203 1965.295166
1025.294189 417.468445 1824.720215
916.247192 549.881165 1850.489014
1065.861816 470.625244 1825.986084
984.997681 199.190277 1908.097534
906.743164 139.134583 1972.312256
1049.317871 410.758057 1827.791992
997.883667 459.980682 1818.689697
1036.685425 591.828979 2013.403809
872.542908 230.288925 1931.384521
1057.769653 481.259674 1887.109497
912.779358 428.006866 1856.545288
835.029114 343.561218 1918.862549
1012.633484 509.041626 1838.489014
1028.004150 446.034149 1816.178101
801.731140 391.628052 1913.246460
866.871521 439.018890 1893.911499
836.672119 287.759064 1943.662476
1106.313354 370.008972 1935.414795
705.434875 323.591095 1916.264404
1189.843994 481.160126 2042.649658
933.572571 214.748062 1912.652588
745.341248 377.509430 1947.502319
988.291992 237.021774 1898.474976
739.643555 330.628906 1940.908813
877.236938 288.109924 1931.682495
1183.767700 473.124023 2000.782227
703.571777 300.667542 1952.772339
1097.259644 467.484436 1903.476074
927.956848 292.988342 1902.129272
1178.539551 453.950226 1921.561279
1074.794189 436.698639 1830.871948
955.577148 545.291992 1823.677368
1112.286865 469.630249 1937.023438
1037.013184 438.116882 1811.883179
1161.385254 452.483002 1923.314453
1078.131958 562.882690 2015.789307
902.029968 407.888672 1882.991455
803.726807 318.039948 1945.344238
835.628906 109.977631 1980.613281
850.064392 445.326752 1897.465820
944.808411 482.952698 1837.316895
741.288696 381.074249 1933.660156
1135.193726 262.170868 1890.328247
942.282898 452.948486 1842.479980
1116.579468 334.204315 1893.524414
1035.118286 321.469879 1854.956909
979.567749 524.487976 1822.500732
1090.684326 362.745300 1871.317017
1005.369385 610.116089 2042.090088
1171.703247 463.809998 1954.206177
801.997498 346.695465 1917.669678
1092.773438 459.441132 1889.911621
940.425781 556.645874 1827.367554
985.750427 206.077332 1918.915527
804.719299 320.419586 1938.868774
816.786133 252.153305 1998.366455
1100.957886 314.210052 1889.313599
1058.887817 483.607941 1853.026855
1142.186279 293.136353 1936.650391
1015.246033 191.483963 2016.657837
1123.351318 454.308716 1938.403809
865.717285 214.483337 1939.915649
858.627197 452.187531 1893.768311
1056.947388 553.077209 1983.317261
805.209351 136.031082 1965.836304
1033.821655 340.485260 1852.319824
1037.004395 313.609406 1856.090332
930.760132 569.118408 1850.491943
748.308594 293.812897 1973.629517
949.115967 461.249817 1850.612183
1022.001160 437.778076 1820.114990
1196.498779 451.188141 2041.222534
977.883301 395.382507 1832.049194
1155.076294 411.883392 1976.090820
1168.683105 235.443573 1892.450806
1029.377075 431.250031 1830.758423
977.592651 568.951233 1803.402588
1031.309570 533.082214 1913.235962
843.599182 144.052780 1944.540771
971.773193 353.009460 1883.722046
941.044250 575.389465 1816.106812
998.257751 191.093140 1976.546875
683.217529 286.286407 1971.586670
967.983887 508.053772 1827.607788
1183.410889 250.088989 1891.569092
1011.932312 640.896240 2043.778687
788.917114 231.868851 1972.630859
938.342041 132.077576 2007.698730
906.625610 162.316757 1938.290527
1011.567505 254.371460 1883.083008
869.152344 114.057472 1960.357056
775.765808 339.822845 1939.517700
969.355896 582.667053 1856.751587
1038.116699 491.382050 1814.638062
1170.045410 445.347992 1952.585327
966.476990 567.539246 1817.519897
1071.578735 559.764282 2031.038818
996.207642 562.235962 1888.433228
1070.860718 312.720764 1903.554688
1181.046143 343.789917 1950.816406
1038.621094 516.356934 1876.525757
1010.133301 370.641846 1853.048218
918.919250 394.851440 1889.330566
866.696106 410.826477 1906.380249
907.400818 247.121201 1926.046387
790.397949 392.935638 1919.127441
862.833191 117.718483 1965.617065
1126.521118 394.465332 1906.923950
1011.833191 298.456146 1875.331055
764.169983 210.144333 1971.443726
1057.579834 279.083984 1940.633301
1089.460571 561.253357 2059.793213
960.209534 465.919617 1834.687134
1172.095215 457.464844 1951.499756
994.203430 552.001343 1871.114868
1193.426880 345.684692 1933.800293
1041.518433 370.733490 1834.632690
1184.346313 463.999420 1981.385620
880.683838 503.972443 1841.844482
973.568848 404.256317 1850.565430
1141.989380 413.893768 1889.769653
904.690247 275.814362 1921.097290
1088.014526 481.782410 1915.731567
1091.029419 350.984772 1908.643066
952.506714 497.481079 1831.648438
798.048157 331.048401 1938.756592
821.215149 422.597015 1910.346802
851.929626 480.416809 1883.620483
1132.871582 462.215149 1965.989624
1120.922729 385.506073 1899.816650
1076.259644 432.674164 1808.862793
932.835022 547.009705 1830.187988
1007.040588 346.973541 1856.483154
1179.760254 358.204376 1948.725830
1159.332886 406.620026 1899.042358
835.239624 458.085266 1851.429077
1111.977417 335.681061 1938.619019
998.431580 545.198792 1876.070801
1018.583740 557.013245 1907.018188
783.478577 316.030548 1952.316772
934.180298 404.356140 1912.013916
981.807983 412.431946 1918.595215
1094.023193 502.886505 1955.785522
900.984802 219.400253 1925.325195
726.765930 261.103455 1989.997314
921.669861 179.323975 1914.151245
977.218445 618.757813 2001.708008
1064.379150 444.855377 1821.363525
999.500000 365.358826 1871.486694
976.439819 533.874451 1825.569214
1164.121582 417.714661 1885.137573
857.264160 132.993576 1951.475464
887.334229 129.217285 1956.194458
948.924744 462.303162 1838.820190
1074.252075 337.702515 1844.753296
1190.234497 291.718597 1941.107544
1141.062500 302.669006 1933.710449
960.513062 493.086395 1829.475342
1003.561462 529.998657 1882.061646
806.284729 338.965973 1941.397461
988.895996 440.178589 1828.373047
1088.480591 493.337891 1927.029053
880.102600 489.171906 1869.010010
1057.639893 338.350555 1850.449097
1121.324341 384.572662 1837.000000
1167.425415 425.444550 1971.317505
1049.840332 499.222351 1881.610718
968.486816 211.626816 1894.300171
1000.028198 336.814087 1884.401611
1103.709473 377.594452 1823.994507
943.623718 477.687714 1838.561279
1094.395264 532.372314 2007.709351
938.901245 415.837860 1857.783447
1009.531677 576.156982 1936.475464
888.986755 482.777252 1863.427856
1108.533447 288.546783 1889.862549
1053.441162 326.597992 1879.413452
771.302368 404.821228 1915.137207
1140.841187 402.418274 1944.382080
858.254761 420.581818 1904.792847
797.840637 424.779449 1907.189575
1122.797119 377.825867 1860.948853
1039.182617 265.712769 1903.257935
802.058533 345.032867 1932.535889
990.489441 599.421570 1954.728882
1143.435181 423.552673 1893.216919
1012.483704 598.552368 1988.510010
1052.735718 506.434784 1897.843262
830.101685 411.501770 1909.188843
964.266235 615.060486 1947.057251
1157.845215 259.210419 1878.909790
878.595032 155.438828 2166.732178
1085.727295 454.783661 1885.271362
1085.206665 433.851440 1831.939087
976.073975 519.619385 1816.876953
1108.015381 359.868835 1905.950073
919.091370 316.568390 1904.666260
980.872681 311.255249 1882.684082
858.710510 261.359192 1928.754272
1132.958862 433.629761 1868.007813
982.887573 390.660950 1859.264404
1054.377930 506.465759 1901.878052
886.983459 350.275879 1908.685425
1062.360962 492.129913 1882.649170
1178.283447 256.769409 1917.776367
919.589417 443.290436 1876.838989
1021.005371 252.563583 1892.825806
903.177612 461.611816 1875.134766
974.550476 531.024597 1822.919189
833.027100 398.704102 1896.328613
1097.345703 394.698181 1821.272095
777.096924 354.297852 1916.096436
908.821350 496.146637 1849.016602
955.941833 504.365448 1829.014404
843.033325 341.856934 1912.826660
1104.880371 464.792633 1906.608643
972.391663 597.442322 1924.032593
1038.031860 435.112640 1817.217529
1007.796326 541.650024 1874.711548
914.713989 464.839508 1858.433716
1000.531189 476.903198 1814.403687
1039.465210 465.844391 1813.332642
1155.647217 413.237915 1953.133301
949.360291 95.569687 2005.280151
1117.380981 498.688232 1989.524902
924.093140 524.509399 1841.938232
1033.203003 427.630005 1828.862915
930.449707 578.446777 1851.888428
1162.723633 423.352661 1938.630249
733.185791 230.459213 1980.574707
1082.544434 318.775726 1887.111206
1111.532837 390.549805 1838.962646
1160.311523 362.103241 1967.512695
972.153503 598.178772 1919.808838
935.437866 583.624084 1829.363403
1126.845825 499.758331 2011.534912
1163.602661 396.103912 1973.818481
931.850708 580.615845 1847.736572
993.578552 233.738434 1892.063965
960.482300 168.828522 1982.004395
1067.477417 339.537628 1895.142578
715.993652 334.956604 1914.821167
1171.673096 398.016418 1951.581299
1171.513916 292.570404 1947.339722
916.999329 560.092957 1852.670166
888.334839 92.192200 2026.968628
1177.928955 467.216400 1977.268921
845.913269 152.841949 2116.828857
1017.211670 465.206329 1824.391724
703.276489 295.063629 1966.004150
1131.236572 435.150604 1848.440063
1136.418701 518.107422 2064.629639
758.160156 205.972488 1993.246094
1164.947021 443.078613 1899.495483
955.331421 170.446716 1939.748657
1039.620972 546.906738 1917.594849
1005.979675 565.936096 1911.377441
1008.331665 250.192017 1892.026733
817.720581 148.280563 1957.352661
843.785950 127.499664 1960.015259
1007.753967 381.652161 1846.599854
795.946472 282.014496 1951.704590
868.349976 246.769638 1930.616577
1010.469971 531.095947 1854.193359
1078.049438 443.435211 1833.560547
1053.424194 546.890381 1946.275757
1115.346313 396.455994 1819.536377
925.387451 308.769775 1906.185669
846.390747 419.170868 1897.677246
1010.585754 532.855835 1874.223511
952.080505 561.815369 1827.362305
898.947876 141.425476 1970.249146
974.532593 456.086151 1837.116943
1130.686401 474.214600 1968.581177
820.991760 198.967697 1969.378052
784.644165 266.621521 1970.992310
994.706299 297.831696 1875.953491
983.876465 622.780640 2023.638306
962.261047 530.581299 1818.144775
836.395081 428.735779 1889.386353
1020.837402 576.896484 1961.504150
1005.871033 332.670074 1878.149658
1172.436157 365.263489 1956.010254
973.278809 417.346619 1834.193359
1075.363037 537.659851 1993.236206
1003.895569 452.586243 1821.549316
901.267090 524.893982 1852.597290
1125.534790 420.117889 1847.251953
779.967285 170.712387 2026.332886
979.494324 383.993500 1868.593750
723.634583 356.446777 1946.788208
902.020020 555.920715 1856.273315
729.406799 316.143280 1960.398438
1032.516479 562.148865 1956.303101
1008.679565 564.681641 1918.705444
888.096375 137.449783 1959.364014
926.680481 271.699219 1906.651245
1078.660767 332.345215 1885.255859
1114.852295 332.420685 1932.636719
824.634338 414.549561 1896.575684
889.772339 139.935165 1948.981079
1175.803833 251.219635 1903.212891
1064.923218 346.217163 1847.187012
1068.725342 416.582275 1831.044067
972.535400 517.553711 1816.560059
1183.652466 432.234497 2008.408691
886.150574 172.803085 1942.441650
1067.477295 266.868103 1978.968628
1172.057251 242.954117 1882.838989
795.289612 214.512756 1973.682495
1042.701294 568.376709 1985.117065
873.171692 96.061584 2023.415039
907.604797 156.174728 1938.377441
789.940063 367.193787 1922.470337
1176.890259 384.924835 1938.411377
1109.076904 443.662018 1879.054565
1030.536987 442.816681 1820.969238
746.464905 328.164124 1979.103027
1212.096802 346.798279 1967.680786
963.275879 462.112610 1833.275269
1199.713135 474.388947 2017.690186
1148.051880 360.068878 1952.463989
854.571716 455.677521 1879.797607
980.457458 544.176086 1845.411011
887.204590 284.127747 1925.143921
1054.643433 357.622559 1838.576538
1030.942139 358.163849 1840.646729
953.009094 418.524445 1849.011841
1006.049866 445.810974 1817.672729
890.712280 298.605377 1913.126099
1153.435913 271.575714 1884.266968
1103.143433 398.342102 1821.631714
942.751892 159.712173 1956.889893
1173.526123 451.883942 1969.731323
999.176208 443.811737 1831.529663
1185.229492 420.593903 1964.223511
972.903992 307.940521 1895.995972
1119.535156 383.114044 1830.645508
970.795166 327.316406 1893.353394
838.101135 104.831467 2000.805054
995.365173 604.249756 1970.861694
1016.004333 238.528244 1907.169556
984.078247 385.201447 1855.702759
701.829224 269.133240 1980.696167
1039.690674 491.075714 1836.026123
835.185364 250.354263 1937.896729
1121.085327 303.050049 1873.952759
1161.989380 511.142944 2051.205566
824.357300 212.521469 1956.758545
817.376648 360.797333 1926.873657
999.063477 448.098785 1823.608765
732.989563 348.902435 1942.629517
794.050354 160.944992 2035.863403
831.942444 307.435638 1930.342163
973.979919 337.065704 1873.374146
1063.860840 477.791412 1863.235596
1029.246582 632.997253 2086.908447
906.361450 195.450256 1941.326538
825.227539 229.500381 1944.732788
812.708435 175.055008 1968.957275
961.962097 187.934143 1954.670166
1004.562561 440.242706 1825.870361
1220.746704 353.961548 1965.630737
946.979797 561.961060 1835.566772
1018.380127 441.607971 1816.109741
1072.837646 333.571106 1884.370850
982.770508 516.780334 1811.600098
790.284302 230.957062 1964.482788
857.643188 170.102997 1962.658447
760.217712 211.034073 1968.783813
1031.192383 564.852539 1972.298218
879.390869 340.073364 1912.088623
948.677979 433.083618 1853.997070
993.004028 613.674133 2004.799805
1048.869263 374.854523 1835.579224
902.560059 504.348724 1854.936035
1145.665527 279.087280 1890.430664
738.275269 338.195251 1939.307373
1002.469910 485.310089 1813.838501
955.030640 174.270584 1955.532593
1148.161377 240.402130 1897.647217
1057.227417 440.101685 1809.720947
834.449097 355.367340 1909.406494
902.357483 100.399422 2041.082275
1134.298950 444.512970 1891.642944
1137.632935 273.186493 1882.063965
874.593201 520.692322 1853.870850
870.067383 313.372894 1931.101929
1053.334351 574.807007 2014.499756
819.588867 359.953033 1940.148804
742.602661 298.367798 2012.374878
977.565125 607.225708 1961.394165
882.686340 537.942871 1868.560791
998.730103 286.472809 1875.170654
975.594177 628.594971 1930.277222
1068.904053 479.295227 1901.350220
868.220093 304.186646 1917.034668
878.721191 372.088654 1904.997803
1089.962524 438.821747 1826.251953
1136.752319 510.057159 2047.683105
883.634338 270.965271 1927.421875
1006.611877 453.404907 1819.329712
985.895935 366.069244 1865.068481
1075.338257 416.417053 1831.173340
1071.310547 423.512970 1812.933594
1056.793945 271.885529 1945.696289
904.213806 103.526833 2010.727905
1194.766968 452.460449 2015.978638
1117.361206 339.197418 1930.059448
929.537476 566.045654 1833.697754
937.500061 189.652954 1928.083862
1163.528809 403.971222 1941.578735
1102.141846 521.355896 2010.869873
1101.542969 303.940063 1892.235107
964.636292 297.708862 1888.195679
851.949219 332.175568 1918.477295
1126.323975 380.112915 1888.156372
894.042908 358.769867 1915.409424
1144.685791 397.096008 1863.110352
1026.728271 235.437775 1909.981323
1133.456421 453.127411 1916.195679
859.065002 374.171661 1917.811768
1041.257690 323.353119 1849.231323
939.496094 113.959671 1969.397095
1096.334839 365.640320 1877.723511
988.467285 207.010406 1894.771606
1071.218750 349.329651 1841.965576
1114.098755 452.059967 1885.057251
1096.749268 523.112122 1996.054443
1004.516724 228.166107 1891.595337
1076.619141 337.567657 1867.119995
739.177979 239.236816 2006.345703
745.081665 370.727356 1956.817139
987.203918 373.700439 1839.955322
1120.896973 463.523529 1933.599731
990.940674 571.482178 1905.901978
696.843689 325.946289 1935.430298
885.409729 182.354630 1941.714600
905.467163 187.895691 1919.106934
981.743286 165.144318 2035.438232
894.555176 460.665253 1866.987427
682.320862 272.505554 1984.467285
955.281067 412.976807 1891.087402
963.551758 480.135498 1828.905396
827.765869 157.906219 1952.641602
1016.949097 587.608887 1974.640869
975.822815 208.286774 1907.952393
966.228882 414.387268 1851.230103
808.924500 271.181183 1945.959229
840.416992 312.227905 1926.370117
1065.265381 300.914978 1898.103271
916.389465 570.164246 1844.799438
779.990540 362.566254 1922.782715
1113.031738 466.663666 1909.562866
1129.585815 282.094818 1901.463135
996.143066 285.030457 1885.496582
1120.390259 274.392914 1895.826172
1045.515015 242.270157 1911.706543
828.970947 131.818253 1957.844482
1071.672485 601.412903 2070.364746
1029.816528 611.490295 2081.124023
1068.685791 323.975769 1988.247437
777.163391 363.498474 1938.500732
1138.810791 408.296722 1871.534424
1211.084351 365.599426 1965.786987
1181.921509 404.780701 1994.386475
910.511414 457.358978 1867.376221
1124.303101 291.009003 1889.669922
1025.012451 540.897156 1900.130493
814.643066 260.842712 1959.904785
1123.299927 315.206635 1946.928101
1034.062744 481.972046 1808.750000
937.373230 105.784950 2030.688354
1077.636841 491.110931 1901.756714
854.829590 402.525818 1912.632690
1158.229492 408.633209 1922.329590
951.845825 604.182556 1872.457642
1145.010010 251.902084 1892.285400
847.050964 98.725060 1974.657593
801.831482 346.358948 1938.296265
886.216370 373.276245 1912.273438
859.740479 284.143219 1931.660889
951.879089 379.250610 1880.944336
1201.805176 330.000000 1947.222290
916.815979 295.388062 1927.541870
929.413757 174.759445 1918.350098
1042.308105 617.092834 2081.969238
701.624146 252.937439 2037.894775
763.837158 187.780914 1968.166260
1030.533081 619.806274 2063.216797
687.386230 304.908508 1966.039307
708.719238 327.622223 1902.272583
1146.622070 457.416504 1923.612915
1010.154663 211.316376 1936.739746
1069.383545 400.443634 1814.391357
1040.856934 561.029663 2000.696533
833.959778 363.371857 1923.855957
1104.353516 383.127960 1839.820068
758.754150 254.384476 1964.608398
962.177856 479.980377 1826.772217
1104.749634 502.744751 1976.043091
967.066467 466.830505 1827.283325
887.250122 117.317940 1962.910889
1078.126831 390.387207 1834.012207
790.876343 409.265259 1915.650513
953.294434 295.706207 1897.970581
797.097168 409.267120 1911.110596
968.156494 528.670898 1816.941528
1147.359497 493.127899 2039.566406
875.422119 165.810638 1943.709351
973.887512 448.618591 1830.424805
1081.023438 417.004120 1814.647827
1083.421143 482.040009 1905.697144
884.246704 483.111328 1879.119995
1064.647949 373.338593 1827.615845
781.671631 321.168335 1941.341675
1088.714478 524.576904 1987.857788
1116.599609 390.086700 1875.070435
882.861572 498.560852 1867.817505
945.740295 469.597168 1835.439209
926.806213 556.988586 1799.709961
1035.785278 302.087708 1863.642578
1101.480103 373.660736 1826.745850
1094.621216 427.476074 1833.451050
944.501892 274.574951 1911.167725
997.134521 636.377808 2019.244385
1004.106140 451.713837 1820.841797
986.453796 172.346588 2032.080322
727.616577 283.767090 1965.321289
1159.043213 426.491241 1916.530151
958.658752 498.340790 1828.011230
918.996216 471.801331 1852.182861
980.233154 293.440063 1883.549805
929.499756 492.333679 1843.580322
1150.587646 420.117859 1882.640137
839.224243 461.600555 1863.528809
708.975647 259.199524 1974.074707
795.979492 353.603607 1928.163696
975.391785 504.093475 1818.150879
918.536804 561.342529 1840.731445
1147.013550 411.987671 1916.937500
986.211609 299.837677 1882.911011
1053.457886 496.720184 1867.862305
977.921143 595.651611 1957.655151
817.715149 350.467285 1934.482666
941.041443 219.350067 1908.119507
1099.970947 483.269348 1937.740967
958.114319 519.805237 1837.479736
1200.268311 343.794250 1941.890381
938.184326 232.059982 1921.913452
1017.572144 379.153778 1844.358276
1198.628784 337.508362 1952.845947
934.665222 552.495361 1831.293457
1120.090088 462.509491 1911.656738
771.343567 394.016327 1928.920898
912.964111 486.185242 1849.093262
763.248413 323.304138 1951.937500
672.504517 286.446655 1955.812866
1182.560303 383.806793 1960.430908
992.998169 254.534500 1885.554810
1094.024902 407.124054 1832.397339
1051.290527 421.170288 1817.010864
885.765686 155.511322 1942.009766
873.882935 226.666382 1932.343628
1043.957520 551.496582 1958.337891
1082.677246 540.259155 2010.848511
1059.557251 408.239471 1833.402832
1094.479248 541.344421 2039.797485
872.819824 185.780090 1936.941650
1155.093628 430.512482 1878.562378
1031.145386 622.303345 2041.398560
970.291077 175.416061 1927.672974
801.672913 281.197174 1940.197510
846.417114 417.468262 1893.793457
1114.922485 392.712769 1839.745239
910.235901 471.519836 1839.277710
1106.463135 356.751831 1971.896606
1119.161011 392.649872 1876.893066
934.862061 221.366196 1904.452393
918.818542 285.287109 1909.702759
1114.945679 288.153992 1898.331543
1013.875183 656.976501 2057.471680
1032.898926 517.830200 1878.497192
997.504700 613.000488 1991.710815
848.626831 424.596375 1900.136719
1188.967896 370.772156 1964.280151
900.829834 373.188171 1911.209717
900.365173 193.191696 1918.795410
844.195557 229.253845 1943.429443
1137.455322 472.939545 1976.786743
1005.431824 284.781342 1875.072632
832.591553 216.357590 1958.838257
862.778992 123.943802 1969.989258
1198.213989 383.939056 1982.023926
1006.147156 373.350677 1836.680786
835.459412 365.295654 1917.821899
1092.124023 435.561310 1837.032471
914.952393 310.174103 1915.555298
912.693115 294.652893 1917.302490
1121.505737 521.461548 2051.339111
890.986389 290.075867 1917.588135
731.443848 253.833969 2004.352417
944.438293 168.378754 1959.785278
1165.467163 256.746643 1900.279175
896.722046 447.304016 1868.997803
1001.927734 614.147949 1982.323242
953.973450 416.569092 1842.240112
935.384888 173.566116 1939.136719
672.821289 286.752838 2045.739868
955.114746 134.895615 1969.891724
831.649109 211.040588 1961.767334
822.541016 388.884460 1914.505981
1049.018311 313.874603 1885.378418
993.919800 392.551483 1835.782104
987.676453 422.826996 1842.713745
797.198975 241.292114 1969.842773
850.527649 317.713470 1932.614380
1050.754150 513.987854 1908.656494
830.001465 121.040031 2021.611206
898.830017 276.743378 1922.583740
1018.097778 270.096954 1886.721680
800.847351 157.581161 2038.507813
728.563049 336.041321 1950.565796
1089.272339 280.455109 1889.349976
1024.893799 307.069061 1860.468872
842.480835 195.489532 1957.366211
718.655884 295.863708 1973.786987
788.927246 272.725220 1955.379517
1002.023926 240.001038 1888.708862
1119.130249 461.580902 1908.246216
828.351868 263.227386 1946.047607
1186.264648 448.527832 1975.590942
926.025391 206.437775 1916.360596
1110.332520 522.780701 1998.082764
1092.917114 338.944183 1941.342285
1045.774414 473.705719 1820.033447
980.005615 261.992126 1895.452148
949.602783 116.562309 1962.032104
1041.125610 361.166016 1844.651611
864.416199 157.953476 1940.419189
1176.660767 330.343903 1954.255615
1175.100464 412.358795 1992.631348
719.092163 342.805756 1949.605835
1004.012207 616.124390 2033.995850
1145.171265 267.569519 1888.086548
1102.816284 457.885284 1892.655396
758.003845 397.188385 1924.180420
928.688660 521.688110 1838.861206
1037.762207 413.697083 1836.489868
856.429626 248.032501 1932.178101
999.825623 390.755035 1845.217529
1071.373169 558.081970 2017.144165
1134.176270 495.280731 2044.829834
892.705872 479.705200 1866.647705
756.924011 397.691040 1930.086914
1089.140625 282.699097 1897.804565
1151.141235 422.612823 1902.738281
1041.863403 466.482788 1819.546509
973.143921 177.578674 2004.464722
925.419312 229.649185 1909.828979
1079.046997 294.133270 1907.102661
902.833496 476.133606 1855.695313
1206.701050 345.763336 1963.336304
879.175354 123.492332 1978.876343
1175.728149 413.030487 1975.834961
1072.569824 483.360718 1876.316772
961.961060 246.526810 1898.810181
1122.761963 259.307556 1880.881104
802.214417 417.106293 1906.494507
1040.381348 489.925781 1848.896851
1092.732788 353.941254 1938.414917
960.464355 526.228882 1820.313232
1072.334229 485.623566 1889.288574
1083.231445 412.188538 1831.048584
1050.595703 549.895996 1946.673218
1180.859009 231.607986 1890.453857
1079.569092 337.787903 1906.381226
959.849365 425.841827 1827.445313
995.616760 643.494385 1977.835693
1024.329834 480.021057 1835.865479
1089.137085 406.753052 1811.878540
837.630005 345.942871 1933.184814
924.988037 111.550568 1978.358765
853.076965 125.707787 1962.755493
1053.316162 340.664764 1840.444702
908.098816 185.681503 1920.163330
997.940674 199.345810 1913.347534
765.309937 367.312500 1927.867798
1101.235718 550.955139 2069.394531
1097.473511 496.756775 1928.837524
857.453064 456.405914 1876.780762
1105.572144 519.565552 1984.504761
935.345825 396.125031 1882.787842
1048.772827 322.388550 1846.392090
1046.458618 434.735840 1833.501343
977.332947 372.576965 1877.021118
879.074463 154.273544 1956.485107
1025.657959 300.131439 1878.014771
976.246643 399.213593 1840.744019
1039.915771 313.236359 1872.785889
794.542664 231.718613 1972.528198
1102.093384 361.491669 1940.859131
1151.233765 485.769836 2023.396118
1057.314453 392.509186 1827.869263
977.072937 290.515076 1885.223755
996.330017 205.581039 1923.904419
731.864990 293.690918 1963.034668
1124.768677 375.002319 1899.168091
889.659180 128.092377 2139.728760
937.853577 528.264221 1830.229248
1053.876221 437.539368 1812.373047
880.602661 515.688904 1859.404297
981.497681 489.416656 1837.553223
1013.591492 246.834412 1885.201050
1120.980225 511.575104 1995.462646
810.545898 457.656891 1886.277832
1085.787476 315.396790 1912.570313
1010.145203 485.673126 1816.513306
748.856384 326.205383 1981.813110
985.312805 247.198013 1888.338745
1112.738770 461.121704 1899.067993
962.418762 394.531799 1877.924316
723.101074 212.131317 1997.502075
979.028320 519.683716 1826.174561
794.789673 440.612518 1890.707397
1036.544800 361.425415 1835.645386
1106.266968 332.120789 1882.166504
778.362122 369.923340 1920.078247
930.832336 130.107559 1962.887085
868.209534 98.766289 1992.563599
996.710571 639.646423 2004.854492
797.336914 418.810760 1865.071655
1126.601318 407.268768 1849.801147
951.819275 537.114075 1825.761108
844.248474 125.808624 1953.980225
1021.639282 555.439392 1935.847656
833.542480 355.909088 1920.653809
792.098633 368.952057 1927.113647
792.552368 180.546921 1967.170654
1009.193604 416.389771 1840.762329
1039.347290 310.854187 1879.869873
813.121338 423.870331 1907.161133
836.232788 158.074615 1954.193970
984.032104 432.770813 1833.195923
1180.313232 492.259735 2031.176880
1019.185120 454.143707 1823.070068
1078.392212 354.652832 1845.571289
1190.399658 389.342285 1974.280396
1085.847656 317.354828 1895.149292
967.137390 340.254547 1881.468628
882.803223 503.374512 1852.179810
1060.133667 354.074829 1846.949829
1185.999756 342.567841 1948.301514
1113.749634 509.241455 2008.291870
1192.381104 395.880829 1998.820801
1039.650146 588.364319 2023.582764
1137.556030 405.489471 1879.861084
958.042664 591.606384 1889.081177
885.321594 512.354553 1861.748047
1060.853516 607.727844 2070.319092
1001.181641 407.255066 1825.552002
1139.619385 284.449615 1888.966919
1018.319275 260.947845 1918.934570
1033.714355 323.528625 1861.862061
1062.942871 554.575317 2002.233643
1060.726685 310.764496 1885.825684
851.045593 375.589783 1906.805420
741.849426 362.238098 1889.672729
1160.329102 444.902893 1923.303711
793.743835 251.505615 1954.290894
1028.616577 240.809906 1905.185303
939.113159 504.891937 1830.132446
1052.540283 436.346466 1814.620239
971.553284 427.697052 1934.446899
1017.527710 575.539368 1936.524292
917.699890 230.288925 1923.346436
1158.411133 495.988861 2044.542236
1020.679199 229.215851 1900.912720
1054.060425 497.717896 1876.951050
858.229919 480.268463 1859.027222
1114.590332 477.404327 1949.180298
1028.396606 372.621033 1836.307861
1133.448608 399.773590 1887.000977
1069.060669 332.706177 1859.613647
1058.065552 303.458221 1915.801270
901.283569 469.047180 1861.256226
740.170349 289.527283 1991.732788
1052.985718 481.075165 1848.250854
1066.226563 418.519623 1809.979492
849.088684 212.093842 1959.188110
687.216003 296.294403 1965.116943
725.679871 326.148438 1946.887939
1157.809448 424.796204 1933.273071
925.216064 174.879303 1921.802002
1120.476685 507.471527 2010.687134
1124.058105 457.676971 1931.784058
914.163330 158.378143 1950.362061
847.996887 101.379562 1982.857178
796.233826 439.231354 1888.745361
964.509644 274.408295 1903.882813
955.200378 193.896469 1918.437988
736.151794 378.686829 1918.954956
905.284851 106.860176 1958.957397
838.920654 490.708496 1869.783691
827.428040 242.926727 1941.507324
928.454529 570.067932 1841.376953
1013.079163 369.118713 1839.086670
865.779175 226.386597 1941.464600
1159.477417 436.087402 1901.733398
1060.714844 370.664886 1834.315063
922.101868 168.651184 1942.495239
1101.648315 284.608917 1896.585571
946.953735 576.622925 1815.387451
959.211121 615.221252 1878.375977
936.109680 579.055359 1840.492188
813.900635 435.054718 1913.310425
1161.899780 248.501923 1890.283447
1061.397827 298.784332 1893.664551
