ply
format ascii 1.0
element vertex 1338
property float x
property float y
property float z
end_header
1892.124512 66.540176 -1016.079224
1682.032104 15.744942 -1322.631714
1914.633545 207.403488 -1164.017334
1878.377686 71.874382 -1064.946777
1894.123657 35.313026 -1010.190796
1890.423828 132.242126 -1158.553345
1861.629272 -70.048592 -1017.888916
1762.028809 107.220940 -1349.109131
1843.503662 48.986805 -1095.688232
2044.835571 145.846146 -1149.483643
1862.988281 42.234436 -1060.397949
1906.252441 82.875511 -1026.634277
1770.593140 56.484837 -1194.719727
1726.444580 -162.131973 -1200.741211
1881.431519 10.348917 -1031.567017
1976.707153 68.299988 -1162.767090
1771.055664 -192.652634 -1157.172974
1651.721069 -103.076866 -1311.393188
1820.885620 -106.142654 -1118.903931
1718.926270 98.128502 -1344.513550
1660.229370 -196.362717 -1275.903931
1748.068237 71.485405 -1231.443237
2066.063721 -62.870171 -1111.470703
1837.603027 49.486118 -1109.278076
1652.597534 -134.881424 -1337.125000
1964.595703 94.248116 -1085.581299
1734.284424 98.219223 -1315.769043
2050.994629 -195.810440 -1072.555542
2007.759888 7.104941 -1075.673828
1815.424072 90.315956 -1221.482788
1658.614014 17.507275 -1331.455322
1929.547485 -158.367523 -992.535889
2085.640381 -7.383107 -1123.281250
1738.758545 -76.794189 -1212.597534
1688.942627 -14.228183 -1323.833984
1815.502563 -36.485249 -1077.281860
1720.189453 50.650661 -1294.302246
1876.177002 153.394836 -1169.430908
1791.482666 -161.356888 -1111.949219
1687.799072 3.181772 -1325.943237
1837.007202 -174.047699 -1066.530273
1886.733521 161.923065 -1147.755371
2002.114258 79.629883 -1078.664551
1722.195068 53.817017 -1267.119751
1927.961182 60.479164 -1035.102417
2051.329834 -172.394974 -1081.981934
1845.289551 85.482338 -1125.679688
1730.346436 110.140167 -1335.430298
1753.983276 58.884209 -1250.585571
1903.991943 211.294510 -1164.334717
2123.438477 -178.717255 -1125.803345
1923.127075 133.843109 -1148.925659
2093.411621 -166.359985 -1112.822266
1944.197388 -15.152637 -1023.124634
1745.703125 91.796768 -1295.195068
1967.808350 86.273926 -1111.401978
1839.370361 -69.045563 -1048.185913
1923.005859 56.008205 -1035.390137
1700.950806 -101.399925 -1397.656372
2134.618164 -186.376328 -1142.653076
1692.108032 74.049538 -1370.298340
1953.892212 -70.940453 -1028.461304
1913.720093 89.905624 -1031.081909
1742.599487 -70.071915 -1229.115479
1881.723022 21.749798 -1013.321533
1839.589233 -136.122696 -1044.099243
2088.503906 42.834538 -1104.864624
1762.058472 -131.611786 -1180.038940
1727.464844 76.988838 -1302.629272
1667.480347 -153.853561 -1287.674805
1721.082275 -200.061096 -1211.515747
1882.876587 77.097839 -1092.963257
1884.430542 -37.772461 -997.599243
1896.545532 -10.050826 -990.635620
1799.082397 60.576359 -1173.138672
2135.733887 -160.073456 -1138.398315
1840.311523 -14.317295 -1071.958496
1829.409546 -59.771454 -1064.595459
1761.775513 51.116951 -1216.097290
1713.621094 97.296951 -1325.206909
1828.930420 -112.989799 -1105.382080
1721.086548 44.576221 -1262.618896
1807.471924 107.208603 -1183.001587
1802.915405 -147.135132 -1098.224365
1841.084106 75.469833 -1103.547119
1995.693604 -185.867325 -1021.966492
2119.030518 -145.645630 -1152.448853
1695.255127 71.889648 -1364.045654
1796.780640 -125.967545 -1136.528687
1881.511597 77.418312 -1044.013916
2113.543213 -143.414032 -1136.901978
2081.472656 69.645363 -1075.907471
1867.841431 -55.218388 -1001.120239
2002.299561 -137.567978 -1042.260132
2098.893311 -141.861206 -1125.542114
1781.030396 41.315739 -1182.256958
1853.988892 -161.953979 -1031.488647
1891.923828 27.087234 -1009.767822
1894.272095 230.702087 -1167.112427
1899.558105 -20.084965 -989.870667
1932.000854 -2.878674 -1021.318481
1784.415527 59.546669 -1182.514526
1702.335693 102.324570 -1340.471436
1858.069824 -165.961960 -1005.321228
1713.085693 23.778051 -1283.904785
1826.748047 106.407173 -1247.607544
1700.185181 -54.884377 -1270.308594
1820.416870 42.919102 -1127.778687
1880.412231 10.404675 -1017.782166
1745.002686 95.969139 -1337.013550
1904.571167 -161.851013 -957.578186
1687.800659 61.455685 -1374.341553
1858.232056 -133.733582 -1044.192627
1846.944824 -132.308533 -1036.085449
1988.104980 12.018481 -1064.498047
1737.453613 5.568982 -1239.708618
1761.341553 -50.266853 -1195.079834
1729.351685 53.384315 -1257.426025
1769.949097 84.667755 -1213.308105
1741.911133 64.799980 -1245.169434
1902.943481 -136.381180 -970.239136
1865.652710 -144.140396 -1018.546143
1732.565674 -126.791931 -1233.702026
1897.247803 132.220535 -1148.615234
1693.308105 57.300629 -1318.755737
1897.070313 79.943100 -1018.836609
1878.844360 103.158409 -1170.513794
1752.899780 -78.041138 -1205.768799
2013.421387 -187.842422 -1036.534668
2024.492676 -124.819717 -1070.380981
1769.686890 -161.047791 -1136.594238
1893.880127 -29.391628 -991.611938
2114.057373 -133.113235 -1132.811035
1684.440186 -82.355232 -1282.035400
1823.656372 -175.278885 -1049.777466
1834.999023 -59.680630 -1059.910889
2025.884888 123.089012 -1146.889282
1681.636353 43.646648 -1396.675415
1852.126343 -6.331274 -1049.508545
2000.574463 -186.914719 -1028.613403
1917.175537 -123.240837 -983.944214
1903.177612 -121.956238 -949.493164
1655.753540 -205.481232 -1271.280396
2000.896484 -186.369659 -1033.553467
1780.943481 -103.253838 -1166.074463
1770.805298 72.142853 -1218.021973
2069.816162 -107.891350 -1108.286377
1779.531494 -177.454651 -1092.033691
1665.617310 -15.071997 -1338.198364
1931.065430 85.252655 -1115.039551
1946.450684 44.025455 -1041.807495
1715.508301 51.831253 -1427.096924
1834.228638 -72.066620 -1095.117676
1773.625610 -17.405497 -1185.963013
1752.630615 30.592587 -1222.509888
2026.497192 -76.055344 -1077.203003
1716.668701 -63.429829 -1414.248535
1846.087402 96.155479 -1174.388550
1950.759155 -154.616440 -1017.280762
1923.061890 -119.871284 -992.370789
1810.978516 -114.840515 -1140.109741
1783.775757 -134.816681 -1125.695923
1838.873901 66.698631 -1115.365723
1664.275635 25.932901 -1337.846558
1900.441650 66.679512 -1030.455322
1832.605469 1.414620 -1110.820801
1757.907349 -183.525482 -1128.344360
1872.277832 36.202667 -1028.137817
1688.083740 28.987450 -1404.811768
1972.415039 130.340378 -1164.751587
1791.038574 86.905945 -1190.529663
1758.533936 -66.627480 -1208.721802
1733.044800 89.116058 -1292.199341
1840.219604 -126.058197 -1036.612305
1842.689575 92.818558 -1168.526489
1707.974121 -52.464050 -1299.306274
1837.201294 -19.944851 -1069.539429
1924.749146 96.489136 -1026.546753
1948.942261 92.979881 -1086.274780
1867.210571 -6.629021 -1038.261841
1733.970947 -136.058426 -1201.499146
1984.939575 -72.070305 -1052.504639
1784.795288 -80.403229 -1149.268188
1946.872437 84.578247 -1083.781128
1991.719727 30.214464 -1059.776001
2019.748901 107.328308 -1117.441895
1739.550903 120.670700 -1344.898438
1919.982422 170.870895 -1154.754883
1939.172241 74.919029 -1035.635742
1694.786255 30.296139 -1306.789429
1826.710449 81.013451 -1159.850464
1840.884033 83.096565 -1154.533447
2109.524658 33.865669 -1137.487427
2036.727051 -50.392036 -1088.159668
2015.944458 75.140884 -1071.466797
2007.686523 39.524933 -1074.869507
1882.059082 92.946541 -1063.031738
1701.696045 -137.935364 -1247.856812
1897.693970 -154.166595 -995.264954
1904.261475 -107.675850 -969.212891
1893.695435 190.102097 -1156.437012
1722.457886 -129.387390 -1251.603271
2041.353516 98.781914 -1141.540039
1652.372925 -29.517962 -1342.639404
1899.461548 89.325859 -1104.719116
1916.723145 24.041071 -1005.873474
1855.803833 -8.643744 -1040.111206
2012.211914 -56.657906 -1072.793823
1890.354492 180.964493 -1159.635498
1635.054321 -34.285114 -1411.130127
1867.501709 -43.566792 -1010.711060
1926.087891 90.574699 -1062.803467
2067.158203 -78.659256 -1106.579468
2105.850342 46.461918 -1134.458862
1707.670410 -10.590061 -1414.530151
1747.947266 87.045212 -1257.795288
1986.914185 79.099243 -1068.999512
1782.511719 -139.406784 -1133.598633
1859.124146 -145.418457 -976.896118
1873.764160 89.249229 -1115.068848
1792.064575 47.937778 -1171.219604
1724.137207 -73.230637 -1264.877075
1872.621582 -54.573158 -1011.245056
2118.124756 -169.877182 -1134.237305
1997.589233 147.735855 -1162.787598
1858.634277 -92.532982 -1013.825623
1896.648926 60.112076 -1009.130249
1704.081665 -195.934402 -1209.628906
1885.253784 2.222826 -1005.203979
2102.239746 62.262390 -1132.022705
1812.202515 -99.421661 -1133.506348
2076.355713 58.300850 -1100.306152
2012.803711 -186.662277 -1046.196289
1851.555786 -56.744286 -1016.545410
1906.109985 -159.905930 -953.266846
1748.394287 -153.217987 -1187.362183
2068.512939 -115.361252 -1105.105469
2042.566040 -70.454140 -1091.229980
2018.080444 166.026901 -1142.729980
2020.646362 -11.276745 -1072.187378
2093.633789 -143.926285 -1115.950562
1875.360840 9.610743 -1017.917480
1702.666016 -159.923416 -1233.587891
1924.242554 46.007374 -1022.917542
1835.465088 -104.971626 -1089.794556
1893.061157 -161.023056 -987.316589
1821.471069 38.584885 -1135.147217
2036.901001 59.690781 -1077.031250
1759.030151 88.793144 -1281.041748
2070.892334 -143.650375 -1117.426514
1864.817017 -108.571396 -1004.628540
2041.227661 -130.280090 -1078.568970
1803.651611 -86.380951 -1138.870850
1851.559448 90.118294 -1181.689209
1772.432007 76.416519 -1207.144653
2117.998047 -20.086569 -1154.778442
1795.259277 -89.869934 -1159.896973
1833.564209 -66.527161 -1073.217041
1763.927002 -7.256662 -1211.603394
1889.829224 -43.873783 -1129.057617
1652.690918 -164.751678 -1351.617065
2126.898193 -155.137802 -1127.588135
1922.769897 85.654427 -1030.015137
1670.564453 -166.327438 -1264.345337
2044.617432 81.978989 -1102.439453
1766.759277 -12.338552 -1201.332397
1769.569824 53.854679 -1221.769409
1831.136963 -14.978508 -1077.161255
1863.288208 15.801717 -1039.004395
1993.431030 79.240723 -1147.770752
1810.106079 -82.019379 -1111.624023
1661.487183 -104.221519 -1316.487427
1743.395996 66.305626 -1249.612793
1906.835571 -8.983582 -990.997437
1984.676147 29.464092 -1064.385376
1967.402466 79.332130 -1033.956055
1742.305298 0.351529 -1244.127441
1856.929688 41.750965 -1059.770142
2018.427979 17.771441 -1094.015747
1811.802612 105.179832 -1282.164673
1693.183228 -157.180359 -1249.021606
2015.079102 97.788124 -1138.541260
1667.023682 -58.199898 -1326.820923
1712.682495 69.483177 -1318.730957
1868.588135 86.536812 -1083.383667
1948.885254 44.958858 -1039.978271
1834.096069 90.642441 -1188.555298
2055.926025 -25.311560 -1108.078979
1723.727539 50.306034 -1262.808716
1831.664551 87.166016 -1216.489502
1864.484375 -159.738266 -1015.341064
2114.636963 -157.963272 -1134.105957
1982.109985 87.227737 -1103.607910
1778.700684 97.382980 -1259.037476
1985.390015 72.836479 -1040.899170
1871.289551 56.869370 -1054.317993
1767.859985 24.906387 -1202.309204
1894.395020 71.862671 -1050.612793
1694.408203 -147.364960 -1257.014771
1900.946411 214.164261 -1141.932617
1871.008057 80.693840 -1090.147461
1829.696655 -83.163902 -1092.017578
2098.953613 -145.980743 -1108.598511
1786.160645 -121.519196 -1146.133423
1648.756470 -148.035477 -1308.225220
1729.187866 -188.760452 -1155.522949
1641.535522 -23.831223 -1347.618774
1877.816040 39.437889 -1035.407471
1989.590210 56.981274 -1050.376953
1729.432983 -118.187454 -1220.487305
1844.687866 -147.210556 -1037.146729
1653.321899 -169.571701 -1281.864502
1829.491211 -128.442139 -1058.651123
1792.232788 -152.410965 -1101.487061
1928.132813 66.830902 -1011.403748
1648.672119 21.801950 -1364.551025
1972.509155 -87.244591 -1038.906250
1933.151855 13.123893 -1007.740479
1829.128662 -177.014862 -1054.690674
1746.787109 44.441338 -1234.939331
1861.673706 -17.691452 -1049.413696
2078.240967 -45.450676 -1118.376831
1881.569946 211.673187 -1170.777954
1734.992065 -88.333031 -1228.961792
1842.437988 -31.950455 -1063.164917
1949.335571 47.939495 -1041.427124
1842.095703 55.018665 -1096.226685
1750.140503 84.079132 -1240.327881
1740.923828 -183.439224 -1193.062744
1758.689087 81.260658 -1210.737671
1926.877441 -107.073387 -994.853516
1737.931396 -45.616680 -1223.933105
1826.198242 92.686790 -1266.678833
1769.464844 96.766258 -1359.125977
1812.101807 97.212631 -1177.709473
1764.015869 -130.057022 -1160.024658
1852.462524 -44.092079 -1032.866943
2103.458008 -211.002426 -1087.532715
1949.681641 -93.664726 -1014.743164
1756.738403 103.376854 -1244.953125
1789.090332 109.400810 -1214.914673
1877.003784 85.834618 -1065.935059
1717.693970 -30.858145 -1278.150757
1700.733643 -125.868378 -1256.108887
1863.064819 99.020111 -1203.004517
1966.036255 97.297356 -1023.685608
1979.264038 61.473621 -1039.943237
1654.021851 35.016113 -1360.940063
1853.457520 -170.761475 -1034.859985
1843.005249 75.161873 -1112.630737
1721.640869 -28.494925 -1256.010986
1766.852905 -188.087997 -1144.669312
1798.960205 -140.259125 -1118.514404
1963.353027 74.523483 -1173.420166
1799.733887 -103.902985 -1152.737793
1829.624146 -12.703987 -1071.799561
1950.589600 -170.341232 -1009.695679
1750.913208 68.479691 -1448.151855
1872.366577 -43.903614 -1152.072510
2036.822510 -195.517075 -1041.766602
1847.986328 99.549599 -1197.070068
1750.276245 -116.460258 -1187.060059
1882.539551 191.041977 -1166.495850
1753.705811 95.872025 -1246.711548
2046.951904 136.379486 -1162.708374
1995.294678 38.279041 -1070.205322
1780.246704 54.050159 -1206.791260
1733.134644 100.383965 -1308.513916
1928.100586 -173.676041 -977.304688
1976.007568 82.389412 -1037.977173
1749.194092 85.976456 -1264.427002
1947.132568 -179.207886 -1013.699646
1629.563721 -50.059860 -1419.224731
1832.766235 23.958080 -1147.701660
2040.323486 75.513870 -1116.753296
1936.189941 -4.604617 -1017.916443
2003.037476 95.085632 -1147.337646
1808.187866 36.786522 -1164.975830
1901.660156 -55.983418 -999.051819
1705.344849 44.585171 -1299.080322
1699.373901 -73.094872 -1296.453979
1754.749268 -144.287964 -1157.908936
2031.813354 65.078781 -1061.960571
1940.592163 -172.937546 -982.449341
1834.348389 91.050438 -1173.297241
1901.797729 81.976974 -1135.915771
2074.586426 -105.879379 -1096.664551
1820.560059 109.971352 -1203.345093
1799.293335 -80.352402 -1150.745117
1833.226074 24.654110 -1127.925659
1750.497681 59.938133 -1229.937012
1793.586670 -160.276825 -1112.420898
2031.378418 24.658554 -1094.970825
1827.767090 -124.986160 -1065.383301
1911.614380 -103.276756 -995.566467
2055.943848 -54.568588 -1104.249878
1672.832642 -15.289046 -1316.691772
1980.108032 40.268688 -1053.482056
1743.949219 -168.853027 -1172.808105
1748.976440 -113.737099 -1177.829224
1905.331787 -82.694695 -982.424744
1968.936279 -80.746056 -1048.297852
1893.430786 23.900955 -1027.936401
1909.249512 155.387878 -1135.272217
1732.128906 -163.229050 -1185.185059
1783.770508 -49.436253 -1171.453491
1690.327637 69.872719 -1322.419312
2061.543945 80.608742 -1155.222778
2000.078857 84.177376 -1141.102173
1863.282104 -22.231279 -1022.906616
2018.069092 -151.360474 -1066.413208
1676.975708 -123.739716 -1285.810547
1685.942627 84.408539 -1378.201172
1857.737549 70.779694 -1081.625244
1793.639282 -156.551773 -1125.371948
1910.427490 147.619629 -1178.762451
1889.552368 92.929459 -1138.682739
1944.580688 -176.269287 -976.789246
1788.411011 90.972923 -1228.686157
1733.638550 71.271637 -1296.428223
1913.016113 36.356163 -1002.147583
1881.610962 63.296402 -1037.389038
1762.192017 95.769157 -1227.998535
1668.260132 -88.770439 -1326.294067
1873.266235 -49.048744 -1027.839844
1673.379272 -4.180969 -1324.474976
1761.943481 -146.064957 -1156.739136
2068.739746 -111.925453 -1091.109253
1732.953247 33.639370 -1443.984009
2053.830322 -23.629166 -1103.990234
1829.711670 -80.536385 -1040.666992
1826.777832 46.468185 -1112.297607
1762.943970 67.168213 -1241.052734
1892.700317 48.340389 -1024.842407
1738.243286 -90.657509 -1247.499634
1896.862549 198.965836 -1156.167603
1874.415039 -98.572533 -991.677917
1824.829224 -157.446777 -1065.520630
1868.378174 -1.108422 -1024.642090
2110.904297 -14.100365 -1136.338379
2112.968262 48.275265 -1148.691040
1833.902588 -78.866035 -1059.590454
1693.448608 -191.383789 -1240.213989
1672.247681 -127.344757 -1278.831299
1904.624756 77.625336 -1102.826050
1852.981201 -77.830086 -1021.177979
1773.919556 -172.145706 -1163.574341
2046.253052 78.746071 -1079.847534
1866.884888 13.024091 -1028.724121
1698.126831 -14.982067 -1311.278198
1685.142334 -43.897179 -1321.050171
1949.060669 -56.838478 -1023.957153
1728.795166 34.234829 -1260.652710
1956.429688 -48.616798 -1034.973877
1681.570557 34.072330 -1310.768433
1872.638550 89.677750 -1145.616577
1962.848511 -156.656647 -997.227295
1867.770020 139.608582 -1158.322021
1678.709717 64.292297 -1335.972168
1939.683228 79.577637 -1040.397095
1904.123901 85.558731 -1062.808960
1828.125122 52.183125 -1125.170044
1950.586792 75.784401 -1137.986572
1930.750732 71.866951 -1141.880859
1894.432007 -144.898849 -945.393738
1807.545044 47.438793 -1170.487671
1906.200806 -9.792354 -992.525391
1882.903564 81.825348 -1056.052002
2085.129395 -124.121605 -1102.012939
2060.957520 -51.415104 -1108.901855
1902.161133 145.940231 -1128.479980
1923.178223 43.490383 -1023.583496
1677.722534 -40.586605 -1315.342041
1804.037964 -66.311157 -1133.940430
1907.872192 -59.443565 -1001.018738
1693.694336 60.881195 -1319.816772
1941.355225 -37.995850 -1018.194702
1822.612305 -123.190361 -1100.069824
1747.432983 92.721786 -1258.302856
1693.494263 -4.303861 -1306.786743
1701.680176 -134.721436 -1318.920776
2003.797607 65.747620 -1050.472900
1914.349121 -44.446026 -1003.842163
1834.226440 109.678909 -1205.683838
1674.214722 -192.115280 -1261.382935
1769.322021 -62.832348 -1184.118774
1768.999756 -152.299179 -1138.036011
2008.706909 -63.284294 -1068.006836
2040.783325 59.910797 -1066.491821
1949.497803 79.920464 -1091.007202
1652.958130 -26.669733 -1329.473511
1976.627686 -137.896011 -1028.712646
1863.230225 94.678902 -1127.136230
1683.493896 46.692200 -1330.856201
1701.909180 -105.323372 -1332.840576
1934.533203 -107.824188 -1004.821533
1861.446899 -164.223770 -1041.746338
1972.195923 142.154694 -1168.052368
1846.187134 -128.984344 -1029.363647
1768.666748 -159.790085 -1160.768433
1834.903198 -152.503494 -1032.859985
1909.858154 80.540024 -1042.394531
1952.442139 9.333718 -1049.939331
1834.391602 93.132057 -1269.126831
1723.638916 92.245956 -1293.231934
1941.812378 28.735941 -1016.118225
1662.824219 -201.495239 -1278.476074
2027.712280 96.205078 -1140.247559
1672.300171 47.114117 -1348.920166
1835.024536 79.756989 -1151.936523
2087.748779 -22.148521 -1142.412354
2010.744385 95.142982 -1090.088257
2043.974365 -18.832193 -1100.776978
1910.212891 -35.572784 -984.203186
1997.808350 0.890426 -1071.185669
1661.919922 -8.765143 -1345.727417
1904.338867 78.718338 -1103.948608
1715.916138 -129.404922 -1232.898560
1761.447510 -106.408318 -1199.655762
1750.520142 69.394302 -1235.132080
1759.515381 -57.211124 -1197.081421
1827.011719 -0.460044 -1133.863525
1874.670288 71.731308 -1050.833252
1771.888672 2.318698 -1210.449707
1747.410156 76.724930 -1270.791016
1954.185303 87.984200 -1097.863281
1863.230103 -61.209793 -1017.209778
1828.125000 24.183092 -1084.386108
1646.640259 -158.685272 -1287.295044
1757.724854 -157.737946 -1154.034424
1882.557617 16.539482 -1015.374695
1837.143188 -120.351524 -1115.975708
1687.362549 -193.002487 -1242.386963
1995.041382 -47.611671 -1061.811768
1885.060791 20.638729 -1010.598755
1851.304932 8.868980 -1051.802124
1746.556396 -26.152683 -1247.664551
2090.192139 24.207237 -1120.563843
1865.145386 -94.648529 -1017.917908
2027.704224 67.078728 -1083.500122
1791.895752 89.265709 -1275.914185
1700.608398 -42.587051 -1280.554688
1730.676636 100.871765 -1361.245361
1643.173584 -191.807693 -1247.027588
2062.129150 -49.172897 -1106.256470
1708.433716 63.348492 -1317.205200
1957.974243 42.854038 -1047.513550
1732.140381 87.491348 -1313.561890
1914.078857 86.902710 -1033.835083
1819.827026 35.910610 -1141.084229
1907.006714 77.823669 -1123.774414
1863.352905 23.495583 -1041.543945
1937.869263 78.786064 -1103.441406
1892.226196 66.340637 -1022.157104
1850.436035 14.240094 -1060.836792
2048.980957 -62.067192 -1095.392212
1828.421631 -43.187099 -1111.724731
1975.609375 -94.869286 -1039.730835
1894.069336 -115.590950 -974.798889
1688.069580 -161.299835 -1260.904663
1822.613647 -29.057974 -1127.655762
1811.569214 46.465729 -1147.686157
1879.635498 76.837967 -1052.632080
1649.141968 -197.928680 -1255.099121
1852.705200 101.366798 -1161.898193
1653.033569 -145.749374 -1314.864258
2040.251953 129.879105 -1150.490234
1771.937134 25.293869 -1214.123047
2094.627197 41.016762 -1124.897705
2090.817627 -148.332581 -1134.954468
1761.952148 -73.393684 -1189.797363
2020.200195 -58.970207 -1066.030640
1942.521606 85.728607 -1038.124878
1766.990845 38.509800 -1202.969116
1856.948730 34.611404 -1070.847168
2136.701660 -212.006348 -1099.925415
1999.163086 134.833740 -1135.892090
2013.818726 -158.734268 -1056.991455
1863.239014 49.856922 -1043.185547
1920.084473 -124.687286 -986.164856
1710.517334 106.181175 -1333.367188
1891.856323 -142.736725 -969.836243
1931.342407 -63.270046 -1010.154968
1747.908203 80.624825 -1279.703491
1956.357422 28.741085 -1045.864502
1807.990723 52.117470 -1163.116699
1920.828735 45.087715 -1031.834473
2028.144287 5.606427 -1091.268433
1750.970093 82.199608 -1223.038574
2052.598633 61.133923 -1066.803589
1856.105957 98.447273 -1206.439453
1668.303589 -204.558563 -1272.619263
1917.769897 72.937126 -1141.325562
1877.742065 -162.945404 -979.912903
1824.773315 -175.342804 -1069.965454
1930.390381 198.848267 -1135.259155
1693.083740 -170.306000 -1235.470093
1780.354736 88.327797 -1204.070923
2114.079346 -182.686829 -1125.770630
1790.146118 107.254021 -1208.120483
2063.758789 9.039232 -1116.754028
1800.573730 -48.977783 -1150.272461
2090.605957 -94.624397 -1127.351929
1834.648804 -5.701467 -1094.794189
1847.783203 74.419632 -1151.257446
1788.285767 98.692047 -1287.896240
1669.311890 45.809422 -1377.279053
1811.599609 62.106209 -1144.624268
2123.891357 -53.059322 -1155.353271
1822.378052 -123.104652 -1083.044312
2025.483032 -29.278187 -1086.255005
1848.137573 39.141018 -1078.482544
1695.331299 66.450638 -1348.284058
1793.524536 -78.557167 -1146.920410
1729.152100 -191.603699 -1204.064819
1903.389282 -96.604538 -991.463501
1871.510742 96.705780 -1145.666748
1836.354614 -123.917549 -1041.213379
1738.785645 84.273308 -1324.480835
1860.801392 41.337601 -1067.044678
1981.757324 147.317719 -1183.123413
2095.999023 52.223473 -1110.806885
1782.545166 50.020050 -1194.540527
1682.716919 0.824294 -1308.158081
1867.480835 -160.460007 -997.491699
1871.905029 -109.952431 -994.829468
1692.520508 -189.981964 -1262.184937
1939.475098 27.296560 -1025.324341
1978.269287 77.720680 -1114.401733
1713.675171 -24.833166 -1286.354126
1855.862793 77.842926 -1119.985718
1709.736206 -182.388260 -1174.778198
1844.016602 -24.106815 -1063.589478
1878.396240 -163.240204 -1010.471741
1921.859741 -143.112289 -990.804749
1726.829712 -3.794138 -1251.897827
1695.292969 -146.813248 -1228.108154
1977.820190 -112.601227 -1028.445435
1672.844360 -161.605988 -1270.400391
1820.589844 -77.182465 -1123.768555
2098.940430 -42.372986 -1137.842407
2096.260498 -121.493431 -1135.751709
2030.437988 66.434044 -1085.414185
2066.026855 96.503036 -1157.211060
1881.322632 -105.565506 -996.118591
1777.532593 -180.362289 -1132.182007
1794.897705 -13.496367 -1176.164795
2018.257446 -174.289063 -1033.264648
2070.672119 -175.425323 -1096.043335
1730.522949 73.392738 -1286.835205
1938.529663 -19.608578 -1006.544006
1820.516968 65.154083 -1140.624634
1810.304565 18.391396 -1171.744873
1829.052612 12.178550 -1118.377686
1891.516724 -84.743675 -969.766724
2103.710449 -201.221558 -1121.927612
1931.104858 -32.657398 -1018.763184
2050.589355 -38.971355 -1099.330444
2008.713989 115.367645 -1129.103638
1868.910400 -156.208237 -1006.040833
1813.114014 -11.629100 -1136.303589
2098.003418 60.943287 -1132.528931
1825.217041 -104.617989 -1076.730469
1913.837158 -21.534050 -1006.946899
1852.173218 -40.103695 -1048.371826
1700.462402 91.122223 -1317.238525
1944.717285 -24.198820 -1023.631287
1829.285767 -124.016228 -1059.754028
1703.094238 48.051754 -1302.530029
1843.494629 75.827225 -1103.293335
1815.079956 -84.974617 -1116.147583
1758.401978 44.814056 -1217.760864
1822.376343 -54.265141 -1121.198486
1779.269897 85.793800 -1201.800171
1775.261841 70.749985 -1193.625732
1781.620117 -158.678482 -1116.403809
1835.297974 76.392540 -1116.761475
2065.421387 92.746765 -1175.040894
1952.383179 13.538643 -1050.658936
1816.761719 6.971083 -1155.774658
1916.467163 -44.659950 -999.717468
1937.778320 6.425052 -1009.674988
1834.915283 -99.160439 -1095.902222
2054.012207 -147.181717 -1084.851440
1771.306274 -177.149841 -1134.032227
1869.179810 76.075897 -1082.587158
1731.686890 -70.877136 -1428.302734
1806.412964 -178.535690 -1096.126709
1989.796753 17.090151 -1069.166626
1748.468994 -101.730362 -1206.139038
1897.776489 65.802002 -1022.476807
2030.508179 12.809169 -1085.257446
1997.300293 -39.246696 -1061.318481
1653.889526 -40.604115 -1333.310181
1837.154541 46.148991 -1109.588501
1780.102905 -138.976257 -1126.274780
1714.629150 -188.172195 -1219.326294
1867.669800 95.488670 -1153.119141
1760.910034 90.754112 -1285.336792
1974.136475 -111.410889 -1035.663696
1899.121948 0.385659 -1005.683167
1846.472046 63.960537 -1082.742676
1917.833130 202.678802 -1152.748535
1834.655884 -170.576462 -1067.027710
2050.135986 -191.057266 -1080.250366
1894.305664 -150.805923 -962.177856
1891.295776 8.540735 -1001.752808
1655.141235 -201.857651 -1269.346558
1758.570557 -166.436401 -1183.327393
1868.680664 -121.747452 -999.379028
1837.453125 -170.448837 -1063.624756
1788.657349 98.580322 -1302.397339
1810.059570 -9.181311 -1134.174194
1887.660278 -115.675301 -980.440674
2044.471436 63.711689 -1084.891113
1755.925171 -48.823532 -1224.935059
1789.295166 58.306393 -1163.838745
1863.449951 81.334618 -1127.459717
1892.216187 -131.062469 -976.665283
1820.126465 105.620346 -1197.679810
2081.076172 -105.385780 -1102.039551
1835.496094 72.457253 -1120.143433
1806.955444 -66.039909 -1161.002197
1831.199951 -42.369999 -1058.475708
1840.652344 10.300897 -1063.729492
1845.858887 20.440325 -1079.855469
1904.065796 -158.172241 -954.477844
1736.238281 -153.074295 -1177.128906
1921.301270 -69.580750 -987.449158
1778.545166 -191.497696 -1138.044556
1661.378784 -163.014603 -1303.250977
2108.485352 -157.007919 -1111.539917
1878.261475 119.709846 -1145.326172
1719.601440 -16.897776 -1261.519531
1735.194092 72.410416 -1299.409790
1925.395996 45.087906 -1019.079224
1787.363159 15.679990 -1205.920288
1816.300293 -88.367020 -1102.345337
1711.757202 67.176491 -1303.637573
1894.277588 42.155716 -1012.266052
1680.169067 -194.542923 -1254.288452
1745.095337 80.857086 -1282.261108
1968.489746 73.683746 -1033.010742
2110.020264 43.024563 -1169.231445
1958.835938 -152.789185 -1015.587646
2053.957031 -85.362259 -1110.582397
1898.176758 -160.220245 -983.017883
1812.702026 -16.579378 -1122.992188
1913.336060 63.398701 -1030.800171
2041.626709 110.378365 -1142.010254
1759.253662 -130.961716 -1171.429321
1863.183960 70.200188 -1066.127686
1752.974854 -130.514374 -1190.715332
1766.851563 0.343295 -1199.615845
1870.035767 76.874413 -1053.648804
2051.040039 95.548378 -1156.180542
1762.596680 -125.102570 -1175.009888
1870.985596 -166.709167 -985.064758
1698.874634 46.406830 -1311.866821
1912.628540 -116.015633 -993.466431
1815.775513 69.230827 -1156.229248
1862.054321 -54.503487 -1025.175537
1795.845825 -112.343826 -1153.925659
1969.357666 79.345528 -1111.860718
1787.111206 -83.969688 -1168.289063
2015.628906 95.985550 -1131.144531
1800.960938 94.837730 -1354.459717
2022.695190 68.278534 -1122.284302
1831.287109 6.093293 -1091.131470
2034.752808 -179.964188 -1069.587036
1824.800415 -18.627357 -1091.763306
1909.500977 55.967442 -1029.746582
1709.510864 92.265495 -1357.312378
1795.292847 -65.595032 -1152.099243
1771.256470 -92.729103 -1176.878418
1712.902588 83.412971 -1385.040405
1853.033936 -106.110558 -1045.924561
1793.020874 107.129242 -1265.546997
1754.382568 102.109367 -1317.088867
1907.750122 203.496063 -1149.508057
1987.264038 -54.122208 -1050.172363
1813.482666 110.876976 -1215.261108
2127.706787 -170.273163 -1139.898560
1690.718628 -168.868393 -1293.537720
1764.147827 -113.213028 -1179.300537
1685.906494 -161.673615 -1264.124756
1888.398071 72.493225 -1041.805054
1764.594849 -57.135006 -1209.884399
1743.389771 -150.643585 -1176.522339
1782.221313 -173.359146 -1080.186646
1755.861572 97.962151 -1265.634766
1934.245239 123.357094 -1158.186646
1792.625610 116.400490 -1224.193481
1880.450928 -79.200409 -1130.650513
1696.778931 -0.578395 -1298.995728
1794.961304 25.607000 -1166.703003
1817.483276 -127.321129 -1105.571899
1716.639038 70.939217 -1324.044312
1878.830566 -63.305019 -991.527832
1736.059692 112.115318 -1339.799805
1971.497803 81.332527 -1091.154663
2023.629761 -192.092255 -1038.984619
1716.753296 -46.478825 -1254.412476
1864.504272 -1.870048 -1034.699463
1927.076660 99.694176 -1058.210449
1731.637085 -141.184464 -1204.084473
1842.267944 21.388031 -1107.406372
1796.374878 -95.158020 -1153.535767
1670.357910 -174.554199 -1263.189819
1667.248291 -88.779976 -1310.196777
1894.547485 131.706741 -1134.002441
1745.700806 -133.628235 -1188.284302
1727.699707 86.096222 -1303.894409
1748.421021 49.400860 -1251.361816
2009.509277 -34.852497 -1070.935791
1659.667847 12.846560 -1331.713013
1813.982300 -103.485077 -1085.187378
2128.610596 -161.409973 -1149.547607
1809.214478 -178.413879 -1081.715210
1969.937012 3.970289 -1050.488647
1870.494385 -10.692198 -1013.801880
1711.605591 63.816883 -1332.787720
1735.322510 -78.529701 -1222.645264
1800.345947 99.712799 -1189.308960
1842.456299 81.672165 -1097.647827
1865.524658 -138.038635 -1018.039612
1700.151001 44.804939 -1306.808350
1908.841553 121.820633 -1144.611328
2101.206299 -172.439606 -1108.130615
1865.736938 -33.823902 -1031.895508
1875.240967 90.137558 -1067.251709
1883.207520 -101.640213 -987.209778
1932.913940 -174.844360 -994.098877
1743.718628 87.375412 -1287.556641
2122.703613 -210.792267 -1136.727173
1843.862549 -87.983078 -1052.551636
1890.988403 156.954147 -1145.827881
1967.466431 -169.199905 -1018.495117
1834.540039 -10.498645 -1094.757690
1748.852173 -23.338163 -1227.800049
1769.073853 77.846603 -1203.199219
1705.896606 99.381485 -1387.742798
2001.746094 137.508499 -1155.544312
1914.191772 -94.895950 -995.021545
1899.085083 175.154068 -1142.882202
2022.244629 -69.314690 -1073.923950
1898.559692 142.678238 -1132.464844
1841.157593 22.198740 -1091.938354
1852.150513 34.092216 -1060.469849
1893.464233 -170.045624 -972.206604
1886.853027 91.682480 -1044.684570
2020.472168 71.793663 -1080.847046
1886.645386 -145.798248 -988.744934
2049.292725 60.674961 -1083.253906
1853.125244 7.602758 -1056.181641
1837.258423 -8.074171 -1097.978027
1987.103760 -1.623224 -1059.706421
1931.485840 -168.394073 -991.907104
1728.743164 -19.665668 -1245.620850
2053.638184 -64.087830 -1108.270752
1673.084473 -201.914520 -1270.345093
2088.773193 -55.095940 -1115.085449
1737.671265 73.968849 -1439.729370
1698.887451 71.266014 -1308.807007
2077.299072 55.793278 -1143.407227
1865.938599 36.791775 -1054.642700
1682.400757 -178.047501 -1260.315674
1815.781860 -130.902893 -1126.429932
1913.239746 57.448078 -1029.316406
1898.743286 -99.798241 -990.744080
1861.444336 -168.201736 -1040.167480
1927.358398 206.714249 -1165.474731
1708.892456 83.414742 -1401.674438
2031.983521 -102.255302 -1065.476563
1909.046631 98.717827 -1042.265137
2012.443481 -109.316505 -1061.204590
2019.900513 66.409462 -1126.807373
1873.798462 134.787674 -1183.351929
2036.926636 89.353615 -1140.900879
1687.092041 84.365822 -1361.923706
2020.591675 104.586784 -1124.454712
1772.571045 -47.892490 -1185.745117
1876.971558 -160.762543 -989.758728
1705.585571 91.321762 -1328.630493
1872.344604 192.186142 -1155.230347
1842.868042 -84.673965 -1055.702881
1826.381470 -120.624062 -1089.615601
1945.880371 46.469231 -1033.764893
1819.442505 -109.384277 -1064.900146
1775.812378 67.280319 -1194.225952
1838.471313 -39.467144 -1096.035522
1923.793457 156.180145 -1152.069946
2009.850830 50.644852 -1064.084717
1886.111572 -10.445493 -1002.054199
1897.217529 97.699738 -1052.597168
1819.882324 -51.450031 -1138.909546
1980.505859 -12.863685 -1055.446899
1898.263672 176.014709 -1138.156128
1766.651733 -95.105415 -1173.493530
1740.822754 -117.404778 -1211.466064
1661.573364 -205.665298 -1282.661743
2111.425293 -209.558319 -1126.773804
1811.080444 -30.285421 -1155.086304
1838.131714 -173.523972 -1068.446899
1870.309082 92.714401 -1102.208008
1820.380249 -47.039326 -1126.968506
1852.993164 -102.260406 -1114.271240
1683.950928 59.420349 -1325.494141
2006.300415 -137.963470 -1054.403076
1687.545044 -38.694878 -1318.709717
1827.013306 -169.566498 -1074.428589
1731.565674 -118.478584 -1212.424438
1893.337402 -12.894327 -991.818848
1833.686523 -138.952332 -1049.186279
1661.512817 -108.994621 -1321.932129
1673.428345 -182.829819 -1270.203613
1719.133789 -127.230247 -1232.416504
1692.152344 -96.212334 -1281.712646
2011.447876 167.474655 -1153.678711
1689.915894 15.465930 -1313.573364
2022.164063 -192.745285 -1033.960449
1932.016846 9.111846 -1019.052307
1924.152100 206.335571 -1140.062988
1857.309204 -22.184032 -1035.961548
1815.038330 -120.772026 -1105.369995
1682.804077 -112.508644 -1331.682251
1693.509399 -37.854797 -1308.014526
1773.171387 84.795555 -1311.794189
1788.875854 -126.143257 -1162.859741
1880.590698 -1.185238 -1005.512878
1820.348877 -129.110687 -1100.552490
1902.473999 207.108017 -1153.183960
1653.694458 -182.294342 -1303.089478
1784.151123 108.377167 -1219.880981
1965.421143 -19.932962 -1044.730957
1697.803711 -144.784576 -1230.492432
1822.457642 90.368080 -1261.835571
1877.110352 29.413832 -1020.110291
2038.863403 -83.901726 -1085.009033
1975.781616 54.806164 -1048.611206
1852.252563 -80.839287 -1021.252258
2071.024902 -162.299133 -1098.186768
1828.421265 10.847363 -1086.350952
1774.785400 98.815529 -1287.820435
1726.282349 13.486247 -1434.049683
1889.991211 136.600311 -1140.155762
1883.193848 -61.125866 -985.786438
1895.866333 96.498299 -1120.519897
1884.563232 -94.652443 -1012.766418
1749.088623 -149.924316 -1173.500977
1766.431885 85.537895 -1322.539673
1742.314575 28.703911 -1230.615234
1730.175293 -134.532684 -1210.788940
1706.297607 -14.151433 -1273.557495
1817.657471 -111.718628 -1068.453735
1881.249390 235.388580 -1164.568359
1759.968140 -148.112198 -1146.190063
1781.715942 77.568192 -1190.479980
1638.646118 -112.355042 -1334.357666
1993.477051 -80.818024 -1057.249146
1910.193359 -19.601286 -1013.147583
1690.171509 -94.339317 -1312.480835
2003.163696 -122.464149 -1052.728760
1828.475098 25.705042 -1134.056641
2109.881348 44.246929 -1126.757690
1919.255615 78.310349 -1124.924927
1635.439697 -201.432068 -1270.083618
1925.224487 63.068924 -1027.825562
1715.860962 -71.658279 -1259.776123
1764.557129 3.653659 -1203.442993
2124.710449 -195.553070 -1131.592529
1884.687012 -158.784058 -978.596863
1893.574585 -169.746063 -988.695435
2125.510742 -80.564445 -1153.019165
1880.400024 -68.650772 -994.053284
1923.901489 90.164574 -1022.694885
2085.506592 -101.014244 -1134.544800
2087.356445 -170.003296 -1109.290527
1814.547119 105.423576 -1208.407471
2070.656738 56.677979 -1149.012573
1720.608032 33.519871 -1269.265991
1800.555176 97.822906 -1225.569336
1756.630249 -115.149559 -1197.645996
2012.555298 -112.892044 -1064.195435
1984.024414 -45.434265 -1055.978149
1761.900757 31.921446 -1460.628052
1722.556641 -41.295574 -1315.663330
1905.115967 34.669159 -1026.319702
1728.673706 -23.567875 -1250.750366
1768.089600 -182.837448 -1123.681152
2052.387695 -45.263359 -1110.049438
1771.996094 71.136574 -1224.596436
1896.324829 165.546585 -1134.745605
1818.009644 -169.399994 -1076.540039
1826.117188 -119.353653 -1108.007446
1843.595215 81.187439 -1166.704834
1951.780029 69.027695 -1029.982788
1780.970825 -158.328674 -1144.207642
1802.300537 82.673676 -1169.478271
2007.035767 76.875412 -1056.177124
1783.932739 -21.260078 -1188.148315
1814.830444 -71.756790 -1126.875610
1992.567871 -93.930069 -1052.507813
1671.027466 27.843510 -1336.385742
1861.359375 2.561267 -1031.719116
2104.466553 -78.010460 -1140.591797
1879.788086 118.088997 -1133.915283
1857.671021 -108.644958 -1120.741455
1996.608643 122.819481 -1156.754272
1785.176270 -22.372927 -1169.522949
1703.267212 -26.413332 -1280.728394
1882.576416 97.514572 -1250.320190
1936.662720 77.982834 -1022.271729
1796.668213 55.849224 -1166.915405
1983.806274 -43.251324 -1053.134766
1759.806519 -171.081924 -1174.471558
2037.520508 -11.966548 -1084.694092
1872.002197 -15.051946 -1015.078491
1698.668091 50.570118 -1285.122437
1838.594849 82.703758 -1308.478394
1993.100830 -146.653152 -1043.437744
1945.197632 -63.573704 -1024.136108
1673.545898 21.172174 -1321.629761
1720.895752 -174.533386 -1173.562622
1879.808838 -84.084831 -985.412659
1855.412476 -103.903839 -1020.108337
1814.086670 -118.631050 -1128.847290
1823.542725 85.755226 -1155.268677
1866.175903 44.540966 -1056.526611
1702.178955 -112.274788 -1245.560791
1990.294312 -18.958887 -1050.981567
1685.888794 -110.552811 -1286.377441
1775.417603 -185.101425 -1139.042358
2030.692627 -157.297760 -1067.177612
1700.536621 -170.124847 -1250.086670
1779.884033 94.905899 -1299.506226
1698.226318 -199.663666 -1224.002441
2032.614380 -191.428650 -1061.849487
2113.397217 -193.317749 -1127.546631
2076.902832 61.160667 -1100.487427
1908.068970 206.829529 -1150.723633
2036.961304 130.079300 -1149.405518
1929.207642 16.587646 -1020.920410
1752.428101 -17.129446 -1244.480225
1990.622559 153.160995 -1158.538086
1689.044434 -184.871338 -1239.411255
1775.794556 83.033775 -1334.637939
1770.339966 66.394005 -1211.754639
1865.746948 -37.590488 -1030.579468
1730.203491 -129.130737 -1194.463013
1772.412231 50.436871 -1218.455200
2027.923462 -182.595413 -1065.320190
1822.115723 -90.361259 -1077.754517
1827.152954 -44.825745 -1159.697998
1692.863281 -179.105606 -1205.889404
1719.193604 -122.396172 -1232.574341
1671.265625 -80.361740 -1313.261963
1883.501953 -38.167419 -990.816406
1810.050171 -39.285305 -1152.913208
1882.504883 12.446487 -1011.101135
1850.458374 -172.473404 -1022.036804
1955.071411 -89.449142 -1026.052246
1903.662231 -153.679855 -989.892883
1696.350952 -151.800720 -1303.083740
1880.703003 -25.091766 -999.855225
1913.070679 -157.574371 -963.659058
1888.085815 -139.159317 -984.403320
1935.825317 172.553391 -1164.402466
1911.379395 -74.041367 -985.604980
1647.884277 -5.113213 -1368.240967
1820.592407 -46.740353 -1069.067017
1697.933960 -92.851097 -1297.276733
2105.162598 -104.377136 -1136.817993
2049.633057 86.210403 -1145.744751
2063.954346 -122.515312 -1097.483276
1979.236206 -100.765190 -1051.709351
2001.865601 -81.004875 -1063.808228
2022.565918 93.845268 -1137.849609
2100.366699 42.855244 -1112.125366
1838.742920 3.988757 -1082.493530
2037.826050 -147.473358 -1079.385010
2003.680054 86.492706 -1133.416504
1954.072021 -169.173950 -1016.149353
1875.095825 117.258522 -1172.034790
1791.057373 117.177032 -1232.408936
1707.045776 -80.972900 -1269.955322
2117.935059 -44.821957 -1137.495361
1888.407837 228.382141 -1161.739014
1741.848877 -22.670326 -1260.297974
2009.317627 21.890345 -1071.511719
2108.076416 -199.933487 -1134.244263
2039.547119 92.009186 -1119.886475
2111.120605 -4.488429 -1146.429688
1879.616333 -127.253548 -989.451477
1755.318604 -111.892715 -1181.768555
1804.980591 -0.665164 -1151.043823
2075.422607 23.132107 -1114.733521
1878.380737 90.150314 -1070.586670
1780.150146 74.413872 -1190.035400
1851.008057 -167.883514 -1034.861328
1919.904907 -60.143772 -1002.969299
1777.067383 -63.514126 -1167.099365
1748.042725 -84.618622 -1212.828125
1855.209961 -57.806057 -1033.745239
1720.254761 -215.462692 -1392.232544
1704.792603 33.954174 -1285.998535
1869.974121 -111.100006 -997.552673
1832.282471 -20.385319 -1052.903442
2096.971191 -149.543945 -1117.692993
1847.162354 -34.882038 -1038.410278
1759.112915 42.349880 -1219.723511
1915.818237 223.468460 -1152.156616
1987.057983 -134.144577 -1039.466309
2011.110352 70.552773 -1038.349487
1912.582764 156.936798 -1139.665771
1887.010132 48.840473 -1015.650269
1895.010742 129.051712 -1138.939087
2012.497681 -35.709393 -1073.015015
1845.964233 2.042528 -1073.745728
1878.125488 25.027586 -1025.259033
1847.029541 71.347557 -1109.610352
2039.368530 105.618195 -1146.087769
1881.499634 -116.199692 -986.565430
2013.792114 -80.607666 -1067.598999
1694.938721 -186.813843 -1256.632324
1878.523804 -30.086599 -996.542664
1745.134155 0.633468 -1228.939087
1760.484497 -56.757187 -1200.088867
1932.030151 77.092163 -1038.423218
1846.255371 -68.804207 -1119.777222
2018.510986 -55.132103 -1073.326904
1731.159546 -94.399841 -1221.616821
1829.321899 -167.493225 -1059.738403
1764.641724 -35.071243 -1220.191284
1650.388794 -201.528152 -1261.489868
1922.669922 88.675865 -1152.854370
2021.011597 137.111252 -1122.160034
1771.765991 32.350216 -1204.336182
2045.367188 80.143127 -1139.420410
1887.919922 150.908585 -1140.330566
2102.834473 50.882797 -1169.796753
1868.319702 -85.208282 -1007.677979
1850.362061 -11.595063 -1051.204590
2123.706787 -115.984200 -1149.437256
2047.413330 60.194374 -1127.268555
1886.024292 52.703472 -1021.758057
1832.458984 -0.530763 -1075.716797
1691.535889 -193.762421 -1200.001099
1992.372437 -126.952538 -1042.950317
1881.656982 25.718252 -1037.890137
1741.963257 -154.732208 -1211.730225
1761.057739 -58.998371 -1193.296509
2100.243652 -150.992538 -1120.416626
1803.061768 -38.031033 -1148.380615
1669.192627 48.185078 -1344.057007
1843.889282 38.710258 -1101.775879
1961.515503 -48.270222 -1033.482056
1743.232300 82.501099 -1318.954956
1995.924561 74.511642 -1114.331177
2021.666504 -143.640228 -1054.776611
1968.077881 53.281273 -1044.056885
1920.734375 3.230920 -1023.599304
1917.735718 66.762764 -1007.968628
2034.849854 -124.137711 -1075.186279
1844.072388 92.573914 -1191.343262
1890.254395 30.786079 -1002.516418
1793.037476 54.229660 -1180.608765
1822.581299 47.963409 -1131.049438
1910.078979 195.642670 -1158.339722
1759.308472 109.857658 -1350.600952
1800.602783 89.696800 -1178.755249
1695.584229 -183.791611 -1236.356445
1909.429688 43.333958 -1025.855713
1730.736694 -173.421265 -1187.386230
1851.429199 -71.623650 -1022.862671
1923.673462 174.246994 -1156.606445
1989.756714 -84.198914 -1051.618408
1936.215088 37.847260 -1032.106323
1738.950684 -35.747440 -1235.817993
1749.659546 -170.946564 -1168.097412
1713.450684 22.530674 -1274.602661
1936.985840 187.017044 -1166.427124
1714.272217 89.815605 -1358.884155
2045.700684 -173.982864 -1079.012939
1896.281128 -109.206329 -1001.520752
2111.453125 -24.301308 -1137.064575
1815.349243 2.925821 -1139.351074
1682.779053 40.270977 -1313.667725
1902.154297 -111.297447 -949.533264
1818.694458 39.191154 -1146.041382
1868.878052 57.154289 -1052.329102
2004.126465 156.941559 -1159.324341
2027.313721 -191.482712 -1050.340210
1664.824341 -124.662643 -1317.894165
1735.542358 92.425911 -1330.977905
1724.079834 -102.838478 -1220.075439
2022.310913 -126.249733 -1065.942261
1845.589355 -175.468979 -1052.631226
1781.077515 -177.785416 -1102.587891
1708.252930 -179.738373 -1215.445068
1657.974854 -195.612000 -1262.047485
1722.640869 74.044441 -1309.601929
1888.891479 46.608112 -1017.548523
1884.538208 81.146851 -1121.126953
1983.542358 25.890284 -1070.058838
1894.951416 179.095886 -1131.095703
1938.734741 183.674286 -1177.212402
1704.748047 -188.408951 -1182.989624
1972.920654 69.661118 -1032.900513
1872.782104 -146.081512 -1007.872620
1827.691406 46.602898 -1127.704590
1980.630127 -34.760300 -1047.809204
1770.352051 16.652613 -1217.765381
1867.612061 -176.166779 -1019.639099
2002.866211 79.026634 -1087.333252
1947.640869 -177.253189 -992.831238
1817.983521 36.178787 -1141.398682
1799.383423 15.366897 -1191.318604
1718.814575 -93.464127 -1232.776611
1829.820068 -126.543839 -1091.087280
2115.106934 21.162733 -1137.353516
1997.054199 9.910833 -1060.601318
1652.975220 -164.940994 -1276.178833
1802.040649 63.953621 -1162.032837
1876.198608 96.847420 -1238.279907
1761.601563 -41.568813 -1196.820557
1787.344604 -4.230913 -1201.191406
1940.541748 93.085609 -1146.626221
1889.285767 -129.297165 -973.334900
1694.973755 -194.593231 -1202.807617
1773.023560 10.192451 -1193.671631
1834.499756 -118.996208 -1043.779907
1692.628540 -182.889374 -1234.126709
1823.593018 -121.378006 -1116.489746
1840.843018 84.128860 -1115.828735
1804.658203 -160.770615 -1102.237061
2019.368774 -187.702713 -1041.326904
1924.665283 -165.761108 -988.503967
2026.110962 -81.219734 -1066.950928
1913.489258 17.916103 -1004.588257
1930.668091 34.893078 -1021.986206
1712.808228 -191.531815 -1228.755005
1875.492065 30.622549 -1035.840576
1739.284302 -172.923386 -1176.185547
1862.969360 -60.625179 -1010.427673
1902.634155 143.480270 -1149.824219
2109.549805 -172.262589 -1112.909912
2121.241943 54.433777 -1132.230469
1688.895752 -43.592388 -1295.386475
1798.569580 -137.393814 -1127.936890
1851.369507 51.522797 -1072.485840
2046.846680 -101.706734 -1096.589600
1841.693359 -10.645591 -1075.256104
1734.481812 -132.325531 -1210.675659
1691.004883 -184.829132 -1242.502075
1678.952637 26.754871 -1336.950684
2025.230225 -135.739761 -1057.926880
1703.995605 39.009647 -1285.128418
1751.367676 -186.605225 -1150.191406
1939.645996 122.979424 -1158.807861
2026.336304 133.423859 -1148.746826
1687.406128 -94.024750 -1321.650269
2103.743164 -122.020538 -1129.649170
1933.006592 27.476645 -1020.245239
1785.843628 -164.130020 -1107.488647
2039.551514 12.198577 -1101.064209
1915.228149 196.325424 -1146.448242
2055.605469 -28.116402 -1095.359497
1819.638794 96.789421 -1179.496094
1794.616943 -130.482971 -1150.872437
1973.616455 76.624947 -1092.900269
1903.809082 -136.143127 -993.870605
1758.336670 112.819786 -1377.785767
1777.153076 -133.222855 -1130.580322
1897.818848 47.902512 -1008.572449
1798.540405 76.286453 -1171.670166
2022.008301 74.743683 -1135.186279
1837.372925 -113.401749 -1098.199341
1998.493042 120.931725 -1156.570923
1766.794922 81.247025 -1207.229004
2035.189453 144.058365 -1143.271362
1930.059814 -109.718918 -997.874817
2054.501465 82.437965 -1149.893311
1787.516235 34.318150 -1176.367432
2005.890381 -49.706272 -1066.094849
2086.370605 -49.769196 -1130.284912
2047.464111 9.512541 -1095.760742
1722.384277 113.961349 -1327.706177
1681.555786 -183.580994 -1262.975586
1882.149414 37.268620 -1019.119080
1722.418945 -5.076930 -1261.118896
2025.835815 92.878471 -1139.944458
1878.264771 -15.350329 -1005.894409
2016.197998 -23.113733 -1085.020020
1928.613281 80.602516 -1114.729126
1940.872925 94.236954 -1041.465942
1838.921997 53.996143 -1102.725098
2014.323730 -133.114563 -1060.720581
1826.387085 -125.973251 -1096.390137
1760.901367 23.876003 -1228.013306
1881.455811 51.186852 -1052.609131
1824.950073 -27.076426 -1081.962769
1673.072510 52.461224 -1376.046875
1872.102295 -138.949799 -998.215332
2107.268066 -46.298523 -1130.437012
1696.366821 -148.701569 -1304.239136
1972.986450 1.004303 -1041.804565
1979.413818 132.662720 -1157.236816
1813.326416 85.196426 -1240.900269
1668.574829 -54.996136 -1342.342773
1681.077881 32.785397 -1325.384399
1884.604858 -171.047226 -982.067993
1687.647217 -71.627151 -1289.787109
1841.444702 86.192406 -1289.509277
1887.027466 174.710022 -1166.628052
1701.276855 -115.718925 -1301.026489
1851.067993 -20.250784 -1057.529297
1753.345093 -2.317321 -1222.452026
1916.912354 -127.469093 -983.203979
1698.618896 3.549821 -1285.958618
1853.691406 -102.530121 -1028.945923
1650.523926 37.248505 -1368.799072
1806.669312 23.795885 -1149.705688
1846.478882 -53.527412 -1059.619385
1723.743530 -40.247974 -1250.453125
1844.114990 42.401939 -1075.122925
2012.860107 132.092010 -1150.710938
2113.840576 -167.525757 -1130.981079
1722.286743 102.753517 -1321.797363
1837.350342 -23.467033 -1076.775269
1886.146851 55.219368 -1031.704712
1906.341309 -167.859589 -990.713867
1797.530273 -135.897247 -1104.278809
1897.834351 119.021591 -1172.625122
1854.335327 13.924885 -1048.464600
2018.824585 83.992157 -1098.074463
1690.407104 -2.425893 -1296.829834
1683.380981 53.108452 -1351.709717
