ply
format ascii 1.0
element vertex 1380
property float x
property float y
property float z
end_header
1741.277466 1327.847656 33.454029
1485.519165 1551.738892 185.310989
1622.200195 1364.019775 83.678696
1839.392700 1435.684937 20.923134
1567.675415 1441.789673 184.145844
1393.688477 1636.270386 102.416977
1776.000122 1392.207886 73.824768
1584.202393 1426.312744 214.050735
1610.550537 1388.431519 167.370468
1816.604492 1530.227417 161.051193
1596.290161 1423.601929 224.875778
1572.564575 1446.590942 146.613861
1717.892334 1485.016968 251.280701
1500.799561 1488.079468 -65.869072
1748.854492 1560.290771 268.693787
1596.339478 1479.522095 245.441803
1794.708130 1577.176636 229.988632
1490.642334 1521.183716 61.205830
1495.504272 1465.852905 -100.398788
1625.811401 1399.041260 223.534195
1863.589355 1437.281616 7.211285
1730.595703 1342.416016 46.040779
1387.630737 1626.951416 -25.321009
1575.915161 1392.261108 -43.282925
1574.302979 1445.643921 200.294937
1863.858521 1487.085571 62.906048
1513.475586 1514.267822 36.429482
1582.107422 1417.689331 42.032829
1815.098755 1444.529175 61.907440
1407.926270 1634.742188 101.630501
1477.863892 1569.956909 -83.375015
1443.349487 1579.375122 146.034134
1437.841797 1592.134766 129.871170
1437.596558 1560.246948 -82.465508
1656.549805 1567.788452 300.276306
1615.129272 1538.495483 262.428619
1806.333496 1407.216309 25.907717
1567.569214 1559.974487 327.391327
1676.701660 1370.676758 163.558487
1734.964844 1563.146484 275.094360
1631.459106 1380.228394 140.111984
1548.245239 1466.417969 185.448792
1395.067749 1655.832031 138.714920
1466.103271 1533.032349 -38.560596
1568.294312 1526.655640 207.133804
1583.784180 1424.799805 8.419965
1575.375366 1537.704102 308.111755
1474.022217 1513.842163 -23.729467
1657.581421 1418.531128 261.520599
1845.016357 1526.283447 134.819443
1630.469238 1402.789429 260.589661
1514.440796 1550.824951 217.978729
1537.701660 1450.925049 -63.032555
1725.531372 1460.956909 203.893417
1692.907837 1427.373657 263.030334
1493.434814 1482.350220 -77.612617
1592.447876 1409.624268 191.197250
1648.831543 1415.643799 255.175674
1520.928223 1508.394653 193.064529
1834.896118 1415.345337 20.257410
1779.593140 1411.807251 82.628654
1400.969604 1636.640503 130.809464
1878.674561 1466.730591 7.304387
1871.964600 1433.417847 9.712155
1483.825562 1544.395508 60.402901
1468.949219 1549.280029 -53.893280
1808.394775 1520.981689 231.783539
1811.048340 1404.913940 10.902543
1572.882324 1554.195190 343.455902
1633.937012 1368.288208 196.998413
1460.335449 1571.434448 -79.063850
1537.293213 1524.448730 192.549011
1666.431885 1569.728271 257.328796
1582.656250 1410.712891 192.352142
1606.664673 1407.550903 183.007874
1658.701050 1432.904785 265.955872
1538.863281 1483.095337 181.463593
1665.002930 1426.512573 265.425934
1417.700562 1594.020874 16.725666
1777.289795 1448.038574 129.686081
1412.614624 1690.317749 162.353943
1616.572144 1370.682861 123.927338
1604.493408 1435.478027 245.088898
1759.596924 1489.563599 243.872238
1607.419067 1380.227417 103.282364
1525.065063 1503.216431 81.523758
1481.683472 1653.845459 167.193619
1598.986084 1387.262085 23.587263
1906.716187 1497.823730 10.933487
1477.422363 1448.556274 -76.408409
1559.630005 1525.866821 223.928360
1753.373657 1474.246582 190.635361
1560.375122 1464.293213 221.007065
1830.595947 1408.182983 12.417545
1586.404419 1389.410400 66.302956
1632.167358 1420.254517 272.581207
1466.221313 1506.419922 -122.764824
1404.350342 1660.872681 159.650070
1536.632080 1486.705933 193.957260
1553.107422 1499.797729 135.530655
1459.489502 1649.388184 146.769913
1523.616089 1533.173218 206.275955
1694.410278 1544.950562 283.303986
1561.584595 1426.831665 149.324982
1577.828369 1558.798218 357.431183
1595.321045 1528.156250 285.546295
1693.097534 1299.272461 65.858559
1485.663086 1538.060303 78.939278
1384.492920 1605.822266 -38.926624
1633.179443 1344.867676 121.735550
1611.137207 1388.421387 123.028305
1668.104980 1440.103882 266.212433
1557.542236 1458.777222 78.254532
1796.360718 1451.268677 106.083504
1871.367432 1461.550781 8.886673
1602.846191 1383.693970 37.321728
1758.968506 1377.158203 64.703247
1484.054565 1493.203735 -70.004593
1739.597534 1386.936279 103.751518
1666.121582 1328.676392 92.100037
1475.604980 1558.212158 173.452942
1401.421875 1642.545898 114.245697
1723.961914 1559.510498 283.842560
1497.694580 1539.314697 128.862839
1439.774170 1587.553101 -47.475437
1516.910278 1659.013550 181.400421
1369.769775 1692.689819 88.487511
1586.172974 1431.065674 226.854965
1839.365479 1556.735718 181.616089
1500.363647 1523.576294 160.273193
1624.627319 1499.622681 229.889679
1518.202271 1640.227539 169.971008
1470.767822 1525.478027 -58.659847
1793.349487 1496.650635 170.706039
1603.099976 1387.052612 132.694641
1735.453491 1320.140137 32.282192
1660.045776 1328.133301 131.855301
1623.023560 1445.021362 79.463661
1616.182739 1455.625610 47.074261
1629.280762 1365.145630 158.029678
1564.994263 1471.708130 89.242264
1445.889038 1616.114380 -43.446857
1436.165771 1541.862427 -135.822891
1901.898804 1472.213501 12.408323
1759.841309 1550.031372 251.682739
1692.616211 1400.319946 188.342896
1404.134644 1651.153931 140.868195
1577.530029 1419.492310 154.182098
1741.697266 1480.041870 265.786591
1586.271851 1525.965210 302.213898
1673.111694 1405.875854 218.085052
1664.317993 1325.237671 88.289352
1427.828369 1637.175659 160.142014
1541.191406 1466.929565 55.528450
1378.182617 1635.820068 90.438004
1651.011475 1332.834106 18.189819
1425.812500 1599.967041 152.014771
1620.598999 1398.531128 238.780167
1708.254639 1440.654785 236.749985
1621.843384 1364.233276 4.445461
1720.443848 1508.474121 254.505310
1764.539673 1400.433838 90.515610
1446.708862 1573.165039 143.208420
1443.751953 1488.728271 -105.565201
1423.600464 1588.815552 106.969612
1561.967651 1552.143555 335.322327
1473.770386 1520.125244 -38.901077
1506.929932 1572.623169 198.937408
1435.379395 1567.609131 -63.496506
1605.132446 1515.879272 257.384399
1693.981934 1386.145264 136.339294
1485.211670 1605.941162 169.296570
1699.090576 1554.851318 303.412262
1695.560425 1416.224243 264.458832
1787.016968 1481.968994 159.298569
1606.578003 1389.333008 186.648849
1584.242310 1533.046509 288.288391
1657.910522 1398.704956 255.947418
1529.665771 1488.469238 32.010715
1710.749756 1352.184814 120.903419
1736.529419 1344.605347 37.901684
1542.824829 1540.537720 193.171997
1557.621826 1492.732666 149.629669
1643.693848 1376.110229 205.172318
1617.430542 1391.943115 219.579163
1782.349243 1440.819092 116.299255
1620.161499 1431.893677 37.854603
1427.210938 1580.021606 16.068808
1697.914429 1328.817139 73.498177
1549.440430 1505.054565 206.801300
1547.118042 1482.830444 194.563034
1613.767456 1551.137085 285.936615
1653.445679 1439.171509 260.840668
1801.417358 1503.076904 150.887863
1671.252319 1391.750610 178.683136
1471.427246 1528.360107 10.469679
1734.118774 1311.340576 38.547031
1697.094727 1464.645020 260.099609
1605.252319 1381.455933 33.044056
1481.488770 1520.048096 -48.686592
1427.123657 1644.234863 154.939667
1685.941040 1314.473389 61.887836
1425.458130 1621.095825 135.920593
1431.048828 1676.189697 152.314606
1507.650513 1514.034302 66.162109
1529.909180 1490.003418 77.687531
1564.344482 1442.265625 -9.918868
1555.046753 1480.915039 99.414497
1500.652710 1713.782715 141.883957
1493.791992 1576.352661 205.598114
1612.839600 1372.622314 122.605927
1788.705688 1419.914551 78.153427
1879.090576 1475.568726 23.022924
1750.642456 1366.769165 57.480984
1831.691895 1504.550415 127.977203
1570.162354 1432.906250 175.435089
1630.743164 1353.651123 158.785873
1592.197632 1384.127441 60.774136
1675.739258 1320.052124 100.138550
1488.895142 1534.691162 199.844589
1570.873169 1451.337524 193.178146
1744.072021 1466.754028 245.646439
1790.815430 1364.609497 28.551245
1529.914307 1461.288818 -58.589355
1771.048096 1484.170166 256.196503
1574.553223 1531.312012 271.685547
1470.664307 1532.686890 2.625026
1697.663086 1430.566772 216.711655
1410.779053 1691.501099 148.648224
1575.607300 1544.062134 276.446259
1620.664063 1368.571289 133.219116
1603.097046 1530.815063 286.227753
1669.840454 1416.818115 207.805298
1786.864258 1474.793579 168.714615
1634.844971 1352.367310 131.319489
1738.341675 1375.806885 88.072327
1896.671021 1489.786255 13.808524
1426.144531 1547.267822 -112.191689
1682.021606 1495.685547 244.779984
1605.570679 1496.561768 237.719650
1847.170410 1444.836792 28.195379
1745.010010 1563.605835 265.257233
1619.714355 1529.903076 265.689850
1356.923828 1650.073853 67.371834
1740.900513 1574.377808 297.908508
1418.308838 1590.287720 32.261875
1714.828979 1393.733887 151.175003
1698.002686 1438.700928 222.599350
1640.843628 1350.310059 12.196176
1388.151733 1599.379639 -11.911201
1441.979980 1596.283325 71.749008
1630.812256 1392.258301 234.232529
1707.409058 1325.472900 59.038734
1628.116577 1402.325684 271.468994
1698.080444 1440.366821 257.848969
1596.955688 1424.622437 58.656944
1573.588379 1428.759888 138.767822
1699.869385 1401.842285 167.634201
1370.322754 1649.593750 -10.100348
1379.745239 1670.424927 112.507141
1605.286743 1395.199585 35.870335
1532.708862 1483.237305 68.895897
1626.898315 1347.707153 114.627632
1388.475464 1585.318359 -29.246008
1543.715698 1433.864746 -30.361523
1645.355103 1468.661865 247.487671
1771.542847 1407.540771 64.201248
1699.785278 1329.269287 92.840988
1596.589844 1398.804932 -40.281925
1406.419312 1596.738647 9.388775
1625.405884 1355.725830 -5.488744
1360.310303 1658.951660 88.401901
1477.779541 1540.611328 11.530046
1802.253174 1434.447266 79.505234
1730.798340 1384.091919 116.920303
1633.046387 1363.426025 190.087875
1742.348389 1465.634888 245.671783
1877.868286 1497.950317 52.434624
1572.704834 1449.320679 47.892464
1610.470947 1574.109375 303.007019
1742.415649 1550.384277 262.799927
1909.097168 1498.265259 10.397834
1592.270508 1397.296753 -5.833480
1697.129028 1342.242554 100.380821
1436.328369 1650.461304 154.623672
1617.696167 1405.667236 246.278076
1796.927368 1506.420898 176.047134
1455.923706 1516.045654 -122.974319
1613.740479 1544.328491 276.149048
1595.288330 1396.672363 101.127548
1430.771851 1605.325073 114.812607
1827.641113 1461.089233 74.575638
1656.058350 1351.844727 183.745819
1773.948853 1484.172607 179.743195
1740.772461 1566.854248 291.444977
1385.603638 1724.809937 74.158226
1604.538574 1389.637329 114.610611
1452.451660 1571.931641 -48.540543
1689.791748 1473.997681 259.956757
1668.116577 1397.875244 200.096954
1758.957764 1403.798584 98.000542
1737.733032 1428.919800 159.023590
1599.714478 1518.850830 271.613647
1367.395996 1654.389648 0.135346
1585.422607 1498.889893 216.848877
1456.979614 1687.332764 149.651398
1674.007202 1324.548950 72.515541
1872.938110 1480.738159 37.388962
1428.934204 1634.309082 -17.971067
1588.387085 1418.463745 94.810570
1432.171753 1583.066040 29.422129
1476.982788 1549.834229 175.850464
1486.407837 1680.856934 146.520538
1658.373901 1337.599487 131.535141
1509.210815 1521.304810 113.079361
1482.482788 1531.240479 151.966187
1581.276001 1547.755737 333.155579
1461.210449 1569.823608 142.668961
1503.283203 1537.047363 198.476944
1679.901733 1331.148438 90.847252
1750.737061 1319.813232 36.069641
1789.279419 1400.349731 67.029396
1649.995850 1569.668091 206.953171
1648.760864 1342.789307 170.424500
1796.889404 1496.962036 184.893814
1803.105713 1437.421021 74.708351
1564.372192 1549.114502 294.117371
1609.918823 1388.563965 71.841515
1567.380737 1459.659058 45.744884
1593.351563 1524.442749 252.060669
1595.384033 1401.962769 123.159996
1437.216187 1666.629272 -83.217026
1890.871826 1476.800049 4.246482
1646.823608 1335.603394 116.613815
1544.013550 1472.837036 16.447371
1582.003418 1430.819214 209.921677
1644.390991 1528.375854 224.353073
1595.420288 1394.460938 -29.758226
1437.172607 1576.985840 122.918564
1385.535889 1657.736816 116.837448
1429.147217 1602.875977 -45.682129
1599.194458 1513.322266 213.302994
1603.314331 1512.788574 248.536560
1642.558594 1345.091187 162.768341
1361.745483 1645.390259 70.254234
1613.968628 1378.904785 87.939827
1681.289429 1378.448853 168.573120
1627.626831 1521.650513 223.871506
1516.656982 1465.157349 -67.888870
1627.347656 1368.344849 123.202660
1645.992798 1348.064209 120.983414
1391.544434 1720.530029 53.606682
1636.666504 1404.116943 252.245728
1415.271362 1688.538940 164.495621
1768.486206 1442.998535 137.646072
1832.609497 1429.352051 6.034578
1431.470947 1619.238525 127.779892
1556.872192 1460.951416 77.078316
1502.006714 1506.299072 36.897968
1605.308350 1381.789917 135.236008
1682.340088 1434.952637 258.159485
1867.875610 1527.300049 129.037674
1626.502197 1344.646729 4.992676
1635.470337 1495.808228 230.076904
1584.547607 1515.921265 224.112488
1753.460815 1483.677490 207.827576
1714.464966 1545.573364 282.675293
1655.370972 1329.216553 93.411972
1680.428833 1362.912231 157.834854
1474.213257 1524.402710 -32.351608
1620.821045 1386.693115 225.304260
1513.607910 1511.897583 148.222061
1576.191528 1519.297729 211.436737
1534.175781 1480.114136 83.149536
1835.989014 1532.496826 134.481491
1650.390747 1404.189819 227.416321
1535.957886 1532.444580 205.420837
1368.281494 1652.500977 96.121414
1452.869629 1578.722656 -48.412659
1809.768799 1390.348999 23.521500
1630.936157 1366.714478 90.617424
1557.189697 1464.851440 190.032440
1755.757813 1380.026367 62.722965
1632.658081 1378.242310 137.103745
1416.615601 1596.425659 91.017387
1508.703979 1521.340576 131.299088
1541.769287 1511.755981 211.502350
1813.343994 1436.969360 67.161095
1584.550781 1515.490845 276.142334
1531.546753 1487.455322 -0.565214
1648.226685 1375.484131 178.941345
1834.074585 1520.696167 135.856567
1624.973999 1361.222290 118.941124
1660.947510 1490.536987 240.048172
1835.990234 1543.610962 170.328522
1420.042847 1547.435425 -129.658020
1429.871216 1574.820923 -21.756021
1780.180298 1509.346436 258.754364
1439.561279 1577.319336 154.469299
1690.357788 1353.947632 124.944099
1367.180176 1629.592285 62.638744
1595.559082 1387.628418 1.250930
1441.355591 1577.108154 132.265305
1674.740234 1319.642212 84.511742
1608.803589 1504.857300 220.191284
1719.163940 1343.242798 79.194565
1580.883057 1549.013672 308.169342
1794.537476 1544.077759 242.621841
1618.448364 1471.691772 241.717560
1596.597168 1393.066284 -17.554193
1536.163086 1485.010864 126.165245
1892.800415 1486.150635 21.702108
1387.890747 1684.207397 119.204453
1719.319702 1416.876587 159.213470
1562.785889 1470.074707 207.469894
1649.553955 1342.560913 89.348900
1683.764038 1300.184814 55.492722
1654.634766 1459.081665 250.375259
1815.212158 1536.110840 243.507950
1515.713135 1475.599731 -34.308716
1706.118652 1477.007202 257.584717
1714.583496 1446.192383 203.688416
1430.389038 1596.486450 108.483261
1777.183350 1485.225220 180.659637
1672.950928 1532.882324 253.770828
1457.196167 1542.629761 -39.678040
1692.403442 1367.181519 133.441284
1673.642700 1321.763794 68.492538
1775.489868 1494.867310 237.429062
1659.816772 1332.191772 117.759140
1474.701538 1519.417847 -33.323528
1592.817627 1476.298950 71.325974
1589.692627 1400.209229 -11.110942
1604.502930 1382.233643 20.891741
1580.335205 1439.139893 77.100189
1438.939453 1597.055542 135.951126
1697.073486 1295.473511 34.666161
1893.431396 1432.418091 17.683601
1579.137329 1521.998535 259.493042
1482.301514 1543.915894 190.633514
1572.823120 1532.083374 237.863739
1693.533325 1360.533325 135.496658
1584.094238 1498.015625 224.525894
1567.538330 1438.644653 17.416363
1663.338501 1325.370728 33.220779
1520.028320 1466.550659 -74.478073
1498.157104 1487.465576 -95.071373
1484.331055 1533.270264 153.260620
1386.444336 1524.124390 -136.286697
1488.225708 1539.623413 131.279037
1491.461426 1501.358521 -37.734497
1610.602417 1437.626099 246.174637
1710.503174 1447.790649 225.123016
1706.855103 1449.890991 218.287491
1589.454712 1418.609375 204.818466
1704.328735 1548.248535 293.748505
1707.269165 1405.002686 169.007843
1798.780640 1426.465698 89.563194
1425.082764 1632.528442 154.284088
1598.367554 1518.302856 255.854630
1675.990112 1314.207764 74.849648
1642.451782 1516.812134 224.586105
1756.502441 1410.205933 112.945854
1489.241333 1502.104858 -76.154152
1371.345947 1700.375366 107.488396
1603.905762 1433.355103 233.901352
1571.314575 1552.096924 315.873260
1680.235352 1417.258057 244.936249
1656.334473 1346.413452 150.290848
1579.185669 1415.821289 -46.741638
1619.011475 1381.948975 85.774300
1575.577759 1430.159180 187.831039
1697.335449 1559.788208 323.658569
1388.216064 1692.811646 109.482254
1904.715698 1493.663696 7.391246
1435.767578 1668.954346 150.557922
1610.905151 1397.702881 160.043152
1586.238647 1519.999756 224.369263
1624.372314 1359.022217 49.110874
1651.631470 1574.239868 305.197479
1866.654907 1485.642822 49.227367
1592.579102 1396.984741 55.089668
1843.067505 1421.305786 17.987467
1414.432617 1603.265259 44.059174
1548.006348 1453.993042 -4.215299
1790.317261 1528.838867 252.232697
1465.376343 1561.503784 42.661407
1623.667603 1518.284546 251.162949
1417.405029 1555.358887 -115.448402
1558.462524 1436.062744 -8.502808
1545.536377 1471.493408 163.324493
1488.673340 1545.246460 197.556107
1854.956055 1504.091064 97.288445
1430.771118 1556.950439 -41.691673
1695.516235 1359.254272 131.009323
1533.724976 1494.718628 102.559769
1625.902710 1417.548462 253.144775
1681.834229 1411.961548 200.284332
1692.225830 1303.410889 63.005386
1776.416016 1409.239990 83.663818
1605.711670 1389.230713 181.124390
1451.875244 1516.324707 -113.865303
1571.964233 1498.275024 209.266708
1568.800049 1421.690308 156.034225
1652.278320 1347.685059 136.915466
1459.480103 1553.941895 165.436630
1847.998291 1475.721436 88.354019
1591.250122 1459.446289 81.687210
1461.607056 1548.258667 33.438293
1646.496216 1422.138184 261.244812
1646.335083 1309.927979 37.080921
1483.562988 1549.222412 58.284168
1483.254761 1690.971802 146.953857
1726.514648 1517.958130 249.601868
1763.122070 1420.046143 114.561050
1616.290894 1550.918091 289.421509
1709.722656 1394.616211 158.891006
1625.774414 1423.737793 256.300659
1458.583618 1564.008667 187.503769
1535.885742 1441.699707 -35.094349
1487.237549 1542.024170 190.383133
1755.564331 1348.682739 29.190361
1642.486084 1338.189331 122.370140
1505.759277 1501.381714 -41.254490
1745.144775 1517.834839 252.772186
1902.915771 1473.288330 5.297704
1735.016602 1390.529419 109.449585
1572.647827 1404.725342 107.617020
1641.718018 1433.563599 275.488983
1597.028931 1419.012451 208.158249
1779.293457 1468.723755 151.969910
1723.238770 1492.197388 251.981247
1611.602173 1404.121826 183.678619
1444.627197 1576.262207 -23.511597
1420.373291 1569.596313 -83.421310
1748.243530 1481.289551 251.827896
1774.487793 1489.967041 185.797287
1394.506714 1702.388184 124.030540
1726.626587 1443.594360 221.716034
1719.582886 1472.692749 263.197723
1564.688232 1554.251343 360.033905
1406.363770 1649.108032 163.913254
1678.455444 1330.439941 121.686790
1824.351929 1424.963867 32.737885
1444.483643 1717.727661 -25.250378
1363.245483 1635.026245 -12.368776
1640.029419 1294.391968 42.570488
1437.829102 1633.913574 142.865173
1733.747925 1457.218018 253.298050
1795.351929 1356.431396 27.975769
1611.257202 1421.145874 37.231144
1638.889404 1497.798950 241.586792
1474.083374 1568.778320 157.493713
1477.649048 1499.415894 -101.887108
1694.965942 1427.844116 259.640320
1363.330322 1637.707520 93.460083
1798.818726 1548.550903 253.651550
1870.242432 1497.314819 63.299107
1674.180908 1543.391235 323.866180
1503.702026 1461.871338 -85.491585
1583.130737 1564.344360 338.185394
1567.639038 1423.316650 -42.097015
1669.956787 1352.217773 166.933899
1630.626465 1550.455322 265.647247
1762.552124 1355.535522 27.779760
1529.645020 1451.457520 -77.105003
1698.075439 1338.820557 105.579659
1788.211304 1415.124390 70.393547
1551.752197 1410.449707 -57.452930
1600.008545 1391.613770 67.401901
1612.944824 1384.250366 172.793182
1482.244995 1542.216064 38.042545
1613.646851 1373.188965 97.928780
1626.162964 1535.744507 248.283905
1631.146484 1349.244263 123.696564
1583.844849 1448.966187 228.867874
1675.794922 1531.145264 255.917847
1590.717651 1425.333374 216.262039
1425.108643 1596.009277 61.395660
1677.440186 1560.895508 277.941742
1409.772095 1597.337891 -8.018440
1746.663086 1395.878418 104.715836
1592.777466 1412.840698 179.737152
1494.099609 1519.229980 6.178818
1724.592529 1329.524414 44.857090
1780.471436 1544.149658 253.473495
1522.249268 1510.267090 198.096191
1406.609253 1605.875000 2.856071
1434.741821 1579.522339 113.012581
1711.335571 1362.817749 103.381973
1776.385254 1423.661621 115.397408
1453.942505 1593.940430 160.043564
1414.857178 1578.911255 -81.395660
1425.871826 1588.092773 79.435860
1602.932739 1455.288940 241.736465
1843.246094 1492.563599 66.225098
1695.212646 1430.007690 227.512863
1625.866577 1361.350952 36.108524
1424.102539 1582.630005 -12.725812
1558.665771 1552.641235 314.294373
1649.007568 1332.215088 62.467655
1691.402466 1314.253540 109.963631
1617.452271 1372.431641 12.581244
1647.258789 1388.622070 242.190353
1389.625610 1729.629272 108.895805
1718.654175 1409.638916 134.962601
1458.668335 1677.284180 143.944504
1423.690552 1599.089478 26.966772
1656.079590 1397.508057 233.313034
1743.504272 1364.337158 62.164391
1569.956909 1535.157227 296.613312
1402.428345 1617.171387 58.821510
1597.961548 1544.080688 291.971649
1836.737549 1468.902588 94.114082
1591.259888 1527.687256 234.995773
1741.102783 1385.926270 95.812424
1540.343872 1486.591309 190.279160
1525.569458 1490.660522 6.754592
1527.815674 1495.044922 175.754501
1491.432373 1517.128906 -83.177635
1429.480713 1599.090942 131.407837
1736.670532 1433.079102 180.131454
1887.620728 1448.734009 6.482533
1692.403931 1426.111694 222.472717
1549.753296 1485.562622 131.009125
1796.141113 1403.148071 46.300724
1632.344849 1354.475708 8.216601
1761.892944 1352.990723 28.666229
1667.943481 1419.759399 251.332108
1574.047119 1621.707275 200.913986
1756.732422 1479.389648 196.011490
1529.510132 1480.128296 37.309681
1801.851074 1479.748169 139.406952
1460.131714 1510.410034 -96.450874
1800.528931 1534.500610 242.197556
1630.737671 1376.716797 202.672287
1536.956299 1500.770996 143.779221
1489.954346 1533.386719 87.176720
1487.117188 1487.946289 -107.756897
1462.856323 1596.780762 169.642242
1623.107300 1528.595337 232.745331
1689.814697 1453.754150 261.294312
1427.506104 1744.992798 34.660522
1600.858032 1387.192627 108.652084
1520.751587 1501.310425 162.606598
1626.073364 1397.015991 227.841156
1698.468628 1310.719604 68.957848
1530.215454 1492.514160 149.577423
1694.559692 1296.262573 67.868736
1480.111084 1540.058838 63.336052
1672.745972 1325.042114 56.066391
1534.178955 1480.050537 47.267929
1524.313354 1496.322876 173.936737
1567.218384 1540.871704 282.520203
1563.940430 1462.671997 179.244583
1466.275757 1478.293457 -112.679153
1824.297729 1458.153442 75.946182
1502.414795 1534.712402 121.517487
1577.065430 1405.865967 -9.618594
1396.405151 1604.518066 28.709887
1612.182373 1400.413574 227.157059
1608.152344 1372.031494 41.795734
1670.248291 1547.559692 266.955750
1468.206055 1526.958618 -49.268311
1395.808594 1648.856567 -49.296589
1454.833862 1540.123047 -37.713573
1707.191895 1444.389893 279.315002
1422.807251 1581.786377 0.749638
1544.076172 1480.465576 176.881744
1755.889404 1370.630981 63.438889
1547.465576 1480.814697 215.467773
1515.312378 1463.275635 -80.567230
1507.917603 1526.015747 189.063614
1407.038330 1606.050415 52.600883
1588.711548 1435.923950 222.288376
1461.252441 1577.479858 126.395699
1615.220093 1370.664063 -7.715327
1494.906982 1522.711670 61.886784
1404.183228 1662.936646 151.203125
1534.148560 1508.738281 203.842606
1412.227417 1681.794922 148.480713
1618.454346 1441.790527 248.968353
1724.380371 1407.740967 145.836899
1425.133667 1639.925659 146.033768
1417.077881 1610.606323 107.213890
1508.869751 1558.698486 211.058609
1515.969971 1505.702271 164.847763
1856.778198 1508.352539 100.355911
1606.132935 1404.532715 217.996170
1504.434448 1469.890625 -62.313530
1461.607422 1572.069458 171.038483
1584.871826 1449.498535 236.865173
1643.626709 1342.826172 74.672897
1364.437378 1685.454712 105.812279
1587.714966 1410.360962 -38.670406
1413.099976 1550.227905 -115.614761
1606.468018 1373.154907 103.575111
1600.249023 1384.841553 102.611938
1691.872925 1437.930664 277.499603
1589.690186 1524.235962 265.777679
1511.258423 1640.207153 186.499344
1777.434204 1373.001587 50.732727
1355.814331 1654.477783 64.329475
1733.663818 1340.273438 36.336193
1596.436768 1461.184326 244.962158
1618.147949 1466.891479 237.264862
1664.856934 1455.617432 258.790039
1860.382080 1461.784058 1.315156
1393.238525 1595.599487 -69.400475
1677.209839 1416.164673 239.010300
1591.832153 1533.488159 290.431763
1691.885986 1288.788208 63.248302
1759.500000 1383.044678 71.148537
1674.105957 1335.089355 95.084099
1886.048706 1468.683350 1.412793
1586.382813 1418.915771 100.683350
1603.491699 1419.538330 224.974777
1374.295410 1663.668579 80.917847
1681.538696 1406.531738 201.185638
1769.784912 1433.918335 121.764702
1644.074097 1351.888672 21.058418
1790.819092 1430.454834 89.923759
1392.676147 1610.260620 48.138023
1418.756958 1556.533691 -153.161331
1736.011108 1464.736328 221.034210
1578.616821 1407.234131 129.231506
1689.790405 1532.275391 234.244080
1623.175415 1572.380493 308.281677
1469.982178 1510.027710 -94.721001
1556.123047 1464.519775 41.258259
1602.646484 1394.405518 168.542435
1626.864868 1380.603271 210.897934
1490.411011 1562.639771 203.158218
1496.270630 1514.641113 8.727533
1707.616211 1345.009766 92.208153
1774.306519 1419.823975 89.336807
1591.138550 1405.911865 187.728699
1753.952271 1479.473511 238.407852
1543.153564 1490.674927 197.836014
1582.282715 1476.613525 237.012589
1688.915771 1567.233154 323.327942
1574.229126 1422.243896 114.942390
1639.464966 1343.530273 54.618515
1684.385498 1298.277710 114.934296
1687.162231 1495.539551 248.998367
1402.494751 1568.807129 -113.091019
1456.730347 1579.428467 108.936035
1658.201416 1340.806030 1.579311
1691.510498 1306.491577 61.539021
1481.744019 1511.321289 -58.598972
1658.307983 1329.104858 137.478668
1622.852173 1407.653198 252.567139
1821.215576 1408.552979 14.824399
1490.257080 1510.926636 -14.407594
1691.734619 1545.700684 296.453156
1770.144043 1467.165649 166.447281
1746.216431 1568.535156 280.650085
1610.985718 1426.801025 258.475647
1684.124878 1426.691162 252.143921
1511.594116 1516.668091 183.184113
1815.126831 1545.077271 183.345673
1419.927002 1643.842285 149.890656
1873.628174 1526.626099 95.847084
1599.230591 1481.299438 223.586655
1845.061401 1403.836304 22.951538
1853.570923 1544.044678 142.165329
1589.036865 1510.309937 257.895386
1671.444824 1410.284058 220.730164
1504.903198 1487.864258 -76.414261
1616.000977 1427.108154 238.620163
1451.483521 1592.255371 -71.353874
1619.637451 1358.544922 79.576691
1571.913696 1531.170410 285.498657
1601.729858 1387.989990 28.740913
1672.732788 1389.631226 185.061462
1458.645508 1572.653198 132.898407
1792.862915 1498.251221 149.525223
1446.255981 1774.062012 46.053272
1640.370483 1335.317261 4.356636
1582.197021 1500.508911 216.196762
1485.422607 1596.476318 176.912628
1791.763062 1507.289917 183.058533
1500.729126 1509.620117 51.362228
1528.816284 1522.618164 201.104706
1428.327637 1583.729248 11.231244
1782.938354 1447.721802 120.949753
1473.251099 1561.003174 45.824436
1827.042603 1422.701904 22.135675
1555.157593 1455.003540 187.960205
1622.062256 1376.106323 -3.720521
1727.442749 1493.177002 261.546967
1714.673828 1402.281616 149.970245
1453.344727 1562.692993 130.698929
1479.162964 1567.980835 -75.529900
1493.768799 1482.925781 -93.351959
1580.365479 1537.917847 267.627319
1708.122681 1323.008057 73.162628
1574.155396 1429.886963 74.441269
1591.054077 1395.210693 95.047241
1774.711670 1464.056885 153.711487
1593.252441 1553.551636 342.621155
1418.168823 1584.158203 109.118111
1613.713501 1373.264893 23.547853
1694.959595 1565.214844 319.487061
1614.916992 1431.546631 265.331940
1662.661865 1479.293823 246.024307
1399.768677 1623.266968 27.839825
1721.834839 1447.482300 181.280090
1373.935181 1664.693604 109.411537
1601.130615 1477.642700 225.627823
1653.356201 1330.323486 84.625343
1714.402466 1497.617554 252.373688
1622.652588 1365.463379 -5.213754
1606.436646 1383.389648 2.593592
1410.555420 1684.267700 161.281738
1609.027222 1378.844482 52.215385
1419.284180 1546.955078 -101.991096
1688.308838 1452.086670 263.052063
1570.883301 1439.929443 60.006367
1626.379639 1390.195801 189.649094
1710.081421 1483.397095 255.166092
1616.660522 1529.270142 238.223083
1464.104126 1560.263672 109.289009
1636.087646 1411.424438 278.519318
1611.000610 1384.334961 44.713654
1561.709839 1462.906982 183.907425
1623.706299 1399.068604 239.292786
1488.936523 1513.440063 -39.699543
1475.242310 1539.130859 58.613670
1564.803223 1452.370117 62.381191
1466.999512 1694.998413 146.974823
1610.763184 1373.810913 95.385849
1583.695923 1599.201904 210.400620
1476.442993 1546.495483 176.961319
1672.701416 1501.462158 250.216843
1495.978882 1624.846191 165.753799
1598.636597 1354.091187 4.102962
1431.035156 1582.885254 128.852829
1726.435547 1374.305786 80.829781
1721.547363 1554.255737 287.746613
1628.808350 1361.521729 147.012115
1727.042847 1431.977417 181.031937
1636.336060 1389.067505 220.281616
1589.989502 1400.309570 76.860298
1609.723999 1525.103882 263.216736
1489.268066 1549.485474 202.205414
1642.278931 1556.873657 299.831360
1408.103882 1596.331787 87.091202
1617.048462 1366.423828 70.101463
1623.958862 1598.031860 184.360062
1541.763184 1478.606567 89.417046
1634.813110 1461.325562 248.157547
1715.379639 1392.066284 141.917786
1411.031738 1624.537354 125.020805
1613.437134 1557.178711 283.489990
1375.847168 1654.018311 82.701324
1680.561157 1312.973022 32.470631
1686.875244 1429.072266 268.522766
1749.824463 1457.933716 268.184784
1800.345703 1520.439575 189.627686
1599.572266 1391.339233 70.869545
1405.915771 1586.372559 -20.973860
1792.391357 1383.713867 34.166264
1574.074219 1433.262329 139.312347
1775.244385 1352.920288 26.737804
1761.977661 1464.897949 259.267731
1585.107422 1443.423340 126.181427
1594.906006 1390.279663 93.601913
1450.241821 1587.725342 17.564268
1498.495728 1527.794312 61.291618
1600.391113 1413.994385 219.785782
1649.694092 1349.507568 98.138901
1638.340576 1354.690918 129.863770
1413.755737 1617.650757 80.725456
1383.593262 1641.596436 87.181572
1621.245605 1348.297363 74.930038
1762.887695 1394.245117 77.817505
1474.536621 1537.390137 74.090149
1605.966187 1437.908203 256.456940
1587.483154 1442.602173 73.250725
1734.416504 1568.749146 296.919373
1414.131958 1663.240356 146.218414
1528.380005 1497.153687 159.270370
1670.682983 1318.322021 65.243431
1603.501953 1408.394531 228.148926
1445.627319 1586.079468 144.914963
1582.459839 1412.317261 142.839905
1481.710693 1639.711792 164.139465
1858.500000 1444.447021 28.908642
1681.065063 1360.768311 152.144104
1698.928467 1457.143188 266.862793
1649.363403 1331.786133 93.719315
1695.228516 1430.350830 236.235611
1516.468506 1516.188477 110.904343
1690.892456 1381.290039 165.559509
1857.357910 1423.338135 15.481336
1509.176880 1478.155029 -54.458809
1564.763794 1546.094604 296.174255
1551.451294 1475.986450 31.325794
1772.308350 1424.720093 104.901871
1529.015869 1489.234497 68.541824
1408.120483 1658.736816 145.739395
1579.663208 1414.196289 12.104198
1472.304810 1542.618164 132.849075
1699.259766 1416.760498 186.333618
1752.326782 1521.416626 252.695160
1871.214233 1489.555420 52.044716
1501.772949 1526.855957 104.943047
1855.292603 1525.464600 117.330620
1410.805176 1557.566040 -120.825401
1580.078613 1522.744385 279.942993
1680.573364 1415.616089 256.883270
1662.238892 1440.221191 262.486877
1727.355957 1444.266724 196.588455
1701.925293 1346.109253 95.220932
1781.062500 1503.394165 191.031296
1410.154053 1566.292236 -65.555740
1529.646484 1427.150635 -68.041702
1665.175415 1552.517822 282.144104
1518.242432 1404.585083 -42.791576
1516.097412 1480.922974 -72.743858
1644.199951 1342.567871 41.112198
1538.175293 1464.374634 -21.142490
1615.745361 1410.302612 201.947113
1754.068970 1563.134399 258.556122
1467.432129 1551.612549 51.901279
1499.898560 1501.325684 -14.421991
1491.914673 1527.037476 163.243301
1397.178223 1700.719482 16.675243
1575.985596 1449.778564 150.783371
1620.029663 1519.760742 227.317047
1516.256226 1591.835815 179.001434
1617.983398 1365.534424 81.011948
1748.390869 1352.431763 54.798264
1607.417847 1382.419922 131.666122
1673.596680 1403.549805 212.012512
1572.691162 1453.119019 210.219925
1806.777344 1531.011597 195.068802
1672.460205 1415.732056 216.402695
1381.779053 1631.048950 64.203087
1443.056763 1577.899292 -19.457651
1440.857056 1542.117188 -77.844749
1572.008545 1348.795410 -0.826876
1599.561890 1515.619873 281.482513
1787.041626 1401.896484 60.486195
1656.197632 1352.694824 177.198853
1761.618652 1506.090820 252.863785
1510.507568 1422.773926 -64.835464
1524.440796 1496.348755 96.131592
1565.424072 1546.509888 306.515869
1591.402222 1400.146606 14.107123
1457.907715 1510.637695 -125.175545
1394.578613 1621.960327 -42.766819
1777.453369 1437.903320 112.572937
1597.324585 1394.542480 139.717392
1461.609375 1574.464111 186.001999
1855.197754 1478.001465 26.263380
1707.242676 1316.070313 75.232162
1514.371826 1500.369995 52.652077
1604.860107 1386.948975 125.556885
1703.742188 1436.117920 212.837479
1585.504517 1407.924316 142.948914
1616.000244 1580.651855 324.605804
1528.921143 1500.363647 130.339767
1618.423218 1580.560425 313.549774
1854.342041 1429.512695 8.467992
1545.570190 1480.055542 187.359436
1369.511719 1626.989868 55.973099
1477.072632 1545.717285 127.718872
1394.124023 1634.902100 85.079048
1611.111206 1548.596191 286.272217
1828.981201 1551.597168 228.918747
1719.043579 1435.192261 195.987473
1652.940063 1379.691650 188.106171
1641.003174 1394.865356 265.305389
1707.255371 1285.954956 46.282127
1601.490234 1394.524902 191.101685
1646.963013 1576.731445 318.681488
1720.885986 1387.854492 132.567093
1675.562134 1524.562866 250.940552
1562.656494 1396.044678 -44.810432
1565.469971 1559.514526 305.040100
1531.849487 1478.098755 40.027721
1487.979126 1525.295166 5.346169
1571.710205 1523.227295 246.631271
1667.660034 1419.020264 243.783020
1552.193848 1524.317139 194.006424
1387.633667 1656.345947 97.710480
1469.358276 1497.871704 -110.811806
1449.941895 1577.515259 153.339111
1707.001831 1288.731567 50.936810
1619.536133 1402.063843 232.379700
1586.857544 1512.414063 254.713882
1655.971191 1327.844360 42.578434
1492.628418 1488.657349 -73.898766
1480.596802 1534.103638 172.755814
1399.113647 1602.311890 10.304749
1730.800537 1479.166870 265.940918
1586.220947 1557.019043 342.710510
1669.313477 1373.220703 174.927155
1815.797852 1434.656494 59.637939
1738.835083 1350.819214 59.026295
1394.656616 1611.888062 90.513519
1465.787842 1554.970093 172.511856
1403.790039 1652.002441 118.639336
1760.940918 1401.570923 88.974960
1448.785156 1552.303345 -7.269661
1539.091553 1498.417114 122.779610
1420.047974 1665.895142 142.720551
1597.393555 1414.516235 232.041260
1407.366577 1693.530273 128.197891
1455.364014 1577.909302 170.584717
1455.929810 1607.456421 186.426437
1725.339478 1416.950439 155.868027
1854.302124 1440.926880 17.983730
1715.911621 1432.576050 197.051254
1512.000366 1586.225830 185.850174
1476.291016 1500.066162 -90.647026
1653.298706 1352.951294 -0.796089
1664.345215 1319.489868 15.867935
1658.440063 1432.124756 256.144073
1596.437988 1385.388306 62.543213
1589.928101 1398.955322 105.561798
1435.051758 1600.086304 62.496704
1635.933960 1433.230591 263.358521
1451.394531 1565.718750 129.961441
1447.633545 1530.693359 -123.070297
1392.034424 1623.020874 97.897629
1608.702637 1500.556152 222.721558
1736.875488 1377.646240 85.344742
1593.885498 1447.846680 230.944550
1458.996216 1568.061035 -62.703102
1830.714478 1480.383301 94.360451
1703.248535 1443.824707 263.780762
1850.111572 1427.595825 8.918226
1562.020508 1461.843506 166.538925
1583.624512 1407.413086 134.794235
1476.869751 1549.594116 156.446915
1753.165649 1474.266846 244.614548
1594.362549 1405.833862 209.810349
1648.203735 1329.068115 88.683601
1573.108154 1432.376709 2.565960
1435.412231 1620.498169 136.859482
1556.421265 1533.765259 198.587906
1646.581299 1353.354980 7.933444
1618.782837 1421.029541 253.673203
1419.051147 1582.163940 99.159187
1623.969604 1360.538208 70.957542
1356.013062 1675.082642 72.419731
1805.652710 1515.122559 159.195282
1562.895386 1465.874878 212.069351
1397.278198 1648.438965 106.025253
1558.975342 1426.991455 -32.335697
1898.778687 1476.905029 0.924868
1457.756714 1516.317627 -77.484390
1384.782593 1616.221436 23.633522
1400.610840 1604.061401 77.146332
1666.399414 1580.607422 295.751923
1566.274292 1546.527466 304.931519
1757.101685 1362.548096 40.626606
1408.974854 1579.977173 -91.918915
1786.561035 1507.668335 177.322540
1714.476440 1387.911987 131.111084
1540.352295 1446.737305 -55.990562
1530.878052 1492.920410 -25.689447
1654.062012 1334.396851 107.269699
1420.361938 1529.645874 -130.319000
1693.822510 1450.911499 265.703613
1497.688477 1517.533691 59.410130
1695.504883 1377.253052 145.864029
1684.792358 1414.729004 203.479752
1522.466309 1544.871094 209.963852
1883.373291 1504.922119 56.367142
1793.366211 1511.424805 185.624405
1634.764648 1399.977783 212.930664
1528.363892 1544.177979 215.460648
1847.624023 1519.017334 127.164604
1618.439453 1366.474609 66.987404
1815.314087 1468.080200 89.635101
1762.878174 1393.456787 98.879265
1430.620728 1628.996704 152.519241
1447.912354 1632.639160 151.077347
1723.696899 1394.844360 147.163925
1515.784302 1516.470703 135.804962
1841.744751 1530.445679 143.137726
1713.409424 1475.840210 279.812256
1731.537354 1570.697510 304.696594
1504.717529 1550.918823 195.879425
1589.491943 1471.395508 242.337387
1610.008057 1349.709473 -7.962162
1685.565918 1313.206299 92.157608
1701.842041 1538.081665 252.592789
1533.118774 1492.421143 96.914337
1401.826172 1638.113159 126.132141
1759.540405 1371.020142 58.888889
1773.445923 1397.656006 68.207497
1761.268066 1442.031250 144.893845
1705.055786 1564.814331 322.058289
1740.573242 1575.854736 289.379669
1555.041260 1555.802002 342.082703
1841.689575 1491.881714 95.308701
1586.980103 1524.875732 248.028473
1371.925415 1628.453003 58.525814
1850.544067 1489.621338 75.954674
1659.839722 1336.657959 107.567986
1584.281494 1402.492920 47.700596
1569.333008 1491.299561 116.860260
1609.390503 1393.877075 207.864594
1636.985474 1403.648560 245.215515
1559.569336 1460.310059 206.738922
1457.573242 1570.011597 99.322716
1827.153809 1427.785645 27.039602
1441.406372 1579.462280 -15.348337
1713.701660 1535.966187 262.575806
1552.932739 1568.539917 339.065582
1737.864258 1546.923950 279.111633
1769.992676 1454.399048 150.209854
1690.113159 1559.927734 297.757690
1414.794434 1647.757324 156.344772
1436.658325 1576.234619 47.308475
1399.509399 1598.069458 91.874161
1523.927246 1506.096680 187.591080
1378.566162 1639.319580 99.822441
1595.704224 1392.626587 -4.339403
1749.038208 1365.536621 66.353271
1377.495239 1661.352905 40.050701
1597.653564 1387.668213 18.210421
1587.534546 1494.990356 240.628204
1568.631348 1428.565796 -28.364622
1607.068604 1402.223877 157.913055
1609.979736 1575.695068 237.828781
1789.171021 1395.155518 32.125801
1582.319580 1513.096069 214.757721
1493.613281 1496.358398 -7.768723
1710.562012 1392.590698 149.025528
1700.674316 1300.543091 35.405586
1640.628418 1341.736572 45.330967
1512.340088 1512.718506 196.733658
1508.888916 1496.396851 21.333574
1612.737793 1568.497314 314.323181
1623.955688 1563.881226 324.742889
1725.949707 1396.037720 123.725693
1461.117310 1561.247681 139.078522
1660.316162 1322.837524 78.971466
1696.731689 1522.394531 257.771698
1786.102905 1454.393677 122.194626
1665.626831 1323.186768 53.290932
1505.390869 1515.346313 165.519547
1624.063354 1361.387695 116.780449
1636.395752 1379.809692 159.796173
1728.302612 1378.206055 110.948601
1661.118652 1450.038574 274.165405
1599.064209 1402.481445 113.086143
1578.124146 1399.522949 102.497215
1568.373535 1455.183838 97.983513
1763.683960 1519.621216 255.889267
1522.931152 1505.234253 23.046093
1558.384033 1533.235107 270.959717
1652.556274 1325.769043 88.710152
1613.355225 1365.753906 67.191437
1866.549072 1505.790649 74.211189
1706.839111 1314.653687 28.268381
1700.918091 1327.467651 89.345665
1628.121216 1378.148560 159.575928
1649.552246 1585.848022 196.381363
1541.898682 1572.053467 329.961090
1537.908569 1459.072388 -11.198527
1779.774658 1498.615112 234.239105
1749.981445 1551.567627 256.528809
1547.868896 1490.932129 142.172546
1602.327881 1385.981689 34.181286
1793.865112 1516.398193 198.091507
1645.216187 1369.417969 218.802841
1480.414185 1492.904785 -116.712868
1571.018311 1443.874268 220.541229
1426.199951 1704.970093 150.722580
1766.952393 1335.455200 29.856918
1515.769653 1713.841675 141.082153
1793.137939 1400.700317 47.119865
1814.114868 1458.148193 109.683296
1453.815430 1518.362427 -116.774612
1498.175537 1563.915527 193.591309
1486.674927 1499.415161 -117.857124
1623.623657 1361.440552 104.651421
1506.275757 1530.385864 204.635620
1663.025391 1326.840698 59.159271
1599.141968 1406.752075 151.498154
1572.556030 1432.402466 108.022446
1397.823853 1612.719360 80.256767
1388.140625 1657.468140 131.912842
1524.729492 1497.780518 169.744507
1760.151733 1403.894653 99.383347
1577.893066 1455.618652 23.324400
1575.921387 1518.265015 296.170410
1665.439575 1495.035278 240.135605
1692.427734 1428.617188 217.938187
1619.269775 1411.422363 247.365936
1481.099365 1467.962280 -106.333916
1617.077881 1358.686768 -14.988406
1579.890503 1427.524170 122.759232
1726.934814 1460.747681 262.272217
1548.520874 1567.583008 207.333359
1617.132813 1378.641968 183.644012
1409.181152 1620.247681 100.992645
1589.744751 1401.263916 -9.567828
1463.282837 1560.215820 128.630981
1755.921387 1317.779907 37.664860
1472.715820 1579.142456 197.650711
1759.847412 1433.997314 125.929146
1517.092041 1482.367432 -23.683735
1405.407471 1584.303101 -68.221489
1683.646484 1382.814087 170.502563
1603.580811 1366.252930 118.584930
1617.812622 1381.711304 196.469193
1769.565796 1350.361816 29.996094
1647.708984 1449.663208 252.362167
1736.058716 1340.828735 51.506393
1601.882935 1486.337158 236.838196
1609.764038 1374.310059 8.133540
1530.889893 1486.463501 28.400604
1655.075317 1328.725830 131.284851
1617.901611 1360.981689 93.422470
1579.087402 1416.195313 7.952542
1767.414429 1410.665894 99.079033
1534.338623 1532.640625 201.256210
1479.909424 1537.638184 73.651466
1385.498657 1636.474121 102.083130
1611.807129 1390.822876 152.741943
1596.827515 1502.474121 264.541504
1503.033691 1517.441528 174.569656
1454.588257 1609.682251 156.761017
1824.134399 1507.863159 162.678314
1476.506836 1535.668945 15.659307
1646.684448 1570.978516 289.770081
1728.343872 1543.536377 272.522217
1678.753540 1322.473022 35.720234
1640.309570 1357.330078 129.608078
1533.417236 1488.037476 175.978439
1654.248657 1409.893555 261.344208
1613.477905 1461.097046 90.465637
1619.988403 1388.783813 228.449142
1650.369141 1330.488403 42.182781
1821.267456 1505.698242 140.599579
1512.269409 1508.515869 135.611908
1427.301880 1654.041504 156.490097
1822.274048 1540.190430 234.731461
1589.780640 1531.658569 238.404373
1525.793213 1451.848267 -81.573906
1350.103760 1665.383179 69.119301
1710.409424 1551.912109 283.939606
1552.056519 1563.556152 332.885986
1384.007080 1615.436401 32.716999
1468.561890 1549.269775 107.824013
1793.787720 1436.812866 93.053421
1888.222900 1512.919800 76.457115
1568.189331 1561.953735 346.826508
1526.459717 1453.299316 -74.073654
1654.488525 1376.633057 209.169037
1430.294189 1577.779419 101.117157
1706.719116 1359.828247 111.582336
1568.257568 1458.913818 172.575058
1438.111450 1583.136963 99.470726
1592.872925 1436.857666 213.700119
1753.712158 1476.408325 257.362976
1789.223755 1405.959595 63.432442
1696.218750 1432.334717 210.482498
1548.211426 1484.054565 163.575500
1404.677124 1633.314209 125.152908
1424.960083 1587.039063 124.172714
1692.278320 1357.541138 128.290497
1784.242554 1503.003784 234.851181
1564.046021 1562.603882 345.613617
1404.188354 1677.228149 128.643906
1737.890015 1414.647095 134.993591
1692.862427 1311.188354 46.173828
1732.656250 1456.074829 254.203720
1591.918701 1409.069214 49.903511
1624.562744 1372.454102 101.571335
1494.693604 1454.676270 -95.020500
1437.005005 1602.023804 136.307022
1682.909180 1417.914429 261.087250
1662.353027 1322.531738 66.246071
1541.554077 1500.872437 198.723160
1537.700439 1438.182007 -71.107925
1571.113281 1414.263062 8.078768
1588.800537 1527.528931 298.607819
1591.904785 1406.433350 137.059204
1352.854980 1675.276001 68.148933
1607.190918 1387.622314 152.549469
1357.018066 1641.514893 48.816479
1606.762695 1392.184570 59.457897
1558.664429 1424.460693 -44.323997
1669.160889 1358.008545 174.107254
1707.778198 1417.169556 185.020187
1361.737427 1631.974243 78.537956
1450.702881 1611.853027 134.725006
1499.571533 1571.914551 205.493408
1506.083252 1519.439575 187.957718
1555.682861 1432.673950 -8.282907
1674.070190 1388.945923 170.740295
1692.251953 1352.553955 126.316216
1573.347778 1527.166504 316.718750
1670.670776 1551.854004 336.110687
1657.554321 1336.173096 130.491913
1442.504761 1544.171631 -40.699261
1447.413940 1611.687256 147.020676
1821.156738 1493.125732 123.701004
1614.885376 1348.978516 -0.385510
1709.078613 1388.983398 152.845093
1502.643799 1524.863647 146.400223
1570.040771 1407.084717 98.373314
1658.096436 1364.153564 162.726685
1415.688232 1575.156494 -84.029228
1601.840820 1411.098022 200.863251
1451.300171 1560.932129 65.696800
1751.700439 1419.677490 119.740784
1459.427612 1550.702148 -7.472742
1736.875732 1471.038940 266.599548
1487.938843 1546.237061 197.974304
1648.359253 1422.626953 270.622894
1527.976929 1557.944214 208.074371
1624.992798 1537.936890 256.355591
1489.272339 1491.651978 -29.921101
1790.175537 1398.216431 48.028191
1518.431152 1481.630493 26.579000
1733.613159 1384.664673 112.318977
1539.243042 1574.509033 331.606384
1499.483154 1526.443970 -23.481913
1478.419067 1558.411011 109.677742
1412.769653 1617.822021 132.393921
1667.270508 1327.929810 13.768554
1523.268799 1483.072144 -16.951090
1816.331055 1543.767578 175.248932
1418.302856 1551.242676 -122.265495
1549.311523 1522.476563 220.633362
1603.160400 1419.457886 46.449528
1707.618530 1355.222778 129.253326
1684.186157 1435.188354 267.553162
1657.962769 1333.917236 121.688004
1681.687744 1418.712891 209.181412
1627.151978 1356.465942 37.050503
1889.933960 1471.726318 3.971793
1728.732544 1305.710083 50.272423
1480.282471 1523.352661 30.651260
1450.668335 1568.842407 93.040680
1516.616211 1481.552246 21.419209
1499.452148 1468.078125 -98.901390
1584.572754 1507.453735 231.424347
1453.704712 1556.152588 125.047142
1500.947754 1520.858154 -23.136726
1820.518921 1466.123535 114.085381
1435.391602 1625.344360 -76.033539
1469.726807 1683.529175 155.570282
1520.837646 1489.807007 45.157642
1718.111816 1520.714233 250.148788
1505.036865 1516.222778 132.533447
1791.349976 1482.592896 150.765747
1492.400269 1530.116699 154.005127
1501.061523 1482.211670 -96.934021
1373.377075 1689.735596 36.451908
1418.633057 1563.205566 -88.846268
1551.301636 1446.021606 -72.782249
1729.660645 1505.488770 251.917770
1750.815063 1562.677124 255.207260
1581.068115 1415.677612 -1.554805
1370.134766 1671.913818 107.918732
1500.310913 1482.230225 -80.954544
1621.312622 1534.844360 236.680588
1395.103027 1646.685913 134.293594
1639.259155 1548.203125 227.089020
1862.482544 1468.933838 42.050758
1596.873535 1490.632568 245.448975
1622.329956 1404.767700 200.542435
1379.381592 1638.125732 89.054817
1442.521240 1556.485352 -41.181881
1600.357544 1539.146606 280.256561
1440.999268 1568.834961 32.104916
1423.180542 1589.337280 100.431740
1451.061279 1676.348877 155.121353
1444.832520 1580.592651 -50.145111
