ply
format ascii 1.0
element vertex 1416
property float x
property float y
property float z
end_header
233.690506 2211.262939 361.411377
207.574249 2084.543213 383.920593
192.811783 2080.888184 497.683441
60.294010 2088.555664 348.953094
-32.626339 2076.866455 461.218201
168.302231 2233.195557 290.307831
-78.317421 2048.015625 593.949158
-3.546048 2088.280762 335.780518
252.429749 2231.695313 395.074036
96.686195 2107.158936 406.890564
142.816315 2319.253906 271.993286
253.063263 2132.166992 518.619446
133.707825 2081.625732 444.003235
197.807449 2087.779785 417.706360
-39.107288 2060.177734 541.835022
168.001511 2260.643066 274.559845
119.567574 2279.290527 241.993912
217.428909 2217.772461 348.840912
262.335999 2225.186523 462.367798
293.673615 2255.222412 509.519135
199.598907 2081.282715 368.025055
248.935349 2129.174561 533.230347
119.445763 2157.029541 229.867203
173.373535 2164.388916 268.371094
-144.444031 2033.580322 554.837769
231.030716 2258.045898 376.137543
285.068085 2108.478516 424.114380
154.161926 2376.894775 288.381134
285.359406 2307.255371 419.264282
-126.079033 2025.898682 432.755188
204.304367 2297.423828 351.601349
218.452087 2083.288086 460.932892
147.632187 2072.133545 528.640625
277.030609 2119.903809 619.719238
243.363861 2122.811523 595.447083
183.817596 2108.524414 228.011673
265.756775 2111.336670 376.112335
170.002167 2085.910645 520.677795
266.100403 2120.348389 465.294647
180.262497 2086.072510 458.400330
191.628098 2090.205566 471.769318
122.884598 2296.672363 229.481995
180.947250 2085.079834 384.154083
44.456047 2070.363037 552.346619
223.105469 2127.946289 340.418701
226.245651 2161.060303 322.682709
295.259857 2345.990723 416.979126
15.014586 2064.194336 651.277466
151.276581 2155.457520 247.814285
186.488190 2132.361816 526.259766
-161.877747 2047.775757 446.893860
52.221828 2084.956787 684.039124
61.451237 2054.612305 601.560242
109.987671 2092.669922 309.644104
175.599716 2194.309082 282.343414
150.607849 2110.740967 249.346329
265.727264 2094.482178 397.026978
238.226837 2144.313721 551.186829
267.866272 2161.441162 443.563934
270.525940 2119.692871 400.299072
20.517530 2044.443726 605.242004
187.041351 2257.694336 315.549408
102.961510 2120.407959 631.114380
75.568703 2054.716309 572.553833
154.331665 2346.941162 298.913727
73.706543 2085.356445 632.921204
248.626556 2142.945801 482.738495
156.131287 2296.142578 285.835358
200.357681 2326.945801 350.922058
196.214005 2139.754150 530.988159
157.836975 2107.540039 244.991974
120.660011 2085.156738 346.871338
307.348145 2138.426514 585.896423
-5.785904 2040.401855 598.084351
-103.159157 2059.336914 583.736328
93.062981 2139.941406 364.607605
-46.450531 2173.712402 734.857361
257.001556 2349.675293 406.736542
200.636597 2255.217773 331.923981
-50.283405 2071.375488 404.621368
207.360062 2103.431152 316.870850
306.815369 2145.910156 602.309448
248.860580 2260.754883 398.172638
20.620924 2094.569580 386.597687
44.047726 2056.656494 656.852539
4.062723 2039.927612 682.815918
90.870850 2133.789063 629.844604
246.548340 2167.496826 478.429352
92.494171 2064.734619 557.664673
144.520996 2070.156006 555.213562
166.444077 2082.420654 386.948792
289.227478 2180.599609 428.414124
300.278198 2161.006836 590.030029
220.082626 2108.235352 499.010773
305.952087 2231.176514 517.556580
173.394547 2086.954590 364.091156
-46.192291 2048.167480 582.606812
263.299530 2092.978271 394.494965
234.831482 2269.544678 367.078857
111.334534 2072.324951 249.564438
-73.371368 2061.184570 509.744934
-139.504410 2046.505615 460.180969
233.726181 2108.936523 388.994324
274.724426 2101.059082 412.586365
178.235291 2118.333496 264.877991
197.919449 2087.897461 458.871307
56.852642 2079.553711 680.596130
-137.374695 2078.356445 532.381287
-31.496220 2067.631348 552.635254
-68.093788 2068.572998 420.060883
175.017014 2339.497314 307.052673
281.654663 2138.785400 437.134460
142.825653 2066.163818 577.910034
-36.667240 2087.211914 403.496613
73.111649 2090.063232 640.774963
-21.604641 2045.661621 679.088745
70.411148 2080.855469 487.410095
-32.796276 2081.192383 411.181152
134.039536 2116.263184 275.322296
245.924332 2098.160400 457.093292
243.525726 2163.467529 370.043671
42.514572 2095.505615 347.620697
230.507034 2215.506836 358.560028
145.431030 2084.872803 565.944214
112.430840 2093.235107 352.162292
236.675827 2166.058350 354.138641
211.567200 2226.468994 346.243256
148.721283 2220.641602 257.737732
244.015381 2346.758301 406.849518
151.188828 2159.960938 238.620392
-65.317566 2026.957275 664.789185
270.223511 2097.437744 441.300873
161.218460 2088.708008 308.127747
179.830414 2100.344971 306.888184
187.380295 2121.883545 293.729553
-42.513577 2052.054932 597.096497
199.959030 2097.694580 399.198059
309.400452 2131.017334 597.681152
206.527695 2166.715332 311.807068
287.185577 2145.757568 568.137634
95.988068 2056.353027 591.896057
262.482941 2200.949707 599.769653
126.247276 2310.535400 216.359055
227.491898 2097.132324 347.757538
178.963379 2081.119873 402.075775
123.573921 2104.507080 256.374176
253.103561 2171.760498 386.545044
49.492043 2077.367920 508.388580
74.836739 2071.331055 589.809937
83.511642 2116.639648 368.031189
267.016266 2237.113525 457.751862
-107.912193 2095.356934 483.076447
128.246796 2105.885010 276.785034
83.477638 2089.552979 443.684326
163.575104 2080.053467 482.343964
183.266891 2297.059814 318.806213
178.567337 2094.594727 386.225769
-57.110184 2053.159912 583.726746
-46.442215 2072.164307 422.631165
155.057098 2278.288574 276.784180
108.396667 2118.802002 266.414825
170.940323 2257.829590 281.989044
30.577866 2083.197266 552.617371
112.950111 2097.799561 427.339935
234.951553 2171.368896 495.242004
209.458084 2261.499268 345.309509
-91.504822 2073.841309 422.920013
177.201462 2075.794434 372.313171
164.440369 2082.522705 433.277588
289.299683 2152.013428 431.846832
58.289886 2097.602539 651.460754
126.966469 2307.230469 251.807343
12.931788 2095.669434 406.312195
265.899994 2304.440186 482.757629
124.275719 2083.302979 486.437225
213.854599 2163.185791 325.983154
234.369431 2155.023438 497.754150
0.543761 2086.877441 426.476074
81.419868 2073.177246 619.233582
203.186310 2312.783936 348.945404
41.278648 2073.448975 485.363983
-78.718880 2069.564941 385.230713
153.919098 2091.341797 343.549988
172.191925 2089.047363 489.281799
255.505798 2158.435303 358.944763
153.184723 2074.264160 528.243896
-153.465881 2049.766602 433.688507
143.590790 2070.901855 557.676758
167.847672 2088.906738 338.649567
-2.145209 2069.422852 519.156067
216.383972 2247.448242 369.432831
142.402588 2082.277100 474.092712
77.343330 2097.906250 401.764435
134.689438 2121.817383 211.138977
266.884155 2101.710938 441.528839
-46.536930 2046.737183 571.765320
222.464020 2336.803955 383.520264
273.175781 2142.995117 560.468384
278.964081 2136.758545 592.645447
223.022827 2339.875732 389.904968
259.505768 2142.038330 386.894958
-160.863358 2054.762939 443.524170
224.648849 2290.960693 375.876099
52.193260 2095.424072 370.343384
136.269089 2259.665771 250.565811
250.039948 2136.726318 549.620178
223.849167 2150.741211 481.574432
-113.218216 2051.589355 455.215332
-109.948486 2059.320557 400.605011
-47.618843 2036.776611 621.646179
226.911499 2107.543945 360.043396
242.946518 2125.918701 520.497925
294.799011 2273.687500 425.519257
192.946106 2330.095703 340.563324
207.255417 2083.873535 401.843781
177.510941 2094.763916 546.563171
-35.073296 2034.602173 631.771484
235.607574 2164.466064 474.042511
227.044083 2336.126953 372.922333
53.242233 2092.752441 351.322449
177.798157 2081.926758 392.171265
114.456200 2319.405029 245.219574
60.260525 2085.318115 485.349792
148.797836 2092.199219 563.921204
220.448303 2329.156494 494.614655
170.554321 2109.759033 316.514801
151.669937 2229.865234 258.753510
167.613327 2384.971924 327.678406
128.569946 2073.880127 556.374023
87.581680 2100.673584 253.968689
-25.492392 2066.864258 403.747314
-62.063358 2098.147217 568.610168
125.944710 2285.362061 245.335907
318.355774 2274.645996 419.317261
273.076080 2112.334473 408.108185
290.324158 2154.617920 556.157104
171.506531 2083.526611 435.155914
-135.207077 2058.522217 432.698792
159.467865 2118.233398 230.834824
207.602005 2089.083496 478.576782
106.716064 2085.299316 346.154480
128.127899 2191.726807 221.973175
-9.697062 2082.449463 400.901215
231.890350 2092.922119 348.690125
91.491707 2072.182129 633.741882
140.146698 2268.891357 255.929535
-79.274612 2062.177246 485.781891
144.069748 2231.358154 243.681686
119.808784 2108.991699 249.843109
145.246262 2077.607666 506.618378
155.581528 2100.748535 447.438324
72.873123 2076.231445 506.961517
124.944183 2054.879639 590.792053
-168.437500 2046.148071 536.023010
247.694397 2145.052246 558.323364
22.985319 2060.480225 583.784607
231.373520 2256.364746 382.982941
241.655930 2102.257813 362.123138
143.931061 2090.035156 330.144714
285.384369 2300.318604 439.773651
196.630539 2153.978760 302.948181
189.766220 2295.742188 332.430115
51.415096 2052.346191 594.254395
233.785278 2150.843018 519.017761
-51.948421 2072.134521 409.591461
168.817169 2223.183838 285.097473
203.122269 2089.963379 338.954315
268.984009 2111.320068 398.159119
-134.015778 2060.002441 441.400665
274.108643 2135.459229 554.199219
174.006744 2093.287109 294.914459
-6.551371 2078.007813 317.414215
138.578476 2113.731689 258.330902
48.784199 2111.515137 278.675720
191.912994 2326.757324 339.389221
277.618713 2247.829346 478.341888
125.529449 2079.243652 539.462402
57.110874 2093.274658 667.557739
122.524490 2074.840820 575.084778
31.742075 2063.061768 536.577271
43.179169 2088.683350 695.078735
201.525803 2118.063232 503.465057
-159.264847 2040.891602 509.350952
87.776207 2058.861572 574.780212
88.480934 2096.407471 304.143463
44.908421 2065.036865 641.588318
23.073978 2061.156006 582.951782
286.222595 2243.687988 438.013458
-88.480446 2027.384399 626.931335
256.887604 2144.928223 517.383728
-9.101101 2072.735352 377.898560
-0.822328 2086.986084 709.801697
125.655174 2265.328369 223.658218
-90.965256 2039.160767 638.699036
87.489769 2099.909668 344.678345
214.087067 2219.116211 343.297241
214.320633 2131.780029 325.235870
-113.215256 2039.479980 529.841919
-8.788751 2076.382080 512.045349
135.157379 2058.074951 574.906921
-6.218020 2068.012207 575.650696
255.268677 2322.468750 411.591583
260.732269 2103.934570 461.315460
-146.395538 2076.345703 526.820801
-115.222946 2057.316406 524.058228
206.069702 2369.096680 373.284851
68.405960 2077.605713 525.576172
33.851677 2060.235352 558.983948
53.698528 2084.552002 668.904236
104.930115 2416.557373 238.276596
135.297287 2111.264648 240.128387
67.989876 2052.293701 603.208374
63.531399 2106.297852 287.921661
292.489838 2265.923340 415.397827
64.282784 2090.010742 341.117218
198.576324 2354.504395 364.717926
139.958588 2396.221924 280.897308
72.101761 2093.479248 456.991699
282.622223 2104.419189 415.194305
168.983871 2089.828125 490.778015
234.863205 2154.853760 347.781616
306.690796 2177.010742 418.821503
-71.748154 2084.843506 474.456604
208.715103 2115.532471 491.176514
286.611969 2323.919678 426.952454
-95.908844 2057.455078 527.920532
84.155663 2072.474854 540.662048
64.743767 2143.080811 661.948914
207.373932 2090.773193 448.596100
62.132942 2096.574951 295.137634
123.640671 2199.508057 219.035034
237.803497 2088.298828 419.462860
-147.637741 2070.156982 534.753052
-38.979305 2089.701416 431.545410
-2.282391 2086.074219 414.515472
232.623138 2127.842285 336.920044
26.396122 2097.212158 727.627136
30.557735 2065.144775 609.202026
124.290848 2095.360352 490.439789
131.192612 2079.120117 508.744171
75.832893 2067.591797 554.109802
132.572189 2268.448486 211.926361
223.204773 2082.779541 438.805420
-152.969193 2057.726318 442.069733
233.219803 2366.236328 407.497345
236.038879 2102.292236 422.848114
147.994019 2082.651855 519.300964
-38.827366 2070.804932 480.564697
169.035248 2093.504395 438.186188
124.638916 2096.779297 293.095001
279.086975 2142.582275 564.228088
176.085037 2140.646973 262.347778
170.104553 2342.105957 315.050018
173.052032 2095.594238 299.186829
185.416153 2108.826172 319.140472
305.688873 2254.265381 480.008301
41.251266 2065.324707 642.764282
80.499870 2064.623047 593.115173
235.965744 2091.510742 371.587921
262.915833 2094.432129 396.123138
288.175415 2289.546875 420.664581
302.682465 2123.705322 622.296326
-100.377579 2046.378418 554.614319
166.408951 2089.573975 351.652496
67.174744 2091.258545 324.342712
265.140961 2185.831055 551.381042
165.780457 2100.337891 274.994690
83.728798 2098.482178 443.166260
234.037506 2209.330566 360.684753
212.041031 2261.023193 348.529297
136.282608 2073.847412 513.318726
-42.203564 2067.068115 558.426147
254.500458 2097.327637 439.737732
177.561676 2112.246338 301.783142
108.301056 2370.512207 250.167221
56.473991 2104.784180 427.671448
229.759048 2219.394531 358.807587
124.726280 2064.758789 593.148193
212.579636 2338.315918 376.844208
252.989929 2144.552979 368.556213
134.137939 2085.730225 337.631104
246.429306 2136.805664 538.196777
289.229156 2292.259766 434.634247
191.382919 2082.232910 401.457764
175.585754 2112.536377 532.484436
175.067245 2145.128174 270.207764
219.156433 2142.105225 530.670654
150.136505 2078.322998 514.401733
280.242645 2138.719482 546.768921
293.937042 2283.196533 420.951355
216.209213 2200.830811 335.586487
-32.014069 2039.097778 618.510559
271.713104 2226.818604 534.921570
117.695541 2166.100098 395.937042
126.670204 2165.527100 624.200378
299.854736 2129.612061 620.338867
124.450989 2069.218750 366.390900
129.782990 2374.310547 260.180450
94.144234 2094.962158 302.712311
255.130371 2205.323730 388.364044
168.172760 2118.783936 276.781372
276.359161 2202.408203 439.772217
269.242310 2242.124023 479.590515
197.266953 2328.360596 350.745117
24.610525 2085.380127 438.326416
193.691345 2082.066650 419.757080
-185.092697 2140.421143 548.729309
201.446228 2192.340576 336.461182
180.545670 2096.515625 519.805176
135.481796 2113.884033 235.444153
288.413147 2199.002930 579.194153
-68.480476 2072.732422 392.419250
-131.863556 2072.726074 500.518768
214.868103 2086.326660 395.800446
83.779015 2078.126221 502.973999
104.076225 2107.313232 275.934296
254.134750 2122.960449 552.281067
219.804153 2093.651123 366.448364
285.738281 2168.145020 432.883972
226.953064 2237.572266 365.308960
52.131119 2067.605469 656.780334
107.671722 2412.748047 259.667847
78.356964 2060.029785 600.023315
139.415070 2066.638184 585.458862
283.547424 2213.450928 402.026123
170.437515 2146.675537 267.601837
198.518219 2084.757813 427.918762
205.472046 2085.870361 398.119385
276.347015 2119.291260 615.583130
57.921841 2111.293457 353.779205
-150.050735 2038.749268 485.701111
69.903809 2078.746826 475.398468
289.742645 2174.990967 421.565369
-31.419584 2077.647705 339.537872
30.217909 2071.951416 685.871155
-32.573872 2073.278076 442.285706
112.370857 2112.048340 240.125198
231.657516 2100.555908 447.624329
289.993591 2248.926270 496.604370
217.314316 2368.658447 383.417908
40.372978 2079.446289 494.231842
-53.028404 2030.492920 680.359009
127.981728 2139.732666 225.639008
128.919571 2101.914307 469.969940
-37.473209 2070.775879 402.946655
-105.952370 2055.427002 564.320068
181.981689 2086.180908 331.826904
114.953583 2386.170410 239.457611
103.472305 2070.641602 557.248840
104.805176 2155.274658 423.218170
292.601501 2259.465088 404.370544
102.263618 2418.294678 239.498444
12.368315 2092.958252 426.715820
208.229340 2174.937012 313.015442
301.850220 2170.591064 393.220154
133.014465 2084.039063 552.232605
-10.788033 2077.716797 463.398438
65.548752 2091.477295 320.886261
265.644379 2092.528809 426.848938
232.261719 2222.109619 482.545532
301.002319 2185.360107 410.764618
169.243271 2126.004639 228.763519
-31.281759 2113.326660 724.137024
143.338882 2112.781982 257.372559
195.363220 2227.616455 306.611603
62.404888 2057.552734 576.463806
82.292198 2084.508057 447.107025
-90.615486 2146.554688 670.980469
231.488892 2090.287354 387.496765
184.631302 2083.373535 514.120544
106.332123 2056.494629 595.690186
96.526596 2104.450684 271.223297
39.915939 2110.721436 693.177551
-53.972755 2041.228271 592.139160
159.966537 2119.776367 271.003448
261.831696 2186.020508 562.132813
236.909790 2125.385498 348.409515
-43.042145 2062.564941 534.927551
277.831573 2144.134277 436.927887
262.464172 2129.979248 362.445923
223.670593 2088.388672 432.640045
-65.664642 2094.758545 690.092529
-36.365543 2031.166626 640.743042
54.679699 2120.280518 696.762878
96.779198 2089.127930 331.571564
242.169556 2106.134277 361.306000
172.075394 2231.739258 291.215149
217.624725 2134.240723 526.259338
84.560883 2063.881104 559.711548
275.577423 2127.311768 575.234985
196.074615 2088.135742 380.852234
89.324272 2122.674316 243.076172
63.174046 2064.071777 549.602966
247.610489 2089.945557 389.876160
268.981720 2175.652344 556.334045
115.289185 2077.430908 594.183289
251.383545 2208.008545 392.751129
-182.208237 2235.959961 576.004150
233.077164 2161.102295 352.343811
182.882721 2072.817383 489.775208
185.255478 2158.207520 286.870483
218.697723 2216.833008 334.664337
4.707376 2091.541016 715.830383
103.531189 2092.405273 327.153687
14.901827 2044.718628 603.889282
205.801743 2094.397217 310.589203
128.328491 2061.936768 567.096985
-27.916561 2060.333008 603.622803
52.008904 2088.658936 695.139954
290.439697 2161.886475 555.327698
329.370728 2218.994873 540.519043
168.846283 2116.982910 223.912964
260.733063 2261.221680 400.615784
16.867088 2082.675537 350.714294
262.003540 2115.236572 444.110809
-152.850159 2033.164795 493.084869
89.368546 2096.053955 409.687439
156.647903 2382.353027 310.882111
236.673004 2333.684570 477.212799
58.150063 2084.830566 647.409363
231.223114 2268.326660 362.125580
196.781494 2079.808350 390.097626
50.343422 2061.801270 673.984436
198.714340 2225.031982 306.507507
-28.384716 2087.548096 350.354095
158.723984 2385.991211 314.490173
-5.111766 2079.386230 511.246460
156.912445 2094.283447 345.283875
17.516232 2084.158936 452.230255
108.619911 2357.651611 235.133316
311.073669 2142.388184 601.839050
173.672684 2118.312500 573.065063
40.917454 2064.178711 541.969238
166.094009 2158.800537 583.904236
85.312851 2091.268799 423.567413
270.523895 2147.260254 443.246368
286.888214 2109.581299 431.404175
114.574699 2407.610352 274.430542
20.469559 2055.094238 649.522522
115.452057 2083.462158 472.450867
156.434418 2080.066162 432.119812
54.171959 2089.167480 336.027527
242.470444 2240.026123 380.076141
4.453156 2039.390869 623.546143
256.146057 2155.987793 375.065735
-9.087289 2098.219727 365.196045
257.488159 2172.537842 377.300385
-55.674278 2042.959351 651.548340
123.739899 2333.907471 232.647232
275.272430 2276.667969 458.217194
-20.691954 2054.766846 585.718689
7.752311 2088.929199 332.215027
55.498169 2065.618408 612.697937
-106.184975 2053.970459 487.925995
229.383087 2243.038086 364.586578
-52.751328 2025.859497 661.076843
320.763000 2227.435791 549.096191
231.522263 2143.412598 483.313354
92.710365 2109.744873 270.127167
160.819809 2112.362305 256.066010
198.319839 2339.600830 354.738373
243.660950 2177.276855 368.447937
-69.173393 2030.807007 633.451965
142.416306 2117.956543 269.226654
115.742752 2406.376221 233.086166
7.511559 2114.788086 735.943359
168.791107 2273.596924 282.823730
18.435192 2073.996094 501.131866
29.733788 2068.717529 544.180054
-65.456604 2053.689941 545.279114
63.963654 2096.696289 297.743317
191.645920 2260.448730 323.304382
236.743759 2195.927490 360.378632
266.708862 2175.878174 553.404663
-5.239805 2070.521240 400.127930
-101.074677 2089.102295 508.468170
105.750267 2083.131836 470.521881
304.916748 2196.629639 430.522400
69.656395 2094.381836 431.376801
282.439972 2240.791992 439.629944
93.516563 2083.665527 513.287231
89.176353 2086.925781 437.352386
84.385452 2078.585938 549.489807
162.392883 2269.208252 269.154114
-64.626488 2052.211670 613.682007
289.871063 2106.361816 437.797821
53.175953 2080.519531 475.664734
21.647921 2072.873047 469.160431
282.958588 2107.377197 438.048279
208.856888 2177.844971 327.972839
-150.284241 2036.443237 552.826111
185.968719 2203.820068 285.010162
-102.301193 2062.574707 395.042236
149.346527 2080.305176 558.572449
52.133484 2069.484375 661.496887
-86.621315 2051.489746 559.761597
131.499619 2235.660400 215.138107
267.456604 2107.355713 413.911041
288.505951 2201.550537 401.499512
170.940552 2161.190430 274.163910
25.270247 2072.730713 665.222046
239.413818 2120.253174 540.259644
148.128967 2324.322998 279.677277
117.965759 2084.213135 445.238831
224.016006 2161.026611 333.690277
244.612579 2088.984375 397.606903
57.076385 2061.890381 585.226196
246.270309 2144.126465 526.077820
198.578354 2115.428223 504.924011
256.816528 2186.851318 594.865051
150.638916 2099.688232 432.493439
219.783432 2259.582520 358.108704
-64.839287 2063.941895 500.895477
-0.370552 2087.826904 380.536499
74.541779 2066.331299 565.761108
-53.117439 2083.126953 364.869690
144.966690 2117.939697 226.004593
269.392853 2134.946045 389.904480
-45.239307 2061.975830 553.103882
246.847153 2176.273193 481.260071
140.810410 2081.892822 363.484314
0.052235 2074.268311 461.813049
155.219940 2103.459229 591.864380
262.027588 2184.520264 394.904755
-8.804332 2063.388672 532.314758
194.989395 2135.569580 525.442261
162.400085 2348.210205 331.217804
70.573128 2156.973389 669.096191
244.865341 2088.677002 390.395813
-124.112221 2050.281494 447.115417
19.135778 2052.013672 647.829590
191.691483 2094.387939 303.837860
38.879086 2081.415283 442.705017
235.102020 2128.517334 557.138672
128.277466 2081.895996 493.220764
292.451538 2151.525146 404.454803
196.012314 2114.562012 273.479767
284.445953 2344.326660 444.990723
330.106201 2225.917969 539.357605
210.556595 2086.144287 389.030853
155.917770 2096.894043 273.835266
-7.590168 2056.014160 579.735413
286.283112 2211.677002 445.440552
309.527283 2252.919678 521.370056
171.539551 2348.158691 326.541229
27.158726 2080.661133 503.376923
257.601410 2220.760742 483.143707
187.164093 2083.978516 347.303864
247.162125 2162.978516 512.866821
51.092510 2081.458984 694.725586
93.151260 2090.601563 483.217499
148.663208 2098.821533 433.304962
155.522903 2216.326904 259.328796
166.162949 2087.299805 315.520569
186.509476 2088.727539 363.564636
132.044510 2328.225830 251.000229
-118.466286 2051.669678 462.658936
126.554085 2392.252686 278.639679
283.724976 2123.608154 609.663086
127.615402 2135.762695 229.284012
119.376747 2087.342529 354.441193
232.882355 2365.390625 402.337555
-139.781021 2040.085083 444.471283
268.766693 2155.525879 557.816101
38.602917 2088.802979 466.758606
47.275242 2097.850098 440.012878
119.901657 2372.424561 249.450638
-150.862747 2052.387207 440.859772
-44.175190 2078.822754 377.623718
-35.015842 2041.641602 658.170532
283.563751 2230.255127 479.513519
-16.644146 2044.913086 599.797546
224.828278 2105.240234 313.734436
-43.667427 2079.281982 485.809875
172.768402 2339.992188 322.185150
249.412659 2131.900635 545.541809
285.440186 2247.751465 445.719574
182.938263 2092.669189 317.047272
275.510651 2125.125488 575.133179
268.780945 2145.800293 397.309052
-48.253918 2071.796875 358.948700
69.935730 2058.687988 561.126770
-113.332405 2070.873047 409.808289
128.930847 2199.351318 215.171143
260.796448 2249.900391 475.927734
264.800964 2136.484619 549.184326
238.823547 2188.988281 354.128448
191.128952 2251.176025 320.492157
173.130753 2252.979004 295.731476
222.006958 2079.322510 418.006592
-122.356644 2035.896118 429.855499
298.724182 2243.504395 413.502777
289.825745 2228.117432 452.090454
241.402054 2095.208740 397.123871
16.094059 2073.050293 491.062469
164.084167 2091.030273 373.431000
146.126892 2081.698975 416.075592
276.027283 2147.498291 532.932617
224.477280 2203.312988 488.724884
192.060638 2104.735596 246.114059
247.016281 2317.402832 409.677948
44.303234 2066.498779 602.950439
152.848282 2079.690918 449.405334
-25.259659 2043.227905 653.247559
73.900772 2065.275146 589.777954
20.437374 2092.561035 359.732697
276.783020 2267.995117 445.585693
150.497269 2374.914795 319.664398
204.099091 2093.799561 362.539063
293.613770 2184.999268 432.269409
39.761742 2092.750977 339.331940
119.297104 2366.262207 261.610718
38.283218 2074.147217 567.404907
28.574984 2055.735107 635.279480
210.817459 2081.100830 452.510956
-1.871918 2078.035400 494.245148
223.442749 2228.272705 354.750641
274.671875 2247.208008 450.568298
9.962061 2080.746338 303.078522
20.283422 2040.071167 605.075073
102.301552 2088.799561 402.443634
102.531990 2084.602783 360.260223
256.229584 2317.185303 486.551819
0.611321 2072.258301 694.588318
225.370163 2104.517578 467.839264
-45.221748 2059.580078 490.526154
207.550888 2222.099609 336.947815
-99.260841 2076.396729 401.626038
277.469177 2172.111084 555.005554
215.759216 2093.553711 348.019653
128.681641 2283.786865 218.562347
65.380241 2069.713867 595.508240
135.970261 2096.188721 470.329834
302.347351 2235.101563 505.268982
-49.582516 2053.183594 587.480225
43.118847 2065.176514 682.376953
192.786469 2085.340332 470.807068
137.206146 2107.611572 244.379440
307.197052 2244.642822 538.266235
243.432159 2335.730469 406.438751
196.325974 2128.403320 550.496094
307.790527 2222.803955 545.848999
266.261536 2138.758301 367.349396
195.648270 2108.371582 295.230591
81.741386 2112.275879 259.031219
292.218231 2219.361572 432.905487
270.271851 2119.070801 410.269257
200.026810 2301.829834 342.566315
-42.383190 2064.148438 578.079163
254.782639 2181.570801 382.154968
166.425827 2078.723877 554.266052
203.884491 2212.695557 325.344025
223.788116 2193.175537 493.806274
189.918106 2099.402100 363.813690
284.463074 2214.660889 435.241211
199.948990 2282.401367 339.061707
137.823853 2301.654297 274.119202
117.864754 2067.619385 597.998108
115.670250 2088.969482 494.555084
157.303528 2096.852539 337.275055
315.520233 2169.106445 402.316315
147.436615 2093.170898 401.845642
119.514534 2080.538574 363.405884
272.829132 2291.047607 473.373932
181.474487 2083.192139 433.500793
99.706169 2082.786865 499.041992
126.991753 2132.000488 458.733276
87.790695 2091.694824 336.760468
-35.043358 2069.622070 499.184875
66.352516 2064.991699 606.032593
304.936188 2285.508789 512.989929
186.482483 2086.989014 435.822418
-121.990623 2067.031738 427.379913
216.627701 2205.653076 346.999054
97.441856 2077.934326 495.081329
170.959564 2088.319336 408.399170
116.000702 2113.193848 255.763947
55.377064 2088.738770 670.492859
112.718460 2110.216553 224.119705
-76.064766 2064.311035 376.364746
269.717407 2245.288086 461.507019
275.344116 2131.371582 578.989075
-83.751984 2069.279053 382.328918
192.019394 2080.992676 431.011139
272.281372 2228.077637 470.658173
230.679947 2310.798096 372.696930
97.383568 2064.062744 558.655518
-112.074493 2070.500732 404.327789
139.544983 2239.676270 240.617554
214.308792 2106.790527 489.981049
95.222687 2131.665283 367.013275
245.643829 2243.401611 388.832306
223.631042 2097.825684 486.562103
253.420807 2122.669434 358.448090
167.966339 2101.414307 572.060303
165.344467 2087.773682 474.158722
302.281525 2160.900635 412.053467
224.044357 2172.441162 489.317688
267.666199 2103.289795 396.639160
294.611542 2132.793945 416.782288
116.689453 2108.006104 252.717545
-19.304359 2078.250732 340.410187
134.921753 2374.968262 300.388306
10.540978 2047.317139 657.856445
68.848175 2072.052734 634.138733
19.726202 2085.918945 335.006012
94.708618 2093.497559 374.885956
196.646866 2117.135498 281.275879
155.031006 2388.820313 312.717865
245.855194 2205.747559 367.911377
106.702774 2070.775391 629.247681
290.439514 2109.376465 421.975616
-42.622528 2067.333252 592.053406
55.739498 2070.380371 668.447693
193.436829 2331.001709 342.875763
34.694332 2094.976074 383.929077
281.555298 2205.450684 432.303467
-26.088133 2072.229492 484.860046
174.972092 2077.864502 427.643433
265.476990 2160.974854 454.171021
145.218948 2106.335205 573.852051
128.825851 2301.801758 254.054367
-6.442827 2049.583984 696.887085
64.380089 2111.443115 276.834961
46.264446 2097.541016 668.027710
30.118044 2055.816895 677.713928
295.242371 2237.632568 533.973633
266.746094 2119.292236 592.243469
242.594604 2198.813477 369.983246
150.417587 2188.436523 253.021988
114.027840 2145.654297 230.184372
-19.752945 2067.855225 555.587769
191.221558 2083.281494 405.460052
171.822922 2224.598877 284.088928
45.216969 2068.739502 641.686523
303.977142 2271.552734 419.631287
-18.874359 2026.656860 646.798889
16.956528 2075.026123 669.460266
242.564087 2113.052246 558.423767
-12.118441 2065.700439 510.288849
-80.551483 2062.692139 553.387695
141.968170 2070.648682 533.359497
290.697845 2162.186523 403.153351
187.218597 2132.698242 289.079834
-67.816521 2046.714233 371.126343
112.943642 2100.988525 384.262085
69.729523 2110.815674 359.860626
-120.534866 2047.740479 455.345612
179.557556 2158.026611 282.636292
62.713734 2100.490479 301.786163
34.320972 2091.002930 417.672485
136.809967 2246.379883 247.721298
223.430206 2088.060547 376.252136
-45.915894 2087.927002 347.940369
28.726786 2085.659180 703.142639
191.555573 2104.948975 527.358459
132.790497 2239.123779 250.377762
229.052475 2330.728516 391.725708
12.933742 2070.979492 681.536194
200.781631 2090.791992 502.982330
204.409317 2087.531494 402.068268
37.691101 2064.597656 532.396118
123.086800 2065.885010 537.241943
206.582794 2212.888672 509.971252
99.083572 2120.399414 233.741577
97.225937 2086.218506 623.919128
21.831898 2072.215332 518.437866
205.080338 2282.297607 346.520599
-123.381447 2061.975342 477.886261
286.824554 2297.681396 422.337677
149.958359 2076.868408 380.455597
-87.658371 2058.927490 420.186310
48.872032 2076.935303 470.090942
149.336700 2107.234863 244.195160
262.014221 2132.184326 453.731995
19.986080 2053.090088 688.454285
296.734528 2149.039307 417.002289
302.464417 2226.099854 424.131042
147.124237 2079.569824 412.371735
133.166443 2092.498291 306.427887
-42.190357 2075.907227 704.668762
109.539627 2110.396484 229.550827
60.641773 2106.013672 377.883972
279.046661 2100.777100 411.430298
175.347900 2298.960693 308.419647
160.186447 2122.515625 243.147629
90.463165 2119.824951 377.228485
81.490364 2087.318604 452.805054
201.471375 2161.035156 313.513977
80.480675 2081.267578 624.667419
130.518112 2119.614990 212.296585
34.562332 2050.513184 598.368347
176.423691 2088.132324 311.098969
285.476776 2355.482910 443.385529
86.831795 2076.986816 520.504089
116.717766 2097.203369 615.835327
49.067810 2093.870850 283.210999
222.921951 2137.859375 479.181305
-103.669411 2056.053467 406.097473
185.837280 2118.032959 268.565582
38.155830 2064.683105 538.594421
236.239334 2322.463379 381.220001
92.959984 2065.148193 608.869751
62.613255 2058.590332 627.330566
35.779675 2082.913818 488.947906
73.707932 2080.520264 467.782318
120.768120 2193.446777 223.928009
-52.885574 2071.370850 400.581451
20.995461 2051.552246 694.177307
152.199020 2087.928223 587.830383
238.241013 2100.639648 314.182129
27.307089 2086.495605 352.729492
244.046295 2202.309814 373.363068
-30.040802 2056.505859 572.705322
275.597382 2129.426758 581.668091
170.814087 2081.523926 402.143280
61.661713 2061.074951 606.065796
104.361763 2113.011475 259.387909
-34.441807 2056.363281 613.032837
242.911697 2125.990967 515.966614
69.155830 2070.441406 577.934326
253.743774 2190.204834 369.502197
68.371765 2084.209473 643.872803
36.674191 2051.008301 631.933777
242.912781 2124.705322 357.579071
295.179749 2210.295166 409.522247
38.843315 2052.389404 581.732727
-94.179199 2061.332275 412.044678
229.544632 2281.087646 374.995911
-40.028572 2066.027100 522.185608
205.093063 2093.639160 317.529022
241.901566 2101.761475 427.380737
267.069092 2225.766602 402.986725
58.461353 2102.153564 299.915680
247.711578 2169.867676 508.455078
-46.496494 2034.423096 640.365173
-24.689226 2057.744141 526.431213
300.241943 2285.126221 509.898987
-11.563587 2096.288086 401.523132
304.909607 2180.279785 415.943359
266.782257 2207.813965 530.880371
269.987305 2137.910156 528.495789
139.765808 2078.603516 509.808624
196.178543 2263.981934 329.077423
61.138161 2087.282959 292.115875
-135.929230 2066.765137 558.922729
143.774811 2113.303223 232.120132
-78.702972 2053.146973 474.610626
136.074738 2101.640869 269.974335
210.138458 2083.730957 484.896301
133.357193 2188.099609 207.112900
227.539291 2222.021240 524.078003
234.042236 2362.135498 388.116486
178.908249 2263.407959 306.334290
216.063568 2336.635498 376.720367
224.035751 2093.121582 451.297821
143.572388 2106.187500 227.555969
229.933273 2131.553467 520.464661
-72.769737 2066.416748 379.539673
253.473282 2116.621582 359.955200
119.446556 2098.075684 292.984985
16.635574 2070.978271 519.226624
58.267162 2091.719727 324.092010
291.506805 2155.398193 411.520966
119.204384 2112.987305 603.619629
178.201920 2217.599121 296.273621
81.965385 2096.100342 277.826630
-168.505508 2155.403564 573.914734
230.874252 2091.633545 423.289917
-42.460979 2070.320068 347.930389
172.638992 2186.728027 281.659241
184.469925 2277.676025 317.139313
139.794067 2306.242432 250.605591
105.542488 2092.320801 466.290802
175.801147 2176.292969 300.100464
239.679672 2145.539063 334.554260
-40.191864 2096.862305 560.409485
214.781799 2136.588867 514.471130
249.884079 2302.946289 394.771088
-106.564751 2053.795898 493.824432
248.787537 2147.773193 537.664368
-78.293335 2062.639648 474.105103
-65.209839 2068.877930 444.940979
181.020325 2084.630859 477.706757
21.432938 2113.607422 718.873901
-34.391113 2035.515625 668.348816
265.599731 2192.456787 390.749451
225.274963 2183.628906 335.229065
-5.151522 2067.945068 560.020508
250.721863 2089.541016 418.769226
85.351273 2132.248535 382.091949
-33.156364 2062.885986 507.081116
117.277847 2109.055908 612.939453
183.694717 2135.934814 276.223877
-42.861641 2068.672852 395.932495
126.100410 2353.769043 228.917374
212.459061 2273.712646 370.832214
189.028137 2150.355225 546.302795
250.974625 2154.280029 538.177368
0.105980 2098.920654 325.551056
52.086117 2071.408447 666.255676
251.361359 2134.913086 524.362793
305.322479 2140.200928 605.678223
112.294388 2302.459717 229.760193
270.747375 2110.906250 385.268829
187.866470 2307.184570 333.223389
285.502106 2196.067871 400.975372
268.583649 2115.749756 439.669495
117.842438 2111.772705 235.012177
282.461456 2142.038574 401.330261
137.099533 2070.193359 545.898132
218.139465 2140.311035 496.117706
249.136948 2142.212646 509.363342
-7.385844 2041.633789 618.594360
263.019073 2292.694580 458.644257
292.816925 2109.917969 409.172791
158.409561 2367.615234 291.341125
55.277851 2089.107910 492.847778
283.411530 2278.885254 486.922302
-96.411018 2056.711426 427.902496
299.569885 2319.170410 417.253235
233.827713 2100.384766 477.764069
216.138123 2325.860107 369.533844
-80.591599 2041.463867 591.627075
304.145508 2231.628906 527.180786
-41.639633 2071.521484 410.127747
296.095581 2188.216064 425.414429
113.040771 2309.715088 240.944366
127.974396 2109.515625 240.766098
-70.467133 2058.561523 501.183197
265.817230 2157.525635 453.728668
287.542175 2245.959229 489.662903
228.564453 2112.810059 329.111359
33.258549 2058.779785 564.352539
142.065079 2290.912354 249.630768
247.442780 2089.585449 395.664856
87.124229 2088.781006 487.071106
166.344925 2113.335693 240.193115
174.463928 2347.470215 325.882813
-65.365395 2066.354492 461.204285
290.853241 2166.779785 581.898987
133.568207 2074.304688 564.882080
209.185150 2200.256592 495.787567
-27.348347 2048.974854 573.104492
232.746185 2192.791992 353.955963
144.954163 2095.352783 471.713989
41.200565 2068.373779 653.508606
141.676575 2110.381592 244.845673
184.730865 2357.960449 347.921051
60.676170 2084.694092 426.901917
247.499893 2329.332764 489.968231
27.388926 2056.378662 640.320068
128.735748 2157.225098 224.244064
301.340302 2260.911133 514.488647
241.639450 2192.588623 387.066193
13.612050 2067.309326 520.325623
42.944473 2085.568848 479.646698
199.364914 2097.056152 312.556274
188.771042 2099.894287 370.971954
172.422882 2083.582275 511.131226
74.709137 2068.512695 535.505615
291.575043 2133.083984 587.703796
10.172017 2046.748169 682.081299
-66.484276 2069.121582 435.248138
80.991516 2048.093506 618.947571
278.951996 2152.513184 567.493164
177.322205 2289.530273 308.578888
91.450043 2106.141113 354.847473
290.871216 2200.054932 406.417633
134.938187 2106.252441 298.892761
262.927612 2110.428223 384.980255
145.705505 2078.885498 364.905457
39.148708 2102.197510 339.103790
220.321930 2191.327393 502.415680
-35.987206 2078.445557 417.295074
106.551201 2066.324219 547.948364
188.560257 2093.671143 350.914063
138.998337 2299.315674 247.995270
150.033569 2264.261719 267.649841
255.677917 2231.308350 399.891968
210.414536 2347.722168 354.430481
239.399506 2291.243896 378.485229
202.507935 2127.123535 503.536957
230.217987 2293.202393 382.903564
28.392778 2052.907715 675.543274
108.594139 2414.581299 233.911423
290.591278 2224.182373 521.124146
138.591064 2078.912354 405.591797
66.673889 2096.557861 300.859039
284.466980 2143.927002 432.405518
-104.346611 2054.468506 468.606323
23.680849 2055.125000 601.173889
110.301239 2083.028076 358.675385
151.237350 2079.069580 395.183411
32.304192 2106.494873 710.819458
268.438721 2131.692139 389.302063
-11.506361 2048.099121 616.091980
246.737686 2094.193115 438.622650
29.110897 2069.879395 540.173889
4.830360 2091.439209 408.907318
261.844971 2094.165039 405.201111
233.021790 2097.075195 474.095306
239.925247 2092.692139 461.338013
249.193848 2304.873047 408.607574
27.359434 2055.993896 679.885620
-137.619827 2041.886719 479.762512
67.125580 2108.536377 270.881958
267.036011 2221.003906 454.543304
250.842712 2280.313965 404.457184
62.700920 2051.921143 570.855591
281.869049 2167.946777 570.305542
184.453476 2097.387451 365.344147
185.370499 2162.873291 309.111237
-32.809807 2041.916138 631.114380
-38.714485 2049.248535 614.952515
-201.199860 2114.083252 519.303284
159.794113 2277.568604 283.622040
40.474163 2103.647705 704.348450
181.552780 2104.634521 297.066803
205.347305 2136.155762 503.529663
120.802139 2113.661865 237.944595
291.752777 2187.228516 419.382690
137.793701 2367.484863 300.712921
94.125702 2087.496582 313.805328
136.827972 2072.368652 530.467651
189.763977 2250.942627 304.827698
289.659668 2144.259277 586.135620
20.970057 2088.088135 334.051117
-51.851196 2031.959351 643.418579
209.538666 2300.670410 369.038788
42.157261 2067.367188 519.519714
257.254425 2155.637939 384.853638
-88.424706 2062.678955 557.275452
102.622078 2085.999023 478.264709
-16.115147 2066.716064 527.070740
69.537384 2128.288818 662.831055
-99.070847 2036.074341 560.974731
92.404846 2117.304443 244.861908
255.318329 2126.423584 371.957245
256.267853 2134.117432 515.784241
43.657242 2076.539795 541.364563
78.670311 2070.366455 553.617065
42.788494 2085.349609 336.094147
130.696304 2107.944336 253.583298
257.573181 2095.936035 386.133423
252.561447 2109.615723 416.233063
49.450638 2056.152344 625.919312
291.849121 2178.300049 391.457123
-154.525925 2046.557007 465.035156
260.986511 2141.908203 450.322266
-55.278652 2049.471191 617.222778
38.414791 2050.486328 586.848450
103.436745 2142.748291 618.530090
298.709839 2173.327881 592.924255
-3.506593 2075.672607 370.272797
61.673546 2077.550537 652.638184
296.300629 2149.254639 425.524414
194.663284 2127.023438 547.443665
22.761688 2077.859619 303.075623
53.309753 2088.845703 468.464874
111.755630 2140.563232 451.749176
33.898136 2086.842285 424.255737
145.733994 2336.062988 282.485016
43.312836 2049.879395 602.808533
184.567154 2345.473877 321.037079
214.272247 2107.372070 364.450378
62.950027 2108.529297 265.261566
288.303436 2222.740967 440.594482
-83.758408 2072.038086 385.531708
96.780724 2111.143555 247.336014
171.283569 2095.928955 306.362366
77.299324 2053.463379 569.684814
103.252945 2309.426758 239.641495
-92.661697 2068.999023 394.630707
26.057138 2073.150635 498.638428
115.499390 2079.261719 349.582428
289.105286 2144.398438 432.411896
271.681610 2184.757813 395.621185
-96.207825 2064.987305 419.376068
113.334816 2264.585938 228.563507
223.836823 2277.101318 369.505219
218.519608 2128.052002 525.224548
47.933746 2091.272949 450.059326
130.202911 2207.703857 217.764694
44.685684 2083.487549 455.043762
212.196136 2142.724609 521.123474
202.592239 2293.799072 344.350952
-13.468985 2086.160156 445.199707
82.704903 2101.010986 345.603088
213.766159 2375.290527 380.905060
179.407440 2111.347900 266.831177
31.529924 2049.998779 625.154175
-54.313118 2074.269531 428.705627
209.509766 2311.671387 372.423920
239.391068 2091.048340 399.493469
56.209148 2161.122314 686.159607
-144.161942 2067.305664 544.369629
300.397766 2227.624023 554.605469
290.052185 2155.194336 584.165466
-46.790604 2053.949951 355.325958
183.247925 2375.792725 340.899170
66.245529 2086.397461 673.717102
-126.318733 2047.784668 519.939819
150.594559 2095.737305 274.950043
-12.751897 2069.962402 344.814667
49.440617 2073.568359 678.791382
210.258224 2221.859619 343.008392
-127.539230 2044.328369 552.273438
143.544342 2095.653076 349.725586
281.605499 2105.412354 429.760712
-22.174234 2072.452393 460.898682
0.582461 2090.740723 414.631439
226.516983 2141.327637 541.267883
210.824677 2165.830322 544.264099
172.920441 2229.750488 286.048065
89.109650 2068.509277 547.625732
-87.165749 2070.598633 387.381775
49.752602 2064.656494 678.476013
299.584351 2242.877197 494.259155
275.453064 2119.715576 579.701477
167.261505 2078.234619 395.136261
155.664871 2163.225830 245.151962
181.886673 2098.227295 319.246338
212.793854 2144.408203 493.366699
41.114067 2090.906494 343.080627
157.233978 2375.459961 311.630798
189.081589 2160.460938 295.909485
304.054871 2176.041748 577.038147
57.469872 2076.758789 655.623535
12.190793 2080.618652 501.920197
17.824160 2087.279297 358.928131
-135.307617 2057.049561 430.570648
231.268677 2285.483154 385.810394
197.846237 2097.351074 308.673553
100.757813 2063.438232 610.057373
-82.041550 2055.550781 597.663025
-143.355652 2054.692139 532.040955
-151.534164 2040.038208 514.154602
-30.122139 2046.409790 611.107056
230.639343 2089.315186 427.217865
-95.109680 2045.234497 561.288940
272.100281 2135.453125 447.418365
-5.782565 2084.594727 490.817169
-62.602001 2059.796631 373.682678
117.607742 2080.402832 496.045807
173.523987 2240.099365 291.273010
-23.505377 2045.574463 600.289246
161.976822 2080.792236 426.159515
246.245789 2261.124023 395.245026
176.397125 2304.636963 317.593445
302.223724 2159.537598 420.650879
29.155949 2072.444824 672.323425
221.047928 2087.215332 473.425690
47.735123 2055.401855 614.336792
54.660309 2095.472656 305.175934
-19.421505 2122.113281 737.495911
196.169006 2109.773682 525.253540
61.376308 2071.420166 541.777161
127.842262 2195.768555 225.631699
-93.669075 2066.195801 398.173370
222.166214 2190.788330 487.270416
86.153893 2097.639404 333.998352
6.697134 2094.902100 330.746521
11.410974 2045.155396 640.950256
-31.854721 2072.704834 463.400513
82.037292 2094.967285 404.972473
84.876106 2071.563477 549.895752
-148.369949 2036.021362 492.438904
29.011642 2044.944092 586.779541
185.748703 2218.316895 303.415039
142.139069 2099.868408 326.032349
72.915230 2067.890869 554.388367
130.072144 2064.150635 558.304138
272.195251 2103.044189 434.245087
225.716110 2237.769531 369.734772
-123.957207 2080.575195 583.157349
-135.808090 2099.598389 602.608337
251.532043 2116.714111 356.669586
54.860123 2096.487549 696.559509
18.325140 2051.982666 628.210388
-128.236633 2061.116211 419.710968
291.430298 2281.083984 406.282593
203.197006 2078.994873 484.685699
104.836052 2120.185303 231.049301
288.137024 2299.718994 439.318024
245.765442 2134.384277 489.990967
101.305641 2114.131348 290.847839
321.329926 2151.976563 581.394531
220.221893 2192.956299 360.358795
140.988129 2111.399902 234.034805
235.111267 2140.946533 486.916199
-66.908287 2066.958984 565.435059
267.378693 2119.234619 404.053070
294.338409 2121.728516 439.575806
87.687431 2109.020020 428.744904
197.918869 2275.823486 332.426086
-89.771088 2061.476074 395.842163
160.508255 2204.759766 252.025009
113.487572 2108.118408 257.163757
242.594467 2094.250977 429.408783
296.781830 2238.329346 525.678345
282.997314 2346.801758 430.121704
267.639069 2139.895996 562.168274
257.989258 2128.908203 570.985229
103.768051 2312.615234 248.084747
292.802521 2210.130371 416.296448
83.189896 2101.927490 275.182465
279.471710 2112.366455 421.204590
122.897896 2230.865479 232.603561
160.098419 2155.076172 611.361511
168.887665 2082.608643 369.716919
216.834946 2205.383301 359.201447
102.881210 2153.111084 649.785889
225.482117 2140.697998 499.270721
254.621780 2225.893799 385.181976
239.175415 2213.184082 357.197723
302.315277 2194.038818 407.274780
-22.951582 2035.620850 670.526428
216.871979 2128.791748 529.660400
213.946060 2303.309082 361.176392
216.446533 2108.881104 371.000732
136.430222 2406.575195 287.058411
-104.254433 2047.814575 626.252380
130.474045 2083.990479 371.037292
124.998421 2074.007568 513.651855
234.694519 2087.567139 447.705048
235.040161 2230.137207 379.805725
73.956703 2090.460449 429.441132
274.206696 2135.111084 549.610901
233.188446 2288.784424 381.585358
262.070923 2216.278809 495.881470
151.216995 2134.492676 243.681534
149.777557 2149.231934 588.755432
294.876373 2157.271973 421.582153
132.207611 2205.656006 233.345657
193.815521 2075.078369 485.309326
205.411560 2089.627930 339.271606
241.702377 2336.797363 392.150604
204.260757 2305.253906 349.333893
272.194031 2255.668945 403.903992
152.255798 2182.168457 248.951889
191.649338 2129.401855 532.468018
-192.084763 2045.432739 472.744324
205.695374 2093.934326 374.025665
-195.095337 2052.466064 480.889191
105.485832 2389.110107 238.836411
-29.313334 2033.078613 643.777344
276.017822 2124.467529 408.315247
332.253815 2226.825195 537.749207
-149.928192 2053.766357 446.341248
237.906418 2094.641113 398.557373
199.676498 2093.104004 326.409943
101.505257 2116.913574 234.242996
36.301189 2053.593750 650.414307
166.759796 2084.417725 440.422333
200.769745 2099.404053 394.951080
130.706573 2239.993408 241.028122
48.343666 2078.809082 462.429626
174.786469 2113.319092 588.214417
236.368607 2215.260986 371.307770
61.897472 2083.130859 670.968201
248.149994 2110.936768 458.234985
54.652351 2069.765869 614.418030
98.098801 2069.645508 568.978271
129.453445 2077.648926 326.700592
147.220871 2128.231201 196.380600
-31.332567 2029.287109 661.240967
197.624924 2137.490479 291.820557
253.587082 2104.598633 388.861145
278.122742 2307.288330 409.824097
17.984814 2090.735352 419.176727
300.166107 2232.911621 451.627472
106.142303 2061.437988 558.529358
107.335518 2068.569824 597.155457
-58.611992 2052.090088 370.233765
-97.406578 2059.908203 509.707642
141.265106 2087.070313 319.884583
60.519108 2058.698975 575.952148
202.480453 2367.758545 363.614471
265.693451 2152.385010 397.561523
79.445976 2157.657959 652.818787
253.282394 2113.541504 370.125275
190.820145 2269.215820 323.070435
154.623322 2145.095947 258.308899
260.795624 2124.934814 516.404602
148.914536 2325.132324 267.072968
187.366257 2344.855957 324.343689
72.864441 2099.189453 257.665649
179.930664 2368.799561 340.284668
246.521317 2231.996826 396.359161
247.663849 2343.493408 469.046570
297.226349 2122.774658 437.459351
171.270844 2081.443359 559.433777
246.386749 2095.613770 377.110474
91.560951 2083.296143 480.437073
78.959946 2086.725342 464.277557
61.994053 2094.403564 315.613434
-35.789753 2065.574951 574.059998
205.680237 2351.312012 367.445709
-47.328304 2047.523560 676.821289
50.448502 2094.064453 317.154816
261.953644 2210.766357 464.747375
200.251602 2086.781738 450.836273
232.588120 2117.610107 339.766205
34.084084 2096.678467 433.118011
259.583740 2138.790527 544.264954
26.669708 2051.650879 654.095459
-153.841949 2041.482544 538.947937
40.540470 2068.841309 682.552002
75.153717 2075.379150 511.571411
269.988373 2219.948975 532.666809
194.558777 2318.139160 339.652893
178.828156 2147.719727 269.126617
162.868378 2337.725098 308.718903
290.253448 2191.768311 403.405090
212.529572 2325.924805 369.569244
