ply
format ascii 1.0
element vertex 1384
property float x
property float y
property float z
end_header
1162.789917 1922.507324 607.950134
1126.488037 1916.958740 592.173950
1060.623047 1877.611938 540.479980
742.992493 2018.044312 537.196106
1041.010376 1822.864990 297.611450
1162.955811 1911.595337 520.908630
1047.376587 1807.817871 512.377930
1119.589722 1817.737061 514.415405
746.366394 1929.051025 480.918701
1077.988403 1789.013916 415.878204
1162.994995 1828.751709 503.458252
797.570374 1951.337158 288.546173
1195.159546 1937.023071 416.820099
1151.440308 1820.702026 504.935699
838.517395 1912.068481 447.069031
1083.563843 1912.276245 544.806396
1084.965576 1792.831299 502.568756
1030.455811 1813.092896 367.867676
1066.315308 1799.124268 484.613434
1072.723511 1877.237793 534.266907
840.402039 1901.060059 272.164337
1153.305908 1863.271729 402.517395
951.618042 1861.687134 546.865173
1037.690674 1856.708008 637.687256
1126.597290 1817.917358 307.903412
781.726135 1967.948975 599.529968
824.845215 1920.125732 564.988464
1046.786011 1877.814453 600.171143
1168.981567 1915.498047 275.460632
750.491821 1928.139771 574.875671
1013.152405 1820.777100 516.774475
1210.345215 1965.297119 441.083710
1081.214355 1793.497314 482.478424
1177.240723 1943.114746 543.432373
890.909363 1982.298706 588.381897
1014.960327 1810.712280 407.149933
1090.341431 1872.882080 660.725830
1220.549683 2013.043213 466.091370
1227.036987 2040.327637 423.544830
907.549072 1879.288940 365.525421
1010.436218 1859.150146 548.910950
1084.086670 1791.005981 420.925751
1038.849609 1825.537720 281.462463
1116.711548 1907.095459 605.563049
1222.131470 2040.378540 369.930634
915.418396 1950.263550 572.154602
933.297180 1865.065918 476.987701
753.806335 1939.014160 337.949127
1194.384766 1954.057007 319.827209
1078.449707 1792.881592 500.450378
1146.107422 1859.946899 322.205322
852.650879 1900.484497 309.407990
776.604126 1932.061768 492.555725
1059.634766 1865.759277 547.510437
914.521729 1879.898804 308.150085
1130.416748 1918.449341 620.370239
864.370361 1884.919434 533.384460
878.629028 1899.433228 351.497986
747.732605 1977.246704 353.063416
903.511658 1859.294678 272.135864
1097.088379 1873.357178 538.875977
1190.821411 1871.626709 489.567261
1060.667358 1843.642456 656.405090
1112.280273 1803.932373 309.282135
1195.580200 1908.371094 480.081238
1085.726929 1890.936523 622.493164
794.123657 1911.699951 320.452637
779.928711 1939.761841 335.515198
1132.467529 1795.260132 391.114197
1014.953552 1829.000610 404.437012
1096.395508 1781.792847 406.127930
1160.579590 1933.972412 528.405579
962.219727 1851.393311 488.552643
733.048767 1946.333984 481.216217
1155.323364 1917.004517 527.108459
1036.999512 1898.818848 416.276855
1172.997803 1954.883301 253.923233
1166.343506 1916.275269 558.626343
1148.966797 1860.075928 357.972443
972.768433 1870.897827 422.497406
1152.068359 1849.408936 461.373047
1186.800049 1941.134644 392.400238
760.575439 1941.772827 371.938416
958.291077 1876.177856 349.765015
1080.772705 1792.269531 424.596436
1036.639038 1861.745483 522.831177
1133.141357 1864.907227 290.568909
1086.270508 1797.410156 393.762726
1037.479370 1807.803955 421.874237
1011.008850 1822.165161 378.850952
913.113403 1871.527710 559.023621
1020.311707 1826.506104 382.178009
838.806946 1907.401611 496.410034
1210.018066 2008.398193 255.782867
1157.489502 1858.114380 432.287750
930.634216 1850.081421 518.300415
1133.493042 1818.796875 337.160553
1031.069458 1818.797974 491.411285
965.925964 1862.223511 419.004456
859.956726 1927.134277 575.264954
945.002258 1886.611694 355.978333
866.607605 1897.373047 444.596100
975.557617 1875.746460 442.170593
1081.359375 1889.740234 625.699219
870.485168 1898.919922 463.294373
1177.004395 1917.714844 564.485657
1051.474609 1845.902588 518.894104
1117.719849 1813.475830 324.841309
1193.355713 1954.535278 525.969666
984.469299 1842.127197 515.601501
1049.614136 1862.025146 668.322937
1213.876709 2074.505615 252.340454
1145.180298 1865.838257 282.856537
769.197144 1933.087402 476.856415
973.854797 1847.381592 533.079834
1098.606323 1793.511230 439.123291
1042.448608 1865.105835 548.105530
867.656677 1898.807373 300.450195
1138.778809 1882.977661 521.313110
880.859558 1907.974121 565.350830
1156.034668 1871.105957 289.768433
1116.578857 1840.292358 511.255188
1119.740234 1806.579834 410.219116
1074.002930 1880.636597 576.331909
1119.922119 1801.187012 373.113678
926.729675 1873.896606 408.930664
1122.048828 1781.464722 362.143738
782.937927 1915.075684 525.845581
1081.503174 1776.001953 261.052338
1112.386108 1786.013550 496.814667
978.253662 1868.969116 533.189880
786.864990 2000.305786 608.675842
754.075500 2018.286255 579.644714
1066.512817 1845.238159 585.165588
938.086182 1867.876343 311.272888
1178.249756 1898.991943 412.685944
1126.528564 1823.357788 244.532379
1069.510620 1878.373047 549.846313
1071.657837 1807.845459 307.665527
1136.478027 1861.630859 522.363159
1156.295776 1806.140747 482.152649
1191.961182 1942.599609 453.584015
863.204102 1908.264771 358.849213
773.218628 1942.140991 287.305298
912.418152 1876.814087 557.160278
1161.769409 1827.012695 485.131439
786.657898 1928.902588 569.554565
1145.042114 1804.368530 522.882385
1105.621460 1799.652710 305.383240
933.321777 1869.114502 296.722961
914.213989 1885.406250 394.933228
839.636902 1897.054932 515.446960
751.363220 1928.949463 330.245392
1118.881958 1798.397339 472.836548
1002.568298 1851.929077 539.153259
1166.201050 1894.777954 374.959839
1142.639160 1867.337036 291.683655
813.440491 1910.828613 493.032593
1034.706787 1860.775879 533.803467
921.015320 1872.671509 298.699615
1039.096558 1870.771362 602.318481
1013.826111 1840.198486 531.316895
1090.394531 1820.927612 517.167725
877.768066 1891.033569 268.742920
1189.092041 1877.225952 488.672668
884.875916 1893.140137 281.998718
944.718506 1850.047607 512.689575
760.929504 1959.125488 569.487793
1214.739624 2006.286987 430.677734
1047.045898 1808.725098 489.163300
1235.486938 2044.424561 362.172485
1103.914307 1796.346069 364.200012
948.679443 1843.908081 512.742859
1085.812134 1892.151733 600.150879
1205.230469 2013.003662 306.737305
1097.018921 1793.525146 347.578888
1191.583618 1962.826904 443.813843
1204.656006 1912.546143 489.624542
1123.005371 1792.171021 322.642822
1208.520874 1974.749023 243.563522
819.455383 1921.617188 562.580200
1229.780151 1966.815918 503.527954
1156.726318 1830.604858 439.732239
1046.836548 1819.205200 280.397217
963.774780 1874.040283 304.861328
1157.848877 1850.873169 420.080994
1092.130981 1794.659668 307.569489
1072.317139 1880.193604 526.132690
1088.263184 1855.083618 648.002869
840.997681 1898.863281 493.538727
865.399292 1931.418579 569.628784
1096.836304 1799.566650 435.567444
872.473572 1891.937500 503.971375
1047.057861 1873.929077 568.387817
734.365234 1968.376587 353.874542
844.398315 1906.833618 411.036011
1162.993042 1888.335205 367.335114
1049.166138 1845.468384 634.681152
1035.741821 1815.364380 409.046387
766.747070 2029.587646 607.527466
1122.033325 1794.745728 517.697754
1052.399658 1887.182861 601.437317
865.777710 1902.592773 337.191681
756.052795 1953.983032 362.433411
842.459351 1918.593994 556.979919
1059.853149 1853.122925 605.000732
1200.327148 1935.695190 514.328308
1111.897705 1803.273315 518.865845
1064.498413 1877.940918 638.481567
1207.274292 1957.489990 444.888580
835.564087 1919.321655 505.851135
1122.823486 1779.365234 483.587952
1084.242798 1873.793213 537.706909
1069.689941 1800.161743 488.973297
1224.815430 1962.235718 520.675598
1210.999756 2041.365601 254.924835
841.172485 1887.039917 553.105896
1221.154663 2040.508789 352.264038
933.969055 1876.157593 433.565735
959.938843 1857.343994 452.246796
935.719666 1884.492676 320.808563
831.815796 1894.172974 534.014648
756.632813 1939.979248 490.655762
924.975647 1870.619873 282.417450
1125.199341 1828.782715 515.110657
841.665588 1946.959229 592.011536
1207.746460 1906.547241 498.261536
924.312317 1879.241089 291.126404
1217.012085 1922.020752 512.571777
1004.632813 1836.220825 510.894836
1118.118774 1788.820801 369.453857
1182.670044 1956.579346 579.520935
1189.650879 1858.752319 498.786163
1043.966064 1809.979126 485.133850
1123.608887 1859.200439 255.150970
814.987671 1979.630249 608.814270
1135.279541 1838.188599 244.361664
1039.969116 1821.591553 291.486603
829.598938 1918.098389 349.507202
880.963440 1879.260986 556.107910
1056.056030 1862.440063 575.450317
1207.187012 1987.073242 404.533905
1058.439087 1818.522461 522.586609
933.313110 1941.999878 575.796265
1239.259888 2073.459229 248.420563
1116.987671 1786.244507 252.083206
1223.578369 2001.839600 362.488647
1074.214111 1805.343506 452.512665
922.041199 1862.482422 508.521179
721.210754 1950.305908 355.224487
1048.069824 1797.210205 474.056915
965.552917 1851.382935 544.201599
734.198547 1943.560181 532.897278
981.535278 1859.991211 263.983978
1173.111206 1906.160400 434.382294
1186.312622 1988.130371 255.409561
1151.116211 1921.261230 603.527832
1096.246704 1796.422607 487.649384
1028.009033 1825.678589 349.717621
800.028503 1905.637695 529.140198
1226.743042 2051.943115 339.770081
1049.744263 1817.662964 295.845337
1081.301636 1783.932495 462.117523
1041.234619 1814.927979 469.388855
1067.805176 1848.303589 584.541138
819.649536 1922.724854 364.430878
1064.165283 1851.307129 671.259216
875.816956 1885.275269 507.168640
1135.436890 1774.640259 311.966736
814.334229 1925.256348 390.641449
1105.119385 1791.491821 505.874023
1092.790405 1796.420654 509.368774
1027.916382 1824.093384 421.863678
907.413330 1884.527344 359.827911
1111.542603 1783.988037 386.993713
953.016663 1933.610962 563.168335
954.482239 1867.557007 285.160156
865.608887 1904.283081 363.136536
1128.952515 1773.086182 378.387604
866.787537 1905.746216 294.491913
799.805725 1952.444092 591.321960
1062.867798 1878.379150 526.609436
1014.874634 1836.733276 457.256897
851.608337 1888.171631 540.066406
1147.701050 1799.506226 511.298584
864.845825 1888.812622 495.815613
859.821106 1892.310669 507.653229
1034.655640 1818.873047 372.186707
865.005554 1900.334473 474.035004
823.337341 1912.375122 401.802124
848.164856 1907.216553 519.396362
933.277588 1882.531616 418.950958
1065.790405 1790.724976 452.224152
1210.861450 2011.336548 353.833557
1059.402222 1793.989136 443.560852
1083.283203 1876.653687 630.126526
1099.367188 1793.246704 519.570190
791.617737 1919.226807 556.017761
1114.966309 1780.837158 509.125305
838.676392 1947.682495 578.733337
1105.858643 1785.324829 252.510162
1082.338135 1923.724609 524.508118
838.419556 1912.841309 378.230286
1078.606201 1831.462646 254.035614
915.602112 1877.785889 381.059509
1133.347290 1826.012939 386.408203
904.835266 1888.418091 436.047516
1189.121582 1986.798462 364.063446
879.150513 1880.301880 519.081604
773.806519 1972.162720 377.201172
814.179260 1956.839355 323.051422
838.558472 1910.871704 455.201172
1213.589966 2020.100952 402.924866
835.283142 1905.387207 466.970459
1137.944946 1798.873413 481.848389
1059.709106 1866.927002 529.888367
1067.090332 1856.060425 538.733276
1075.333740 1931.283325 539.239380
1032.408325 1845.209717 524.442078
1042.088867 1877.888184 537.401184
927.935608 1890.372681 576.394653
968.723633 1854.900024 487.988831
1137.402710 1800.529297 376.040009
1107.629517 1802.639160 379.860626
1058.334229 1813.052490 354.852234
745.831238 1961.928955 437.411255
1140.529907 1848.607910 445.481934
838.918030 1930.471069 595.069397
786.521729 1924.639038 551.081726
1119.679565 1795.730957 306.594360
984.797424 1853.038696 549.999573
974.427185 1896.057617 570.792419
1192.385010 1929.184937 420.800446
1078.107788 1806.224487 382.932007
730.346497 1952.233154 520.934692
1226.777832 2022.830566 467.300507
1141.295288 1820.910889 463.052521
1074.463501 1824.697510 245.519470
786.881897 1926.401855 300.808105
1011.605835 1834.653198 325.729126
789.223694 1932.775024 425.723816
886.012207 1892.309082 525.102966
817.137390 2011.835449 615.383118
1133.367188 1793.505249 487.531311
1203.907715 2050.445313 330.942078
824.219543 1913.025879 564.630615
786.662415 1917.040405 546.683777
950.951721 1926.045410 569.637024
918.415344 1884.599365 418.742859
1141.216919 1821.021851 433.417206
823.727295 1916.716309 601.878235
1190.875488 2028.565430 534.935608
841.216309 1916.335327 458.428345
863.821899 1895.533081 484.825836
809.821716 1926.821289 582.626831
873.046936 1907.786377 406.737213
806.209717 1926.901245 408.963806
998.899231 1834.068481 506.277405
1085.182617 1850.828491 628.602295
829.341980 1900.098267 517.355225
1035.168701 1807.090210 430.228943
1013.881836 1900.938721 431.283447
991.640381 1867.031738 259.040649
984.442749 1853.873291 278.940826
926.198975 1877.234253 277.798553
749.858887 1940.309814 557.164001
830.116394 1924.619995 279.946869
799.434570 1906.419922 520.934570
776.870850 1932.624878 426.193451
1079.267090 1871.880127 565.668335
1158.004395 1929.488892 584.046631
1087.871582 1799.638794 316.810852
986.392151 1858.665527 399.807220
1073.917358 1821.256104 513.821594
1163.518555 1844.683228 475.576508
1067.704834 1804.548950 443.190826
1187.847168 1967.521606 309.165710
1114.018799 1794.568726 279.208740
1085.465820 1893.323242 588.798523
971.330688 1861.252197 483.372498
1177.236938 1894.157349 536.687866
1118.413940 1791.797119 401.652466
892.825012 1905.975830 368.856079
1104.452637 1804.346191 508.588623
1200.618530 2016.497314 262.106415
978.180847 1878.744507 315.903137
1207.330078 2048.818115 313.406097
798.950684 1923.119873 292.968567
1054.858765 1862.470215 593.054260
1200.023315 1996.354004 344.886871
1052.378052 1799.821655 442.791473
856.373230 1919.694336 270.171204
893.846985 1880.000244 567.538025
1098.383667 1797.128906 451.167755
977.270752 1960.946777 589.311523
1031.260254 1889.702271 432.786987
1063.572266 1864.651367 603.037537
832.286194 1912.426758 396.970581
1205.579834 2005.743652 322.940521
1067.408203 1803.657349 499.105225
1012.794312 1823.427856 427.620911
1072.753662 1867.075928 638.357666
901.949097 1866.471558 519.042236
1142.339722 1927.420410 545.936401
1183.556763 1954.119019 315.070923
715.073303 1945.234863 477.534180
1059.203491 1819.330322 331.167847
968.813293 1864.347168 298.133026
1128.112793 1836.364014 274.036804
915.530457 1877.594849 316.564453
1178.057495 1910.572021 454.508636
831.010071 1905.294800 545.162537
855.329956 1901.378418 272.742157
802.724365 1932.791992 481.647186
1158.959839 1893.176147 246.733459
1162.533081 1909.789063 304.495392
854.794250 1874.109619 529.213989
897.606262 1886.885010 328.086884
785.651794 1949.038940 413.397827
1227.775024 1960.438354 492.547302
801.742310 1907.882446 516.512634
1050.381958 1861.918457 597.091675
1037.348633 1855.310059 540.985107
1193.670898 1899.257690 518.078308
1138.898438 1815.071899 484.973236
1036.698364 1833.055664 254.207809
900.075317 1888.115356 453.705994
1224.386475 2016.036377 253.728195
1134.542603 1833.686768 323.094086
865.785217 1884.624634 562.356812
943.101868 1862.106445 538.986023
1106.479492 1781.900757 503.144775
1026.671753 1826.425903 507.894958
1160.717407 1880.390137 414.337402
1122.760498 1816.269775 376.150909
887.500244 1895.555908 345.996429
1163.012329 1865.636597 408.574890
1204.627441 1988.421143 384.087799
1112.310913 1791.454102 512.339294
1155.689453 1877.439331 331.348602
1009.498230 1831.196289 523.777954
786.881409 1947.970337 351.872833
818.832031 1921.570923 558.684509
742.967285 2001.118774 560.461792
1127.886353 1822.930664 325.508026
1047.916626 1854.410034 658.132141
1155.268921 1862.293091 519.109802
993.726318 1856.017822 283.695953
807.505859 1917.743652 373.917603
990.598511 1871.672974 374.654663
861.240417 1862.731323 284.625214
719.612488 1942.449585 471.462585
802.403748 1910.691162 327.606873
911.698059 1875.430786 466.368317
759.095398 2053.804443 534.616760
1162.054199 1839.809692 482.020325
1038.865845 1845.523438 255.831757
1084.979492 1889.122070 584.029114
1168.372925 1897.569702 423.141632
830.350891 1913.826538 364.002716
1165.758545 1896.991699 536.948364
727.174194 1961.124390 352.752869
769.185974 1939.300903 377.806183
1026.924561 1820.342163 432.768616
1166.100464 1814.922363 499.010284
1052.896362 1856.777222 570.194946
862.695557 1895.837646 452.613922
726.510925 1944.110596 462.143311
1010.708740 1807.619751 408.757507
1147.357666 1845.191895 439.065796
830.436707 1923.659058 432.713470
1089.735229 1786.479492 433.121521
780.547913 1934.814331 332.574371
1129.034302 1819.507202 243.000000
1154.366577 1879.928955 377.198486
961.585449 1865.981812 476.862976
1158.708618 1873.810913 306.758270
860.594177 1905.385010 351.776184
1136.456543 1850.468628 311.854340
1056.122437 1874.254272 566.682129
1052.599854 1808.883911 476.919739
1041.515625 1810.121704 462.851624
1095.473267 1781.047241 398.423401
1184.652100 1864.729736 490.905823
1094.092896 1897.632446 645.938965
908.636047 1859.819458 530.787292
1053.224731 1802.109497 401.148041
1056.074463 1850.655029 528.319092
1013.555176 1827.192749 348.934601
1079.442749 1813.540894 291.659515
725.957275 1950.882324 306.803650
1133.313110 1826.972290 295.689667
763.468140 1921.929077 538.752136
1230.815796 2078.999512 261.082611
1076.668945 1864.217041 659.064941
1201.131714 2012.612915 278.904938
1066.277466 1805.809937 402.507233
835.854126 1917.383911 364.371948
1026.587280 1813.897095 407.014252
893.886047 1894.875977 447.509613
1196.301880 1994.843140 301.275482
788.550842 2129.097656 509.139923
1116.464355 1815.490234 284.864014
1022.849609 1827.664429 252.743439
1209.924194 2015.270508 323.692566
840.544739 1910.380859 573.713684
1166.333130 1879.335449 461.479034
1149.960083 1887.392090 283.686676
971.553711 1865.712769 542.322754
1018.545044 1826.398682 487.710297
1176.250244 1831.088013 497.851013
927.564026 1893.182739 321.194244
837.106384 1917.947510 567.452026
999.366211 1828.302246 514.413086
1159.750366 1930.104370 599.711914
852.617676 1910.494507 386.301117
1228.482178 1960.250000 499.233459
988.199402 1855.687378 552.863586
804.022705 1969.613037 331.820953
1037.682251 1808.707031 354.519989
1116.683594 1850.541138 513.172729
1130.706299 1783.092285 311.641876
942.177673 1848.017822 539.770935
1163.709106 1856.094604 461.556671
1002.685608 1826.267578 507.073883
827.807556 1901.640381 541.356689
1109.277710 1786.572876 334.695282
1160.627197 1880.902588 410.294830
1091.670410 1789.098633 509.721558
1219.553589 2025.756348 257.862610
1209.781006 2023.171753 302.623047
1119.632080 1802.398804 294.147400
894.306335 1879.372314 568.152527
912.051514 1886.201782 279.688385
855.496887 1910.664917 546.311401
875.043396 1911.362305 315.140472
1162.993652 1882.699707 425.887512
909.514282 1883.010742 334.380798
1094.612183 1793.574097 340.730133
1187.012695 1940.474976 417.118286
1095.972290 1801.513550 408.716034
1047.953613 1805.270996 344.895142
1027.654907 1889.731079 349.168091
943.743896 1863.095337 558.107483
1060.184937 1867.698853 580.792664
1018.694946 1849.888428 270.127899
1076.102295 1884.544556 534.262573
1186.278564 1942.363403 594.090515
1106.890015 1798.707153 423.101349
1129.387207 1806.255493 236.947449
1205.864136 2030.964233 346.521851
1021.728577 1814.388916 400.775909
777.933533 1934.579346 359.421143
1234.432129 1959.942749 492.684784
1079.976929 1893.291016 593.185974
1090.764771 1897.700806 537.013672
1009.389709 1838.509277 349.498138
1176.480713 1949.435913 530.755249
955.675964 1855.806030 543.593811
1161.443970 1883.570679 371.024658
758.760254 1926.693359 329.685394
798.207947 1928.403564 565.331482
1121.965088 1877.623291 518.872620
798.551697 1935.782227 460.964020
807.353027 1928.182373 616.321533
884.366394 1957.958496 578.374268
991.399475 1851.780884 402.233795
1144.483765 1916.412598 615.460876
876.265381 1878.734131 528.091492
1206.422974 1997.289673 408.691650
1164.772705 1924.347900 572.211670
1030.970459 1808.513794 443.262360
1198.328979 1980.000000 388.958099
915.956482 1881.287354 295.078827
792.189758 1931.664429 371.733795
1111.944824 1808.197632 310.288757
1198.143433 1981.378174 346.311096
974.327087 1863.341064 383.971222
1107.162476 1800.043701 296.852173
1217.110229 2032.701782 443.324310
1100.644775 1799.307983 295.559753
777.409119 1933.542847 332.213196
1124.146484 1802.038208 244.713623
1051.599487 1858.961304 661.323303
1121.727539 1790.709839 477.325806
1150.863037 1856.314941 426.810577
773.772095 1921.980347 513.623901
848.995300 1904.146606 420.499359
964.078430 1844.902588 529.421814
1170.433960 1906.033081 310.825043
1176.139160 1912.964600 405.977325
1237.105835 1933.644531 499.449524
1178.357666 1842.665039 490.234039
1197.463379 1960.754517 466.784485
1078.388428 1849.543823 599.623962
1219.591187 1939.175171 506.033295
1024.641846 1882.846558 562.271973
1149.332031 1897.143677 266.877930
1143.188110 1906.363281 521.718262
888.490845 1866.476563 539.348938
864.872864 1904.281616 281.349396
1152.775513 1864.291992 349.305511
774.938721 1950.793579 361.071442
1060.510376 1828.407593 518.109680
881.196655 1893.263916 434.019745
855.877014 1897.370972 445.362122
778.293823 1919.679321 544.618042
1174.785645 1892.435303 389.114716
894.327148 1890.422729 328.421448
1017.792053 1840.425293 462.783173
1174.385742 1940.256714 540.622253
774.201416 1917.450073 535.754333
1025.420898 1858.276733 529.000916
950.889282 1885.318848 395.065277
1101.955933 1822.947754 513.117615
918.996338 1880.036133 444.595703
1145.938232 1871.232788 279.151886
792.963684 1925.950928 335.486816
1063.807129 1812.956787 313.471130
1207.070557 2000.212036 253.924896
1187.892944 1954.076538 364.341278
873.294678 1963.268677 581.893311
1067.144043 1794.323486 467.765076
1073.963135 1785.959839 374.009613
856.364197 1908.728882 389.798889
1211.405762 2070.721191 288.165009
1079.679932 1803.409912 457.849945
782.333191 1922.740234 465.445099
975.073914 1853.489990 333.476196
912.104065 1866.713379 520.275085
1035.941162 1836.122681 250.953308
1046.410034 1813.733154 487.190369
1145.248169 1935.016602 537.348694
1182.117798 1999.107910 281.550385
1041.040405 1818.811279 309.870392
722.224976 1940.297485 524.825928
1067.606323 1855.687256 624.693787
1159.913452 1880.698242 240.614380
1128.687012 1798.297852 295.600067
898.013977 1875.631958 558.096069
1150.173706 1859.399414 390.892029
982.179993 1873.107544 341.618561
1002.847900 1845.183594 401.561127
1103.489502 1782.286011 459.268585
1175.721069 1930.077515 601.246521
1085.263672 1881.141479 606.966980
967.924255 1900.497559 565.804260
1140.203003 1846.548218 326.535217
944.593567 1851.125732 543.342529
1078.566040 1812.316162 279.147339
1173.607788 1935.977051 251.578384
871.060486 1875.473877 538.799011
888.985229 1894.064087 390.802979
1106.026001 1790.218384 358.719482
1133.978027 1918.315674 530.838928
867.704956 1883.329468 520.737122
1166.035400 1922.063721 568.385315
1080.398315 1857.986206 541.927551
1157.432617 1857.847778 436.031433
1116.575562 1792.270020 502.582275
1225.936646 1945.554688 502.809662
1032.346069 1822.675293 519.650757
788.411926 1920.736206 515.452209
1158.857544 1870.026367 325.995880
1122.758179 1811.310303 328.172424
896.622192 1882.666138 495.122162
871.441101 1892.305908 363.244141
974.301147 1852.162598 317.370392
1183.594360 1959.461670 538.721375
815.573120 1919.375366 307.317047
855.342346 1922.497314 480.792664
771.193970 1930.153320 309.806824
1167.722900 1899.200684 514.913879
856.339417 1901.436646 550.758423
915.936829 1888.684082 433.602631
1139.782959 1867.839478 279.696869
996.785400 1850.757568 418.746552
1157.381592 1924.739014 247.092758
1158.753540 1922.936157 256.804962
1034.548218 1839.539795 271.292175
876.991943 1896.305298 548.641052
1149.279785 1879.448364 299.226013
1204.942383 1967.076904 388.405762
945.060974 1862.338745 493.348145
975.889893 1861.505493 264.982574
1088.503418 1789.271240 462.100067
867.393982 1894.868896 557.723328
966.606506 1854.010742 309.702881
1026.674194 1813.561157 442.137756
1087.895386 1877.395020 579.979736
1010.049316 1877.743652 552.046570
1218.844482 1991.803955 417.101135
806.015198 1925.556030 281.963165
937.835205 1879.094604 369.595154
746.693420 1968.891357 566.718933
1079.334351 1785.758423 466.878662
789.421265 1969.532715 379.130005
1013.365479 1855.007202 448.091095
1122.442627 1835.974365 256.185913
820.326355 1907.819458 555.950500
899.756531 1941.153320 571.414978
875.589966 1895.906250 327.234833
970.072754 1877.351563 386.708862
798.008911 1925.494019 418.597534
946.090210 1867.529785 444.444183
724.528931 1948.191772 340.260132
1060.946411 1798.556763 472.373444
768.950439 1933.017578 502.141724
921.379028 1873.045166 450.350769
1164.964966 1939.528320 552.789124
1174.596436 1928.169678 330.437561
737.491211 1904.761597 298.386230
887.895691 1877.114258 518.882141
974.995667 1846.534790 514.524048
1089.131470 1792.282471 313.034943
913.989258 1958.991577 580.094238
889.530334 1874.760376 528.538696
1017.984741 1887.134888 566.261780
1207.866577 1988.327759 420.355896
1137.797852 1816.955688 399.893921
796.159424 1946.356689 583.777649
796.587341 1916.927124 472.672333
728.030151 1980.951904 532.094910
1145.422974 1836.246216 411.766907
1185.715088 1943.839111 300.714233
891.239929 1886.151978 423.068665
845.596924 1901.973389 544.832764
1077.587402 1803.949585 518.384766
1164.384521 1869.067139 408.547821
878.160828 1899.710083 570.058716
1104.204468 1785.347412 390.075592
1206.396240 1989.723511 388.044769
1160.756958 1832.943481 480.999390
1157.513062 1853.085938 521.348938
1190.065552 1977.046631 292.494080
876.554199 1889.096313 559.960022
924.311951 1953.871704 578.836853
1101.979248 1779.805420 393.539764
1088.064087 1783.681641 453.942261
1083.113037 1809.351929 267.936066
938.452271 1882.035889 333.289124
1072.906372 1851.603516 634.864929
1097.483398 1785.242310 462.539185
1217.662842 2025.189209 462.351166
951.164917 1856.074463 497.914368
1081.895752 1876.290161 637.131409
1024.885620 1822.210083 488.932587
955.241516 1866.083496 464.471313
1061.323730 1811.326660 355.245178
1190.986816 1934.113892 377.068542
740.912659 1946.864014 511.894196
965.117249 1856.105713 550.983337
1111.985229 1776.780273 393.146637
844.566162 1907.134521 423.621368
1044.416138 1858.076172 593.151611
1051.528931 1801.561890 453.827362
1207.922729 2037.386108 249.475082
1158.328125 1919.065552 556.265259
946.427795 1879.285889 273.316345
1186.697876 1946.009644 530.830750
1079.414185 1790.321167 441.255920
780.930420 1935.268188 294.431000
877.661804 1917.590454 576.864197
816.108093 1924.557251 360.633728
1074.388428 1850.829956 670.112915
1046.385864 1878.358887 545.721130
1101.714355 1814.135620 244.898193
1008.985229 1822.227539 509.897491
876.932129 1866.484375 270.808838
752.374573 1946.123779 403.256683
957.707275 1860.280273 303.920166
956.358276 1858.982056 305.358887
924.610046 1872.295410 303.852844
978.224731 1873.306885 408.701294
1008.530029 1833.408691 326.174713
1165.176880 1882.702759 427.737091
1104.489868 1812.829834 264.676392
1200.770386 1975.892944 399.070251
1004.405273 1850.987183 357.877014
927.081787 1872.918945 451.714783
757.717407 2056.234619 513.698425
1103.291870 1875.886230 519.956238
873.213928 1902.171753 491.088501
1042.845581 1805.114868 432.457489
1076.196899 1878.656982 587.659485
1044.362915 1871.840088 587.744141
862.572021 1903.181152 535.591064
1103.841797 1944.743530 595.937805
1235.418579 1949.862793 493.225098
1129.775269 1915.764771 617.881409
1056.168701 1857.963135 572.093506
745.101990 1946.903442 292.361664
942.673157 1870.696655 416.313202
842.746277 1897.618042 540.801819
1213.390869 2049.910156 259.712738
1145.741333 1835.836426 452.707458
1175.031372 1837.243286 489.506989
1006.430298 1880.353027 331.773041
1122.721191 1809.253418 354.517853
1133.495972 1793.766113 483.691193
838.665466 1912.403320 382.820740
829.234985 1916.556641 285.543030
956.326111 1849.561646 507.915741
949.293701 1888.866455 553.254883
860.693115 1902.950562 552.371582
1028.206909 1830.429443 342.677826
1086.534180 1797.277100 504.813995
761.614136 1946.329590 469.850464
1175.809937 1887.342163 517.773499
1184.562256 1979.654785 256.451599
1078.108643 1870.519043 571.849243
847.818848 1946.064209 584.273010
765.702576 1938.543823 475.205627
1046.790649 1814.676270 314.721771
734.152222 1940.945313 537.374268
983.521667 1857.640137 457.016174
951.145264 1873.148071 364.877991
1036.869385 1812.050537 486.760986
1189.973389 1941.468872 575.868591
1199.771973 1900.765991 490.223419
747.504456 1926.698853 464.739716
1195.536865 1950.822266 468.800354
817.374329 1926.001343 597.494934
943.579590 1866.591797 359.399475
964.314453 1866.149536 570.511658
1047.507324 1804.583496 403.663910
1227.447632 1946.958374 504.340698
972.977844 1854.833374 258.587250
1047.307739 1837.443359 260.613403
1019.739929 1817.357910 443.714294
1150.750122 1856.949097 389.339752
1000.267517 1803.483887 270.824219
1192.535034 1942.380127 463.841736
1008.190613 1823.265015 393.953857
1021.085449 1805.528442 360.945526
1225.987671 1906.829834 496.008331
1097.826172 1788.184082 471.368622
834.862427 1915.707031 419.004028
780.961914 1936.854858 479.776245
1029.187378 1837.178833 309.794708
1023.120422 1859.281006 542.320984
1061.653076 1853.517456 593.425720
1060.973999 1922.651001 586.835083
743.385132 1947.197388 317.949066
1030.472534 1861.753906 548.937683
1176.486694 1941.351440 294.556549
1213.012451 1924.959595 507.093262
862.709412 1903.645874 331.281189
837.947449 1956.739868 612.666321
1159.343262 1856.705200 511.939911
955.342163 1861.387085 428.820892
985.188904 1848.209961 540.056213
1075.487915 1808.237183 497.620300
1159.243408 1870.643311 512.576172
1007.591980 1825.156616 521.442871
1091.525757 1816.844971 292.544281
1079.418823 1866.649170 576.731262
1244.288574 1992.669189 493.379486
939.897583 1956.571167 581.147705
993.676514 1839.963623 413.134003
1222.769287 2031.860962 410.354614
741.747498 1943.110718 329.474792
912.017944 1876.750122 446.385986
1135.220459 1914.270020 593.635315
808.244568 1917.971924 386.113281
985.261230 1860.349121 332.403809
897.878540 1867.312622 555.437073
869.173767 1898.003052 492.886963
862.993652 1899.486938 436.989594
839.378784 1956.748535 597.885620
1179.802368 1912.190796 435.596405
951.357971 1873.379272 269.043091
845.972351 1906.083740 308.573853
952.288513 1853.093018 555.030334
948.635986 1866.803101 552.205627
1162.576538 1912.713013 302.707184
1124.604980 1804.277466 379.851654
1011.506592 1835.015625 299.549194
971.664978 1862.111816 476.956726
991.626709 1841.578735 525.747009
1194.946045 2000.575684 263.796173
1005.047913 1852.572266 271.935669
865.666016 1966.577759 590.685608
1081.781982 1852.281128 528.202209
1159.266235 1917.214355 601.447021
957.819458 1893.697388 564.197510
896.046692 1893.130493 286.402191
1140.267456 1909.226807 622.754456
729.626099 1993.365356 509.689728
1138.707031 1808.939697 479.669922
1117.444946 1800.368530 504.266418
831.388611 1906.941162 304.991821
1093.565063 1855.506348 516.716919
936.990295 1860.621216 504.300293
1105.403320 1801.850586 502.540466
1143.417725 1875.218872 518.775085
830.480469 1917.122192 353.776276
1165.933838 1931.438110 569.612000
733.153015 1950.315430 291.898041
885.310242 1888.958740 473.567657
784.218567 1941.678223 344.281067
858.961792 1905.181152 511.156097
920.041138 1828.156372 278.157135
961.879272 1859.023071 294.065765
891.499756 1901.893311 410.985809
1189.114624 1972.675781 418.647797
1119.998657 1806.937500 392.462067
824.066650 1919.550781 449.307251
1155.234131 1891.055664 313.238953
1153.845581 1906.214966 279.211914
1155.322510 1901.523193 246.118973
876.738892 1903.080078 370.912476
923.234192 1863.465942 572.019531
995.472351 1864.682129 325.947662
969.629272 1843.187622 524.346313
1038.296265 1814.466431 435.999512
1059.097168 1805.940308 513.186218
1095.363892 1782.257080 413.452026
1072.911499 1802.260864 351.817322
1156.818726 1889.061890 342.437653
849.328308 1939.455200 595.296265
1229.487427 1945.626465 508.720947
1076.081787 1855.330933 550.254883
816.925049 1933.061401 350.484039
1168.659180 1887.262695 372.924652
1052.629150 1849.851440 671.085938
740.988586 2027.648804 476.921478
954.221375 1842.534790 513.545898
1190.463379 1896.915649 488.380676
813.826050 1931.647339 588.660889
1082.249756 1804.812378 404.054016
722.373230 1949.026245 371.664551
849.933044 1901.925537 438.305573
805.427429 1918.353149 406.997009
795.319214 1920.684204 428.213593
1208.395630 1963.621216 429.124695
1050.508179 1804.121460 376.608276
919.963989 1875.410156 456.775146
1011.263550 1856.968140 542.710510
1169.553589 1908.882446 357.306702
1185.509644 1916.683228 474.264465
1191.319580 1958.631226 582.362854
883.133728 1910.558838 318.746887
973.522461 1838.597534 507.506561
1175.356201 1915.740723 470.367737
1073.714233 1799.653687 365.356506
1214.401367 1990.389282 379.798065
1073.903442 1792.300659 453.906830
997.880127 1843.419556 309.458984
1134.751587 1823.687866 433.273560
942.220215 1854.848511 505.800323
1110.637085 1795.183594 422.377991
1225.980957 2030.765503 416.649506
1082.590942 1807.848389 508.302216
1112.353394 1777.840088 474.628906
1046.125122 1800.363647 437.666992
766.806519 2087.914063 522.029785
1001.109375 1841.483276 301.014465
827.577942 1922.149292 478.172607
764.366089 1938.233643 346.646301
1058.165894 1801.039185 381.793030
1082.999878 1891.386230 592.669983
1002.383606 1886.812988 553.551331
1115.307129 1873.490601 521.695129
1173.998657 1935.951538 311.755707
1083.947144 1800.666992 297.132385
1181.365723 1959.756836 277.483154
1074.489990 1875.343994 588.772522
1039.387207 1862.557129 540.285583
957.018982 1883.160034 335.346710
879.432983 1870.440674 270.145905
1078.516724 1866.897461 524.756836
1230.679199 2012.472168 508.877625
1047.334351 1809.036499 511.279755
797.642883 1930.792480 590.109741
1164.283447 1896.895874 411.708557
735.546875 1938.533081 499.216583
963.837891 1844.975342 521.854065
1179.819702 1894.026001 513.915161
1135.647461 1841.372559 344.225311
1097.173340 1796.160522 308.396393
1178.739990 1943.477051 429.485901
818.827148 1923.379150 334.441132
1033.947144 1828.412476 279.990479
1155.431396 1904.794678 266.479401
1061.156494 1814.938965 523.872620
1155.096680 1908.444092 252.234375
1054.837891 1904.792480 618.766296
740.919006 2018.385376 522.064148
947.049927 1856.594604 496.601624
1155.238281 1909.165894 334.948212
960.217041 1893.417725 549.872314
1066.777588 1861.159668 567.545166
1034.507446 1852.098511 518.511230
786.787781 1925.732910 391.350525
1060.941528 1861.993652 520.242310
765.502563 1934.680420 473.645050
849.804382 1927.740723 360.888519
907.562012 1888.492798 456.074554
1181.976807 1952.706787 554.839172
1108.675781 1796.192627 328.140564
894.059631 1888.494873 328.573822
1052.591064 1813.462402 331.495361
1201.924683 1990.911743 252.787216
900.052917 1882.618530 297.168823
815.634155 1923.656860 523.751709
1057.996704 1801.670776 449.917847
1052.446411 1851.234131 589.400757
1126.644531 1927.359863 530.678284
862.344666 1901.427979 303.649078
1238.144287 1987.590332 497.725708
1135.047363 1918.428467 590.926025
1131.227905 1875.705322 244.380188
1255.202759 2054.129395 249.038651
873.650696 1897.036621 418.834686
1162.276367 1919.204224 520.017944
1087.250977 1887.056763 581.877319
1196.358765 1892.844971 509.807068
1114.525024 1793.196899 259.269684
1148.284302 1859.526855 389.548096
873.301514 1874.603638 540.522644
1022.260437 1846.719116 297.214386
1124.240356 1783.765625 422.642303
943.508667 1865.523926 432.791962
745.918762 1947.485107 559.970764
1004.297058 1829.167969 512.916870
834.525330 1931.240845 592.653320
889.183167 1882.564575 512.640137
852.310425 1912.842163 466.351868
824.845215 1919.870972 362.360016
999.145081 1866.068726 528.210144
1110.004150 1790.207031 503.315155
1047.135010 1883.353271 586.709412
1059.366455 1877.174316 528.279846
937.397034 1870.237305 400.207642
1177.117188 1841.280151 497.107788
1175.572998 1821.457031 498.546295
1153.630127 1867.268188 312.314880
901.588196 1902.635132 320.131165
739.692810 1949.460815 559.162537
1040.281006 1812.544189 499.075806
1171.961792 1885.490356 513.021301
1065.895752 1805.011841 355.266602
1182.222412 1944.532593 579.010681
988.975464 1868.997192 324.664215
1117.151123 1786.330688 496.801117
1177.834595 1933.968872 346.651642
1034.757202 1855.455078 554.892883
1089.013672 1890.692505 533.935547
1022.125427 1822.186523 482.833344
1137.127197 1834.934448 393.444824
1141.249634 1913.239502 609.384155
822.460388 1912.697632 381.296448
1010.249573 1857.890015 528.913208
734.375244 1986.145020 547.270813
1177.902466 1953.536499 597.279846
1207.259277 1993.047852 429.693329
1098.296265 1790.449341 367.545410
1096.213623 1793.457275 378.639191
737.810669 2032.686890 430.298645
1119.588013 1800.881714 410.315247
1029.447876 1827.753296 320.709930
1061.078735 1850.336060 516.500732
1088.117676 1895.100098 602.803955
1106.529907 1800.589111 481.498901
896.838989 1885.027100 496.185303
896.149475 1903.748779 365.112488
763.721069 1932.334351 327.561707
894.519897 1889.639771 395.035736
1032.269897 1860.917969 548.220337
950.382935 1871.658813 286.426483
989.934326 1834.219116 505.332703
1210.094360 1987.860718 457.901642
1044.503784 1862.518066 560.763794
989.535767 1870.478027 556.399841
1077.860107 1787.233887 358.083649
920.498962 1889.826416 452.698395
1045.221191 1821.416016 285.475769
1156.864624 1906.512207 571.051941
965.737000 1908.169556 573.124939
1195.426270 1943.552979 513.155334
1207.327637 2060.311523 251.603912
797.669495 1918.991333 558.029968
831.852051 1888.895142 527.488281
859.893921 1889.761475 269.637695
887.078247 1873.559204 530.541626
867.125732 1949.867065 577.484924
1068.864746 1846.925049 633.791565
1086.482544 1827.193481 249.432816
1199.083130 1953.114990 243.411346
994.454224 1884.964722 331.138519
906.779480 1889.959229 270.975189
814.154114 1926.971680 342.949432
1085.532959 1785.522705 475.544006
1161.545288 1918.266113 592.599670
830.047302 1919.225708 395.168365
989.690247 1834.258057 503.742432
1071.611084 1870.328613 527.270508
1034.740845 1867.733398 558.032288
1115.865845 1777.376709 455.992218
922.558105 1875.702881 324.595825
1142.741577 1826.266968 458.488373
893.910828 1880.552246 573.441467
1203.700195 1989.935425 363.011536
1021.237976 1814.166016 412.673157
1104.592896 1805.965210 294.468750
1030.628296 1819.395142 419.201874
961.522339 1896.200562 568.090942
884.893799 1984.752808 586.409912
1193.484009 1857.759033 493.094971
1056.071289 1801.759033 494.156281
1062.148193 1797.679443 475.742249
1104.608643 1842.309814 510.791809
884.204834 1889.070435 315.208527
819.466187 1905.954590 545.058411
1015.013794 1873.598999 532.543579
1174.731201 1920.719971 613.857605
963.628357 1843.150879 512.310303
1191.144287 1971.060181 343.134979
1071.973267 1794.647217 430.378998
1155.450806 1915.298462 522.807800
1130.405518 1861.950317 277.921967
1108.110474 1780.565186 429.774811
729.911804 1954.887207 324.760437
854.472351 1907.753296 366.506378
1048.090332 1891.569946 607.797546
926.838623 1875.445190 570.354309
806.426392 1913.028687 308.573456
950.369263 1851.613770 524.074036
867.418640 1930.862305 580.681641
806.507874 1902.774048 283.127716
1117.122070 1865.564331 522.768311
966.030701 1862.474976 411.692108
862.510132 1973.405029 599.453369
885.952209 1899.177979 330.313812
1116.562378 1816.663330 312.558044
1136.003784 1839.714966 340.112000
885.635315 1877.996582 566.233643
1079.321655 1892.568604 522.914490
1219.576538 1938.080811 510.105133
1084.202515 1882.313721 606.187134
918.771606 1877.176392 521.646240
1180.677124 1940.438843 278.698730
887.599731 1880.099609 486.338165
881.961548 1876.732544 531.559875
1086.339600 1814.847534 276.682770
1184.063843 1933.409790 404.487579
1017.825012 1836.058594 471.548126
1017.995239 1884.761963 445.942810
1029.558838 1833.350830 527.820923
1036.570435 1833.822021 526.042603
1153.491455 1902.873779 624.387817
1053.378052 1865.612793 618.275391
1117.975952 1788.525391 377.476532
823.496277 1923.179321 466.265991
1165.690063 1914.131836 325.149750
1180.793457 1938.783936 589.273621
938.549927 1855.947998 514.062866
977.664917 1857.718628 327.797638
865.118103 1920.842896 396.053711
1059.909058 1838.662720 250.082474
1195.485474 1967.036133 407.113586
814.584961 1925.061401 394.744934
1069.342285 1864.981323 622.951904
1022.442139 1822.082886 317.427460
1242.829468 1955.796021 505.329834
917.840393 1900.768677 562.179565
1189.163574 1940.125122 526.471130
1146.837158 1856.459229 389.566772
1145.192017 1922.887573 613.371582
1071.982910 1806.951172 447.646820
1027.487549 1807.645264 503.751831
1165.995605 1921.282959 572.525391
1078.615356 1805.918579 441.859680
968.397278 1868.223389 258.373352
862.810669 1893.679810 545.806763
860.104614 1961.733521 591.311584
827.435364 1911.601318 497.393433
1120.761108 1820.333740 294.270325
1085.977661 1789.898804 395.325592
836.265503 1903.126221 506.104431
803.941345 1914.122803 590.367493
974.677490 1841.270020 533.364136
923.297302 1893.003906 395.741058
1079.931396 1789.825806 397.881683
1157.160767 1925.101807 287.848297
819.897400 1924.750000 320.589111
1251.326782 1972.805908 502.594177
1172.369141 1839.496582 489.640350
1008.653992 1840.167969 320.144440
1027.564209 1825.103027 452.225739
1190.128052 1933.214233 601.020081
1234.657715 1992.836914 481.284424
1127.520874 1783.815674 435.242828
1131.833008 1794.057007 373.702271
863.135986 1987.702881 606.991455
1109.877686 1804.220337 271.696594
885.995789 1887.014893 568.126953
840.974365 1944.300049 596.797241
949.659546 1868.813843 279.470337
1141.935913 1858.328857 280.126923
841.966736 1894.565430 535.149902
1015.928711 1824.108276 394.389435
784.673462 2009.360840 608.713257
785.467407 1925.733521 580.405090
1096.051514 1784.324829 456.170013
1197.567871 2000.583618 530.603516
1082.365845 1790.631348 500.230194
1119.358887 1812.478760 333.057648
1091.442505 1800.637085 434.196503
1114.926758 1790.447144 289.801605
970.358032 1843.337524 529.122498
866.123352 1895.572144 440.035187
936.447266 1875.932617 278.832428
809.034546 1911.122070 508.959015
890.221985 1900.346313 344.304962
1092.594971 1804.621460 281.310272
739.659119 1935.661865 513.495056
1174.363770 1857.751221 502.787567
1171.077026 1921.417114 447.093781
1113.372925 1791.738770 355.381256
846.228516 1906.796021 473.682404
1229.068481 1966.937378 502.941437
1000.161804 1851.786499 278.623596
782.716187 1959.837524 586.220825
1181.521362 1944.923218 359.892365
897.734619 1888.973633 298.133911
1064.173340 1882.087646 642.410828
1192.775269 1893.405273 484.327545
1196.136353 1872.838867 517.526550
957.669006 1867.246216 270.127838
1009.419128 1839.815186 443.652985
1169.273682 1895.549316 540.429138
714.554749 1947.740601 422.115021
1162.188965 1921.027344 568.214783
1225.508911 2029.987305 445.638153
1206.116943 1999.172119 382.403931
1010.534851 1851.740845 536.533752
1175.101929 1847.305176 485.429749
1175.932373 1930.668579 364.381897
1080.988159 1843.178711 676.280823
896.442383 1877.751953 540.788208
782.541687 1894.516479 292.418396
1112.285522 1795.269043 402.846924
1001.708374 1855.674561 271.051605
1159.398071 1832.695557 508.234283
818.592834 1910.924438 535.828369
908.702148 1873.009521 566.682251
966.509888 1906.719360 554.594666
937.979797 1864.547729 261.024445
1179.760620 1944.313843 554.800232
783.963684 1935.527222 402.422668
1082.470581 1783.743164 446.762634
1054.916382 1809.600220 446.688263
778.866760 2117.351318 532.655945
1043.699829 1850.719971 532.745789
1061.627319 1827.426270 274.985657
764.736938 1937.821655 562.205994
1075.378418 1791.289795 393.593201
1070.200439 1802.016968 499.284180
1055.423218 1862.886108 572.241760
1172.772705 1897.795898 434.318146
1121.048340 1913.832764 612.826538
1125.266846 1805.752441 376.876587
1126.333374 1799.756592 477.463867
1224.660156 2049.620850 331.008820
1033.656006 1809.570190 425.028381
1125.013306 1803.842896 239.208710
1042.267578 1805.870728 376.407288
1116.320435 1800.041626 487.066254
1060.392456 1800.727295 339.632813
1039.709839 1870.120239 525.896851
1033.883545 1864.937378 561.184753
1053.775391 1888.187622 605.121094
1015.233337 1825.874634 426.331085
1142.559814 1861.181885 283.855835
973.479919 1837.631836 511.614807
1125.511230 1805.167480 508.101135
884.515686 1877.543945 559.161194
1061.290283 1837.133911 253.642731
1058.600830 1852.781006 630.483521
1165.529419 1876.705566 434.902679
971.299561 1859.232788 413.237122
1098.715820 1783.198120 463.869751
1061.999634 1806.892700 414.505463
899.409851 1892.885620 271.200195
951.377930 1876.068481 469.828735
1169.672241 1959.362915 285.549988
838.975342 1911.276855 335.951752
1115.315918 1779.419434 334.314850
1066.027710 1790.950928 444.519196
753.430664 1936.964355 546.721191
760.900635 1929.149536 466.985321
1064.074463 1796.199219 407.377045
1002.374634 1840.257935 304.062988
1002.976807 1832.610718 397.816254
724.257751 1984.790161 485.967377
1191.797485 1931.081909 408.835358
1066.495483 1873.507690 569.481262
930.711426 1876.093872 312.024658
1165.446777 1926.402100 370.848572
929.738953 1886.040161 574.135254
939.286560 1874.977417 278.427032
1051.315796 1804.672729 517.352661
1130.948975 1863.786011 244.289703
1213.216797 1977.179443 434.034912
1162.403442 1852.098267 468.810028
1040.434326 1804.132446 372.999939
1030.975098 1808.461670 375.773956
1180.913086 1934.438232 360.064240
1144.562622 1849.963379 335.623749
790.927063 1938.248535 448.975525
1181.686035 1923.747314 460.302460
711.079041 1954.296997 430.304047
1159.440063 1906.227783 622.799438
1187.848389 2001.826782 276.639038
1065.144531 1864.670288 573.555664
1053.442505 1857.093018 584.466919
1173.414795 1925.512451 568.514587
753.574768 1937.294678 311.700256
1079.346436 1868.580078 652.652832
1075.339600 1795.611938 363.236755
840.479736 1904.265503 547.392334
971.650696 1847.483887 507.173553
936.096130 1882.324097 266.739258
1167.355591 1887.944580 444.822266
964.449158 1857.981445 550.082581
865.078857 1900.806763 391.485077
834.074463 1922.252441 432.781464
1089.327271 1786.274414 437.062561
1094.677124 1785.060547 366.959229
870.536133 1890.552246 271.468201
1152.664795 1919.684692 576.411255
938.441833 1875.614990 367.768005
1085.377441 1784.655884 415.905914
1080.629639 1888.677612 557.951721
1088.187744 1871.045410 646.412048
1168.839722 1933.240479 274.175903
1136.990479 1834.814697 350.549652
970.154785 1861.532471 261.278748
1129.129761 1842.977051 277.890076
1167.812378 1941.809082 283.401947
1045.859253 1857.552246 565.598022
1046.569824 1818.166382 320.954834
884.979492 1900.235107 344.841431
741.548523 1924.482544 286.468353
1128.273804 1782.298828 386.456390
767.102966 1955.882690 335.200439
1161.734619 1888.195435 388.944305
952.495361 1858.937012 468.486847
1223.082031 2029.925049 411.894379
1204.144531 1909.912354 490.595734
908.597534 1897.045410 266.461304
887.818298 1892.402222 404.212891
746.485046 1927.533691 446.691162
833.977234 1904.228760 344.926910
1004.228333 1856.855957 349.782562
1103.047363 1805.177246 358.207245
1197.479736 2015.954712 307.229980
977.662048 1928.337524 571.262268
1019.903076 1827.215698 325.015472
1015.252197 1857.124268 254.476089
1026.692627 1820.542480 404.034851
1079.517944 1788.332520 407.356323
963.578552 1835.080933 265.135101
1224.072632 2061.635254 347.740875
1197.865356 1972.858154 519.066101
1032.555054 1825.390991 364.879669
1156.609863 1867.165283 452.041870
1145.230103 1855.801636 381.864288
1115.544067 1780.477173 419.829163
1023.422241 1844.570190 259.628204
1060.657227 1807.271118 516.436523
1010.354797 1831.950928 507.891357
775.889099 1952.190796 572.871704
981.390503 1848.739136 261.554993
759.370300 1945.330322 416.293274
927.917480 1859.604492 550.071533
771.958923 1936.096558 296.475067
955.724854 1845.859131 521.230042
1016.324036 1829.750610 505.909485
1194.738037 1959.579224 294.012360
1046.313354 1851.404053 522.839233
1165.630371 1930.159424 563.345703
