ply
format ascii 1.0
element vertex 1379
property float x
property float y
property float z
end_header
-750.875183 2123.552979 47.667393
-795.340332 2271.843994 66.454231
-836.605713 1935.938477 142.616379
-672.120056 2042.775757 361.369385
-732.241272 1978.896729 114.186012
-697.337341 2005.266724 61.512409
-790.873657 1970.779053 208.723633
-887.698181 1898.707153 396.863495
-627.087830 2060.892334 208.365082
-763.663940 2188.976807 52.523617
-775.945557 1969.505371 254.468185
-743.614258 2111.956055 42.429665
-743.058716 2000.005371 274.494446
-832.470825 1946.064575 413.745483
-820.232605 2122.987305 4.593113
-816.036865 1949.892700 306.327332
-752.741760 1982.665039 219.173233
-816.825623 2179.066406 28.668695
-811.610718 1968.430664 109.982346
-604.457581 2079.729248 159.814545
-770.666870 1969.278931 255.172958
-850.894287 1918.616577 281.154816
-689.320679 2126.365234 76.768433
-605.261414 2059.191406 117.631149
-613.508667 2220.156982 209.885483
-635.454651 2258.179932 192.983307
-713.143372 2008.854736 15.943432
-750.199280 1965.371704 432.682739
-666.423218 2078.795898 74.871323
-642.036316 2038.042236 89.545532
-769.689392 2002.232910 -15.489700
-641.479858 2189.522461 193.956772
-663.549866 2071.007568 316.889954
-634.017883 2049.256592 244.181793
-823.854736 1911.115356 408.730713
-696.452637 2002.321411 103.180511
-708.381348 2007.236572 454.417969
-677.535461 2020.093262 139.019699
-668.449646 2020.988892 69.171944
-871.338684 1929.304321 243.104584
-908.126099 1871.802979 319.961334
-728.868713 2271.273193 116.840462
-671.747681 2016.923584 139.893585
-907.139648 1884.083130 383.504028
-905.151123 2242.371094 -9.797313
-642.779846 2254.541504 186.133820
-683.638245 2120.705322 343.552185
-769.781982 1971.474854 489.666473
-687.785767 2003.741333 176.007385
-914.004822 1918.972778 337.754456
-734.969055 2092.136719 42.516418
-800.171448 1937.520508 355.447205
-688.125916 1990.664429 365.279694
-584.699585 2140.346924 234.530777
-744.738647 1968.965332 476.399109
-768.522766 2039.887939 142.887604
-611.197571 2140.259766 131.399948
-748.144287 2140.762451 54.540371
-733.757690 2122.595947 44.252998
-727.706238 2043.946411 26.133400
-648.864380 2194.072754 223.584290
-785.800720 1951.780884 386.858948
-817.597900 1961.162720 144.809113
-804.204102 1957.401489 135.554581
-757.580872 1971.784180 438.792542
-661.590759 2020.618042 307.723358
-720.261292 2124.405518 74.550148
-596.985046 2226.832275 203.994370
-704.213989 2212.530518 95.967377
-900.611084 1890.812744 311.868713
-706.880371 1994.346069 299.524048
-595.236816 2118.946289 253.106140
-824.302673 1947.481567 309.907410
-658.028320 2135.992432 99.214249
-726.710876 1991.563232 74.722404
-719.955933 2029.923340 437.914459
-774.258728 2010.890747 -36.401333
-650.265991 2172.883057 192.555450
-806.811218 2224.781494 68.097443
-772.423035 2164.373291 37.996342
-605.183777 2160.125000 254.964371
-740.880981 2029.450073 11.183228
-761.629639 1988.227295 27.264177
-803.387573 1954.666748 109.778564
-656.289307 2044.913330 357.858551
-742.593323 2022.461426 17.014845
-872.320679 1924.140991 360.162872
-624.269775 2054.933594 206.589584
-597.368896 2073.502930 162.061005
-682.758423 2016.639038 157.632050
-714.036560 2005.169067 172.734222
-655.952454 2154.021729 108.040207
-807.878540 1969.934570 34.264889
-761.584595 1996.690186 12.237551
-760.643860 1956.258545 383.819183
-655.345215 2037.093140 117.280983
-901.478271 1881.883545 228.667770
-679.675110 2023.484131 54.804939
-903.361694 1885.959473 305.039001
-572.510132 2147.995605 281.940857
-645.807373 2043.997070 82.899323
-647.608215 2174.134766 209.155334
-784.028076 1956.438965 52.502037
-648.487488 2050.868896 283.272003
-712.649231 2142.373047 72.467018
-563.465393 2131.793457 287.516022
-735.468201 1974.063477 455.217865
-539.880371 2141.385986 292.587372
-577.501221 2096.434082 138.947327
-799.202759 2077.737549 -2.723826
-658.541077 2067.320313 68.422447
-634.985413 2210.756836 206.852066
-730.422729 1979.104248 324.627960
-712.395996 2209.062012 102.395264
-648.322937 2051.310547 288.267395
-722.673401 2191.929932 85.421288
-651.950745 2251.627686 131.691483
-745.624084 1998.473633 1.440937
-578.989136 2215.192871 217.992676
-809.229736 1970.400635 189.354263
-669.734985 2023.664673 324.102203
-718.931946 2082.565674 48.719242
-872.084412 1901.744995 374.049316
-657.860901 2016.288940 309.211029
-684.121094 2079.568115 60.511505
-722.019470 2023.601807 209.413040
-733.237366 1997.089966 290.203064
-778.981140 1953.840454 381.469849
-655.819336 2024.708252 184.155472
-731.745972 2005.940063 219.652328
-824.249817 1954.848267 97.969360
-891.362793 1896.481934 418.493011
-728.484619 2037.856079 15.605075
-758.633850 2011.119019 -23.439547
-684.171814 2023.130859 196.951385
-638.112000 2039.779175 211.870911
-830.554260 1945.373901 176.263245
-652.683716 2084.719238 244.881012
-629.549011 2095.611328 269.395935
-620.899048 2101.217529 199.981918
-852.826294 1919.043091 181.651321
-759.536377 2212.617676 73.345009
-637.471069 2105.330566 273.681183
-772.374146 2232.052002 77.088783
-755.300110 1981.524048 49.264973
-775.429993 1968.578491 395.031006
-642.561829 2130.525635 231.288162
-670.041687 2019.712769 58.937061
-814.730225 1927.393433 432.033508
-651.576294 2217.392090 184.435959
-800.204346 2046.788086 -22.607838
-749.230896 2250.318115 94.964622
-625.690186 2116.514893 227.241577
-702.769531 2013.589478 47.637337
-608.987793 2227.320557 220.531281
-628.856384 2050.293213 192.437408
-704.060486 2077.420410 56.245651
-743.364746 2049.604004 212.392136
-536.217163 2158.312256 297.171082
-699.008301 2085.240723 55.319118
-856.894165 2161.053467 -11.011653
-827.436890 1938.692017 288.612671
-692.312866 2004.472778 349.872681
-546.792542 2140.885498 313.270538
-667.596680 2081.448242 272.240570
-925.479919 1854.250366 347.025269
-691.153625 2006.978638 53.580494
-755.238892 2015.251221 223.377365
-574.066833 2123.252686 275.038239
-756.841675 1995.304443 489.492035
-719.688599 2097.851807 55.410603
-600.592346 2064.679932 136.953827
-598.480774 2098.527100 126.930481
-687.500366 2017.355591 3.958961
-775.442993 1949.667358 411.717438
-564.758972 2122.843506 304.085876
-893.991272 2224.197998 8.217192
-744.596008 1959.517700 453.418091
-820.448120 1964.725098 159.883835
-735.452332 2292.479004 107.665184
-793.765137 1982.341431 200.950592
-757.294128 1982.499756 36.154949
-909.833801 1862.485352 340.296722
-736.617554 2076.308105 426.031433
-694.927429 2209.890625 110.007813
-952.011230 1848.486816 313.794983
-658.972534 2027.693848 195.759384
-697.476685 2168.985840 90.135094
-645.992554 2100.469727 101.852768
-642.882019 2034.185059 193.813507
-779.424072 1932.951538 450.258148
-601.923462 2114.578125 170.016144
-738.976807 1984.099243 407.598602
-727.181519 2070.316895 428.808746
-809.678223 1928.685303 378.678711
-666.107178 2027.238037 354.434448
-776.815613 1967.763428 279.142151
-549.044983 2138.760986 304.552307
-660.433716 2016.436890 332.161316
-655.830017 2022.143555 337.659424
-924.566772 1852.853638 271.113159
-897.963440 1859.166016 237.562088
-718.210022 1985.179810 70.342049
-744.118225 2032.618164 510.284973
-631.339844 2097.510742 223.746979
-769.835754 1976.110229 -0.794614
-800.984253 1926.555542 433.735596
-680.684875 2010.252563 374.534698
-703.273804 2012.452881 46.152042
-655.429932 2254.915039 183.378540
-856.274597 2198.990967 12.299422
-762.730042 1993.973389 491.369415
-628.110962 2201.464355 191.518738
-889.882751 1914.843628 227.999695
-654.444214 2219.061279 173.051682
-638.153992 2140.843262 238.586349
-866.803345 1919.201050 184.899857
-624.188965 2095.195801 231.206375
-758.824707 1967.084839 370.972534
-631.877625 2123.207520 239.835205
-600.500549 2126.482910 275.531525
-690.792847 2087.005859 65.642662
-614.931274 2233.898682 211.953064
-665.488770 2028.468018 106.166046
-754.572876 1982.407349 218.469360
-876.208618 1898.625244 375.235016
-651.564514 2030.297485 235.291199
-638.288086 2041.394653 300.568420
-752.032593 1982.505493 52.530094
-678.607056 2024.082275 383.806152
-634.827942 2125.536133 216.985687
-676.175476 2265.948486 110.050285
-756.030640 1978.051147 84.259254
-645.744507 2047.083618 268.955658
-910.360657 1893.639404 321.038269
-643.366577 2169.155029 175.204346
-842.830627 1942.540894 166.995743
-717.241577 1979.973755 143.784546
-920.929565 1878.550781 356.273651
-692.326233 1998.858032 360.778412
-683.723389 2037.225830 38.359909
-638.869019 2126.299316 188.854584
-623.310974 2196.372070 114.351746
-780.556030 1971.761353 244.831924
-682.553772 1998.180542 335.323883
-579.181091 2124.912109 120.941307
-811.621948 2116.451660 -5.302948
-668.102661 2190.679688 205.450531
-823.008423 2178.440430 13.691212
-740.463257 1981.657959 325.683868
-817.904053 1925.460571 92.173195
-673.541077 2022.779785 41.473953
-696.060608 2013.229492 391.365662
-773.475769 1968.795898 75.417114
-839.976685 1920.950195 394.027893
-598.195740 2117.004395 164.348221
-652.903748 2064.035889 261.578705
-764.547424 2189.825928 64.526367
-631.626099 2187.051514 106.676247
-760.268494 2251.938965 90.577148
-672.708923 2017.866455 182.193756
-688.783936 2001.040283 165.053635
-843.241516 2013.296387 493.784088
-739.167358 1991.142212 48.504101
-657.593018 2013.865234 349.282471
-646.629822 2032.987427 245.821701
-608.731201 2109.260254 262.517670
-823.157227 2086.218994 -14.675597
-686.938599 2275.239746 142.602768
-857.998047 1910.034668 224.970520
-888.382813 1878.484009 346.818420
-756.914856 1965.909302 340.297516
-607.121887 2117.702637 254.169556
-806.397827 1956.742188 320.435089
-750.175781 1985.855713 28.215286
-878.201843 1906.087891 282.171692
-919.030396 1900.657227 349.746185
-789.275208 2233.433594 68.068031
-894.835571 2226.919678 4.759769
-803.259644 1978.386841 148.427338
-792.132751 1979.146606 124.788811
-940.061890 1856.171997 319.507538
-706.907654 2008.727173 230.236206
-729.281799 1990.436523 104.913017
-804.725342 2255.638428 68.506989
-702.388306 2015.987183 407.161163
-827.891602 2230.715576 42.499489
-744.914063 1988.952881 312.177124
-608.766174 2057.070313 193.940521
-621.301697 2111.551514 198.179001
-826.233032 1942.201416 126.495186
-736.054810 2258.553223 105.610229
-760.097412 1971.741455 336.870575
-839.029968 1919.422485 225.268326
-621.259521 2109.249023 223.658646
-679.975952 2010.087646 171.594574
-693.277649 2024.721436 46.080112
-744.121094 1965.525635 443.363831
-614.885803 2228.643066 207.467285
-874.209290 2215.833008 11.888688
-633.092773 2207.089844 219.601898
-685.345093 2002.004883 147.471268
-644.483093 2026.260742 164.515015
-848.474792 1936.879395 249.570251
-784.583374 1964.121704 108.826637
-599.271545 2139.088623 256.518799
-661.449829 2010.038086 332.738556
-695.148560 2000.935913 318.605408
-938.056885 1868.839600 329.330475
-645.996948 2116.155762 273.740723
-789.722656 1980.337158 5.887190
-540.145630 2169.047607 282.360168
-622.750000 2104.331299 259.960815
-663.092041 2033.478516 194.405350
-913.568054 1881.273926 262.813843
-733.043884 1999.944580 274.521729
-695.705322 2038.693115 389.322479
-634.801331 2045.446655 86.099319
-774.922058 1932.393677 458.727600
-843.939453 1921.400635 358.023010
-643.782776 2071.400146 250.102768
-791.985840 2081.087646 1.763148
-702.887390 2013.433960 214.048828
-726.355652 1990.673706 435.112122
-785.463135 2210.339844 48.373596
-733.653687 2215.546631 91.746964
-593.665405 2117.738281 237.616455
-717.692322 1994.372803 384.871735
-626.822571 2125.350586 187.519806
-541.402405 2150.787354 306.610809
-598.703125 2124.241455 134.823334
-903.543518 1884.151367 255.869553
-635.632202 2122.924561 234.246338
-700.964661 1989.543579 403.315582
-741.685791 2080.656006 29.829317
-742.874695 1972.382813 392.706848
-761.083374 2275.173340 87.379044
-729.774414 2052.988037 418.520325
-705.693359 2008.294434 235.871399
-707.445862 2005.400513 416.946930
-720.356567 2025.272705 31.058041
-916.557556 1878.679077 261.012878
-851.196106 1907.885986 168.920364
-792.554077 1934.896973 427.796967
-641.350769 2039.061646 199.394150
-694.534607 1999.856201 324.470428
-714.484619 2259.208008 122.151848
-615.075195 2183.474609 112.963158
-767.836243 2255.729492 85.927086
-547.044250 2161.929199 281.939606
-722.196960 1985.322632 103.999252
-880.593750 2256.027100 12.233270
-634.520508 2039.431885 241.315033
-786.569397 2150.457031 33.069935
-901.894897 1893.849731 326.768127
-777.915710 1969.460205 88.390274
-770.191406 1960.166992 330.501282
-985.163574 2008.665161 411.643616
-848.689636 2244.036865 24.130630
-773.332520 1963.982056 340.102753
-919.288757 1872.158569 335.045776
-882.657349 1894.757935 260.115540
-772.290222 1980.785889 101.574799
-629.842041 2085.951904 105.266319
-600.681213 2155.949463 112.869385
-743.790039 1980.276001 336.427551
-703.212463 2112.032227 69.357384
-721.386658 2229.275635 93.719696
-777.734863 2074.455322 9.956594
-739.085815 1972.673584 472.343231
-806.032959 2209.430176 48.934410
-891.305481 2201.334473 -18.490704
-689.317383 2048.691895 391.095428
-775.690063 2139.981201 32.941113
-665.168152 2015.387207 100.870644
-767.023621 1944.985474 421.540344
-891.346069 2226.354980 -19.263432
-818.905334 2093.947998 -3.728885
-714.840515 2012.904663 428.670868
-797.440491 2087.858398 7.961561
-878.014404 2201.063965 4.632548
-622.635315 2044.789307 92.468521
-591.806763 2127.826660 228.835129
-648.339722 2041.833862 144.548203
-607.508850 2123.492432 266.641693
-630.392395 2046.515991 231.696869
-673.200500 2286.868652 122.558014
-593.436462 2155.435059 265.016022
-776.669495 2125.435791 28.673393
-676.265442 2102.732910 65.187157
-661.035889 2244.745117 152.421219
-807.875671 1967.359375 219.108215
-650.962646 2022.106689 197.455643
-595.165649 2146.890381 258.460724
-855.748657 1914.621948 345.762604
-722.063721 1985.541992 453.033875
-792.233704 1982.101074 12.364093
-870.747070 2211.642090 12.941827
-709.362854 2003.998291 246.601120
-686.362000 2132.037598 319.703949
-926.901978 1897.980713 261.372589
-879.996338 2235.987305 17.142771
-721.596252 2078.533203 41.620972
-891.478333 2215.706543 -23.709700
-631.208435 2082.421631 256.509125
-663.342407 2057.960449 351.643799
-662.446716 2130.187744 94.915771
-740.311890 2043.906128 14.824059
-821.702209 1963.759766 171.054398
-734.921997 2075.976074 32.184525
-708.089050 2009.254272 269.674316
-782.281860 1979.924194 343.848541
-627.897827 2199.070801 205.965485
-584.908264 2094.182861 120.355385
-756.101685 1995.385742 5.418473
-773.404175 2149.031982 43.301785
-692.848877 1992.761841 370.633850
-723.523071 1999.447144 24.160172
-764.763306 2158.347168 47.560101
-615.517456 2120.044678 112.184586
-820.632568 1937.430786 327.652008
-721.227173 2140.221191 58.193951
-796.076599 2086.188477 0.702188
-818.108093 1957.214600 213.251160
-807.921997 1940.875610 415.823090
-678.082458 2019.698120 42.814877
-679.318909 2014.160767 105.968231
-687.579590 2112.897705 64.099220
-746.747681 2264.156250 102.757996
-745.158997 1971.155029 452.465088
-782.793213 2137.421631 18.076237
-788.517761 2013.526245 -12.308747
-647.566650 2088.351807 244.872894
-627.087708 2099.021729 224.964706
-844.605713 1922.084106 194.456100
-801.203125 1946.665405 313.809784
-629.090820 2265.090820 202.292572
-810.944580 1925.704102 106.700752
-795.733337 2131.949707 21.740915
-614.730652 2119.377197 217.192474
-614.340576 2152.816162 252.867630
-821.653625 1940.386963 93.675453
-662.202881 2014.502075 300.570190
-747.859253 2006.714966 243.043152
-787.513245 1933.107666 428.603241
-639.883728 2245.119141 183.299194
-668.451355 2015.593750 84.618294
-614.271912 2117.997803 238.987015
-789.854492 1952.347168 336.671204
-910.983093 2063.277832 474.625153
-891.622009 2223.119385 -14.120792
-762.039368 2247.003174 98.301750
-648.506226 2222.405029 151.509094
-694.192078 2003.244629 369.292358
-627.092285 2053.320557 144.866196
-795.050903 1973.640991 56.438641
-656.964355 2044.133301 121.878494
-716.987000 2000.871338 71.000519
-628.554260 2081.240967 99.352974
-679.882629 2253.095459 169.857178
-774.128845 1962.462524 283.010132
-732.400085 2042.681396 225.131958
-716.380615 1973.447754 364.570801
-805.444519 1967.986694 241.391144
-743.933716 1972.190918 471.983582
-871.201477 1930.703491 160.057724
-674.458557 2026.710327 233.802078
-669.410706 2048.118408 43.751614
-573.632263 2173.406982 276.443695
-853.944824 1917.012939 195.335281
-846.928345 1940.536743 108.805405
-650.494141 2221.734619 163.570435
-913.236084 1862.653320 347.529755
-694.261597 2098.205811 372.947662
-699.319214 1993.660278 133.495987
-760.416565 1969.777588 483.458557
-803.428955 2076.132568 1.568372
-707.981689 2220.103027 116.176125
-754.971069 2058.191650 13.401533
-597.482361 2126.988037 131.035614
-624.742554 2110.701660 281.910431
-728.238586 1974.661011 376.353821
-652.623779 2033.972412 47.707096
-644.235962 2176.715576 180.548615
-728.802185 2075.290527 39.955410
-670.368530 2068.409668 78.937828
-756.576233 2043.127930 3.498834
-777.244995 1935.071655 435.699585
-671.527222 2018.722534 191.885834
-718.531921 1997.697266 43.419315
-702.841980 2009.120361 390.307037
-632.725769 2157.567871 228.286301
-606.956299 2119.992432 157.031967
-793.012939 2090.030762 3.260565
-665.602722 2106.273193 89.258530
-946.145874 1851.729980 309.694855
-892.286194 1893.778442 252.537674
-898.042847 1851.760864 251.402176
-741.946716 2251.545654 110.847481
-700.376831 2061.364502 403.422882
-580.341675 2150.941895 271.846130
-750.356628 1999.809204 188.787064
-730.421997 2019.044556 201.582458
-737.574585 1987.908813 328.508148
-624.294495 2210.210205 171.106262
-718.516968 1989.805420 54.426777
-726.995911 1977.732300 374.654907
-735.594421 1978.342407 418.934265
-892.149536 1922.119019 334.705170
-704.785767 2003.181396 469.241821
-866.118286 1919.431274 373.945526
-806.827026 1922.049438 414.437439
-741.318237 2010.383789 201.336655
-870.046814 1900.301270 169.593582
-795.795349 1975.583130 18.701370
-824.598389 1928.948975 307.434418
-649.554993 2059.419922 255.154861
-678.902344 2014.917358 173.208038
-791.806396 1945.518921 413.009369
-793.380737 1911.043213 94.454727
-765.988281 1976.328491 242.041809
-629.196899 2220.163330 142.722977
-656.147156 2077.743408 75.249718
-658.831055 2147.174805 214.173477
-617.625488 2099.843994 224.267776
-644.377869 2238.339600 129.678604
-806.696350 2280.073242 72.591736
-682.765198 2271.224121 174.165466
-676.544495 2122.582031 353.396301
-654.957947 2244.968750 181.886993
-689.734131 2008.050171 269.408264
-658.013184 2020.355225 85.393227
-694.778564 2263.244141 109.290306
-726.354553 1993.110352 262.362579
-797.690369 1995.433838 172.967896
-750.725037 1951.104248 427.213135
-645.100830 2091.080566 298.019379
-626.734131 2045.862793 131.075241
-675.864014 2017.866943 369.165314
-862.198608 1934.211792 274.968933
-849.070007 2177.077637 24.955051
-677.278503 2244.831543 110.594391
-834.873657 2177.439209 15.233797
-722.406494 2047.631348 431.888611
-713.604980 1997.519775 276.442383
-798.180176 1966.888062 157.676422
-736.969604 2075.784180 27.551672
-811.607849 1914.382935 426.341156
-614.111511 2148.216309 145.247787
-824.862915 2200.468262 29.807512
-867.948303 1901.258911 395.985107
-647.055237 2097.070557 273.302032
-635.631714 2048.996582 72.440575
-797.950928 1984.543091 19.887295
-659.846924 2068.991455 255.710922
-642.144409 2027.717407 129.658478
-721.122253 2001.641968 161.587082
-688.304504 2291.744629 128.129517
-782.507507 1965.391846 190.212341
-870.237366 1909.810791 303.536530
-631.048096 2114.141846 112.781555
-804.924500 1964.641846 32.869381
-655.187256 2070.212402 73.629021
-609.174072 2214.572266 202.345581
-664.018555 2094.134277 285.572296
-653.790771 2051.441895 261.828369
-555.327698 2153.151367 279.526215
-614.901184 2147.535156 109.734230
-634.038696 2048.177979 225.144379
-752.853210 1981.994263 57.945759
-739.108887 1961.353638 463.250610
-594.285339 2066.676025 156.688354
-641.947693 2236.846436 113.428497
-653.714294 2054.388672 270.558441
-738.621155 1986.834229 449.729095
-585.781189 2155.420166 291.951569
-636.749268 2180.363281 231.459595
-634.505066 2200.603271 112.505302
-617.920349 2072.193115 86.478432
-634.802307 2186.176514 212.594513
-654.578613 2227.046143 178.307877
-715.203064 2102.336426 51.101498
-738.195313 1992.365967 250.135498
-791.935425 1957.385498 393.977234
-737.612610 1964.450562 386.632782
-807.095764 1958.721924 89.129936
-885.664795 1890.829468 270.162964
-652.019043 2023.587402 288.661804
-895.953552 1881.502319 273.158569
-709.818970 2005.700928 439.088623
-605.740601 2128.692139 118.824333
-656.030029 2089.161133 275.976074
-688.366699 2083.423828 66.651421
-740.963562 2068.681885 41.459053
-559.793457 2154.921143 263.924316
-723.896545 2060.462646 191.424240
-796.299744 1947.866089 290.695099
-937.418640 1858.751953 281.899353
-579.150208 2132.345215 278.970032
-765.062683 1984.869507 192.809006
-620.277466 2047.755493 112.432419
-749.632202 1966.887329 378.064911
-743.518311 2037.572754 14.756695
-595.886780 2066.066650 102.579651
-699.360779 2016.732788 38.615585
-840.695679 1950.947632 105.876335
-746.705750 1974.510010 456.793182
-895.574036 1883.995972 265.561615
-804.234497 2083.740723 -2.418451
-722.874268 2000.264526 418.889404
-817.972534 1913.965332 413.420990
-640.334778 2213.704590 180.237488
-572.126221 2123.015137 318.249329
-787.446777 2265.852051 68.585594
-829.718689 1934.507202 321.528137
-732.111572 1993.835571 267.867615
-634.369019 2188.619629 205.913773
-620.104309 2210.117676 169.946594
-697.364441 1989.791870 354.753174
-829.391968 2205.244141 29.606365
-648.340698 2215.183350 103.292664
-699.908813 2021.402588 248.855286
-689.022095 2022.828491 63.720795
-800.447937 2122.426025 13.031203
-705.816223 2202.344238 99.177376
-632.606140 2190.327881 226.154373
-568.917664 2155.446045 290.986633
-896.430786 1873.756592 218.114609
-690.767639 2105.853516 68.579544
-727.288513 1972.408081 385.075256
-684.584229 2012.772217 54.397118
-640.731018 2156.885986 179.993912
-746.479187 1990.355713 282.616486
-789.299133 2246.125732 72.916382
-753.877380 2026.835571 5.465503
-748.493286 2203.337158 66.617828
-819.424377 1988.812744 497.643860
-663.062683 2107.325195 100.756020
-833.646118 2253.858887 36.791248
-665.958618 2028.504883 213.238586
-794.424622 1959.507690 92.769058
-829.209412 2131.768066 2.620170
-834.224304 2017.843628 500.568756
-790.131836 1965.234985 116.022362
-809.150513 1956.915527 100.840752
-797.418396 2226.754150 56.709911
-793.292175 2225.830322 64.828239
-737.044128 1993.795166 28.986746
-609.731079 2171.318115 117.787529
-797.121094 1921.308472 437.765106
-640.244019 2242.521729 184.550369
-634.614746 2033.948120 195.955521
-688.847839 2000.224365 361.451202
-749.850281 2283.311768 96.477715
-746.970947 1998.637085 50.828373
-768.872131 1973.853882 313.086151
-872.658264 1906.272461 286.958344
-700.460632 2119.164307 68.020973
-615.950073 2183.926514 112.131454
-845.238831 1927.012207 292.752258
-815.449524 1923.301880 453.819244
-661.505310 2032.140015 291.199707
-618.118652 2105.272217 233.447113
-736.207520 1967.736084 434.384155
-770.854553 2178.114014 53.392536
-779.795044 1943.993652 416.178345
-802.869690 1943.403564 372.774139
-591.547180 2161.244873 261.167511
-662.077026 2025.699585 247.555496
-655.535095 2030.325684 65.718445
-780.642944 1930.625854 466.808960
-823.574585 1929.049683 312.976288
-635.866089 2110.022949 233.689896
-738.599854 2264.333496 118.469902
-754.692139 2198.779297 72.770035
-811.232422 1934.330811 78.245522
-721.543091 2047.149292 453.495331
-800.663208 1975.755859 126.783836
-768.862854 2034.730347 0.868512
-642.910217 2156.643799 109.654457
-657.777344 2023.667358 70.461639
-761.474121 1994.624512 56.291492
-675.842712 2024.093872 381.121765
-691.605164 2007.015625 100.137199
-654.232666 2032.019043 124.972961
-768.805847 1979.041626 258.026031
-792.445862 1959.664429 236.840363
-631.341553 2196.106689 185.167877
-710.471924 2006.735229 233.646896
-769.888977 2274.658203 96.163406
-645.845093 2086.045654 285.669617
-701.089539 2010.732056 241.480103
-716.084412 2016.804810 429.557129
-586.089355 2120.165283 264.821625
-773.412964 1955.697754 358.913971
-662.617004 2023.818848 89.166763
-780.099609 2212.267334 61.062027
-669.244080 2028.749878 128.397873
-749.508057 2233.160645 86.974419
-862.501892 1918.317139 155.098541
-791.037598 2217.340088 62.030571
-611.863831 2226.860596 223.128967
-708.155396 2105.354980 390.186768
-758.902039 1943.331665 429.566406
-908.997864 1925.780396 290.857361
-756.473816 1959.590454 440.628418
-641.507935 2044.219360 95.040855
-660.540771 2087.322021 265.114349
-737.411194 1980.940552 442.267639
-763.954163 1945.776001 482.719696
-720.734070 1986.809326 416.938293
-629.060730 2225.287109 185.951538
-885.563049 1905.204346 202.831543
-761.704895 1976.854370 300.152252
-623.393738 2045.982056 124.063805
-665.212952 2156.564941 98.815643
-661.209595 2232.924072 138.580063
-715.803894 1995.693848 80.009430
-726.348572 1986.382813 337.422150
-596.651367 2093.317383 134.345200
-591.307556 2114.169678 256.909882
-806.616699 1961.609741 154.849808
-606.497192 2063.290527 116.446083
-915.709839 1819.208374 314.791107
-839.386902 2247.510986 44.405144
-721.555603 2010.047607 161.799377
-608.169067 2122.297363 156.268311
-700.031982 2005.044800 81.340370
-796.711426 2049.225586 -31.181784
-599.348022 2100.215332 158.849182
-620.395325 2043.413208 176.816010
-877.706299 1902.056519 287.238525
-907.260498 1885.065063 307.868530
-636.684021 2037.075439 135.554169
-646.761353 2114.715576 105.814018
-795.144348 2133.780029 9.326187
-587.747742 2237.693604 232.296158
-777.138489 1985.423340 74.261742
-746.898926 1948.075806 433.783142
-664.580750 2082.222168 280.992554
-674.193481 2258.783936 163.094574
-823.313782 1944.635742 183.475769
-771.914978 2241.128906 67.739937
-788.667969 2053.026367 -3.602792
-856.278442 1939.752930 242.380905
-648.543945 2223.298584 127.531281
-791.404480 1930.218140 442.745544
-791.529846 1962.377686 118.612885
-710.585571 2000.839478 117.426674
-950.218445 1841.781494 324.105438
-744.023499 2252.142334 102.975769
-614.255615 2053.820313 152.597351
-854.380127 1893.790771 420.261108
-822.912903 1948.114136 197.196060
-596.650513 2224.255127 253.875183
-706.689087 2029.771606 450.473236
-643.357239 2203.164795 110.322372
-785.935425 1934.266479 430.260590
-648.059692 2064.992676 281.485687
-722.848999 1994.934326 379.736542
-781.901306 1957.797241 316.291931
-630.808533 2109.951416 262.280090
-696.627991 2020.494751 386.343109
-655.173767 2157.500000 238.247162
-693.509521 2003.709595 291.150726
-655.867615 2018.663940 167.086288
-644.652100 2133.505371 231.917328
-726.106934 2000.314453 416.828186
-663.344055 2192.366211 228.048447
-912.402954 1877.523926 394.403778
-636.296143 2034.373779 167.141144
-644.469727 2036.197754 102.449860
-806.815918 1979.080444 31.683561
-637.996094 2081.962158 88.924805
-641.758484 2209.176514 109.703613
-630.948425 2100.795654 252.946335
-769.035889 1969.490845 72.421783
-843.026672 1916.501221 270.483276
-869.826660 1896.292358 293.304016
-661.671753 2031.662231 106.067368
-602.671936 2151.503418 134.026749
-585.797485 2134.361328 253.320297
-692.820190 2003.725586 162.955948
-695.227661 1997.231201 395.342865
-830.990906 1938.317627 123.521950
-727.978882 1997.987671 434.403778
-699.114258 2295.388428 168.377731
-858.401611 1922.478271 235.467865
-690.903503 2006.653931 95.522118
-714.835205 2013.043701 203.163803
-635.330200 2068.324219 95.155891
-690.484802 2046.432983 384.449005
-859.546021 1898.688965 396.363586
-638.899719 2052.627686 116.817238
-586.645752 2209.375977 217.381485
-646.118896 2065.253906 240.735764
-788.479309 2274.201660 71.146416
-735.158936 2285.372803 118.315857
-609.297424 2050.953125 166.737579
-793.089905 1967.507935 149.425873
-640.842163 2106.006348 84.516441
-664.669617 2025.950562 296.151642
-774.881470 1969.449341 212.216827
-787.629822 1991.902954 -5.643267
-713.984436 1998.667480 386.282227
-656.337524 2244.255615 171.505676
-599.691040 2124.229004 138.944443
-786.551575 2088.319336 5.612216
-762.636414 2056.231934 13.563848
-661.587280 2073.944336 256.247009
-773.507019 2076.318115 4.187076
-810.383179 1957.217529 199.693283
-815.341797 2078.037598 -15.286938
-640.453491 2037.274780 210.649643
-716.276611 2023.501587 444.071716
-695.018677 2000.688110 361.590210
-695.318909 2004.287598 155.537201
-769.701111 1980.032837 56.472191
-638.980469 2172.796387 109.654015
-822.081482 2000.444214 501.775299
-623.550964 2193.958252 227.129944
-711.684143 2026.342651 11.821126
-885.240845 1894.036133 285.021576
-892.702881 2226.195801 6.355442
-618.828186 2113.350342 209.988419
-769.061462 2114.043213 17.260851
-833.761353 2108.719482 -22.548473
-857.760986 1930.199707 247.106247
-733.075562 2089.220215 42.513428
-688.360535 2282.949463 130.511459
-685.066284 2054.395264 335.107819
-815.234131 2110.052490 2.614781
-637.771057 2071.436279 257.600647
-640.487671 2256.757568 185.292770
-689.383179 1994.214722 164.760330
-608.353516 2077.891113 164.396576
-906.495483 1912.567017 385.273010
-636.234680 2080.226563 102.597946
-656.799255 2105.788574 88.409073
-762.913208 1962.086548 454.376984
-643.203003 2104.677979 214.054077
-773.271301 2073.532227 8.599148
-567.992737 2116.812012 284.335236
-650.794067 2177.066895 179.105576
-744.221008 1959.999023 426.979736
-803.479675 1955.761475 331.596252
-578.441467 2132.072510 268.473877
-610.712036 2075.130371 101.260696
-846.415771 1951.037598 218.655884
-642.283081 2033.026733 150.184326
-662.408936 2250.992188 144.045883
-615.705261 2108.482666 246.532104
-851.737488 1957.940430 398.887817
-927.626709 1835.245239 294.939911
-674.863342 2000.287720 338.462616
-618.032715 2063.951172 147.887222
-723.012268 2003.028564 457.121094
-708.545593 2231.504883 101.483116
-816.779663 1955.312256 171.423859
-736.861206 1982.621460 482.899353
-621.527405 2158.516846 153.799469
-759.804321 2119.515625 27.928810
-632.047729 2071.060791 88.539116
-699.639404 1992.355225 343.531342
-602.531250 2139.197998 124.152611
-862.985352 2225.836426 23.187756
-602.937866 2115.228027 156.445114
-816.016113 1953.735352 156.577011
-845.900085 2178.507080 1.535717
-648.473938 2029.685547 102.913574
-874.951843 1925.066772 379.002502
-726.187866 2255.094727 120.663414
-702.340881 2152.055176 335.546783
-730.807434 2285.383057 208.840836
-775.510559 2141.583008 35.513729
-717.447144 2300.231934 114.252174
-743.656921 1992.574951 220.151154
-772.015625 1968.441162 90.753410
-731.650208 1986.038086 338.488800
-693.781799 2057.733887 34.188484
-731.031433 2097.997070 46.974499
-613.754333 2060.813232 182.271561
-891.219666 1892.974487 244.987335
-914.473633 1911.853760 283.805756
-737.626160 1999.709106 197.771332
-726.970154 2016.144043 480.225739
-616.067017 2088.034668 103.983841
-809.243225 1977.582031 178.094315
-739.465942 1992.277100 284.635223
-716.036682 2150.564697 65.181801
-788.649170 2263.485840 80.419128
-756.008423 1969.348633 497.529510
-706.779724 2008.167969 263.587646
-723.398499 1995.039795 492.700989
-645.227905 2037.583008 228.558624
-674.238831 2018.952637 63.513237
-624.554749 2127.073975 240.649063
-585.493164 2219.221680 237.215912
-759.344482 1984.231079 221.887970
-872.078247 1904.358154 266.373993
-602.372498 2060.959961 140.414810
-799.635193 1958.735596 146.474152
-751.521973 2118.984619 32.686813
-780.349548 2029.680542 -7.916092
-645.038208 2081.159668 225.349319
-725.340576 1991.401978 310.156708
-712.598511 2016.010254 208.363708
-817.338440 1945.292847 204.832489
-771.176941 1992.037842 216.912430
-633.488159 2037.485474 172.967789
-701.319641 1991.298096 346.688324
-844.844482 1903.035889 412.019104
-866.591919 1929.232666 271.641876
-681.083069 2010.008789 369.488068
-852.429565 1898.366943 381.772675
-596.888611 2143.838379 104.898628
-749.703064 1975.914307 86.537132
-691.769043 2273.277344 110.521370
-620.487854 2130.297607 244.181564
-769.020447 1971.987305 88.255661
-783.320862 2042.175293 515.386353
-737.764771 2109.485596 42.177200
-668.194763 2017.773315 286.546387
-698.250244 2227.214111 105.426544
-644.190063 2051.727051 239.624695
-613.737183 2050.077393 112.076416
-718.341614 1996.844360 78.848106
-797.875854 1980.158203 137.831955
-851.119324 1910.000854 316.132904
-632.003235 2197.188965 209.501495
-747.938782 1992.304932 198.522583
-858.205627 1916.846558 211.635498
-861.011902 1916.981201 307.074524
-593.273804 2163.639893 263.105927
-679.196167 2021.246338 382.368896
-582.696655 2120.366943 262.426178
-749.712891 1954.558960 431.416687
-819.402954 1952.921387 108.254723
-607.088135 2066.469482 181.214462
-782.981018 1959.682861 261.151459
-758.654114 1995.958862 200.044556
-732.525879 1981.312134 418.105591
-771.939636 1943.426147 422.061584
-820.668640 1950.458984 314.478943
-866.688843 1888.261353 378.229095
-670.826904 2019.096924 98.744598
-641.875671 2075.104980 252.027161
-836.212952 1921.857178 272.399567
-875.801575 2222.108398 13.642385
-583.263733 2117.551025 269.012146
-741.356506 1986.648071 243.853500
-529.278076 2147.023682 307.562286
-727.372253 2005.294678 14.901537
-618.510986 2060.346436 170.506042
-632.565002 2212.760742 168.525223
-763.834961 1942.109009 433.303925
-695.752808 2292.238037 143.067780
-651.232239 2173.085205 198.705978
-814.579956 1950.821167 95.960297
-898.154907 2222.875488 5.595017
-651.604431 2052.031982 265.505341
-907.127991 1880.078491 285.522186
-745.263062 1957.665405 435.099762
-628.457458 2083.882324 259.073273
-783.470337 1983.105347 9.178805
-603.602356 2095.230957 122.120682
-723.974548 2005.463257 7.293434
-666.324707 2015.682617 307.106232
-660.705688 2029.373169 290.300568
-830.148499 1942.468506 221.928833
-614.350586 2138.356689 98.996819
-931.275085 1860.270874 339.576294
-645.148438 2042.103271 129.264481
-674.935608 2016.447754 71.685135
-657.066772 2091.086182 86.516289
-810.126892 1944.935425 280.068085
-872.798462 1902.583618 202.985809
-747.427002 1977.823853 -23.320292
-819.956909 1936.988525 297.922943
-614.236023 2050.152588 153.387283
-760.107788 2107.068604 33.305061
-898.596130 1882.275269 263.035431
-597.053223 2212.532471 254.390823
-686.042236 2023.515869 83.917015
-640.720154 2043.206177 105.141586
-787.593811 1950.137695 372.225769
-850.130676 2145.453613 3.998980
-746.361633 1968.266357 442.057678
-682.433350 2105.045166 73.275932
-752.952637 1983.846069 358.043793
-744.667908 1984.874512 368.419342
-778.462219 2251.663330 68.063316
-746.258728 2141.673828 66.362083
-740.868652 2186.258301 74.406212
-615.399231 2048.447021 114.769981
-762.883728 1980.504395 231.220230
-803.515747 2241.842529 59.782650
-816.239746 1957.502319 94.943825
-688.144470 2015.984497 302.302063
-828.604492 1938.194702 151.754333
-782.714905 2214.662842 60.811844
-721.009338 2024.925903 428.163391
-623.834595 2172.149414 101.720169
-622.733521 2219.915283 181.969925
-610.264648 2113.624512 219.998138
-754.204407 1986.068726 220.308258
-679.442749 2189.090820 110.041122
-729.200989 1985.642578 113.105309
-642.420715 2073.584229 232.091415
-562.373535 2144.618164 272.486084
-599.782043 2115.977295 150.868500
-619.701660 2201.779785 208.301971
-933.773193 1867.238770 303.682800
-672.384827 2015.531860 305.431244
-782.598572 2041.250366 139.065781
-924.483582 1875.215820 290.986450
-632.296875 2199.963867 109.859009
-728.476624 1993.342651 322.813477
-733.901123 2094.053223 37.062069
-669.308411 2142.791748 98.646812
-640.218933 2181.129395 105.018631
-664.108398 2013.438232 84.031113
-648.463074 2116.472168 215.827927
-716.755615 2018.720093 404.815308
-645.547913 2190.586426 147.586380
-703.667175 2032.865112 48.195744
-830.829407 2217.011475 39.589718
-803.383423 1961.086060 33.640511
-662.360718 2030.407715 118.931366
-766.990479 1955.228638 407.503357
-783.922668 1983.233887 210.990631
-624.038696 2059.591553 173.042450
-796.268188 1972.178589 249.706818
-744.470764 2293.759766 103.654739
-686.244202 2055.375488 359.887054
-659.805664 2258.239990 116.551331
-830.074707 1942.234497 268.515594
-618.452209 2053.338379 206.500641
-756.149353 2273.323975 100.947708
-648.250244 2034.688965 73.824333
-658.990051 2264.935059 111.244263
-687.098633 2000.869995 311.387939
-811.024231 1931.130371 386.139801
-714.656921 1989.923096 333.506134
-628.164551 2102.068604 239.830521
-859.620422 1929.444824 190.122757
-773.849121 1946.010498 405.844696
-582.563538 2119.927734 265.356262
-632.446472 2049.318604 136.547241
-684.637268 2019.899292 59.555992
-738.679016 1984.319214 439.736481
-845.848450 1923.684692 208.404022
-602.801636 2146.171143 116.306587
-731.973267 2270.191162 122.269638
-643.346985 2038.195557 79.315125
-932.474670 1876.297974 280.891388
-756.526917 2201.573486 73.819221
-883.923401 2225.164063 10.815282
-687.512451 2016.411865 134.716736
-653.423767 2042.320679 62.029495
-741.639709 2147.901367 49.244781
-839.264954 1966.451660 379.647156
-820.609558 2167.085938 18.262138
-802.940491 1986.825684 174.804108
-831.804321 1948.359497 136.655853
-824.638733 1935.594482 270.490692
-761.028320 1966.013428 312.655579
-757.587036 1938.323364 440.806946
-746.913208 2027.742676 229.469742
-708.460999 2160.817139 84.561531
-886.833191 2189.011475 -5.229700
-794.862610 2180.765137 38.526260
-631.692139 2117.377197 237.559982
-808.992859 1971.246582 39.053669
-778.375244 1966.339600 80.367004
-752.968262 1984.121094 54.922966
-631.082092 2104.443604 234.081497
-596.267456 2224.473389 221.446625
-782.360840 1966.497803 175.881485
-706.088135 2007.070068 318.540253
-631.281067 2116.884521 243.419449
-752.441772 1951.629028 441.370819
-726.257751 1980.105713 326.883453
-761.089539 1944.078491 457.002136
-801.648743 1946.236572 337.476318
-741.848511 1982.676147 323.365662
-637.746643 2132.276855 105.320007
-613.705811 2206.046143 184.094177
-829.699585 2103.156494 -19.860195
-756.463867 1981.790894 344.937897
-592.921021 2111.254395 144.518677
-847.467346 2208.764160 11.334414
-689.723145 2011.311523 61.932373
-738.609985 2050.029541 22.903606
-813.925110 1957.281372 102.201263
-748.010864 2008.349487 207.931992
-638.382080 2038.905762 216.160019
-631.232727 2044.447510 202.903030
-631.622925 2241.856934 112.180557
-605.642761 2224.738770 212.530197
-758.086792 2003.684326 -7.169586
-763.424561 1955.113525 423.904846
-616.411804 2149.063477 153.353195
-750.480164 2115.762695 42.632824
-789.923401 1965.907837 69.284264
-786.256531 1925.387329 477.872101
-679.929626 2277.022705 103.655075
-626.255371 2053.395996 209.481415
-649.794556 2168.716797 214.909973
-734.381226 1993.024902 204.255814
-744.816833 1991.851318 249.129318
-775.335205 1953.610962 378.959381
-815.506104 1944.230591 166.655701
-738.356384 2164.405029 80.681221
-663.057495 2042.845215 348.924316
-847.067993 1918.337036 374.364563
-766.678711 1964.329834 369.819397
-773.959656 1987.061768 178.000229
-728.013367 2002.853882 451.051636
-731.852661 2129.172852 54.283630
-617.544312 2075.505859 116.242172
-760.508423 1971.047363 83.663818
-643.092773 2151.206787 97.400696
-650.427551 2086.113037 86.577927
-687.053345 2015.347412 260.484100
-781.852112 2057.135254 -12.080760
-653.922363 2236.262695 113.612152
-712.997681 2016.008179 55.903885
-622.384583 2050.751709 161.164902
-595.495972 2066.580322 121.631569
-948.767090 1852.843750 311.173218
-697.614441 2007.159302 187.472198
-619.892639 2109.581787 222.086517
-637.592529 2139.967041 106.716110
-814.501099 2110.000488 8.168105
-729.369385 2256.298340 109.233841
-681.608398 2001.400879 366.794098
-730.364868 2058.655273 24.932352
-737.176880 2002.264771 28.581621
-666.607788 2131.478516 100.781960
-779.655457 2233.980713 60.579750
-852.626831 2201.675293 0.053571
-858.196716 1923.163086 158.716675
-799.858337 1943.735962 430.624725
-675.221069 2099.441895 75.049515
-670.860352 2044.682861 63.756306
-806.118164 1969.162476 216.156357
-926.659973 1870.287720 278.172821
-786.181763 1982.351318 52.287525
-714.009583 1994.049683 400.964478
-728.130310 2000.506592 438.868774
-828.201782 2174.174316 26.785099
-737.726257 1993.360107 444.784821
-745.278198 1991.903564 214.737915
-634.850769 2048.490967 82.949570
-764.155518 2020.044800 499.805084
-611.891235 2089.810547 182.298477
-732.889709 2268.934814 112.898262
-609.058228 2056.320801 136.757889
-826.298279 2173.901611 34.301029
-846.627747 1920.907593 215.590927
-813.676514 2254.147217 74.591225
-695.765564 2111.977783 73.569618
-560.908325 2114.432129 295.634338
-823.027161 2248.147705 57.914104
-627.574707 2096.251709 204.485992
-841.262329 2148.254883 2.876824
-593.873840 2212.037354 232.562866
-652.198730 2031.402466 64.437683
-789.107361 1975.143799 347.184692
-749.651611 1980.446289 283.980743
-617.875122 2057.864990 188.821701
-691.178467 2010.416138 279.343567
-633.310608 2204.478271 185.927338
-740.361938 1986.578491 249.401367
-767.130554 2124.663330 25.576925
-789.872314 1937.309326 471.465546
-668.456177 2012.511597 290.423798
-825.532837 1947.543213 107.193794
-823.848450 1909.906738 437.421082
-745.843689 2113.239258 430.774628
-719.995789 2229.609863 106.184441
-764.103516 1991.079468 67.601563
-899.635254 2213.121338 -13.188295
-862.452820 1902.572998 162.307693
-655.016479 2227.148438 182.663452
-616.919128 2226.377197 195.029922
-655.522217 2243.638428 174.878555
-726.485657 1977.794067 411.720612
-709.286011 2018.837036 211.729294
-841.911011 1937.871460 219.281448
-625.351196 2049.521484 151.182968
-855.429199 1889.028687 421.298126
-876.708191 2220.832031 32.837337
-843.000061 2268.409668 71.815910
-640.010132 2118.588135 224.531754
-849.082458 1937.631348 175.644928
-677.070862 2010.973267 119.026100
-726.589355 1999.999756 305.880280
-630.971375 2097.529053 109.823784
-661.987549 2034.704590 94.082817
-774.251404 1973.322388 324.335876
-724.518616 2049.169434 444.958282
-814.569763 1928.193970 410.687317
-660.899292 2038.780640 268.519104
-697.793152 2008.446411 278.842773
-630.198425 2039.656982 112.746384
-803.137939 1971.764648 199.087906
-681.114929 2045.324829 347.498657
-727.974243 1981.157227 467.812073
-643.261414 2177.567139 203.368271
-742.870728 2000.420410 184.895874
-713.494385 2004.669678 62.804424
-741.163147 2027.561279 3.431580
-815.807495 2133.050049 22.047520
-645.755798 2032.113159 253.669266
-903.025146 1891.829224 386.655029
-898.896240 1894.183350 233.186295
-695.290894 2104.983398 340.270752
-724.669800 1986.488892 82.825302
-600.329651 2157.891357 115.774284
-888.643982 1896.172607 296.080688
-877.556396 1893.378052 242.715149
-724.554138 1991.545166 385.474884
-622.451904 2221.166992 215.470917
-666.028076 2014.833008 323.534576
-717.157410 2065.005615 39.340561
-707.166077 1986.427979 88.469833
-662.515686 2060.699463 310.595215
-725.298340 1989.085083 126.830078
-658.728577 2024.402344 248.979553
-650.361450 2051.939453 259.244843
-889.336792 1880.969604 318.315887
-928.717102 1852.186646 350.368927
-769.880920 2028.389893 505.377167
-815.521301 2251.476563 46.708508
-607.238281 2068.663330 193.721207
-741.568726 2001.963745 225.268326
-638.977661 2121.634033 267.813751
-639.315247 2074.105957 226.211517
-665.349548 2081.160156 265.310760
-838.391846 1920.072754 422.103516
-713.741638 2094.647705 48.755344
-557.576904 2176.746094 293.574860
-653.174194 2032.347412 332.766510
-739.086304 1988.310059 336.605408
-838.169373 2209.496338 31.572815
-598.330811 2241.336670 207.099915
-644.903381 2156.783203 109.397354
-730.174500 1994.885742 293.297699
-694.498962 2293.121582 126.496834
-648.239746 2047.376343 291.071960
-732.918518 1968.515869 389.593872
-688.012390 2010.579346 381.023804
-744.011108 1958.912598 407.896179
-751.242798 1974.963501 496.246002
-897.658875 1888.837769 264.930298
-611.679199 2168.462402 296.497742
-859.865906 2134.458740 -12.891814
-828.739136 1935.912720 228.684402
-597.409058 2072.071777 137.959579
-772.554749 2049.924805 -1.910430
-715.480225 2013.020874 197.882187
-612.006287 2098.138916 113.451271
-797.491211 2173.022949 35.953850
-765.335632 1940.028564 451.761353
-783.298157 2211.177979 69.786301
-927.838745 1860.359985 318.664154
-789.790649 1925.589600 439.378510
-795.089172 2091.048828 2.798121
-866.890198 2228.167725 23.873121
-881.131958 2231.062012 14.643801
-701.133118 2026.106812 461.019592
-674.833374 2012.855469 300.595459
-687.973633 2018.698853 256.686768
-725.821472 1971.389404 398.657074
-660.666748 2025.193970 111.161125
-804.392456 1969.077271 227.445236
-776.282532 1976.411621 61.491180
-651.134399 2029.013062 266.782410
-682.222412 2098.641113 327.954803
-585.435120 2214.914551 245.034042
-824.823914 1955.049072 180.731491
-659.196838 2269.117920 114.426491
-596.042480 2065.151367 164.073975
-771.555481 1971.791870 117.042000
-694.944458 2272.995361 193.928635
-829.575745 1947.494507 224.565628
-642.732605 2110.391602 224.267517
-614.046692 2174.317383 128.745392
-781.639343 1985.860474 169.272079
-586.336121 2234.509033 228.582764
-636.217041 2041.476318 143.266220
-817.711670 1959.213013 111.394958
-690.509277 2175.957520 96.817993
-607.485535 2254.889648 195.770493
-784.436279 1956.671875 278.303619
-730.003235 1994.564575 55.718540
-641.411438 2030.414673 165.606339
-768.305603 1977.583008 221.846100
-629.979248 2058.173096 222.786514
-706.643066 2051.445557 40.647377
-654.090576 2043.278076 128.996872
-874.657104 1897.843872 376.808929
-831.336365 1957.032593 210.513382
-758.788208 2282.900146 105.857063
-901.683105 1879.596313 269.829987
-632.099670 2047.008423 118.722359
-769.830383 1939.937866 44.018391
-641.330627 2159.916992 254.558395
-652.275696 2185.665039 185.786484
-658.281128 2226.070801 172.481369
-634.939392 2075.562500 86.912857
-714.774170 2022.924805 455.943939
-627.660278 2062.269287 229.890244
-760.733337 1972.625488 118.112968
-637.497009 2039.474609 150.435257
-713.064514 2224.618652 97.342911
-827.296753 1914.950073 394.798340
-567.593872 2128.352051 275.589142
-743.460938 1981.891968 80.225235
-868.203064 2215.986572 27.917341
-601.901123 2106.731689 143.471786
-748.596436 1982.302612 318.765808
-700.542664 2006.656494 452.564575
-595.479553 2062.557373 136.761902
-793.010376 2281.143555 87.497658
-675.879639 2006.194458 154.826416
-612.291504 2053.044678 159.912415
-700.622253 2101.920166 67.081268
-621.976013 2045.205811 135.465363
-705.023804 1992.835815 326.460999
-602.501343 2125.848877 146.760620
-654.550354 2033.932739 293.325134
-607.694824 2113.903076 245.466019
-588.589600 2073.904541 127.233833
-861.448120 2159.189209 -0.243023
-868.610413 2252.434814 35.271099
-692.295349 2007.861206 286.288818
-771.213440 1931.965576 439.867615
-666.047424 2230.166748 116.522911
-620.479797 2095.104736 229.047592
-882.204590 2073.391602 495.390259
-668.705383 2182.690186 105.661263
-847.807617 1923.068237 226.344910
-751.209717 1965.099121 441.496399
-875.718872 2249.458252 26.806587
-812.884888 1963.607422 244.314041
-723.404053 1975.699097 409.056274
-731.456543 1994.826172 22.351698
-678.095947 2018.504761 260.823120
-732.262207 2128.609619 58.653835
-806.710938 1949.758301 488.848541
-805.186462 2256.057861 80.005989
-694.139587 2189.851318 106.170372
-650.143982 2161.135254 225.401138
-612.407410 2076.838379 181.146774
-817.491638 1945.601563 282.128571
-754.457336 1991.725830 -2.414304
-630.230530 2042.603882 175.013062
-883.793518 2208.218262 -13.194161
-596.225403 2121.977295 128.133224
-745.443298 2042.420532 8.514366
-821.491150 1956.038574 81.244408
-833.629517 1968.789429 320.025513
-817.299255 2202.432129 26.211477
-609.586731 2187.205322 299.989746
-845.165100 2252.653320 41.017700
-708.642700 1995.266235 376.841827
-877.865417 1907.977417 254.719910
-587.827637 2077.085449 154.163467
-837.892029 1953.587891 199.355347
-884.465393 1905.534302 223.390320
-738.743774 2001.491211 263.481964
-801.245056 1975.310669 132.981766
-709.033020 1993.440674 323.287933
-742.906799 2169.556885 79.948532
-808.257141 1949.687866 299.427673
-734.935547 2115.529785 51.662876
