ply
format ascii 1.0
element vertex 1363
property float x
property float y
property float z
end_header
-416.652649 2105.697998 731.866394
-225.802429 1955.105713 858.757263
-389.728699 1973.194092 704.905273
-360.246887 1984.485229 684.736328
-380.182556 1859.041626 941.744629
-251.490021 1838.539917 1066.310547
-200.543839 2205.294434 776.638245
-183.161011 1869.679321 1036.606812
-230.177292 2020.912842 729.192627
-408.987610 2040.012329 673.040405
-358.009186 1889.139648 907.071289
-312.244354 1837.906372 1098.212891
-228.946930 1946.248779 891.555481
-202.109299 1967.864990 801.266418
-142.885605 1921.137817 1135.191406
-401.566223 1952.734253 731.808350
-196.165436 1939.146362 896.004761
-197.984207 1877.488770 1024.174438
-165.395599 1922.497925 1064.853394
-326.122620 2204.789063 797.210083
-291.594147 1916.824585 891.876465
-183.915237 2150.052734 739.382385
-160.964447 1974.104858 1078.895874
-258.979980 1956.787720 798.478455
-153.397537 1987.672241 1032.296265
-361.841278 2059.197754 709.572876
-304.845581 1815.361816 1066.681763
-194.207733 2015.036011 752.336365
-164.157349 1889.928345 1033.353760
-156.269501 1866.058960 1106.111206
-465.956726 2218.092773 776.602478
-241.711517 1886.765869 997.815857
-414.404602 2058.174805 709.247620
-164.376328 1941.254395 1016.493103
-267.861755 2018.269653 712.292480
-147.187866 1881.986084 1075.819336
-180.547836 1952.166626 869.317627
-163.143173 2081.313721 746.375488
-361.229126 2004.339478 668.336792
-388.139404 2231.871826 794.145203
-374.572235 1851.786377 948.882019
-331.055389 2052.395020 710.408386
-183.126083 2087.336914 731.020081
-323.332794 1921.321777 849.196472
-300.238220 1945.544067 857.521606
-422.860931 2089.185547 716.984497
-407.428772 1822.904053 982.365173
-198.487671 1872.065674 1008.397949
-285.737518 1982.671509 721.441956
-441.758698 2106.845947 726.187012
-120.226349 2032.810425 849.963196
-314.732697 1982.354004 704.333252
-424.604126 1873.848877 905.564331
-393.989441 1786.393433 1089.213013
-165.399017 2124.106689 815.153748
-203.234924 1904.645752 1162.781982
-266.406036 1944.167847 849.760925
-165.043427 2072.107910 818.678589
-437.699829 1789.422729 1013.110229
-226.302292 1975.109253 771.848022
-309.381653 2167.921631 783.515381
-394.390259 1961.382568 722.750977
-468.152924 2182.632080 753.320618
-358.940125 2228.032959 807.284851
-396.375000 1800.913696 1016.075195
-383.809570 2184.825195 780.192200
-250.001968 1964.739380 764.647156
-233.848618 2013.384399 733.165344
-167.844635 1968.076538 1026.692871
-68.868835 2039.093628 869.388367
-370.447876 1795.028442 1051.598999
-162.365234 1930.370728 1003.023071
-397.208252 1941.812500 755.836487
-411.104736 1809.961426 933.346436
-223.066299 2004.852905 734.628540
-308.331665 2033.161133 707.013794
-353.493103 1805.993530 1050.366821
-279.688232 1923.127075 890.229248
-179.002975 2126.695313 799.832397
-432.120178 2210.331299 789.117188
-281.512268 1904.123413 945.504028
-98.593765 2173.104492 846.184631
-160.188904 2009.923950 759.421570
-408.828430 1863.302856 899.163879
-181.794189 1926.917725 918.210266
-317.830261 1804.119385 1072.776611
-81.315857 2061.483887 845.423279
-325.466949 1948.722534 764.677673
-386.233887 1872.246216 906.490601
-209.411911 2023.293091 735.176270
-171.547012 2110.177002 801.259644
-177.608673 1924.960449 925.415833
-155.418610 2164.715820 836.208862
-296.348480 2077.519287 745.222900
-257.622437 2024.982544 701.062378
-221.186340 2226.833984 798.268005
-300.026794 2022.158081 705.336426
-289.548370 1882.527588 960.028809
-273.388214 1953.115356 800.709473
-388.899139 1809.021851 987.361145
-302.710938 2174.977051 783.494507
-217.681808 1961.203003 792.735291
-342.280823 1834.923462 993.417786
-368.306580 2047.106934 702.193115
-98.690071 2138.914551 861.026978
-134.569107 2024.513672 871.161316
-433.045532 1800.926758 1016.899963
-156.847000 1967.663208 924.225098
-342.915466 1898.266968 898.081543
-151.543396 2023.235474 804.378906
-278.747528 2074.354004 737.282471
-239.446884 1850.256836 1030.158203
-237.917862 2031.555786 709.134521
-192.237366 1845.521851 1048.160889
-353.924408 1983.005981 700.697632
-318.766571 1978.920166 704.167480
-270.414307 1925.842651 1168.525391
-302.365173 1911.428955 896.458069
-310.901581 1933.406128 770.954224
-258.967926 1939.641968 855.192139
-182.041351 1969.501465 844.685242
-138.158066 2131.006836 849.306030
-177.110184 1941.307495 894.005981
-312.244965 1853.388184 982.989624
-276.943939 2147.398438 772.366821
-399.225586 2193.478760 784.072083
-257.003906 2127.709961 767.798584
-210.494141 2226.552490 792.456848
-197.606339 2170.011475 768.136780
-160.511017 1885.342651 1090.113525
-256.921295 1968.677002 777.827820
-325.127411 1800.044678 1043.653809
-368.280579 2058.476563 712.926208
-211.175125 1917.272583 940.096741
-293.453491 1850.701294 1016.585449
-193.811996 2023.559448 728.009949
-305.183502 1902.685303 920.540710
-156.517532 1907.665039 1014.497498
-343.159760 1959.817749 727.044861
-183.322861 1982.319580 798.777954
-339.409210 1964.700684 709.520386
-144.157211 2028.685181 861.537842
-392.924438 1956.376465 745.181030
-237.977814 2014.902222 713.595093
-88.878708 2040.333252 859.914734
-287.035736 1984.837158 699.789978
-262.564484 1908.285522 914.685242
-285.197601 1994.134277 690.792053
-442.889465 2121.820801 742.481567
-314.495453 1794.237549 1082.852539
-307.276825 1885.978149 1142.554321
-410.740204 2029.055176 680.332581
-181.462585 2015.456665 758.199036
-401.614502 2225.327148 802.433899
-388.342560 1978.522095 715.003601
-325.156921 2061.414795 723.255554
-29.664591 2066.013672 874.561829
-186.616776 1890.151245 984.772705
-312.476990 1903.928467 900.237244
-168.651413 2064.216064 847.254150
-410.017059 2215.965332 777.441162
-371.562561 2140.431885 754.950867
-233.558975 2008.937012 704.153503
-284.475067 2044.121826 718.213562
-245.088623 1881.075317 973.051025
-204.051102 1862.076538 1037.507446
-253.536240 1851.790894 1019.779724
-221.676651 2016.439941 704.134033
-269.851501 2001.278198 834.761658
-233.408157 1893.589722 966.099304
-376.714050 1989.633545 677.826599
-318.285004 2229.735352 813.723633
-382.033600 1954.136230 733.074097
-363.461578 2053.026855 704.734375
-227.358383 1970.608765 805.310120
-400.584839 1799.970703 1018.721313
-279.104584 1883.906860 955.996948
-180.713196 1978.603271 800.726196
-310.194702 1883.500366 944.375122
-149.333359 2080.070313 729.689148
-406.294281 1881.478516 808.898621
-155.244110 1905.239014 964.802795
-368.962677 2010.789551 692.546692
-399.275726 1890.498291 824.906006
-265.979431 1867.654785 989.402771
-383.327423 2241.878418 824.613098
-284.390503 2242.045166 834.384033
-309.059601 1896.171509 939.339294
-181.742981 1995.011230 791.835083
-198.032867 1842.465332 1045.203369
-257.083954 1906.989258 935.741455
-404.175659 1968.337036 711.899292
-66.438080 2049.463379 871.755554
-163.895386 2064.388184 856.458923
-252.433350 1835.801880 1078.638062
-266.786133 2113.129883 758.501282
-207.334076 1874.913940 1005.627258
-164.841293 2035.197510 837.832031
-228.340149 1962.929443 803.394043
-244.101166 2142.599609 778.776794
-183.302780 1918.683716 946.572998
-169.136353 1991.288208 860.307251
-419.047333 2240.623779 795.955872
-168.776093 1891.190308 1009.744507
-183.721115 1940.726807 892.548950
-201.514938 2046.848633 727.998047
-182.079865 2013.759521 732.285461
-215.933151 1838.614868 1067.396606
-194.972351 1929.472046 911.586060
-201.825607 1839.170410 1116.527100
-142.923691 2046.605957 832.523010
-222.740021 2062.096680 741.048584
-355.582947 2139.306641 748.292603
-435.903198 1817.475342 956.249023
-384.021973 1826.721558 1061.036865
-149.387573 1928.540894 951.621216
-198.296585 1977.158325 782.905457
-403.834564 1815.481445 982.772949
-226.811203 1828.564331 1081.393433
-281.145752 2231.757568 810.046509
-100.920372 2139.533936 862.648438
-218.426544 1968.643066 784.733887
-414.108154 2069.042480 708.141052
-366.942566 2055.490479 711.592773
-161.238342 2046.619995 789.324158
-150.310562 1922.836304 994.549683
-373.666077 2051.721436 703.382996
-332.047180 1815.510376 1099.649414
-389.552643 1972.210938 701.081726
-408.317474 1950.731201 739.810791
-236.069092 1834.215576 1110.427734
-260.608948 1896.306152 951.774292
-207.823990 1979.961548 775.996643
-247.763123 1982.181396 728.732117
-199.531876 2228.402832 809.269470
-236.532242 2003.778687 714.364197
-173.237045 1865.823364 1049.232056
-175.981812 1927.921997 936.121338
-352.314026 1939.410400 827.150391
-272.714417 1868.242920 983.465393
-362.819305 1863.977905 978.679993
-308.628143 1838.331909 1010.633667
-371.090942 1879.759644 904.609436
-148.713028 2032.592896 888.916260
-165.179565 1881.018555 1031.079224
-233.254288 1829.399902 1070.850098
-404.058258 1951.408691 756.783203
-416.992706 1883.224731 835.447754
-163.727005 2023.442383 734.230225
-202.365173 2159.919434 764.805176
-311.867554 1964.073608 742.981873
-197.239029 2009.415649 737.274109
-480.484863 1936.929199 1143.219360
-357.611847 1975.766235 694.195374
-161.511368 2065.580566 786.331848
-164.429657 1890.001587 1037.825073
-213.528290 1892.212769 980.773987
-167.225418 1885.593140 1084.845215
-377.119141 2065.042969 711.980896
-178.491547 2156.169678 820.534729
-205.038422 2007.134766 719.375488
-161.915070 2018.495850 741.264893
-166.848969 2099.099121 851.629272
-386.668335 1998.097778 693.248962
-157.801712 1980.699219 1071.094604
-387.715118 2049.569824 702.264343
-276.391968 2060.207520 726.069824
-277.361816 2185.242432 802.576538
-74.310791 2041.057251 872.420837
-314.339478 1941.593506 754.137939
-181.939346 2174.311523 831.259277
-411.147247 1755.471313 988.836365
-386.931732 1928.273071 813.625183
-182.297897 1969.936279 838.477051
-218.845840 1835.461792 1057.691528
-352.372711 1877.714844 930.904663
-106.735603 2130.391113 857.898376
-422.951477 2170.705078 755.055237
-422.511658 1918.079834 813.111389
-185.312546 1968.977539 829.851379
-351.095825 2141.180176 758.788086
-393.404602 1807.239746 1013.941589
-410.935638 1882.962036 866.736389
-261.932190 1893.094116 957.482422
-336.120453 2038.679688 707.161255
-155.703583 1922.131226 958.726318
-185.159119 1856.419312 1093.969849
-169.330841 1889.867920 1018.528687
-350.344574 1930.399170 823.596985
-186.013763 2173.867188 815.653931
-404.735535 1977.774048 703.690308
-210.540909 1832.429443 1069.736206
-257.475464 1858.496948 1041.583496
-212.498917 1838.137939 1056.224487
-263.199890 1898.906494 969.042786
-392.176208 1866.680908 892.340088
-194.322845 1901.511108 972.792114
-297.047272 2046.505859 711.608521
-86.118027 2103.318115 886.970337
-326.970825 1942.757690 764.230469
-315.779236 2141.680420 762.846619
-178.541519 1899.651123 956.342224
-300.261047 1861.072754 994.740051
-154.793259 2042.331299 781.170166
-161.463333 1912.342773 1020.594360
-150.422211 1963.236938 926.124939
-117.660515 2171.403564 818.719177
-444.871185 1825.021973 1088.104614
-317.417999 2177.855957 788.411316
-243.331818 1966.513306 767.702576
-81.188087 2045.342041 860.113586
-299.061676 2242.698486 824.812378
-165.373230 2017.743408 739.882507
-348.494781 1836.220825 1005.666199
-174.296600 2083.971924 859.538391
-55.757706 2083.771973 870.401123
-229.149414 1984.131348 758.870178
-236.384933 1993.311768 758.519226
-231.223236 2006.933228 707.983521
-190.222290 1848.538452 1059.218994
-239.449402 1980.687622 750.723877
-415.797333 1842.342896 937.573792
-406.621918 1879.201172 812.072754
-420.273743 1811.741943 987.051941
-243.105347 1959.875122 845.256897
-193.373154 2112.413574 747.770813
-161.330292 1900.348999 1029.181274
-331.184662 1976.560791 736.834167
-321.579681 1967.169312 721.253174
-223.867004 2072.862793 742.203186
-148.815384 2059.166992 896.602600
-339.682861 1893.053589 926.820435
-369.547363 1812.678955 1047.723267
-183.985306 2181.234619 800.944458
-386.910522 2104.172607 732.832703
-268.200043 1977.081543 750.219238
-388.453278 1829.239014 984.661804
-247.158310 1879.827148 981.060181
-314.071655 1875.258911 976.199402
-367.430573 1965.379639 1175.903442
-163.218719 2008.256714 753.104370
-259.714813 1822.183716 1070.745361
-256.707489 2045.003418 705.951965
-199.848236 2222.172119 808.352722
-367.246887 2059.518555 714.422241
-92.771416 2076.673096 866.432251
-269.780212 2066.367432 725.318848
-159.884476 2038.236328 824.517517
-322.395447 1912.373657 877.109253
-430.192139 1848.963623 937.468933
-224.031784 1928.249268 918.270325
-311.335602 1963.243530 736.335266
-160.286331 1954.967285 934.927734
-258.920593 1948.220215 818.492676
-233.837738 2104.388672 755.013611
-225.276672 1820.825073 1103.483887
-248.482452 1973.706421 754.072021
-145.054367 1932.656372 1064.608276
-216.247513 2215.762939 799.156738
-376.462708 2113.216064 741.133362
-168.371155 2099.058350 845.900269
-346.427887 2034.262451 700.258545
-183.858368 1911.353638 977.762939
-419.205414 2104.488525 723.967163
-324.870697 1980.419556 704.452026
-126.664185 2170.994141 845.103638
-305.236938 1968.991333 731.384521
-134.811264 2157.030029 839.748840
-145.289139 2038.121460 841.990356
-272.542053 2073.289795 736.198669
-171.764648 2125.643311 756.428528
-272.037109 1863.854004 988.164185
-242.384064 1868.995117 1010.236938
-193.973358 1967.034180 809.304688
-156.494736 1992.719482 788.416016
-421.631927 2154.456543 755.953613
-238.842514 1825.966309 1063.215210
-235.202301 1955.086548 832.092468
-423.647491 1843.608276 920.325378
-157.263626 1900.403076 1054.741821
-389.848633 1800.154907 1019.597839
-195.662064 1899.955322 1158.994751
-269.655212 1977.476318 725.192566
-299.693817 2026.070435 705.027649
-328.117523 2158.767334 771.194763
-271.154449 1968.854492 769.093323
-161.257736 1978.492554 835.270569
-224.903000 1968.725342 871.176697
-152.139435 1944.478516 941.362915
-392.421204 1912.573242 788.985596
-64.281609 2034.264893 884.653870
-336.042297 1832.934448 1002.466431
-234.043457 1888.002319 981.687256
-244.090820 2079.247803 740.404785
-347.812012 1877.280884 937.155640
-254.423721 1972.843872 741.182434
-210.678848 1983.874268 761.450317
-334.318939 2006.667358 689.737732
-289.321716 1908.201050 922.904663
-150.488068 2001.330811 814.122925
-462.823792 2191.601807 772.633728
-451.511841 2200.051514 778.546082
-376.687256 2045.919678 700.264099
-172.038818 2100.640137 755.608093
-382.877563 1844.338379 1109.111694
-155.636810 1947.266724 897.716003
-172.238861 2129.829346 749.855591
-324.533051 1948.796387 765.382690
-240.482758 1975.498413 759.780151
-257.860229 1852.052368 1034.987427
-173.488358 2001.036377 884.893250
-266.563721 2103.976563 743.142090
-379.980988 1864.224243 921.518616
-139.726654 1938.519287 983.112183
-232.125854 1838.380981 1083.086060
-194.051682 2031.855103 731.182495
-339.361237 1949.111572 794.296631
-267.348999 1962.536865 737.497864
-422.113312 1897.337524 851.091980
-363.539368 1922.952026 860.250610
-31.814787 2044.245972 880.686584
-375.837799 1855.306274 944.454590
-189.631775 1897.770386 966.338257
-177.211838 2124.503418 802.666870
-160.900848 2147.966797 837.878906
-288.918304 1984.914673 731.561768
-388.761963 1862.969604 903.048401
-177.692688 2121.636963 820.420044
-419.988098 2109.075439 736.945984
-407.853058 1918.227173 795.518372
-290.023376 2102.330322 749.452026
-337.994263 2119.704346 751.714111
-173.616333 2009.952759 752.131042
-257.040131 1943.175171 866.405640
-225.447723 1911.865601 930.087952
-223.683578 1870.132446 1007.648621
-349.148346 1938.162476 809.311829
-170.929260 1930.772461 918.201721
-159.170242 1876.617310 1126.034546
-253.446640 1864.937012 996.883240
-445.070862 2231.990479 794.301636
-143.580963 1958.594727 898.729675
-460.752960 2194.666504 776.927246
-395.363739 2185.719971 785.881042
-194.473221 1960.747192 854.812683
-165.366196 1990.729248 870.167297
-331.287781 1978.062866 822.401306
-204.086823 1847.702026 1040.955688
-94.503113 2021.692871 899.471130
-399.782013 2169.888184 768.779114
-173.673203 2097.631104 734.426514
-146.476364 1950.374023 937.672607
-421.513672 1885.616943 1125.693237
-241.270798 1954.636963 775.838867
-248.117706 1930.323730 909.712585
-219.719101 2075.063721 747.544617
-255.914474 1936.853149 872.271729
-399.050507 1929.309570 741.758301
-231.462143 1979.480591 764.491821
-371.527618 1882.154541 905.735840
-156.501450 2019.670776 773.612183
-143.681229 1966.351440 924.872253
-329.128540 2104.326172 740.409912
-361.254181 1846.441772 981.955200
-250.443573 2227.451660 815.873718
-280.206207 1970.368652 740.304443
-173.640030 2137.895996 790.058838
-188.399933 1932.737671 907.661682
-292.433899 1838.871338 1029.788208
-235.873199 1822.340820 1070.101196
-159.549377 1982.333496 823.970764
-110.964920 2133.988525 903.741333
-191.775757 1909.549683 937.591492
-196.606003 2182.687012 765.420349
-169.651596 2054.486328 834.890625
-207.337463 1948.790527 875.008362
-454.008820 2241.160400 788.001953
-359.194397 2091.744873 729.736145
-163.754959 1968.779663 835.415771
-356.331451 1882.593628 937.497131
-173.181213 1883.802002 1050.714478
-152.297729 1968.865479 953.072693
-166.994019 1975.186890 1030.340454
-373.003693 1944.445923 795.179626
-151.434311 2110.265869 745.043762
-139.267593 2149.864990 849.630310
-419.644745 1922.621704 807.224121
-160.207062 1943.377563 915.889648
-297.653168 1954.131226 818.410583
-325.033356 1799.835449 1080.906860
-273.868500 2177.365967 789.660461
-271.067627 1968.150024 821.036377
-195.907959 1979.444580 807.343689
-353.240723 1927.916382 805.295349
-288.484467 2014.657959 690.773804
-233.481598 1819.502197 1086.709595
-164.726135 2067.734131 842.334656
-179.623276 1894.336914 963.460388
-151.678787 1970.951660 950.124268
-280.073853 2118.843262 748.603821
-243.525253 1994.502441 717.502991
-394.162292 2001.107056 644.594727
-205.248306 1950.134766 872.462891
-377.358521 1831.876587 1019.235168
-196.138443 1977.770752 777.948242
-301.502899 2174.905273 774.815674
-233.371078 2034.033325 707.121460
-149.394531 1957.119751 906.990234
-313.792145 2102.000977 747.104309
-181.432327 2016.598511 729.989319
-155.824249 2001.239502 772.930115
-287.601624 2196.651855 797.892029
-243.528290 1992.312378 746.757385
-368.231689 2124.160645 744.310059
-278.585052 1957.805176 757.869141
-388.636627 1937.892090 775.041931
-158.712830 2009.741211 855.718872
-169.746811 1979.025024 834.118164
-123.529160 2136.269043 853.653870
-211.400269 1843.599243 1046.247192
-419.188080 1877.994629 864.174866
-262.709137 1964.145020 755.060059
-407.139771 2033.541748 700.059692
-278.216003 2176.241455 789.836731
-174.326141 2086.740723 854.222229
-352.021484 2122.862549 748.056152
-80.604309 2030.040894 884.615906
-185.679977 2164.792236 795.708313
-172.737457 1974.134033 843.372803
-140.366852 2172.424561 841.595337
-405.270782 1924.535889 789.868469
-329.453735 1866.963257 991.792847
-290.008270 1866.109375 1024.046143
-158.281845 2039.788208 780.932190
-364.368805 1905.271606 880.683777
-264.982086 1846.197388 1065.063965
-155.139725 2008.597778 848.181519
-319.702881 2000.951538 689.044678
-412.452606 1859.348267 847.869324
-262.207336 1953.182983 829.721863
-342.389404 1962.731812 721.992432
-143.638031 2057.237061 849.959778
-316.324005 1928.335693 852.639465
-157.849121 1889.813354 1047.128906
-390.209564 1833.536133 959.618652
-186.363876 2178.192627 821.841553
-131.213867 2061.777588 901.381775
-217.808243 1985.977661 756.510315
-403.020874 1954.106689 713.523621
-82.815674 2058.969482 868.209167
-183.623352 2094.665039 874.897583
-181.071762 2144.778564 768.325684
-355.974640 2071.726074 724.643433
-351.676422 2056.348877 711.039612
-175.580124 2122.552979 778.567566
-134.003036 2074.338623 853.612854
-168.911896 1911.844360 954.924988
-226.330872 1919.261719 924.432800
-178.164902 2146.433594 813.350281
-365.032776 1967.606201 704.624878
-284.215912 2164.586426 780.163025
-194.007248 1845.715942 1060.908203
-307.893188 2033.043945 708.853821
-129.035294 2027.111694 860.981995
-159.757141 2050.460205 745.249512
-373.076965 1876.757568 938.413391
-434.120605 2148.280029 760.745728
-143.412430 1909.591309 1069.535156
-156.244934 1984.257568 882.173462
-399.222717 1790.877563 1032.498047
-438.319550 2138.613281 738.038147
-240.632996 2000.281738 703.803589
-202.455429 1869.284668 1031.119385
-162.326248 2127.741455 824.017883
-421.925873 1789.967529 1071.657227
-119.296005 2057.066406 851.059326
-159.757172 1876.745972 1060.032349
-133.154846 1946.601563 922.271973
-179.894714 2103.651123 846.241211
-223.185577 1823.066040 1064.862671
-186.510925 1926.920288 914.766846
-196.968552 2158.051758 762.554260
-180.492966 1884.645874 978.136047
-154.814560 1930.166260 953.770874
-269.033417 2032.143677 714.986084
-350.752502 1999.114624 670.875122
-155.942825 2040.761108 750.818665
-152.604355 2004.049683 1023.105957
-322.132568 2178.834229 796.625732
-169.167099 2010.042847 890.709839
-238.365417 2086.630859 750.712585
-152.370316 2007.997559 931.145935
-302.226471 1966.911621 738.510315
-237.504257 2198.302002 806.594604
-154.134552 2145.451904 842.244934
-114.115570 2046.825928 868.675415
-302.580231 2201.313965 797.386902
-290.153564 2225.931885 815.663574
-197.846497 1846.678955 1050.765381
-395.160828 1937.145264 771.017456
-351.355042 1903.062256 895.596741
-444.595917 2109.429688 726.940735
-368.048004 1903.840332 879.474426
-313.819427 2160.144287 774.877991
-189.556503 2160.779541 755.755066
-393.748413 1853.297852 921.312134
-350.720337 1825.732788 1026.047729
-437.466339 2116.528076 727.206604
-333.373993 1817.845947 1049.265991
-90.652275 2164.613770 825.250061
-201.368500 1963.974243 837.406555
-237.148560 1986.179321 740.208557
-87.883835 2061.517334 866.200439
-318.046112 1909.428833 899.650391
-191.558670 1924.223022 942.961426
-301.280609 1804.651245 1077.345459
-86.111008 2076.130371 872.122437
-349.027283 1872.430298 948.850281
-401.917053 1903.146118 832.309998
-268.816284 1964.182617 769.632324
-393.155792 1783.599731 1046.244385
-199.546082 1922.007324 932.192078
-291.251953 1812.506592 1072.882813
-264.125946 1890.695923 947.791199
-456.142212 2175.985352 739.882446
-381.503601 1990.298584 675.325073
-157.059402 2081.839111 769.611694
-219.597763 2044.191162 722.891235
-373.409698 2152.967773 765.483215
-378.643860 1846.994507 965.942078
-180.177902 2157.244629 828.339172
-329.290283 1946.827759 765.915710
-417.694702 2227.990967 802.088013
-435.405975 2161.833252 760.892944
-156.745529 2062.900391 751.513855
-181.618317 2014.436157 736.921753
-104.051979 2162.671143 824.204346
-405.550812 2073.702881 704.734924
-139.945313 2020.387573 850.548767
-97.463768 2118.974121 919.141052
-289.179718 2208.525635 794.177185
-436.481049 1796.449463 992.594360
-400.075195 1805.234985 1021.401123
-218.923401 1995.578735 752.169922
-425.265320 1840.844727 944.146790
-166.681610 1941.867065 897.671021
-176.793335 1956.052856 869.248718
-251.529861 1943.136963 843.079529
-161.910706 2026.542236 814.870300
-136.244507 2129.608887 845.440369
-312.400116 2088.180908 733.192261
-468.292816 2213.728516 746.749390
-435.048248 1800.073730 1008.205627
-207.808075 2154.270264 767.950806
-481.179749 2239.667725 754.174927
-195.528061 1970.455566 811.800903
-395.307190 1874.933716 875.107544
-374.900360 1854.055908 955.002686
-459.051361 2191.049561 775.191101
-161.812164 1977.274414 922.811279
-215.946228 1954.418945 864.064392
-355.714294 1809.998169 1026.109253
-248.061188 1959.162476 784.343079
-173.219421 1920.409058 998.840271
-185.957001 2165.225586 791.744690
-467.108093 2213.452148 750.932495
-414.272919 1906.573364 832.339966
-356.095215 1953.310913 748.073303
-295.980316 1938.983154 840.644226
-351.062347 1922.540283 816.402588
-275.855713 1925.984741 886.160034
-259.190247 1938.345093 804.033142
-348.946075 1855.551270 1024.546265
-169.071503 2109.339111 739.403992
-323.384247 1964.989014 727.088745
-115.595810 2048.328369 840.050354
-288.040527 1963.439087 848.437256
-430.693604 2185.507813 771.602112
-325.243805 2128.618652 758.406677
-339.470886 2086.735352 732.786133
-169.299393 2029.422363 830.260864
-224.095139 1954.648071 874.925049
-167.461990 1874.779053 1032.869019
-405.630310 1920.303467 807.032654
-264.967468 1905.019165 925.990479
-297.139374 2015.064331 704.820984
-242.022964 1973.539063 776.515564
-291.657745 2169.814941 791.450134
-177.869568 2149.580566 804.897827
-415.131775 1931.986816 788.301514
-345.778015 2021.677246 688.404663
-277.830536 1850.842773 1024.266968
-173.169800 1908.384277 995.883850
-195.646133 2035.730591 719.486511
-198.572861 1867.296143 1035.168091
-77.229179 2022.921631 890.068848
-231.767914 2119.294922 768.297729
-352.911194 1971.335205 710.494812
-200.255219 1887.670288 980.188416
-223.618378 1938.506470 881.016846
-114.651642 2052.868408 848.463989
-202.890030 1845.972168 1033.682495
-306.860474 2168.913818 779.625244
-278.884949 1831.182495 1076.969482
-411.024170 2128.675781 742.006226
-150.765610 1958.815674 941.854614
-157.720703 1939.157959 918.661560
-166.740814 1992.295898 815.048035
-178.677658 2086.579590 839.256775
-176.245392 1972.202759 841.510071
-182.839737 2141.891357 771.242493
-305.079681 2220.671875 810.354431
-323.143768 2189.335938 778.954529
-148.026428 2169.056641 836.822327
-395.102783 1853.691040 911.740173
-246.227386 2024.922241 717.058350
-304.332611 2060.724365 724.985718
-156.882950 2073.770020 746.550720
-392.617523 1942.670654 712.822754
-225.891235 2081.464355 743.540588
-144.816589 1909.726318 1104.216064
-308.794830 1908.213379 923.074341
-211.839172 1978.807129 782.225891
-347.278900 1865.121338 987.343079
-432.352692 2132.819824 750.927734
-396.892090 2121.457031 729.888489
-152.461304 1931.222656 1046.249146
-174.805389 2109.558594 815.570984
-137.701767 2073.782227 852.263184
-328.514740 1883.437866 940.828186
-291.610168 1932.092896 854.075073
-156.001297 2171.961182 835.462952
-348.597656 1981.001465 686.339783
-164.108688 1964.397095 987.391357
-156.105652 1995.612305 803.919250
-155.558777 2136.156006 802.260864
-244.057297 1920.700439 950.604065
-428.591064 1830.188477 919.840210
-239.525330 1984.261963 738.666870
-230.776794 1918.249878 923.790100
-379.312988 1829.646240 1015.500977
-151.552322 1932.156494 982.091248
-161.150787 1947.527954 1062.426636
-186.624435 1935.559937 903.536987
-159.267242 1983.570435 836.709900
-258.769287 1991.964355 716.412720
-310.425507 1946.013306 844.899414
-171.733810 2075.664551 857.414368
-172.828033 1914.697144 1020.177551
-424.815918 2101.977783 727.763489
-298.121796 1876.266479 984.444824
-479.278412 2223.539795 790.144714
-246.143555 1977.045898 758.808472
-383.468353 1834.976685 975.153564
-282.804321 1901.598511 920.844727
-187.639603 1871.813965 1004.702209
-251.900757 1959.213745 773.886780
-154.365982 1907.705933 1051.687988
-220.795074 1843.201050 1051.090454
-407.996735 2188.801758 760.638794
-242.992203 1853.741333 1054.643433
-167.218277 2083.339600 786.404968
-373.450073 1787.654175 1073.031860
-439.648438 1800.542969 991.145264
-436.760498 2211.532227 787.556824
-351.468842 1952.404297 762.931641
-158.535461 1921.966309 938.042603
-165.164124 1894.566040 1126.545532
-393.019104 1911.172729 824.902405
-418.387054 2223.446045 794.237549
-155.772644 2050.681396 723.400269
-343.039886 2157.400146 769.858154
-470.405182 2232.637695 793.045959
-162.963745 1918.114258 1021.800171
-295.281555 1872.314209 991.798401
-234.224915 1957.561646 865.105103
-379.926056 1993.448364 677.893494
-427.625458 1832.470947 914.409485
-327.649506 1917.080322 878.474182
-224.754761 2068.482422 723.858826
-391.490540 1958.760132 722.180847
-82.929901 2118.734131 883.608948
-198.057297 1963.535278 793.866028
-175.070633 2012.399292 738.058228
-145.267426 2016.099365 876.570129
-237.921509 1902.500488 980.960510
-40.455250 2069.148438 875.331421
-391.346985 1907.516846 819.801880
-37.889450 2043.643066 886.841125
-354.737152 1940.164551 771.822937
-369.727875 1988.980103 682.856750
-412.634583 2179.488525 760.776611
-226.650574 2224.991943 790.857300
-241.538635 1886.445679 973.704529
-121.331841 2054.279297 834.706909
-205.441010 1870.182617 994.333679
-479.777069 2218.177490 773.867676
-182.990845 2107.747314 860.079224
-167.076416 2059.447754 811.679382
-402.640839 2049.599365 702.010132
-345.198547 1970.805664 829.495361
-100.838600 2045.862183 859.439697
-221.620987 1868.119141 1015.406372
-200.786057 2104.268311 751.867188
-169.892746 2093.158203 771.081848
-339.455963 1837.609985 1065.843140
-251.384644 1821.417969 1086.312866
-197.460037 1865.342651 1058.343872
-154.737259 2136.645508 847.150940
-181.744888 2102.734375 849.159058
-158.182587 1972.159424 969.841431
-288.260925 1870.463745 983.692017
-227.475250 1874.177124 1146.363892
-189.338806 1919.904907 931.152100
-344.134979 1976.132690 715.758545
-224.504150 2252.800049 814.222046
-166.170609 1929.714478 913.908997
-204.927597 2168.035156 772.269104
-285.785950 1861.199219 1019.498840
-399.920685 1935.948364 751.951172
-382.258667 2097.954102 719.579712
-193.648727 1974.609009 807.815308
-157.226547 2022.457031 900.769958
-303.474121 1977.658691 712.691772
-352.120728 1829.446777 1011.915894
-242.811401 1981.423584 738.463806
-104.948975 2044.356445 843.150269
-115.155388 2086.813721 872.670105
-177.673599 1846.371582 1086.024536
-186.037506 1859.831177 1065.063843
-100.590500 2143.610107 864.664612
-141.067673 1966.383301 892.863831
-204.251740 1931.064819 926.662415
-379.565735 1950.947266 736.482117
-171.257401 2021.318359 720.827271
-326.551483 2010.450806 676.575684
-262.885681 1821.741943 1072.192261
-181.707169 1934.921143 913.950439
-311.996796 1839.642456 1006.319092
-362.455658 2189.651367 782.916443
-247.353851 2133.446289 767.668457
-382.060608 1987.645996 677.985107
-173.842773 2106.219971 739.742249
-425.839417 1830.066284 961.454102
-236.889023 2093.462891 753.337830
-100.211273 2037.656494 884.275696
-397.892700 1950.773560 706.749329
-256.910797 1911.648193 921.479553
-321.582611 2215.764160 793.573120
-295.505035 2044.731323 724.370117
-250.591034 1883.941040 983.747620
-146.002167 1939.276489 919.331116
-304.959198 1949.626099 836.458313
-375.009247 1923.809570 811.022095
-209.220932 1871.804565 1001.136230
-154.947830 1981.136353 898.197449
-290.441315 2113.869873 744.521851
-188.578049 1978.218506 790.460205
-419.718872 1901.599365 816.773376
-176.619568 1967.829346 851.781067
-188.218811 2169.526855 774.139282
-245.484467 1997.170898 734.589050
-143.015274 2034.109863 882.433716
-439.165558 1773.872681 1048.452515
-146.705597 2034.309204 772.306580
-144.757721 2031.534424 776.252625
-372.316284 1905.675659 832.469727
-142.382858 2050.549316 766.658630
-150.657135 1875.269653 1086.867920
-349.104828 1909.645752 886.234863
-417.159821 1889.450562 843.693420
-180.164597 1889.205933 1010.972900
-344.828583 1940.348511 838.944214
-318.757233 2177.750488 782.685059
-406.264740 2241.307861 812.651733
-197.692169 1854.275146 1124.297241
-358.137726 2063.694824 717.389526
-372.074463 1867.513672 949.334534
-255.127838 1813.796631 1106.995605
-424.910065 2070.620605 708.421509
-173.819260 2119.284424 855.949890
-314.930237 2015.157104 698.861389
-433.643433 2099.173096 715.527161
-396.953247 1942.147705 719.039551
-377.285675 2202.204590 778.283997
-279.713806 2027.621704 708.833923
-219.386276 1857.460083 1038.523071
-345.532837 1868.051636 947.706238
-417.400574 1879.681274 848.010803
-215.355469 1969.114746 782.100769
-399.119720 1991.332764 692.057678
-290.870483 1808.641235 1079.509521
-349.242126 1946.961182 799.377136
-146.571609 1997.489746 875.182556
-237.689560 1967.387939 785.549561
-166.162231 1986.111084 1068.342041
-246.694809 2075.510986 738.245605
-332.781097 2070.593506 720.129150
-157.088089 2002.432495 796.549316
-220.927322 1958.955200 820.792603
-207.818954 2014.072144 721.067200
-54.793171 2086.585693 877.198242
-296.955505 1977.708252 714.440735
-229.270676 1887.672485 971.563171
-186.208115 2171.433838 791.830139
-327.837646 1966.936523 715.651917
-343.804901 1925.734131 861.863708
-355.149536 1814.692261 1035.940186
-153.323807 1953.293091 891.906921
-138.527069 2026.143066 846.352417
-386.967743 2118.254883 743.528870
-244.405533 1903.685791 940.714539
-210.867310 1822.591797 1073.633911
-158.535812 2015.475586 856.777710
-201.517685 2005.728027 730.464539
-354.525421 1992.796753 675.773132
-327.962555 1934.181641 764.719788
-178.491165 1923.805786 921.934509
-246.545258 1918.377319 915.536072
-172.614700 2004.759888 750.049500
-160.256332 1993.860718 837.400574
-222.137238 2111.883057 763.320068
-173.857681 1987.723022 781.998535
-260.497192 1977.597290 753.180481
-307.737854 1843.787964 1021.258972
-180.327682 1983.913940 789.712341
-356.983124 2025.850708 696.794250
-171.777847 1983.605713 807.699524
-262.048553 1858.795044 1018.377869
-220.707321 1847.217529 1053.277954
-266.228333 2054.791016 737.743896
-244.992172 1909.104736 970.458984
-427.641235 1837.954712 910.479980
-81.426117 2046.094360 859.280518
-322.105499 1926.286255 862.528137
-293.487915 1930.296997 857.707947
-189.125931 2177.147949 762.561035
-358.923096 1861.027222 1027.591187
-384.675995 1994.235596 658.045410
-212.805450 2223.604004 834.065857
-144.591919 1899.454590 1066.833374
-268.118561 1964.733765 1197.203979
-221.503357 1815.590088 1091.946899
-371.540466 2020.865356 688.737488
-87.006630 2079.969238 908.312683
-402.528870 1814.536865 899.414856
-425.172241 2077.764404 721.744507
-142.286484 2043.513428 742.735657
-183.053467 1924.382446 915.539063
-287.847778 1910.193970 896.308777
-231.155518 1943.680054 870.384094
-299.511200 1870.486816 959.779907
-241.568069 1974.975952 759.021973
-325.885254 1880.513428 939.447998
-312.454559 1953.000854 818.031799
-293.596619 1948.188721 836.330139
-346.838226 1926.912720 848.155151
-155.965149 1912.367432 1020.796326
-250.750488 1841.656616 1051.350708
-170.356140 2000.220337 891.171448
-207.878250 2251.272217 805.742981
-273.744659 1953.004639 782.592896
-412.813782 1848.607544 930.981750
-299.461121 1898.622192 935.667542
-145.434616 2202.738770 853.876892
-264.767181 1840.271729 1039.566406
-361.161682 2089.325684 730.394043
-173.030212 2012.496094 856.644470
-220.905045 1994.845581 738.314392
-227.173492 2010.124756 726.692383
-201.441910 2003.089233 727.648865
-103.604836 2167.033936 844.657227
-151.351227 1919.653198 995.115479
-163.854370 2045.764404 815.601440
-151.806244 1997.613403 800.911316
-304.982330 1958.057983 747.222290
-404.121887 1836.308594 999.023315
-226.305466 1942.001099 873.587219
-451.685822 2127.761230 739.184692
-351.364807 2049.518555 705.648132
-247.068298 1849.117798 1028.119141
-366.546661 1870.245483 947.325928
-429.904205 1809.449219 942.093140
-351.939545 2113.985107 746.135864
-266.264130 2214.663086 814.186157
-161.319107 2180.741455 812.618896
-195.299026 2004.324707 735.804565
-220.035141 2249.777100 814.039001
-134.463989 1950.682983 911.916992
-338.490784 2195.895020 780.394165
-387.062256 2188.676514 777.752136
-193.054916 2171.376953 783.891052
-293.367981 2150.148438 778.970276
-97.770531 2050.984375 846.765503
-82.766174 2076.814453 872.973511
-182.825058 1977.082520 818.025513
-235.338409 1921.895874 921.649719
-225.980911 2246.514160 794.477905
-185.510574 1881.600830 1002.478882
-151.033676 1953.991699 907.827881
-33.620708 2062.536865 886.034302
-323.877350 1957.259277 740.097290
-220.418030 1911.145386 943.262451
-221.408112 2237.614990 882.809021
-304.198334 1819.702515 1052.319824
-339.532410 1950.803711 796.695313
-443.950409 2168.725830 771.537109
-339.004669 2058.627197 712.537048
-144.916931 2084.610352 757.860046
-199.880692 1854.819580 1034.264893
-198.732239 2198.374756 782.667603
-243.637360 1903.725708 981.071106
-129.869156 2186.607666 832.291199
-338.247162 2139.849854 762.406189
-148.753708 1912.265991 982.828491
-316.711426 1863.116455 982.103943
-127.357185 2161.657471 840.924011
-148.040009 1963.807739 901.830261
-234.532730 1876.030884 1002.294983
-269.907074 1991.527344 705.342896
-469.559845 2178.759521 763.572632
-418.474670 2051.517578 688.246460
-282.752991 2023.999023 704.383240
-323.401794 1855.748657 976.929321
-196.923676 1837.979004 1102.975586
-406.671967 2157.477539 759.775452
-339.222931 1863.781006 956.683594
-166.357422 1904.324219 1027.346802
-259.612457 1953.098511 791.108521
-149.285294 1967.467041 995.902466
-157.461884 2016.195557 740.645203
-205.461807 1892.731812 965.161743
-104.148560 2166.829834 852.091187
-303.958099 2115.120117 749.921753
-317.208557 1815.946655 1075.266357
-233.679825 1915.492188 925.371704
-295.901001 1878.879150 963.101624
-154.746155 1874.625366 1043.063599
-153.333481 1926.851074 969.179016
-283.912231 2097.116211 747.502502
-150.736435 1954.220703 902.520569
-195.607056 1842.682617 1061.139282
-202.517731 1958.850952 813.741943
-146.630219 1891.920410 1046.802490
-268.709808 1862.448730 992.410828
-410.796997 1822.437378 972.369812
-233.854401 1955.659790 846.179565
-406.058167 1897.681152 841.519470
-157.383606 1887.222412 1041.041138
-64.286270 2050.763184 882.482300
-38.396835 2066.365967 879.241943
-88.228981 2131.923340 867.558716
-136.635101 1957.496948 930.500916
-227.307800 1990.832886 740.066162
-351.435852 1866.192505 1039.344238
-177.893921 2151.968262 757.204834
-414.709137 2086.885986 698.084595
-223.639771 2221.590088 800.766174
-145.657181 2029.142700 888.330078
-376.753571 1818.092163 1007.993103
-379.016602 1910.201904 829.072693
-406.719727 1980.970703 696.368225
-142.147491 2077.461426 869.553223
-199.042145 2018.186768 724.711365
-312.772217 1908.381714 880.349121
-282.461853 1924.729980 885.829712
-277.200562 2134.041504 764.208740
-280.853027 1877.630127 988.603088
-396.539307 2035.535156 691.842224
-141.560043 2013.766235 880.731873
-171.974396 2018.913696 734.365723
-216.394211 2159.480713 773.628540
-275.166901 1885.156494 962.305969
-288.325134 1973.780273 727.358582
-358.152374 1948.613403 767.580994
-186.951965 1854.179443 1057.939331
-155.707779 1971.902832 876.609436
-357.404114 1934.941284 841.156860
-397.300934 2181.865723 776.882385
-356.851990 1917.650757 835.330078
-432.963959 2127.369141 741.613403
-172.563522 2096.975342 817.317261
-86.174469 2162.398682 844.667725
-103.030731 2076.101074 862.136597
-167.041824 2035.588989 816.659851
-387.891357 2044.591797 703.159180
-283.978363 1873.111084 964.578186
-348.728149 1823.321533 1102.241821
-239.372879 1984.954224 726.187256
-194.494965 1931.685791 902.566528
-180.566269 2091.906738 836.427917
-290.350128 2160.064209 785.672668
-311.907104 2203.644043 797.359131
-154.553757 1876.300293 1075.795288
-300.207153 1970.066040 756.103027
-141.948822 1922.600952 1080.668823
-362.425293 1960.856079 727.709351
-153.379944 2013.915649 861.171082
-327.075531 1950.724731 756.842773
-320.318329 1981.864014 692.537231
-332.731750 2138.108643 765.718811
-167.216064 1905.916992 980.362000
-314.735718 2168.074707 782.706238
-191.016022 1859.327881 1022.733521
-159.361206 2013.854004 898.477234
-216.958054 2002.681396 727.640259
-164.496887 2002.580566 842.023071
-382.488831 1916.906006 810.816711
-273.093994 2211.928223 822.511292
-342.302673 1950.262329 763.286072
-193.507401 2091.215820 745.382813
-164.522614 2190.082031 839.039185
-406.062012 1885.505371 815.653625
-85.588799 2050.976318 867.749146
-237.272034 2014.953979 699.153625
-255.793716 2080.956543 752.698669
-148.567017 1867.691284 1068.319458
-369.137482 1878.243774 899.574890
-302.481567 2183.130615 788.018311
-126.661331 2034.165894 849.324829
-217.405075 1971.767334 825.356934
-417.565125 1855.926758 914.177185
-273.413574 1964.496094 731.966919
-235.491302 1971.596436 781.817444
-137.525391 2021.764526 870.269531
-142.586899 2142.976563 832.304199
-150.352859 1923.567261 1094.212402
-314.106201 1955.802734 831.978333
-314.552460 1964.688477 730.214355
-368.755493 1861.108032 935.615295
-333.927307 1936.560303 862.811035
-386.404724 1834.646729 960.774658
-398.587280 1817.234253 1002.993835
-382.006378 1854.768188 929.296265
-409.016052 1819.005127 972.908813
-213.072617 1916.404541 955.024841
-168.974060 1999.370361 895.563782
-254.129822 2002.423828 708.816406
-361.826324 1947.563599 747.502197
-167.846375 1911.229004 942.474976
-146.162354 1993.714600 877.905884
-212.472153 1955.829224 876.756958
-341.991241 2064.750977 711.599976
-188.461502 1919.977661 1165.298950
-439.168060 1780.634888 1014.735840
-271.150879 2154.551270 779.987244
-276.745392 1942.602661 1176.347046
-301.508453 1923.159546 874.414001
-326.543701 1802.368774 1062.703491
-157.099075 2182.043457 835.234680
-367.140137 2238.046387 810.948364
-73.424362 2103.281006 882.904541
-479.940857 2231.010986 796.134888
-269.094574 1953.954102 793.243958
-277.248047 1948.146851 786.122864
-313.110229 1835.338257 1031.673584
-252.432266 1953.563599 787.803589
-346.654266 1997.181274 698.086792
-145.809738 1907.544312 1048.340820
-212.165070 1874.745117 986.448486
-154.409729 2047.931274 949.264954
-179.733627 1970.413818 814.530762
-157.197098 2048.889648 858.073669
-222.136230 1866.885498 1026.774536
-350.051941 1889.157471 926.671692
-393.500702 2043.094238 696.633240
-64.894226 2072.914307 873.300537
-380.424347 1885.939331 857.699280
-290.239380 1888.856201 932.384766
-360.531433 1940.266113 766.612793
-311.464569 1938.085449 819.443115
-213.721649 1970.890625 809.431763
-164.610199 1895.792114 1049.090088
-405.330017 2169.286865 765.525574
-373.808289 1954.952026 668.275330
-148.710464 1964.081665 1006.136414
-268.166107 1879.893677 969.297241
-238.639694 1854.550903 1034.562134
-386.287140 1961.532471 729.962708
-230.981216 1985.558350 748.067017
-158.626907 2014.851074 847.736694
-229.893799 2148.871338 781.798767
-334.843292 1986.539063 722.240967
-292.153717 1904.116821 913.229126
-419.717133 2042.872070 682.739319
-207.362595 1928.632813 920.396667
-365.495117 2106.387451 735.972290
-179.175873 1955.492432 877.319397
-147.878082 1955.447998 890.495300
-189.780273 2041.154663 743.269226
-341.583496 1946.634033 824.673340
-158.644623 2070.186523 743.773193
-218.925583 2011.070313 732.513184
-213.945419 1945.416504 891.455994
-319.172028 1948.899902 822.840027
-338.221771 1900.783081 891.033264
-203.878647 2232.270264 822.641663
-161.553268 1921.296753 945.551331
-230.032318 1961.284790 798.992798
-346.724579 2235.327393 800.545715
-164.146027 2044.337036 742.039001
-141.270782 2165.198486 840.542236
-315.622467 1993.238647 694.042542
-192.660385 2084.954590 743.110779
-312.584259 1886.389771 921.451599
-352.626984 1866.839233 960.237183
-153.817902 2166.410889 838.755249
-227.864975 1960.513550 805.306580
-384.658203 1789.474609 1049.951172
-165.421692 2009.361084 882.109924
-255.633041 2153.739502 782.477966
-79.995964 2067.683350 864.877136
-123.060242 2039.205200 859.198608
-158.519318 1915.670532 1019.495911
-397.072144 1996.188965 690.136902
-401.982666 2030.415039 704.650635
-396.379211 1951.880615 731.691162
-214.305954 2153.031738 770.835388
-184.381699 2173.951416 766.056030
-143.839066 2020.315186 849.073486
-226.191391 2045.771606 726.868652
-285.649170 2040.032349 715.120911
-366.342499 1921.461670 828.425537
-106.007927 2181.252930 841.216187
-218.619705 1996.397705 734.264221
-161.413940 1886.310425 1072.515991
-410.319641 1895.512085 841.569275
-209.618362 2232.257324 863.165649
-295.918762 2241.928711 834.241394
-190.467636 1867.891235 1053.971069
-332.573547 2093.656494 727.917419
-137.240631 1944.582886 965.730164
-387.226532 1959.308105 739.057068
-388.125244 1914.393921 801.757507
-190.930527 2040.585327 725.983582
-293.388184 1991.571289 704.662842
-304.338623 1909.600464 898.774963
-353.463196 1935.172607 837.173462
-416.063110 2044.162598 691.766235
-387.607788 1832.765991 965.527527
-122.503586 2028.379639 891.911316
-205.894363 1940.575195 900.532471
-126.216103 2063.207764 825.593994
-387.609802 1846.182495 963.705688
-175.411362 2013.571777 768.915710
-345.668427 2138.514404 758.142395
-173.135773 2013.041016 774.550781
-410.046143 1762.070435 974.271790
-212.305969 2035.292847 706.637756
-380.963226 1848.982422 921.323181
-216.127457 1895.849487 995.171265
-150.091110 1935.242554 943.245300
-420.935242 1814.776123 974.901367
-241.248032 1976.368530 748.331665
-334.060791 2023.714478 691.642944
-86.760643 2081.210205 869.523926
-327.913818 1849.116577 985.862427
-321.699829 2161.632324 765.063904
-178.910416 1938.471924 897.046570
-348.805603 1937.646362 781.125916
-232.329163 1984.187378 736.752686
-269.444489 1946.315308 849.545715
-394.617676 2201.880371 790.220642
-303.926361 1963.130127 734.320557
-266.148773 1969.276367 750.656677
-245.847275 2050.543701 721.573914
-148.254120 1994.907227 929.315918
-392.570801 2062.323730 707.240845
-169.428497 2028.282104 838.765076
-166.693314 1903.245361 1002.633362
-347.178528 1950.228271 814.781433
-381.786407 2245.643311 814.248901
-195.959442 1870.726196 1027.095703
-81.442268 2162.064209 834.073486
-326.173615 1955.477661 750.911499
-203.823257 1964.193604 798.334229
-184.234772 2143.473877 764.706848
-207.281570 1941.572754 881.196899
-338.716797 2088.630859 729.174622
-414.881836 1892.578613 829.276245
-279.593964 1895.421265 1154.327026
-414.935181 2169.341309 763.660706
-98.739838 2022.042480 890.319519
-165.545349 1907.853638 968.331360
-203.496017 1967.588013 780.130981
-137.505997 1918.985352 967.925842
-255.791153 2034.529419 719.765686
-378.540283 1935.547729 778.038757
-428.875763 2222.414063 795.300171
-283.125885 1989.726807 698.443909
-113.822578 2149.377441 825.381592
-382.424500 1918.839478 806.783630
-280.233765 2107.372314 753.612427
-159.142441 1918.644531 931.926392
-308.598297 1919.669189 879.164124
-371.010529 2017.224609 688.680237
-128.880981 2036.285645 873.505310
-292.273834 2020.431396 706.759705
-349.600006 2010.067261 694.569519
-167.511734 2138.272217 811.703552
-163.162170 1889.651489 1023.617981
-336.996765 1902.626587 866.969482
-205.332352 1971.135986 836.751953
-166.331421 1987.157349 856.926758
-352.611877 1988.443604 692.255615
-173.921844 1925.403564 926.485779
-214.556702 1868.344360 1021.346313
-342.679749 1909.736694 892.549316
-156.074097 2076.128662 797.105896
-298.261047 2025.165405 700.412292
-148.999054 1918.200562 1116.658813
-249.484314 1957.652710 784.482666
-228.639557 2096.536133 741.798645
-299.785858 2085.323730 728.194336
-211.783051 1951.356812 852.281555
-240.410065 2171.280029 793.050171
-382.764404 1906.709717 810.681458
-306.094971 1979.412476 704.227417
-122.730286 2143.911377 848.261230
-241.158173 2085.590576 746.881775
-128.865723 2139.683838 844.104736
-272.257751 2067.860840 728.624390
-117.781067 2041.777222 864.439880
-276.372437 2001.500732 719.442322
-288.474854 1970.471680 726.156982
-208.049805 1986.044189 748.940979
-40.393875 2065.542480 867.409546
-135.048737 1885.719482 1072.011719
-177.524551 1874.967529 1082.155029
-174.134293 1987.616699 787.208679
-323.956543 1791.363037 1076.468872
-428.172119 2058.895996 702.798584
-239.545929 2145.495605 787.270203
-136.763458 1962.330322 917.817017
-143.980072 2032.056396 759.766968
-215.313782 1973.597412 825.841675
-57.046425 2078.911865 875.040283
-357.797211 1943.829468 808.326355
-131.625443 2140.386230 848.907959
-159.426697 1889.536865 1136.381470
-103.815109 2032.949463 840.812561
-298.099579 1841.861938 1043.006958
-231.751877 2098.714600 755.193115
-198.095856 2099.042725 747.967285
-210.318634 1964.080322 822.071350
-223.737793 2082.522461 743.287415
-302.392944 2162.714111 779.911560
-308.522675 2028.643311 705.123169
-376.270081 1987.683472 691.927673
-177.563721 1884.365234 1053.897461
-272.864807 1981.215210 754.263306
-146.250366 2040.748291 863.404968
-392.910339 2069.945557 707.603821
-111.428726 2035.967407 833.744446
-216.397156 2081.246094 744.649292
-263.715942 2227.474121 815.678040
-164.095032 1915.627197 949.128601
-149.570450 2069.380615 830.272217
-324.158081 1965.960815 809.200806
-255.136978 1920.337891 897.108276
-398.146851 2209.526123 793.637146
-384.310394 1813.751831 991.210693
-391.730347 1899.331787 837.444397
