ply
format ascii 1.0
element vertex 1365
property float x
property float y
property float z
end_header
2048.105225 876.264160 -724.381165
1872.167480 932.209656 -772.517029
1880.902222 861.791077 -789.752502
1864.472900 719.186768 -796.109497
1784.509888 830.705261 -850.449707
1788.985352 666.180481 -931.437805
2089.554932 876.824036 -755.894714
1747.187378 589.833984 -988.337891
1930.171143 801.927490 -686.735718
1964.163940 861.652893 -702.255127
2009.052612 759.465027 -733.880981
1824.483765 809.916016 -769.415161
1904.637695 850.527466 -702.901672
1963.357056 843.258850 -687.634521
1864.375977 859.491028 -786.160400
1764.035767 631.745056 -976.920898
1671.863159 824.320862 -1051.267944
1911.102783 591.798828 -723.528137
1740.714233 857.714783 -941.220093
1832.993530 699.474609 -778.968933
1848.176880 712.669373 -773.523193
1983.579102 852.456970 -693.402466
1863.067017 638.987732 -765.321411
1728.130371 823.842102 -930.720581
1725.926025 608.348450 -1037.823364
1723.112549 866.910339 -1080.429688
1853.285034 953.371277 -770.949585
1989.775635 959.556396 -750.893066
1715.375732 807.629395 -996.193237
1748.653564 689.477905 -1074.910522
1782.940796 594.694946 -905.012085
2072.541748 878.076050 -764.244934
1785.395874 757.430298 -1121.524902
1854.952026 692.423523 -744.566345
1740.180176 851.797913 -911.254150
1846.960449 719.486755 -811.239990
1948.269287 868.950134 -814.225769
2003.094482 688.510376 -740.029358
2074.532959 614.640991 -771.117432
1721.209106 899.734192 -1028.936157
1841.660156 860.550659 -793.627869
1815.139893 764.649109 -831.923279
2133.593750 731.497131 -804.726746
1886.721069 847.506165 -750.982971
1845.849731 633.466064 -837.826904
1997.665405 742.349365 -724.698242
2071.444580 649.058899 -779.324707
1688.457275 840.515442 -1018.961304
1797.240112 911.901489 -948.504944
1770.141602 890.959778 -976.081360
1790.494019 870.171204 -855.893738
1865.574829 663.377869 -751.807251
1908.713257 658.283325 -681.282776
1863.207397 787.171204 -717.012878
1710.129517 803.527466 -1018.253784
1733.025269 706.908447 -992.433167
2118.526855 622.861389 -798.976318
1935.276489 870.247253 -723.156677
1802.435669 641.763794 -919.521118
1773.087158 689.012207 -942.840027
1822.776245 798.306213 -806.213562
1856.269897 834.151794 -706.714661
1823.785522 810.111023 -813.798035
1968.438354 690.378906 -712.661926
1916.244629 922.622559 -826.400452
2035.832275 872.164124 -739.561890
1738.225098 877.818909 -962.752563
2087.858398 705.898804 -772.565002
1870.289795 714.583740 -840.884338
1815.574463 709.529907 -855.181152
1847.155151 847.203491 -745.801575
1913.582642 677.297729 -653.205200
2082.526367 858.603516 -738.172607
2024.444458 871.776672 -731.860840
1989.570068 668.752014 -719.977478
1943.490234 600.685486 -681.927124
1849.512329 918.965881 -772.036316
1854.585815 587.233826 -841.874756
1767.841675 588.658325 -984.052002
1713.352783 835.553406 -966.758301
1762.203979 668.116699 -973.789673
1686.446411 792.236572 -1032.577637
2079.928223 615.569763 -768.545959
1877.101563 844.111084 -709.556091
1843.806885 670.799377 -829.897705
1949.853638 841.720520 -683.946106
1782.300781 803.758850 -889.553894
1939.920288 838.968567 -672.916138
2090.768066 630.325012 -781.352966
2092.207031 719.976624 -767.701843
1779.481445 646.234985 -923.023010
1802.423462 680.792419 -897.749756
1876.566162 829.509460 -686.681274
1881.246460 906.483154 -807.205811
1878.086304 947.770752 -749.883667
1935.250366 638.452087 -699.326904
1732.574097 754.706970 -982.988525
1864.490112 818.696411 -695.220825
1847.078003 610.449768 -842.143311
1715.009033 822.908020 -952.176392
1723.095215 862.636719 -961.658997
1958.259644 966.084351 -774.960510
2053.798340 807.585510 -756.407593
1998.512085 615.223145 -734.173523
1918.970825 718.363342 -691.124146
1873.195068 673.620422 -711.038208
1854.972290 865.472656 -768.545959
1892.028320 628.311035 -739.932312
1786.883789 627.118225 -916.861755
1795.806763 890.308899 -858.635010
2074.675537 825.181824 -768.051758
2088.644531 607.043945 -767.618286
1951.228516 940.999329 -768.270447
2052.427246 858.369568 -707.324890
1782.813843 749.417725 -901.672791
1845.147827 812.988098 -740.728455
1856.576050 689.409241 -772.022461
1832.014038 653.528259 -875.251709
1902.184448 581.264099 -739.482910
1841.888306 587.072266 -826.463623
1784.148926 667.706299 -965.120178
1747.776733 679.077087 -1046.555054
1809.157959 633.750183 -903.417419
1953.659058 932.810608 -766.135803
1849.746704 720.689087 -807.901245
1864.333984 689.791626 -729.164551
1876.925537 745.974670 -720.234192
1809.832764 825.135864 -801.428589
1725.159058 808.974426 -946.023499
1763.047607 861.891235 -867.594849
1832.540649 820.389160 -740.109863
1828.729248 703.924988 -854.465942
1732.915771 715.714294 -1000.022827
1817.892212 693.482849 -855.110352
1923.651489 761.080139 -695.861145
1819.982788 661.755981 -854.023010
1966.290894 902.840515 -757.742981
1723.073608 853.831177 -986.242310
1871.387329 638.214050 -788.141724
1888.193848 850.755432 -740.699280
1875.839233 972.415527 -766.257568
1944.930420 817.570068 -690.464355
1927.141968 615.021606 -708.354797
1951.353027 971.313599 -764.569214
1856.743408 714.831360 -740.493835
1713.279419 841.412659 -1079.842529
1854.354614 786.860901 -729.058960
1879.400024 761.750732 -680.280334
1903.427002 749.931030 -810.396729
1790.709839 792.623413 -862.314941
1746.271484 613.787354 -1004.131470
1994.300415 868.954651 -719.621277
1932.117188 843.999878 -675.287109
2152.919922 659.158691 -813.454163
1743.864014 605.487427 -1025.260864
1959.357788 739.932007 -704.278870
1864.882690 856.196655 -795.952332
1836.881470 657.678101 -860.246643
1984.830444 703.890259 -715.002319
1783.086426 661.976013 -930.020386
1721.743164 894.261719 -1037.252319
1797.593384 852.353760 -822.826843
2151.958984 665.523865 -812.837830
1736.026001 765.893616 -979.123047
1891.464722 741.294312 -679.852173
1860.058960 898.469360 -789.169495
1739.810303 824.596436 -912.560181
1839.046509 796.670959 -752.829468
1819.276733 826.806519 -780.680298
1854.368286 738.755859 -740.324524
1939.087646 796.126465 -703.313232
1873.931641 617.789734 -768.813232
1746.276367 865.054321 -894.119995
2003.434082 779.254517 -719.278748
1713.375977 821.762817 -983.136169
1794.156982 731.056458 -889.222717
1774.978638 788.956116 -889.878906
1922.627930 898.752563 -799.762451
1790.403198 650.909668 -929.217896
1879.368164 916.273132 -810.042969
1959.333862 895.973816 -772.372681
1745.863403 768.612244 -963.114563
1816.726074 730.111938 -852.339172
1977.109497 911.021240 -744.875244
1843.788208 896.241272 -828.115417
1880.061157 592.337524 -789.263916
1868.353394 906.156738 -755.416138
1951.260620 888.521667 -809.574097
2062.811035 801.519592 -759.658020
1748.269165 858.534302 -883.070618
1701.430664 680.484924 -1090.781250
2066.698242 768.683838 -764.715454
1858.411011 683.718323 -765.820679
1873.080933 740.361633 -708.486023
2013.724365 892.850220 -782.635742
1872.075806 930.992859 -764.824036
1836.710571 755.826538 -780.012329
1767.088379 880.795654 -858.069824
2094.133789 607.378479 -757.890869
1792.336182 768.662720 -880.159180
1725.578735 911.536560 -1039.305542
1882.468384 788.585022 -671.358704
1809.409302 594.572083 -913.321228
1812.672607 702.552307 -870.602356
1927.811646 856.393799 -743.097961
2084.930420 795.785889 -773.408264
1928.571167 725.137146 -674.387146
1849.349121 641.651306 -837.729553
2056.091064 706.504517 -759.648071
1975.911743 862.232178 -728.243347
1990.104614 631.254150 -720.940552
1888.975830 726.904114 -682.005737
1843.534546 734.847351 -736.271973
1842.061890 794.000549 -772.333801
1815.218994 617.640198 -923.152710
1728.408447 829.119934 -946.377380
1799.172241 605.449951 -922.844788
2006.595581 884.274597 -758.261353
1825.067017 613.757507 -856.095032
1856.219971 789.758911 -714.825806
1786.771118 738.768433 -916.723694
1912.581055 788.320496 -681.029419
2059.797363 843.903015 -743.648193
1962.964233 868.658020 -732.439331
1808.056274 894.009766 -943.237305
1752.553711 847.046448 -889.430359
1834.302612 634.496826 -848.026306
1804.977905 832.078552 -819.337402
1789.654297 841.218262 -827.424011
1946.973022 622.674011 -703.580811
1887.770752 797.143066 -680.410522
1897.591064 672.689514 -719.930176
1884.566895 656.739319 -723.888306
1716.179932 860.354736 -977.745239
1882.620117 915.794861 -747.049072
1863.754028 863.127075 -779.057007
1844.899902 633.342468 -849.231018
1823.793213 833.541992 -767.827576
2006.328003 639.999512 -724.073730
1832.584473 628.484131 -867.059937
1851.690552 868.582397 -792.313843
1856.917358 736.476074 -734.496399
1910.488770 856.398804 -710.145996
1780.163696 841.731506 -849.740601
1980.110352 814.702393 -716.748535
1733.009399 846.696228 -946.504272
1768.816040 646.037109 -974.643188
2042.787842 839.168152 -736.656982
1862.317871 902.079834 -793.718567
1821.685669 621.579651 -861.443970
1958.325684 683.677307 -701.065369
1932.328857 601.263733 -681.814514
2047.814697 713.230469 -752.712524
1869.657104 729.057983 -705.704468
1878.398682 639.931702 -739.296570
1743.647949 763.764954 -987.913635
1837.143921 815.467712 -756.144470
2184.670898 644.801697 -820.094055
1775.106689 587.475586 -973.146057
1792.020386 880.057251 -862.965088
1897.388794 731.823242 -673.079163
1783.377441 648.150330 -942.667419
1826.284180 810.025330 -788.568909
1863.606689 606.514221 -813.398071
1842.718506 960.182556 -781.858887
1828.676758 626.492920 -856.216919
1851.885010 699.843628 -745.340637
1877.385010 823.606567 -679.497131
1848.527588 916.029297 -970.601929
1864.960083 839.870850 -727.425415
1966.806885 709.298584 -712.658447
1818.767700 595.370178 -861.059143
1701.978149 826.869995 -983.404358
1821.380981 800.313904 -825.338318
1856.332153 812.694275 -725.561035
1736.999023 741.255310 -1014.833923
1796.041138 664.742920 -934.259949
1878.881592 679.468384 -833.590210
1843.744385 637.445557 -834.950378
2024.931396 916.830505 -772.008911
1691.310547 796.717102 -1024.160278
1722.630127 854.020508 -970.640381
1965.823242 722.047119 -711.342834
1967.851929 907.716736 -758.650269
1908.019409 715.058228 -691.694031
1808.360840 670.653259 -895.169678
1834.880981 797.186035 -772.109497
1868.782715 953.654663 -764.144531
1801.711792 783.159363 -889.770325
1872.299561 674.962463 -736.726257
1709.820068 587.056152 -1028.559692
1807.661621 721.001709 -891.830017
1928.516357 848.105835 -695.217957
1801.512573 844.771790 -816.102112
1783.401733 817.770447 -883.005249
1825.389526 839.431335 -769.154297
1807.507202 654.962524 -889.168274
1903.074707 603.060547 -741.755249
1800.513184 630.892944 -941.697388
1744.268677 830.189026 -946.775696
1872.071655 881.361023 -774.047546
1858.017822 721.649109 -729.630859
1704.560669 843.184570 -1005.696716
1983.597656 858.398010 -714.268616
1850.804443 762.826721 -831.786804
1820.667725 615.871948 -877.094238
2113.145020 771.089111 -788.795471
1728.405396 857.484497 -973.430481
1764.744751 660.607300 -968.953857
1874.231323 711.408325 -707.121216
1805.286377 829.665344 -808.540161
1762.824951 665.520020 -1030.187378
1804.386719 663.490173 -892.273621
1879.368286 936.883301 -749.370789
1848.444580 873.278320 -833.389465
1866.484131 999.606262 -762.936646
1973.981201 879.889099 -779.531982
1776.572388 851.128357 -846.278625
1796.096680 767.640381 -873.489502
1901.333374 742.112915 -694.791992
1865.882324 954.685974 -762.009216
1941.245117 715.477356 -680.265320
1888.382446 682.010132 -814.412231
1785.571045 600.846619 -935.560181
1987.590698 626.693726 -719.831421
2124.691162 623.434875 -787.710693
2073.951904 737.296814 -766.653748
1778.605591 921.359619 -996.905090
2015.061523 744.963196 -733.035217
1786.433350 589.160034 -952.461670
1868.070923 902.103455 -771.338318
2007.988647 862.157532 -707.187805
1875.924072 773.555786 -681.956726
1896.763672 763.249207 -692.744507
1882.598022 913.512756 -774.539917
1856.141846 682.748230 -781.129272
1730.601074 804.434143 -956.184570
1806.119019 807.655457 -834.011353
1792.833862 883.594421 -925.565979
1743.804443 824.988037 -916.841614
1783.777222 841.750305 -838.691284
1868.299927 652.520996 -809.973511
1818.600098 896.075073 -918.496399
1775.548096 839.025269 -867.075256
1974.332764 761.549011 -714.923828
1785.925903 635.498474 -937.072998
1868.880371 722.803528 -723.742920
1885.400269 728.666321 -708.661621
2034.119385 867.219910 -737.419312
1907.028320 629.862488 -700.961487
2148.066650 633.027466 -812.688416
1849.320679 731.091431 -762.476440
1840.949463 638.697083 -824.035278
1850.145264 705.422180 -761.925293
1917.190918 605.145630 -694.982971
1975.247925 648.737671 -725.602356
1856.909790 801.753052 -707.774475
1882.060181 602.754822 -764.956787
1862.323608 620.442322 -791.382996
1878.878540 830.645264 -673.508057
2015.460938 803.903015 -724.679932
2001.482544 801.419739 -727.637390
1830.680298 673.461365 -857.444458
1856.887817 689.595154 -785.578796
1766.748413 581.044800 -960.615601
1954.775146 857.916321 -713.759216
1877.674805 643.614136 -762.979004
1778.863892 823.769287 -861.981628
1718.067017 628.274048 -1036.423340
2016.245728 722.870361 -724.670532
1857.825562 596.559753 -823.349792
2037.205200 933.753418 -777.976196
1692.927979 822.167236 -1000.789673
1690.457520 800.470886 -1023.657776
1808.104858 635.681824 -902.636169
1798.645142 616.914795 -904.909912
1954.685913 683.812012 -698.724670
1772.512939 881.350281 -923.544189
2045.178833 630.565491 -752.675049
1881.506958 593.624390 -785.309265
2063.321777 804.906738 -758.864807
1840.721436 651.007385 -846.372314
1805.947510 584.896301 -910.896729
1960.853271 664.923889 -705.066711
1734.614136 644.725830 -1013.703613
2168.440674 688.363586 -811.888123
2172.965820 690.365662 -822.886536
1958.273560 644.300964 -703.694397
1891.733154 974.267578 -774.425781
1804.750122 687.073303 -889.814697
1846.176392 864.487061 -779.818481
1760.032959 859.756348 -926.755981
1708.756104 801.591370 -993.406677
1698.860596 842.667053 -989.701843
2094.595947 863.281311 -758.741699
2017.895752 749.146790 -734.543335
1766.242065 859.425415 -859.276794
1698.586060 792.413452 -1011.766174
1701.276978 789.579468 -1006.654297
2151.356689 671.096008 -799.447266
1798.615234 775.741455 -855.749451
1765.841797 625.498474 -982.799866
1782.702637 778.142456 -1123.585815
1913.953613 871.148743 -780.801636
1997.205933 936.186340 -731.333679
1892.608154 761.776794 -684.604553
2086.662842 740.615479 -776.742920
2151.520508 683.608093 -814.615417
1976.338745 960.023132 -737.389038
1872.307617 880.193054 -754.291565
1720.834961 905.033142 -995.382751
1945.251953 801.406677 -700.207214
1885.763794 710.278992 -692.759521
1716.046753 867.824951 -988.705872
1956.350586 973.399536 -752.095093
1978.315674 723.668396 -712.365540
1980.180908 677.414673 -718.391479
1887.093872 860.809570 -751.805786
1805.613037 821.698059 -813.736816
1861.493530 637.838013 -788.083008
2073.059082 748.027527 -768.187805
1813.446899 585.731506 -897.264038
1937.667236 608.595703 -662.111572
1689.958984 804.800964 -1046.300537
1861.562256 866.218872 -776.069214
1852.481567 804.570068 -707.296448
1911.875977 764.372437 -681.095459
1938.192627 786.021851 -691.970093
1837.935547 731.879578 -784.463074
1867.025391 590.011963 -796.464600
1872.953125 758.909546 -687.550354
1926.828369 847.531250 -683.561401
1869.381958 750.487671 -697.494019
1704.439941 851.559692 -1008.959290
2039.323608 621.102966 -751.508362
1881.358521 653.104675 -711.782776
1715.822021 771.457642 -1013.950562
1817.115479 645.423096 -860.075745
2054.811523 776.068604 -755.130615
1787.540039 839.961670 -846.810486
1723.901733 745.017944 -1030.633057
1783.380127 722.404358 -940.692200
1734.671875 791.393616 -950.927429
2145.139648 721.214111 -820.303589
1790.332031 722.094666 -903.368591
1688.942871 718.609192 -1122.265869
1826.284424 745.679443 -759.652710
1750.174561 870.976379 -909.684387
1775.877930 877.918213 -842.631592
1691.772949 762.084961 -1050.632813
1925.691650 795.917542 -688.354492
1907.101440 640.496826 -693.803955
2021.317261 626.531677 -739.807007
1797.667603 819.607971 -826.785339
1700.160278 766.013123 -1025.109375
1791.793701 651.631348 -928.384277
1730.878296 742.922546 -1015.754028
2014.642334 604.992065 -741.383240
2082.593262 684.429565 -762.667053
1871.182739 643.393494 -762.919128
1831.685547 790.426453 -821.155151
1719.703369 848.475952 -960.878174
2007.255127 743.877808 -729.974121
2086.046387 738.426880 -782.489502
1971.233398 582.929138 -689.704224
1893.639648 911.815613 -790.689575
1830.235107 661.115601 -882.880676
1774.017822 737.761658 -940.708801
1764.788208 781.342834 -1109.860107
1737.279785 863.312805 -956.269592
1862.137695 665.662476 -783.985352
1712.232300 761.213257 -1025.046753
1966.946289 922.280212 -768.224792
1842.241577 796.939392 -747.007080
1834.208984 989.386414 -765.611877
1897.878662 887.721619 -782.312195
1735.413818 658.545776 -1095.105347
1892.497192 592.055969 -702.620117
1972.755005 731.291382 -709.470947
1698.760742 892.649841 -1000.975220
2105.917725 639.969482 -786.463379
1830.877441 735.778870 -827.710632
1889.981689 827.000977 -682.019531
1867.681641 909.174316 -789.414673
1958.536255 839.015808 -683.888672
1876.877563 758.483948 -689.275757
2120.160889 820.462891 -794.973572
1839.401367 829.165466 -736.866943
1686.667725 816.835510 -1044.120239
1964.903687 848.719666 -694.704102
1825.226929 868.327881 -851.373352
1883.013306 880.847290 -779.938904
1740.190674 639.448975 -1014.967590
1921.870972 578.592468 -714.687866
1953.091187 957.561157 -769.996521
1878.773682 815.709961 -677.297302
2083.089844 709.929565 -774.095825
1961.228638 855.786682 -686.472656
1798.152954 624.961182 -906.797729
1807.358154 692.557495 -911.435120
1779.417358 707.345703 -931.993835
1861.589233 697.766602 -723.980225
1871.515625 635.404480 -763.076782
1996.555420 918.954224 -756.638428
1971.592163 956.193726 -754.544006
1835.809692 856.951660 -790.278809
2014.705566 948.070557 -746.302002
1873.642456 798.390259 -696.847412
1880.271729 827.610168 -679.796570
1898.179077 741.962585 -681.945313
1879.448364 629.517151 -746.487122
2052.593506 708.394592 -755.868591
1872.399414 661.815063 -731.661011
1807.941406 617.050110 -935.908997
1686.650146 841.759827 -1012.048218
1989.371948 872.117676 -712.034729
2097.451904 678.305298 -781.025696
1759.931030 886.900269 -933.910095
2073.377197 721.517456 -757.404297
1844.739380 808.325928 -719.770813
1728.828735 604.649719 -1034.843628
1718.624268 849.583801 -970.024231
1793.718628 660.409363 -937.070007
1770.593994 858.926208 -852.693237
1672.216064 830.695557 -1034.668579
2057.005615 644.026917 -757.655273
1831.134033 799.329895 -784.639343
1828.901001 582.574219 -863.769836
1922.807983 887.035034 -777.001099
1844.847412 861.956482 -795.765747
1825.367432 595.366699 -908.733093
1962.339600 813.882629 -698.154663
1692.493164 830.394104 -1024.981689
1841.543945 753.423279 -751.381409
1870.146240 775.248840 -690.522400
1825.261963 843.397583 -783.967407
2046.213379 840.910034 -746.639465
1862.677612 617.383484 -798.718750
1812.270874 898.910400 -949.008728
1778.104614 847.428833 -841.801208
1842.547974 606.820862 -838.288452
1758.350830 820.391968 -892.528076
1795.888184 685.313049 -908.651855
1918.665649 861.219299 -711.382263
1748.018921 838.350342 -905.792542
1983.893921 651.116699 -707.227539
1849.846191 902.898499 -792.947083
2128.319092 630.633484 -803.687073
1761.737549 860.102783 -923.453308
2032.993774 773.170105 -743.321960
1898.562134 864.398499 -783.898682
1757.398560 584.783325 -926.181702
1838.265747 779.038757 -782.601257
1688.649414 817.158875 -1040.826294
1757.653442 713.041504 -957.055542
1774.434692 802.616699 -883.657532
1979.312378 902.179199 -769.647705
1740.911011 634.585266 -989.683411
1856.298584 784.312500 -731.150818
1852.491333 907.385376 -812.417603
1814.412720 828.485474 -799.117249
1771.273438 697.819458 -950.339417
2053.899170 607.479980 -764.205994
1926.916504 861.654297 -785.588745
1852.163696 854.693237 -771.540955
1856.558960 908.329468 -769.334534
1951.645142 679.684326 -700.382019
1828.045654 879.258545 -836.078674
1798.497559 834.552856 -819.196045
1872.300903 953.159851 -767.967102
1779.156982 585.402222 -962.783813
2010.446289 656.690430 -734.433105
1869.992432 649.363953 -823.625000
1858.936279 896.170532 -859.037598
1802.927979 717.408813 -891.377930
1849.372070 968.506714 -770.019043
1683.915527 826.356812 -1027.668701
1813.017700 653.650879 -888.750916
2149.546143 624.890625 -822.829163
1998.129028 880.980408 -776.623352
1766.284912 918.492432 -1011.943359
1874.697388 807.396423 -671.267334
1837.835327 997.856934 -777.129211
2153.506836 706.220215 -816.366943
1887.265015 829.239807 -686.539368
1882.635620 695.669373 -821.846313
1821.278442 889.554321 -881.976440
1877.423340 793.582214 -687.621521
1863.380371 813.948730 -704.968933
2061.057373 869.073303 -718.729797
1789.192383 806.858521 -870.223999
1820.492554 676.053284 -880.889221
1725.918579 591.443970 -1049.757446
1750.804443 897.785828 -969.232239
1989.655396 716.329163 -733.342285
1834.975220 786.865906 -765.881897
1913.953857 635.880371 -688.693298
1867.206299 665.807495 -806.519958
1851.981323 970.248108 -767.073181
1971.781494 916.543396 -758.754272
1834.773560 1004.471741 -780.140686
1886.262573 699.363525 -685.607910
1848.363525 770.808533 -725.634583
1978.064453 636.929993 -711.482666
1775.286011 807.305115 -907.201599
1797.712402 662.821167 -919.987000
2116.033447 624.339172 -808.049744
1797.067383 724.359131 -880.920654
1809.314941 649.194763 -900.133362
1840.876587 737.646057 -764.750732
1958.441406 793.255737 -703.860779
1899.096313 715.512024 -702.789917
1762.978394 797.698425 -906.259033
1819.648071 631.163391 -896.460815
1955.705444 581.984436 -698.132446
1832.507202 743.646240 -832.390076
1758.745850 813.623657 -910.607361
1799.830322 849.273376 -817.996277
1882.576904 997.565552 -750.691467
1849.748535 708.829102 -757.500183
1997.935669 795.510376 -722.348633
1794.692261 768.687073 -866.417175
1822.639160 597.765320 -886.740662
1795.155884 891.123047 -910.742004
1812.245605 829.841736 -807.061401
1846.544556 618.441650 -1153.700317
1725.844604 623.134338 -1024.838135
1948.562500 794.954346 -699.186707
1891.700928 639.724426 -719.052124
1760.157715 727.698730 -944.972778
2054.104492 866.937195 -730.032104
1837.415894 598.144653 -866.729370
2016.949951 749.751404 -726.897766
1860.590088 885.313660 -832.313354
1876.358521 669.706970 -722.529724
2162.850586 698.713135 -815.179626
1865.456665 726.481567 -714.008789
2076.619141 684.431885 -765.700806
1733.763672 856.462891 -963.707397
2105.629639 713.167725 -783.450684
2069.508301 708.248840 -766.711121
1835.304565 821.729065 -736.067566
1808.186401 733.230164 -868.311096
1852.810547 1000.795532 -763.914673
1963.515625 916.560913 -775.970825
1891.481079 705.581421 -694.766846
2021.283081 899.144653 -739.938599
1860.063965 737.989807 -737.674927
1838.648071 694.245239 -755.006653
1956.497559 691.635620 -700.010315
1764.108887 766.334229 -917.445251
1771.132080 635.494080 -1024.244385
1872.716919 764.715210 -721.202087
1702.542847 831.041382 -983.952087
1808.296265 773.381470 -855.999146
1892.344116 918.479858 -762.713318
1829.035889 806.885925 -784.354248
1857.292114 844.589050 -746.669250
1883.384033 732.996216 -839.478577
1732.881348 767.843384 -968.497131
1973.532227 940.199341 -763.388306
1980.977051 621.425659 -705.828735
1803.138550 778.324158 -853.458984
1931.226929 855.069458 -704.813293
2026.985229 616.129822 -750.129761
1801.079346 619.549622 -896.319275
1839.444458 684.519531 -821.156128
1864.392212 991.956665 -764.533997
1870.913818 703.059509 -713.313599
2133.817139 787.051636 -788.011536
1801.385376 668.171143 -908.211548
1905.359131 586.311523 -673.501343
1851.760742 651.786194 -804.707642
1899.726318 812.037903 -669.811462
1742.194702 881.159302 -957.850159
1838.229492 700.670959 -833.038635
1938.122803 691.819641 -695.734436
1825.583252 653.273071 -870.915955
2014.793579 597.346497 -735.755737
1933.107666 674.824097 -693.587769
1823.010742 805.337952 -809.623230
1731.003784 651.669922 -1054.955322
1912.609985 627.171204 -693.693054
1787.361572 583.827026 -936.462280
1819.820313 641.420105 -856.814941
1756.680298 835.934204 -890.081055
1857.325928 978.915283 -764.003113
1733.096436 831.499634 -921.559570
1697.918213 799.001892 -1021.724182
1882.228760 690.845581 -693.815552
1702.466309 893.111206 -999.278137
1783.586426 860.621643 -854.833496
1851.670166 708.496216 -753.894409
1797.598511 695.963135 -887.756348
2126.968506 813.699341 -797.250122
1677.445313 835.234070 -1033.551880
1789.505249 771.885132 -874.201721
1864.174561 690.591858 -793.417969
1906.181152 722.171021 -1187.187500
1976.708740 968.447632 -734.466431
1979.299683 912.342834 -760.855469
1891.291504 609.156677 -736.719849
1908.435913 910.171387 -779.226013
1743.358276 749.713074 -967.286621
1782.562256 586.235107 -955.869995
2014.951416 628.124268 -737.068909
1954.585449 599.772522 -707.821899
1985.565552 672.331116 -717.832520
1830.839966 785.931702 -816.653870
1823.364868 624.167114 -867.467224
2130.497314 811.040955 -795.713196
1786.474976 890.575500 -960.883728
1838.637207 667.662537 -864.191223
1974.947754 587.443604 -706.021973
1959.186890 868.102295 -743.012817
1960.371094 850.577942 -694.360168
2126.699951 769.940186 -800.938599
1991.859741 897.237183 -759.017151
1746.039429 719.398804 -984.376953
1883.437866 792.760803 -668.779358
2027.334473 868.839844 -708.135681
1852.628052 942.456726 -779.320068
1742.039795 831.705078 -920.461853
1813.950562 677.142456 -897.033569
1953.985718 621.739563 -701.197510
1830.535278 873.238159 -804.782410
1904.349976 810.122375 -681.388977
1857.592896 851.924866 -732.352478
2008.603027 815.150879 -722.278564
1909.745483 856.335632 -662.729980
2034.647339 626.006226 -748.026611
1992.807007 667.273193 -719.530029
1950.421753 852.988464 -683.222656
1749.038818 852.487366 -938.070496
1691.902222 846.426880 -1066.607666
1876.794922 878.738403 -773.473083
2129.140381 717.980957 -801.870605
1866.202026 732.126770 -728.429749
1775.952271 593.672302 -975.311218
1791.197998 727.980225 -919.018433
1733.734985 877.278320 -966.521912
2059.297363 771.843445 -759.253418
1835.383789 979.965027 -779.294678
1926.387573 833.123779 -681.550842
1844.586182 707.890930 -784.607910
1882.639038 726.995056 -678.688293
1865.083252 751.974670 -729.191650
1848.220825 756.604797 -737.980469
1925.630005 613.281555 -715.206909
1875.252075 837.163025 -704.867981
1859.919067 922.406860 -791.737366
1717.454590 830.064697 -955.187012
1808.852905 729.225586 -868.226746
1917.161621 864.579041 -793.340881
1888.670532 648.379456 -705.144836
2002.871338 784.066101 -717.305176
1915.012695 857.895386 -747.739197
1832.289551 823.973206 -766.335022
1775.997803 704.272095 -939.405640
1893.124146 729.048706 -666.950623
1967.906738 661.781738 -708.781067
1824.314453 630.229858 -873.844238
1918.568359 805.321472 -681.816101
2029.811646 854.612915 -714.701782
2006.742554 650.383362 -732.916809
1859.995850 837.952148 -700.971558
1929.951294 870.659302 -760.074219
1979.885254 825.564392 -706.143738
1859.356689 765.266418 -733.518738
1773.098511 899.599365 -964.357605
1893.196045 647.270752 -1179.311035
1875.758911 878.784363 -782.940247
2095.305908 639.292603 -780.218872
1888.788086 735.251709 -692.409546
1982.236450 715.897095 -713.390015
1799.383057 773.112244 -864.660889
1836.881714 589.454041 -868.731506
1829.780396 731.204529 -765.833557
2107.404297 630.616638 -804.002075
1837.155396 582.951416 -852.049316
1780.150879 718.991150 -910.194336
1882.229492 702.697693 -703.430298
1758.600464 630.983032 -969.522095
1963.063232 678.523010 -709.874329
2130.019775 777.857239 -810.902771
2038.342041 686.968689 -739.260254
1904.277588 865.491455 -785.373047
1933.550659 588.616089 -689.156738
1996.509277 784.657104 -713.729736
1879.166748 587.022339 -757.957581
2083.480225 675.575562 -769.846130
1802.974487 690.893311 -892.628784
1888.870972 775.329956 -667.327332
2038.649170 603.196350 -744.190613
1857.047607 628.337891 -834.613770
1898.968018 935.596069 -774.327576
1803.397095 844.688782 -808.179565
2016.325562 704.205505 -747.807861
1789.942505 923.561279 -1017.580322
1996.852783 954.846497 -754.521057
2028.076538 857.997620 -715.086548
1964.376587 636.597595 -712.193359
1859.794189 664.921448 -770.500610
2019.767578 950.228943 -755.616028
1985.931641 826.385193 -709.812805
1708.639526 732.541138 -1079.085693
1879.025146 650.688965 -729.119202
1964.685547 867.689514 -763.961060
1812.011719 882.338318 -880.278564
1891.834106 586.483398 -785.853333
1747.602051 914.352356 -1009.629761
1959.888550 968.118652 -735.403198
2093.492920 801.509949 -790.535400
1852.266846 649.075500 -849.303406
1757.051392 624.823425 -979.155396
1810.738770 800.993164 -848.708740
1993.385010 761.802917 -723.688538
1836.830811 597.372559 -834.211609
1899.662354 765.021179 -689.222351
1759.324097 863.220764 -876.200012
1850.998657 813.323364 -732.731567
1753.339722 702.133362 -978.728088
2042.448730 617.184143 -759.114075
2044.494507 903.219543 -771.132263
2166.000000 693.921143 -810.221619
1857.861450 850.590271 -725.032593
2062.480957 653.210022 -760.543884
1875.327515 912.607544 -757.458008
1794.754883 841.258179 -834.755249
2019.041626 874.040283 -739.102051
2040.036377 872.992432 -759.492065
2015.720825 935.981201 -756.146179
2066.595703 629.412354 -765.413574
1843.834595 956.471069 -779.482910
1919.180298 665.771667 -681.061768
2128.376709 809.516541 -798.294861
1970.924072 886.711609 -758.446228
1766.869263 789.041443 -931.229736
1778.118774 654.658875 -1026.857910
1784.778564 789.829590 -881.091858
1937.845337 586.967346 -717.036377
1801.278320 874.557983 -836.375671
1720.292847 668.201904 -1036.376099
2104.894775 611.427979 -758.228699
2056.576172 768.244690 -756.284790
1813.938721 718.162109 -881.918945
1984.932983 685.887939 -720.928894
1899.191162 740.749451 -679.820496
1751.734863 771.897583 -942.449951
1828.433105 819.341248 -775.122559
1852.959106 912.468506 -795.166260
1723.913208 872.208740 -972.217651
1808.772217 659.828186 -905.290405
2090.970215 827.406982 -775.475464
1776.600952 713.651855 -940.518799
1774.422119 803.066956 -910.640747
1858.812500 853.981079 -802.908752
1867.821777 841.587280 -700.277161
1862.484741 813.687561 -702.173462
1687.412964 851.039978 -1028.366455
1890.957153 875.372803 -785.463745
1688.306274 878.219604 -1035.081421
1818.309326 739.746826 -846.998291
1694.304565 882.196350 -999.493408
1738.846924 727.307495 -992.497620
1950.549438 769.031128 -699.852417
1774.718140 800.005493 -906.813232
2028.489624 722.855774 -741.914734
1792.057129 810.298035 -842.645996
1917.744019 593.649902 -732.137634
1818.035156 694.594360 -1139.823120
1749.011475 857.572388 -898.897827
1820.570557 598.799072 -882.118225
2079.207275 680.586365 -771.113831
2015.492920 873.627380 -759.395325
1920.877075 751.649780 -684.254333
1729.286011 658.875427 -1061.648315
1851.767944 641.201904 -822.351685
1929.382446 696.135925 -681.888123
1915.386108 909.960815 -802.878235
2133.950928 632.368469 -791.673889
1817.617676 603.004944 -885.944275
1872.833862 684.565247 -722.804077
1951.407227 849.096741 -670.039001
1948.650269 866.048279 -749.074707
2060.516846 830.793457 -757.211853
1743.887085 819.768738 -1097.261597
1920.484131 643.396362 -699.967468
1884.453003 837.887024 -693.248413
1781.121338 652.508545 -1119.803345
1805.976929 751.697937 -854.177246
2110.462402 618.232239 -773.541687
1747.281982 881.143982 -918.121521
1871.166382 802.822021 -706.480713
1965.838867 705.807251 -722.121948
1867.966431 908.963501 -767.389282
1891.140015 992.387756 -766.353027
1727.604126 626.831970 -1046.371216
1943.350220 951.262817 -779.026062
1711.059326 852.533691 -976.304199
1768.252930 860.345947 -867.075928
1707.890991 794.906616 -1014.784302
1877.938354 869.691345 -778.091614
1730.392822 708.115540 -1007.315491
1987.573364 856.928711 -697.200439
1793.474609 714.938354 -911.153931
1871.306641 740.936218 -706.566406
1912.207764 871.044067 -792.202698
1859.206909 961.777283 -777.204407
1821.171021 775.186462 -839.461670
2040.369019 913.813904 -772.421326
1783.417603 723.291260 -903.616211
1958.486816 591.997253 -712.563416
1863.175415 901.050293 -782.608337
1906.615356 968.238220 -778.240967
1983.809082 731.817261 -715.314514
1836.567749 775.589905 -749.909241
2037.378906 787.386047 -746.721741
1854.199219 832.981384 -737.032227
1773.984741 865.007507 -910.124817
1988.862915 879.723999 -756.716675
1759.690063 884.843689 -933.739441
1877.797607 848.252747 -763.660156
1704.526123 738.432556 -1020.423279
1847.130493 771.312195 -745.719055
1884.481689 891.071350 -755.038757
1853.757080 895.160706 -805.219482
1810.370117 622.405884 -885.287903
1865.804688 615.660095 -787.954529
1694.317871 856.318359 -1046.583130
1744.343994 780.194031 -951.491394
2043.788208 869.079529 -724.273376
1987.835693 670.443298 -722.196045
1885.107300 868.501709 -753.507629
1819.074097 820.632507 -793.858215
1825.950928 815.734802 -778.441345
1793.333374 625.328491 -925.810242
1848.966309 719.091553 -787.440491
1729.902100 847.342468 -946.663635
1880.771729 885.037903 -761.077637
2159.066895 637.398926 -813.456543
1828.632324 816.064575 -776.431274
1686.551147 785.065063 -1037.855835
1893.066895 952.367737 -765.478516
1850.242065 619.348633 -789.161072
1794.349731 731.137329 -898.054688
2065.274658 651.277954 -750.942078
1943.220825 749.292114 -693.096069
1766.567383 892.313599 -933.444519
1829.472046 787.263367 -766.119934
2075.406250 828.641296 -756.274475
1949.398193 897.514709 -779.988586
1827.934814 796.806091 -795.802612
1884.483887 750.605530 -697.577026
1768.843018 632.099976 -990.811890
1973.463379 789.730774 -713.437439
1893.242798 668.119934 -688.746582
1882.225952 834.568848 -678.747192
1688.944580 846.642151 -1026.867798
1747.243286 608.620422 -1000.655212
2060.451904 813.005066 -767.222839
2001.671509 908.315063 -741.508972
1711.323364 812.887939 -964.553528
2044.632324 696.165527 -750.904419
1863.906738 783.449829 -717.200439
2126.355469 818.291626 -783.263184
1980.057251 861.335327 -695.001160
1893.057739 918.443420 -766.239258
1911.831909 660.729919 -701.856323
1947.163818 969.148254 -760.560059
1848.178101 713.650391 -812.248108
1828.865845 743.175781 -845.397522
1895.416260 700.696838 -678.374695
2027.762695 746.795593 -743.997620
1747.097900 872.499268 -887.157043
1913.499512 609.522156 -698.728943
1849.708496 737.332825 -741.285583
1896.673950 580.856323 -719.688171
2014.768311 881.703857 -748.637878
1881.964844 651.900085 -734.742554
1884.824585 657.860596 -719.727722
1858.875854 776.890198 -724.402588
1808.297974 652.117126 -895.595276
1971.309937 757.678101 -703.146301
1839.098389 724.618225 -822.349915
1781.981445 843.548279 -838.947449
2035.900879 761.264587 -745.237244
1869.543823 654.404175 -796.447815
1771.862061 683.595520 -947.205261
1782.795410 674.703979 -946.887024
1781.987427 747.644226 -896.041748
1834.593994 748.910645 -777.371277
1848.551025 931.528076 -795.070068
1991.674316 622.953003 -721.950256
1759.435913 830.947510 -884.339111
1913.843140 890.562622 -782.678894
1676.336914 846.517090 -1041.242065
1883.214478 788.783936 -699.963196
2074.008789 720.071899 -766.828796
1918.895752 875.768982 -775.774231
1887.849487 813.813782 -673.786438
1815.796143 608.863281 -883.591309
1764.501099 789.532349 -915.421326
1974.711914 956.991028 -752.126404
1917.210693 861.588074 -772.115601
1872.169800 645.655029 -751.967407
1864.389282 618.583191 -794.599792
2085.954590 786.972168 -775.692688
1852.730591 853.658630 -748.445251
1862.714844 1001.489502 -756.558289
1833.208984 748.469360 -773.695740
2095.655762 857.045532 -744.204590
1820.362671 687.817932 -886.967834
1985.386597 592.959778 -722.589172
1744.872803 632.452271 -994.683838
1836.445801 746.907654 -813.789612
2073.072998 777.360291 -767.713806
1747.536621 690.563538 -992.014038
1847.164307 788.588074 -735.765747
1729.506470 721.320740 -1009.632507
2146.263184 704.782776 -808.560669
1908.997925 737.189331 -669.310608
1848.804932 614.709900 -846.365295
1722.235840 707.204773 -1027.599365
2109.792236 622.257751 -775.901001
1988.685059 712.029846 -718.019775
2004.441162 612.674988 -726.251160
1831.746216 582.135376 -821.375427
1797.542480 871.207214 -886.259644
1979.854492 882.117310 -764.608276
1880.939697 806.777527 -670.049683
1874.777466 709.881775 -705.051636
1826.077026 685.642334 -865.299500
1739.232666 849.892090 -922.489075
1752.676636 753.022705 -945.420349
1893.769653 820.803955 -671.511414
2011.645752 618.895020 -733.934143
1811.840088 654.923767 -901.779053
1968.301636 886.705261 -782.430908
1723.390747 732.522949 -1007.869934
1824.760864 625.404175 -854.310425
1886.460693 963.758606 -804.058411
1797.903931 904.999756 -911.776428
1860.463867 665.991516 -774.870422
1874.898315 935.428040 -763.462463
1991.547852 725.287781 -714.355713
1838.027832 581.593140 -876.970398
1773.324951 721.085815 -937.855408
1859.241089 658.468750 -820.505310
2016.168823 642.586609 -733.672852
1814.353516 658.317139 -897.862183
2006.833862 601.486572 -737.584351
1872.319092 898.873169 -803.649475
1892.338257 848.800598 -734.205200
1834.723022 835.758423 -751.611267
1822.138550 816.265503 -785.403564
1981.611572 883.174805 -736.719604
1838.977661 948.458557 -768.853699
1877.804321 943.591309 -763.579834
1825.895630 719.804199 -839.926697
1855.123657 676.639282 -754.275635
1742.561523 811.723206 -971.785889
1906.577026 592.251587 -739.552551
1853.339478 738.713196 -848.341309
1809.391235 750.636902 -861.912231
1872.926147 801.505737 -682.784668
1911.338501 609.907715 -700.459229
1749.548584 863.258362 -888.362976
1893.724243 773.898010 -678.867004
1857.315918 681.760437 -785.176331
2028.541870 620.685547 -745.576721
1737.097900 861.509460 -930.046265
2087.406982 618.430298 -767.124634
1691.963257 808.980835 -1005.561707
1957.052979 874.698303 -715.534668
1851.994507 778.069641 -732.302185
1836.424683 631.939331 -853.382874
1850.457520 706.275024 -754.734741
2057.759766 721.946289 -756.590210
1871.304565 725.096497 -705.660522
1768.031982 896.509521 -982.944763
1859.903076 642.571716 -768.289001
1798.404175 709.215942 -890.171570
2009.323486 593.215942 -726.058716
1854.006714 644.069885 -1158.522217
1785.784912 884.696045 -924.595459
1850.730225 744.339233 -769.827271
1990.517700 886.966187 -736.263672
1934.078735 579.873169 -682.398499
1774.018677 798.981934 -911.600403
1972.319092 793.296448 -708.438843
1768.582886 845.213501 -869.822327
1924.002441 855.791870 -676.917175
2030.154297 811.887695 -749.944397
1759.568726 625.644897 -1023.611572
1922.638794 680.146606 -676.466125
2066.573975 658.299988 -764.125732
1893.930542 802.938477 -685.772644
1784.684937 885.450500 -933.830750
1839.871948 761.068726 -754.780579
1875.364136 647.296021 -753.341370
1704.208618 773.929504 -1030.110596
1980.400757 945.853455 -747.883606
1953.792358 784.799316 -701.493835
1828.049316 617.202026 -884.310913
1882.185913 868.422302 -788.238953
2141.427979 660.125854 -804.153076
2035.233643 939.485474 -765.414612
1855.359497 930.468262 -780.090759
1936.165894 633.771484 -700.979980
2054.881836 605.008423 -746.081482
2006.422363 803.856506 -727.249939
2017.234741 618.972107 -738.109680
1830.622437 855.984497 -795.235657
2077.343018 790.221741 -770.192444
2030.629761 674.080688 -746.025513
1958.226929 615.114136 -700.130127
1753.231934 864.893433 -899.051453
1829.618530 721.431824 -834.515991
2077.641846 785.388977 -767.603821
1825.730713 871.804871 -817.414246
1769.039673 697.206604 -945.502258
1730.257568 914.399719 -1067.104126
1999.972778 808.875305 -726.530334
1880.975586 881.544128 -749.327942
1823.178101 747.993713 -834.460754
1800.500854 627.769592 -889.394592
1881.097534 904.642822 -814.060974
2045.440308 721.548035 -749.859314
1952.254150 791.922668 -701.166077
1899.653442 864.945496 -774.456543
1733.673096 593.704407 -1035.846802
1917.904053 862.496582 -766.398499
1717.947632 662.078491 -1048.880981
1868.947021 835.348694 -682.404602
1944.557129 850.978882 -706.593811
1801.148438 773.118347 -858.427368
1803.614868 795.750610 -836.027954
1810.181152 775.732483 -863.175537
1946.340454 578.016235 -686.984863
1885.659790 968.301941 -761.183289
1876.665894 619.518250 -770.240784
1692.720215 703.082458 -1082.731689
1837.700806 921.666077 -889.543518
1920.629028 883.347839 -789.835205
1905.668823 755.262390 -673.267761
1889.264038 783.344177 -663.173462
1724.727295 904.828064 -978.424133
1730.152954 809.545227 -1090.457520
1874.137695 839.997620 -685.383179
1941.000854 848.761108 -670.918030
1784.069946 673.388794 -942.015991
1780.546143 903.063599 -932.965515
1774.498779 593.454834 -904.032166
1857.986450 1004.384216 -757.685303
2100.227295 836.834412 -788.395203
1774.351685 628.667297 -1015.390747
2030.950317 675.142944 -755.569702
1865.478271 723.648621 -745.705139
2003.366821 926.978210 -757.227112
1824.935181 903.756653 -954.259644
1762.913208 907.472717 -978.901428
2073.709229 838.678955 -756.428345
1927.279785 856.564270 -730.912415
2063.028076 642.318237 -754.014404
1702.208862 852.247498 -1009.758545
1743.400024 685.431274 -1064.903320
1749.891235 855.141113 -879.763855
1933.428711 806.399170 -693.069214
1893.879028 967.232666 -775.725403
1738.361206 751.861450 -988.274963
1889.510864 607.082275 -767.943909
1746.749023 864.426025 -928.930664
1880.164063 789.716614 -676.959961
1875.490845 813.090332 -699.459290
1837.277954 970.156616 -784.514160
1863.881714 831.388672 -691.191711
1858.986328 888.823425 -787.463196
1750.835938 870.964600 -946.487671
1800.482422 813.650146 -825.834167
1916.372314 720.682678 -690.472534
2021.867798 893.991943 -763.840820
1731.160034 829.669922 -935.226746
1726.720337 832.947754 -949.510376
2097.838379 743.239990 -769.553955
1847.875488 879.187195 -812.406555
1935.985352 765.990479 -694.419800
1860.015625 584.672058 -806.878357
1772.592896 743.098511 -944.670410
1820.938232 595.273010 -842.914734
1802.059937 773.896118 -864.353271
1684.019653 874.363708 -1039.751343
1981.583374 951.363892 -749.027283
2110.996826 621.898804 -795.400513
1775.677002 584.794006 -961.313599
1939.253662 971.151672 -774.508545
1813.568481 709.387634 -858.415283
1831.959106 641.161865 -875.786621
2063.854248 894.163025 -798.885254
1993.324707 937.497742 -735.993408
1750.459351 788.743774 -932.468201
1735.005493 734.801208 -1013.416870
2022.163086 859.967957 -708.937500
1865.905151 888.461304 -801.850830
1830.575317 664.055847 -861.111084
2027.735352 764.934998 -754.021667
1788.318115 857.028992 -829.444458
2106.471191 663.153442 -795.361389
1908.897461 793.581848 -679.115112
1689.777344 829.731812 -1026.693237
2046.099487 737.822021 -751.743774
1799.022095 809.566223 -844.369690
1852.325562 582.036316 -795.533508
1960.815186 670.587097 -708.622742
1930.645630 782.604309 -695.116760
1908.289429 910.265564 -783.881836
1820.759888 787.744263 -834.256042
1932.924438 597.008850 -670.729126
2131.333252 641.376587 -810.412964
1858.312866 617.253601 -808.439758
1908.643921 857.140076 -718.935059
1843.665283 713.252747 -755.721863
1886.410278 627.868896 -749.470886
1935.103149 631.991943 -685.051697
2030.776489 796.825012 -742.328918
2026.699219 763.119568 -740.258240
1854.522705 695.122253 -754.231201
1830.234619 820.852295 -765.242981
1869.090576 735.721008 -843.937561
1739.274536 827.684998 -930.366394
1817.227295 663.468506 -882.757568
2030.714355 654.133057 -741.454529
1790.543701 729.898254 -899.490356
1952.722168 708.487610 -705.109558
1907.332275 614.237671 -725.664978
1699.763306 595.385254 -1017.923096
2051.198730 713.689453 -754.621399
2011.942505 693.194031 -731.402283
1922.082520 858.022644 -739.567993
2084.826904 670.998169 -771.009338
1892.404419 674.796387 -703.383301
1844.501465 736.718689 -827.503479
1798.502563 868.048401 -821.386475
1839.289673 785.200684 -776.064636
1869.200195 689.926819 -732.755432
1777.484863 660.301819 -949.303894
2074.021240 606.358398 -772.418030
1746.602295 846.343445 -906.314453
1806.289063 669.296387 -896.028442
1798.074341 792.064392 -857.677734
1965.856689 887.099487 -754.687500
1951.604614 824.280090 -674.317017
1959.314331 833.908936 -679.309937
1709.924316 851.070251 -955.298218
1999.939941 720.494751 -730.846558
1780.404419 849.671692 -846.369263
1835.077026 681.499451 -844.993042
1848.879272 858.863892 -765.573486
1900.277344 747.191101 -684.302246
1810.134155 846.254272 -813.895691
1951.542236 862.515320 -713.432251
1752.502319 767.077820 -1103.541016
1866.583496 915.430298 -765.366760
1733.955322 869.376526 -965.399902
1757.166016 680.758911 -978.990479
1800.656250 804.053894 -834.208008
1866.392090 840.057983 -717.010742
1841.430908 609.284973 -871.578674
1792.499390 660.208374 -927.472961
1897.816895 856.542358 -680.011597
1854.559448 861.861023 -814.921021
2036.567383 630.118225 -741.135620
1764.560059 809.894409 -909.164124
1895.903442 617.530640 -725.855591
1966.687744 883.102051 -772.807861
1908.175903 848.501465 -710.369385
1875.234131 601.814819 -799.348816
1976.715454 913.359314 -769.292236
1875.803345 694.894592 -717.228760
1869.890625 664.412109 -797.413513
1973.011353 687.709290 -700.855896
1859.265137 990.110779 -752.638245
2131.159668 685.820679 -798.063110
1977.038574 959.605835 -746.207275
1911.045044 674.754700 -702.643860
1738.801514 588.471924 -1024.487305
1837.417847 963.126709 -787.395996
1863.045654 612.159363 -789.989136
1965.468750 598.863525 -698.959045
1788.048462 807.022583 -872.341187
2055.450684 730.244263 -755.320984
1720.318970 821.267212 -964.317078
1884.175171 772.041382 -674.110168
1869.607300 746.051880 -702.448730
1864.182861 765.445129 -708.696106
1799.743164 860.667358 -827.359192
1783.204102 618.174377 -930.784302
2129.822998 623.354553 -779.362549
1809.270386 685.366272 -889.913147
1922.774292 713.874268 -687.387207
1908.608643 684.698425 -686.042847
1760.986206 896.646973 -942.843201
1847.161499 867.777527 -792.186951
1762.292480 743.141296 -1036.059326
2063.104004 881.690063 -744.450195
2065.345703 706.908875 -775.035767
1781.213135 654.091675 -941.294250
1958.646606 933.636780 -769.472290
1899.366577 756.475098 -679.519653
2182.292969 655.630005 -826.022339
1747.796997 864.233765 -895.993896
1799.514648 837.979919 -815.571777
1832.821655 868.934143 -839.485107
1870.099976 671.141418 -740.596191
1954.406006 582.930237 -675.202087
1928.233765 653.347351 -698.366394
1775.258789 893.701111 -1112.402100
1692.779419 851.170166 -1007.077454
2008.043457 869.098022 -735.819824
1946.651001 894.744446 -781.710022
1912.007080 742.086853 -684.578003
1840.105835 702.282410 -838.860596
1863.221802 675.993469 -834.070862
1846.102539 766.794678 -789.954224
2130.978760 621.402100 -775.148560
1784.663574 847.263672 -839.949097
1728.608032 821.240723 -1089.175049
1811.003052 592.321960 -824.847778
1751.941162 875.680725 -899.293274
1861.749878 591.796448 -828.657898
1876.209717 790.348633 -679.936584
1863.354004 591.584778 -827.810669
1861.841064 862.666321 -784.334167
1794.189575 852.443237 -827.095093
2113.558594 611.895020 -766.708557
1921.998657 733.371277 -672.472351
1724.113159 591.827820 -1053.215454
1792.141724 720.776489 -923.002991
1708.819580 790.821716 -1026.233521
1794.659546 835.267090 -826.298096
1744.454590 617.842529 -1009.162537
1692.779053 866.746277 -1034.431030
1745.239868 637.839539 -992.850586
2156.817871 675.283325 -805.270630
1978.321899 656.955078 -710.562622
1842.636108 915.413818 -933.467468
1700.105347 840.863647 -1005.037842
1844.434937 718.889221 -751.308289
2033.922485 859.710266 -720.477905
1785.077881 685.538086 -1122.655273
1725.422119 868.709717 -968.700073
1878.694702 994.908997 -765.886841
1695.682739 831.790588 -1014.730042
1998.446533 657.453369 -724.807739
2016.765503 663.689697 -740.265015
2084.405762 606.542908 -767.207275
1800.980225 852.134094 -815.984131
1699.198120 865.132568 -1026.674805
1982.325317 595.431580 -716.391785
1826.732178 691.718994 -869.962708
1723.589600 888.630005 -973.619812
1798.871460 691.138184 -896.958313
1867.363647 655.559265 -814.136414
2019.362305 673.972107 -726.778137
1781.143921 671.049744 -969.754944
