ply
format ascii 1.0
element vertex 1331
property float x
property float y
property float z
end_header
-295.999451 1123.382935 1853.139282
-146.861404 1355.270020 1780.837280
-189.108673 1434.312988 1682.621338
-268.760254 1171.309692 1786.562744
-247.239594 1439.690430 1556.578979
-385.845459 1201.473267 1715.734741
-255.387634 1424.023682 1569.022705
-135.979385 1314.177490 1813.285034
-119.190887 1388.289795 1721.908447
-123.529770 1332.145386 1734.157227
-265.217865 1147.364868 1801.683594
-311.178467 1124.858154 1898.016724
-373.931732 1300.330200 1637.106689
-116.529854 1279.368896 1817.488159
-128.047485 1308.123291 1833.600830
-304.455139 1393.147339 1572.672363
-344.185303 1093.159424 1821.607056
-262.171265 1268.573608 1699.149048
-420.799347 1101.092896 1780.582031
-251.791229 1168.392456 1773.744507
-127.766701 1315.478027 1699.371216
-239.080414 1334.088867 1637.401367
-345.893036 1624.648926 1730.108643
-155.248840 1401.292236 1642.479126
-215.439178 1207.385986 1772.571289
-166.632919 1444.266968 1720.380249
-113.007118 1377.648071 1844.302979
-318.906403 1175.447266 1761.264404
-232.166443 1546.110962 1825.937866
-122.845039 1371.373657 1842.342163
-239.795959 1390.690063 1582.917236
-65.377464 1364.631470 1870.508301
-391.001953 1081.381226 1789.538940
-149.912155 1302.386230 1712.803711
-163.345016 1286.983154 1835.427612
-254.258484 1230.457886 1734.005127
-285.207397 1530.582520 1667.222046
-144.928375 1348.443115 1658.442871
-472.128204 1231.471069 1650.718506
-252.231964 1529.321655 1733.522339
-273.671967 1530.687134 1687.989868
-273.907349 1352.478638 1601.159058
-399.391785 1316.526245 1606.143677
-161.038620 1352.385620 1660.549683
-108.660248 1363.696289 1849.074951
-336.411194 1317.985718 1649.589355
-180.501694 1422.840820 1666.787109
-336.707092 1206.869263 1729.209351
-345.222473 1625.761841 1748.069946
-306.629730 1570.892212 1703.425293
-168.406586 1473.084351 1801.232666
-236.778198 1332.066650 1615.182861
-167.871735 1308.820435 1770.868042
-332.983643 1615.816162 1753.324829
-264.761047 1506.455566 1626.102783
-256.996826 1184.550415 1833.582886
-263.092438 1535.677002 1714.484253
-376.589325 1064.697510 1845.685181
-151.219315 1319.355591 1698.953125
-184.131958 1440.690918 1693.256592
-103.993233 1353.085449 1699.851807
-326.697540 1186.275513 1751.167236
-261.326965 1538.706299 1707.209229
-113.655815 1355.240112 1667.973511
-490.533264 1216.782959 1646.076050
-283.825104 1359.790405 1599.981934
-372.924286 1087.139282 1814.291992
-195.611420 1447.365356 1649.853394
-215.552658 1436.859375 1621.971924
-127.333122 1503.717651 1850.266846
-230.931122 1525.030640 1779.971802
-161.590622 1463.257813 1867.075684
-321.745026 1090.439453 1831.108521
-195.475311 1534.301758 1842.420044
-369.689514 1083.821899 1789.642700
-161.774048 1359.294922 1640.882446
-420.243469 1235.046631 1665.097168
-141.830978 1404.745361 1704.235474
-223.758698 1503.588989 1749.104614
-260.126801 1412.905029 1567.127930
-362.239685 1192.315796 1745.715332
-210.261932 1274.720703 1715.173218
-281.092926 1569.347778 1768.693359
-122.794342 1285.551636 1793.215698
-370.564209 1241.923462 1681.096924
-366.637238 1252.683716 1664.873413
-165.948685 1263.208984 1724.629272
-132.272827 1321.590576 1690.870728
-135.738113 1483.929810 1825.627319
-198.802826 1287.193237 1695.436401
-234.568024 1441.854370 1591.981201
-137.736298 1314.156006 1690.550415
-477.539368 1131.530273 1783.056641
-107.755035 1288.473755 1870.548828
-354.506378 1069.398193 1827.543579
-141.857300 1396.433105 1703.800659
-213.324020 1499.078857 1794.614502
-142.324783 1291.635498 1753.729370
-444.143585 1080.591553 1799.750610
-193.857056 1478.714722 1751.998047
-456.734924 1199.642090 1677.240601
-109.165199 1369.758789 1709.441528
-323.483215 1609.192871 1748.156860
-106.476158 1397.568848 1769.725342
-229.835846 1411.183228 1576.189697
-428.686920 1232.391479 1664.487915
-212.720398 1190.739258 1788.244263
-239.093552 1541.676270 1763.472168
-286.048981 1412.387207 1579.679199
-493.188141 1207.859009 1652.898560
-220.898895 1440.272827 1600.636353
-166.736786 1281.986206 1705.235718
-145.417999 1288.398560 1785.162354
-442.968811 1153.776611 1746.507446
-177.768097 1361.308105 1625.535400
-209.870087 1199.716064 1815.078125
-159.412628 1336.696167 1784.458740
-277.887756 1439.083740 1567.755615
-247.652863 1163.793945 1798.815186
-379.112885 1260.227173 1671.264893
-341.272400 1366.173706 1565.640747
-164.950363 1309.829224 1680.049683
-197.303284 1249.775024 1815.684692
-166.605591 1356.284302 1653.344849
-185.561935 1459.690552 1739.700562
-397.444397 1115.292236 1769.942139
-153.885681 1367.653931 1638.261353
-186.741470 1238.057251 1746.712891
-117.313866 1404.906494 1821.857544
-114.532707 1439.778809 1768.144531
-164.720596 1269.035767 1768.116943
-206.518768 1407.010498 1585.841919
-118.384369 1370.914185 1696.841431
-104.556030 1397.758667 1731.110840
-85.659004 1234.335083 1849.925537
-166.718338 1432.507568 1727.160767
-235.928329 1542.860352 1843.742554
-404.734009 1264.408569 1643.189575
-223.363983 1268.071045 1879.043823
-472.445374 1234.351807 1642.843872
-177.080887 1380.761108 1618.140747
-430.821106 1252.754761 1641.606201
-108.272614 1418.096924 1893.506348
-272.795258 1269.037720 1697.070435
-508.318329 1122.629150 1714.145630
-267.988617 1155.313843 1782.277100
-339.334412 1218.142212 1718.740112
-358.279541 1355.717407 1574.664063
-168.299454 1278.425293 1707.969482
-134.053696 1358.407471 1652.071777
-472.229828 1225.820190 1645.068359
-235.835495 1230.461182 1735.652954
-217.641891 1304.255493 1665.247070
-287.024475 1551.797485 1699.756714
-127.896896 1341.844727 1746.680664
-233.175903 1341.093140 1638.042603
-490.370178 1175.220825 1673.102783
-269.207428 1411.335815 1563.843872
-380.679810 1276.093872 1653.497925
-102.497818 1410.637817 1886.610962
-231.343918 1401.502319 1577.607056
-196.453033 1287.117676 1673.601563
-181.298447 1474.555420 1803.615723
-102.185051 1429.672241 1772.357056
-166.619965 1343.548706 1646.643188
-170.647049 1342.351563 1652.136230
-297.176758 1500.896729 1615.145874
-140.244354 1478.730957 1809.165771
-134.713196 1389.368652 1663.627441
-241.309006 1382.659424 1597.681519
-363.101776 1145.024048 1758.805176
-333.299622 1311.481079 1651.524780
-300.380219 1532.713989 1652.973755
-192.834885 1338.755371 1652.214355
-451.998901 1116.053589 1756.863403
-87.906235 1262.872803 1857.260498
-297.550110 1565.980591 1639.361816
-184.126694 1329.027954 1656.235229
-363.934204 1075.288330 1858.173828
-355.978851 1052.548950 1839.602417
-263.952667 1476.129028 1585.727905
-185.442673 1486.166016 1787.844238
-254.821930 1210.573364 1846.722290
-275.911652 1482.306885 1571.093994
-212.293915 1321.617554 1661.276489
-303.991791 1293.042236 1677.890869
-340.502716 1168.032104 1754.657837
-215.256027 1252.010742 1724.790283
-284.388153 1503.040649 1624.667114
-380.413879 1217.661011 1697.947998
-178.587372 1256.083130 1803.334595
-344.350372 1322.195801 1612.711914
-287.601654 1156.485352 1775.779175
-203.402100 1339.763306 1638.357666
-167.864609 1268.907104 1717.796021
-284.840393 1502.467773 1636.582642
-323.509399 1332.203613 1631.882690
-183.976364 1390.978394 1631.446777
-241.813629 1468.192627 1630.156860
-159.191635 1309.841919 1798.142578
-137.567719 1273.027344 1833.810059
-418.997681 1078.674438 1784.988403
-165.165115 1444.898804 1725.212158
-403.673096 1079.611572 1882.041748
-265.390839 1513.307617 1661.550537
-510.626190 1203.301758 1733.466431
-129.543472 1285.289185 1793.765137
-207.410629 1369.616211 1605.469360
-126.260139 1258.260132 1806.121094
-257.129272 1337.704224 1621.966797
-370.355682 1278.466553 1655.331787
-146.832031 1288.481323 1717.499146
-274.303192 1515.978027 1667.671265
-161.139053 1452.953857 1874.411987
-470.781677 1110.374023 1751.180176
-268.654572 1495.900757 1562.381714
-245.920471 1353.878418 1609.576294
-238.036575 1150.388428 1800.416138
-226.934692 1458.625732 1649.399536
-296.034454 1170.555542 1902.486084
-380.918457 1062.022095 1827.513184
-282.652100 1379.926636 1587.783447
-187.365173 1345.845337 1623.737671
-292.637909 1152.088989 1778.626953
-203.432617 1305.618286 1676.500977
-171.760559 1310.867188 1676.108765
-171.880341 1415.133789 1656.874512
-221.842224 1501.577759 1765.406738
-435.943115 1105.731567 1773.733521
-182.751556 1264.019775 1725.106934
-145.826508 1349.649048 1654.396484
-336.070343 1155.678955 1770.785156
-340.192505 1083.995605 1872.339600
-134.839691 1312.805298 1697.671997
-341.138916 1094.868042 1908.190430
-354.607025 1074.239258 1868.642334
-226.400116 1192.944702 1795.171509
-301.819214 1106.732300 1871.291016
-340.096100 1250.560059 1689.639160
-151.154297 1296.771973 1783.311401
-160.115509 1484.659302 1812.553955
-290.178619 1512.345337 1620.611694
-346.670532 1101.786499 1785.914551
-93.499603 1269.188477 1830.678467
-91.105392 1278.304199 1845.885132
-266.872040 1524.641968 1685.980591
-240.973099 1326.933838 1634.573242
-221.661285 1197.283325 1768.967896
-271.192383 1475.108765 1553.403564
-213.444031 1415.917725 1606.730347
-312.784576 1264.854492 1702.968994
-215.616257 1210.596191 1836.474854
-102.874710 1360.346680 1696.265869
-199.967087 1293.847656 1673.467773
-271.574219 1239.489868 1725.980103
-190.490250 1244.863281 1784.265381
-204.429016 1439.299438 1606.093994
-116.303368 1264.976318 1828.529541
-182.981110 1405.914673 1658.372314
-159.933701 1427.729004 1737.623535
-178.387726 1432.014771 1688.234497
-446.277039 1131.513184 1731.806152
-418.567505 1254.380371 1661.513062
-481.077606 1158.766846 1748.873047
-142.958267 1434.530273 1737.980469
-463.077942 1186.872925 1703.866577
-135.863190 1424.745972 1845.716064
-294.907837 1091.203003 1852.392456
-158.375397 1325.730347 1810.067261
-115.910400 1331.334839 1694.142944
-163.987030 1343.872314 1646.513306
-147.635681 1314.546997 1696.593140
-139.632385 1466.234253 1852.632446
-159.918518 1429.395264 1721.569214
-354.823639 1347.741699 1594.526978
-174.585388 1309.318481 1772.828247
-325.838257 1210.520874 1722.300049
-296.160980 1344.684448 1620.372314
-239.028839 1403.513184 1581.689819
-348.428528 1155.503052 1766.000854
-130.132874 1504.699585 1832.262085
-143.323700 1351.720825 1653.732300
-399.424622 1243.292480 1653.576538
-298.132782 1559.913818 1639.687500
-161.472733 1257.544434 1817.999756
-386.122955 1059.632202 1831.271362
-369.266144 1313.069946 1611.677124
-159.670135 1344.731812 1650.057373
-138.122177 1508.004028 1853.031738
-370.779694 1102.622681 1792.633667
-203.869095 1448.810547 1651.072754
-233.840790 1511.085815 1703.381104
-171.233810 1312.589478 1676.190552
-319.857849 1622.375366 1712.450562
-169.625214 1447.045532 1739.992676
-169.964569 1311.945435 1797.994263
-94.755333 1258.014404 1841.009033
-143.805145 1319.140015 1680.180298
-308.381775 1101.011475 1833.294800
-348.158508 1307.494873 1641.972534
-216.228699 1496.037231 1739.172241
-180.264526 1262.005127 1778.518799
-265.386597 1528.587036 1698.907349
-365.547302 1261.745483 1680.737183
-433.551666 1103.453125 1763.983765
-296.041443 1187.749146 1752.126587
-372.855896 1155.678955 1751.656982
-458.610474 1184.401489 1724.188965
-123.389671 1359.394287 1666.046875
-185.426514 1333.306641 1652.789917
-274.934479 1192.114624 1762.084473
-266.861328 1515.897339 1610.827393
-237.321869 1468.826538 1642.109253
-221.322250 1292.943481 1722.860229
-388.608246 1264.318604 1665.091553
-520.405151 1171.318726 1643.032227
-310.395691 1573.747314 1670.156006
-196.859207 1377.580444 1613.973633
-300.310608 1152.838745 1909.235596
-311.053772 1093.587891 1845.239746
-150.089478 1319.366333 1690.260010
-194.190033 1263.191162 1722.763794
-106.865585 1262.979370 1832.315674
-491.429535 1222.644165 1651.281860
-236.918655 1205.292847 1756.262451
-371.121216 1171.994385 1739.732910
-244.952103 1460.686646 1584.931274
-98.613335 1272.199463 1826.458618
-320.121002 1569.598145 1671.519897
-296.087677 1317.663574 1658.911987
-173.900101 1269.212769 1784.895020
-217.875580 1337.713257 1632.408325
-154.579163 1294.471924 1794.249878
-504.377411 1208.949463 1648.867676
-258.407990 1347.266968 1613.991211
-105.952141 1358.203735 1682.933716
-277.410797 1495.559448 1579.129395
-265.495453 1402.097534 1569.499756
-277.090210 1162.960449 1793.365234
-255.854370 1377.886475 1594.916870
-253.330856 1470.218018 1593.011108
-217.411697 1489.862915 1746.399048
-261.014801 1213.733887 1865.905396
-256.491150 1365.022217 1599.357056
-79.953911 1218.211426 1868.455811
-140.698242 1373.398438 1822.942871
-425.723267 1091.531494 1868.582764
-150.066757 1317.323242 1759.862793
-147.294571 1280.137939 1723.408691
-477.800049 1231.826904 1639.801147
-164.441467 1280.300415 1707.883301
-402.458069 1193.983521 1769.325806
-235.387482 1216.040771 1839.385986
-346.326569 1629.559204 1750.266968
-342.196167 1368.295898 1590.938232
-304.192444 1599.621216 1780.792969
-263.103424 1416.959106 1568.750000
-334.050720 1278.445923 1675.351929
-444.157196 1202.792603 1725.854736
-558.307373 1151.576294 1666.572510
-156.364548 1504.378296 1851.606079
-177.519165 1271.572021 1727.803467
-332.990143 1099.222534 1817.305786
-243.842621 1372.330078 1612.041138
-75.728683 1253.231689 1846.256104
-362.142426 1333.461792 1607.998779
-296.275391 1389.157349 1561.598633
-220.723770 1480.882080 1703.572754
-91.138550 1263.942139 1846.530273
-242.010590 1208.725708 1844.875488
-214.080124 1524.578979 1813.069824
-335.374817 1368.054810 1583.570801
-300.766602 1296.336426 1685.134888
-264.286499 1575.370117 1817.949463
-99.573578 1288.394897 1862.882813
-384.511963 1137.626343 1760.771973
-374.623718 1274.184082 1663.349121
-433.638947 1213.130371 1705.843018
-315.164246 1321.234253 1637.581909
-224.251816 1313.415039 1653.607178
-278.153656 1366.744507 1700.357788
-74.620026 1276.476563 1851.410156
-221.167267 1178.304688 1801.472778
-277.582581 1331.625122 1621.980225
-287.924957 1272.176514 1688.530762
-199.465088 1214.926758 1775.167969
-135.980362 1303.673096 1732.430908
-462.028351 1221.358276 1656.624512
-249.449295 1529.262817 1735.057495
-317.698578 1126.347534 1777.218384
-178.568817 1304.018799 1675.818237
-140.272125 1468.729004 1835.784546
-280.368347 1386.627197 1593.641846
-472.080383 1194.159790 1713.883423
-308.245544 1284.210938 1671.052856
-70.126419 1243.617065 1859.928467
-270.414948 1582.678467 1783.274902
-166.898697 1267.872559 1725.614868
-285.893677 1213.580811 1749.742188
-206.134384 1341.635376 1636.524048
-145.451950 1498.780396 1837.835571
-155.511459 1378.324707 1805.954102
-224.419357 1484.363892 1735.468506
-311.566803 1259.018921 1696.594727
-381.967896 1287.109619 1642.391602
-221.521622 1229.447144 1808.421631
-242.514343 1529.082520 1762.948975
-140.026352 1415.413086 1823.016113
-84.274948 1284.414429 1842.242188
-273.704712 1503.160767 1634.869629
-120.432053 1378.879761 1838.987305
-276.508118 1151.276245 1788.199341
-105.533417 1425.740356 1775.689209
-194.650055 1272.900146 1782.720337
-352.267578 1227.703491 1705.631226
-202.881470 1213.030029 1771.435547
-433.737091 1176.020264 1702.887817
-325.873810 1157.181030 1774.975098
-174.896942 1359.660156 1827.998535
-240.951477 1529.055664 1769.395630
-344.105072 1073.265259 1825.240112
-218.174561 1405.351318 1581.503906
-405.677490 1069.237915 1861.150757
-129.436813 1315.669312 1724.457642
-157.837387 1406.038086 1685.654175
-238.751694 1449.984375 1527.278564
-332.818451 1179.773804 1745.666260
-260.640991 1457.427490 1561.060547
-272.017120 1437.773071 1558.894531
-323.848297 1088.244385 1856.432007
-463.206390 1133.271484 1763.423584
-321.106842 1316.103271 1655.951660
-373.857727 1164.992676 1749.055908
-127.513847 1352.519775 1676.442505
-187.491501 1466.600952 1748.169800
-416.354340 1187.053223 1716.594238
-130.822662 1375.030029 1694.337769
-143.108856 1428.956299 1822.379395
-269.390717 1519.849731 1667.011841
-126.583412 1450.339478 1806.297974
-294.264709 1264.620605 1697.395996
-278.799438 1152.057983 1855.643188
-220.678741 1419.982422 1583.626587
-286.917084 1140.822021 1878.754028
-159.483749 1276.908936 1817.065674
-557.924866 1233.527466 1879.022217
-426.117584 1104.805786 1775.944458
-133.742859 1359.659790 1861.463257
-109.076836 1446.893188 1793.424683
-109.776405 1453.813354 1805.381348
-347.042328 1365.912842 1570.808350
-431.206573 1230.199707 1655.383179
-93.695297 1262.708618 1838.942139
-293.622437 1141.326660 1806.273804
-139.943985 1323.357666 1775.611572
-121.214592 1421.514038 1747.341797
-189.583328 1382.245728 1608.911743
-226.006271 1491.275879 1709.057617
-424.743195 1156.342651 1731.500000
-155.693542 1283.227295 1838.124634
-248.179993 1507.532349 1702.701294
-121.725502 1343.820068 1753.228027
-299.126068 1378.888062 1580.428955
-333.740784 1616.251343 1746.376465
-434.749115 1139.369141 1792.199585
-249.436539 1172.708618 1820.352539
-105.752472 1373.842651 1844.368530
-159.973953 1326.987549 1774.269409
-345.606323 1344.420410 1568.084106
-304.777069 1115.575317 1840.549561
-180.776489 1381.900024 1619.969238
-153.522537 1487.967651 1878.373901
-193.122711 1392.992798 1614.934448
-200.340134 1525.778198 1845.476318
-177.039902 1497.686523 1826.624512
-271.389679 1396.594238 1592.925171
-334.923004 1284.209717 1681.143433
-346.298218 1167.932129 1757.475830
-250.638351 1464.707520 1590.527588
-104.583710 1394.275391 1756.303833
-334.672607 1632.604614 1740.190186
-230.721512 1215.026123 1749.386108
-293.860809 1574.270020 1750.517578
-130.190887 1384.330322 1778.241699
-166.376968 1332.688232 1673.379272
-570.882813 1179.772461 1730.553833
-194.067825 1328.302856 1656.475220
-262.424622 1386.455322 1580.979736
-124.289879 1333.919678 1680.469116
-308.474457 1197.409302 1739.995728
-105.907158 1339.160278 1711.452148
-191.658417 1340.505493 1627.729004
-233.816803 1455.817749 1624.707031
-285.894165 1502.964233 1607.566284
-161.518402 1280.571411 1720.342285
-204.469986 1302.337158 1685.874023
-181.299149 1273.966431 1719.713013
-363.631531 1342.278076 1572.887573
-82.895729 1250.505981 1864.625244
-214.391571 1414.279663 1588.583740
-198.051590 1434.857544 1610.986328
-136.610031 1387.725830 1827.657837
-480.788086 1192.683105 1722.763306
-201.267075 1201.039429 1797.277466
-290.195160 1375.408447 1582.241943
-219.588287 1466.864136 1678.207764
-128.446472 1284.722168 1819.640625
-487.527740 1183.708862 1736.250732
-160.002304 1274.022095 1789.827881
-170.005478 1322.902954 1799.326782
-382.205322 1192.608521 1718.418457
-330.199768 1089.126831 1847.762207
-327.754425 1342.578491 1608.718872
-210.014130 1483.037109 1736.058105
-316.667725 1131.574341 1781.822876
-238.904633 1258.449707 1732.327881
-171.566025 1456.618652 1784.298340
-415.868866 1313.134277 1607.657593
-91.575172 1276.205566 1856.414063
-551.660339 1148.116333 1688.520508
-212.803375 1514.538696 1790.245728
-534.691772 1172.764526 1659.740967
-503.348572 1154.494141 1680.379883
-111.451019 1336.818115 1696.179077
-214.893906 1293.033813 1713.163086
-220.542770 1495.125000 1730.069214
-155.658066 1336.999878 1657.283081
-135.346603 1470.244263 1796.153809
-124.913994 1328.749634 1733.169556
-68.840981 1239.739258 1865.554932
-158.903732 1289.698608 1743.059326
-143.965500 1302.726685 1789.574219
-127.831947 1398.111450 1723.494873
-284.904449 1520.437744 1598.821899
-430.951813 1290.480347 1617.031128
-283.810394 1185.184937 1755.983643
-311.749176 1129.682739 1876.900269
-241.618561 1471.812256 1619.573853
-261.836731 1375.721802 1593.761719
-210.334641 1296.067627 1671.757446
-171.533508 1347.190674 1637.752686
-393.978577 1192.806274 1732.536865
-285.620941 1206.659790 1742.084229
-299.295471 1566.723755 1705.629883
-274.603455 1367.546753 1597.491943
-213.651825 1225.072144 1749.217407
-150.711456 1293.205933 1777.322876
-258.280334 1511.395752 1694.408936
-218.242691 1196.870239 1764.467285
-301.271942 1228.773315 1721.204590
-327.614929 1354.994019 1592.883057
-231.706650 1450.971924 1536.919800
-343.265656 1639.767456 1759.036865
-136.126434 1302.481812 1712.934570
-386.445282 1318.520264 1608.094604
-243.653320 1498.242310 1662.259399
-270.129913 1167.581665 1765.405762
-229.092499 1450.838501 1622.786499
-165.795654 1368.943115 1655.829468
-273.314148 1382.361084 1599.832397
-172.286514 1449.064941 1748.660034
-110.490417 1292.917603 1826.723511
-286.161804 1565.636719 1731.638184
-504.078857 1160.583130 1743.491577
-291.817444 1344.552002 1630.027588
-240.488495 1165.053467 1784.227905
-377.096252 1275.082031 1656.430664
-356.395782 1081.298828 1805.078003
-388.274872 1052.996216 1842.357300
-258.888916 1273.495972 1708.199585
-242.492722 1515.589966 1728.901978
-445.613007 1221.619507 1661.850342
-162.169159 1278.213623 1710.434326
-313.790985 1129.128784 1776.475098
-136.764389 1392.556030 1801.354736
-322.809021 1391.814209 1561.318970
-80.262794 1258.720459 1860.550171
-368.595215 1130.520386 1771.081787
-65.973434 1350.159668 1869.142578
-195.462540 1311.938721 1673.016479
-157.787659 1448.442749 1767.250000
-95.200592 1349.883179 1683.136597
-238.572922 1200.783203 1825.412598
-293.204285 1509.992920 1616.549316
-173.110809 1266.826050 1778.481812
-319.659729 1251.415039 1692.588623
-269.590759 1565.125488 1777.803101
-138.761490 1325.273438 1687.904297
-194.426514 1462.838379 1725.101563
-306.042450 1096.052246 1874.932495
-271.857941 1293.896362 1736.653564
-247.161621 1468.267578 1608.198975
-271.713776 1466.304077 1556.925659
-312.884979 1109.146362 1811.307495
-313.234528 1398.102295 1571.745117
-220.100540 1540.704956 1832.986206
-218.525558 1336.877930 1634.763062
-195.111404 1331.619263 1643.851563
-139.188721 1379.049194 1695.339966
-262.159393 1452.269043 1547.680542
-396.271576 1239.652954 1679.639282
-262.715576 1519.315063 1692.812744
-179.397858 1465.225342 1758.862305
-138.843445 1307.104004 1697.845459
-251.854034 1556.113647 1743.645264
-227.555649 1505.554565 1740.770996
-300.846344 1135.094727 1799.704468
-397.522919 1217.070557 1682.989868
-197.910538 1492.902222 1750.410156
-368.478058 1305.719849 1615.994995
-262.829926 1476.226929 1600.593994
-129.854553 1487.448364 1812.885986
-289.948608 1250.564453 1727.910034
-476.053986 1182.961670 1698.136353
-238.275070 1178.003906 1796.029663
-257.040009 1374.250000 1590.479980
-122.432541 1319.480591 1701.670288
-377.840027 1195.646362 1723.493042
-218.780075 1379.353516 1599.982910
-501.562927 1177.953247 1668.615845
-268.917389 1147.416138 1831.601440
-168.047638 1344.355469 1651.425659
-202.370316 1432.589111 1648.237915
-288.955322 1486.867798 1579.263916
-293.831085 1179.292114 1764.583130
-317.704193 1560.781006 1674.912231
-322.724213 1352.900024 1663.543823
-253.454300 1447.941040 1548.633179
-349.596802 1335.869629 1600.404175
-202.364822 1248.397095 1744.582886
-476.012512 1194.198120 1666.682495
-397.409454 1277.013672 1594.811646
-378.445801 1076.089478 1802.007080
-65.784279 1339.720947 1873.760132
-402.296356 1310.521729 1600.880981
-362.897186 1292.895996 1656.508179
-300.648651 1109.851318 1844.153320
-142.908600 1291.190674 1776.841919
-173.283142 1291.670410 1693.041992
-258.477936 1533.774536 1728.490479
-101.673660 1411.316040 1893.875122
-281.366425 1329.562012 1647.898682
-211.647125 1407.703003 1595.204346
-523.329163 1172.925171 1682.659546
-126.488647 1374.364868 1701.098267
-324.550232 1242.086426 1702.137817
-372.110474 1291.189697 1629.624756
-365.873535 1266.818726 1677.545166
-262.403046 1297.783813 1686.731445
-210.299576 1234.403320 1765.223755
-94.801025 1413.415527 1745.891602
-505.510559 1146.951538 1628.780151
-183.775726 1459.789551 1742.410767
-197.533249 1226.863281 1760.808472
-269.210083 1512.390625 1629.502808
-331.905823 1211.447754 1744.555176
-191.129013 1348.618286 1633.147949
-298.981293 1250.428955 1705.075073
-284.363678 1221.459106 1740.828613
-121.630264 1273.377197 1869.462158
-144.039429 1293.615845 1781.088623
-137.796097 1304.602905 1806.327759
-221.371658 1448.038330 1614.906250
-378.713165 1279.311523 1653.063843
-418.607330 1143.682739 1743.775269
-170.458405 1258.987061 1744.037598
-467.023987 1201.282593 1672.970093
-77.127449 1257.406982 1839.875122
-320.023651 1233.627197 1708.003540
-199.935776 1349.886963 1631.090698
-177.511749 1344.542847 1640.911133
-164.342422 1333.405396 1657.109619
-244.493423 1526.600220 1753.440552
-233.475235 1169.708374 1797.113037
-227.563782 1172.484009 1802.914917
-447.805939 1271.959839 1630.765625
-183.199646 1420.589355 1663.523315
-103.969124 1415.666138 1765.401978
-88.075569 1375.101929 1884.214844
-233.653534 1187.218994 1784.529907
-271.211304 1466.589111 1546.309448
-262.777496 1333.966187 1639.049316
-330.064911 1096.327393 1852.832886
-450.157959 1239.348267 1641.678101
-160.162415 1276.884277 1780.487427
-413.504028 1222.519897 1682.694458
-94.951324 1394.975342 1728.030396
-429.078064 1146.958740 1730.057495
-103.205994 1271.863770 1864.976563
-113.767166 1329.066772 1699.263550
-218.946716 1438.250488 1573.705078
-322.385376 1092.345947 1838.327271
-104.454826 1407.025513 1739.182251
-250.193130 1454.634399 1562.719360
-462.989410 1246.572510 1634.596313
-214.834518 1268.037109 1718.072876
-274.730621 1451.075439 1561.290894
-149.962723 1320.418945 1686.479492
-266.992126 1150.500122 1797.720947
-145.448532 1409.915894 1722.531006
-199.124603 1308.077881 1667.788452
-58.763683 1253.996094 1852.704102
-112.765266 1266.445313 1835.062134
-250.216431 1485.027466 1637.676880
-312.256409 1319.168213 1666.802856
-293.530945 1137.541260 1797.831543
-488.094177 1215.973145 1659.597778
-529.505859 1159.704224 1662.172974
-217.520706 1465.949585 1666.758911
-511.144806 1143.890503 1698.452637
-292.068390 1414.230713 1567.465942
-312.612640 1198.720215 1744.580933
-146.329849 1384.951538 1801.535156
-134.115723 1436.607422 1810.099365
-174.947723 1324.510010 1665.757324
-164.390488 1280.616943 1836.379761
-518.107544 1187.460693 1659.009155
-122.733360 1377.866577 1664.244019
-494.904999 1167.974365 1683.891602
-255.118225 1542.009399 1723.776001
-355.249329 1160.721802 1754.261230
-142.692001 1414.295776 1737.537964
-285.722656 1535.973755 1675.205933
-151.893005 1360.981079 1644.896606
-134.113937 1517.836304 1856.094727
-124.241318 1393.638794 1830.209595
-308.012299 1235.824219 1723.577637
-338.627869 1336.927124 1643.718994
-389.187744 1121.158813 1775.721924
-359.713501 1076.314087 1873.842163
-98.219620 1388.010132 1722.270142
-382.061523 1175.983765 1734.356445
-171.712494 1281.026978 1704.156982
-368.074738 1243.912842 1685.435059
-457.285980 1197.639160 1697.744385
-303.889465 1260.829956 1692.008911
-120.460144 1277.802734 1814.040283
-191.632736 1296.300781 1689.922241
-441.673676 1245.117188 1640.739624
-471.217926 1123.700928 1760.379395
-134.299850 1317.357788 1736.708374
-106.934662 1340.525146 1709.286865
-460.393982 1196.829590 1683.576904
-429.145477 1254.301636 1645.364380
-162.330017 1304.221191 1768.590698
-258.202484 1446.563599 1561.179321
-316.932495 1295.304565 1665.188232
-148.245758 1300.387939 1709.549683
-241.798233 1151.720337 1813.412598
-262.085724 1560.903809 1797.240112
-260.618958 1180.659180 1765.364014
-248.590958 1523.105713 1752.964844
-400.413696 1095.513184 1781.592529
-530.553101 1177.683105 1661.951904
-340.765625 1637.395752 1761.739624
-172.901550 1324.644043 1815.737793
-491.647034 1207.467285 1654.778076
-487.508179 1200.062012 1657.203857
-182.666733 1488.486938 1809.093750
-329.255341 1091.045166 1826.792480
-225.764374 1319.136230 1659.111328
-171.901581 1371.901855 1617.343628
-393.427826 1329.877197 1605.366821
-124.609901 1398.810913 1825.572876
-298.603973 1349.676270 1608.411255
-324.940735 1211.276367 1749.762695
-108.914085 1346.015503 1678.857544
-357.111115 1074.361816 1817.022095
-204.282135 1198.443726 1805.815063
-116.173485 1326.942505 1699.946777
-269.035553 1249.974609 1713.554321
-190.883423 1487.746460 1755.031372
-379.449280 1336.868652 1599.330688
-103.273178 1372.761353 1860.883545
-467.562897 1101.766479 1747.690674
-198.829437 1222.541504 1776.935791
-186.927933 1460.625732 1728.917725
-510.971069 1167.641113 1689.058716
-371.423950 1066.178589 1817.094727
-179.259888 1445.542725 1733.097656
-276.435211 1242.900757 1720.770752
-307.265900 1535.543213 1632.848389
-338.941956 1167.269775 1761.155884
-204.482773 1494.799194 1809.416382
-277.567963 1502.539185 1613.126465
-307.809143 1392.676880 1552.685791
-459.231720 1139.415161 1734.943726
-165.423660 1294.825684 1780.118408
-322.570648 1112.193848 1802.903198
-584.072449 1252.701050 1860.076660
-252.241104 1552.500244 1756.902954
-218.904800 1446.163086 1637.069336
-193.925980 1396.112183 1604.960571
-219.791473 1502.223511 1749.330444
-425.224030 1244.161621 1659.250000
-119.309090 1438.589478 1765.162842
-314.007660 1142.372192 1908.789551
-174.519562 1286.706299 1776.135254
-251.648987 1443.436279 1536.629272
-407.364014 1239.459229 1686.792480
-353.298065 1271.616333 1664.592896
-429.893311 1216.691772 1710.541992
-371.554138 1271.992798 1666.238281
-217.934723 1493.641602 1709.318359
-108.732178 1379.179443 1759.092163
-317.223633 1580.526978 1685.681885
-199.345886 1501.389893 1792.503174
-96.241203 1392.706543 1741.905762
-169.761353 1279.564575 1739.925171
-176.447815 1410.827637 1608.945190
-245.279846 1255.273438 1734.664673
-83.210655 1271.833862 1845.665649
-344.803497 1120.376343 1802.823975
-241.401245 1330.545776 1633.505371
-114.180763 1388.957764 1802.000977
-200.725052 1253.030151 1827.446045
-118.674484 1372.464966 1700.087769
-283.966980 1248.479980 1714.841675
-501.736176 1216.149170 1652.647339
-403.608307 1297.491577 1587.807739
-147.375153 1460.732300 1844.368042
-142.609070 1457.021118 1783.662964
-196.672256 1222.889282 1790.850708
-130.206757 1332.104980 1676.890381
-216.719910 1303.602539 1677.082031
-188.521210 1232.701050 1794.935669
-316.082397 1604.363770 1761.680298
-205.966644 1256.957764 1727.678101
-240.907333 1556.620117 1832.766602
-190.126999 1262.848755 1725.647217
-492.973602 1176.726196 1662.646851
-315.959015 1389.334839 1553.902222
-372.936646 1216.600952 1713.178101
-361.701233 1191.905151 1727.697266
-144.257050 1362.400879 1825.037598
-472.886780 1191.412598 1669.200439
-275.171387 1559.296875 1718.805054
-96.144661 1271.958740 1840.445068
-290.465240 1418.449219 1544.360107
-248.686310 1527.850708 1745.738037
-480.450684 1204.639893 1671.307861
-222.352951 1487.114136 1726.759399
-243.095566 1557.849243 1822.817139
-254.098236 1556.799316 1795.381348
-148.467804 1347.917725 1664.432739
-135.455750 1478.688477 1803.610474
-197.255997 1246.832397 1788.455933
-356.305939 1358.899902 1593.571045
-176.609726 1386.953735 1610.995117
-178.194534 1252.923096 1811.057983
-328.263153 1286.817993 1682.471558
-208.788254 1494.192261 1754.742554
-387.390228 1256.595947 1677.423218
-100.981926 1392.768188 1739.893799
-406.942322 1053.051147 1811.145508
-141.727905 1415.087402 1739.415039
-449.296021 1211.894653 1667.343384
-67.502350 1211.909424 1863.314575
-161.264389 1317.600830 1674.048950
-175.827209 1409.225098 1588.593994
-215.757324 1223.354370 1752.020874
-486.190430 1229.283081 1646.063232
-160.081451 1337.682861 1795.504272
-500.978729 1188.863037 1658.765137
-190.843552 1366.073853 1640.138794
-304.145630 1345.349976 1620.919556
-114.216774 1361.162964 1684.231812
-166.450516 1411.347778 1685.621582
-83.926193 1275.066162 1836.632324
-516.560791 1161.856934 1819.701172
-459.865021 1245.165283 1615.450562
-154.373230 1315.306519 1693.396851
-152.070816 1281.049927 1809.145020
-317.039093 1112.044800 1810.444580
-106.997169 1448.217773 1785.441162
-135.706818 1490.700806 1824.604980
-235.736404 1305.813354 1663.771973
-131.604996 1315.985352 1701.910522
-374.203888 1277.461670 1656.942017
-358.666718 1175.136719 1755.150757
-284.597931 1491.045288 1594.508057
-274.687805 1553.383545 1764.795898
-145.169556 1381.843872 1673.676147
-324.203369 1411.612915 1571.942627
-299.640472 1543.891113 1666.270508
-335.487366 1335.941772 1610.253540
-379.278198 1173.540649 1740.314453
-190.603668 1264.698853 1720.817627
-122.380653 1296.989380 1832.737915
-384.111572 1210.795776 1712.564941
-206.563675 1326.716309 1648.111450
-251.797302 1538.254028 1765.248047
-220.182632 1301.619263 1679.963623
-167.037384 1265.834595 1724.267090
-198.538345 1529.445313 1852.932251
-110.525002 1283.184570 1825.957153
-232.885513 1208.192505 1835.161255
-280.675354 1424.744263 1556.041504
-110.338760 1343.654663 1729.849976
-214.543900 1323.673340 1658.698853
-100.692413 1407.666870 1755.192017
-154.288254 1350.412842 1664.924316
-270.679535 1169.580933 1817.950928
-98.218048 1335.958496 1709.035156
-280.369263 1511.660156 1584.899048
-224.888535 1178.499878 1780.749878
-216.857788 1358.156128 1617.090332
-426.100586 1295.795288 1616.699341
-120.510567 1452.361938 1779.224976
-104.651382 1338.702271 1689.101685
-254.352692 1319.956421 1673.738892
-290.066986 1158.735352 1773.603516
-311.512482 1260.700195 1695.849365
-238.366440 1346.333862 1617.320190
-155.345230 1460.330933 1866.695557
-202.016266 1444.529175 1656.145020
-323.915466 1371.099121 1591.835083
-370.817993 1335.772705 1583.549438
-373.559540 1070.673462 1838.419189
-171.358292 1434.975098 1680.627930
-274.208679 1501.129761 1577.543823
-417.077576 1284.208374 1639.077271
-213.291031 1238.547241 1784.529053
-168.008545 1288.891113 1777.804199
-149.649826 1398.494019 1672.314453
-135.465607 1341.337891 1755.267090
-232.672852 1206.334961 1788.019165
-229.014786 1191.085815 1766.517334
-269.908478 1515.227295 1675.707397
-302.209961 1248.993652 1709.975952
-97.222588 1430.004639 1762.016235
-409.116272 1078.041992 1791.525513
-194.497955 1272.934448 1792.000000
-329.851379 1230.416016 1716.130493
-314.572968 1274.668701 1684.328857
-120.344742 1263.472534 1831.812988
-397.607574 1082.307495 1794.730591
-333.299347 1592.219116 1705.130005
-328.786041 1128.126099 1778.519775
-274.127808 1246.385498 1719.857788
-198.023285 1336.791992 1641.953003
-182.541428 1365.052246 1615.100342
-312.055481 1329.695435 1619.393433
-198.055450 1420.882690 1627.702148
-393.960876 1146.627686 1767.106079
-341.725739 1110.750244 1804.038574
-556.495605 1197.102173 1804.649658
-397.788849 1245.140381 1685.197144
-501.178802 1195.037720 1638.523438
-420.599457 1174.897705 1736.448364
-207.534027 1302.938721 1654.005859
-150.372543 1390.292236 1644.091797
-207.610977 1464.946777 1694.199951
-186.920471 1368.644287 1614.888550
-396.190460 1306.473145 1614.191284
-115.312759 1298.515747 1839.151001
-185.968430 1397.636353 1596.068115
-137.688919 1303.290527 1780.667969
-256.257935 1552.607422 1815.819458
-342.112885 1203.513306 1731.252197
-256.438324 1503.873291 1636.684204
-349.398834 1153.551147 1760.432007
-385.064331 1292.292603 1635.022217
-235.889923 1343.898315 1619.899048
-186.250946 1272.434570 1789.189453
-178.906036 1400.068726 1594.436157
-177.245255 1270.808838 1816.362549
-299.169556 1114.941040 1863.387695
-512.733582 1144.377686 1790.840698
-357.878265 1162.597900 1751.866211
-197.147705 1337.573975 1661.765381
-335.024628 1357.031006 1590.343628
-225.282532 1516.649292 1737.116455
-254.047211 1527.336182 1724.466431
-507.746613 1190.901855 1675.117310
-217.499466 1316.731079 1646.329468
-296.326874 1561.215942 1700.165039
-178.351486 1357.494629 1658.962524
-130.932388 1352.270264 1847.533081
-147.965561 1285.959473 1729.811035
-209.356323 1477.499390 1726.298096
-281.579163 1146.543335 1811.862915
-366.286133 1088.601929 1804.650635
-291.714111 1138.843506 1797.756714
-97.579773 1366.979614 1720.849243
-263.863007 1527.822998 1678.537598
-148.535110 1325.328613 1754.882202
-310.935425 1169.496338 1766.197021
-302.227448 1358.477417 1659.809814
-528.962341 1185.911011 1656.484497
-233.362167 1412.934326 1575.873169
-499.654846 1224.204956 1642.719116
-446.641388 1149.719238 1744.224854
-291.560364 1516.869629 1611.258423
-183.349060 1332.899048 1653.142090
-477.341888 1235.800293 1644.349487
-292.482941 1298.287109 1717.231445
-368.210236 1165.494751 1745.749756
-301.269958 1531.956421 1644.847778
-103.248611 1368.609497 1696.447510
-321.012451 1246.400024 1710.757935
-213.290283 1447.468628 1572.521240
-520.674805 1133.823242 1744.397461
-304.100677 1171.879272 1761.518677
-128.976471 1378.489136 1701.094727
-178.170883 1443.270264 1712.482178
-248.089752 1179.517578 1767.168701
-233.768173 1234.134644 1856.315552
-238.031982 1273.737427 1695.118652
-122.792480 1314.551758 1718.121216
-352.612396 1081.130981 1895.411377
-348.506012 1116.151489 1781.988770
-256.481995 1212.792603 1872.246460
-90.247986 1412.385986 1735.773193
-419.211151 1076.341553 1797.402344
-241.707214 1451.342773 1595.020874
-193.430847 1368.003174 1637.695435
-304.207062 1097.772705 1846.987183
-88.542549 1414.779663 1757.404785
-198.911957 1314.331299 1673.646484
-131.234009 1388.430176 1824.279907
-299.824768 1118.147949 1864.384155
-273.918488 1199.171387 1756.613525
-133.790176 1296.469482 1818.295654
-232.227692 1178.977173 1782.012085
-485.733978 1180.725708 1718.363037
-237.696442 1173.055054 1785.591431
-290.760925 1149.853027 1779.216919
-243.856934 1259.666748 1717.819092
-349.150238 1293.251343 1656.089111
-264.501740 1430.284912 1563.931519
-138.421280 1431.171509 1842.552734
-133.890930 1400.637207 1843.543823
-245.385513 1538.623901 1783.781616
-207.217743 1301.375366 1667.839111
-485.025726 1188.164795 1940.752808
-513.487732 1159.907837 1822.333862
-199.782516 1445.781006 1684.056763
-353.979309 1303.892700 1627.332275
-164.988953 1380.542969 1631.904297
-327.280457 1363.444092 1580.466431
-223.461426 1295.647583 1701.643188
-165.679886 1347.182007 1643.365845
-105.988480 1428.740234 1761.284790
-92.987617 1362.316528 1870.742310
-202.617432 1234.389893 1744.158936
-215.027298 1403.803711 1580.744751
-374.893188 1133.452881 1772.089478
-179.602737 1292.696777 1689.071655
-209.306107 1533.696411 1839.147339
-258.677521 1495.416138 1678.796387
-327.013458 1325.480957 1643.709473
-263.719696 1441.152954 1547.664795
-334.042755 1177.592651 1754.937866
-357.456543 1231.413208 1700.288574
-381.118622 1156.552856 1752.897217
-171.754898 1256.783325 1743.529175
-215.007263 1228.450317 1774.991333
-214.838531 1353.687012 1625.489868
-358.033875 1264.985596 1666.830688
-450.760651 1225.110229 1644.953735
-460.935638 1247.183716 1637.800903
-207.176804 1227.614990 1742.423096
-141.107407 1433.703247 1854.344360
-118.657944 1363.695190 1694.471069
-264.957001 1480.296631 1612.174438
-194.717239 1340.372681 1657.779907
-210.949921 1351.058960 1634.669434
-194.814255 1255.392944 1731.095581
-151.981049 1300.523193 1691.612793
-271.286591 1496.728760 1649.559692
-496.656311 1149.040527 1686.394775
-240.025208 1551.231445 1758.449707
-254.801300 1540.369385 1762.846802
-330.950134 1327.420654 1657.343628
-143.056244 1273.601074 1801.154175
-239.064758 1370.623413 1614.179688
-238.853760 1193.141602 1765.348877
-447.212646 1208.197754 1701.852661
-232.292862 1196.483643 1766.790771
-189.630234 1348.550659 1633.095703
-327.855652 1348.988037 1598.515015
-161.880081 1287.126099 1710.032959
-355.724762 1307.989868 1620.239136
-418.858185 1229.367554 1671.278442
-398.916870 1251.606201 1666.423706
-145.633148 1376.665771 1811.217773
-138.498566 1305.969727 1833.910156
-224.137817 1425.649780 1599.274170
-101.707993 1362.674683 1736.832520
-84.392624 1263.553223 1818.339600
-198.765884 1288.926270 1670.861328
-106.876854 1413.174438 1876.579956
-96.952545 1238.708374 1844.968872
-250.712860 1171.083618 1776.791138
-75.656517 1233.638916 1869.075928
-207.532425 1210.529297 1800.595825
-226.041382 1514.399414 1767.379883
-122.327972 1336.460449 1671.600220
-235.096191 1349.279663 1612.637085
-225.586044 1381.785400 1599.182007
-229.047089 1190.670410 1795.959351
-151.111649 1458.410522 1844.693481
-465.536591 1224.007568 1646.900024
-123.656570 1265.536377 1819.127075
-327.784119 1617.503784 1725.707520
-212.498169 1221.355469 1814.641846
-302.671753 1132.817627 1889.336426
-175.883865 1263.741821 1794.739990
-212.286072 1361.276733 1625.215698
-125.210579 1337.687256 1693.820801
-218.937546 1204.781860 1764.002441
-127.661781 1467.664429 1798.389893
-238.354813 1374.703247 1603.511597
-116.759430 1285.819702 1813.732056
-323.952515 1235.822510 1720.997314
-321.983215 1611.850220 1782.957764
-490.355133 1176.569946 1671.012695
-344.962646 1350.960693 1600.642822
-147.116272 1498.365112 1854.638916
-201.946533 1266.284424 1721.596558
-132.286621 1310.064941 1708.336792
-298.932220 1590.385132 1731.559204
-501.786194 1186.923218 1647.568970
-481.485382 1141.577759 1718.777222
-160.674393 1332.559204 1680.430664
-211.370163 1440.576416 1588.781738
-141.448074 1475.510864 1806.891479
-346.754761 1274.890137 1675.605835
-195.165085 1364.640381 1624.303711
-424.037140 1146.366089 1761.405884
-120.053062 1340.213501 1742.991455
-320.665833 1094.034302 1817.838135
-355.728699 1298.010742 1646.497681
-163.565842 1330.713745 1805.574829
-433.072906 1167.607788 1723.164551
-150.284149 1310.254028 1703.502075
-258.289764 1192.953979 1759.423462
-321.339478 1374.527344 1587.523438
-223.641556 1217.557495 1750.107666
-311.716675 1587.629150 1728.749268
-163.834503 1281.427979 1744.275879
-145.999481 1375.413330 1666.082764
-517.300659 1159.258667 1680.807251
-259.030975 1308.846436 1654.074585
-193.216354 1408.285278 1590.515747
-449.802704 1114.573853 1871.650757
-280.449799 1547.927124 1704.698975
-407.755157 1243.564575 1679.126099
-134.921616 1352.864502 1659.687012
-155.555328 1426.407349 1697.742676
-202.218933 1215.052979 1762.108154
-464.931763 1161.114868 1744.580688
-351.327728 1171.424438 1752.470459
-293.656403 1115.608765 1876.403687
-202.859390 1375.023071 1613.806519
-506.736816 1198.078491 1636.534302
-126.673935 1309.960083 1714.210815
-348.950897 1178.817261 1747.377686
-240.253342 1477.249268 1642.670410
-186.772034 1453.554443 1725.468018
-332.714233 1212.453125 1729.544800
-279.332489 1548.201538 1715.609863
-434.649292 1199.398682 1693.790039
-426.343750 1224.716064 1671.221558
-171.459518 1360.147583 1648.164429
-218.516235 1384.479126 1595.570801
-96.545311 1354.463379 1864.869263
-133.578293 1418.032349 1851.587402
-221.440933 1466.007568 1670.973999
-423.913116 1080.257568 1793.702759
-94.219170 1274.791748 1851.962891
-325.800659 1237.635132 1702.707642
-157.067871 1315.030151 1686.563232
-387.803375 1305.602539 1606.103516
-273.779602 1146.523193 1823.823853
-524.051331 1129.604004 1719.831421
-291.430084 1143.341675 1795.852417
-328.235992 1275.548706 1666.737183
-220.701218 1540.896362 1842.978516
-122.923256 1343.649902 1848.349243
-77.362488 1390.235474 1739.164551
-383.655029 1064.637573 1841.978394
-210.274948 1230.317505 1750.430298
-491.288239 1174.356445 1679.394287
-98.628136 1397.402100 1839.984619
-146.200974 1512.149536 1854.513550
-148.456650 1306.352295 1776.741211
-282.078583 1392.397339 1546.427734
-363.471405 1344.180176 1593.811157
-458.340881 1201.532227 1668.725586
-433.264008 1238.707642 1646.430298
-374.048462 1081.414917 1912.886597
-376.510529 1264.056885 1670.700073
-177.802017 1354.962524 1630.886597
-83.869179 1417.561157 1779.297119
-134.325836 1425.666138 1750.305054
-273.637207 1366.754150 1592.028564
-209.622772 1198.122070 1811.243530
-204.751328 1211.359009 1777.450073
-120.533134 1350.007935 1676.588379
-336.554047 1089.254639 1796.703247
-154.360016 1294.937866 1784.270996
-209.774658 1450.753174 1671.790894
-247.410873 1441.305420 1527.786621
-510.583099 1153.963135 1693.860596
-213.487411 1398.486572 1590.482056
-212.249710 1195.244629 1774.824097
-502.665283 1118.921753 1719.130981
-360.672943 1253.717896 1681.424194
-188.668472 1383.011108 1632.272095
-347.042480 1358.292114 1589.981567
-109.641708 1438.744141 1786.799561
-103.623795 1427.906250 1762.627930
-197.736237 1269.261475 1775.501831
-521.309326 1148.760132 1687.273682
-289.178955 1591.038208 1796.048218
-272.872955 1216.641724 1752.342041
-329.063293 1120.155151 1808.683960
-212.357620 1203.297729 1799.178101
-201.942917 1515.943848 1821.787109
-138.964645 1418.627686 1741.363281
-169.803894 1475.070679 1884.891235
-237.868622 1351.550293 1610.069824
-277.121674 1384.215454 1578.957642
-473.902100 1134.519043 1864.449463
-168.606262 1433.385620 1719.785889
-322.464233 1610.921631 1777.033203
-407.505890 1120.120239 1773.294434
-274.363007 1233.614990 1724.730225
-443.159302 1283.918701 1620.522339
-223.621445 1496.448120 1727.145020
-135.111725 1409.699219 1815.200073
-194.303024 1308.838989 1679.192383
-149.691360 1380.262085 1670.431152
-249.366287 1557.972656 1809.609131
-173.606415 1344.303711 1810.005981
-268.944794 1324.089233 1658.017578
-213.319153 1298.348877 1670.880737
-170.766495 1328.881104 1656.012329
-103.290749 1420.346558 1753.410400
-492.121002 1131.819458 1716.774902
-286.355713 1564.768555 1706.259033
-307.484833 1212.469727 1758.729736
-184.131607 1444.791870 1695.839355
-192.932419 1351.308838 1620.775391
-283.223175 1564.792114 1739.771118
-317.188538 1151.206177 1763.655273
-337.442017 1095.586426 1913.941528
-328.069275 1592.964966 1717.103394
-247.544754 1368.052612 1617.334717
-312.669647 1617.335938 1769.706787
-354.235107 1088.562988 1798.850098
-245.746658 1222.612549 1842.616821
-142.440369 1354.560425 1647.636719
-150.425949 1485.032837 1810.260742
-336.370758 1229.707642 1710.484253
-156.401886 1291.482788 1704.257690
-126.911133 1453.574585 1811.535400
-385.983521 1080.028809 1828.546265
-145.916061 1353.482666 1650.190430
-149.126907 1380.204224 1834.748413
-322.633331 1071.528320 1844.644165
-238.470108 1480.711304 1694.495972
-405.062134 1265.882568 1637.144287
-268.174896 1336.116699 1625.793457
-483.997559 1205.166504 1681.150391
-279.120697 1236.927246 1730.458252
-318.120392 1282.097534 1667.062012
-214.642410 1230.645142 1749.586792
-316.732208 1251.844482 1699.973877
-137.472412 1310.640991 1688.475586
-240.803009 1160.930908 1779.194702
-142.853256 1298.120361 1773.748901
-455.494019 1205.324707 1666.275513
-265.346771 1544.868530 1731.266235
-282.697021 1526.708496 1664.380737
-193.579681 1396.949585 1594.987915
-218.047165 1423.650513 1577.547974
-304.116333 1103.287231 1816.940308
-119.983597 1361.167725 1708.723022
-493.707245 1203.771729 1655.553101
-192.285690 1270.657349 1771.413330
-143.817657 1528.730713 1860.886108
-202.579559 1363.998291 1621.853027
-143.268127 1342.015381 1662.829346
-179.448074 1289.872681 1706.981323
-194.171173 1273.596680 1788.469360
-189.006989 1291.851196 1688.814941
-200.901093 1489.169312 1735.104004
-251.332733 1156.985107 1789.795898
-152.542542 1469.690552 1855.371826
-189.557480 1487.346924 1757.796265
-493.467529 1175.400269 1684.781128
-117.393356 1404.410522 1786.105347
-132.740768 1492.448975 1844.882690
-154.290085 1405.052002 1691.084351
-515.170776 1154.159668 1695.546387
-120.602203 1314.923096 1711.024048
-295.398071 1507.859375 1601.239990
-118.708496 1371.517944 1762.272217
-133.165375 1268.143188 1801.635132
-446.470032 1202.341431 1682.728638
-216.052322 1333.575439 1651.148560
-190.783676 1443.363770 1694.811646
-286.780090 1394.161255 1571.388672
-158.776077 1301.412598 1704.215210
-173.354630 1273.415161 1751.644409
-343.200287 1096.202148 1822.048462
-147.092911 1423.857178 1855.910645
-135.120026 1313.380005 1782.650513
-192.892105 1440.155029 1711.190674
-115.619644 1453.182861 1791.160522
-311.304718 1203.660034 1734.848999
-451.646057 1227.312622 1619.140747
-412.721619 1227.054565 1679.109985
-127.661980 1305.949707 1809.510742
-139.912964 1372.772705 1672.142212
-389.483063 1288.306030 1628.747803
-294.505493 1520.074097 1630.034302
-247.808929 1304.469604 1655.197144
-368.027283 1263.368164 1677.316406
-510.101563 1174.937622 1675.156982
-122.882088 1373.176758 1662.690063
-161.289124 1432.343384 1707.664307
-225.156921 1324.278687 1650.245117
-214.344284 1230.880615 1813.434937
-230.685257 1161.330322 1814.358765
-334.283722 1616.237793 1757.815552
-66.325157 1381.626709 1866.388794
-169.082458 1271.715210 1738.921143
