ply
format ascii 1.0
element vertex 1332
property float x
property float y
property float z
end_header
1553.076050 1430.829956 -336.532349
1589.429688 1442.466919 -392.497467
1234.148560 1796.164795 -187.365433
1266.282837 1635.742554 -426.792908
1474.610352 1616.192017 -158.607590
1284.994995 1722.728271 -161.127777
1414.987915 1642.193970 -137.398315
1442.312256 1581.089478 -154.841995
1353.612183 1588.306030 -366.343567
1519.821167 1659.145142 -18.860020
1532.767700 1428.581055 -358.090881
1684.733276 1681.403442 -197.188187
1492.355713 1477.333130 -386.713287
1461.441650 1538.445068 -179.575943
1600.440552 1497.638916 -396.017517
1264.360962 1803.016724 -158.303787
1705.947876 1677.247803 -254.077591
1496.909546 1502.385864 -221.324371
1292.471069 1686.846436 -199.247040
1315.575562 1611.740601 -384.205750
1260.180420 1710.882935 -201.162842
1448.637329 1488.796509 -393.055542
1589.006470 1506.711304 -315.086731
1650.277344 1585.204590 -325.390747
1578.617798 1478.667236 -376.095673
1694.254639 1619.077881 -404.900940
1509.358032 1624.394653 -46.493313
1357.732666 1612.015869 -311.830994
1496.959473 1615.465576 -107.427094
1636.512573 1589.946655 -299.926575
1415.871094 1570.053955 -304.326904
1339.770752 1683.061035 -138.003677
1265.647583 1695.620972 -247.660599
1439.428833 1601.999512 -153.514343
1615.951416 1544.698730 -352.532013
1431.823120 1563.746704 -280.566071
1443.885742 1557.402710 -288.054504
1517.135254 1459.694336 -269.774963
1603.444336 1650.064575 -141.061493
1625.672974 1580.249756 -227.228943
1459.039673 1577.129272 -155.342896
1348.018677 1645.952393 -255.820541
1653.339478 1612.816772 -247.254898
1587.870972 1513.032227 -258.125519
1613.365479 1565.921753 -230.477432
1250.250854 1709.846191 -304.497101
1563.120483 1663.864624 -178.682404
1606.607788 1640.404053 -162.969849
1654.002075 1593.261475 -302.013824
1348.515625 1607.621094 -348.578156
1292.300293 1748.132446 -143.790451
1510.821411 1657.328125 -57.251545
1301.235962 1609.108276 -374.339569
1439.477051 1606.560181 -153.082977
1405.316406 1614.485840 -162.888199
1607.108154 1648.685791 -144.453720
1341.874390 1550.369507 -412.251221
1500.165039 1472.855957 -314.119720
1555.317749 1457.105957 -334.681000
1369.722900 1594.854248 -368.762451
1493.823730 1632.121460 -115.012627
1363.453735 1640.609619 -181.268677
1417.187988 1577.870972 -250.060852
1293.037598 1673.366577 -320.000031
1348.034302 1640.485229 -234.405197
1411.919189 1483.025269 -374.900116
1377.558960 1569.278442 -376.534882
1610.252319 1506.788696 -361.129364
1534.390381 1642.432373 -130.035492
1584.389893 1678.929932 -77.183533
1195.466187 1717.231689 -312.656647
1351.873901 1577.678345 -357.676025
1624.905884 1537.661865 -364.215363
1485.588257 1648.289551 -80.859573
1688.942261 1654.072998 -255.950409
1440.677368 1662.060059 -141.229584
1403.162842 1640.662842 -144.964584
1432.940308 1473.443115 -382.729401
1469.478882 1507.559937 -249.777832
1487.920654 1602.544312 -159.621902
1651.636963 1582.111328 -335.658875
1584.158936 1677.632813 -95.539154
1273.981689 1812.737915 -421.159149
1594.210938 1667.029907 -62.188313
1607.419678 1562.199341 -264.938843
1314.236816 1597.356323 -394.424622
1446.107056 1592.611938 -160.751343
1688.468750 1636.666626 -315.338043
1607.216553 1649.705811 -159.778412
1528.502319 1458.013672 -266.798523
1502.322754 1415.008423 -356.003693
1462.515869 1572.197876 -161.143814
1507.949707 1600.098755 -141.203415
1371.916260 1579.117676 -375.414429
1361.361694 1617.766724 -319.685333
1299.261353 1801.705322 -142.149979
1437.656616 1555.303589 -281.257751
1388.228271 1614.923096 -219.048599
1635.388672 1601.920654 -164.897232
1484.997803 1517.834839 -200.018219
1646.150269 1596.097778 -322.843903
1572.384766 1509.128906 -147.301453
1194.032471 1688.013184 -429.618652
1470.478638 1601.413330 -156.105530
1497.657104 1470.413940 -377.954559
1526.677002 1573.664429 -149.497681
1461.991089 1550.190430 -205.365646
1467.330933 1653.213745 -117.479256
1327.696777 1699.335693 -155.570313
1327.127441 1667.228516 -227.908859
1556.686401 1478.859741 -271.504730
1473.943726 1513.262451 -237.839737
1468.635132 1482.014648 -344.124451
1588.261108 1568.518555 -144.855392
1496.778320 1452.686890 -389.046478
1219.993408 1699.536987 -297.432526
1564.112427 1474.345825 -351.963165
1293.958496 1689.691650 -190.634537
1319.820435 1708.890259 -166.958771
1343.458374 1574.450439 -392.355133
1438.998779 1612.313599 -148.137695
1277.964355 1601.581787 -431.807434
1263.550781 1678.859619 -316.070801
1450.048340 1504.822510 -343.273590
1541.490479 1433.044189 -309.479065
1377.689819 1631.477173 -182.276474
1622.140259 1558.766602 -270.115662
1526.173706 1464.696045 -248.698334
1530.817139 1599.217896 -143.524368
1319.515015 1592.601563 -414.847870
1386.232300 1626.222290 -239.171371
1411.722778 1558.568237 -344.006256
1406.642944 1612.426392 -157.854034
1460.118896 1551.785522 -205.391647
1650.204834 1557.731689 -409.430756
1374.664307 1644.742432 -182.602737
1364.929688 1652.612427 -177.594376
1401.036377 1613.351807 -229.804581
1474.409546 1551.273315 -148.249512
1498.690552 1535.375122 -167.286484
1443.804932 1586.413574 -310.912598
1481.397949 1623.492432 -106.199738
1641.172729 1578.465088 -298.765808
1610.201294 1542.933960 -154.381653
1279.322998 1636.722412 -411.886383
1589.216187 1522.115967 -244.650223
1328.691895 1617.233276 -355.141022
1379.176025 1538.591309 -411.221649
1679.129395 1606.867920 -378.686554
1481.543701 1536.132202 -168.643829
1296.927124 1734.976563 -161.503265
1485.716553 1623.606689 -134.211807
1417.753296 1570.293701 -269.988312
1652.322144 1552.366089 -389.945221
1353.314819 1681.908936 -141.487335
1233.069702 1753.087891 -181.526779
1508.564209 1492.218140 -224.582870
1629.104370 1524.101318 -390.220825
1471.288696 1483.202271 -326.742249
1399.750122 1551.287964 -368.644348
1367.772827 1637.533203 -200.182053
1466.203369 1495.826294 -377.242462
1340.291748 1660.431274 -210.033875
1547.206299 1475.432495 -212.634705
1432.076538 1552.187866 -348.051788
1712.486084 1682.890137 -274.270752
1352.799438 1649.001953 -172.249893
1326.229736 1588.738525 -412.765350
1682.362793 1623.699219 -176.558533
1423.000000 1562.133301 -267.909729
1620.304810 1528.494141 -329.766876
1278.445190 1687.319580 -233.753586
1556.227783 1488.405762 -236.669968
1554.316162 1430.518799 -386.219727
1478.147461 1503.912720 -251.261459
1611.213501 1549.015381 -282.884918
1406.507813 1543.152710 -352.940979
1502.206177 1661.742065 -25.984875
1302.595459 1682.000000 -197.217560
1462.618896 1478.132080 -386.179169
1596.172607 1505.608643 -330.698578
1293.097168 1739.337646 -164.586624
1442.084351 1512.749023 -358.106476
1607.156006 1662.316406 -99.701775
1605.885254 1540.977905 -145.806244
1345.333862 1626.941528 -294.607147
1312.260010 1597.502930 -418.407104
1602.198730 1535.091553 -215.676224
1495.394897 1558.380005 -136.567657
1669.211426 1590.146729 -337.165863
1338.724731 1771.892578 -157.438370
1481.899658 1618.491089 -154.194565
1616.286499 1635.892456 -162.984467
1582.528320 1534.738892 -184.313293
1517.174683 1657.901123 -45.058544
1423.655640 1607.951172 -177.242920
1199.339478 1674.235352 -446.392609
1659.860718 1574.893921 -381.183380
1600.955444 1545.520264 -219.127609
1544.822021 1442.879517 -294.865692
1409.099243 1587.003906 -318.822205
1488.308594 1519.483032 -194.049042
1553.702393 1467.295654 -300.824097
1565.478394 1498.254395 -295.387054
1274.284424 1753.089478 -165.939774
1581.014771 1676.335327 -85.016624
1227.830811 1724.536987 -252.612167
1421.561401 1642.970337 -129.414093
1431.391235 1582.516235 -178.898590
1688.034424 1626.229858 -344.910431
1330.422852 1627.453247 -338.291931
1194.355713 1686.795288 -434.190613
1511.716064 1459.165405 -372.080139
1452.136963 1524.795898 -248.859787
1592.351440 1531.379272 -147.040710
1513.156860 1457.896484 -295.442657
1647.133789 1672.635132 -141.460693
1622.788696 1543.177246 -291.462311
1558.919312 1529.691528 -140.631897
1631.014771 1650.337646 -96.919060
1243.725342 1707.526489 -255.955017
1623.079956 1532.510864 -363.876648
1288.308838 1673.435303 -277.758667
1627.997070 1518.951660 -384.772858
1507.329712 1454.704224 -358.924774
1709.620361 1658.309204 -347.574127
1199.151855 1717.436401 -317.929169
1530.976929 1658.665405 -110.443451
1439.710693 1509.392334 -327.303558
1303.433350 1725.894409 -162.781097
1206.564331 1729.848877 -284.392242
1295.148804 1734.749268 -153.800934
1519.815063 1645.238770 -88.445969
1639.355347 1579.682739 -167.699173
1426.656860 1520.535278 -364.481232
1499.023682 1548.240112 -144.934601
1250.630493 1664.232300 -408.360748
1486.465332 1507.203491 -227.717117
1618.373413 1537.714966 -329.395264
1678.127930 1583.334595 -396.192688
1627.942017 1574.199707 -162.946930
1212.581665 1699.786621 -346.363586
1504.392822 1460.506104 -329.327209
1297.793091 1628.122314 -383.817352
1630.306152 1551.060791 -144.383499
1271.031372 1843.787964 -191.056244
1522.222046 1490.557617 -195.283585
1448.323730 1578.666504 -206.350204
1400.974731 1611.284302 -167.182510
1380.601685 1625.318359 -195.125092
1592.100830 1632.650146 -163.113571
1559.138062 1532.955811 -139.354355
1469.679932 1513.518921 -283.229706
1292.938232 1611.793701 -415.265106
1477.121582 1530.748169 -199.524460
1620.901367 1654.122681 -82.843971
1355.636108 1597.297485 -345.967682
1271.100464 1736.976074 -177.284668
1526.932251 1448.335449 -295.984070
1226.227539 1779.755615 -329.604401
1339.423218 1904.908081 -399.875427
1330.043579 1633.386841 -321.656372
1654.440063 1582.692749 -345.791321
1561.645752 1566.974365 -133.678101
1524.346802 1460.097778 -261.148193
1426.726440 1697.380859 -145.748672
1335.321411 1580.124268 -403.232910
1546.145630 1446.577759 -253.976593
1623.563232 1653.460205 -137.383148
1370.175903 1558.441162 -396.074890
1504.480347 1540.568848 -159.721451
1524.118530 1624.113892 -123.601089
1512.872314 1472.272827 -302.805969
1447.546021 1553.244141 -214.789764
1532.158203 1628.109375 -116.303284
1658.358887 1574.216675 -385.729492
1273.431030 1656.704102 -377.301514
1570.041016 1525.483521 -168.247131
1321.148071 1630.192261 -334.765564
1645.409058 1591.797974 -221.143478
1379.488037 1638.094360 -238.024857
1615.572632 1538.106079 -153.399017
1634.715942 1555.516968 -301.852020
1488.141357 1525.736816 -178.418488
1287.338257 1886.410767 -264.942352
1469.529541 1520.854004 -225.670959
1563.328491 1464.558472 -337.260162
1313.479126 1637.327148 -349.957153
1522.844360 1475.546753 -260.233856
1516.397095 1514.068237 -166.047180
1480.349854 1576.868286 -141.167938
1683.006226 1636.742554 -216.702652
1297.984985 1674.207153 -223.598251
1308.154297 1663.808960 -274.481598
1447.784546 1649.558228 -134.500656
1573.841309 1520.264282 -199.079025
1533.144043 1476.468506 -272.975525
1444.144897 1528.113403 -287.448944
1214.024292 1714.342285 -323.447418
1649.840942 1551.855957 -379.781006
1425.349121 1606.841675 -172.075562
1264.116577 1738.581421 -185.800644
1677.086060 1634.775635 -222.945297
1599.818359 1543.216797 -158.402847
1380.307861 1666.708984 -127.884872
1594.047485 1666.508911 -76.016434
1525.729370 1431.367920 -382.107025
1265.056763 1798.770508 -156.262329
1223.083740 1741.444458 -258.016541
1545.123413 1657.510498 -175.123474
1528.007813 1623.926392 -87.576607
1350.186035 1643.702759 -231.441711
1438.188354 1581.592407 -168.277649
1530.136108 1445.864014 -292.633484
1595.651978 1534.673950 -235.672638
1521.923096 1455.807007 -278.064453
1469.192017 1502.112671 -275.183685
1440.020264 1571.684814 -341.574005
1516.062012 1510.276489 -197.815887
1501.804810 1499.783081 -201.694183
1516.337891 1471.797485 -239.474899
1610.146973 1514.823608 -404.004150
1437.767456 1608.853882 -223.013443
1446.356079 1580.014771 -205.206558
1403.324829 1577.122681 -324.959747
1498.093140 1629.553223 -66.246544
1208.993408 1697.743042 -377.201141
1518.866455 1509.243896 -165.637772
1479.873901 1436.180298 -362.034332
1564.186890 1513.651367 -203.883011
1470.954102 1650.536621 -114.687096
1434.060181 1587.482544 -168.968643
1532.049316 1463.467041 -240.188278
1602.904541 1512.243774 -297.817261
1623.431519 1530.943359 -414.851746
1516.767456 1496.191528 -195.963684
1625.056763 1638.798340 -161.476669
1287.937622 1728.553345 -175.185822
1489.943115 1466.149780 -346.673340
1339.818237 1665.025757 -188.931671
1466.111938 1516.147583 -271.293274
1513.292114 1629.611572 -67.743828
1591.225464 1539.498291 -218.211777
1401.428955 1596.242065 -254.051437
1397.308594 1636.254150 -148.549988
1370.159058 1627.346558 -223.868713
1402.955322 1550.531860 -356.531555
1478.544678 1485.894409 -296.714905
1566.780151 1457.704834 -302.052765
1220.057739 1674.728516 -442.150024
1444.925781 1501.213013 -398.866882
1365.676514 1645.411499 -156.303925
1622.704712 1669.136353 -108.281990
1523.519531 1640.980713 -109.484184
1340.773560 1710.575073 -163.847488
1266.881714 1743.174561 -159.203064
1533.749878 1450.900879 -269.830231
1239.357788 1787.284058 -355.762451
1473.117310 1661.839844 -37.546104
1627.243042 1566.126953 -178.141495
1509.871338 1631.945801 -137.182785
1666.530396 1605.848389 -271.191101
1295.488892 1622.489868 -383.671478
1402.169556 1609.109497 -241.452545
1409.849854 1532.182495 -359.782593
1466.901123 1541.423828 -206.736237
1328.707764 1696.205200 -154.273941
1341.052490 1658.259155 -174.245270
1662.024658 1629.701416 -227.619003
1657.673340 1622.706299 -228.718979
1211.947510 1782.630127 -204.803879
1378.317993 1612.013306 -290.278229
1220.591797 1690.090576 -387.582123
1461.802490 1568.194580 -155.290436
1296.002686 1675.292358 -271.121979
1470.063354 1579.013794 -145.391556
1296.469604 1672.416260 -256.831024
1374.307007 1611.492920 -269.492157
1628.887695 1633.439087 -163.734268
1411.250000 1602.019165 -186.826416
1457.799072 1532.755249 -224.463760
1232.024170 1703.620850 -363.795441
1499.150635 1595.212524 -144.061066
1364.588135 1643.540894 -155.687286
1551.246460 1504.211914 -189.089935
1554.301147 1471.960938 -262.086761
1377.511719 1583.245117 -370.232819
1256.926392 1662.358032 -367.199554
1275.402710 1621.541504 -426.134491
1508.400757 1544.735962 -148.813156
1580.007813 1532.634399 -168.532135
1223.958496 1737.311768 -254.289017
1710.775391 1662.479004 -205.319031
1667.979858 1607.318970 -170.007065
1205.868164 1730.652954 -266.955261
1270.041504 1606.202393 -431.530243
1466.019653 1703.489136 -146.590347
1611.722412 1635.280396 -145.611740
1501.587402 1673.071411 -94.178963
1248.302979 1835.404175 -236.565201
1503.038330 1594.725342 -143.994843
1536.915283 1499.752075 -216.133743
1415.269409 1659.540649 -156.673264
1631.520874 1634.493896 -170.280487
1501.745850 1618.092163 -129.745255
1449.784790 1530.562012 -317.427338
1362.038330 1550.399780 -396.738983
1243.817871 1715.719116 -229.723663
1450.432739 1566.634033 -209.876205
1256.400513 1706.635742 -297.801025
1560.853027 1483.722290 -242.602432
1602.105103 1494.795776 -407.291168
1521.763916 1513.497925 -153.893585
1397.981445 1595.523926 -248.131287
1262.982788 1702.725098 -295.930237
1478.927734 1514.544312 -249.858093
1540.875488 1461.147827 -240.043701
1248.415405 1717.113647 -203.488068
1544.986572 1470.729370 -224.882538
1487.631226 1546.043091 -163.519958
1552.151733 1462.922729 -233.778748
1410.285645 1641.240356 -127.658463
1360.161133 1659.014282 -150.320313
1509.595825 1618.802124 -77.573174
1234.826660 1725.767700 -261.749146
1528.023560 1519.809692 -144.900284
1519.428589 1467.525757 -240.754608
1547.964600 1548.729004 -135.348587
1258.194092 1737.708130 -178.215454
1419.073730 1607.088257 -171.001175
1651.260010 1591.598755 -252.201691
1489.400513 1659.794556 -64.623260
1290.245483 1625.740112 -390.276855
1355.761353 1646.261353 -194.074875
1261.625366 1748.331909 -184.025391
1197.012085 1696.787842 -400.794922
1289.724609 1763.989258 -149.359711
1327.162720 1686.734619 -165.704208
1450.946777 1650.826416 -143.532974
1412.034912 1585.957520 -244.164749
1598.764648 1522.055176 -306.146271
1488.544312 1477.218872 -301.091919
1620.228516 1553.078247 -295.193939
1371.416138 1640.223511 -157.990768
1483.449219 1594.661743 -154.373566
1509.155640 1660.408569 -24.935114
1519.056885 1646.618286 -10.077078
1301.559937 1679.860229 -185.061646
1313.891357 1674.749023 -232.712372
1371.402344 1710.229614 -161.006683
1703.836182 1568.707764 -442.540283
1570.650513 1526.307861 -169.589005
1510.861450 1462.084961 -391.724060
1705.592407 1658.421875 -314.451355
1619.878906 1553.266602 -278.008331
1461.816162 1580.094604 -155.726013
1664.249268 1605.299194 -322.075714
1507.283081 1462.645508 -358.277191
1541.597778 1439.761841 -361.626526
1296.029053 1666.456177 -273.069946
1525.832275 1608.013672 -157.185547
1495.048706 1527.801147 -182.318130
1336.929932 1614.736694 -316.791962
1608.730469 1538.239258 -293.985992
1309.719238 1652.779541 -352.975159
1432.481812 1584.020752 -257.251465
1380.105103 1624.988037 -240.013214
1679.272095 1594.836182 -435.045013
1415.114990 1601.308228 -199.183762
1473.691284 1530.285767 -195.321686
1262.437988 1669.320679 -324.822357
1222.171387 1789.839844 -268.574829
1515.306274 1638.664185 -99.058731
1498.449219 1457.966797 -346.297699
1287.521240 1714.805420 -202.889755
1593.196655 1582.146484 -143.798965
1451.056274 1522.590576 -333.592712
1274.937866 1704.761597 -218.025452
1657.552002 1586.520508 -428.067902
1478.162354 1574.554199 -328.820892
1669.789063 1600.749634 -361.812225
1291.992920 1681.966064 -261.031982
1586.288940 1543.224976 -143.699432
1359.776245 1543.270386 -411.887970
1238.086670 1809.370605 -183.770691
1425.259033 1640.026123 -140.619385
1525.531250 1665.060547 -41.553341
1255.964478 1720.463867 -194.420410
1429.525024 1518.458862 -373.124176
1661.577393 1576.131836 -383.369904
1318.241577 1721.923462 -172.107742
1511.687622 1450.648315 -330.839600
1372.017212 1626.128052 -168.548157
1625.851074 1576.113770 -155.023193
1199.048218 1722.471680 -329.830658
1577.814697 1523.406616 -195.719879
1561.704956 1533.069946 -138.265350
1597.491821 1526.181030 -240.187988
1322.785522 1669.478271 -170.948593
1383.346313 1612.768555 -240.133804
1508.713379 1541.857910 -158.018433
1434.376465 1585.319580 -173.933136
1623.500122 1515.715820 -411.792694
1472.052612 1484.593262 -345.185852
1554.012207 1479.420532 -209.253967
1292.985718 1663.350098 -313.755493
1307.078125 1599.823608 -395.967804
1295.068481 1672.969971 -359.254456
1331.043701 1628.800537 -296.003479
1362.415039 1637.736816 -222.160736
1525.778198 1456.875854 -269.035614
1526.559204 1478.630371 -219.795044
1475.941284 1515.819946 -224.723846
1660.749390 1567.994507 -361.231506
1238.241211 1651.102173 -442.077179
1555.916626 1478.107788 -303.046661
1242.577393 1672.723999 -406.244965
1490.303345 1478.007568 -319.459381
1344.918335 1660.806763 -185.387680
1689.679077 1622.938477 -434.362152
1247.950439 1642.695313 -439.212341
1307.302979 1711.922974 -170.507751
1397.678345 1623.294678 -152.935516
1321.365967 1730.393066 -159.613770
1220.150269 1714.023926 -305.691589
1390.301636 1629.050171 -149.965561
1709.403320 1658.474121 -286.308289
1220.644043 1772.007813 -322.683716
1256.993408 1701.714844 -315.009796
1500.222412 1501.236938 -227.271606
1502.903442 1550.744629 -140.349457
1382.973267 1598.665283 -286.367737
1271.782471 1688.909058 -253.626694
1328.433228 1643.162476 -345.722656
1591.303589 1680.911987 -76.154091
1690.943604 1667.495117 -294.675842
1379.934814 1720.208008 -139.585785
1345.744019 1695.819092 -155.010651
1314.048096 1725.488037 -164.068527
1433.353882 1585.167358 -228.534073
1320.701782 1735.102173 -152.300461
1436.615845 1492.545166 -389.597565
1252.569092 1729.054810 -379.416992
1529.514282 1482.185547 -202.700150
1630.428711 1539.886353 -362.440155
1496.700073 1623.462036 -119.116684
1283.499390 1752.906494 -136.748596
1614.161743 1571.309082 -229.288452
1533.621582 1462.292480 -310.566956
1447.095825 1584.942017 -285.200317
1522.798584 1523.164795 -141.100113
1264.173462 1731.345337 -169.428162
1619.381958 1564.619507 -145.366486
1634.240356 1545.290894 -377.778534
1568.991943 1682.919312 -145.343079
1364.135254 1759.278442 -151.099350
1318.880859 1610.081543 -369.929077
1323.635254 1632.564087 -335.820038
1599.473755 1519.251099 -271.351654
1421.990356 1623.458496 -162.229996
1229.970215 1714.045898 -386.625488
1668.342407 1657.563965 -184.230301
1284.177490 1786.107056 -145.777863
1284.900879 1802.689331 -148.280502
1555.203003 1414.047485 -339.683929
1537.284424 1431.691162 -381.611847
1495.180176 1469.116455 -317.535492
1519.517944 1541.158081 -144.452911
1240.180542 1617.573242 -431.447052
1424.132202 1564.805786 -282.102478
1480.699829 1504.406006 -234.337860
1325.074585 1621.531616 -362.606384
1673.965210 1630.202881 -280.767090
1338.256348 1577.956543 -422.143646
1505.292847 1626.760376 -145.849289
1469.850098 1539.746826 -205.964096
1290.621582 1686.395386 -204.956955
1538.630005 1673.938354 -65.743690
1553.041138 1554.465698 -138.815689
1498.065918 1480.656494 -273.026062
1240.088623 1776.434692 -187.919922
1531.083618 1444.190063 -381.117157
1445.307007 1559.937134 -208.247101
1687.966064 1637.707764 -218.687714
1568.658081 1510.950195 -179.371948
1215.952026 1701.270020 -389.200287
1364.801758 1625.979492 -255.183273
1439.521118 1676.216675 -144.000259
1505.142700 1652.895996 -30.733027
1539.123413 1497.718750 -206.161972
1622.686401 1548.620972 -324.538727
1317.266724 1657.551880 -251.562805
1212.775513 1690.596558 -374.592468
1442.703369 1588.643799 -170.341446
1663.721436 1598.793213 -281.685272
1464.990479 1499.419800 -299.780090
1583.632324 1680.648682 -87.920601
1575.544189 1479.813965 -312.601929
1491.078003 1499.991943 -219.856262
1482.240723 1528.016968 -183.634521
1575.150269 1515.799072 -229.387192
1494.473755 1534.321899 -168.245667
1451.186646 1497.406982 -375.206360
1491.900513 1537.036865 -160.503448
1280.869507 1754.981812 -150.848816
1393.860840 1561.548462 -355.624176
1601.830688 1518.132935 -343.390503
1482.033691 1490.595703 -264.127960
1343.325317 1631.385864 -306.249298
1306.774170 1709.082642 -306.567963
1497.758911 1535.071777 -162.979004
1432.024292 1666.621582 -132.257324
1344.811401 1649.418823 -252.989868
1664.214355 1602.883301 -329.962494
1644.416626 1682.263916 -104.153610
1303.284058 1657.414673 -306.708374
1280.652832 1872.433594 -274.704803
1514.823975 1486.402710 -216.291199
1482.032104 1498.358887 -248.976151
1440.915039 1552.647705 -338.875793
1423.234619 1594.838745 -183.325943
1555.809448 1565.491089 -150.916580
1450.904785 1689.303589 -145.473160
1271.981689 1666.238403 -314.809174
1331.911865 1641.194824 -275.416809
1456.451538 1547.869873 -206.654846
1375.038818 1553.195801 -408.120697
1490.973755 1496.507813 -231.720581
1585.670898 1606.470215 -160.119171
1420.735962 1543.539917 -368.946960
1492.458618 1539.831177 -147.534485
1591.029785 1543.278931 -182.444855
1458.740234 1500.931030 -291.595917
1379.051392 1639.572998 -166.997574
1681.945801 1604.562744 -344.228607
1470.276611 1486.395386 -393.183044
1506.780518 1486.694214 -222.442078
1374.047729 1628.988647 -240.826187
1644.962646 1599.157349 -164.325134
1224.442627 1769.638306 -179.616608
1476.301514 1516.660400 -215.592697
1511.583740 1492.702637 -246.118652
1463.483276 1550.877319 -182.507568
1709.598755 1674.560669 -279.253906
1571.114258 1512.568359 -152.919861
1619.122681 1575.824585 -212.932587
1227.375732 1651.610229 -436.266937
1411.300049 1579.994263 -279.799408
1331.712646 1590.692871 -427.018127
1542.207275 1423.106201 -383.053772
1255.518066 1678.161011 -395.778900
1309.982056 1650.728882 -386.834961
1324.566284 1877.299805 -429.367523
1518.671875 1505.236694 -162.133896
1439.741455 1566.556274 -237.712250
1305.556030 1657.577515 -353.399323
1680.178101 1630.405518 -247.564301
1286.673706 1785.816162 -144.702530
1411.123047 1597.149048 -263.825928
1632.688232 1609.166260 -165.491165
1309.351196 1603.892212 -409.415741
1283.493652 1643.467651 -395.743713
1443.307739 1553.767090 -245.352188
1324.137817 1651.863525 -252.687698
1584.507813 1647.974854 -170.892105
1291.694702 1655.383911 -318.316467
1482.247070 1525.654663 -198.334961
1695.712891 1647.418823 -320.113251
1510.337280 1512.423462 -182.215607
1514.353149 1678.918457 -87.927849
1276.780640 1727.875732 -150.058228
1222.002197 1731.653442 -342.431519
1642.119995 1586.701050 -272.400696
1552.779297 1571.695923 -139.026733
1271.859009 1700.658813 -310.807465
1692.102783 1628.069214 -177.769531
1307.483887 1667.593750 -296.649628
1365.872192 1640.065918 -182.928726
1693.884155 1626.634888 -379.754669
1490.835571 1636.598145 -61.929966
1483.489014 1636.059692 -99.842079
1327.010498 1697.730103 -158.740723
1438.866943 1515.585205 -287.030212
1319.154785 1591.209961 -427.849945
1453.702515 1503.856445 -340.892456
1484.036133 1633.019531 -106.536591
1713.952881 1651.550659 -328.612732
1584.381958 1440.867310 -393.347137
1311.958740 1613.759644 -403.685516
1463.069702 1538.167969 -201.764847
1255.734009 1674.016724 -378.471527
1444.906128 1590.045776 -162.423233
1603.989746 1550.086670 -175.357864
1414.269775 1528.214355 -377.287018
1382.122681 1594.947144 -308.829712
1416.292358 1579.607300 -255.068466
1552.580688 1482.071289 -214.843124
1335.127075 1674.937866 -193.746140
1317.404907 1691.735474 -196.458282
1409.221436 1607.151611 -167.256058
1682.062134 1635.884033 -241.549515
1508.059570 1468.516479 -247.279068
1446.652100 1526.550781 -267.192963
1565.108643 1431.546265 -360.478912
1345.322266 1672.405151 -142.511627
1600.927734 1523.969482 -295.188507
1694.197388 1622.644531 -186.570908
1293.721802 1688.555786 -203.884720
1653.409302 1596.598267 -295.868073
1459.836060 1556.603760 -218.735550
1341.962891 1651.623047 -254.240372
1457.343018 1567.129639 -167.933578
1278.818848 1650.887085 -359.985229
1444.687134 1589.346680 -156.624176
1365.571289 1619.231079 -308.973755
1506.833984 1474.429932 -252.796585
1512.567505 1448.456055 -340.732056
1507.018066 1538.602295 -135.791580
1267.051270 1776.979492 -150.381317
1561.955688 1475.052124 -216.435730
1686.964722 1656.025879 -262.967957
1570.813477 1545.702515 -140.658279
1403.758423 1531.739502 -371.844391
1648.791504 1602.060791 -255.839645
1629.778198 1595.324829 -140.204193
1295.538574 1626.726074 -381.827698
1489.041138 1527.114624 -197.557251
1216.469971 1696.889893 -328.818542
1422.157715 1549.395874 -318.766113
1590.631592 1492.260864 -343.172516
1644.224121 1637.217163 -145.766739
1460.746582 1541.374390 -250.240936
1494.402588 1483.366211 -261.762604
1599.023926 1508.103516 -324.797241
1581.686890 1518.513550 -224.782104
1252.525513 1741.456665 -177.940475
1365.737671 1544.985474 -411.984375
1204.509033 1720.703369 -414.742462
1361.968506 1540.938721 -410.590698
1233.086548 1659.079224 -392.512787
1599.175171 1659.767334 -76.106071
1440.496582 1577.032715 -208.520920
1502.908691 1596.282471 -150.970520
1654.629395 1611.867798 -175.259995
1355.285278 1635.752319 -252.628265
1688.436646 1634.637573 -183.632080
1210.040405 1670.154175 -413.618073
1401.185791 1613.878296 -169.253601
1541.933716 1428.050659 -373.540924
1512.167358 1605.899902 -114.592285
1367.873657 1554.544800 -416.498444
1585.730713 1504.649048 -315.959137
1541.053955 1484.879272 -208.465179
1639.251221 1574.793457 -257.767242
1556.991821 1431.242432 -387.927979
1649.276855 1587.678467 -299.338562
1522.915039 1454.767944 -376.255676
1500.307983 1559.364502 -140.742310
1264.310791 1693.845947 -376.252502
1689.482666 1590.569946 -425.206787
1683.665649 1625.776367 -321.841370
1635.659546 1666.432617 -88.025711
1496.033813 1651.648682 -57.233467
1492.276733 1443.687256 -376.618652
1613.382568 1595.729004 -160.421112
1660.890747 1685.701538 -144.229996
1437.230225 1525.235474 -359.951538
1240.898682 1698.367188 -393.069031
1475.393921 1525.047974 -232.433029
1686.487793 1610.361572 -443.601868
1527.918213 1633.396973 -143.074646
1588.289917 1516.569214 -281.880951
1624.006348 1546.237671 -331.109436
1631.176758 1571.991577 -146.970627
1349.747070 1657.249756 -164.945465
1616.970093 1519.290771 -373.696564
1318.736084 1635.494385 -303.044586
1617.425659 1541.344482 -306.776672
1495.837036 1516.473999 -183.179474
1248.392334 1709.237183 -296.529419
1520.945313 1439.744629 -345.863861
1603.756348 1557.047119 -265.994934
1521.556763 1494.169556 -190.440826
1386.142090 1574.250122 -337.406952
1290.740234 1616.463257 -424.238861
1515.383179 1481.579102 -234.073730
1513.186523 1660.509155 -24.382841
1354.928955 1687.920288 -135.863251
1430.617676 1543.899536 -354.955322
1575.409180 1509.333496 -257.752258
1408.922241 1531.737793 -386.896362
1349.296875 1646.392700 -184.263412
1310.133545 1714.132080 -169.771774
1403.614136 1578.047852 -328.886749
1680.925293 1635.247559 -296.393585
1703.220947 1669.941772 -245.654419
1560.451782 1502.667969 -201.701721
1252.571411 1798.943848 -181.500854
1268.720703 1710.420776 -209.370071
1476.693237 1494.587036 -254.065857
1318.369263 1595.701294 -424.808075
1386.752319 1646.645020 -143.868790
1577.638550 1519.978027 -144.616928
1241.121216 1724.989868 -378.514587
1527.235474 1437.097168 -366.445740
1284.173706 1789.273560 -135.325348
1397.389404 1618.111328 -223.123581
1508.402588 1454.643188 -305.865356
1359.268677 1567.766113 -398.412567
1572.151611 1449.788330 -352.525146
1525.504395 1629.358032 -146.079758
1325.751831 1677.191284 -191.226120
1670.516968 1583.363281 -436.099548
1705.025024 1666.724121 -185.281830
1254.998047 1728.302002 -229.328430
1566.397827 1522.157837 -142.532089
1516.185059 1501.958252 -178.590485
1709.552246 1645.858521 -326.506470
1559.903564 1453.546265 -384.424713
1519.442871 1644.666748 -80.939064
1378.114746 1544.894409 -408.752258
1641.873169 1548.641724 -341.155487
1656.706421 1526.768311 -425.921112
1333.797119 1622.125366 -330.572845
1464.140747 1626.875000 -164.436249
1568.956177 1467.711792 -401.163818
1457.506470 1480.682495 -390.291962
1503.635132 1458.000977 -321.178925
1385.821533 1627.268066 -158.234207
1503.932129 1627.606567 -84.691689
1516.074585 1448.384644 -369.837952
1629.889648 1529.619873 -368.175781
1506.039063 1637.206421 -55.974037
1633.163940 1525.488647 -411.692169
1224.682129 1734.554932 -332.561829
1533.485840 1514.393433 -158.151169
1418.510498 1522.688721 -385.454163
1502.336792 1671.286377 -89.257820
1445.198975 1665.438965 -143.534363
1282.991455 1696.713135 -196.167023
1506.142090 1621.310303 -78.771133
1347.466919 1665.193115 -146.296509
1513.559082 1460.834595 -312.602814
1672.447388 1584.658325 -367.569000
1575.165771 1516.951660 -225.589737
1276.950195 1742.377441 -168.531677
1490.374512 1608.694702 -146.882477
1635.866333 1654.900024 -170.052048
1275.040771 1680.063721 -271.798767
1308.907593 1704.391846 -185.874313
1562.796753 1458.942871 -333.833405
1591.656128 1549.352417 -152.064880
1314.327515 1713.414063 -169.196793
1500.320679 1630.167969 -100.081726
1532.139038 1638.474609 -137.835876
1291.736328 1892.931396 -237.503342
1512.895020 1495.480347 -193.892609
1548.772461 1450.504639 -368.800293
1397.104736 1621.466675 -179.064835
1448.687500 1516.949829 -354.299500
1587.911987 1457.127441 -394.718536
1555.224487 1508.054199 -136.463409
1499.423462 1509.944336 -209.808777
1584.100220 1533.787354 -141.545517
1400.432129 1611.498779 -210.525604
1548.451172 1445.974609 -301.463806
1276.252319 1652.151367 -372.569916
1493.142822 1634.203735 -67.274155
1551.524414 1501.295410 -144.858658
1536.181641 1672.341309 -56.937675
1475.958252 1520.880249 -223.711960
1346.131836 1660.691162 -152.141739
1502.584351 1475.085938 -272.675385
1490.283081 1605.895264 -140.285934
1320.088623 1609.264282 -372.968292
1628.385986 1580.086304 -235.269699
1691.938721 1700.048828 -200.259430
1399.675903 1599.259644 -294.858795
1554.608154 1628.132324 -135.163132
1597.163940 1467.405518 -399.030762
1667.166748 1578.453857 -416.518768
1492.415283 1468.267822 -315.143463
1352.799805 1615.690918 -336.047607
1525.775513 1650.397705 -77.037285
1596.391357 1520.073608 -299.149261
1366.664429 1599.367798 -329.998047
1391.907104 1622.042236 -167.783936
1516.033447 1565.331665 -135.508347
1463.228882 1579.193237 -325.268890
1520.867554 1554.485474 -143.943298
1450.614258 1560.587524 -176.533676
1266.282837 1638.137939 -422.251862
1593.159302 1525.399414 -280.446960
1417.735596 1610.803467 -168.828568
1377.423828 1765.246704 -163.979019
1385.580322 1623.935913 -184.197723
1546.198120 1490.208130 -200.387360
1444.870728 1580.948120 -159.814911
1591.916748 1502.183350 -342.848083
1232.246338 1653.941162 -407.659851
1367.902344 1589.290771 -373.759155
1451.953613 1510.030762 -409.474335
1279.266479 1875.009399 -261.495148
1276.902954 1799.250977 -149.523270
1601.304688 1510.981079 -326.601868
1508.124023 1607.872559 -111.315331
1236.256226 1701.993042 -387.894714
1615.159058 1548.429077 -338.063019
1257.906860 1713.908936 -195.604660
1483.459839 1493.480103 -311.670013
1596.907104 1542.880249 -154.968369
1501.379761 1488.406128 -235.206238
1641.715820 1659.920410 -167.633728
1545.739624 1479.907959 -230.444534
1648.387939 1610.622070 -227.787659
1273.674561 1767.689819 -151.494827
1489.340210 1626.472290 -127.317657
1231.152832 1726.588989 -210.480759
1492.114746 1629.472778 -109.595261
1464.415161 1491.217407 -341.862518
1396.421265 1611.951538 -235.078979
1416.512451 1643.560791 -138.655594
1527.122681 1455.588501 -293.236755
1342.508057 1573.014526 -399.534271
1458.614624 1471.251587 -387.805878
1447.853271 1590.726563 -206.636795
1502.419434 1456.965820 -344.052917
1346.380859 1688.727539 -147.630081
1536.301758 1441.026123 -329.208588
1385.492432 1611.229004 -242.482681
1402.661621 1603.652466 -220.276184
1398.867676 1596.077271 -273.729279
1322.147339 1686.291870 -174.593460
1526.181274 1489.897461 -223.895859
1704.327026 1669.898315 -287.671326
1628.238770 1551.055298 -152.388535
1405.173584 1567.639282 -357.818268
1248.310547 1760.864136 -162.712418
1601.779907 1542.217285 -210.010193
1529.707642 1496.472168 -221.189133
1602.458130 1461.355591 -401.029144
1393.147339 1629.486328 -188.241592
1657.429443 1607.893311 -283.405243
1451.112061 1521.848633 -313.874359
1711.870605 1650.648193 -205.789169
1619.864014 1660.361938 -120.979813
1644.811279 1553.194092 -389.312561
1234.132813 1781.510376 -161.196777
1320.395142 1613.766846 -363.115570
1653.384277 1671.756348 -183.969437
1524.342285 1463.843750 -251.870316
1664.643066 1575.849976 -411.290405
1509.542480 1455.555054 -332.985626
1643.123779 1596.392456 -245.325195
1382.760376 1634.492188 -156.625641
1538.958862 1463.834717 -269.729980
1469.338867 1543.522217 -163.357437
1586.069824 1514.233643 -280.766479
1417.393311 1618.124023 -146.446701
1635.219604 1588.054565 -238.745010
1331.462402 1649.624878 -252.560822
1660.673950 1586.249878 -305.783203
1518.514160 1646.953247 -23.601776
1701.765137 1664.620117 -294.367828
1516.229248 1644.093750 -76.711670
1541.786743 1666.572388 -85.482681
1251.656494 1710.044189 -234.948868
1222.708740 1771.155518 -201.220444
1552.506104 1491.986450 -219.411118
1351.419678 1663.318970 -183.248138
1268.186646 1722.238403 -177.820984
1406.791138 1633.203857 -141.376297
1335.947266 1582.922119 -405.588684
1541.098999 1503.384766 -146.646454
1418.471436 1630.868896 -145.712067
1584.564941 1539.103027 -239.998947
1271.814575 1720.163452 -188.570831
1631.829102 1557.834106 -321.301208
1309.688965 1647.957153 -301.252930
1360.494507 1665.471436 -130.548599
1508.473389 1653.270020 -34.092220
1387.701416 1635.602783 -160.942261
1628.342651 1518.024170 -390.249969
1511.696411 1495.777344 -209.773376
1644.321045 1570.445068 -338.502716
1335.772217 1660.416504 -245.197784
1475.223389 1463.907959 -384.581482
1350.304199 1754.979004 -145.183899
1699.443359 1663.202148 -277.019379
1634.188354 1655.851685 -135.455612
1264.922852 1690.810669 -391.340485
1290.164917 1665.074585 -385.511017
1250.419922 1656.719604 -367.944214
1412.505371 1598.748779 -200.902481
1605.475342 1602.502197 -160.663803
1559.470825 1517.568359 -191.757416
1702.511841 1668.524658 -281.053101
1488.691406 1513.757935 -249.878067
1334.502563 1692.728027 -174.000992
1405.601440 1616.623047 -185.525681
1376.444458 1551.332031 -399.281342
1472.657227 1477.911255 -302.960205
1276.371460 1634.126343 -392.344635
1279.798462 1724.627319 -184.275757
1488.536011 1642.514282 -59.357849
1422.254883 1595.546631 -208.701324
1630.588745 1650.516113 -161.006516
1604.463013 1545.450317 -157.739700
1478.218140 1518.474365 -212.235611
1604.971680 1528.585693 -290.250824
1474.665405 1508.643066 -237.495270
1480.911133 1558.675171 -136.472656
1446.008057 1505.249268 -368.223602
1484.358276 1540.099609 -153.901001
1214.621216 1766.303711 -206.688736
1312.843750 1682.446533 -266.916656
1236.979492 1692.650146 -372.773468
1649.456299 1586.165527 -182.928299
1467.580200 1613.354858 -147.670303
1242.634521 1647.645142 -407.797455
1560.185547 1489.451050 -242.255096
1352.963013 1654.862915 -164.581680
1420.242676 1620.426514 -143.398773
1248.084839 1836.382080 -232.626587
1393.898193 1543.977661 -364.543488
1639.570313 1561.814453 -343.089813
1554.078735 1459.975098 -331.699493
1408.835205 1527.397827 -369.308716
1664.616699 1609.509644 -147.383942
1502.551880 1598.055664 -142.827011
1421.185547 1502.437622 -401.838867
1647.352661 1673.831787 -120.638222
1589.125366 1502.798950 -327.399536
1571.052368 1430.489746 -373.007935
1328.920776 1638.825684 -300.562958
1308.727173 1731.250977 -166.158066
1452.138550 1625.888062 -151.052155
1630.916138 1625.621582 -163.992645
1614.530884 1508.790161 -377.005310
1526.121338 1489.873901 -189.830612
1429.314697 1592.152100 -161.455475
1672.146973 1595.543579 -381.904999
1385.837769 1545.193848 -402.079346
1628.904419 1560.863037 -323.540985
1527.016724 1454.784180 -312.496796
1269.738281 1768.784424 -145.873489
1640.472534 1567.091431 -356.147827
1425.091919 1529.645996 -367.036407
1457.762573 1580.673584 -144.597168
1329.017212 1665.089844 -207.088730
1654.072144 1599.047852 -282.358276
1469.462036 1469.034790 -386.210175
1559.621582 1430.457153 -366.881073
1321.782227 1634.971313 -298.403564
1276.843750 1698.200684 -213.346466
1302.141846 1613.780518 -389.594696
1574.893921 1459.488281 -327.518250
1320.187012 1704.812622 -169.009521
1388.173584 1601.685181 -252.584900
1398.370850 1612.560059 -214.174591
1374.772461 1637.370728 -187.555542
1292.479980 1895.838745 -229.679367
1691.178467 1662.758545 -180.691635
1291.183594 1687.575317 -242.130508
1665.633911 1730.474854 -196.709686
1346.384888 1662.268433 -161.796417
1501.343994 1494.781738 -224.137177
1407.698486 1578.738525 -323.534698
1553.949097 1503.298828 -207.861450
1544.853516 1517.712158 -136.455566
1426.256836 1630.593140 -145.914078
1655.907349 1691.421631 -159.764450
1523.491699 1482.364502 -210.676880
1525.201538 1514.676758 -146.718201
1529.601929 1665.392944 -55.982502
1498.914063 1473.340576 -322.835846
1267.824951 1792.627319 -145.681854
1569.144409 1526.820068 -182.643326
1374.286011 1590.054077 -307.246155
1419.979248 1733.310669 -161.130539
1539.983276 1498.069336 -171.452347
1713.997437 1667.182861 -355.413818
1389.920044 1605.318237 -246.733124
1298.687500 1685.922852 -212.402512
1695.948730 1641.547852 -340.154541
1612.994385 1516.790771 -380.881470
1402.313843 1609.038696 -174.785995
1599.794800 1538.815308 -255.122955
1641.629272 1520.533569 -424.414581
1593.294922 1493.799194 -349.334534
1631.545288 1553.812256 -345.489166
1502.455688 1637.867188 -111.118340
1556.018799 1556.141357 -139.386063
1411.693359 1657.077759 -153.360016
1501.807007 1666.084839 -132.751831
1628.051514 1656.753174 -138.304535
1621.684692 1611.384888 -142.214890
1398.020264 1567.174927 -345.107422
1648.715332 1583.738037 -324.692230
1528.229370 1510.005859 -161.165131
1269.884033 1636.197144 -385.207733
1514.445190 1592.883667 -148.643188
1409.846802 1610.743408 -156.828339
1213.813965 1687.742920 -387.111053
1343.585083 1646.045776 -212.369034
1485.538452 1551.669312 -156.654404
1583.657593 1526.170532 -212.155167
1321.800537 1628.645386 -313.638580
1521.374390 1445.428833 -391.129547
1527.124146 1648.487427 -23.091896
1573.293701 1478.476563 -307.090088
1527.814209 1488.694702 -188.541840
1704.074463 1666.543701 -310.738739
1630.577637 1534.378174 -415.045837
1466.061279 1609.521973 -247.552765
1505.613281 1616.975586 -129.547806
1290.911743 1876.892700 -309.588806
1331.166016 1629.168579 -318.278656
1447.219116 1522.126465 -280.895020
1693.891479 1613.417603 -427.236450
1564.445068 1674.153931 -102.256676
1310.639282 1649.241577 -344.876282
1398.387451 1597.658203 -256.376892
1476.799805 1485.786987 -379.408142
1287.148193 1732.558594 -151.060516
1462.817993 1635.362793 -140.377502
1389.972046 1543.096069 -383.080719
1436.000977 1500.357422 -339.958160
1682.381592 1604.030640 -394.487732
1377.283691 1614.293457 -248.591141
1537.156128 1498.208496 -219.422653
1342.960327 1763.428711 -165.450912
1505.864136 1608.567017 -152.247177
1292.176147 1732.722046 -164.932892
1269.966309 1748.779175 -143.624451
1451.748657 1534.573486 -212.135788
1220.848999 1660.180176 -429.539856
1545.976685 1432.698120 -341.124390
1438.354980 1584.241333 -180.090958
1632.267700 1594.227051 -212.644928
1261.846313 1758.439331 -180.947327
1409.571655 1618.163086 -148.142853
1612.855591 1588.448975 -149.673218
1492.120728 1566.765869 -138.689331
1571.049683 1489.651855 -259.410889
1435.884888 1513.495361 -379.215729
1496.168823 1544.212646 -154.006821
1482.812988 1501.272095 -252.317780
1327.854614 1757.618530 -158.324738
1344.042969 1660.813477 -169.434052
1349.887207 1640.636353 -238.562332
1486.133423 1625.314697 -116.751434
1309.725830 1646.790039 -301.121033
1562.174805 1495.082520 -205.164719
1586.781860 1446.539429 -393.875275
1512.005737 1456.012695 -385.538330
1570.039063 1493.745972 -325.200836
1334.596069 1586.818970 -394.212341
1356.350708 1619.205322 -281.906921
1465.584473 1568.203003 -160.882568
1316.109009 1673.461914 -201.045776
1641.177856 1602.520386 -211.858490
1527.942627 1490.097412 -207.190994
1501.126709 1530.476318 -184.347595
1295.309082 1748.565430 -144.068832
1347.219238 1704.046753 -138.921326
1486.992920 1476.112427 -297.308838
1497.068604 1617.770752 -129.814285
1603.829834 1566.059448 -202.267410
1486.324463 1579.474609 -151.419952
1603.140991 1584.677979 -156.908585
1732.296875 1632.707397 -468.999725
1420.840454 1625.796143 -146.366058
1214.560181 1731.327637 -286.029938
1563.024780 1514.869873 -175.074753
1681.410889 1633.264893 -178.055939
1538.572388 1471.006836 -218.923019
1525.037109 1474.468506 -225.327728
1459.969482 1594.349487 -154.208984
1604.560791 1665.425903 -73.370461
1714.795898 1656.374756 -379.720520
1202.326904 1733.451172 -266.141876
1444.658569 1556.075073 -292.436401
1414.895630 1608.323975 -213.844589
1206.939453 1706.083862 -358.575470
1283.248535 1753.838135 -148.265625
1315.557373 1713.919800 -175.543777
1544.018921 1492.032227 -194.858292
1604.504639 1666.037842 -94.162201
1485.360962 1478.476074 -372.608673
1381.741333 1523.179077 -404.824554
1247.488525 1743.761841 -181.771759
1501.978882 1514.384155 -168.319611
1657.699707 1588.851440 -368.445984
1571.215942 1527.292603 -173.157806
1449.871948 1562.649414 -192.480011
1420.265503 1565.096558 -328.998779
1642.369019 1594.867188 -238.501617
1616.748413 1553.658081 -283.097992
1533.647827 1426.074341 -379.219513
1677.131958 1624.380859 -185.941452
1475.533081 1564.206665 -141.362076
1622.130493 1629.985718 -166.272827
1561.507324 1691.352905 -177.305496
1520.529297 1517.527588 -175.329849
1631.280273 1536.561157 -395.962708
1627.435547 1561.367554 -251.748810
1604.053467 1545.432129 -144.148560
1573.436157 1471.038574 -332.174225
1467.713501 1507.325806 -233.457581
1257.542847 1777.060669 -164.893234
1558.444336 1461.409912 -267.100281
1267.172241 1754.434937 -170.003647
1569.486328 1505.097900 -225.481369
1578.777222 1490.586548 -363.655334
1690.445801 1608.892334 -184.767273
1647.279907 1598.289185 -166.940155
1275.281738 1721.067383 -170.762115
1658.897339 1586.866089 -344.926727
1385.463989 1627.668701 -200.715546
1411.486694 1555.076782 -346.178314
1584.976807 1551.394409 -141.997955
1563.186890 1530.347656 -133.167603
1492.301758 1650.810547 -51.696331
1681.946899 1627.097656 -183.178986
1473.192261 1476.325439 -356.370636
1463.342163 1575.871216 -148.225082
1490.817749 1478.844849 -399.051727
1520.528076 1498.454224 -183.958893
1485.445679 1543.386841 -151.325073
1461.441284 1584.119507 -147.701996
1599.428711 1553.297485 -183.371552
1539.528931 1416.053955 -364.289368
1546.360474 1536.648193 -129.881760
1628.668091 1544.489258 -377.067200
1409.035278 1490.532715 -377.396973
1660.408203 1593.871704 -136.436981
1317.482422 1627.077881 -333.739319
1265.574463 1751.340942 -180.383194
1528.931519 1655.814331 -32.176052
1410.245239 1523.022827 -382.976471
1560.629639 1658.679810 -157.551636
1583.354736 1537.833740 -202.593460
1222.958984 1739.798706 -209.797516
1641.970825 1586.718628 -158.513809
1405.753784 1583.308838 -289.787781
1453.666626 1550.995728 -288.537323
1447.193481 1576.046265 -183.822723
1536.830566 1667.543213 -82.339561
1529.845581 1656.561523 -28.530151
1577.341187 1606.667725 -159.057388
1375.911865 1649.002808 -147.814056
1331.812134 1681.607910 -161.911484
1657.893921 1640.058716 -171.791153
1307.876099 1724.081543 -164.106750
1658.729248 1608.156006 -174.018143
1538.390747 1473.114868 -213.945892
1357.022827 1650.793213 -155.968719
1490.965942 1528.548096 -191.509735
1294.531128 1732.696533 -156.761765
1703.127197 1673.972290 -241.386490
1340.928345 1590.533936 -372.446136
1549.464233 1488.809570 -241.449036
1656.432617 1683.249390 -133.970566
1457.870361 1498.326172 -398.666840
1507.647949 1598.598145 -127.243439
1615.519531 1569.652710 -228.125717
1622.494995 1585.570068 -162.689484
1553.267334 1453.816895 -337.953430
1262.778931 1648.844116 -388.901489
1322.119385 1534.327026 -389.495697
1318.315063 1686.135986 -223.088364
1277.409790 1716.938354 -168.743683
1397.073730 1693.443604 -150.305344
1485.836182 1620.042480 -126.597420
1647.761230 1576.290283 -343.654358
1521.071777 1624.941895 -135.648285
1324.809448 1730.767090 -154.331177
1526.771484 1456.905640 -268.292572
1430.175659 1557.971802 -330.284424
1283.894653 1686.495605 -235.847946
1336.356934 1597.495239 -387.740784
1432.028687 1721.351074 -129.531479
1397.216919 1748.747192 -165.333664
1238.575806 1658.074951 -396.938019
1401.791748 1586.318237 -327.173828
1702.759644 1657.844116 -191.649918
1554.857056 1514.288452 -165.253967
1415.801636 1562.074097 -337.035187
1525.935547 1496.541992 -164.986099
1521.715576 1648.650513 -61.477200
1335.830200 1684.641602 -158.936539
1640.032349 1671.060303 -90.075729
1394.149658 1624.828613 -176.557388
1343.973999 1581.832397 -384.823334
1613.834473 1578.691650 -159.296570
1526.548950 1589.268677 -152.089188
1546.950317 1671.065430 -171.977737
1536.390015 1529.443237 -141.544708
1537.966187 1430.979126 -370.750275
1425.197266 1605.858521 -162.745987
1554.284912 1437.247070 -370.086090
1519.220459 1498.456909 -175.333847
1278.071289 1732.259033 -314.225037
1617.353149 1667.418579 -79.765099
1516.985107 1687.466431 -125.059128
1592.160889 1622.354492 -155.648727
1316.952393 1572.621460 -420.735809
1220.321289 1787.453735 -271.636261
1414.171875 1560.785156 -322.835419
1649.538452 1614.372192 -253.247818
1382.693848 1628.115601 -202.212952
1274.748047 1711.408447 -187.771454
1618.723267 1601.177979 -160.373245
1600.025757 1541.293579 -251.838562
1582.000488 1521.086792 -150.725113
1433.363037 1611.668091 -147.398254
1262.861572 1756.231934 -146.126785
1524.518555 1461.856201 -282.513153
1669.427734 1607.657715 -409.361145
1730.983765 1647.035034 -420.060486
1259.911377 1729.182251 -171.566040
1301.945923 1595.535522 -427.722565
1496.895508 1464.856812 -320.711395
1651.983154 1604.363159 -262.291290
1504.897095 1473.424316 -274.135895
1343.872437 1648.015747 -189.600311
1608.126465 1528.489990 -303.864136
1561.332642 1562.118042 -143.048599
1344.199585 1629.062378 -304.060028
1389.462036 1589.265991 -307.154236
1371.820435 1632.009399 -174.905472
