ply
format ascii 1.0
element vertex 1330
property float x
property float y
property float z
end_header
1775.450806 1302.560791 -280.456482
1762.569458 1309.837891 -269.289551
1601.882202 1408.646973 -449.436707
1605.518921 1303.160034 -599.918884
1875.421021 1042.776001 -362.234375
1989.295166 1216.990479 -338.327057
1828.977051 1289.769531 -253.372025
1912.535156 1154.197021 -319.942169
1742.533447 1219.946777 -276.298859
1767.415649 1145.274414 -290.776825
1712.154907 1297.170654 -306.853760
1696.160889 1243.432739 -399.374420
1904.714722 1197.683960 -295.207611
1633.656616 1355.199707 -415.061127
1851.053955 1160.494141 -272.262024
1742.125977 1089.663452 -479.215790
1656.533447 1272.235474 -441.275879
1769.236206 1229.911499 -211.197678
1981.385986 1348.607544 -285.853699
1846.969360 1278.550415 -228.871994
1787.456909 1071.666260 -424.332001
1867.061768 1311.038696 -258.516113
1599.975464 1415.893311 -444.524506
1827.445801 1055.894775 -299.610626
1625.547485 1379.548096 -416.231689
2034.000854 1122.602051 -414.984833
1596.989014 1405.796265 -451.972321
1711.356079 1256.707764 -345.275330
1682.724365 1199.981689 -475.375580
1756.503662 1124.227905 -443.365662
1610.083252 1268.784058 -570.661316
1754.075195 1296.653931 -277.428955
1683.110962 1275.705811 -331.365997
1691.330688 1406.721313 -408.898926
1600.270142 1374.492310 -448.363770
1650.992920 1260.758789 -487.165771
1745.030151 1157.970215 -449.050812
1763.037720 1223.932861 -227.522598
1652.468872 1190.881958 -608.527527
1861.507202 1013.511414 -322.049133
1834.582397 1202.684082 -243.642075
1664.869141 1148.104492 -579.249268
1698.266724 1286.047363 -320.199585
1856.201660 1072.659302 -318.758911
1987.579346 1315.431641 -253.218109
1692.812622 1225.514160 -433.477081
1771.720947 1176.162720 -238.414993
1839.540283 1337.957520 -263.741852
1720.978271 1204.190186 -360.932007
1774.612671 1222.586914 -215.036285
1926.960083 1301.911865 -236.535553
1773.054077 1166.992432 -281.333618
1736.711914 1362.141113 -242.193695
1588.713257 1331.786865 -497.528351
1737.901733 1163.647705 -454.628967
1870.152100 1101.900391 -317.300293
1694.676147 1181.352661 -498.686279
1658.709595 1323.567139 -364.244202
1739.227539 1200.867920 -300.577972
1935.891968 1286.323364 -239.720306
1769.819092 1168.871216 -272.159241
1778.648926 1129.629395 -284.643433
1877.519897 1181.677124 -278.411682
1824.965454 1168.375854 -253.875397
1683.641602 1193.121704 -491.508392
1714.681519 1408.286133 -219.324158
1752.505859 1203.542725 -256.646454
1680.418823 1163.386597 -541.044983
1690.342896 1237.157104 -449.231628
1576.467285 1402.851440 -483.029755
1753.604492 1304.761963 -284.066376
1759.621826 1213.608276 -240.638748
1799.129639 1077.849487 -321.246429
1748.988525 1370.261719 -217.697281
2070.958984 1192.584839 -405.765625
1639.746704 1223.260864 -567.280884
1682.362061 1268.257568 -378.076691
1695.508667 1135.878906 -507.641113
1782.579712 1204.226196 -215.404831
1884.646240 1363.066772 -234.644424
1948.542603 1102.257813 -366.656464
1788.656250 1105.805908 -288.248932
1979.161377 1223.324341 -328.252472
1820.553589 1059.090820 -301.671509
1755.526978 1364.515625 -236.198151
1853.021240 1345.655640 -268.921051
1585.344482 1333.464600 -514.491882
1775.687012 1097.639771 -346.736023
1667.522583 1362.373657 -387.612457
1731.515991 1093.513062 -498.187408
1755.824463 1390.318604 -363.343994
1888.173828 1217.282104 -272.253662
1585.263184 1321.413330 -567.592224
1746.611206 1329.675659 -310.609253
1656.130249 1310.555298 -371.560638
1731.107544 1233.927979 -367.959564
1892.336304 1098.482910 -317.794739
1741.402466 1367.018066 -239.358124
1725.382568 1073.623047 -470.351898
1645.946167 1307.143677 -420.732208
1857.271729 1198.191895 -264.414917
1722.463623 1331.571533 -338.739655
1798.077148 1216.904541 -384.035889
1621.215454 1326.226563 -409.825653
1733.139893 1213.614502 -290.432281
1747.884521 1227.439941 -244.153381
1733.572144 1232.066650 -284.250763
1921.382568 1106.349243 -337.200562
1844.512451 1056.220947 -325.293121
1665.748291 1409.667725 -612.629333
1800.724854 1209.836670 -205.103821
1571.943970 1362.871338 -474.952698
1627.354004 1338.646606 -390.677612
1731.421997 1407.188110 -212.739563
1709.837036 1139.191040 -555.564941
1626.378662 1354.778809 -408.106445
1890.721069 1234.775391 -279.513733
1828.814087 1204.581299 -246.704361
1904.051880 1274.526855 -216.219116
1660.269775 1173.605835 -566.539063
1649.411499 1257.583618 -497.415710
1732.961792 1284.808228 -298.787750
1938.505737 1278.016235 -262.413696
1692.846802 1157.418457 -520.968506
1620.621948 1330.458618 -427.400970
1758.681519 1084.471680 -440.595703
1797.188110 1077.563965 -353.139679
1779.102539 1079.030762 -424.258667
1999.244507 1138.073975 -383.301147
1719.907715 1247.100464 -277.158325
1563.142578 1327.590332 -534.331116
1984.511108 1310.457886 -253.255402
1594.740479 1392.981567 -450.682526
1627.074707 1283.732422 -487.996033
1853.257935 1192.501221 -263.956512
1729.285278 1336.388916 -293.650299
1811.332520 1051.282349 -373.248535
1928.965210 1216.543945 -298.588745
1879.566162 1149.441895 -300.878693
1613.415527 1410.908936 -435.397552
1719.426636 1240.683350 -275.762726
2026.493652 1146.022827 -378.879791
1818.975464 1216.351685 -232.494125
1863.530884 1244.902832 -185.236710
1756.913330 1241.247070 -222.762543
1643.942993 1303.973877 -439.305267
1735.468262 1357.983398 -243.445908
1716.414185 1233.703003 -307.250122
1649.169800 1310.222046 -366.978485
1678.502441 1284.440308 -434.764557
1871.287964 1347.572754 -252.860886
1673.559082 1407.242188 -406.236359
1806.177246 1226.628418 -212.905655
1859.415039 1137.312378 -290.618866
1758.990967 1283.031738 -283.556580
1738.700806 1118.072510 -457.486481
1590.924805 1329.093994 -514.457092
1683.779419 1422.901245 -439.958191
1749.867798 1148.356812 -370.969208
1716.828247 1198.206299 -419.035767
1754.304199 1162.446533 -317.668274
1732.543457 1102.110718 -490.854492
1624.643555 1396.816040 -439.247101
1777.473755 1101.884033 -378.488678
1617.760498 1318.747314 -448.132721
1782.696655 1176.841553 -235.331009
1606.887085 1445.192139 -498.314941
1584.610474 1419.145508 -528.100891
1623.513550 1345.890869 -399.409546
1650.171753 1422.985840 -444.937103
1802.010254 1108.636963 -281.821960
1762.350708 1163.840210 -318.896912
1685.535400 1197.066650 -509.334839
1904.797119 1375.839966 -238.193909
1856.743530 1325.655884 -272.139404
1734.781494 1231.449097 -280.508698
1927.233521 1218.367554 -311.824341
1778.812134 1201.244873 -212.247208
1918.090454 1088.155151 -349.542908
1585.207520 1355.029907 -476.501038
1765.579834 1078.894897 -452.191650
1932.289795 1170.182861 -321.122314
1705.637939 1253.256836 -380.729767
1830.988770 1078.577637 -293.041229
1776.804932 1299.112671 -281.360199
1742.115356 1186.256348 -291.666687
1910.755005 1264.957275 -255.577545
1838.977783 1059.162964 -298.971558
1807.334229 1260.900757 -229.652161
1799.022095 1293.686768 -263.606018
1636.229370 1346.794800 -424.612823
1742.650269 1220.856689 -276.220612
1777.160645 1309.707764 -269.394257
1719.846924 1248.227539 -296.050140
1778.200928 1253.234009 -238.772461
1884.555420 1088.875488 -332.995392
1893.815308 1267.585693 -208.003891
1789.377319 1086.911011 -351.997375
1989.485107 1310.281494 -262.130341
1732.930298 1220.617065 -320.548615
1896.202148 1025.162354 -338.394714
1732.355591 1168.984253 -429.037445
1849.567749 1305.336182 -265.383179
1755.816528 1101.392456 -421.523285
1942.599731 1053.346191 -359.187927
1848.944702 1260.541748 -209.344543
1974.927734 1273.930542 -306.615936
1852.062744 1337.183716 -251.243683
1768.194702 1153.129639 -273.362244
1653.410767 1200.209351 -568.298340
1683.157471 1299.218872 -336.039673
1767.068237 1144.843506 -324.229034
1846.643188 1084.210449 -292.060028
1721.312500 1114.842041 -487.542053
1736.517212 1200.199219 -288.400391
1843.469482 1393.318481 -411.549042
1747.095093 1184.125244 -425.471741
1842.237183 1079.271729 -312.125641
1873.046387 1220.317383 -265.175354
1792.612061 1284.004150 -252.830856
1803.902222 1087.328979 -294.675323
1706.429321 1236.948120 -404.245605
1820.111206 1273.538574 -237.294571
1752.872803 1256.883667 -237.058472
1841.965576 1239.463989 -201.978546
1988.442627 1133.202148 -375.516998
1707.590820 1150.189209 -499.209717
1734.307617 1074.344604 -443.455963
1788.009155 1210.257446 -216.279160
1736.671143 1373.495728 -241.015823
1609.303955 1205.103027 -640.672729
1671.647217 1299.978394 -339.495575
1976.650635 1243.880981 -317.929993
1910.982300 1093.441040 -350.125397
1556.917480 1365.097290 -518.405945
1758.469238 1184.701782 -249.272598
1698.736816 1224.918457 -415.515778
1622.880737 1324.792358 -422.500488
1980.354614 1169.450317 -344.467926
1726.245239 1160.283691 -427.438202
1724.810547 1401.907227 -230.533691
1584.978149 1343.958496 -482.412384
1623.225952 1315.793701 -501.215942
1887.820190 1211.140747 -272.056061
1856.784668 1243.905273 -200.327133
1638.854614 1313.729858 -385.461426
1633.473145 1341.606567 -382.364044
1731.127686 1352.287598 -277.003448
1686.032471 1277.555786 -384.438354
1724.879150 1338.360352 -282.226624
1772.212891 1181.050537 -232.475311
1838.500122 1350.088989 -248.662277
1692.045776 1287.466187 -344.773193
1844.672363 1159.205322 -266.942444
1741.676147 1138.727661 -434.499908
1616.961548 1341.787598 -432.547729
1669.747803 1289.984619 -365.382477
1611.401733 1246.505249 -602.123535
1771.064941 1084.123291 -428.627258
1568.801514 1410.337158 -487.163483
1583.055176 1343.058228 -491.086578
1574.122681 1330.971924 -509.451263
1998.757568 1203.633789 -350.045837
1688.165527 1342.761719 -659.989075
2010.335938 1268.138428 -329.591370
1955.579834 1174.679077 -342.971130
1721.709839 1276.149902 -295.832336
1701.941284 1157.073608 -514.559998
1890.992065 1187.554565 -289.533569
2016.888550 1265.873779 -333.179413
1725.154297 1393.530029 -223.861099
1720.004761 1203.484253 -404.517029
1792.936890 1190.627808 -239.271820
1584.614624 1388.723999 -445.508331
1732.996460 1311.771851 -317.156769
1714.514282 1142.462891 -493.292664
1772.586914 1134.651489 -292.416138
1742.410645 1202.846680 -330.459564
1818.158569 1248.836548 -213.906006
1865.014771 1364.042603 -234.965958
1797.178955 1190.276733 -234.833557
1632.361938 1236.824219 -557.016846
1737.067871 1291.539917 -299.328552
1628.192261 1431.065796 -580.899658
1602.440674 1450.279053 -494.149658
1740.928833 1197.407837 -338.792450
2079.205811 1145.040894 -419.613922
1655.815063 1274.036987 -455.817078
1725.480347 1224.347046 -365.285034
1817.396973 1226.707764 -220.411972
1753.014771 1112.501709 -442.382568
1696.132935 1293.327393 -312.750702
1724.121826 1120.591553 -468.770416
1795.142822 1084.288818 -334.559814
1687.201050 1200.917358 -491.264526
1713.213623 1139.883789 -511.382935
1783.137573 1325.717041 -275.298737
1698.513062 1106.319092 -540.714355
1849.175537 1287.692261 -245.200333
1637.822998 1318.724487 -461.694122
1584.590820 1364.656860 -478.969025
1871.881348 1375.301392 -227.312988
1653.015869 1166.422729 -586.400452
1757.038696 1374.005127 -209.226639
1795.886353 1275.481689 -254.848740
1607.740479 1437.093994 -461.439484
1994.666870 1148.530151 -375.000854
1821.943726 1162.809570 -249.814819
1738.586792 1283.129639 -287.996490
1611.296997 1283.211670 -552.724976
1660.386108 1308.430542 -348.500732
1844.463501 1217.189331 -242.725464
1748.854004 1180.030273 -308.838898
1778.055664 1047.343262 -406.972992
1573.820068 1416.982178 -529.943359
1903.550537 1201.201172 -278.926117
1953.957397 1331.840088 -273.355164
1757.878296 1148.835083 -333.092651
1730.658203 1307.487061 -296.483978
1650.158081 1243.663086 -547.726685
1789.740234 1174.885864 -220.235046
1782.248413 1074.795288 -388.988525
1980.448120 1089.080200 -396.980774
1784.215332 1038.077637 -382.820190
1876.162109 1167.693359 -278.685547
2101.772461 1144.049194 -421.894379
1559.259033 1381.865234 -545.622070
1769.778442 1195.284424 -228.421783
1862.855225 1043.189087 -331.857056
1599.657959 1273.633667 -577.548950
1943.726196 1354.852661 -289.037140
1591.300293 1249.362671 -615.010437
1707.524780 1210.222290 -450.480713
1799.831177 1213.662720 -220.563690
1790.580078 1203.299927 -214.204849
1757.983276 1200.508789 -246.043381
1765.992554 1144.209229 -285.506073
1771.550781 1345.756348 -251.223892
1749.584106 1181.469727 -367.226501
1978.469971 1148.562988 -361.293823
1738.286621 1311.656494 -285.555664
1608.308960 1296.733154 -569.362976
1834.454834 1367.422729 -248.192200
1785.037109 1075.550415 -407.936676
1851.677734 1036.478394 -365.756653
1855.640991 1065.738403 -323.882141
1673.530273 1254.437988 -446.539276
1632.911865 1430.194458 -449.749390
1746.870361 1181.054565 -308.123230
1806.555664 1235.888550 -219.646835
1777.279175 1374.208740 -244.537430
1621.672485 1251.886230 -568.838379
1783.558228 1067.614136 -430.419647
1768.346924 1233.988647 -235.067490
1923.459839 1118.973999 -339.907928
1764.691406 1098.542358 -416.654114
1648.912476 1295.429321 -404.208496
1754.900757 1298.071411 -255.908081
1868.961792 1083.283325 -317.657318
1918.773682 1283.600708 -221.498398
1895.073242 1340.339722 -252.356796
1686.084839 1254.929932 -393.527771
1753.029053 1238.591553 -223.349655
1721.746948 1360.740479 -355.328766
1696.200073 1133.638062 -557.177307
1982.283569 1216.800659 -333.178955
1845.451050 1057.271118 -336.508026
1754.288086 1395.447144 -252.109833
1610.331665 1343.673218 -463.108185
1743.043091 1144.954224 -463.390747
1788.107666 1245.729980 -196.779724
1792.538208 1138.255981 -266.846069
1701.482666 1410.637939 -213.757553
1877.122192 1115.202393 -299.450775
1830.341675 1023.779053 -361.408173
1571.821655 1376.261108 -496.586578
1883.401367 1292.844116 -239.847305
1736.039185 1213.316895 -306.503571
1901.855469 1265.136108 -225.521835
2040.057007 1161.133423 -397.975220
1698.910767 1184.473511 -485.783325
1634.496948 1192.798706 -592.682068
1606.015869 1213.739258 -608.485962
1724.631714 1232.447998 -320.111237
1733.358643 1162.632568 -435.601624
1602.806641 1393.866455 -468.351898
1611.657593 1405.202393 -446.038513
1826.646851 1324.527222 -302.487701
1620.397949 1353.041748 -436.085083
1849.022583 1180.878662 -267.405518
1753.671143 1284.768066 -271.633087
1824.223389 1026.326782 -363.987305
1733.881226 1113.430908 -516.008545
1855.649536 1269.192261 -202.091751
1955.289917 1278.779907 -297.646881
1578.531860 1443.084473 -498.940186
1812.890503 1277.359497 -222.959473
1630.168091 1391.005127 -432.538330
1793.272217 1281.924316 -265.172913
1833.200928 1358.067383 -288.851776
1621.770630 1331.757202 -420.490509
1697.893921 1249.252808 -396.625854
1898.205933 1157.789185 -303.847504
1664.866211 1240.653198 -483.883362
1714.476685 1126.650757 -485.895386
1782.344727 1185.337402 -251.193207
1847.196411 1131.274414 -281.369446
1699.910400 1094.143066 -521.628418
1914.092285 1128.873535 -332.013092
1705.772949 1139.679321 -483.922302
1589.873169 1413.946533 -492.414063
1658.756470 1166.346069 -612.447815
1851.535767 1205.621338 -257.870209
1644.381348 1388.717163 -425.787201
1761.300171 1067.911255 -448.100281
1726.819092 1321.532715 -324.959198
1892.984741 1238.948364 -266.871979
1824.894531 1199.905029 -253.661758
1758.675049 1381.868042 -232.037735
1804.447998 1263.431152 -239.088287
1779.369019 1395.089355 -240.507751
1742.275024 1166.479858 -349.067841
1764.574341 1201.864624 -263.479309
1714.329956 1141.798340 -501.641418
2044.172119 1184.532593 -392.584473
1738.422119 1396.266724 -216.074478
1884.983643 1134.056030 -311.231873
1592.426392 1358.221313 -467.917786
1768.902466 1086.697144 -360.641754
1765.854858 1309.163330 -266.913696
1841.954712 1153.214478 -267.849762
1783.277466 1211.958740 -231.364670
1724.466675 1251.567505 -282.045624
1678.672119 1282.840454 -343.027161
1768.508911 1135.776733 -433.444641
1922.301880 1291.760376 -236.201279
1560.299683 1336.064209 -548.937744
1852.047729 1292.705078 -245.470703
1607.166260 1327.571655 -439.849335
2010.659180 1164.004517 -365.063232
1609.869263 1256.983765 -577.264404
1809.784912 1173.968994 -244.627853
1777.111938 1070.346313 -442.626740
1629.200439 1373.147827 -431.669189
1719.902832 1240.993286 -311.745636
1661.865479 1384.458862 -386.633820
1957.614014 1152.961182 -347.160614
1675.966675 1212.760620 -475.790100
1625.148315 1293.034912 -502.957153
1663.836792 1298.106201 -367.415985
1772.311523 1324.025635 -274.491516
1705.205078 1196.187988 -439.066284
1703.530151 1154.817993 -499.805145
1709.148560 1159.405640 -487.478424
1881.897949 1246.905518 -246.259521
1718.391235 1407.843384 -221.886215
1715.152100 1252.709839 -319.792480
1907.684448 1333.388550 -260.923462
1720.117188 1287.734009 -302.422821
1596.937622 1334.425903 -506.238586
1834.674805 1371.604004 -206.150467
1989.673218 1277.849121 -301.967499
1805.187378 1091.393066 -336.288391
1647.118286 1324.465576 -379.076660
2025.404785 1113.014160 -395.411896
1880.682251 1302.899048 -237.267227
1988.620483 1235.048584 -329.721191
2002.621216 1180.003418 -363.211060
1663.619995 1321.573853 -356.856079
1736.042603 1218.890503 -347.136841
2049.526367 1169.703369 -400.819031
1892.873169 1369.106079 -230.700226
2026.826294 1226.073120 -362.355713
1773.529053 1082.517334 -433.847076
1686.966675 1287.726563 -335.526611
1568.153564 1366.090332 -499.454559
1781.150024 1117.942017 -307.531158
1831.266479 1227.155518 -231.141922
1785.597900 1230.092285 -201.330963
1674.173340 1255.184814 -432.248932
1876.857544 1321.406738 -261.887207
1658.391968 1220.684204 -573.220642
1758.163086 1165.510132 -308.862457
1771.887085 1244.327393 -226.762924
1733.929199 1162.643677 -454.675415
1612.279297 1210.726318 -627.383057
1787.054810 1090.944824 -328.223785
1678.725586 1139.552002 -567.216003
1694.512939 1133.431396 -525.038635
1727.099854 1239.730103 -301.862946
2012.654053 1295.691772 -298.891296
1692.625000 1294.968384 -318.919769
1643.694336 1274.484863 -467.586670
1631.327759 1154.890381 -626.942261
2022.680664 1210.009766 -369.291199
1889.416260 1358.970947 -227.292664
1698.412109 1387.274048 -393.669525
1736.842041 1328.515747 -330.331268
1759.211182 1125.199219 -431.970978
1640.120361 1313.011963 -390.145081
1670.916992 1252.537720 -449.166016
1733.484131 1104.727173 -478.608887
1693.945557 1226.742920 -427.277283
1781.502808 1117.799927 -334.400146
1855.322876 1097.604370 -301.527679
1806.936890 1089.429810 -322.330780
1786.010132 1299.029419 -285.401398
1991.984497 1240.572388 -318.135559
1745.436157 1262.725098 -244.545746
1820.718262 1101.028442 -291.685150
1836.706909 1278.134644 -238.349319
1714.901978 1238.900635 -387.180817
1772.713745 1174.819336 -244.156631
1857.102173 1374.048218 -220.788986
1793.042480 1148.001831 -242.540771
1626.426147 1363.627563 -423.730408
1737.340332 1169.956421 -320.868988
1715.181519 1094.176880 -511.133057
2022.633911 1109.038208 -395.845184
1929.663330 1094.455322 -348.914001
1794.096069 1135.512451 -251.117126
1781.113281 1101.700439 -335.308411
1673.647827 1176.761108 -542.693359
1626.191772 1364.827393 -441.024536
1967.698853 1079.406250 -362.933411
2042.493652 1198.089600 -387.861755
1769.427246 1134.677612 -389.543427
1727.798950 1135.678833 -464.614807
1730.058350 1310.655762 -293.842560
1837.504639 1239.147583 -208.988464
1593.885132 1429.109985 -479.702209
1601.582031 1316.255371 -473.707458
1905.203003 1345.704346 -254.427429
1738.560547 1210.884888 -292.023163
1932.179321 1076.913208 -367.015076
1851.263794 1040.123779 -344.092346
1707.593994 1251.389160 -375.221375
1885.063965 1183.224121 -277.331055
1722.800049 1413.973877 -207.409241
1758.875854 1155.556274 -323.260071
1643.757813 1333.406372 -374.805878
1882.329346 1307.672729 -251.735428
1826.155273 1142.041016 -251.927094
1839.021362 1186.651489 -255.851395
1750.466431 1229.615723 -248.830566
1758.346069 1139.266724 -320.223602
1739.787964 1266.367432 -273.818146
1637.692871 1307.612793 -387.508972
1890.071167 1306.283325 -226.856705
1979.243652 1268.679565 -295.853241
1732.849731 1341.436157 -317.075348
1746.940674 1166.437378 -353.185669
1625.163208 1337.302979 -396.849457
1634.075317 1260.418457 -560.761963
1764.466797 1260.031250 -243.394592
1679.457886 1233.425537 -444.071991
1750.561890 1249.872925 -239.746918
1857.921753 1350.657349 -234.731125
1612.153687 1317.520874 -442.297394
1744.761841 1298.562256 -273.685150
1593.980713 1374.304688 -440.014099
1644.598022 1328.299561 -377.520386
1924.163818 1298.095337 -241.702621
1612.382202 1307.743774 -468.517334
1756.255371 1162.428833 -364.092529
1808.542969 1073.027344 -339.028442
1748.805420 1089.852905 -482.171753
1593.159668 1365.121948 -464.370270
1755.483032 1198.447632 -277.892273
1928.302612 1181.733154 -320.928101
1992.099121 1211.217407 -331.721161
1698.832886 1151.133789 -506.827881
1599.487305 1345.717041 -496.608337
1706.770020 1108.135620 -532.712585
1590.142944 1311.372070 -527.714478
1660.660278 1398.084717 -435.663635
1864.756714 1115.123413 -301.040955
1654.122192 1241.808228 -589.693481
1869.373413 1234.915771 -249.361221
1573.200195 1435.082397 -493.547302
1636.038940 1345.682251 -385.990875
2036.365967 1117.857544 -398.159241
1834.047974 1137.358276 -270.129639
1814.078979 1092.836914 -313.420959
1691.021973 1130.430298 -558.281677
1737.839233 1192.545166 -380.420898
1574.466431 1302.059448 -549.092773
1840.288208 1144.879028 -275.330505
1809.364014 1227.668701 -212.569580
1856.339966 1359.296997 -219.879166
1724.204346 1244.282227 -325.425018
2032.832886 1234.652100 -347.317108
1678.560791 1429.432617 -443.506226
1826.189941 1284.880859 -247.162033
1770.002808 1370.528564 -242.824524
1949.262817 1211.134033 -315.327515
1791.671021 1137.192627 -286.603638
1856.029907 1221.713135 -253.891663
1729.507690 1095.134399 -501.265198
1855.726929 1200.050415 -258.675690
1810.227783 1091.877686 -283.975220
1697.516357 1219.827759 -469.351288
1846.004150 1371.937256 -250.904282
1982.421997 1081.105225 -377.990082
1609.447388 1287.247314 -534.360291
1698.110718 1230.145630 -408.567810
1727.672852 1399.970825 -374.369537
1910.133545 1164.202637 -312.930908
1703.542236 1211.050415 -428.133820
1661.875732 1215.153198 -503.882782
1633.566650 1318.522705 -400.039703
1882.393677 1275.130249 -219.900757
1786.664795 1192.120483 -241.228943
1659.131592 1277.963745 -449.007324
1674.359253 1246.301392 -473.603485
1741.952759 1154.087891 -435.963715
1801.683594 1275.914429 -229.618744
1593.802490 1400.443237 -485.847687
1709.824097 1358.072266 -322.150085
1721.364014 1245.764282 -344.972504
1739.721436 1234.198364 -272.075562
1932.533081 1070.562988 -374.233063
1623.681763 1408.788696 -423.676727
1913.624023 1358.218872 -250.923813
1965.536377 1307.201050 -235.754059
1726.475586 1230.108521 -309.229523
1866.548462 1338.218994 -263.953827
1727.657715 1201.031616 -334.696686
1620.131592 1453.685425 -465.188934
1808.526245 1121.936768 -292.313049
1743.063843 1328.474243 -255.918777
1897.168457 1329.774170 -255.644684
1800.973755 1053.079224 -403.229797
2000.075562 1101.818970 -388.643463
1843.844116 1161.098511 -273.052704
1691.531250 1282.267334 -363.077148
1596.494873 1421.319092 -488.154724
1599.647583 1435.453735 -457.169769
1805.191650 1072.036621 -346.875397
1908.894409 1189.930054 -299.868500
1822.056152 1327.130005 -268.102631
1763.214966 1125.148438 -337.931854
1867.463745 1059.708496 -333.814514
1782.911011 1134.137451 -269.298401
1791.132080 1046.797974 -401.454620
1679.985474 1252.607422 -425.623077
1713.399658 1193.405762 -436.496765
1568.948730 1356.539795 -526.226074
2003.571167 1261.215820 -333.604675
1661.301025 1388.557495 -423.285645
1931.416382 1258.505371 -271.672241
1603.481934 1465.590332 -524.533997
1582.388306 1294.930908 -557.765564
1948.496094 1162.450439 -350.744781
2006.631836 1125.458862 -393.787842
1996.796021 1190.251953 -358.725098
1826.080322 1037.656860 -334.307159
1830.772217 1208.852661 -245.527039
1805.882690 1058.255371 -416.467499
1819.075073 1041.963379 -358.095337
1743.337646 1325.883179 -289.072113
2048.098633 1226.177368 -374.333130
1941.440796 1073.052490 -363.404602
1589.591187 1396.913452 -452.495239
1676.442505 1140.011597 -564.984863
1665.778198 1200.185303 -521.589111
1672.918091 1285.116821 -387.144135
1659.624756 1332.427734 -361.656677
1622.149292 1446.812134 -565.085327
1591.539917 1338.005005 -497.289093
1727.634888 1097.648071 -506.911102
1691.316895 1172.000366 -566.285217
1707.478394 1403.589966 -249.072723
1692.835571 1307.305054 -341.957977
1733.878052 1371.697021 -352.242004
1737.817017 1215.324707 -307.424866
1870.200317 1216.140625 -262.855774
1805.382813 1081.677246 -291.996582
1830.162842 1029.146118 -363.141083
1848.781738 1033.520386 -357.431610
1769.092041 1078.496338 -446.543304
1786.368530 1141.575806 -272.491425
1755.934814 1240.773438 -232.801331
1658.162720 1392.808716 -399.890137
1602.107422 1296.416626 -535.143250
1634.876221 1320.426880 -426.778473
1857.653320 1250.567627 -210.027985
1778.385498 1174.720947 -280.039246
1987.979126 1161.164063 -352.930206
1726.065796 1373.347290 -236.469162
1727.370728 1143.899414 -487.359070
1911.871826 1181.894287 -294.609314
1799.108765 1290.890015 -260.936127
1677.968628 1289.308228 -342.196777
2023.745239 1265.166504 -339.997955
1833.876953 1373.460205 -267.666077
1596.453857 1304.005615 -532.985718
1968.688354 1228.698364 -322.202454
1767.270020 1119.934204 -336.922791
1585.421997 1355.021484 -477.625885
1744.955444 1340.976318 -269.003479
1654.186646 1314.131104 -352.057251
1726.695190 1359.187988 -242.187714
1849.140137 1367.978394 -242.184814
1758.611938 1367.220947 -222.818314
1836.267700 1384.321167 -251.800827
1735.827515 1224.139160 -299.446014
1856.325928 1180.474243 -272.088989
1631.335693 1348.507446 -388.326538
1783.591553 1337.777588 -272.213013
2001.209229 1199.716187 -334.543457
1752.998047 1235.326172 -240.193390
1731.173828 1112.506592 -466.785431
1732.307495 1350.488647 -254.069168
1618.965210 1395.728760 -442.369995
1908.545410 1144.847534 -320.908234
1857.824097 1282.629883 -224.111191
1771.748901 1329.490112 -235.394073
1712.570923 1155.153076 -485.525757
1967.447998 1075.015259 -381.106659
1751.744629 1297.091797 -277.035736
2038.571411 1225.618652 -366.420929
1763.481934 1166.626709 -407.590729
1772.279663 1150.184204 -271.595673
1746.951050 1397.308838 -200.658752
1767.625732 1233.572266 -235.207550
1810.816772 1105.172363 -283.468323
1813.766846 1064.850464 -338.264038
1645.297607 1311.718750 -378.701294
1839.058716 1217.697021 -248.316589
1732.307007 1171.299194 -432.891907
1870.174927 1038.235229 -343.411316
1767.985962 1175.892456 -248.121399
1724.229492 1253.696411 -288.064209
1697.164307 1242.154297 -406.542877
1953.602661 1233.064453 -310.045532
1605.472046 1391.273682 -438.999512
1807.924927 1318.806519 -293.500610
1795.478149 1068.242920 -362.779572
1625.706177 1350.535278 -424.915314
1752.912964 1191.423462 -270.149689
1761.212402 1153.761963 -297.726532
1999.879761 1313.585571 -251.748444
1781.299194 1188.354858 -249.060944
1613.433716 1383.919678 -434.371704
1721.218750 1346.548706 -257.021088
1747.592285 1343.352905 -252.256058
1869.547729 1316.563232 -270.191040
1610.945801 1344.971558 -471.099701
1785.666992 1153.459717 -242.436600
1645.471924 1390.548828 -420.314453
1829.109131 1055.932251 -291.047333
1839.864624 1324.204102 -291.268188
1860.894653 1036.427612 -363.845398
1754.151367 1180.651733 -362.136078
1702.276245 1161.373535 -506.417175
1679.716309 1144.824219 -570.655518
1942.226929 1249.929321 -293.298889
1713.964478 1260.790039 -289.202026
1954.736938 1273.432861 -288.691833
1681.212402 1360.677612 -646.947998
1947.506592 1144.768311 -344.451813
1832.924805 1220.565918 -230.966583
1745.433960 1085.768799 -472.754211
1663.990601 1239.562500 -505.241547
1747.522827 1189.400513 -263.288879
1722.134644 1248.148438 -292.412689
1755.402344 1209.479614 -256.767395
1644.526489 1320.625366 -383.966217
1668.508301 1209.735474 -518.412170
1846.851440 1408.102661 -421.600952
1621.715698 1358.232910 -431.829956
1701.307495 1233.371338 -422.488739
1856.061035 1042.527222 -343.482147
1803.757568 1338.843018 -295.153320
1758.940063 1205.085938 -251.334290
1726.742188 1216.979126 -311.080658
2079.243164 1145.268433 -422.450958
1764.866333 1304.344604 -296.845642
1861.913086 1207.678345 -265.136749
1894.610962 1193.362183 -292.680664
1772.815796 1137.440063 -287.559998
1999.000000 1116.395630 -399.293091
1807.715454 1322.207520 -294.635315
1999.212891 1244.933350 -334.445251
1700.321899 1125.971436 -545.337036
1594.067383 1356.297363 -467.918976
1702.778931 1380.832520 -359.746613
1724.500244 1118.686646 -470.769501
2055.398682 1135.493774 -418.221619
1839.932007 1375.149902 -202.971786
1564.759277 1355.832764 -551.293701
1657.351074 1325.612549 -343.112549
1735.642456 1158.893677 -439.884186
1766.242554 1146.645142 -322.462006
1896.446167 1197.834839 -301.053375
1913.297607 1208.452026 -292.135223
1667.286133 1261.045410 -468.511383
1696.637939 1276.716919 -326.438202
1843.943726 1042.984985 -323.297485
1916.858276 1089.519897 -352.828339
1727.333862 1131.108643 -481.354706
1758.072021 1214.463257 -243.417603
1792.406616 1132.201904 -255.117981
1766.214600 1115.945313 -399.538574
1742.060303 1289.399658 -292.039520
1811.151489 1227.505981 -197.186432
1810.575439 1079.674561 -308.021057
1687.735962 1149.448120 -517.734253
1904.613770 1068.220703 -351.546021
1862.018066 1112.566528 -306.799011
1918.982300 1124.592773 -333.044586
1794.597412 1038.961304 -386.511932
1770.724854 1172.881226 -375.119568
1758.058105 1240.668823 -229.128784
1807.601563 1117.232544 -260.247620
1597.581299 1439.268677 -537.819214
1616.750488 1222.233765 -587.911621
1925.383179 1102.250732 -346.936676
1772.684570 1102.269653 -364.041229
1802.349365 1077.169800 -318.830170
1718.067993 1375.838867 -256.813446
1906.138306 1219.008179 -280.939911
1658.311768 1160.186279 -573.277649
1874.003296 1275.856812 -200.497238
1627.677490 1460.698730 -563.363464
1682.085449 1152.558838 -516.931519
1856.005615 1032.763062 -353.765808
1648.259888 1141.181030 -598.602173
1788.314941 1209.319824 -211.913895
1836.723877 1377.464355 -225.092789
1816.900391 1266.934937 -218.669113
1816.453247 1161.299072 -259.915924
1775.904663 1195.846313 -254.451477
1915.286133 1172.370728 -310.721832
1622.013306 1317.249023 -452.841522
1661.141235 1321.786255 -348.991852
1675.579102 1404.908936 -410.564331
1748.449951 1166.544067 -323.445099
1635.489990 1175.722900 -606.647949
1786.481445 1225.565796 -199.292435
1639.061401 1300.330566 -494.445374
1780.692871 1094.028931 -350.870605
1764.980103 1186.329712 -285.060242
1994.453979 1308.200317 -288.554199
1913.375000 1223.018555 -274.886841
1796.962158 1170.779297 -249.386581
1745.456421 1221.842407 -332.467834
1926.532227 1107.461304 -350.156067
1666.899170 1211.388062 -521.956238
1824.427490 1247.198975 -190.741089
1699.427368 1178.700562 -473.000092
1682.608276 1279.192993 -395.348969
1731.140015 1222.237549 -295.111847
1610.808105 1468.118652 -534.690674
1778.643433 1101.840942 -361.823578
1898.635254 1167.762939 -301.659637
1658.674561 1301.908081 -367.146027
1634.225342 1165.536377 -625.108337
1628.565918 1367.271606 -411.219604
1732.161011 1368.639038 -214.732803
1636.595825 1311.180664 -385.151794
2013.264160 1148.061157 -389.232239
1739.929321 1102.845093 -465.933960
1916.901489 1181.437988 -306.352753
1863.897095 1315.248779 -268.070221
1786.611206 1151.957275 -234.970993
1572.923096 1403.749268 -479.033478
1839.186279 1236.048828 -211.278915
1628.499023 1275.491211 -520.588074
1620.352295 1391.203735 -437.052368
1745.781860 1310.720337 -275.031555
1847.880249 1080.621460 -312.384949
1568.006226 1349.141602 -539.960571
1771.026978 1106.806274 -382.128052
1712.398560 1148.211914 -461.249115
1858.327393 1327.930176 -249.387665
1755.391724 1203.143677 -268.880157
1680.373291 1141.261230 -572.792358
1959.119995 1089.488281 -378.766968
1946.823242 1122.028320 -345.186066
1718.643677 1112.627563 -507.234283
1775.230957 1187.619873 -226.275330
1865.968384 1320.922485 -256.821320
1722.058838 1199.147827 -401.991852
1863.025024 1349.696899 -254.539307
1895.425659 1271.968506 -196.617767
1597.710449 1410.169434 -463.783142
1633.625854 1353.108765 -389.562469
1898.035400 1148.818848 -310.123322
1766.061157 1116.844849 -432.860321
1581.005371 1393.168945 -493.676361
1747.888184 1221.028198 -241.614807
1668.327881 1145.954102 -568.147766
1620.146118 1161.274414 -642.750244
1827.520142 1395.217896 -205.076782
1625.630005 1310.162231 -453.629181
1591.162598 1357.991577 -469.861694
1640.702881 1258.460693 -504.717377
1935.502930 1186.172729 -317.348694
1745.175537 1390.840820 -215.471252
1702.726196 1215.714478 -455.012817
1680.553833 1102.663086 -510.783691
1966.413940 1198.628540 -334.658783
1584.189697 1337.551636 -475.074341
1603.918823 1445.116089 -519.046265
1743.732544 1219.993530 -247.381226
1741.968384 1379.098511 -227.526917
1740.069946 1184.183960 -306.597656
1846.382935 1366.022217 -227.076065
1756.406616 1178.386719 -367.970428
1679.727539 1241.858887 -450.275269
1573.882202 1350.609131 -519.670166
1757.707764 1146.771362 -315.919037
1745.282227 1356.964966 -234.720612
1720.058105 1385.313843 -237.401108
1762.155151 1108.224731 -363.197296
1615.626343 1206.687866 -628.605896
1831.887207 1017.956360 -352.499298
1841.007202 1338.542236 -264.336975
1702.604004 1225.222656 -411.500488
1762.548706 1189.424072 -237.849792
1890.586792 1092.033936 -337.351532
1901.324463 1278.700439 -228.921387
1658.383789 1329.604126 -349.942200
1762.324097 1158.079102 -307.994263
1591.154541 1418.706787 -556.525696
1760.587646 1179.065430 -271.365570
1968.811401 1203.609375 -329.941620
1751.004639 1170.994751 -393.212036
1828.600098 1274.890625 -229.845123
1859.460571 1113.950073 -303.732361
1859.828003 1056.048706 -314.272034
1744.591187 1273.819092 -269.872101
1828.915771 1249.703735 -203.471313
1770.157593 1372.590698 -239.670029
1554.090210 1380.307739 -521.316956
1688.451904 1333.114746 -331.498413
1765.302246 1195.578857 -256.717621
1889.762939 1138.843140 -305.846191
1856.558960 1176.871704 -268.208557
1773.508789 1222.983887 -211.641769
1647.959351 1373.466553 -399.702240
1784.824219 1108.516724 -316.271637
1946.766357 1240.126221 -298.518158
1857.040527 1302.626221 -260.489929
1944.519409 1217.068726 -298.610352
1642.933716 1265.925659 -523.721985
1684.085449 1306.882568 -318.633545
1853.402710 1367.565552 -229.542648
1928.835205 1086.159302 -352.739258
1739.724854 1231.209961 -275.630249
1987.740112 1266.074951 -314.498596
1883.993042 1253.728638 -223.432922
1603.161621 1298.158569 -530.292969
1652.544678 1161.989136 -584.034973
1587.960449 1370.018555 -462.468719
1800.668335 1200.932739 -228.210938
1814.449097 1075.023193 -297.943939
1592.309204 1394.603027 -459.106110
1687.095825 1168.746582 -518.300171
1817.318726 1233.655884 -206.257538
1684.271118 1181.824463 -521.470947
1754.698730 1135.491455 -344.093719
1736.273438 1225.495117 -406.247681
1795.024902 1091.895508 -306.128357
1930.387817 1143.907715 -336.115936
1637.161865 1268.961060 -509.270172
1676.117310 1199.155151 -527.550232
1875.065674 1035.931030 -346.307098
1727.458862 1226.747070 -298.927979
1721.296509 1192.550415 -311.829376
1808.686035 1328.081299 -296.866638
1687.234741 1156.218872 -504.367493
1825.069458 1149.045654 -263.613190
1846.315430 1209.052612 -254.221649
1585.108032 1335.030029 -523.321167
1953.676392 1251.804199 -298.603058
1792.965454 1041.511963 -405.101410
1639.563110 1341.172974 -419.325165
2006.292725 1132.678101 -392.094482
1698.011719 1192.551392 -495.000793
1569.756104 1389.638428 -491.320343
1795.642700 1154.215088 -253.760406
1662.965332 1153.095337 -593.817566
1774.863892 1126.578613 -336.659607
1880.225952 1351.925049 -245.670135
1782.027954 1131.928467 -265.913483
1562.551636 1343.006836 -527.888245
1748.208618 1382.843384 -216.581146
1632.380615 1243.853516 -544.359863
1871.118774 1334.979248 -261.892975
1972.511597 1322.413574 -258.566742
1915.710693 1081.400757 -357.405518
1801.244751 1074.732666 -312.505646
1553.515747 1396.120605 -521.158447
1633.663696 1424.184570 -463.120300
1668.200928 1142.171265 -588.265137
1769.490479 1080.090820 -431.928253
1683.961914 1131.766724 -572.594910
1857.865479 1129.965942 -290.485413
1830.623657 1041.455811 -325.614258
2042.441650 1137.381592 -410.810425
1872.253906 1158.405884 -280.590546
1737.347778 1241.880249 -251.036469
1743.466431 1166.825073 -418.411530
1678.732544 1209.207642 -542.972351
1899.208130 1301.893921 -242.057373
1656.299927 1244.865723 -494.231415
1828.381714 1194.470215 -242.679138
1875.620117 1125.093140 -302.252258
1776.833984 1134.678833 -307.529694
2055.240479 1217.506226 -380.479248
1628.807373 1184.662720 -613.627686
1851.782349 1326.957886 -265.639496
1888.056152 1185.760864 -289.700775
1966.329712 1302.743408 -254.140366
1646.549072 1192.798950 -555.812866
1620.345093 1197.803711 -612.864685
1719.560913 1250.075928 -334.424164
1721.500366 1165.772095 -450.727173
1605.697021 1366.608643 -443.517975
1813.028198 1055.057495 -368.141479
1921.183716 1317.970581 -258.656403
1839.775513 1374.979614 -248.007080
1741.745728 1101.674316 -457.557953
1659.183594 1180.555908 -562.516602
1786.939087 1075.898804 -386.826996
1765.911743 1125.873413 -335.258057
1632.066895 1264.504883 -531.316162
1637.925781 1180.795776 -599.454712
1944.898926 1224.765869 -305.116547
1648.093262 1258.054077 -525.355835
1671.792603 1219.087036 -603.040833
1779.610840 1133.017334 -268.874237
1680.597290 1280.153320 -347.937042
1971.308594 1202.667725 -335.874512
1768.465698 1386.556641 -232.966156
1576.531250 1332.493164 -543.532349
1982.678589 1085.800293 -391.998596
1754.336548 1212.306885 -250.888229
1723.394287 1119.480835 -477.222351
1909.601929 1191.242310 -296.598145
1772.577148 1189.549805 -267.895447
1676.519775 1253.603882 -439.175079
1738.048706 1238.659302 -252.504105
1845.440796 1050.744995 -306.458221
1788.319336 1357.850220 -263.387115
1768.395264 1415.109863 -259.237671
1748.245117 1203.959839 -261.218872
1721.675537 1391.573120 -223.696365
1703.520874 1163.330811 -530.057373
1586.175781 1351.414917 -514.008667
1658.041992 1317.492554 -356.378601
1710.362061 1278.911255 -310.009186
1671.905396 1369.618774 -400.536560
1697.380493 1262.896973 -333.691345
1888.289185 1111.515625 -316.762939
1720.148193 1114.803467 -513.611694
1617.998413 1289.945435 -547.467102
1959.781616 1165.162964 -345.770782
1799.675415 1342.787354 -309.585663
1790.598022 1110.254150 -280.345825
1643.759888 1248.518921 -510.960236
1809.236572 1194.375732 -238.146927
1756.994995 1320.401245 -267.306091
1772.283691 1091.702393 -391.444397
1754.122803 1207.402588 -240.514465
1897.962280 1388.848877 -225.646255
1726.440796 1228.670044 -357.820740
1626.334229 1270.810425 -532.975220
1706.115845 1324.762329 -319.527100
1856.265503 1211.682739 -246.811646
1731.569458 1384.094238 -225.714478
1760.876221 1218.598633 -223.741989
1637.252686 1280.317871 -495.172791
1961.847778 1326.102539 -248.305511
1740.394531 1216.254272 -277.535583
1804.249390 1076.867554 -304.745575
2043.814087 1120.937378 -418.235413
1767.399658 1146.309814 -310.049225
1622.206909 1176.317505 -638.722656
1839.614746 1130.310669 -283.884521
1708.686279 1398.977539 -360.562714
1814.269165 1402.053101 -227.765503
1655.622314 1251.004517 -486.020691
1767.765259 1048.342773 -388.341858
1852.913330 1244.875610 -214.061356
1590.337036 1263.806641 -597.002563
1814.674683 1257.071899 -225.089859
1764.435547 1114.227905 -414.643921
1907.954468 1116.842773 -343.853943
1662.415894 1205.186523 -522.272034
1575.264648 1392.797607 -505.967285
1884.245972 1222.286011 -255.222412
2019.950562 1147.686279 -389.908356
1765.818359 1123.336060 -312.089508
1879.459473 1247.926392 -260.398926
1864.943359 1018.336426 -336.478271
1952.211426 1238.736450 -302.930695
1855.042480 1316.244507 -272.981720
1848.482544 1177.112549 -263.044373
1957.551270 1072.252197 -377.869537
1743.920776 1334.502686 -276.242279
1654.063599 1384.095703 -425.011383
1682.746094 1201.639771 -487.584839
1814.825195 1101.302856 -266.878510
1863.564941 1218.546875 -254.289246
1719.436157 1394.507080 -214.895691
1796.402466 1095.771729 -293.516144
1730.764282 1204.684082 -338.432281
1693.951050 1203.437256 -459.045898
1699.759033 1298.057495 -312.479980
1619.533447 1325.916260 -433.893768
1734.776123 1353.460205 -253.761902
1774.635010 1186.147461 -228.287247
1848.732056 1373.258911 -239.851135
1744.757446 1089.971436 -490.406311
1843.638550 1256.780640 -205.708603
1937.459961 1244.149048 -300.731262
1653.174316 1134.062134 -586.043945
1766.529419 1203.386841 -405.649384
1760.006226 1211.178223 -233.477798
1802.180176 1254.325928 -213.120728
1741.829834 1185.468872 -370.893463
1866.746338 1256.227417 -216.564835
1753.119263 1108.163452 -362.042847
1733.879028 1105.167358 -510.822754
1923.944946 1169.107788 -317.848083
1747.726807 1356.658447 -264.650696
1755.756226 1253.162109 -235.414413
1843.470947 1377.114014 -245.379272
1916.757324 1359.370483 -252.690353
1611.263184 1320.068726 -483.431671
1839.459351 1169.802368 -259.728455
1684.898071 1222.174683 -459.636536
1768.404541 1105.914551 -396.542755
1794.260376 1060.584839 -415.445374
1631.007324 1336.043091 -401.202576
1747.806396 1096.895630 -481.392029
1753.252563 1169.018066 -301.946167
1640.774170 1180.042114 -594.221497
1955.677246 1168.032959 -339.952240
1756.468872 1400.362793 -219.951904
1761.095337 1232.570801 -248.095612
1727.860840 1282.403320 -290.666138
1730.289307 1197.764526 -389.900452
1586.774780 1426.835083 -511.475128
1666.785889 1246.759644 -502.713409
1677.517700 1361.331665 -352.613831
1707.198242 1123.078125 -508.275421
1989.492065 1319.670898 -261.256042
1711.927002 1220.153076 -381.803223
1881.436279 1206.421143 -272.320374
1759.387695 1080.613770 -463.307648
1958.106934 1279.875854 -277.795441
1759.747803 1205.899414 -231.785904
1909.477661 1108.406494 -333.125305
1802.141235 1182.493164 -247.880447
1813.610352 1215.809082 -229.501129
1813.678955 1085.702271 -327.646362
1577.568848 1417.145874 -469.101563
1653.797241 1307.468384 -398.196777
2029.009766 1135.516846 -406.157135
1865.042725 1128.174072 -302.201965
1930.723877 1087.144653 -361.310272
1804.799072 1289.131836 -268.413666
1777.804688 1097.274658 -358.213531
1971.581299 1174.491577 -349.081268
1599.834717 1246.067993 -625.164917
1650.951294 1465.273926 -584.050842
1756.588135 1238.552979 -247.901840
1905.805786 1265.154053 -240.079865
1731.714355 1321.633545 -276.897858
1851.883911 1127.794556 -292.820129
1638.884399 1475.214966 -563.874329
1863.722046 1325.760498 -243.092239
2028.539795 1219.617554 -365.904327
1722.176270 1371.439941 -234.189819
1746.743530 1384.866699 -227.831345
1687.562378 1325.456055 -327.426880
1789.202271 1250.415161 -224.385010
1791.222656 1116.323608 -268.277527
1721.827759 1124.449707 -485.104156
1846.352539 1146.764648 -293.000824
1630.008545 1299.920532 -501.793304
1599.270996 1250.779053 -583.486084
1676.421997 1176.787109 -538.184021
1631.344604 1366.564941 -436.772003
1744.599854 1210.239502 -268.799957
1789.928589 1070.659180 -416.137146
1777.118164 1239.761597 -225.283325
1750.892334 1246.792603 -254.669739
1775.901123 1179.204712 -257.859894
1634.502319 1224.495483 -569.929443
1739.413086 1384.267822 -229.726547
1860.411987 1260.433960 -206.726379
1749.645264 1179.820923 -316.103119
1627.993896 1282.556152 -537.261658
1758.062012 1241.054199 -354.177582
1887.238159 1175.622803 -295.700409
1847.823486 1169.671631 -283.358948
1648.942749 1389.120850 -415.327209
1829.522949 1375.230591 -248.207596
1712.584961 1091.791260 -508.997589
1702.172729 1238.831421 -378.630524
1740.309814 1239.870361 -272.078888
1693.130981 1163.503540 -505.035034
1999.586182 1087.126099 -385.083252
1734.798584 1158.944824 -437.994843
1681.354248 1167.771362 -533.014832
1827.864868 1275.444580 -238.625534
1841.551636 1358.105469 -257.307770
1744.707886 1162.551758 -335.240295
1746.002930 1336.268799 -288.673737
1768.645264 1352.893066 -240.920212
1895.438843 1203.657104 -281.209717
1828.044067 1034.441284 -377.691162
1758.719238 1180.381592 -292.742035
1752.103760 1141.156250 -348.955475
1766.565918 1236.479248 -230.197968
1776.462402 1168.709473 -234.730286
1753.359253 1384.257690 -230.947021
1838.166138 1026.289795 -350.707336
2028.405884 1176.246338 -371.320404
1793.425659 1070.868042 -371.455627
1985.163208 1127.787109 -367.282471
1729.623291 1259.425659 -253.519791
1861.933228 1247.168335 -209.483170
1737.441284 1101.384521 -517.606567
1618.652954 1379.510498 -437.240784
1742.716431 1296.043945 -309.237335
1821.659546 1084.780518 -292.235229
1766.741943 1187.574829 -267.208282
1615.003662 1135.035400 -589.114197
1573.743774 1384.362915 -468.123505
1708.770142 1397.325439 -251.774857
1910.527832 1214.508789 -276.858826
1833.946899 1230.094238 -217.097687
1920.142700 1057.298218 -367.256226
1608.663452 1311.843018 -488.156647
1998.910156 1252.526611 -316.824402
1656.126831 1259.128174 -476.445984
1802.450317 1074.653198 -333.954865
1714.718018 1195.416992 -422.635193
1767.098999 1357.291138 -249.906952
1679.604858 1209.569702 -601.874878
1688.142700 1165.060059 -520.280273
1897.917725 1193.610840 -291.355957
1627.769409 1417.860229 -452.253143
1944.869019 1151.798828 -336.944611
1662.984985 1117.327759 -571.228638
1760.868042 1172.806641 -272.135681
1984.226318 1111.279907 -388.524139
1780.213501 1082.767700 -396.307465
1644.320557 1244.993774 -504.884033
1810.757690 1049.006836 -369.792145
1693.099854 1317.894409 -345.711517
1723.479736 1268.591675 -269.964264
1765.685181 1285.364990 -265.966156
1637.509277 1280.086548 -479.427551
1857.995483 1317.941528 -267.945038
1861.676758 1385.103149 -209.598114
1732.765991 1244.211548 -271.028076
1877.393311 1318.427368 -266.445953
1715.014893 1321.609863 -321.666107
1724.682495 1375.154175 -231.270706
1760.830811 1068.509521 -447.705688
1760.011841 1270.171021 -247.011536
1561.452759 1374.163940 -485.934174
1765.099976 1049.261597 -390.928314
1708.519775 1127.089478 -523.735291
1759.818237 1250.959717 -225.344955
1726.682495 1246.307007 -287.430817
2058.135986 1174.819702 -430.676453
1684.528198 1281.797852 -332.807678
1776.165405 1148.622559 -270.050140
1773.666260 1097.111816 -370.170258
1729.387085 1251.058960 -279.311401
1873.829590 1265.071289 -210.397827
1766.351807 1126.161377 -383.388611
1750.433105 1149.008667 -352.720978
1754.427124 1062.310303 -414.780701
1875.042969 1191.449219 -272.569763
1697.193604 1272.070190 -317.724091
1740.642212 1105.867676 -458.764099
1801.536133 1134.714355 -281.990234
1797.272095 1347.286987 -292.590454
1660.433350 1421.040405 -446.011230
1769.782349 1138.204468 -329.688782
1730.968140 1163.614502 -368.905365
1738.892456 1237.330444 -245.406570
1765.782715 1192.598022 -242.799240
1835.946533 1321.623901 -269.703278
1758.852173 1095.576050 -430.936584
1660.108643 1288.813721 -427.971497
1610.851196 1290.466187 -633.170227
1666.756836 1278.006958 -417.967285
1748.761597 1299.074219 -294.804535
1831.759155 1165.024048 -265.200531
1673.096802 1353.030396 -362.713440
1744.643311 1074.663818 -457.658020
1746.522339 1231.087524 -252.530533
1921.224731 1220.942383 -291.110352
2005.603516 1295.517700 -326.078522
1767.352783 1131.992554 -320.737244
1607.730835 1341.047241 -434.225372
1828.949951 1173.959595 -259.755157
1694.387451 1245.343872 -395.921631
2025.499756 1104.287354 -401.440643
1557.933228 1345.698853 -565.994446
1674.769653 1227.415405 -471.395386
1980.791992 1312.363403 -254.827530
1869.296753 1060.874512 -317.190186
1776.013672 1180.895264 -258.063477
1961.238525 1202.776978 -325.907501
1645.697388 1379.059692 -407.092041
1840.754761 1237.998657 -196.930145
1760.815552 1138.365356 -289.863525
1709.676636 1254.844727 -376.681274
1766.938354 1188.363037 -237.492783
1871.963623 1378.791016 -220.229538
1779.049683 1035.463257 -365.438049
1579.835815 1415.253540 -468.171204
1846.746460 1029.831543 -349.131226
1808.849121 1069.594971 -382.169006
1763.501099 1188.721069 -240.675156
1761.234253 1096.580933 -391.930145
1834.498657 1368.651978 -231.222549
2041.497192 1230.758057 -372.876892
