ply
format ascii 1.0
element vertex 1422
property float x
property float y
property float z
end_header
196.090439 -75.436584 2134.565674
2.977359 102.113876 2257.243164
23.932524 -113.437805 2071.236328
258.902618 105.943954 2318.032471
65.764572 81.231339 2117.435547
293.673615 31.303905 2199.317871
339.178284 -214.200562 2142.970215
187.417358 -265.118439 2096.730713
293.273621 29.367310 2179.554688
311.614960 -94.419930 2135.624268
233.267792 -256.314453 2117.447510
113.339912 -194.334122 2109.817627
63.235588 -296.557861 2084.356445
59.151245 88.585739 2128.053711
76.937523 -188.625732 2106.624268
242.058640 139.964096 2223.477539
25.698917 -261.772156 2079.012939
267.239899 -235.624771 2112.677246
123.481583 99.774429 2340.703125
29.355207 15.045020 2122.922607
-3.492035 117.009438 2132.090088
107.036789 -3.901621 2133.445068
138.863510 117.208351 2230.601318
13.192055 -60.308151 2094.871826
133.296906 117.428329 2205.657715
310.740051 -152.983658 2127.318115
64.921371 108.275330 2388.719727
171.669678 -328.768585 2191.770264
18.212996 -124.969177 2103.615479
166.853897 -282.980469 2103.494873
238.541702 146.259644 2220.308105
124.125763 98.352318 2408.985352
121.173485 -273.443329 2099.408203
12.042501 57.194050 2131.918213
299.440948 -48.784580 2149.925049
292.070038 -176.278442 2130.530029
24.320740 -101.472412 2107.954102
107.082420 116.573753 2218.417725
116.469749 106.696007 2289.657959
125.564728 -309.670135 2100.978271
333.227570 -236.215500 2190.518066
14.886532 -132.296021 2100.350830
-7.148203 133.723785 2193.348389
362.724152 21.310711 2198.803955
63.616295 -31.099157 2134.661377
78.024399 118.474831 2202.270020
-11.853461 133.315506 2195.108887
-10.756545 96.495888 2418.030273
51.664143 -197.075668 2089.266357
106.133667 120.086021 2137.856445
127.788597 39.004711 2121.411865
211.756744 -264.380066 2097.742920
278.965057 -133.472275 2119.452393
110.485802 124.892899 2248.441895
3.077816 75.858406 2130.515625
282.613342 40.471645 2179.467041
284.053101 -46.557747 2140.321045
76.056343 -182.485458 2125.102783
296.198029 -135.483673 2116.699463
83.345245 -208.579758 2102.733887
114.654938 113.463379 2257.944092
34.638397 -92.484283 2110.028809
98.716774 117.186340 2309.604004
318.607697 29.757275 2181.624023
69.244308 -283.948700 2092.178467
323.847351 -216.064545 2134.666016
92.268753 126.315132 2131.556641
12.891679 122.701340 2139.389404
177.011734 132.427765 2141.038574
42.423985 17.544214 2131.353760
255.813477 -136.998123 2115.257324
232.608490 -279.239777 2113.650879
151.060638 -179.362106 2117.400391
267.182343 -110.839729 2122.124512
153.438339 128.463028 2164.124023
356.474915 30.321583 2207.461914
57.004871 95.767662 2387.719238
253.613602 -37.080917 2129.070801
255.820953 103.122185 2348.054688
123.373428 -103.395248 2115.856445
121.132195 -7.555413 2112.568848
257.190735 122.954079 2282.291260
59.314350 -21.812315 2116.443848
270.805511 80.126701 2190.549316
224.377548 -66.759331 2128.597412
403.700378 39.307243 2192.776855
263.708191 27.915724 2141.996094
174.691864 109.332733 2235.314209
170.305450 -1.061231 2150.428223
307.605377 -155.325500 2146.072754
87.648621 120.937424 2159.523682
268.174011 39.396210 2176.407471
124.461487 0.282475 2152.533936
259.882782 61.832512 2142.657715
226.914322 4.941618 2129.719482
98.503708 121.644386 2151.836182
216.428024 48.372185 2129.128906
84.665703 -302.429718 2093.207031
425.173798 11.998289 2192.768311
1.263142 104.660316 2280.374512
118.472801 111.637695 2307.309570
232.914413 125.472733 2166.552002
237.372467 -269.919312 2113.680908
112.928528 -76.804962 2139.080078
71.088959 -124.683197 2113.181396
92.658875 -228.725708 2121.283203
264.375122 -206.152496 2117.191895
259.040955 98.955566 2188.887695
188.091034 105.861351 2317.502197
52.203064 93.489723 2137.165527
175.411774 28.402395 2120.467041
139.633392 40.865498 2125.556641
276.894470 96.342819 2276.326660
208.580627 129.542252 2400.138916
225.796188 125.541100 2184.090820
38.609196 101.766510 2128.090332
305.209198 -319.439514 2209.547119
279.757629 -65.132378 2133.415527
165.890091 -208.802200 2110.216309
195.950623 -67.946281 2126.986084
196.676819 15.731049 2122.531250
295.289093 -79.706444 2132.740234
340.110474 41.636978 2192.018311
174.787567 10.401649 2129.208008
-30.959440 97.233803 2428.930664
311.862946 -106.828003 2235.113770
328.184448 -214.073700 2144.098877
220.085403 -63.220814 2128.570068
169.399826 -138.451004 2132.445313
269.133362 -214.982056 2106.803223
207.317215 118.466110 2257.795898
371.300537 37.127403 2221.044434
309.485992 21.740448 2190.105957
81.785156 114.202354 2204.225342
295.032593 16.107464 2185.973145
320.501892 -172.483871 2171.675537
269.390839 75.781143 2180.142334
118.984131 -127.071136 2129.509766
177.879791 119.818733 2127.598145
267.025513 -298.582489 2105.560303
13.330628 103.219414 2136.228760
205.738312 124.512115 2218.114258
214.774597 141.465622 2156.905273
-1.862252 113.347160 2172.632324
94.797211 -100.966171 2125.105225
98.240486 -308.173920 2092.638184
310.770477 -196.738739 2143.711182
98.931015 -58.958313 2135.657471
55.457687 114.767960 2313.573486
307.659424 -129.517029 2128.485840
31.872833 87.642616 2131.435059
213.954193 129.548416 2353.006348
285.969513 94.056648 2343.641357
148.700775 -298.893188 2106.925537
180.938614 125.086525 2175.783447
344.862091 47.874302 2195.499756
59.463421 114.214188 2145.314209
160.661606 106.544327 2348.756836
228.981369 136.884659 2267.289063
195.380569 -334.564575 2228.930908
150.849243 118.193008 2336.760986
266.260834 48.980549 2155.601318
318.343048 33.542419 2187.187744
331.576935 79.756981 2298.056885
272.369354 39.419960 2204.661133
232.214447 -67.509178 2127.837891
297.187958 -193.496170 2129.357910
-14.901134 108.687080 2238.915771
305.242279 6.309923 2174.148193
59.024605 113.970909 2150.929443
279.716797 -27.407627 2160.806152
260.029572 53.176826 2129.684326
330.968323 -214.350784 2233.141113
305.424469 -156.409210 2149.042236
324.405334 42.669510 2193.613281
259.995728 123.922989 2188.674316
-4.393134 100.529839 2330.975586
152.176117 -285.646454 2136.627441
244.387543 147.730972 2228.574463
151.206009 22.234776 2122.851563
230.639694 -20.320017 2136.643066
333.478119 99.227585 2306.968994
258.486664 99.719803 2208.182861
107.561478 59.917950 2114.996094
294.524078 -231.275818 2126.101807
217.891571 80.560173 2126.336914
62.796070 119.800644 2131.682617
69.401695 97.132072 2121.192627
363.681549 10.315985 2192.561279
151.539536 113.412567 2269.230469
269.116211 50.723122 2181.170166
186.869064 -217.354431 2128.811768
222.680588 -265.466980 2110.236816
170.095276 111.461700 2305.957275
58.576336 -152.784958 2098.366455
270.151337 8.618463 2142.482910
284.662567 32.478130 2218.382813
127.123657 103.652519 2117.557373
60.458893 106.190315 2199.296143
150.127472 121.794510 2191.415527
168.058853 104.321564 2388.774414
160.403625 -168.402512 2111.391357
101.229813 109.246231 2318.066650
138.178268 91.867722 2114.509033
134.800568 10.027061 2126.153564
84.070221 -58.243057 2128.707520
40.171036 -78.915924 2110.277100
279.317200 83.423958 2290.117920
21.780603 -173.667191 2101.057373
33.454906 84.347229 2117.823242
353.581818 55.507580 2270.468506
265.392212 103.985306 2186.052734
-7.768287 126.610542 2171.936035
163.217834 118.440598 2205.761230
292.858948 -251.432129 2108.836670
26.240328 -123.098198 2109.090088
281.325989 45.461285 2180.833740
309.205505 -224.369797 2140.966064
267.609467 110.010963 2161.750732
94.550949 -237.810944 2123.662842
292.789825 61.657978 2249.720459
82.763214 105.182022 2347.459229
135.239426 -106.411499 2133.793701
255.451813 115.173172 2146.513916
124.611992 98.217110 2352.482910
61.089130 109.232628 2391.672607
96.944267 119.623276 2168.998779
264.678253 81.490471 2242.496826
317.089325 93.638420 2335.814453
37.096832 115.428841 2220.603271
218.691727 114.186607 2132.322998
218.222672 127.819855 2182.545898
63.966488 -124.889488 2106.864258
266.614014 -111.525871 2120.110352
14.054947 -36.589344 2121.876221
59.205521 12.983944 2117.827881
256.769470 -244.046722 2097.340088
269.734528 104.826622 2247.666016
28.763239 111.452011 2233.268555
56.194290 98.062218 2416.248779
272.163574 14.804535 2165.432373
69.272453 -7.212718 2133.323486
128.487808 -232.741470 2107.656250
190.974197 -6.360709 2132.002930
186.566772 116.238914 2275.041748
219.228531 -97.972672 2128.567383
231.154221 67.487892 2127.471924
28.408062 -190.673248 2099.673584
326.261261 -269.595856 2149.637207
330.996552 -78.556526 2173.221924
155.742584 -119.560814 2117.933350
276.747040 -62.125114 2127.081299
31.232347 -304.293182 2055.904297
321.211304 44.606121 2199.940186
71.974281 3.237720 2131.877930
120.889610 -67.633194 2133.406494
308.882050 -213.949783 2119.112549
157.832550 126.461960 2182.984131
298.424133 -149.146271 2130.170654
219.993073 134.482620 2139.078125
148.565048 81.210754 2127.636719
43.232510 53.505375 2117.427490
331.106720 -255.538559 2165.156494
86.208160 96.774536 2117.897949
231.683472 -49.390667 2131.044434
140.824921 -87.689713 2136.361816
134.238403 65.992188 2118.157959
288.720428 5.251537 2196.806641
327.556580 -205.556793 2176.743652
204.895538 -294.501251 2096.342773
408.360992 36.515575 2207.963379
54.037979 114.564644 2126.175049
63.253090 -117.047943 2106.567871
184.299637 11.624367 2129.771484
228.424698 154.250671 2339.777100
253.281143 141.996780 2286.463623
172.412888 106.590683 2124.724854
221.503204 -125.205956 2142.116699
296.831757 44.739815 2209.802246
258.726105 121.069939 2183.458252
245.587326 118.142250 2162.395996
28.528137 76.267937 2403.840088
74.448631 -76.277153 2121.385742
254.333115 -299.710999 2106.510254
321.011322 -203.903122 2142.400146
265.294983 90.212776 2297.804199
193.143600 41.029003 2124.946533
105.679253 109.566406 2415.489014
265.517822 -69.806198 2128.220215
247.317886 129.996124 2143.584229
310.153442 108.281616 2300.362061
165.032761 66.243507 2113.582031
250.802017 144.181503 2242.887451
337.196716 27.823832 2239.785400
258.407288 108.518875 2273.142090
219.046066 113.452026 2131.778809
277.671906 -193.414886 2126.797852
374.806244 90.962692 2268.645508
36.729801 -123.176811 2102.083008
205.932739 81.446663 2128.529053
47.563824 52.034645 2122.588379
388.591217 29.000044 2230.283447
153.339142 108.681412 2219.656982
303.170776 -273.893097 2139.904053
181.229584 -81.810287 2135.232666
356.606567 38.122765 2207.021973
356.707428 33.466568 2227.453613
216.153046 -27.995419 2143.360596
86.975609 -180.388535 2107.159180
303.391998 -314.864807 2165.615479
141.112946 104.128494 2394.026123
177.307404 116.884552 2375.965332
66.844116 -149.629150 2126.160400
291.801208 -296.431671 2103.838379
261.803436 -288.867218 2099.063477
52.338398 113.157532 2333.792236
189.694672 80.984177 2123.813721
294.314453 -59.304974 2138.903320
3.551311 71.014862 2137.400391
181.783646 123.132057 2176.471680
41.135223 114.867622 2176.328369
84.095848 -83.359833 2127.098877
-8.520680 105.548698 2171.412842
188.680710 119.136169 2231.015625
265.738617 63.178722 2197.885010
118.184616 -242.871796 2132.434326
8.786263 103.712631 2136.004883
190.445740 115.156242 2290.815430
347.389862 49.831753 2269.050537
140.688080 123.171944 2197.202881
32.483181 116.727020 2265.852051
303.451080 -137.690567 2128.329590
47.776615 -42.949223 2115.241211
36.270607 -217.966095 2093.660645
299.798523 -161.147568 2140.683594
115.448959 121.222397 2154.451416
269.268433 122.579056 2190.210693
78.558746 -11.721317 2154.175293
263.695404 -57.234997 2127.234619
140.475891 110.030838 2334.142334
198.900833 109.441589 2392.707031
71.885284 99.899567 2399.162109
228.907349 55.054691 2126.169434
289.748444 86.451736 2285.923828
166.862961 99.779991 2325.959229
267.813507 74.981819 2249.305908
309.024658 10.586346 2184.191895
190.461212 -199.054047 2122.775391
49.594036 -17.058311 2132.274414
263.759766 81.871101 2182.065918
103.956810 -95.078743 2112.461914
209.369400 -11.280332 2135.300293
220.772522 43.438755 2125.313965
-0.258872 123.109001 2123.238525
101.310112 118.356148 2188.167480
143.373291 10.391698 2126.303711
179.525040 128.365967 2206.628418
230.535217 -157.318314 2116.897949
239.975143 148.380386 2238.737061
160.686737 42.185677 2125.820557
218.919342 132.342972 2372.141846
78.704857 126.672127 2126.121338
107.859024 -67.798676 2139.256836
194.593033 123.410851 2218.023926
240.383621 142.982239 2294.910645
266.810547 92.955635 2199.900635
321.975616 -104.298126 2158.420654
173.390198 -76.112106 2125.038574
9.544112 26.541275 2127.203613
38.092304 113.216927 2143.750488
247.274292 127.919197 2174.474365
59.330502 117.251167 2214.406494
280.334045 -198.550781 2113.094971
311.833740 -144.319565 2186.636963
28.773252 84.197830 2124.345215
277.413605 -229.188370 2117.943115
291.832001 -183.867584 2131.472656
183.754623 129.773621 2138.382324
383.953125 34.048717 2251.249512
225.399826 25.558641 2122.414063
296.229126 -74.873787 2125.825439
243.344223 133.833954 2328.186768
23.576801 -107.752991 2114.107422
49.384529 -123.813324 2102.061035
281.167938 16.789892 2250.553223
264.654694 145.128021 2199.105957
14.259476 -40.713791 2116.011475
27.240366 8.686297 2082.251221
266.461914 14.910352 2139.192139
313.867828 -214.553299 2126.840820
169.456390 118.551247 2218.523193
265.338104 8.025988 2133.270264
274.300476 -32.097584 2144.603027
261.461304 -144.616180 2117.654785
235.164551 109.457275 2130.624756
50.992393 41.941936 2114.829590
149.785278 108.896919 2282.074219
153.130035 127.714180 2233.183838
247.923508 5.772952 2126.534668
182.875031 132.521118 2141.158691
49.653393 -183.993912 2100.949219
248.671463 73.342461 2399.005859
182.669815 -12.389449 2133.058594
187.080002 -34.805531 2143.339355
308.432831 -56.007107 2186.885254
147.293854 131.432343 2135.564453
240.600281 -251.250900 2102.781006
258.362366 105.091682 2272.319092
184.626236 -113.566429 2128.520508
317.413116 71.909531 2283.265625
11.753915 -51.315735 2125.264648
48.760937 -244.818893 2088.947266
229.100113 -30.518877 2142.522217
105.225342 101.143578 2324.792480
146.395157 -165.244858 2131.372314
256.567474 144.359787 2239.812256
250.707901 102.769547 2140.704834
284.399384 -292.716583 2103.288574
272.385315 66.814491 2164.892334
289.611908 -212.053238 2117.803711
254.048721 91.342422 2389.924561
121.353165 -40.814697 2134.915283
82.018372 122.346298 2153.511719
114.004234 -155.000015 2119.465576
244.372803 -14.651262 2132.692139
129.842590 138.745728 2146.789307
154.021149 114.199120 2148.387939
319.530701 84.287888 2282.207764
7.029961 -34.288490 2108.616699
277.641876 -34.200195 2146.356445
104.165504 31.475475 2115.119629
163.267853 -236.736877 2155.035645
266.350433 -331.322510 2285.349121
118.840599 124.867561 2154.390869
268.815491 96.787560 2148.059082
304.363739 -71.569237 2146.456299
406.882507 34.262802 2198.824463
124.295883 45.891792 2115.817627
259.932068 93.857094 2269.508545
244.010422 110.477501 2157.621582
134.134735 108.242126 2116.935547
24.136103 109.319794 2277.776611
6.029374 108.458420 2235.578613
102.119659 -32.732853 2167.714111
216.355743 9.875886 2128.553467
335.038452 -253.896072 2136.708496
142.119736 -184.337723 2124.333984
62.505760 -285.213531 2094.783447
244.229980 -86.124397 2125.554199
301.046600 15.903239 2229.525146
13.956658 107.283661 2370.965332
9.602615 98.310799 2294.116211
167.603806 114.384628 2280.766602
173.239151 -92.720901 2126.771240
152.124741 115.862801 2359.860107
263.782074 93.227417 2335.883545
205.283752 112.830276 2159.238770
168.004456 -64.851082 2130.363770
12.427012 -141.630096 2109.928223
270.445343 123.897713 2289.479736
235.043961 135.459793 2182.189941
185.709412 -51.772533 2128.302734
238.507034 -112.927277 2127.566162
213.402771 -128.853394 2127.357422
168.772705 114.674850 2276.161621
393.504486 52.334984 2210.876465
81.541946 33.895821 2117.120361
390.263153 45.497433 2217.131348
115.170975 61.334629 2118.214355
229.974548 -161.570602 2116.410645
211.574829 142.561661 2390.634277
252.948410 125.162231 2211.761963
97.956314 -175.876221 2110.485840
266.726166 23.196968 2182.101074
250.412491 123.858536 2346.327393
247.455215 137.329514 2349.287354
334.921753 -213.161011 2137.194580
345.996002 95.833771 2299.341553
95.187431 -194.559448 2107.866211
339.127441 -239.564926 2176.489502
30.286137 104.955925 2288.011230
-4.330686 116.574615 2199.364746
217.828369 70.891090 2119.088623
264.886597 95.394165 2196.972900
50.170395 -62.612076 2108.527588
242.985306 39.801643 2130.832764
152.595001 -128.594803 2120.421143
255.227982 39.122562 2125.718994
278.274078 89.770462 2346.656982
139.945969 -75.111046 2126.300537
225.924026 129.270218 2182.730469
88.491753 134.509201 2160.293945
228.719147 -68.453415 2140.951416
253.607681 -32.667118 2128.282959
40.288864 108.566963 2301.055176
22.963285 104.404869 2329.937256
56.291260 -266.165680 2085.439697
168.717957 40.727108 2114.526855
150.679642 -143.611084 2120.774170
139.781967 -64.330658 2126.038574
317.660645 18.590368 2187.475342
364.296600 55.235302 2209.233643
230.429260 69.057159 2128.269287
333.989349 43.200901 2268.161621
176.799881 -138.746552 2118.119385
35.058655 -120.729919 2109.790039
115.500656 -103.099724 2114.333740
231.260086 -117.216019 2130.966064
163.468460 134.382324 2139.686279
321.983368 -92.107658 2168.794189
174.931198 128.919937 2170.183350
73.681160 -196.921036 2101.570557
276.484955 100.636093 2339.091553
161.668915 -87.035316 2128.317383
117.265724 -43.219269 2126.554688
251.292252 99.140358 2327.559570
144.728241 -117.516068 2127.221436
20.893845 3.072141 2127.045410
-31.744320 127.914261 2403.935791
285.582520 24.083055 2235.291260
285.886078 -224.126801 2120.525391
27.459249 51.901302 2120.978271
168.812424 -31.935162 2161.690918
62.665447 -310.285400 2080.113037
293.546417 -41.339867 2140.558838
39.604298 15.423043 2120.498779
170.619400 119.170288 2208.567871
124.501099 -153.594406 2132.479736
85.510498 -200.782242 2109.674072
55.920685 -44.759396 2123.608887
153.915329 110.240585 2337.724365
259.444489 -14.197743 2294.798584
72.028214 4.872220 2118.958008
259.969269 -180.244766 2131.568604
-14.807511 129.235489 2223.109375
200.407806 98.767212 2125.428955
161.826004 123.343185 2209.205811
117.756226 56.539379 2112.565674
216.918579 -59.707233 2146.874756
263.684113 -78.379196 2134.094238
36.564419 -63.304062 2110.509277
285.941833 95.730637 2309.679688
274.058594 56.212757 2184.204346
181.228043 125.227341 2190.178467
295.025879 -144.019592 2116.430908
416.449341 41.916775 2210.554688
40.263218 113.085289 2202.842285
-15.596573 94.413704 2338.069824
320.090881 -230.977539 2139.653076
185.479828 90.878708 2125.174805
308.983124 -67.770279 2240.273193
321.145599 14.222763 2186.687500
257.862335 140.227112 2227.975830
256.473907 -180.706161 2128.464600
162.703339 108.773476 2335.182861
30.674028 100.725105 2361.096436
3.634842 14.956726 2114.328857
146.544861 -111.701172 2123.456055
66.241760 22.342173 2111.425293
292.910828 -174.015610 2133.329834
178.468628 -34.238155 2143.805176
48.573986 112.891594 2251.153564
22.726215 95.928642 2121.691650
36.669472 -192.802231 2060.676025
167.390015 -175.362732 2118.435059
269.427948 73.927856 2176.949707
116.790497 -119.447380 2118.892334
236.236328 141.138992 2261.737061
161.919937 -208.904251 2109.742188
269.309784 77.829292 2146.698975
157.331757 123.890236 2158.393311
91.472954 84.381020 2114.348877
130.334869 90.546654 2132.062500
21.428270 102.370361 2132.455078
37.110252 -218.953415 2099.643555
338.400330 -213.303635 2204.839600
97.392761 119.317406 2205.724121
15.901799 -197.590652 2109.813721
101.381989 121.738228 2164.330566
103.066620 112.733521 2252.274902
143.868439 45.623707 2120.630859
219.837616 122.833237 2134.914307
184.783554 122.330231 2220.219238
274.696075 53.681538 2172.650391
270.894836 61.462280 2274.468506
18.702328 111.520393 2218.149414
139.181931 80.826584 2128.842773
76.674973 -221.710556 2113.183594
135.597610 42.746136 2111.774902
10.554609 115.599701 2200.122314
14.189676 -65.301994 2106.469482
194.392563 124.098114 2217.722656
9.823135 73.621872 2110.904297
36.766361 90.847153 2118.015381
22.541368 -118.549980 2087.024414
129.334641 90.284561 2126.934082
242.484726 118.723885 2139.006104
140.525955 141.051682 2127.344482
240.297791 118.796570 2374.924561
299.479797 -281.666290 2107.583984
185.851166 85.337967 2121.554443
282.973358 -20.613050 2190.089600
281.857056 -42.729202 2149.068848
18.163956 -110.763138 2082.502686
73.658524 111.915756 2274.006348
211.870163 -202.794235 2116.856689
307.254700 -92.091797 2178.311279
5.948908 16.387911 2117.401855
286.595581 -62.239853 2136.172119
269.442657 144.443939 2227.892822
55.687138 94.885902 2121.885742
182.271622 70.679520 2130.894043
209.867828 -294.951233 2118.020752
271.791504 117.322380 2168.080566
330.186066 -204.763046 2198.143066
18.755188 -200.850525 2085.106689
298.750153 88.799522 2321.226563
129.821823 105.051247 2367.855469
143.717468 -65.255875 2131.669922
195.955322 -96.534874 2123.834229
50.800072 56.544609 2123.445313
52.550789 -152.280655 2098.033203
102.025490 103.337753 2258.092529
176.187592 127.369675 2159.838623
4.032713 112.817551 2204.234863
235.628723 145.607986 2304.550293
88.755211 105.677055 2120.820801
263.396149 83.816750 2185.383301
182.979874 115.566872 2260.429199
100.980042 -223.575089 2105.258789
87.443535 72.202301 2115.807861
19.666595 110.659149 2207.602539
229.424362 -65.056793 2137.580322
61.196770 -52.835148 2132.922119
182.171509 88.771851 2122.324707
300.424408 33.262146 2186.446533
220.703415 -249.235931 2119.044434
160.608780 -92.121452 2126.364502
221.017365 75.410095 2128.419189
280.580322 -270.197754 2102.014648
36.387276 108.194885 2180.918457
334.651917 65.034073 2272.227295
90.724373 -153.108414 2124.757813
186.099030 2.785089 2123.213867
21.492420 -195.951859 2099.191895
172.918488 116.646690 2287.673584
202.934769 115.744530 2131.243408
281.056580 -40.693893 2176.408203
250.518631 -88.649155 2134.938477
294.592651 -60.273975 2137.857910
43.206650 114.022972 2232.124512
250.751312 117.938728 2357.059326
144.768021 109.381058 2145.707520
236.145676 -54.981800 2127.788330
199.282730 -80.983421 2131.842285
91.377403 119.898643 2191.104980
9.619208 104.609573 2150.867920
301.272614 91.505821 2292.240723
261.895599 106.763039 2144.187256
324.693573 -158.698486 2195.988525
270.433929 85.414566 2144.416504
217.863831 121.986450 2175.689697
234.097672 -227.548325 2106.208496
152.985748 -127.914223 2122.031494
206.325882 114.959808 2357.189941
277.322479 -47.790508 2157.755859
114.104492 106.884285 2215.605713
195.854202 -110.104408 2124.810303
12.190415 64.916664 2132.734375
242.796646 -99.756821 2128.822266
262.704010 -35.671341 2136.455566
198.596451 125.554047 2163.989502
148.792450 -47.957146 2130.060303
312.093262 -244.669495 2120.589355
283.689362 55.145061 2200.920166
125.148026 -180.142822 2111.654297
291.184174 -192.329514 2124.957031
269.068634 -182.224823 2110.408447
132.682404 48.529716 2124.888916
268.215424 -5.421802 2132.644287
166.247208 111.369751 2196.300293
301.873566 -125.730759 2133.699707
289.884338 41.467525 2282.988037
22.970518 106.740318 2124.134277
96.939392 -155.137100 2116.217529
274.376495 -248.737198 2102.428223
67.419052 59.750565 2115.562744
283.502258 -250.774658 2114.769043
40.938316 -274.345947 2072.989502
9.215514 61.688808 2110.993652
417.606964 26.455454 2196.065430
296.476196 -74.993820 2200.142822
15.795377 95.954849 2316.677734
127.844696 -205.948151 2103.145264
27.222477 -24.906794 2097.181641
36.959999 116.198479 2193.760254
112.967415 -81.983589 2123.590820
274.506866 67.664833 2150.124023
42.102474 -42.362946 2116.425781
345.005615 -219.905731 2164.045410
108.469475 -281.703674 2104.416992
13.438688 132.067322 2127.067871
271.423279 31.655550 2138.539795
217.739319 129.554901 2224.686523
90.735893 130.396225 2145.934326
102.498268 -7.826312 2113.383545
373.827606 29.689461 2239.287842
153.502686 82.508934 2127.441895
308.384644 -280.657410 2124.803467
161.052841 -35.760921 2145.813477
224.421753 -83.831062 2131.302734
308.743073 -63.817253 2201.227783
300.253082 -203.645081 2133.409180
11.116480 8.705635 2125.317383
270.204712 95.320030 2354.142334
253.346329 -88.989349 2121.381836
102.283943 -281.738007 2084.583008
256.122772 32.547112 2139.404053
78.146118 109.054260 2302.094727
130.513260 -210.554382 2112.819092
200.176437 39.107937 2120.129883
223.759079 -175.884750 2121.448730
101.542305 116.516365 2203.763184
95.273773 97.779396 2311.614258
179.212234 120.068741 2257.746582
396.083527 23.317200 2197.347168
252.556183 153.465958 2170.307373
388.159729 40.180992 2236.159424
267.336273 -171.548294 2114.408447
24.163946 159.888596 2120.708984
62.764881 128.118347 2137.094727
202.149216 40.612091 2118.301270
105.931190 38.617870 2122.482910
82.312660 122.963524 2221.156250
257.667603 1.435967 2130.192871
59.125572 -168.561157 2101.857422
184.993149 119.618805 2251.581543
341.893280 -226.850815 2141.641846
198.485397 -132.840744 2124.659668
69.288193 101.310303 2356.523193
77.694595 -40.050529 2138.870361
246.586502 61.165810 2140.345459
246.067001 103.057777 2352.468750
227.928452 110.937218 2133.811523
258.745575 125.769371 2177.471191
216.505859 126.299812 2257.018066
214.103531 -83.444038 2136.068604
245.938263 143.562454 2317.248535
213.150589 -196.731903 2113.883545
41.400974 -19.330143 2110.891113
272.183350 -123.406258 2122.947266
96.432861 -170.930771 2100.709473
225.730560 46.703373 2135.262695
274.744812 -171.104599 2114.187744
235.903946 42.274952 2133.288818
141.129456 58.685257 2118.311279
227.139801 48.286663 2124.605713
37.097149 106.151520 2209.992432
39.311504 -88.520416 2111.217285
45.784317 101.813103 2254.042725
240.139328 42.926144 2137.629150
101.280952 -239.420853 2126.667480
106.718971 119.778061 2282.345459
88.337158 105.644302 2123.458984
164.400848 12.419509 2125.131592
130.456955 -101.917137 2124.761475
9.336718 112.553566 2221.874756
132.132904 113.463737 2271.736816
159.417404 119.342705 2126.716553
124.086243 119.711227 2120.426758
316.697754 -185.032715 2154.431396
269.406952 96.921974 2329.396240
295.287506 -208.592148 2128.249023
146.947357 117.000114 2235.017578
238.043427 73.507896 2132.425781
153.616821 -97.747215 2123.951660
106.996735 -128.424896 2122.048584
170.788864 -36.917465 2143.651123
25.932568 -110.084862 2107.357178
135.525589 -207.953506 2112.728516
211.411392 90.892975 2138.089600
37.531506 -170.861450 2103.763672
124.976028 81.122131 2122.289307
172.992188 -141.449585 2128.515869
405.457581 42.932461 2204.264893
128.892136 -40.816631 2138.002930
17.023085 -191.257599 2089.784668
-14.431354 93.493050 2358.911377
50.760540 -239.473389 2091.543457
118.713455 102.446266 2406.543945
73.862694 124.195892 2131.102783
290.794006 2.436408 2185.533691
263.720276 87.224533 2172.208008
260.415497 111.241127 2240.909912
229.791718 100.881485 2130.987549
253.677963 141.424759 2302.738770
287.589600 -298.953766 2118.260254
129.871704 47.491001 2116.850586
320.313141 95.580452 2313.837891
242.344330 143.602295 2272.037354
247.466873 126.365334 2143.953125
155.834442 -304.929413 2089.894287
294.795319 13.513053 2177.158691
243.755508 139.126144 2352.465332
302.776886 -264.023468 2099.545166
130.687180 -10.322989 2134.376465
272.386749 101.518784 2241.187744
303.773102 42.583328 2234.865967
150.789398 122.429382 2223.647705
213.270691 -102.621155 2130.531982
220.706146 125.348732 2199.400879
35.510666 107.410347 2125.314453
293.211517 14.893767 2177.262695
127.554642 112.804337 2144.353760
58.239655 -176.885422 2096.998535
274.548340 71.494690 2207.106689
252.482086 -87.775536 2125.625488
332.266907 109.118980 2291.650391
241.880508 148.339569 2236.650146
261.668213 123.110176 2318.111572
183.844193 22.220598 2119.833984
212.056458 2.833477 2127.066650
59.641174 -28.813486 2125.886475
173.534943 127.151588 2227.833740
349.410828 21.289940 2195.180420
140.107910 110.169785 2319.839600
152.714020 51.920998 2118.056885
245.513077 139.158890 2206.915039
79.451225 118.060722 2229.494385
152.403320 113.870163 2262.215332
67.354561 -86.805313 2123.028809
88.613289 -29.331242 2139.442383
159.794662 72.898659 2121.854980
247.919174 133.730469 2253.826416
38.016884 -191.670258 2104.615723
272.778046 83.708229 2161.261963
277.128845 -22.151392 2173.693359
80.343956 120.540436 2284.642578
173.300812 -194.653214 2110.627441
206.862152 -19.368654 2161.181152
19.434151 85.008774 2138.434570
228.431229 132.168839 2197.031982
186.744415 37.336803 2116.418945
141.240662 -38.602455 2126.286865
74.838943 -87.008759 2128.811035
208.392197 -136.422073 2140.428711
238.876892 146.792862 2223.299561
123.059837 115.627113 2212.229492
92.903275 89.412720 2123.824951
127.252945 95.950928 2343.982178
111.140350 122.493233 2128.158447
59.581688 122.328842 2179.393555
325.331390 -218.584183 2126.834717
320.243744 104.132477 2314.578125
366.235840 43.845650 2224.552002
246.558472 -161.590942 2121.574463
152.421738 118.241646 2203.796875
87.331146 63.345806 2115.992188
284.655457 -92.694107 2118.238525
225.462280 39.129551 2133.345703
262.082458 -0.110219 2139.971191
137.894409 121.196457 2197.588379
310.099091 -147.650024 2128.476563
211.014938 32.257511 2127.765869
144.778152 85.076469 2127.935303
311.063507 82.830360 2277.979004
46.798992 78.734665 2400.117432
267.552521 77.125366 2279.725342
83.360611 107.469757 2118.600342
78.227013 114.180809 2333.649414
162.133453 -167.438095 2119.104004
240.216248 -9.892080 2132.692383
229.226761 138.323349 2229.845459
68.187752 109.161827 2317.824219
-8.106468 128.686813 2146.531006
58.445057 -130.464600 2100.426270
181.944672 -295.494446 2109.039063
65.363579 -168.023270 2106.144043
216.504669 122.274010 2247.361084
114.735893 103.282425 2361.132568
224.227371 25.271004 2129.146240
260.735168 42.311836 2140.922607
340.293640 -244.905563 2209.955566
269.581085 108.347786 2249.590576
64.103500 34.167961 2112.835938
181.957993 107.226128 2128.175781
355.676971 104.687492 2286.244385
317.829102 30.675913 2206.901855
196.707092 125.285248 2171.740723
249.627548 119.809258 2362.605957
19.521585 115.467209 2261.836914
269.122162 21.255226 2174.864258
10.999489 41.411293 2127.664063
283.765900 -211.093414 2115.149658
246.414673 -12.977813 2131.929443
107.185799 143.919601 2123.266357
187.130096 106.575264 2378.509766
262.293915 94.652084 2281.097900
185.811829 -29.497503 2137.725342
360.174622 66.244003 2280.272217
304.032013 -211.210480 2136.379883
324.960907 -276.113007 2155.843506
266.742767 -154.682739 2124.165039
192.840912 -332.727539 2213.757080
46.664459 -161.967178 2098.029541
179.181580 37.942883 2115.444824
189.095032 124.989296 2171.448975
165.006592 116.543121 2278.442627
227.375351 74.200272 2133.748291
28.434317 107.136894 2187.056396
208.537537 87.790199 2130.496582
284.629639 -41.807053 2141.058594
268.451874 81.198181 2290.200928
281.750763 58.049664 2168.297852
153.687408 120.045265 2143.676270
222.527176 -136.879974 2132.219727
40.002205 103.502426 2353.411377
225.536606 -213.141037 2108.968506
226.610352 -168.086517 2122.889160
108.370712 -37.422264 2150.438721
128.094528 -217.337006 2101.317871
255.647995 137.353348 2254.915527
286.076843 59.030411 2264.003418
103.703224 -204.382568 2124.573730
221.603485 132.920929 2199.322754
141.244537 -56.050194 2126.924805
17.724447 45.206669 2121.689941
274.813721 30.294481 2190.688965
267.047180 -261.779480 2113.850098
91.897636 -337.329102 2248.507324
37.483810 -313.589539 2086.367676
289.049377 -122.858482 2122.126953
273.111298 -130.247391 2117.885986
320.702698 -92.474770 2158.920166
68.010300 11.763361 2119.672852
48.887333 -129.551208 2102.492188
323.819733 -267.100647 2126.987793
132.375351 47.109859 2112.355957
155.949753 106.466553 2357.730225
-4.885036 92.720795 2281.416504
12.346966 126.823112 2130.174072
389.305054 38.504799 2222.112305
161.966721 -92.284386 2126.747070
299.734894 -211.110672 2131.422363
118.052361 120.361641 2199.865234
166.543411 105.456566 2385.830566
101.240585 109.167145 2288.546387
92.508179 120.299324 2121.108398
263.079041 84.869156 2183.658203
136.015457 -218.421127 2111.982666
-14.658400 96.635277 2391.653076
421.171478 10.619669 2191.920410
124.363945 44.371357 2117.932373
125.475426 104.284203 2385.989746
234.150650 106.599525 2134.990234
314.059814 -143.924927 2156.580322
170.594711 -198.774506 2116.027344
65.472588 -97.104515 2123.439453
160.351318 -124.779175 2121.590088
146.152969 108.188934 2143.088867
126.854034 -281.388000 2099.983154
248.386932 144.212555 2199.427490
306.051941 56.731163 2269.418701
41.999821 -153.356659 2099.018799
284.391113 25.423256 2208.525146
126.159798 -286.311676 2122.232178
175.084122 120.619858 2321.083740
92.547180 -55.279037 2144.932373
244.623520 96.383179 2138.084717
113.444275 111.117210 2119.838135
103.884613 -11.272055 2150.961914
346.655457 -212.220154 2181.389404
421.988495 34.751987 2192.275146
250.553024 -8.325883 2129.638428
36.657471 -223.828201 2084.954102
301.109894 88.004341 2291.247559
223.380295 -222.980469 2115.885498
183.527161 -62.132488 2133.663330
91.923920 -8.670115 2126.494385
284.955841 -280.480774 2103.270996
377.211426 25.754253 2191.969238
57.031975 -247.341553 2106.400146
297.445221 34.918995 2199.033936
77.513611 -49.407589 2128.187988
286.695557 -29.012390 2192.802979
200.555725 113.378990 2139.470459
324.562378 -114.655273 2160.081055
179.091705 -286.830780 2115.986084
16.653111 101.418144 2350.043213
145.866318 68.565872 2118.227295
30.246460 105.120377 2127.425049
315.936554 -246.086136 2123.341797
275.614746 81.955482 2220.335693
19.076691 -210.749146 2110.876221
305.792389 -146.667664 2141.011475
-0.772819 112.984604 2181.556641
182.829346 94.381752 2135.614258
201.474365 1.312808 2119.285889
179.237762 75.663803 2138.805664
74.235481 98.269760 2369.273682
179.385208 44.616173 2118.358887
336.796082 -247.770935 2189.604980
225.196869 49.836597 2137.314697
269.256226 6.110096 2137.289551
220.257858 -146.056976 2133.451660
25.708466 107.508255 2388.512207
312.944733 -45.680309 2197.113281
301.220917 29.634840 2193.504639
54.496788 -313.616638 2099.693115
255.995316 133.922882 2182.227783
332.484619 34.761986 2193.458740
155.885483 102.220596 2375.033691
248.929138 116.077179 2335.300293
284.577179 -279.741058 2110.493652
314.955414 -148.463608 2150.062012
319.942749 88.760117 2310.742676
56.744274 -25.263197 2133.420898
157.456680 -328.086884 2174.604492
27.253416 -239.879776 2063.579346
123.658073 114.039383 2246.420410
232.009186 -97.002998 2135.114502
184.338837 127.699524 2131.803955
241.236725 -6.300826 2127.493408
97.860130 -283.536987 2126.502686
126.074684 -82.354958 2124.095459
203.011246 -50.303947 2141.180664
277.529846 -11.941463 2157.176758
24.793077 -22.202171 2117.190430
345.805573 31.032022 2194.084229
239.016052 -177.997467 2116.838379
350.404449 -224.280945 2176.612793
84.846901 110.593643 2248.625244
1.648018 110.038185 2310.008301
254.208389 -149.511642 2113.959473
79.960152 -61.463722 2126.457031
11.420742 -46.464882 2114.592285
113.530106 30.557266 2115.836426
212.495468 47.142761 2129.829346
174.484039 131.675568 2158.331787
196.640244 132.707596 2210.893555
243.882370 -225.188843 2099.457520
350.699768 24.316641 2293.335449
265.256897 65.857460 2203.035400
414.080872 -4.677131 2187.063232
26.478474 -10.197154 2101.869141
376.282379 27.140867 2198.280518
27.708481 112.602821 2321.764404
275.047058 86.648354 2160.328125
235.677734 21.157368 2131.573730
42.680641 -157.344681 2098.293213
228.223404 141.266403 2357.035889
257.718933 138.917572 2226.321289
163.455643 118.166718 2154.658203
243.497589 -51.830769 2127.472656
291.441528 70.336815 2267.876953
286.435211 -9.408040 2169.365479
70.915649 127.607292 2129.538086
128.183670 137.836700 2140.888672
274.402924 -266.479919 2099.340332
254.359085 -5.074619 2129.183594
53.996002 99.390800 2382.856934
112.755440 127.475258 2210.952637
29.429386 -147.037949 2126.211182
311.739349 -296.521545 2144.604736
2.682008 93.026390 2405.435791
34.231968 112.836311 2129.054932
287.939087 -288.588409 2114.117188
304.461639 83.100807 2301.502441
147.810593 56.414303 2117.446533
215.700333 124.861946 2332.471924
52.672592 115.295403 2246.369629
345.481354 -230.929794 2203.152832
405.263947 37.796150 2226.326416
207.068130 -134.746353 2130.029785
310.570496 -282.454620 2126.763428
310.574036 15.295390 2179.658691
379.366425 40.887398 2202.605225
-19.100883 114.223251 2319.888184
189.333893 -304.750854 2128.067627
68.230820 -105.518524 2116.863525
168.752716 -197.411713 2111.812256
171.322189 -71.048691 2128.570557
83.860168 64.687668 2118.504883
347.921326 -245.454742 2154.191406
82.304016 122.183357 2198.291504
168.008545 -168.972382 2113.916016
164.377472 -117.045731 2127.181885
248.276581 135.142914 2214.504639
129.013885 124.177017 2237.458008
31.038832 51.683994 2118.949951
12.467782 123.320961 2128.545898
259.400085 125.904190 2156.816650
279.564636 -161.194107 2124.678955
224.661560 -128.275497 2125.997070
201.507828 117.802010 2356.550537
35.316456 8.545406 2115.748047
278.571014 95.728134 2282.624268
140.658020 99.393372 2131.340332
274.945465 -36.909664 2134.748779
310.382446 -173.713120 2157.258789
51.256336 105.346786 2316.719971
281.836456 -225.741821 2120.944580
143.169098 110.604240 2329.055908
52.837898 -202.296722 2118.785645
118.967560 -74.793045 2129.461426
205.539261 30.463694 2131.274170
274.202148 22.768400 2178.549072
0.035862 19.896227 2132.796875
107.629288 119.227203 2173.283936
263.562347 96.129990 2205.699463
161.873276 122.277908 2227.821777
25.209743 108.050804 2273.724121
15.205277 -105.756226 2100.890625
40.935429 120.562767 2183.284180
52.932400 117.125168 2175.348633
268.444855 104.492195 2142.351563
325.094238 75.423248 2290.666504
171.567871 122.418388 2206.624023
237.142441 51.300003 2135.470947
-12.448566 103.255539 2340.337891
242.379288 119.797516 2144.197510
311.573822 -125.992516 2182.288330
100.144722 -159.746460 2126.182373
205.306671 54.428841 2125.770996
12.952473 -95.880013 2119.940674
193.340988 -89.741066 2134.459229
263.309570 84.896744 2144.643066
75.153969 -245.906769 2100.596436
40.219978 -260.163177 2083.442871
37.645283 -66.479881 2110.407227
151.497025 107.330818 2119.740479
255.943756 158.454712 2257.699219
232.727676 84.557739 2136.779541
114.870590 110.650238 2278.185059
238.941437 37.460739 2124.354736
114.075386 29.658092 2109.736816
160.625565 -291.579865 2103.295166
313.800995 -66.464569 2191.413818
184.326721 110.641655 2331.118164
256.146606 144.735214 2217.642822
137.260117 111.239120 2121.571777
225.318420 107.600548 2151.014404
110.753510 87.766098 2116.996338
13.616144 37.507713 2131.025391
266.409241 34.651146 2174.654541
88.936905 -210.782715 2116.566406
245.530045 138.201447 2265.792236
95.617004 98.660469 2373.106201
58.897587 -0.647474 2126.639893
-12.401846 84.484215 2405.685059
94.446625 -180.905838 2114.189209
198.325821 -191.614700 2118.411377
331.433380 -235.592697 2135.750488
150.152069 -242.562149 2124.787598
169.710785 119.652275 2182.091309
79.245659 -255.905075 2098.404541
227.204742 81.055336 2142.962646
228.805161 121.904922 2149.730713
292.198883 -70.916916 2122.025146
63.272705 -192.432556 2096.549805
131.646606 -94.846069 2135.115479
187.445892 15.093978 2117.301514
152.349457 -117.469177 2120.811035
188.362061 14.161868 2130.022949
279.277679 -19.736889 2156.460205
275.420654 0.190162 2135.595459
269.373596 66.458282 2151.746582
-4.181472 100.789787 2262.547119
170.539124 -116.638100 2124.719482
242.760391 151.067566 2286.568604
267.695251 162.475037 2230.424072
16.665184 79.288445 2420.086426
195.192078 114.513657 2303.449219
76.452309 113.700340 2261.681152
358.841766 89.293991 2291.835938
279.535553 -128.731186 2108.604980
325.406281 -123.051109 2198.493164
53.802773 -26.881052 2121.703369
185.764145 121.553146 2228.608887
179.012512 85.786736 2125.473877
-8.543211 125.603516 2180.609375
2.718251 -11.506103 2125.561035
85.336197 103.313141 2252.436279
270.862640 71.485489 2208.021240
379.745544 37.371525 2208.044434
171.639938 -330.396912 2182.724121
140.719177 115.046921 2284.392090
-13.067722 115.066376 2250.142090
154.682022 44.709728 2121.505371
258.738220 -69.482216 2124.790283
168.813980 110.581444 2316.850586
261.559479 -281.906097 2098.300049
-10.655690 118.482964 2244.156494
262.973541 11.056068 2140.866699
262.036987 93.809448 2223.087158
184.719818 110.966728 2327.311279
58.357933 101.876907 2374.159912
94.446579 57.522667 2114.450195
273.202423 -10.213517 2156.993164
280.123138 -23.132475 2183.622070
282.377106 -130.310959 2126.181641
271.246521 -29.303797 2142.377197
20.858829 109.223000 2363.215088
333.467773 26.128551 2200.391846
287.780853 -205.656143 2121.469238
98.785843 -74.889687 2132.710205
259.570709 144.866638 2218.216309
238.041763 -262.180145 2100.825684
258.426300 29.012926 2131.059326
284.827789 -121.847626 2121.223145
326.725769 12.682165 2189.119629
123.678482 -183.048874 2105.557861
173.750748 -278.688019 2105.219482
162.177429 126.634720 2179.604980
253.148102 139.554443 2189.321533
163.471771 -75.053787 2124.688477
74.486885 -110.205391 2132.162598
237.630600 -1.623766 2133.616699
287.628235 79.414436 2299.639160
176.330185 87.741440 2125.917969
255.041443 -163.256195 2116.709961
15.770862 92.903885 2305.938965
140.226044 99.278511 2122.933350
231.704498 117.698395 2158.324707
371.544281 20.190275 2218.545410
139.768234 44.811867 2111.283203
276.404877 -33.676495 2162.621338
38.084484 90.951965 2123.707520
310.100342 83.488419 2301.687012
195.261215 -144.215317 2120.671387
178.206085 -130.162308 2129.483887
295.220306 -1.497331 2181.554199
217.309250 -322.092957 2146.499268
283.317352 24.384090 2210.431396
159.421249 121.616325 2299.934570
142.754700 23.026220 2123.038086
225.327286 -3.433383 2135.238037
12.347455 62.605289 2113.420654
117.879379 -33.616516 2128.296387
173.485825 116.954262 2274.669434
199.466248 122.307930 2181.097412
192.679321 -131.754547 2118.331787
171.236694 18.912645 2131.243164
277.115692 100.868629 2160.592773
289.692749 -293.010406 2104.793701
300.052887 -200.135559 2131.197754
262.573700 62.945168 2135.116699
272.577728 55.381229 2154.362305
189.394394 77.749504 2125.143555
269.080933 46.721291 2209.906494
342.646942 -219.421661 2184.212646
73.063591 -105.754463 2116.760742
49.871655 117.070328 2157.724365
109.062218 115.834320 2259.115234
202.964920 -313.121765 2095.867676
44.787827 136.202499 2135.744629
212.482422 56.466583 2123.177490
164.025665 -2.217171 2195.697510
205.498138 115.224037 2143.190918
272.527771 39.497303 2148.502441
83.056564 118.554375 2154.330078
265.356842 5.250966 2182.170410
17.931185 122.322456 2143.794434
173.668167 -15.505567 2135.042725
306.651306 -130.899384 2117.954834
328.437134 -226.764709 2155.764160
303.914093 -84.231316 2156.276123
40.173946 -49.474892 2115.194336
270.218109 14.011554 2143.403320
116.379448 112.465401 2298.368652
341.158783 -232.220795 2138.821777
23.148975 -218.864212 2101.408447
47.683628 -300.743896 2088.004883
142.997635 -127.095879 2118.468750
14.711333 -155.468536 2113.234863
148.523453 -63.081371 2146.543213
325.078674 19.541645 2195.041260
244.838730 -18.834415 2132.523438
244.998505 96.001312 2133.791748
118.362656 103.122803 2125.728271
272.703308 93.363770 2164.257080
160.785233 135.091797 2150.781494
101.156097 -140.525146 2111.962646
54.168129 77.293411 2127.019043
127.349564 -103.543625 2116.527100
228.401657 136.622162 2269.814209
-0.374110 104.760338 2128.612549
106.483864 92.789986 2133.295166
110.156448 100.169861 2391.058350
230.364899 108.384590 2128.792725
83.626419 -268.925537 2125.989502
168.221649 115.938606 2282.522949
267.163574 83.696983 2303.129395
122.898285 -90.705307 2135.762695
219.425064 128.812927 2155.137451
367.008728 26.434469 2208.247803
225.597321 46.092789 2122.388184
224.703278 -264.226532 2116.024170
229.429932 -205.768936 2110.089111
48.897308 73.261208 2118.077881
51.497017 104.175179 2343.349365
247.473740 137.937622 2213.127930
121.500633 110.831436 2175.337646
22.045139 -74.235626 2112.716064
220.978271 56.547707 2131.045410
380.474976 39.578625 2203.183350
323.908875 -139.669159 2146.960693
98.812431 105.234276 2329.858154
296.533875 -119.102661 2146.871094
15.801219 -52.806740 2119.295898
224.528320 118.501633 2169.426514
260.459473 0.998420 2281.786377
137.933929 51.068768 2116.964355
159.895874 118.711212 2204.388428
-22.897369 89.697968 2406.157715
350.819916 70.837563 2289.754150
307.781433 32.570515 2197.656250
172.758392 44.401852 2126.955322
194.675415 11.916720 2112.630371
-7.941807 109.806931 2154.303223
20.917459 -195.304214 2077.107910
264.342041 78.330185 2218.106934
126.890732 118.803322 2242.438965
127.509354 -155.874207 2113.272217
20.877483 90.715401 2094.079834
75.924217 -132.115723 2110.579346
5.307992 112.239563 2174.466309
119.347565 0.736746 2144.599854
258.693542 -13.045743 2130.472656
79.624992 6.176717 2128.984619
323.354248 90.572014 2308.362549
123.376556 -107.174088 2115.386475
-15.535152 107.758804 2264.209229
60.263214 -77.544617 2120.146973
166.179428 47.706463 2128.312744
229.727951 132.929138 2203.523193
267.829773 142.146652 2158.044434
295.486206 74.177933 2278.073975
10.303878 117.726036 2163.435547
223.912735 -79.953285 2132.063965
196.227264 -250.583740 2111.291504
29.838615 113.344055 2246.942139
64.547493 117.093475 2179.895264
55.068745 96.026016 2417.393066
262.544373 71.893524 2143.458252
119.011841 108.502792 2120.067383
153.563736 -67.700485 2129.278320
170.929184 105.394981 2361.290771
171.489319 -372.094574 2115.750977
256.176178 -200.538681 2106.331787
35.610069 118.102745 2246.472168
292.805725 -78.170074 2138.083496
57.778568 106.892654 2325.232178
100.918518 29.099428 2117.154053
203.952377 54.803165 2131.744141
127.509277 32.454777 2114.702393
91.683708 51.259483 2117.399170
212.270035 107.905006 2127.083252
300.982361 -200.235992 2131.552490
242.191238 125.328239 2166.716309
196.901810 -328.845093 2183.972412
241.183624 105.306671 2382.210449
68.650986 -257.227264 2113.616211
325.835022 -137.912903 2201.037842
121.177979 -110.473618 2120.448242
305.474915 -59.582203 2192.212158
77.149414 77.880272 2121.123535
274.834900 85.453789 2204.445557
157.382477 86.243195 2123.087402
6.163217 99.654366 2351.267578
313.024048 31.442171 2214.804443
237.582062 -258.590576 2101.488525
38.712170 116.522644 2156.818604
357.686737 34.631519 2196.535156
-12.949017 111.524979 2243.745117
329.404297 100.057091 2279.366943
101.374664 107.359558 2127.273438
214.574265 -267.629913 2104.991699
337.924072 13.893069 2181.757080
53.098633 -210.019806 2116.395752
115.584854 -118.249474 2112.318359
270.694855 85.701958 2302.539551
182.795975 129.327484 2236.829834
270.606659 -138.896317 2110.574707
286.584351 -274.222626 2105.934082
294.776550 -11.784953 2165.723877
81.916260 -0.532521 2141.629395
156.535889 -239.125687 2119.510010
138.057800 87.827271 2412.342041
79.166679 -156.909775 2119.338867
258.844513 -107.028015 2123.460693
64.336250 -2.230121 2124.974609
249.318375 87.451248 2371.076904
52.991840 -17.390503 2134.043945
118.509857 94.490211 2372.072754
122.016090 -146.731003 2131.485107
305.552338 -102.467529 2126.680664
376.000519 11.702411 2189.263916
328.403290 -150.393738 2141.555664
238.160751 19.553768 2134.425049
142.726181 -244.209091 2107.928223
417.587952 40.817265 2208.412598
97.152023 -1.538905 2152.264648
318.831879 102.789963 2285.175049
149.753952 -195.580200 2115.499268
-12.523733 128.831192 2209.836182
98.459641 117.387199 2130.079102
244.262833 126.183807 2389.003906
80.560120 -117.725365 2116.469482
220.699768 124.461334 2196.037109
161.507339 -339.764984 2107.538818
298.222839 -299.742615 2130.369385
260.074402 -54.101601 2129.312988
294.351318 -78.167564 2127.990479
237.135910 -267.572357 2115.535645
9.226853 64.971230 2114.008545
274.454712 121.225159 2215.997803
-19.915482 123.117134 2307.032471
268.148529 127.925400 2168.565674
195.404770 123.848457 2272.370850
190.253128 -250.544647 2101.158203
164.444962 135.787079 2186.258789
