ply
format ascii 1.0
element vertex 1330
property float x
property float y
property float z
end_header
-364.180420 -385.203827 2179.768799
-624.372498 -407.149933 1996.538330
-509.786194 -423.183929 2184.864502
-446.652863 -419.728027 2114.888916
-662.818848 -439.511749 2061.754395
-432.047363 -492.622650 2040.193115
-544.284485 -488.334808 1997.888550
-415.152649 -411.307434 2133.048096
-489.595184 -690.035828 1940.058472
-430.167816 -529.292786 2028.932373
-576.017761 -610.730774 1939.186279
-498.096893 -767.811035 1899.212158
-441.482544 -416.176483 2124.380371
-473.993256 -631.912292 1977.808594
-739.818481 -456.962708 1978.225098
-388.532440 -624.217712 2002.014282
-636.050415 -537.179504 1960.190063
-611.785156 -430.130371 2183.190674
-383.406952 -636.552307 2000.195068
-294.939972 -626.971191 2043.391113
-410.147003 -496.104401 2044.664673
-346.658051 -689.874084 1993.763672
-347.581818 -611.766846 2023.848022
-414.677216 -400.972290 2141.288818
-551.843628 -374.501343 2092.654785
-509.232544 -410.976013 2038.232666
-694.241394 -473.312408 2169.387451
-636.060364 -449.630646 1981.906982
-614.541382 -449.369995 2234.346924
-257.633545 -667.904907 2043.584839
-615.581848 -417.322510 2118.109131
-577.091003 -398.927612 2235.093262
-412.772614 -589.535950 2013.562134
-291.149902 -630.957153 2072.732910
-429.933014 -702.583862 1958.921509
-742.112854 -505.091797 2198.486816
-400.070282 -410.431213 2144.239014
-598.276733 -441.992218 1990.872559
-481.440063 -556.509277 2014.671387
-349.408691 -578.425842 2031.159180
-697.848022 -463.858948 2115.613525
-637.799622 -424.479919 1989.285522
-512.277466 -495.480652 2054.680908
-420.789795 -477.542236 2079.078125
-725.840881 -484.485352 2056.577148
-534.275513 -380.455170 2041.489380
-430.296997 -528.047607 2035.793579
-741.047485 -542.565613 2227.553467
-455.943115 -679.129700 1950.058838
-404.911407 -739.780701 2000.577637
-751.745117 -511.362183 2166.070313
-537.894897 -486.115295 2002.187622
-299.387329 -611.125977 2053.608887
-450.528198 -542.704956 2028.540283
-529.623352 -411.527893 2234.286377
-501.442566 -697.908325 1924.468140
-467.339691 -441.314850 2140.669434
-323.190338 -594.633789 2052.781250
-466.544678 -419.498047 2119.889404
-406.723053 -411.874634 2144.928223
-508.619293 -378.641876 2115.927734
-359.830139 -617.920898 2012.625977
-553.930725 -347.132019 2192.807373
-534.819519 -577.881531 1993.843140
-566.930115 -407.501678 2217.756836
-415.176514 -404.879852 2185.364746
-519.111633 -368.641663 2055.484375
-740.464050 -498.920990 2059.362061
-538.286133 -362.065552 2105.549561
-306.967590 -700.532837 2004.616943
-276.622955 -635.513245 2092.258057
-733.638794 -484.852448 2011.568359
-492.906311 -412.198425 2042.502197
-419.708344 -442.533661 2130.721680
-446.333160 -447.896057 2049.081787
-505.635193 -401.181580 2282.867920
-572.725891 -374.508545 2166.516357
-548.485840 -361.945343 2068.136719
-565.528137 -379.725464 2116.167236
-696.300964 -471.335449 2159.876953
-450.708130 -493.433899 2039.682983
-611.390442 -427.935150 2175.607910
-463.837524 -596.663818 1988.807007
-429.154755 -475.364532 2056.655273
-514.798584 -450.006805 2011.193848
-426.097748 -562.884949 2017.121826
-474.275085 -695.879700 1942.045166
-521.246887 -403.448578 2186.560547
-573.884766 -366.256927 2153.661133
-572.030273 -473.599243 1982.954102
-324.585602 -716.417664 1979.540894
-459.718842 -864.578918 2122.321533
-340.849396 -746.807312 1963.229492
-500.704987 -386.995026 2099.814209
-591.104675 -622.629089 1928.176758
-593.546143 -404.075287 2096.314941
-480.853302 -745.549866 1910.779419
-358.497498 -502.727020 2100.852051
-400.969513 -601.059448 2016.725586
-526.517212 -413.232788 2029.354736
-568.968445 -676.083374 1921.076782
-423.608307 -474.498016 2073.963379
-661.660706 -529.864929 1951.190796
-323.083679 -593.335999 2077.154297
-332.513855 -594.940613 2078.521240
-608.299072 -389.939148 2022.363892
-513.459595 -414.940521 2046.040894
-537.825195 -579.178345 1994.300049
-702.896606 -470.099335 2070.007568
-479.067963 -395.843781 2062.663330
-490.003784 -621.848083 1987.535400
-621.908752 -537.491455 1954.371338
-689.789917 -476.416412 2133.176025
-652.557068 -514.422119 1947.400024
-375.620514 -671.518433 2011.205322
-347.906586 -779.531860 2077.949707
-280.203613 -609.272461 2082.142822
-765.982300 -511.220123 2085.983887
-366.559143 -594.500305 2011.901978
-646.777344 -449.574005 2150.032959
-508.267517 -379.058167 2058.153809
-394.372467 -685.564697 1989.733398
-568.825562 -476.773132 1991.347900
-581.394043 -416.254303 2003.495728
-712.963379 -484.292603 2096.649658
-583.201233 -545.464661 1989.496582
-474.847107 -752.439087 1935.646729
-497.758575 -458.201019 2186.613281
-598.438965 -620.498474 1935.635132
-469.174561 -414.710815 2222.948242
-438.695465 -399.480591 2240.582275
-591.947083 -638.244690 1928.228149
-681.502014 -453.147491 2115.631104
-387.724701 -664.984863 1981.499268
-629.849182 -439.496429 2183.156982
-453.088074 -631.384460 1984.418091
-484.869232 -475.529144 2176.495117
-636.464722 -437.115265 2124.684082
-554.676819 -626.776245 1953.506592
-469.134033 -563.024719 2003.344727
-437.363190 -701.073425 2003.968018
-517.966125 -436.864563 2025.709717
-438.048584 -433.297699 2118.778564
-526.757080 -372.344391 2139.485596
-500.577362 -530.030945 2011.671631
-428.894958 -585.146973 2006.742676
-530.473267 -714.496948 1932.125488
-579.937622 -444.335297 1989.175781
-624.314392 -422.038208 2111.256348
-515.802246 -388.236511 2049.345947
-501.724304 -470.176544 2029.695190
-436.830811 -401.748932 2221.586182
-470.775665 -442.147461 2164.291016
-578.530457 -394.742798 2221.429932
-542.287231 -362.282043 2139.663330
-285.759277 -628.080872 2100.778320
-406.363617 -539.407227 2033.959229
-504.855316 -490.302917 2015.704590
-333.573303 -565.467651 2078.463623
-422.794800 -407.608643 2149.322021
-492.928528 -634.769043 1962.240967
-673.820862 -473.498077 2202.735107
-597.519165 -416.841797 2001.496338
-348.512207 -638.240356 2007.327515
-713.196350 -413.327148 1960.629395
-579.800537 -420.819824 1999.382324
-673.970764 -422.957306 2002.757080
-425.952759 -462.766632 2110.053223
-500.373566 -678.984131 1941.709839
-509.988007 -405.310577 2206.598633
-458.364319 -422.797455 2068.990723
-634.877686 -580.020569 1946.701904
-610.597168 -481.124359 1970.189697
-379.191315 -547.614746 2033.032837
-616.592590 -597.353760 1939.420166
-551.847351 -662.060913 1923.430176
-443.514191 -593.162415 2018.707397
-668.815125 -464.320679 2169.848633
-620.360046 -573.901123 1941.405884
-420.420197 -411.211884 2191.240967
-648.146423 -431.983917 2007.496338
-585.828247 -434.033630 1993.162109
-508.669403 -463.232178 2016.284668
-637.069702 -451.999603 2137.428955
-741.716064 -518.252930 2168.625732
-406.605347 -678.751099 1988.242920
-591.583191 -401.979523 2042.571777
-498.336426 -458.430786 2022.409790
-589.945740 -637.479309 1923.127563
-695.528870 -496.121613 1948.330811
-327.642975 -624.332886 2017.756836
-523.531311 -348.528442 2071.856689
-393.615479 -409.638519 2155.000244
-515.377991 -664.798096 1945.795288
-550.927917 -359.220367 2139.844238
-633.146484 -502.014374 1958.453247
-385.856201 -582.867249 2018.779175
-468.552765 -397.212250 2229.576904
-291.469971 -642.515137 2055.142334
-561.889893 -436.437927 1993.714478
-613.280212 -410.864349 2264.578613
-623.302551 -425.532990 1986.037598
-522.029907 -420.823914 2216.103516
-497.882294 -448.693298 2026.544312
-695.222656 -489.681549 2203.289307
-523.111816 -345.010956 2110.788574
-458.601959 -751.513000 1914.201538
-509.530884 -384.017700 2053.194336
-469.032410 -461.334625 2040.722656
-615.155701 -429.537201 1986.702881
-727.979919 -476.936890 1983.413452
-534.832642 -413.631866 2201.379150
-407.724609 -603.662659 2012.744141
-489.186798 -425.084106 2039.749390
-386.775024 -527.261902 2046.527466
-570.092102 -429.449402 2005.467163
-530.014771 -379.802704 2140.997070
-416.991943 -474.716492 2055.899658
-495.254883 -397.263519 2057.906250
-500.543915 -605.789124 1976.275513
-716.721375 -481.727509 2091.696289
-387.281555 -540.512878 2141.968262
-415.583893 -507.484802 2163.228271
-614.994568 -411.877960 2086.729004
-534.929504 -356.282623 2104.863281
-640.832214 -430.542084 1989.878052
-458.781067 -430.465912 2114.125977
-504.417908 -397.917633 2243.608154
-371.907928 -517.130188 2048.911377
-486.056519 -383.820892 2264.106201
-345.376099 -576.008362 2090.945557
-584.898926 -539.694336 1980.782715
-728.321472 -473.444397 1976.297852
-372.868622 -366.919098 2193.080566
-525.711243 -575.567627 1988.668701
-477.488007 -404.653900 2058.086182
-666.364868 -439.734894 2058.210938
-545.980164 -351.032745 2120.253174
-609.761292 -408.708191 2068.553711
-515.241089 -407.759949 2040.534058
-553.973877 -369.579590 2191.971680
-408.137909 -692.246399 1967.589111
-771.643127 -536.920776 2163.041260
-413.354034 -428.102509 2123.712646
-412.329681 -488.025879 2167.226074
-542.127502 -366.181915 2101.724854
-534.368225 -370.858551 2179.468018
-687.982483 -460.677002 2119.375488
-457.834045 -432.706940 2061.585205
-383.088074 -409.926025 2198.867920
-481.914337 -766.874451 1904.450684
-386.936401 -615.709534 2005.496826
-517.052979 -689.656860 1917.728394
-394.983948 -395.742676 2178.922119
-527.945496 -553.425781 1987.891602
-413.153137 -774.860657 1957.972046
-531.595215 -621.377930 1962.207520
-304.473389 -616.397827 2056.875732
-400.667847 -407.002197 2144.874756
-616.238953 -390.545959 2016.141357
-587.711121 -405.513153 2170.748047
-371.544556 -531.174988 2106.788574
-454.821167 -468.749420 2045.007690
-439.890930 -431.985596 2142.934570
-351.906982 -611.594177 2013.021118
-447.898346 -655.248291 1975.807007
-457.042480 -437.597382 2056.925293
-528.462830 -396.219025 2043.506836
-437.502441 -767.439941 1920.333252
-397.751282 -478.796234 2100.544189
-637.607910 -429.536194 2092.211670
-535.034119 -643.522339 1936.442383
-481.390930 -422.275452 2050.493164
-596.788940 -393.082123 2066.849365
-594.345276 -500.798950 1974.610352
-679.193420 -480.365051 2212.757080
-667.409363 -439.086945 2029.164307
-813.743530 -543.744141 2178.718994
-407.333099 -590.913269 2014.788574
-638.772400 -452.307007 2201.035889
-528.279541 -590.512634 1988.838745
-564.622314 -570.218323 1972.542114
-767.998840 -530.867737 2121.085938
-645.942200 -437.422974 2102.564697
-553.451050 -681.822021 1900.183228
-331.794800 -620.191711 2008.525146
-311.517517 -633.411072 2018.617310
-496.453949 -394.608185 2268.044434
-281.934845 -709.672424 1997.145996
-659.981201 -473.141418 2194.249023
-320.529602 -616.321167 2031.794800
-721.746887 -476.795471 1967.995239
-548.694336 -415.174011 2224.315918
-423.427795 -530.052429 2029.204346
-625.068726 -563.603088 1941.522949
-317.847412 -596.107849 2075.903076
-372.216644 -807.284058 2149.430176
-471.302368 -406.596252 2210.800049
-375.060516 -605.381104 2012.677246
-478.987671 -732.544800 1962.188477
-401.321564 -716.723816 1972.745483
-338.464996 -572.755493 2134.531250
-299.265930 -611.890747 2094.954102
-721.365356 -486.509521 2080.157471
-592.411194 -407.543091 2148.492432
-457.707275 -464.424469 2045.767334
-482.647064 -765.924866 1904.672363
-721.486938 -488.012848 2147.244385
-492.253296 -553.133728 2008.914673
-395.935760 -396.660858 2202.990967
-313.839935 -600.859192 2046.460571
-775.137268 -503.691284 2079.298096
-380.974823 -392.684204 2164.306152
-626.788330 -456.722076 1971.839233
-625.358093 -460.827148 1979.679199
-394.833191 -515.445374 2051.112549
-558.147705 -375.497467 2182.225830
-571.949524 -542.804810 2045.319946
-796.382263 -549.514282 2157.454102
-578.349915 -400.082947 2014.348755
-652.323608 -430.350861 2002.036743
-398.443146 -413.895660 2144.178711
-551.038208 -559.245178 1972.575806
-542.686340 -420.052124 2014.215454
-536.523682 -521.264526 1987.195313
-444.929596 -435.417236 2115.626221
-566.208862 -383.341461 2120.748535
-682.973816 -489.039520 2236.808594
-349.876648 -676.130127 1990.362915
-478.359100 -646.277527 1971.548096
-313.710052 -592.700500 2066.903076
-502.815094 -400.319672 2136.518066
-637.609802 -432.035065 2113.199951
-632.085815 -428.608612 1983.628906
-524.207458 -379.394135 2055.302734
-372.777191 -632.293396 2001.863403
-751.614502 -478.771820 2016.073730
-417.713989 -409.484772 2135.440186
-690.513977 -499.936676 2212.726807
-526.414001 -662.347717 1945.555542
-477.173340 -418.056824 2089.964355
-655.770447 -456.122009 2134.316650
-541.481262 -393.900055 2218.034912
-593.924316 -587.064026 1942.491699
-537.496216 -430.541412 2025.805664
-696.193237 -461.353485 1965.221069
-428.292511 -397.516632 2218.426270
-785.556213 -529.329163 2115.769043
-624.096863 -546.031616 1944.630005
-653.008423 -529.487549 1929.006348
-559.575439 -559.829224 1987.682007
-661.691223 -455.686584 2136.287842
-377.551270 -488.877106 2082.874023
-509.512512 -387.682251 2067.074463
-563.393250 -663.511475 1915.431763
-491.607391 -455.321930 2030.245728
-447.987457 -442.006927 2052.927246
-660.584900 -419.000824 2025.943604
-478.788147 -734.907532 1912.635986
-547.761841 -364.095978 2133.384033
-452.664124 -441.502380 2064.607666
-528.987122 -693.612305 1929.422485
-275.457397 -675.608398 2022.796021
-490.568237 -509.677887 2021.954346
-639.663269 -457.728760 1971.600586
-620.740051 -412.333618 2079.808105
-570.489807 -628.650452 1915.254395
-421.839722 -401.453644 2159.421387
-325.133148 -574.917297 2079.616211
-523.826599 -416.577362 2034.717407
-389.790009 -656.369812 1994.656494
-492.170990 -456.910767 2026.930908
-625.361877 -443.392090 2268.937988
-514.412903 -394.867950 2040.410400
-514.492188 -426.767944 2192.018555
-541.440979 -399.049377 2038.048340
-424.557526 -706.829468 1972.655396
-644.604492 -427.557617 1994.739502
-336.960693 -571.024170 2076.977295
-642.144958 -470.497375 2216.968262
-560.612183 -488.160706 1987.284912
-266.575592 -678.253235 2034.229736
-380.767975 -576.174988 2021.788818
-640.079956 -492.619629 1959.849365
-684.660583 -467.387573 2105.473389
-499.371490 -690.635376 1924.479736
-407.824707 -510.074310 2048.135010
-586.947510 -385.900269 2219.253418
-316.606384 -645.394043 2003.204224
-382.479034 -559.577698 2029.930054
-297.743805 -695.536377 2000.546631
-514.416138 -628.100830 1967.626343
-577.074341 -506.428650 1979.726074
-418.534454 -703.010132 1963.148315
-549.226929 -362.338013 2043.438110
-258.087830 -686.889648 2034.554810
-691.338928 -452.801758 2029.718262
-464.003906 -733.004211 1925.977539
-574.815491 -386.568298 2129.992676
-761.770325 -493.643677 2054.193604
-343.642487 -390.692993 2170.765869
-439.055420 -407.958374 2131.211914
-620.165222 -484.677490 1970.047485
-385.757202 -373.417633 2180.559326
-542.942017 -367.975281 2061.342285
-375.417267 -384.857697 2156.383301
-766.296204 -487.665497 2047.097900
-710.146423 -495.982391 2183.818359
-411.416321 -473.175354 2138.466064
-436.102173 -702.699402 1945.833130
-590.374084 -534.419067 2021.584229
-669.126892 -470.095367 2201.050781
-429.500153 -480.446625 2045.614258
-295.623901 -642.143127 2030.158936
-302.881622 -636.037537 2137.924072
-695.453552 -432.312073 1972.056641
-571.843445 -368.598663 2063.640381
-584.155640 -449.073395 1993.728149
-617.583130 -439.185577 1978.549438
-389.043640 -490.423523 2070.309326
-764.279602 -543.384277 2129.865234
-567.022278 -502.306641 1985.681519
-392.067169 -531.397034 2035.414795
-582.085022 -381.072449 2023.485962
-348.934998 -580.618408 2024.510620
-507.224701 -667.425049 1944.661621
-482.172974 -433.616669 2121.691895
-384.540283 -614.314941 2014.943237
-374.244202 -795.483215 2061.795898
-450.112122 -735.742737 1958.639648
-508.851440 -397.515839 2037.673218
-702.291443 -493.722198 2178.712646
-668.603638 -480.992889 1934.825317
-695.700134 -460.530518 2018.667480
-475.156677 -642.726624 1960.475586
-512.490417 -527.196472 2010.338257
-638.368530 -445.739502 2183.816162
-665.903992 -468.147919 2202.731445
-502.502747 -404.253479 2059.120605
-569.991943 -388.254333 2119.659912
-456.493591 -527.338867 2032.135620
-418.090576 -547.324097 2024.620483
-349.463501 -644.572754 2002.432251
-352.577789 -534.300110 2039.935791
-389.179718 -730.561218 2009.920288
-576.359619 -379.471283 2194.058594
-732.483765 -513.508545 2194.547607
-601.697266 -616.090332 1917.561157
-608.704529 -403.227356 2070.931885
-343.322296 -542.401184 2049.580811
-762.562561 -521.777161 2099.740967
-528.808777 -436.812653 2024.234985
-281.589752 -663.787720 2042.510986
-628.509705 -428.469116 2105.119141
-530.724487 -500.565247 2000.612305
-490.765198 -683.369568 1942.597412
-744.592651 -504.150726 2030.474854
-464.725159 -729.039490 1935.107788
-434.213470 -390.735016 2229.239746
-504.543457 -382.113525 2218.385742
-310.038727 -625.191467 2039.860352
-637.416748 -559.040955 1949.394775
-687.304688 -494.845764 2251.736816
-424.009033 -712.423767 1979.889160
-707.856689 -474.868835 1961.603638
-538.159851 -386.200409 2037.754883
-525.008667 -721.165710 1896.749512
-512.307312 -378.046234 2054.944824
-552.342285 -428.846893 2019.014648
-431.553436 -501.172333 2040.307129
-479.440155 -719.047363 1942.598267
-716.306213 -468.911163 2003.204346
-721.891113 -532.657043 2246.796631
-364.632355 -754.549316 1941.755249
-294.530487 -645.237305 2027.001831
-455.454254 -689.766174 1956.208984
-596.981018 -408.317688 2027.869507
-480.301758 -393.190613 2073.229736
-314.075958 -721.104431 1990.590454
-703.685364 -457.127533 1950.589966
-618.380432 -419.417908 2156.316895
-750.118774 -519.753845 2128.665527
-632.658020 -525.733337 1949.150757
-559.811401 -617.128113 1935.709351
-560.924316 -478.964661 1997.194214
-477.540619 -445.608704 2161.365967
-294.411926 -613.120667 2072.166992
-424.211090 -423.300690 2129.905273
-716.406860 -484.631866 2086.886963
-572.841553 -373.587433 2167.652588
-498.244598 -401.163666 2049.798096
-538.008972 -369.693481 2155.792969
-270.422974 -628.413757 2095.616455
-405.736359 -484.031219 2056.631836
-591.943726 -405.965149 2192.239990
-491.754913 -434.740295 2135.573242
-496.046143 -408.395355 2051.116211
-517.440247 -619.999512 1970.988647
-482.012878 -748.455688 1912.088257
-351.733032 -510.420105 2096.599854
-468.380798 -381.120941 2252.974609
-600.455139 -386.036743 2071.276367
-643.935791 -424.116425 1980.842407
-450.283447 -705.411499 1937.528809
-658.742188 -444.021271 2077.855469
-267.548370 -673.188721 2040.338501
-440.888062 -526.503174 2028.040039
-579.240173 -474.242828 1982.719849
-404.676178 -673.115479 1990.539307
-463.939880 -482.917114 2039.883911
-596.243835 -399.474426 2207.054932
-659.527710 -468.095581 2205.414063
-435.105133 -450.744537 2107.346924
-590.649902 -397.250824 2026.662720
-673.868225 -429.303253 1994.360474
-414.443970 -490.268738 2085.579590
-713.794800 -483.453796 2160.784668
-383.500549 -739.557861 1960.834717
-776.250793 -513.689209 2104.876465
-481.786407 -473.923889 2040.177856
-493.034851 -692.813416 1933.614624
-560.187988 -584.256775 1987.362793
-472.562195 -424.209961 2058.154053
-379.629974 -597.569397 2031.878662
-393.524017 -504.185089 2056.135010
-740.161377 -521.377075 2195.430908
-328.176025 -617.680603 2030.716064
-708.838196 -460.778656 2007.600586
-618.083191 -469.052917 1975.460449
-431.715851 -624.564880 1994.912354
-531.557556 -625.801147 1957.806885
-657.912354 -438.260590 1987.349121
-791.129517 -540.189453 2136.462402
-569.635071 -378.350037 2185.194580
-813.736267 -552.010498 2202.604492
-690.429321 -490.926422 2213.167969
-594.928772 -401.172638 2009.709473
-491.186462 -640.437866 1968.120728
-577.412415 -399.376404 2139.134766
-544.701538 -623.733459 1943.192505
-463.286896 -455.516602 2141.297852
-337.464203 -598.430725 2123.826416
-505.142365 -385.739807 2046.865479
-629.610535 -481.924713 1967.980835
-606.475830 -460.308777 1983.854736
-420.931122 -490.195984 2054.012939
-592.894104 -433.774200 2282.059326
-572.572632 -473.091583 1984.302734
-605.983215 -413.518066 2012.334839
-485.815094 -376.946442 2075.817871
-391.216644 -724.923523 1961.040405
-679.719299 -515.263245 1952.868774
-524.681335 -403.589783 2032.177612
-533.854675 -434.479340 2024.409424
-642.456543 -428.866852 2125.303467
-559.734009 -404.857330 2021.649536
-475.829407 -634.506287 1969.794067
-625.562866 -570.313538 1922.614746
-612.078125 -455.515381 1982.317017
-553.025574 -391.369476 2051.825684
-675.193542 -482.883759 2243.566406
-304.884094 -683.456299 1990.982910
-521.043823 -621.717896 1969.040161
-513.536377 -670.225098 1957.276245
-287.671753 -659.749390 2016.330078
-606.317566 -401.586823 2021.919678
-445.795502 -449.232666 2104.232422
-577.318176 -556.195190 1985.855835
-294.431091 -607.964355 2068.888672
-398.539154 -405.290466 2147.958984
-488.267914 -777.777893 1895.998047
-616.974670 -563.248413 1940.880493
-568.532471 -581.666260 1986.470825
-698.900330 -494.157776 2196.321289
-586.791504 -565.113220 1951.524780
-388.854767 -488.261322 2070.589844
-539.855164 -442.563263 2021.548584
-585.268982 -587.121948 1941.422485
-681.294189 -492.236420 2265.109375
-470.801056 -465.679718 2038.570679
-601.906555 -575.531799 1958.833008
-729.070740 -521.872253 2243.758057
-500.431824 -393.366028 2053.407959
-620.895813 -415.820709 1994.393311
-589.113953 -389.698364 2205.314941
-643.567566 -524.658936 1964.196533
-371.761414 -403.202362 2195.252441
-378.787323 -490.837006 2070.521484
-570.001160 -390.885193 2089.198486
-566.344177 -443.202789 1985.037842
-516.142212 -416.993256 2200.884521
-634.313293 -435.955444 1987.285156
-461.393738 -364.829285 2233.518311
-499.569489 -654.056641 1954.263794
-450.619232 -413.776733 2118.389648
-460.412781 -733.188171 1935.530518
-375.872040 -546.128784 2034.477905
-548.297363 -408.756165 2220.234375
-597.136719 -405.179932 2246.453125
-542.084961 -357.868958 2052.994629
-676.630127 -463.705811 2113.596191
-293.081787 -649.896851 2039.471802
-676.067383 -442.440796 2036.641235
-439.890289 -408.571899 2133.518555
-733.512207 -495.997223 2066.107422
-373.966919 -397.541443 2159.425537
-609.391785 -403.834290 2040.936646
-414.527679 -418.338104 2134.943359
-679.708130 -466.769104 2134.437256
-495.593414 -393.525879 2055.659180
-390.931519 -683.692261 1991.557007
-538.698914 -363.052490 2092.730225
-671.460876 -471.679077 2255.933594
-486.011932 -404.419189 2060.842041
-376.024231 -504.647858 2065.905273
-409.059387 -743.849792 1924.741333
-360.515533 -552.315369 2111.296143
-658.605225 -411.914642 1980.660767
-511.908844 -497.340881 2013.325195
-512.602600 -716.250061 1916.104126
-505.222992 -649.770691 1965.519165
-345.940979 -782.015320 1963.916748
-492.909180 -710.853027 1914.765137
-644.444946 -439.587097 2102.393555
-538.513489 -393.347961 2178.007813
-597.911255 -381.459930 2025.139404
-732.694214 -488.893951 2044.166870
-727.924805 -505.867493 2131.927246
-609.366882 -419.470032 2123.324219
-491.084991 -376.415344 2069.214844
-349.870361 -540.310974 2047.604370
-365.260986 -647.447632 2000.259277
-648.078491 -460.745789 2145.629395
-288.113281 -672.969299 2034.017700
-431.378265 -592.366455 2010.466187
-504.659149 -432.650696 2192.959473
-692.827881 -490.587708 2169.667480
-706.491272 -457.629486 1952.385864
-584.829773 -486.584778 1972.113770
-380.161316 -547.536865 2035.074829
-450.668518 -594.286194 2006.998047
-675.484375 -488.656921 2212.072266
-694.971252 -464.657623 2070.665039
-498.729218 -422.795776 2043.558472
-416.124176 -480.036072 2056.385254
-283.347748 -614.994446 2055.075439
-780.414490 -539.666809 2127.827148
-505.551544 -665.391724 1944.038940
-528.654419 -393.016266 2161.209229
-719.023743 -501.655548 2141.306396
-400.847473 -548.093018 2031.458496
-588.380310 -556.342407 1959.882080
-261.790344 -664.061829 2115.929688
-494.301025 -397.546692 2056.201660
-509.971283 -432.029633 2035.400024
-447.085846 -455.657898 2088.229492
-603.834229 -415.096313 2127.140869
-452.965057 -433.158752 2059.578613
-519.137817 -371.420319 2072.123535
-258.215027 -676.991699 2092.206787
-580.798523 -385.818115 2029.384766
-521.817078 -401.463501 2180.603760
-606.806641 -431.528137 2195.287109
-408.888855 -596.496948 2015.792603
-599.310364 -438.097473 1982.564575
-564.938049 -379.917511 2038.582275
-619.893555 -502.816284 1963.021973
-682.304016 -483.326111 1937.090698
-249.255112 -654.160095 2111.953125
-388.428009 -513.950134 2043.833740
-436.592834 -468.106995 2047.932251
-588.367432 -407.072113 2014.878052
-531.868713 -672.792297 1893.469971
-529.391113 -379.130371 2042.599731
-323.359375 -645.734131 2024.611206
-679.713928 -449.151550 1968.815063
-565.265686 -442.860443 1999.424072
-349.696930 -573.492493 2035.264648
-266.112610 -720.778442 2128.000977
-586.123718 -392.005463 2087.458008
-668.529358 -460.126801 1968.073975
-490.555695 -695.802612 1932.878906
-404.809235 -616.578552 2003.683472
-565.017212 -368.405060 2128.439209
-473.902283 -747.549805 1970.667725
-673.817322 -466.958130 1960.871460
-702.637085 -494.052399 2199.924072
-584.473572 -590.011536 1943.980835
-397.999756 -569.163086 2027.493530
-596.945740 -421.833038 1997.240967
-390.764954 -557.796326 2040.883179
-658.301208 -534.887329 1932.111328
-819.689270 -571.429504 2212.018555
-511.382507 -395.504700 2243.873535
-705.325562 -511.060516 2194.175049
-678.378723 -461.086700 2160.990967
-504.158203 -376.040344 2102.552002
-538.178223 -422.052582 2220.460938
-384.156708 -555.748901 2166.616211
-410.379883 -416.412933 2149.496094
-591.273987 -542.316772 2036.462769
-612.198120 -555.666931 1916.022949
-471.062561 -382.243134 2243.272705
-613.363708 -561.880615 1949.608887
-377.492096 -493.309692 2076.393799
-683.193726 -477.990234 2242.323486
-293.074463 -619.119995 2099.070557
-528.614990 -590.933777 1983.273193
-551.995361 -371.007874 2055.715576
-531.594849 -621.950684 1965.795166
-491.692230 -420.131439 2147.193115
-301.346588 -650.473206 2043.818359
-560.579346 -605.902832 1960.275391
-704.376892 -486.798462 2210.573486
-560.514343 -595.440796 1950.170654
-532.631836 -399.599701 2194.433594
-415.595032 -476.306580 2059.324463
-586.123657 -392.785431 2029.771484
-654.339600 -510.816193 1944.051025
-755.211609 -540.159058 2177.411377
-531.586304 -406.228790 2028.513184
-309.799316 -636.908630 2033.761108
-573.509827 -491.564423 1980.633057
-376.006378 -606.080200 2012.848755
-600.378296 -403.371338 2033.391357
-516.764404 -509.276062 2015.175049
-357.370331 -693.403015 1985.892700
-381.671936 -411.912537 2187.403076
-524.328125 -400.773468 2035.262817
-484.236603 -389.242584 2100.723145
-309.989838 -669.357605 1998.924438
-492.202057 -758.066284 1907.270996
-298.425598 -608.077393 2059.238770
-728.951111 -509.866394 2170.253906
-466.210541 -540.614502 2013.694214
-365.611328 -555.083130 2053.843018
-577.140564 -471.836548 1981.634155
-782.427429 -536.782776 2122.300293
-663.262207 -423.415771 1997.173706
-692.301331 -472.480652 2104.551514
-358.099670 -545.572327 2044.577759
-331.631561 -766.707458 2069.037354
-386.244720 -489.371155 2103.239990
-686.888489 -484.322510 2160.506836
-292.905487 -610.734619 2065.477051
-523.076782 -671.682495 1922.152344
-332.189331 -692.395203 1990.494507
-361.209961 -678.529419 1991.840210
-472.664368 -451.812561 2041.492798
-648.595764 -461.281769 1965.291382
-723.534119 -494.776581 2131.138428
-428.635529 -479.454437 2055.324219
-471.058228 -420.502167 2065.790283
-711.017578 -497.575470 2170.008545
-266.867462 -645.143250 2067.940674
-644.514771 -412.193054 2000.416138
-604.584839 -506.770111 1965.702148
-464.164642 -380.975616 2250.416748
-628.186035 -439.833221 2167.945313
-597.980042 -409.674194 2178.730713
-590.449951 -570.657837 1975.237549
-495.782715 -391.735352 2054.766113
-600.901550 -556.683777 1956.020752
-520.310303 -596.632629 1972.158813
-524.015076 -609.352356 1977.160767
-528.872314 -419.968445 2021.746216
-669.396851 -512.112915 1938.963379
-497.788574 -719.756409 1960.936890
-495.427887 -368.924072 2083.851807
-614.051392 -570.157776 1939.336182
-479.566803 -529.597778 2014.046509
-624.746277 -421.002930 2071.491943
-306.860413 -618.475769 2036.228149
-575.494568 -396.303314 2016.415649
-331.374969 -595.490906 2042.274658
-540.939575 -369.266296 2147.306152
-528.732117 -541.896606 1995.318604
-603.617859 -399.513611 2230.955566
-358.562836 -748.598877 1968.244019
-406.460449 -389.839722 2158.069580
-465.801544 -434.175446 2048.692139
-571.184387 -367.470581 2068.608887
-356.226746 -531.328308 2070.919189
-381.701141 -374.024170 2178.260498
-672.508667 -444.419891 2022.763672
-599.836792 -502.209656 1978.166992
-377.608398 -702.507568 1978.526245
-543.457397 -665.893616 1922.518677
-484.680237 -482.270172 2182.491211
-566.619568 -370.467773 2152.142822
-516.004639 -360.986206 2072.353271
-621.874756 -601.382507 1931.066162
-478.707275 -387.939362 2077.246338
-501.687866 -396.026825 2053.954834
-524.514709 -411.925690 2039.023071
-388.029633 -646.916870 2006.122437
-547.518799 -606.840576 1958.951416
-401.898987 -402.690582 2176.171143
-596.295410 -415.876740 2163.797363
-440.229187 -562.005920 2017.920044
-633.163879 -441.818420 2161.730957
-606.501160 -483.527466 1972.944092
-504.229736 -375.152130 2100.425293
-359.777252 -524.212891 2062.509521
-492.680511 -381.918274 2062.855713
-405.095947 -707.624390 1961.499512
-349.384644 -623.668152 2016.553711
-436.406403 -714.012207 1967.978760
-351.084961 -571.121582 2032.845459
-481.272919 -470.309631 2034.036377
-480.132629 -436.452972 2041.677856
-364.436920 -740.556213 1962.564941
-676.625671 -520.338440 1962.501709
-619.761292 -419.125183 2077.795654
-554.014404 -658.973572 1924.615601
-638.297363 -448.071320 2250.763916
-444.068146 -400.266846 2151.609863
-398.747131 -703.374084 1983.368530
-463.217468 -448.388092 2123.903564
-642.413757 -440.641571 2114.706299
-735.103943 -495.076569 2075.238770
-533.044067 -696.378174 1934.306030
-585.934998 -448.929352 1987.450928
-445.406342 -424.724335 2109.460938
-787.060059 -552.623596 2187.316162
-503.195465 -712.277466 1925.686890
-662.801941 -507.312317 1952.172241
-468.969788 -414.637817 2093.905029
-325.940155 -589.964478 2061.959961
-565.727356 -407.226410 2243.836182
-479.646881 -448.067932 2157.400879
-662.928040 -481.823273 2264.583984
-535.574585 -369.526855 2075.050293
-483.890198 -725.703125 1924.426880
-679.950684 -492.226929 2238.601807
-655.608521 -489.376221 1961.479370
-797.449646 -519.700989 2135.838867
-386.011932 -524.980774 2091.312500
-625.526306 -437.447968 2179.906006
-385.724365 -547.303284 2034.292358
-266.897461 -626.492920 2078.269043
-501.145752 -433.037292 2025.882080
-654.513184 -453.521881 2141.745361
-417.626648 -515.075195 2042.055542
-348.246490 -704.617188 1970.597290
-501.361877 -477.367096 2033.754883
-449.004486 -642.369263 1981.237549
-540.474365 -421.648743 2212.038818
-544.171204 -365.819244 2066.106689
-632.505493 -463.956146 1986.846558
-586.618164 -569.838379 1971.123657
-641.427734 -432.577301 2070.941650
-327.370483 -602.693115 2037.514526
-644.294128 -450.913422 1974.129639
-362.460632 -414.987305 2149.446045
-570.205811 -384.348816 2029.092163
-327.416840 -584.686096 2061.307373
-486.805878 -401.119934 2215.749023
-748.743530 -482.924042 2024.493896
-508.441040 -373.726196 2129.909668
-626.506409 -420.447754 2054.693848
-599.841187 -535.544922 1976.700439
-553.793823 -382.965302 2178.031738
-630.559509 -450.175598 2183.379395
-402.069763 -508.987183 2138.550049
-587.809143 -395.328430 2256.996582
-376.004303 -506.691162 2063.275146
-622.656555 -428.820496 2058.795166
-596.596313 -413.027435 2152.108154
-466.031921 -422.901428 2056.148682
-390.947632 -684.883179 1986.853027
-278.424652 -640.803711 2047.921753
-457.100372 -440.363525 2137.631104
-515.444946 -676.804138 1921.398926
-723.548523 -459.249268 1961.696899
-598.556885 -435.072693 1988.854736
-467.656860 -560.579529 2009.189575
-497.389893 -767.591614 1900.349609
-277.864838 -618.831177 2082.638672
-408.593750 -404.961731 2162.622803
-427.325012 -532.142456 2033.005371
-726.075745 -491.690338 2004.316284
-438.611908 -709.965332 1950.423950
-608.800720 -444.457458 1980.771118
-576.927185 -400.274719 2012.685425
-413.830048 -585.069336 2023.542358
-523.058777 -413.913696 2270.439209
-599.046997 -600.317322 1937.028076
-538.871704 -645.625732 1933.672852
-307.198181 -648.496765 2009.193115
-355.371948 -560.105896 2027.752808
-315.503479 -594.876648 2053.268066
-600.344421 -424.637970 1992.389893
-605.063110 -408.604004 2111.976074
-522.616882 -406.771515 2265.308838
-436.743073 -627.000977 1987.822998
-726.917419 -496.606628 2129.339844
-423.729675 -508.374329 2035.466675
-450.709106 -428.307251 2170.345947
-459.281952 -690.355103 1949.323975
-604.064575 -417.709534 2203.051270
-520.054810 -414.408264 2226.352295
-560.081482 -480.570190 1997.246582
-500.170197 -517.970093 2062.407715
-353.134003 -613.741211 2016.521606
-681.103271 -465.648560 2048.358643
-524.321716 -674.002869 1920.766846
-305.951324 -611.132080 2071.930176
-284.168823 -671.692078 2038.469849
-404.687866 -400.958954 2176.400391
-575.747314 -642.754578 1925.395874
-474.939850 -581.146057 1997.447266
-588.629089 -612.957947 1934.634644
-520.777283 -346.391663 2087.810547
-661.618652 -452.858887 2100.029785
-616.529846 -411.263336 2273.868164
-586.405334 -653.525635 1925.378052
-611.346924 -425.761627 2178.352539
-341.851959 -606.055420 2150.050049
-414.950500 -757.330566 1942.402466
-455.614410 -762.048767 1909.564941
-542.978638 -444.122742 2019.666748
-382.420044 -696.460510 1979.079590
-430.256561 -492.664093 2039.802856
-326.895599 -570.330383 2096.963623
-630.196289 -430.457886 2093.950195
-643.351135 -450.374939 2186.232666
-486.073853 -884.734680 2131.491211
-327.692169 -704.388367 1998.450928
-548.263123 -423.964081 2024.023315
-497.396118 -425.963654 2038.252930
-591.983398 -397.502808 2006.093872
-378.040009 -763.063110 1983.446655
-606.529541 -434.601532 2187.772705
-563.896240 -554.799744 2000.493896
-790.512268 -514.576111 2113.832520
-343.198486 -398.224518 2162.350342
-534.084900 -390.932098 2160.645752
-392.746613 -485.780426 2087.674072
-448.953400 -504.688416 2033.534302
-555.136047 -438.665497 2001.387573
-518.800110 -359.084839 2095.161621
-454.456604 -724.179138 1933.177734
-609.283569 -414.514557 2088.619629
-562.037598 -611.510620 1887.817993
-420.830658 -669.358521 1973.301636
-639.713928 -451.295898 2202.079834
-717.873535 -471.184814 2050.422119
-554.373535 -458.084015 1999.108521
-754.191895 -525.861633 2171.237305
-340.532898 -531.495117 2104.644531
-551.695068 -362.598328 2117.894531
-432.346375 -471.524170 2129.394043
-399.387512 -492.197235 2048.230225
-341.131287 -584.574402 2037.636353
-300.054443 -613.208862 2103.226074
-433.621826 -418.936798 2152.161865
-406.906891 -638.451050 2012.463501
-446.015869 -443.171509 2065.107666
-632.677856 -528.129700 1966.370483
-605.465881 -438.163635 2224.994385
-780.201538 -548.556702 2178.748535
-743.889099 -520.920959 2187.379639
-603.473938 -398.994934 2249.482910
-476.634583 -457.196106 2153.763184
-604.933289 -551.946472 1951.185669
-520.902344 -556.535400 1991.519531
-758.257874 -512.679138 2070.928955
-584.860168 -401.701233 2251.275879
-359.991943 -578.894470 2026.317017
-431.300903 -461.273468 2051.365967
-417.895477 -767.565735 1932.625854
-664.590637 -486.093536 1957.584717
-441.255676 -659.950684 1975.618652
-591.685364 -402.839813 2115.029053
-359.026855 -544.647278 2042.688599
-611.583374 -429.910095 2284.207764
-301.365295 -688.400024 2024.482910
-669.185181 -449.848999 2065.080322
-700.745911 -456.365173 2018.510864
-709.280640 -511.215057 2184.676514
-748.761292 -531.234192 2213.800293
-401.844025 -559.276001 2031.572388
-724.114502 -515.127869 2204.464600
-682.672241 -452.507599 2027.238403
-585.167908 -415.133209 2179.352783
-471.045898 -773.980774 1906.616943
-456.951721 -755.883301 1905.182617
-516.957214 -570.179993 2006.246582
-576.824402 -614.443298 1931.148926
-544.054077 -366.944153 2081.820068
-442.916016 -561.466736 2023.172119
-553.711792 -600.528442 1960.412476
-541.566162 -394.291748 2028.336060
-378.314301 -744.052307 1946.218628
-296.274200 -601.617981 2044.430908
-699.005371 -462.225647 2081.141846
-513.540588 -699.529419 1950.483887
-546.330444 -437.756317 2013.340454
-390.159760 -630.337158 1999.177368
-425.870544 -472.143768 2050.260010
-546.656616 -433.783752 2009.894165
-517.586304 -425.407806 2028.233521
-588.552063 -398.615570 2081.351563
-618.934265 -414.183441 2263.992676
-506.296021 -360.809082 2063.539307
-532.372681 -380.637451 2046.343262
-466.197418 -748.227173 1932.193848
-326.674713 -676.938477 1998.373413
-475.254242 -430.049072 2142.289307
-670.912537 -469.092743 1969.870728
-656.592590 -425.012756 1986.971069
-632.147705 -438.133453 2216.974121
-514.341003 -479.089874 2023.057861
-499.714233 -412.146240 2043.247314
-456.311279 -757.974365 1911.065063
-544.337524 -534.582947 1998.209351
-562.029907 -413.406311 2218.864258
-498.927246 -677.592346 1943.399414
-523.720520 -359.015930 2107.083252
-443.381500 -478.751801 2042.188110
-581.828674 -615.739258 1934.908691
-479.587097 -402.415771 2234.106445
-623.224060 -467.763184 1974.952026
-495.361542 -543.469360 2018.517212
-533.968628 -421.941223 2198.622070
-594.262939 -430.242981 1994.242188
-564.486938 -387.275452 2028.049194
-416.733856 -421.543640 2125.277344
-502.761047 -407.305511 2047.314209
-375.547699 -395.587708 2156.777588
-433.589355 -398.958099 2122.626221
-442.689178 -407.358490 2236.000000
-409.274750 -714.295593 1957.249390
-465.273651 -620.072449 1980.383057
-449.027710 -428.322296 2124.424316
-779.599548 -517.537781 2095.579590
-697.273315 -502.319336 2255.474854
-735.804443 -506.776581 2146.676270
-495.157013 -509.711517 2025.412598
-564.981262 -482.163910 1984.392090
-702.221863 -481.230225 2130.218262
-347.696167 -718.067139 1970.466431
-367.461426 -603.416321 2017.501953
-378.970978 -730.049194 1963.360596
-302.471375 -596.968872 2048.036621
-372.656158 -397.551422 2153.613281
-525.129395 -362.342987 2091.502930
-377.516113 -506.384857 2053.141602
-616.335022 -579.887451 1945.120117
-525.537048 -714.744812 1910.223755
-308.821899 -615.912964 2055.750732
-613.718506 -524.600159 1964.693481
-473.824005 -389.623138 2241.993408
-610.031616 -429.867615 2188.033936
-371.638428 -370.736938 2163.773926
-679.087097 -489.966370 2188.147949
-469.394226 -410.706268 2067.307373
-462.528961 -486.219421 2046.347290
-457.999969 -560.635742 2019.226074
-563.325562 -363.388123 2044.634521
-442.093140 -511.560638 2034.119141
-508.527008 -416.829559 2146.677490
-604.958008 -411.190033 2094.643066
-468.183533 -402.588745 2077.099365
-763.286865 -538.926819 2114.995117
-568.274780 -452.489105 2003.363159
-726.315674 -508.175537 2192.078369
-469.055878 -594.582703 2000.487427
-516.387451 -419.270294 2038.449585
-805.455200 -574.093506 2218.755371
-591.833923 -439.855560 1991.948364
-741.473389 -508.669983 2128.552734
-428.862976 -486.963440 2050.533447
-530.218445 -437.696869 2017.608154
-438.499573 -599.479858 2008.293457
-507.203522 -395.998627 2208.196045
-359.920349 -529.087891 2058.671875
-682.504822 -485.412262 2213.272949
-538.437866 -381.673767 2037.732422
-614.973816 -429.778412 2185.582275
-448.168152 -400.419250 2135.482422
-632.010376 -435.515533 1980.419434
-424.445435 -706.366394 1958.896484
-430.277191 -690.047302 1967.776978
-623.832092 -440.195801 2195.538574
-264.495697 -633.446594 2064.880127
-435.153290 -370.694733 2226.680176
-699.557129 -478.306793 2099.022949
-279.837006 -742.333130 2120.219482
-360.676086 -516.360046 2058.836426
-562.683105 -367.912109 2121.978516
-545.520874 -553.060974 1981.493164
-333.487305 -560.378784 2069.647217
-638.624207 -451.375336 2207.671875
-649.417297 -443.441559 2175.895264
-514.181519 -606.086304 1980.962036
-737.331604 -495.041077 2053.207520
-650.458252 -460.847809 2212.849121
-381.784515 -521.699829 2045.531372
-457.601837 -449.919800 2051.615723
-370.999176 -749.718323 1972.335327
-300.367126 -635.299011 2030.256714
-294.703796 -630.235779 2055.726563
-652.635559 -474.281525 2250.970215
-394.488281 -672.121155 1985.912109
-346.015808 -385.150818 2176.708496
-561.749817 -407.690216 2019.573120
-558.115479 -515.135132 2066.710938
-524.570007 -351.818054 2063.577881
-420.194031 -544.445190 2038.797363
-374.464325 -514.028259 2049.439209
-398.789124 -711.739380 1965.567871
-545.940796 -622.965942 1944.437622
-390.300903 -740.670898 1961.912476
-411.983521 -694.875000 1969.606567
-463.505585 -728.521545 1940.588989
-680.947632 -477.627991 2151.360107
-729.522461 -508.737244 2104.421387
-531.127014 -703.416687 1887.684448
-586.356018 -410.802277 2143.800537
-303.437866 -638.358704 2142.955566
-284.698608 -655.895325 2051.467773
-645.817383 -413.960236 2003.419922
-613.549377 -426.128174 2278.558105
-342.201324 -565.498108 2071.109131
-406.866333 -476.691498 2068.177490
-718.084167 -475.226990 2016.240845
-652.346313 -456.071655 2186.642822
-504.822723 -619.301331 1964.867310
-450.496918 -587.124329 2003.170166
-536.404175 -456.816772 2004.448120
-467.754456 -409.296570 2087.190674
-715.835876 -490.269714 2143.164795
-366.539612 -588.523560 2023.037720
-579.209167 -482.552856 1982.753296
-531.000183 -369.734131 2120.453369
-659.692627 -434.858398 2012.506592
-607.152466 -399.444977 2264.288330
-706.380737 -471.696259 2050.381104
-539.094788 -409.860626 2037.506104
-723.004333 -481.710419 2006.899170
-623.579407 -445.240356 1995.515259
-393.487488 -546.725586 2032.935425
-586.177490 -589.210510 1958.711426
-544.141541 -495.196014 1988.131592
-280.609100 -655.645813 2022.984375
-683.374451 -466.092529 2126.238770
-604.808777 -456.620178 1996.419067
-542.280029 -352.769684 2131.290039
-613.066528 -409.360138 2001.727173
-587.292297 -384.039276 2198.233398
-420.696747 -415.644348 2176.797119
-623.231506 -573.349060 1921.647095
-581.995911 -374.528015 2187.821045
-515.953979 -475.632935 2004.741699
-467.300659 -461.404205 2044.263794
-422.320435 -437.882263 2135.059570
-586.568542 -393.596252 2024.389404
-779.125366 -542.502441 2141.612549
-402.919464 -681.307861 1968.726196
-623.853271 -496.914825 1976.053223
-651.892822 -448.788757 1972.889893
-621.688904 -395.266876 1999.200684
-272.469849 -733.366638 2124.918213
-450.460663 -453.951599 2090.987061
-514.193542 -734.954529 1905.588501
-642.506531 -430.487488 2123.802246
-586.130981 -543.282898 1979.438721
-578.884888 -593.147644 1897.304688
-390.139893 -440.717133 2131.882324
-525.244812 -583.849365 1984.442261
-465.118469 -437.606232 2109.938721
-526.836426 -360.862213 2109.285156
-708.116760 -488.731720 2161.042725
-387.301086 -594.308594 2020.092529
-389.729431 -528.608032 2044.709229
-467.233734 -606.725830 1998.177979
-550.607239 -380.053802 2036.395630
-394.282867 -658.649963 1998.953491
-283.578278 -605.464294 2070.159424
-650.224304 -435.579529 2091.276123
-474.997375 -427.855621 2101.957764
-259.560883 -637.976257 2060.387451
-424.744019 -451.186615 2119.892090
-798.035522 -558.778870 2214.810547
-599.574280 -527.567078 1970.662109
-712.393311 -467.701813 1997.448730
-350.263062 -611.656616 2011.699341
-576.155762 -382.826355 2207.161865
-388.591644 -745.551941 1952.004028
-503.994507 -417.606873 2042.292969
-515.923950 -723.645386 1898.577026
-510.311005 -642.380920 1971.088135
-466.470551 -401.177521 2228.096680
-527.230469 -595.185242 1977.891113
-589.966553 -409.192719 2166.778320
-666.663635 -511.113342 1941.849243
-597.287476 -385.349792 2025.325439
-623.902893 -480.651398 1968.104248
-381.918060 -764.299744 1980.611694
-375.942871 -595.481140 2033.018066
-480.074158 -405.163025 2076.230713
-457.413452 -717.675903 1939.669189
-475.690308 -394.513947 2079.625488
-539.804565 -448.652374 2008.944702
-459.337433 -436.703461 2134.058594
-461.253082 -394.270874 2227.632324
-533.201965 -368.047882 2130.210449
-346.425995 -570.299011 2047.194092
-337.817017 -645.844116 2007.172729
-539.891785 -358.409058 2072.938232
-486.481140 -503.805878 2016.961914
-682.749878 -453.891205 1992.424561
-408.615967 -634.940308 2013.153442
-519.525391 -423.201019 2207.268311
-492.060944 -742.881409 1917.201172
-669.921082 -428.670288 1978.055054
-338.061676 -812.071777 1964.724976
-522.585449 -404.691223 2246.434082
-602.536255 -380.568115 2038.955322
-574.354370 -396.584045 2240.485596
-526.621216 -722.567810 1907.012451
-519.687439 -622.717651 1972.492920
-770.496582 -529.475830 2196.203369
-439.989349 -409.865265 2232.798096
-559.941101 -363.907532 2065.538818
-502.070129 -432.303772 2035.613525
-740.784180 -527.724060 2210.566895
-531.040894 -377.788727 2151.354492
-588.820190 -475.823486 1975.033325
-458.442108 -541.647827 2030.333862
-423.414429 -463.417755 2073.380859
-364.245209 -768.626953 1961.182373
-432.446198 -451.574768 2060.665283
-675.852112 -506.287872 1960.095337
-618.711853 -404.372772 2035.960449
-445.157959 -559.907166 2012.409790
-293.128754 -603.691284 2084.985840
-733.811035 -512.840515 2188.850098
-515.861694 -361.270203 2082.665771
-514.290222 -484.676361 2027.266968
-456.992371 -479.353638 2046.944214
-543.314941 -397.053040 2238.912109
-654.624878 -459.800812 2184.534912
-612.952698 -499.332947 1965.057861
-395.046631 -484.154572 2067.991211
-402.230011 -610.967346 2027.558960
-716.003601 -467.655701 2013.679810
-499.004791 -419.266632 2039.033936
-317.147034 -636.656860 2026.154907
-251.320190 -641.406799 2063.744141
-566.170654 -402.612122 2219.695313
-540.465698 -461.129425 1996.130615
-389.837799 -494.747833 2051.256104
-254.365097 -680.711426 2053.990967
-816.957703 -564.038879 2212.721680
-711.685791 -481.265442 2085.737549
-672.925232 -456.361664 2074.633545
-746.055542 -508.528931 2115.315430
-293.260681 -622.969482 2049.251953
-491.654541 -361.540741 2080.444336
-321.153961 -645.506165 2015.843262
-608.772522 -579.133728 1936.535889
-530.489441 -483.461670 2005.797729
-479.216980 -516.848083 2033.847778
-541.437866 -601.782410 1972.475342
-535.061890 -413.737915 2215.662109
-418.985992 -590.686646 2032.366577
-799.545837 -536.148010 2164.782715
-598.386902 -510.859711 1959.376221
-553.775757 -457.823700 2006.796143
-715.486145 -475.757996 1975.945923
-581.925964 -404.304230 2152.426025
-430.804413 -412.473480 2172.521973
-510.053528 -535.837463 2000.822388
-496.913025 -378.729279 2078.356201
-291.985382 -623.250244 2044.105591
-644.205566 -437.113129 2107.393311
-676.680786 -522.177429 1939.972778
-256.977844 -668.278687 2043.502930
-707.270081 -472.672363 2044.935669
-290.699158 -733.684448 2043.537598
-525.022400 -417.821381 2264.390137
-523.090088 -467.651062 2013.894409
-328.094208 -606.901428 2020.478638
-361.297882 -681.090942 2003.141479
-496.431824 -454.510925 2020.394653
-421.158630 -385.827484 2162.301514
-739.559448 -509.750061 2141.865723
-632.574707 -432.984100 2109.416260
-540.410034 -352.561340 2120.806152
-782.584290 -520.526123 2117.774170
-444.030365 -648.551025 1980.345581
-585.607178 -405.550446 2002.373901
-320.730225 -597.507446 2049.123535
-490.839294 -589.235718 1998.947021
-572.255005 -390.170197 2208.793213
-374.852081 -754.077759 1939.676147
-382.155212 -521.868530 2038.183350
-467.508240 -467.035400 2034.431885
-393.726471 -547.243347 2032.738037
-473.113373 -403.157166 2219.260986
-668.433411 -441.701813 2039.855103
-442.097473 -511.751068 2033.272095
-410.329132 -727.134521 1966.569702
-579.992859 -380.092621 2196.971191
-543.153198 -349.797394 2106.798828
-711.904602 -496.531464 2236.963867
-676.531616 -510.768677 1949.055054
-496.547516 -381.955994 2055.854248
-641.431091 -556.427551 1949.635132
-417.944916 -554.915283 2027.863770
-431.876404 -738.014404 1926.787476
-459.641846 -398.815582 2218.386475
-557.139221 -483.064056 1982.049561
-645.250854 -424.304199 2023.568481
-733.767273 -510.881500 2180.144775
-661.213135 -460.585449 1964.321045
-307.450317 -607.521973 2088.639648
-627.769348 -430.509247 2121.957764
-642.171570 -420.809021 1983.359009
-572.736694 -380.845917 2028.298462
-639.016113 -425.381958 1988.033813
-589.823303 -597.407227 1938.021973
-472.237823 -385.628601 2247.372559
-354.226288 -550.464478 2104.044678
-525.905884 -656.127686 1944.002075
-298.628448 -638.986084 2024.605957
-548.460022 -374.311401 2045.175293
