ply
format ascii 1.0
element vertex 1382
property float x
property float y
property float z
end_header
1163.755005 1864.913452 204.707275
1115.482178 1792.803833 324.824890
1046.360352 1830.577026 192.907501
1075.585815 1898.954834 458.499329
1191.492432 1936.793091 454.690735
1195.721558 2007.082153 438.146606
1211.009888 1978.754883 183.710617
1195.034424 1984.347900 452.878845
1218.093506 1998.716187 183.607758
1202.302612 1999.036865 421.616943
1122.570068 1813.981689 173.544159
1063.543213 1812.171753 272.575867
1074.400513 1830.698120 161.048904
902.934875 1904.162476 424.898529
1213.115967 1957.969971 208.728363
958.961426 1873.970825 428.458649
1197.510986 1894.721069 387.738037
902.213379 1909.312256 345.600403
1000.626282 1866.498291 417.958557
1087.417725 1828.571899 154.556030
775.862427 1969.388916 468.853943
1183.252441 1861.856689 421.505280
907.505554 1905.998169 350.824738
1106.905396 1816.156250 328.948883
1120.047852 1797.684937 377.757843
928.688171 1899.819336 435.303558
1128.171387 1896.643433 441.683197
1207.880371 1972.701660 219.704926
1229.133911 2013.567139 339.772552
863.297424 2040.951172 489.026215
840.878662 1941.403687 458.010376
928.967957 1885.054077 209.954422
1077.803467 1893.126831 538.709473
1103.195068 1802.671143 239.738831
1160.663086 1842.692139 414.888580
883.888794 1907.402344 387.028168
1136.196045 1804.849976 337.724213
1144.905151 1950.156250 462.336884
806.680847 1938.726440 167.636963
1173.365479 1866.660278 378.934204
1206.941772 1940.296509 327.935242
1071.484863 1838.415771 196.587616
1068.219604 1820.709473 395.420776
1210.488525 1982.767822 171.421600
1215.599731 1999.489502 154.935364
1132.335083 1786.944824 370.890594
1181.140991 1951.897827 453.338715
1037.313721 1833.008057 217.494781
1219.430176 1988.625977 301.863281
849.472412 1923.224609 198.148758
1107.529907 1871.388550 419.069946
1175.290405 1890.247559 224.908554
791.453369 1943.791016 309.478363
1045.706421 1811.522705 250.249619
1009.685852 1858.234619 316.520660
1221.027588 1934.428345 405.256134
1078.252075 1810.510986 286.947693
759.068359 2055.992676 405.471863
763.958130 1952.578735 428.379028
1057.144287 1827.869751 152.662689
880.838867 1920.817627 431.973114
1062.197388 1876.625732 485.652496
1052.455933 1831.531250 198.846191
1180.692505 1945.897583 484.655762
1061.859375 1817.890991 379.147736
961.089539 1915.125732 447.114777
1162.200806 1857.018921 222.279922
1170.689819 1870.227417 216.399338
904.314697 2014.310181 469.739594
833.418640 1926.168457 171.997971
1223.837036 1999.472046 341.891235
1051.253662 1829.327271 354.737427
807.976990 1957.600952 230.370972
1089.331909 1819.250854 242.262863
1210.133423 1889.639771 409.024017
1188.981812 1920.564941 352.129120
1004.330261 1865.938477 296.388245
1152.017334 1830.221680 314.032806
1188.413208 1931.514404 190.505310
1244.509277 1973.312378 410.721893
1148.371826 1935.114136 492.329498
1092.509521 1905.659790 524.758484
1211.638916 1976.504883 210.523178
928.749207 1910.328613 478.035706
1049.403687 1824.882446 204.695831
1083.437622 1901.283447 553.917358
859.533264 1934.417847 445.636871
989.280334 1873.274170 444.990356
1128.620483 1791.591675 242.447433
735.730225 1972.586060 429.116669
1076.251343 1811.069092 333.405548
1137.681519 1803.108154 356.713654
1029.209473 1841.315552 198.735260
928.122070 1880.065674 160.914383
1128.008667 1800.072876 332.422821
1032.562622 1838.020508 306.391541
818.274292 1905.592041 178.953262
1214.153687 1909.191040 400.596924
1047.819702 1818.027954 324.668945
1083.883423 1906.333008 440.910553
1085.232910 1926.303711 480.806000
1065.723511 1820.433960 204.465134
1001.814087 1857.165161 287.777893
1233.286133 2007.698486 211.684357
1035.089355 1827.603394 383.463623
1162.402710 1874.615723 420.739502
1120.981445 1808.919312 393.718811
1149.925049 1853.579712 414.484070
1046.261353 1819.007935 173.151932
1077.814453 1805.059937 338.638306
907.044434 1896.927002 442.086884
846.672241 1974.638184 313.424988
1165.114380 1864.505127 216.783646
951.955688 1889.472412 460.204834
1078.143311 1888.302002 566.579163
947.504272 1896.533203 235.111176
811.620239 1946.714233 462.607330
734.142517 1971.498291 240.801468
1009.289612 1869.868042 219.048111
900.512939 1894.076904 194.293686
798.499390 1958.088501 441.097290
909.581726 1903.911987 370.804871
1182.434326 1918.999268 176.092010
816.322571 1955.083984 284.946198
975.941467 1866.531006 409.136871
1167.451050 1934.348511 423.600861
912.236694 1895.209106 167.589325
1238.388672 2074.495361 159.146484
1145.877686 1800.788574 404.440033
1174.474243 1889.328247 280.236206
895.766479 1922.246338 455.202332
1089.081055 1808.791870 229.137711
1238.720825 2029.532104 352.186005
890.640259 1913.426147 242.230072
917.235718 1904.280396 240.257187
1154.870117 1871.868042 150.588486
757.571472 1961.684814 197.477875
1161.172974 1865.028320 416.968689
1138.081055 1797.577759 381.884521
1232.095215 2043.837524 342.300720
1036.371216 1819.224854 368.572540
1243.701782 2057.732422 156.499054
1184.394165 1920.896484 241.908951
1104.284302 1806.212402 231.114410
909.473206 1968.064941 478.470001
1071.901611 1826.717896 406.738953
1036.149902 1841.238770 306.048950
751.578430 1951.907104 383.499023
765.120728 2035.185669 465.006897
868.508240 1935.847412 438.077148
899.082458 1917.553345 314.176788
1062.251465 1841.449341 182.405548
978.018494 1873.267456 342.743530
837.026489 1928.540527 433.092499
839.983276 1942.781250 456.670471
1053.340698 1834.020874 395.207001
759.875427 1970.441528 358.439545
1134.557739 1806.987793 244.106995
790.975952 1995.968506 495.893707
875.315857 1936.226196 456.319672
887.142273 1904.565674 388.211731
1105.725830 1815.842896 279.110748
1047.098755 1880.042236 458.369263
912.168884 1882.585693 447.570648
984.830444 1875.705322 193.535675
1179.491211 1911.582764 320.920898
1184.634766 1967.664551 439.164520
1113.533081 1802.715698 391.026917
1122.708130 1809.400391 156.170410
1225.386475 2023.968262 182.903030
1136.534912 1803.221436 178.948227
1221.746460 1971.729004 363.247772
768.716614 1987.339233 482.244781
1173.925293 1856.979858 407.468170
779.045715 2001.408447 468.172516
1240.255371 2051.528809 254.712189
1156.780518 1798.769409 144.408218
1082.727295 1801.491943 354.851471
1025.715454 1860.783569 431.236084
1145.238525 1820.788940 394.391846
1014.333191 1871.317627 258.955505
1188.036987 1859.622437 403.932129
930.279236 1899.617432 393.796753
1165.587891 1844.488892 378.235596
1083.451294 1906.601807 444.823944
857.653748 1922.683472 222.144150
1018.489136 1845.782349 401.890808
964.127075 1876.412354 416.811249
774.203003 1947.386353 206.204407
1192.983765 1989.821045 473.496216
1090.531860 1807.362671 224.406097
1139.764160 1834.831177 415.908203
1092.251953 1896.766968 484.377625
933.446472 1889.934326 303.138580
1130.805054 1918.600098 434.540039
1003.827026 1852.508545 402.709381
768.757080 1954.567017 440.200104
1175.924072 1875.654053 215.483780
1048.300049 1883.063110 545.363831
825.984741 1935.945313 319.649933
1005.076904 1867.192261 426.508453
1235.665039 2006.431030 301.388428
1035.966675 1835.511230 289.633301
884.636169 1917.723999 269.036987
916.571045 1885.215332 450.465118
1174.980469 1883.413574 146.869019
830.362061 1975.363647 466.477966
1020.204468 1899.552979 454.099182
1122.706299 1790.178711 158.425903
1013.108826 1853.174683 298.156616
1010.472534 1904.098145 455.816284
1085.441772 1890.295776 504.525879
1149.342896 1853.081665 153.326950
1092.405762 1808.330322 246.174652
788.269531 1953.583252 368.615570
830.396118 1931.202881 227.811493
805.529297 1949.189209 412.596313
1186.034424 1962.031738 454.600769
1152.271240 1935.214722 515.659851
995.068481 1856.089966 393.908905
984.401123 1865.630371 401.658203
1251.279785 2043.163330 277.979187
1205.028076 1885.050659 412.116516
1001.456482 1882.532959 232.255463
799.306152 1928.694580 180.329865
1143.718018 1850.369263 196.399750
906.150330 1920.489746 440.862732
1092.954102 1884.254150 545.612366
836.101990 1934.581055 434.353485
893.717529 1929.973755 463.614624
1151.220581 1845.501343 302.936462
1182.337280 1911.323975 418.391418
1134.901978 1817.715820 156.052231
1105.370361 1816.311768 274.852264
1144.418335 1941.429565 427.114532
1202.819702 1957.083862 359.919281
1050.175537 1824.248047 305.065887
1081.607910 1880.166260 527.023376
939.222961 1892.518188 310.151855
1023.231262 1897.728271 454.443237
842.931152 1937.375732 240.048203
1198.736816 1936.102905 183.482056
1116.611450 1819.429077 151.124039
1058.745239 1875.715088 467.224182
968.534363 1882.606934 204.181076
1101.642456 1816.202148 168.146332
1124.233765 1792.039185 243.011459
1002.214905 1852.513672 203.262711
1187.405029 1894.982422 425.149658
1082.330811 1838.675293 151.869431
834.157898 1923.704346 203.964752
1044.868530 1822.420410 279.735962
1216.741821 1977.448120 367.833405
1118.316528 1811.081299 352.664886
760.515625 1957.442505 200.366852
1165.810669 1937.267334 510.088226
1178.232910 1892.602905 416.129974
1027.773804 1861.844482 234.523148
1213.719849 1978.418823 310.739563
1086.037964 1808.427124 210.899170
783.429993 1978.174438 282.024963
953.455322 1880.428589 364.588318
1061.504150 1889.006958 568.216370
1086.792236 1801.776489 278.283905
1236.248901 2014.700195 408.338989
830.947876 1938.452881 304.679932
1136.150757 1811.495361 418.341156
776.818359 1946.832275 366.668701
887.995422 1907.806030 443.515503
801.289490 1985.973877 495.457458
810.902832 2170.290283 372.962860
934.787720 1887.569458 419.630249
1060.373657 1900.308472 437.069672
899.583984 1910.215942 180.239594
787.072571 2004.557373 473.576172
1022.096130 1833.546753 328.560516
1168.207520 1871.598877 219.846619
1107.817139 1799.252441 363.045074
1150.858887 1834.693970 334.711914
921.245911 1887.337036 398.931152
1193.895386 1981.855957 461.293671
1196.821289 1849.611572 394.938751
1113.013672 1799.625366 230.360840
1131.740234 1793.199463 393.231476
933.081360 1949.339355 458.292999
1062.957642 1887.714600 466.856812
1063.291382 1816.404663 234.324631
1118.325562 1807.020264 165.843369
941.550598 1909.043335 472.540771
863.205383 1950.451660 280.396973
1079.067749 1808.226807 363.048035
799.401062 1943.107788 369.640625
1154.469482 1840.732544 219.294586
1046.906982 1819.160400 347.840942
1236.562622 2042.056396 175.383209
756.298279 1981.860474 435.281158
1113.491089 1788.949341 268.611542
1090.512817 1881.328857 552.018555
1087.801514 1811.888794 388.316986
983.552429 1882.157227 224.233917
1044.485962 1886.310547 522.539063
1112.090576 1813.264648 270.985962
786.579834 1950.995483 169.312134
1059.069702 1835.006958 178.149918
889.675293 1904.679321 451.294678
754.635254 1951.316772 343.996277
1007.804443 1844.869873 164.382660
1144.624878 1824.124878 297.680817
800.146606 1935.672241 207.375885
880.784485 1932.905273 362.914063
1205.312500 1979.325073 157.023422
1219.768311 1963.189819 420.772705
865.834961 1990.835815 484.018677
1084.267700 1821.750122 421.298676
968.223572 1896.763794 447.986633
943.975586 1881.386108 434.990387
1247.969604 2047.818359 179.618713
1097.328003 1895.613525 533.895081
922.276794 1894.249146 315.292114
883.618835 1917.081177 284.205872
1019.273071 1852.805542 415.587402
1134.020142 1933.069214 534.541687
740.642578 2018.020508 347.666046
1016.412354 1846.854980 198.912781
1183.367310 1941.717163 146.513443
989.168579 1858.663574 207.529984
1038.821289 1838.044189 224.196884
1196.055054 1940.702148 276.671936
912.604675 1908.323486 351.923309
1044.651611 1825.586548 343.354248
817.076721 1939.858398 371.538361
1227.065674 2047.439941 217.056656
1079.391235 1895.582031 558.296265
852.604858 1962.088135 469.688782
1136.913086 1793.685913 307.070801
1170.988892 1943.074951 459.497925
863.228882 1917.718872 345.022186
908.672974 1904.951904 261.639008
848.559326 2005.221191 480.854980
1219.212036 2007.031860 149.536057
855.408447 1920.449829 356.714905
1134.090698 1814.137939 261.323456
871.504883 1913.663208 181.086075
1155.878418 1839.877808 346.959930
1247.257813 2017.193604 373.345276
1095.032593 1807.250610 351.147552
780.635376 1948.433105 168.615387
940.570801 1877.231079 437.482544
1139.161011 1796.429077 257.014923
941.901611 1892.961548 230.414780
909.951477 1884.198975 432.711975
1235.416138 2043.099854 184.509201
911.674255 1913.038574 439.073700
1176.472168 1885.239136 334.949799
1010.575623 1850.755615 395.950806
1190.879150 1972.378418 425.421692
1243.912598 2024.898193 362.961823
987.783813 1888.350586 426.194946
771.280334 1988.972046 456.587524
1095.363281 1796.709351 366.123108
764.352966 1957.122559 455.668060
1163.426514 1892.796875 270.935791
902.886047 1895.185059 393.063568
1020.057312 1857.373535 209.242722
1012.552612 1877.523438 421.898956
1034.219849 1895.204102 291.359558
894.495911 1927.607788 463.065125
928.043701 1880.104736 162.125031
1202.351074 1951.876709 270.507446
906.585815 1894.469971 412.362213
793.677551 1952.079224 272.935028
1190.913696 1918.447754 353.408508
1185.878540 1939.828735 159.646484
1023.464844 1849.773438 380.490356
791.443115 1941.642944 374.108673
1088.474609 1795.168823 315.748932
1015.788147 1847.158691 212.360138
917.244202 1945.225830 457.489868
861.057251 1971.553467 465.867279
1084.653809 1806.503784 297.930115
901.519165 1906.280518 165.600342
818.897034 1927.006226 209.003723
1055.291260 1821.811279 330.061096
1114.896973 1835.905151 429.175842
1178.386841 1849.776489 392.517853
1073.550171 1813.464966 270.568665
888.536133 1913.638306 314.312225
924.315735 1893.255127 168.444458
1147.758789 1931.890503 423.625153
891.118713 1896.477905 443.206482
1109.685791 1840.299561 414.128082
943.373962 1876.896851 179.664368
962.351074 1882.948975 351.220612
1090.032959 1878.599121 530.114929
1246.919189 2026.260864 357.625122
974.616943 1877.906372 406.141266
1225.614258 1987.970093 264.850800
876.806030 1916.209473 451.993622
1096.580200 1863.058105 420.303253
1189.363037 1954.589355 454.977966
1054.814087 1881.394775 574.348145
1011.764832 1850.478760 174.677155
1112.612183 1806.801880 374.384979
826.463562 1930.311035 342.567200
1053.153931 1820.937744 256.288361
1096.944824 1890.150391 420.595398
774.922180 1957.236938 337.239136
779.670959 2110.587158 398.117645
1069.152710 1884.043457 527.303833
1074.946777 1883.459961 523.901917
885.039673 1916.201172 255.039764
744.591125 1973.780396 372.087830
1064.282593 1822.849609 194.626251
1105.639526 1809.968018 397.790375
742.451233 1965.329102 329.264862
1244.480835 2059.114258 250.982010
1058.853760 1822.681030 208.322464
976.280701 1876.506592 302.070038
804.367126 1938.561035 445.527527
1188.921875 1926.673218 202.779709
1109.776855 1795.960815 236.343643
930.193115 1911.200195 466.794281
1062.978882 1871.316406 460.597656
914.285828 1896.847656 331.633667
801.896179 1945.141113 317.188110
761.198547 1969.961060 265.333130
1060.873901 1815.566528 251.974564
999.044250 1881.430176 429.414398
1166.359863 1832.637695 405.680634
907.015686 1905.289185 299.893463
907.723328 1898.285034 229.470901
808.230957 1951.443848 180.163818
1106.365845 1874.477173 429.552521
1175.002930 1896.823120 287.679596
1081.015259 1827.136108 407.387787
1017.586975 1840.951660 405.178558
1216.012695 1967.578979 421.111969
1153.874878 1952.643311 450.075104
1218.908203 1993.760986 339.578674
829.768738 1941.809082 452.064392
824.228760 1933.535767 418.363586
773.526611 1958.696533 374.866943
1077.748169 1875.141113 479.217896
1150.662964 1825.385620 283.479431
1156.548828 1840.597290 297.429779
749.568115 1958.192017 225.061325
931.722290 1881.084473 196.517029
926.852112 1913.428955 455.517303
1142.916626 1905.964478 420.199005
1176.356445 1834.800049 400.656189
750.681519 1982.425903 308.195221
815.048645 1926.530884 162.614075
1167.101563 1877.433716 312.014404
1193.997437 1963.946045 504.203979
826.889221 1953.087280 458.090881
1039.232422 1900.665894 435.856049
1068.413086 1806.439453 338.142914
930.416321 1894.094238 309.804108
1092.649536 1918.705811 464.122742
1214.161499 1959.502808 295.980591
1077.990845 1879.746704 531.436218
1096.169556 1915.138306 532.967773
1227.966064 2057.104736 263.576324
937.254639 1881.825317 419.204895
1028.341309 1845.651611 341.876770
1172.067139 1864.811157 256.465363
1225.007324 2015.399658 184.452271
894.725037 1900.656372 453.677185
1213.191162 2003.847778 351.813507
962.842407 1897.875488 452.422852
903.942627 1890.614624 441.267639
1147.888428 1828.107300 312.497437
1162.676758 1863.827881 222.451309
1139.116455 1942.254150 509.438751
1116.458252 1795.915283 361.464417
1168.261230 1861.389648 262.290405
1167.284912 1953.352173 467.309387
1152.079346 1830.250000 310.220184
1177.441284 1896.348267 201.407242
856.594238 1920.630371 228.267029
785.669006 1954.966431 414.820190
1106.579834 1807.739990 399.625519
783.794128 1954.710693 416.077881
832.061096 1946.862183 491.614899
1070.961792 1896.157593 452.520721
1009.552734 1845.152344 355.889160
1123.711426 1803.314087 409.058838
864.268066 1922.257080 381.125275
851.858887 1924.245361 443.042480
877.809631 1919.503540 244.471298
1161.515015 1857.598755 419.071259
991.037109 1899.429443 455.213776
1012.204590 1873.312134 427.456787
977.127075 1874.038330 203.971390
1201.954468 1863.088989 415.849792
1088.116943 1931.062500 467.728058
1015.135925 1856.628174 422.687408
1180.548096 1929.246094 172.311111
1031.461426 1848.928101 350.791382
1134.425415 1812.974854 340.547363
1192.828857 1881.517456 413.507721
1063.228882 1893.082153 459.731598
979.491028 1861.140503 410.168182
1153.379761 1937.551514 468.285919
1114.313721 1798.237183 198.517136
1047.006104 1831.751465 345.598907
1064.701782 1806.200562 316.882690
1189.883667 1936.646240 357.573822
1032.859497 1889.833252 420.778687
1065.309326 1892.120850 435.070404
1025.285034 1847.585571 236.521240
903.862061 1906.086304 278.050720
987.621704 1965.781128 486.038666
1148.574463 1807.269043 148.674316
1168.450806 1904.831665 266.711243
769.496460 1946.292480 418.093048
1146.083252 1848.278198 155.046982
772.883667 1942.999146 205.904556
1036.445923 1842.680908 349.280548
1232.647583 2027.029785 286.362762
917.044556 1910.269287 377.407013
1151.687500 1841.365845 200.095413
863.820251 2010.457886 485.597321
1181.209106 1845.720947 404.483215
1062.972290 1823.461548 371.142792
1225.475220 2053.145996 249.482071
1092.609863 1809.151611 398.113373
783.121887 1979.103638 276.871094
1077.638306 1827.678833 217.700592
1175.720459 1905.920410 169.147278
772.645508 1994.691406 237.701965
910.972412 1907.531860 233.286728
899.497314 1903.252563 395.296295
1045.440308 1832.857300 150.210220
826.989990 1994.325195 499.288208
958.039917 1870.218384 159.384109
787.043640 1964.927002 449.315491
970.192017 1885.338623 309.862610
1196.831177 1864.589111 418.387787
1087.924316 1815.198853 304.728119
994.568665 1852.350220 156.563660
1234.258179 2028.047485 312.863312
1034.759644 1829.097778 341.165894
966.859070 1875.164307 368.733032
771.319641 1985.849487 235.890091
786.082642 1941.587891 400.698181
794.530029 1946.731567 334.404602
1079.575806 1817.684326 399.404724
1195.503906 2002.037598 458.043854
794.997559 1965.412231 456.157928
920.147705 1891.967651 466.597931
1174.192261 1954.534302 460.855164
1187.094238 1913.096680 339.962830
752.376404 1977.233765 332.590851
1022.174072 1850.345825 412.497437
1027.118042 1846.703491 317.281342
1039.992554 1833.195679 349.097015
1236.338379 2034.431030 406.177521
1090.083984 1879.941284 426.685425
885.585693 1905.500977 371.164246
1070.674561 1827.810913 378.574646
1147.822510 1859.743286 427.792999
1197.333252 1847.362549 425.486389
932.069519 1944.697021 476.424622
1098.171265 1801.131836 320.057709
1118.654907 1793.994385 332.970978
1097.753052 1801.905884 223.384232
1245.225952 2066.207031 224.188202
791.315491 1943.403809 276.284180
1211.500854 1976.510254 199.913651
1045.502197 1896.615234 508.232361
882.138184 1912.687866 378.106140
1240.476685 2012.398804 225.081100
1130.416260 1790.447388 330.758270
1125.503662 1799.937134 307.834229
1096.097900 1914.773193 536.911743
1137.253052 1817.097656 263.674377
902.963196 1904.678833 271.831909
1175.205933 1850.600586 396.746552
1037.745239 1828.551636 364.793152
1186.053101 1906.844116 351.169800
886.062134 1917.183960 470.827881
775.802246 1953.143921 247.263779
1105.167114 1814.988403 397.535736
872.138977 1916.710693 339.429352
1024.062134 1847.223999 379.263947
1199.933228 1946.145630 237.744858
1243.535034 2078.987549 152.488464
1190.713135 1923.257568 363.529327
776.632629 1998.796875 312.656128
1052.756958 1830.924683 272.410736
834.725647 1930.542114 335.207794
1152.536377 1821.110107 413.167877
1139.906860 1820.499268 347.336517
910.894348 1901.815308 363.871185
944.663147 1879.242188 403.531891
839.539124 2017.348511 490.590576
841.742798 1933.774536 437.533722
850.259399 1966.580200 470.798615
865.679688 1917.015747 432.768982
902.419189 1902.382446 360.437073
1031.748169 1831.052979 333.719116
1024.299805 1900.526367 430.191986
1193.091553 1944.538208 165.343307
1053.402344 1885.993042 422.203491
1212.350220 1945.713745 421.032318
832.743896 1931.684570 445.737823
807.896484 1945.753296 336.569885
1004.166504 1854.234253 401.422089
1145.698853 1824.742432 273.433502
906.437927 1913.918945 189.261948
968.100891 1897.127075 254.574570
1091.384766 1804.506592 367.138245
856.444641 1982.136108 478.429047
1150.816284 1851.147217 197.869751
758.892700 1949.067261 421.760223
1057.217407 1823.609131 227.173401
817.939697 1929.104736 179.088989
1050.665649 1886.962524 578.935852
931.293213 1900.719849 385.470734
954.470886 1886.413818 300.702148
1048.246704 1842.700073 418.782410
980.449524 1877.917236 211.798126
1103.251953 1776.176514 168.773712
1076.011597 1871.837280 432.698944
1106.978882 1840.370117 417.935852
826.001160 1940.191650 302.260498
1065.350098 1874.766479 497.044769
1117.512573 1813.510864 225.046295
1194.048828 1954.294800 144.372253
937.315247 1888.128540 434.308350
1016.579346 1851.479980 355.374359
1203.703857 1876.511108 424.485352
759.149353 1961.992554 292.587952
1179.568970 1840.746948 403.918640
1062.505005 1820.833008 256.052521
1243.345337 2028.337524 236.052750
1070.635132 1871.492188 469.359528
1194.266357 1920.958618 383.313507
1050.426392 1828.484985 230.583405
1188.244507 1899.978394 147.806183
1133.058838 1821.028198 199.090057
1145.617310 1848.651367 332.954681
785.091492 1946.804688 461.247894
1171.511841 1874.651001 309.159027
1232.640991 2007.681152 141.582535
1018.478088 1861.770508 297.125275
1174.589233 1837.317627 401.725311
1246.662354 1993.827759 396.549561
1018.584412 1855.383179 372.630524
911.316040 1886.735352 425.449036
1141.759521 1813.946533 292.013184
944.031860 1878.531738 401.530579
1136.700439 1801.009399 399.578186
756.545898 2019.231934 453.714386
1062.454956 1820.982910 208.080246
1245.325928 1961.652832 409.923157
933.897888 1886.148315 262.920685
1163.231689 1853.927734 369.590332
1029.677246 1890.508423 446.495422
1126.863770 1869.785767 426.361847
877.441284 1918.273682 339.191528
1166.211060 1877.777954 419.135468
804.094727 1943.554810 168.270737
1091.179688 1800.147583 355.567078
752.897705 1983.372925 398.205139
953.188171 1880.481689 368.529724
1034.390503 1849.013062 163.177872
1215.101807 1952.854370 420.864044
1129.638062 1791.470947 207.803070
1225.088013 1978.358765 367.003662
899.650757 1891.267090 437.170990
775.555725 1949.427368 361.283875
1048.820679 1818.079834 257.441772
1081.503540 1917.619141 439.301453
1004.499023 1893.007324 316.791504
754.885193 1944.832642 217.477432
843.411011 1949.234863 255.251434
952.267212 1880.282959 225.103348
895.277222 1894.443726 204.426331
1127.193604 1792.248047 353.460785
819.876221 1919.280762 214.669250
768.955872 1939.894165 181.927277
891.824890 1939.688721 473.523651
1227.651123 2038.526123 314.949860
1002.135132 1859.141357 386.526428
845.883850 2016.471680 483.713776
1143.387573 1840.223633 356.136658
900.689941 1907.924927 259.553864
1102.877075 1826.932861 165.965942
1163.889038 1940.707642 428.746521
1042.488770 1834.744629 328.814423
898.068054 1899.214722 258.386780
858.440186 1922.882935 224.639313
808.176331 1913.982422 179.425812
1143.762695 1850.632568 276.636261
1064.848877 1826.541138 387.364929
1075.295776 1811.937500 257.102448
953.320496 1882.092041 309.362823
843.254517 1926.808838 247.511963
833.018738 1975.808350 480.485229
1135.916748 1791.888062 165.371262
785.718506 1935.628174 198.114227
1202.730469 1982.778320 430.130646
1193.886353 1968.057129 415.255127
1102.446899 1801.153320 343.516632
1090.439575 1810.543945 410.096893
1124.836060 1937.878296 525.321106
880.424988 1904.682373 431.248993
1068.378906 1883.804443 494.171021
1159.086182 1952.392334 465.860840
1117.687256 1809.281006 161.561035
1114.655518 1798.731934 196.857651
1087.984009 1812.705200 398.964935
916.329346 1901.104248 339.829498
1194.249512 1938.841675 251.094666
1110.728760 1841.866211 417.786011
974.650879 1879.118652 264.727783
1206.425781 1970.125488 199.362930
953.933228 1888.967163 271.519104
764.279297 1992.926270 275.141815
906.698120 1905.605225 312.274017
735.403687 1996.320679 397.179108
942.091003 1881.367798 162.907104
1069.377686 1872.361572 424.662415
746.754150 2037.348633 263.432800
939.147705 1879.921875 429.354309
1197.348633 1877.566406 414.555420
868.167603 1920.826660 322.327118
1234.251465 2031.294678 280.675079
1152.409302 1860.583862 354.577728
1035.731323 1827.899048 317.445374
769.739746 1957.914307 376.121552
1099.168091 1971.721191 427.554352
866.214111 1942.277710 452.439240
922.769043 1901.421997 157.084274
990.452393 1871.463745 206.985092
1055.681152 1839.302856 174.925797
808.699646 2177.806641 254.393967
934.942871 1893.759155 263.775360
1101.621094 1824.426147 402.901245
1041.332520 1883.778564 451.580170
918.134277 1890.664307 177.146271
1051.932129 1824.055542 328.095123
1096.202759 1817.383545 168.443741
800.592224 1953.850708 424.387604
953.883240 1876.025269 217.909760
1135.791016 1793.062744 254.581985
1016.104248 1845.457520 195.463165
875.674133 1914.604004 398.322998
1199.401367 2025.012573 428.167419
818.911072 1953.476685 482.067230
926.480164 1893.796265 398.796692
1179.538208 1897.193359 293.035461
804.614380 1960.569214 361.494598
1074.006958 1826.055298 159.732376
1041.430176 1841.423218 406.949402
1057.692383 1898.838623 505.898926
1205.277466 1962.186279 203.469452
1046.258057 1819.909302 347.588165
1236.485596 2047.030273 243.032349
887.341797 1897.625122 422.957153
1130.174316 1783.660034 265.366425
850.200500 1921.160278 374.644318
1203.561157 1982.154785 320.677185
867.251343 2004.841309 473.641724
1078.393799 1814.021851 209.924316
1126.313721 1789.233032 371.693115
1123.648438 1940.059814 526.578979
1120.330444 1811.250977 302.664215
1024.613525 1841.231201 212.137833
1236.294312 2007.403687 146.752365
921.883057 1891.205566 400.390381
1168.360474 1843.245483 346.228180
1183.476318 1874.691040 418.806366
1231.034912 1991.458618 147.126617
942.762695 1878.584473 451.559937
1086.400879 1882.198120 516.745117
758.541443 1949.261475 391.301300
865.841492 1939.597900 461.383087
1205.990234 1949.366577 195.530106
1039.251709 1832.500854 233.107101
1094.656494 1812.692017 349.400146
932.641235 1877.534180 207.239655
941.241150 1889.642700 308.897064
846.587341 1925.077026 311.270935
945.093628 1879.909668 401.911621
1115.786499 1795.625488 271.853943
907.193848 1947.582031 476.120575
843.015015 1955.552979 256.166473
748.027222 2041.797852 221.012192
1208.529907 1969.113403 265.281860
1207.259277 1992.844849 298.820282
829.460205 1984.016724 490.833313
1002.472412 1957.766479 467.362732
1100.280029 1798.828979 268.896393
1076.595337 1812.806152 238.251404
1177.623535 1841.181763 410.692596
1180.158081 1961.319092 463.842773
797.770325 1955.808228 185.944855
887.228577 1915.271606 225.304260
949.287476 1894.623413 256.869873
853.672546 1954.703247 468.408142
918.011780 1900.076294 386.489380
856.286560 1941.031128 450.964569
1107.540527 1806.418213 398.852661
1141.349365 1808.085205 365.006775
1065.546265 1882.138184 512.224915
1063.992798 1815.610840 263.402802
1204.893066 1976.780640 297.346802
1192.233887 1925.082642 422.497498
1061.775757 1897.260132 472.499420
1174.094238 1885.834961 151.128860
1062.947754 1822.947754 220.399292
989.011536 1867.946045 366.842926
1107.075073 1804.855591 398.738129
1172.993408 1947.407837 518.534668
1233.816040 2039.272705 274.877472
1100.602417 1818.385254 376.686188
1076.378540 1861.076660 439.425110
747.920776 1965.562256 360.459991
991.028564 1857.482056 413.570251
1000.124573 1899.978882 245.271164
813.905090 1938.450195 207.237473
1213.590820 1982.675537 225.926132
1157.887573 1845.820923 340.449036
846.896240 1959.543823 462.798767
1166.680298 1876.241577 296.375610
1046.309937 1835.659912 407.937836
761.729797 1957.752563 344.352386
1187.003418 1918.406616 417.008301
1027.336548 1896.727051 422.602112
1022.049561 1832.834473 226.951111
1232.221069 1998.166748 310.102356
1201.392456 1956.593262 182.017776
1039.736694 1850.378174 421.465149
1157.737671 1845.018188 269.054382
1116.599121 1791.668213 280.526611
1226.239746 1991.203003 226.299347
867.515442 1914.620850 371.778473
1074.838257 1811.246582 277.439423
1018.619202 1844.783813 292.974457
892.292908 1902.060181 200.687363
755.155518 1989.607666 452.827820
1150.308105 1843.133179 247.602585
961.953796 1882.007080 278.712646
1030.823853 1876.475464 327.238525
1179.827393 1897.795044 174.179123
915.340393 1907.228882 296.660919
1232.430542 1938.007446 402.755371
1189.385620 1952.972046 264.158722
1024.930298 1852.966309 240.714035
1247.901978 1985.891113 409.692993
1116.366333 1851.108398 421.530090
1156.439941 1938.201172 480.629059
1109.771240 1798.299927 210.057541
1168.126221 1887.851440 241.093475
1094.132690 1878.415771 423.370117
1041.274048 1827.821899 337.988770
845.235962 1932.223877 307.108795
1134.869751 1825.590820 221.086716
950.538513 1896.828979 246.719574
1137.109131 1797.639160 183.332687
1220.538452 1929.597290 400.549988
1117.015625 1801.663696 382.634033
1105.848999 1800.736328 382.539734
917.831055 1902.868530 293.924896
1222.003296 1996.435425 364.748596
948.516296 1888.884644 404.089752
785.244202 1952.361816 359.776215
995.957581 1868.902954 335.541809
1138.479736 1813.584229 334.337677
952.026062 1880.889282 360.686401
1086.454834 1813.823120 330.154205
1074.993042 1828.164673 402.158356
1197.461182 1926.078247 374.262543
939.876892 1887.399902 392.572144
1148.532104 1847.113892 164.862350
1075.190430 1896.046265 424.771820
1218.173218 2001.477051 232.163864
901.536743 1889.291870 417.267853
895.721313 1950.740723 467.223999
1040.310791 1822.628052 310.317505
959.512695 1889.315918 367.870972
1159.133057 1935.334595 426.987793
975.471863 1947.956177 461.239990
1201.974487 1949.485107 291.961578
1244.901733 2031.369019 244.463501
972.617126 1864.959717 396.308044
930.216736 1901.111450 345.309570
1130.396240 1811.455688 171.301270
1229.619629 2033.543091 167.405228
898.863281 1929.138550 456.698303
909.035828 1906.798950 223.642426
991.651794 1863.361694 388.573853
1099.070801 1827.211060 195.583496
834.172363 1930.744385 308.688019
762.191772 1950.521729 418.222290
1036.953735 1823.723145 339.634613
909.742859 1895.532471 212.872925
831.704224 1948.257324 464.681366
955.646545 1874.659790 191.418076
1087.202515 1913.102661 531.127197
839.934570 1932.615112 393.626831
1186.147827 1925.163330 188.227356
1203.158081 1970.196533 338.354584
798.076721 1948.077881 386.833954
1102.798340 1800.110596 347.866882
1144.284302 1815.468384 183.449127
1047.104004 1928.256470 464.680756
873.578247 1922.117676 161.712814
836.459106 1935.368774 419.028229
1146.200806 1804.347778 330.098267
1037.859619 1918.479980 461.132355
1129.226929 1795.728516 248.227112
1021.107910 1863.771851 271.921051
1015.482910 1861.127686 227.719254
1065.304321 1812.754028 269.689270
811.304321 1935.093018 190.910095
751.174255 2002.030396 311.734863
1076.543091 1869.424316 497.570343
1204.976563 1952.240112 336.752258
1188.595825 1904.733398 275.243713
1151.775635 1841.291138 208.275726
1135.511963 1938.968140 431.712433
1006.229248 1850.090942 188.695435
1167.937744 1884.109985 431.764679
781.273682 1999.622070 317.852173
1195.837036 1917.432861 148.373825
728.143311 1971.251099 383.021179
1026.942139 1846.390991 386.116669
1243.908691 2021.099854 374.626984
1092.014526 1811.282349 195.168488
1205.250488 1958.804321 239.362778
1070.629883 1895.874634 460.488281
1014.155518 1913.032959 447.163727
1093.685181 1829.285400 151.250412
1056.475464 1910.771606 491.744171
760.240112 2035.752930 454.234039
1230.766968 1997.780884 276.879028
1060.863647 1819.507813 241.604843
1185.725220 1931.811523 200.795303
1193.419800 1943.586670 173.925842
1043.919922 1835.518799 355.817902
1227.875000 1962.163696 405.282440
1175.443848 1957.809937 438.781464
1171.615356 1877.591797 292.741150
934.062866 1889.090088 352.027863
1255.731689 2001.829468 413.159668
934.645142 1899.412476 232.689590
1167.225220 1845.873535 411.813782
1138.082886 1874.615601 421.871124
1151.051514 1846.712769 226.213684
1226.166382 2012.143311 294.444855
1137.782715 1815.855103 413.795135
1164.165283 1915.599365 419.891632
1161.695801 1934.030518 485.635498
879.149048 2032.475342 477.773193
805.583374 1938.375244 321.995636
893.959778 1925.460449 282.868195
868.594360 1937.314575 461.236206
1089.667603 1869.464844 453.191925
1096.330322 1806.182495 226.400406
1188.692871 1838.671143 402.889496
803.609192 1996.921753 491.358734
1012.913391 1864.519531 419.130829
1117.151978 1931.203491 438.815796
818.751404 1941.596313 339.161926
769.561218 1963.924561 271.253723
1060.125000 1808.504028 288.257050
921.917725 1880.530518 443.330200
1164.866943 1852.404785 344.067719
1208.391357 1973.131348 424.713959
1214.280762 1978.554932 365.350677
1012.690857 1901.262939 430.878357
1047.028564 1821.560791 308.013672
1038.001587 1854.297363 428.830536
922.039856 1904.045654 255.339401
1208.705444 1892.811035 408.406830
909.350464 1906.138184 371.925903
1154.390137 1892.583984 436.613647
1218.161987 1974.695923 374.575958
1063.954956 1825.842529 334.528656
1204.408325 1960.731201 258.560242
909.323914 1950.417847 469.294159
1108.532349 1811.540283 410.031647
871.406494 1913.323364 368.100006
1076.787109 1892.988525 558.277527
1040.868774 1836.488159 155.511368
1031.464111 1845.559204 404.606262
1177.021118 1899.113647 347.732635
1177.800659 1895.012451 307.435120
1189.506348 1939.090576 178.235352
1204.786133 1945.995239 412.379486
798.967773 1929.603149 391.858276
972.662842 1896.099854 236.969925
786.167236 1983.291382 483.635651
880.545227 1919.610229 246.792480
1086.496094 1909.630127 544.854248
1046.576050 1821.257568 341.835266
1046.823486 1891.210571 499.030914
1075.440674 1878.915283 423.153870
1009.833984 1852.304443 200.115433
1084.856689 1816.115967 401.031952
1164.552124 1948.063599 442.748077
866.811523 1914.451416 173.562988
1155.183350 1850.395142 356.913696
1180.284302 1903.545288 317.022034
817.010071 1941.524658 448.646973
782.453857 1941.731323 418.093323
933.989868 1886.280762 392.100861
816.423218 1933.734131 276.711304
1188.413330 1852.072510 408.550354
1211.700317 1965.616455 363.855804
995.046936 1856.677856 184.510590
780.752625 1947.734009 309.383850
779.724670 1950.878174 380.750946
1005.481140 1896.799927 455.084351
1086.595337 1906.992554 476.645111
1076.720825 1895.609741 508.284821
760.366943 1948.630371 214.161636
983.974854 1860.198853 211.296555
1115.863403 1896.349365 419.812134
908.730652 1910.251099 282.972443
841.489685 1934.994507 289.772125
762.572754 1950.933350 421.713928
1182.054443 1884.749023 417.692963
826.684753 1948.885010 304.219269
1029.996704 1858.645996 329.465515
1201.096924 1953.336792 246.242706
1086.089966 1901.428711 516.363403
1047.493896 1890.157104 441.501953
767.706421 1974.003296 332.654053
1213.481323 1987.410156 226.467957
901.052246 1901.781128 205.369110
1158.169189 1843.067139 149.215515
1076.809937 1894.755859 491.320740
1011.421936 1898.021851 247.558167
1068.838257 1809.380249 293.794678
1057.005981 1837.102051 413.849701
804.485657 1974.253174 467.009583
1020.155273 1918.952515 456.080078
964.885559 1872.637939 204.528442
1108.681274 1816.548340 156.105637
871.921692 1918.534546 446.700439
1002.987183 1855.629761 395.894073
1180.662842 1909.963135 187.412796
1074.353394 1867.884766 421.627563
1216.848389 1907.237061 394.031067
930.896423 1896.614502 350.162109
862.528687 1932.481201 432.906921
1199.014404 1887.084595 407.858215
876.129700 1924.233398 300.442780
1144.161255 1821.853638 307.690552
1069.103882 1827.984375 415.636780
1057.649292 1877.983276 496.664764
803.314087 1938.612549 382.104919
1158.202148 1867.316772 157.189728
876.446228 1912.224243 359.339752
1224.545410 2007.766479 306.848541
961.174805 1959.463135 476.854797
1168.979248 1876.481934 201.991135
781.291199 1967.734131 301.040436
1239.564453 1942.575073 398.585327
1136.120361 1935.082642 491.056305
1161.971924 1857.495605 213.689285
1036.017700 1848.653076 162.837418
1048.167725 1824.821899 251.907669
1226.996582 1987.870483 336.468933
1039.704712 1821.787476 308.399475
1166.178223 1877.916016 262.280212
1095.292114 1801.881958 332.399628
1145.071655 1820.706299 389.156860
872.314148 1921.530518 309.260315
863.387207 1915.655640 390.525146
1111.047729 1915.640503 530.944702
1028.119873 1818.789307 342.418457
1211.369751 1988.166992 148.132553
1155.651733 1840.166870 299.568237
1160.474365 1892.871948 417.887756
851.992554 1896.705322 162.776245
1157.813477 1845.061523 265.080811
1030.962280 1889.208740 249.800171
805.341675 1942.712402 381.099945
761.106018 1956.734009 167.063202
774.809387 1996.033569 466.086670
1099.001465 1803.701050 218.889099
1085.704712 1807.016602 285.196381
1105.118286 1803.708374 362.385651
1155.062500 1847.228760 351.363373
1151.959229 1808.975830 171.555328
983.643005 1889.268555 364.235992
951.917053 1875.215210 401.868073
1144.816650 1815.603149 296.319916
914.131653 1883.690308 425.070618
1225.913696 2010.646973 219.134399
1065.060547 1813.083130 157.807678
1021.986816 1845.073608 370.169098
1204.024414 1965.649048 237.140884
1214.372681 1985.739258 303.292572
1068.103516 1811.687866 389.186157
1200.571533 1928.464233 225.888611
1114.756836 1821.907715 183.454620
1085.149414 1809.600708 380.102356
1055.230835 1813.444336 318.450134
1063.552124 1882.779053 459.116425
889.676331 1923.374146 450.504303
879.339355 1986.569092 464.226807
1197.066284 1888.283447 422.417999
1047.110718 1827.887817 362.781769
1030.686890 1847.181274 408.089844
1126.117676 1819.220337 402.021973
1205.745483 1967.939087 421.744812
1092.544556 1808.458130 338.360992
986.614441 1872.598145 303.042175
805.074280 1953.221436 468.324951
1131.359619 1816.140991 394.716705
790.796936 1950.351929 451.116425
918.091370 1887.393311 441.429932
1144.372070 1869.939941 431.343445
962.481506 1882.301147 339.327301
1192.180298 1932.768188 217.742218
1236.999756 2038.903442 335.108521
713.590637 1992.166626 221.230301
1155.671997 1846.257690 196.715759
777.006836 2081.825684 464.282715
1016.964172 1866.902832 252.417831
1251.771240 2041.490845 151.819839
1210.929565 1940.334473 418.053650
818.463806 1941.408936 450.168304
1158.310547 1851.083618 245.063431
783.074646 1948.305908 352.233185
1168.478394 1869.641724 261.733704
946.069763 1898.572388 261.770599
1062.378052 1825.611816 160.979645
855.169312 1927.240356 330.603149
877.187927 1916.787109 161.618286
1188.373779 1935.031494 250.099075
997.223450 1872.965942 439.101959
1228.981934 2013.322510 271.005737
1077.756836 1808.619507 353.554352
1130.277344 1787.928955 367.868683
1075.624634 1817.202759 393.205994
1202.518921 1950.525391 362.568237
930.423096 1889.021729 274.815674
1224.006836 1980.122925 307.042358
1215.149048 1907.375000 410.534790
1125.987549 1811.315796 280.241699
1057.473755 1836.220459 168.936523
834.906311 1922.216187 425.532867
773.573914 1930.328247 172.776749
1034.131226 1834.596802 209.030716
816.546936 1935.051392 212.551498
899.415283 1908.937744 356.115173
1081.685913 1879.554565 572.942200
1152.929443 1942.761963 482.157440
1119.522583 1826.644531 422.486481
1133.177368 1822.465820 191.000214
1145.809692 1817.706787 287.236908
1055.318481 1835.010742 423.245728
938.541931 1876.073486 189.935867
1138.164429 1835.165894 252.193665
976.711914 1890.580933 466.470367
865.044189 1919.430054 336.061432
1124.677979 1806.540527 216.419907
1239.111816 2009.621216 354.072815
870.655640 1903.342407 199.412537
1142.971802 1800.333008 185.635162
1205.010254 1967.512207 184.927155
1251.152588 2056.441406 178.377960
889.609741 1913.694824 278.476746
1219.273804 1988.155884 309.969727
793.427002 1946.816772 441.539032
1051.684570 1823.493408 396.798981
1019.167419 1844.791992 277.007202
789.916199 1977.888916 476.498260
1235.921021 1990.640015 417.860596
1148.148560 1848.399414 362.186707
1081.251343 1809.929443 259.546234
927.195862 1888.683838 399.694214
939.291565 1897.668945 224.510529
892.552429 1898.449707 185.761871
1068.309814 1823.296753 385.350708
800.677429 1951.623535 479.757996
1051.090576 1876.054321 489.603577
824.068787 1924.687988 191.902969
1172.590942 1881.858276 239.066742
1000.475159 1872.752563 435.177307
995.466003 1845.725586 164.181091
1152.442627 1779.240356 194.508423
1223.507935 1997.962524 329.448090
936.267273 1882.429443 416.162018
1212.064941 1985.068848 226.149155
1086.793823 1877.304932 463.462006
1099.448975 1803.963135 208.719696
800.227722 1935.727051 215.954147
1182.304565 1917.101685 353.115234
869.598083 1921.229248 344.468811
776.202942 1935.275024 209.885941
1217.097412 1986.264160 268.357086
1020.997314 1838.559814 347.834900
1034.746094 1871.715454 337.038422
1050.834961 1901.797852 490.896149
1078.436157 1969.792603 481.079742
1131.620972 1790.148682 317.891876
1130.596924 1934.891968 514.423645
800.484070 1945.001831 171.944901
976.187927 1857.127808 410.152283
946.993652 1883.566528 170.365677
1166.903076 1860.974365 412.326874
808.651001 2169.749756 428.894653
1110.346069 1808.073364 414.467773
1139.898682 1814.452393 151.921158
938.760681 1934.286499 475.269104
745.276428 1962.957886 270.554749
1158.995117 1829.990601 406.286591
807.154663 1971.768311 474.285065
894.996338 1904.961426 461.344604
1043.345337 1890.507935 461.624176
1191.164307 1974.266113 478.934906
798.729309 1944.424438 394.533508
881.510254 1912.179443 389.989960
1148.589478 1790.598877 177.490143
1195.396118 1954.241821 173.101089
1067.473877 1815.406616 267.649933
1050.200439 1885.905273 464.383789
1049.068115 1918.339844 298.004028
1083.011719 1812.487793 194.303894
1216.679199 2004.034058 172.429733
968.184204 1875.784302 320.916107
1262.956909 1973.817871 415.127258
1125.243408 1808.454956 298.037201
864.623718 1940.667969 454.961884
1168.039917 1847.633667 408.880463
1137.866699 1812.714966 298.760986
930.973206 1908.131836 466.131317
1193.787598 1938.434814 194.770767
1097.646973 1911.325195 441.180603
1132.311890 1815.340210 381.692139
850.913757 1990.834839 488.072540
1063.760986 1890.699463 513.479675
1170.521118 1870.502808 212.125366
1082.382080 1836.867676 157.876297
888.410034 1910.426270 239.804504
762.940613 2068.761475 389.770050
999.006226 1869.790527 282.315369
1176.615723 1890.802734 334.666504
911.711609 1893.908081 175.918076
1097.357544 1803.020996 330.876740
1167.825073 1852.374512 248.615662
985.622681 1862.469849 209.625443
1142.961914 1818.776855 383.589111
1047.515259 1892.857178 552.892883
846.404663 1937.027588 353.835724
1167.072754 1926.755005 525.787231
1123.749146 1813.313843 365.367157
1057.132690 1821.051514 341.444092
1045.371216 1823.380981 332.151733
1218.718628 1928.882080 387.812347
1157.402344 1862.820313 166.579147
991.862549 1868.277344 328.245636
1059.276855 1886.005493 451.504852
1018.456238 1924.922607 467.251434
786.629150 1939.015381 211.261887
761.720764 1996.229858 452.225311
1142.741211 1844.412964 154.656082
1193.544922 1944.412842 161.074554
1071.282715 1884.739014 460.036804
832.687256 1933.688965 162.354263
817.766296 1926.049438 416.980316
1234.482056 1957.752075 393.478485
812.482178 1932.560059 424.577881
1163.684082 1849.508667 377.033630
1155.167358 1854.363892 277.113068
938.491394 1894.090576 309.397217
1173.069824 1894.341675 220.973480
1069.683716 1812.530518 286.515198
1084.435791 1814.275024 413.319031
1127.443970 1826.456909 149.416107
1199.000732 1948.120117 318.825562
1081.520752 1810.051514 282.081848
862.458008 1914.325073 428.424622
1139.229492 1827.351685 164.232590
1059.949463 1823.581177 361.025543
863.911743 1918.377930 203.077148
1196.489868 1907.632324 436.965820
939.382690 1883.478149 438.149292
990.302307 1869.529541 370.343170
1081.153687 1808.905273 219.832077
739.848267 1974.104858 271.969604
794.873108 1942.167480 338.196320
1078.101685 1814.929932 310.654633
925.354553 1890.646362 377.286255
1138.575439 1813.716919 322.947510
1082.753296 1821.543091 356.297943
985.783936 1868.392334 169.231354
1213.621094 1900.150269 391.858856
1087.032837 1931.914185 459.802032
896.180481 1907.994995 389.529297
742.118652 1960.394165 214.104431
1131.719849 1784.743652 327.297333
820.746887 1939.755737 416.213654
1109.957764 1818.455811 389.993408
1079.336914 1912.964844 439.779236
1089.808472 1813.197021 253.005112
1177.508789 1900.795776 183.660416
750.978882 1972.767334 265.203766
1055.988037 1825.581543 203.476181
852.289612 1941.197510 281.309113
1124.759155 1789.148804 231.288193
1033.585815 1846.203125 355.773773
1201.835449 1949.203613 312.106781
1026.369019 1844.633911 304.583832
1003.249756 1876.359375 226.713943
1206.627197 1941.273071 277.373993
1042.746826 1900.940186 469.257355
1074.774780 1885.797852 472.787170
1245.408081 1930.929810 413.611694
1125.947998 1812.807983 335.261993
1074.841797 1872.683105 424.005371
1203.153442 1901.479614 393.199585
736.972534 2006.135864 363.862640
1146.490112 1825.129639 412.412872
1105.310303 1803.952759 358.320343
749.460693 1968.311768 347.435608
852.065857 1929.404175 314.471008
948.755798 1895.630371 348.884186
1125.859497 1817.685547 400.423279
1193.637573 1981.889771 464.815338
1070.185791 1897.984741 486.598145
1162.995117 1952.397705 454.540375
1193.431885 1913.356689 302.822479
755.560364 2043.114502 432.202240
1167.282837 1950.594482 517.986694
1115.746704 1867.163208 428.374451
1237.388062 2011.102051 292.759003
972.643677 1870.560669 161.379837
1217.493896 1887.237061 408.349670
825.199341 1933.532593 431.995667
800.556274 1937.029419 402.552734
1183.172852 1940.585571 216.094131
1175.607300 1896.209229 318.265259
1095.073853 1815.163452 207.727997
1053.650391 1880.593262 518.478760
1183.104004 1852.898193 414.164703
757.478394 2006.896729 263.197571
1224.300415 2007.809570 223.456375
1140.895630 1852.874146 147.279877
1027.993042 1829.478516 266.883270
1072.167603 1914.513550 534.536011
891.679626 1906.892700 168.977249
1218.832397 1968.505371 410.392792
1137.928589 1814.048096 334.240814
1088.286133 1889.213257 563.847473
1018.265564 1847.417480 203.566101
1121.148926 1920.467285 421.010101
1089.708374 1823.727661 400.104492
1166.221313 1935.227173 449.617371
1006.000732 1904.630859 461.038727
959.836060 1878.431396 349.261597
1208.349121 1893.788696 404.532623
761.258118 1952.876099 428.286804
875.475525 1912.312622 214.767624
850.527405 1938.798462 448.130646
1029.058838 1850.679199 344.333405
982.480652 1846.077026 164.528961
1006.326416 1861.148315 427.895874
891.011719 1910.980469 209.050079
1058.760986 1838.423584 412.248657
908.974426 1883.226318 440.389008
1045.626587 1885.305786 506.153595
1056.849731 1876.025635 437.441986
1209.884033 1985.797119 167.838516
1153.518188 1846.640015 353.872894
854.597107 1918.186768 412.962341
875.598755 1912.245972 170.556168
1155.428467 1843.539307 151.046921
969.105591 1887.667480 354.736633
787.712952 1944.272339 385.499359
774.218872 2100.286621 168.229935
1227.790527 2010.530762 327.749359
1108.735596 1795.653320 374.234833
