ply
format ascii 1.0
element vertex 1386
property float x
property float y
property float z
end_header
-58.324146 2337.608398 -14.354593
-144.016830 2334.818604 -50.208996
-64.441147 2277.363525 29.024782
-312.762634 2236.900879 376.250397
-135.891327 2273.333984 -58.391056
-135.910507 2309.501953 -52.425659
-166.894241 2293.315430 -70.457176
-265.092957 2111.848877 133.045593
-208.943451 2127.334229 257.464935
-127.198227 2245.338135 -57.280773
-241.591064 2176.604248 -161.312103
-262.728027 2105.214844 277.121094
-40.529842 2304.910889 85.458321
-162.329636 2115.857666 -43.526520
-67.663269 2225.634033 45.206711
-125.670242 2128.553467 -22.702139
-191.212265 2293.564209 -95.143700
-324.981476 2179.154053 352.204620
-276.330994 2098.573975 -20.835205
-45.228249 2345.325195 51.669643
-41.531849 2228.298340 6.385785
-205.018158 2292.160156 -119.429878
-317.254791 2095.512451 278.905670
-50.765293 2309.633301 -1.339045
-204.619446 2137.321533 275.638458
-385.895233 2067.510010 57.850285
-87.852272 2200.608643 -50.706718
-198.574448 2136.235352 259.941254
-176.525391 2111.561523 4.313390
-162.071625 2178.744385 -98.443390
-87.535873 2139.286621 -34.347813
-217.635712 2136.296387 -130.060379
-227.559326 2106.717041 241.398453
-208.050232 2114.791992 -129.432770
-77.707436 2143.800293 23.450394
-48.858311 2205.734619 -9.957116
-254.465469 2121.584961 103.588326
-158.809525 2370.410400 -54.333084
-86.174706 2137.601074 -16.721434
-108.659218 2168.797363 114.225998
-270.482147 2115.170898 73.415245
-153.636902 2180.841797 -86.391380
-55.054012 2248.732910 121.430862
-367.990051 2075.469971 82.242638
-243.191910 2104.973145 -85.745125
-215.738144 2125.866699 -108.595947
-109.302933 2340.257813 -23.120291
-287.403381 2093.432861 268.432892
-195.192001 2121.537354 204.319199
-190.560944 2353.066162 -85.307930
-79.850121 2289.140625 66.315224
-184.942490 2238.572998 -99.570412
-170.078552 2217.439697 -97.613525
-171.422073 2144.851807 119.522026
-164.631653 2239.104980 216.215027
-268.915619 2103.135742 -27.610195
-37.147236 2223.828613 143.431015
-40.681393 2298.254150 67.652412
-132.913666 2290.833984 -44.571156
-31.422577 2215.085938 119.183731
-57.139862 2151.538330 11.646078
-208.583374 2100.554443 -8.672785
-253.335571 2191.748535 -153.876724
-111.425339 2215.055420 -46.883495
-138.880447 2173.939453 -78.575912
-254.774307 2117.666260 55.534630
-48.972519 2219.801514 96.880455
-61.570583 2232.452148 146.177109
-103.377655 2324.278564 -23.604467
-32.385258 2197.330322 17.593414
-162.771439 2129.122559 171.795258
-273.464447 2115.468750 -1.357767
-287.456482 2370.537842 -164.681000
-42.756908 2159.580078 7.680298
-181.074692 2121.684814 1.746612
-252.171631 2105.644531 -25.797897
-349.680695 2080.375000 262.773163
-122.562492 2370.672607 -28.578709
-362.711761 2094.624023 233.220932
-124.849480 2330.935303 -35.329063
-271.802582 2100.769775 229.501587
-230.815201 2128.509521 -6.722251
-74.454926 2142.219727 17.505123
-192.748245 2221.960938 -114.367470
-42.187054 2294.138428 -26.546293
-278.288605 2307.149414 -155.936264
-57.161633 2252.324707 123.737267
-342.324951 2066.015869 6.308267
-200.556793 2107.610352 -72.717628
-71.843185 2200.320801 120.536942
-77.602097 2148.637695 45.145271
-133.732590 2132.826660 58.890800
-206.700653 2136.579834 296.791534
-186.126526 2117.515381 -107.330002
-147.752960 2120.358643 -36.994431
-83.554634 2305.694824 113.330620
-182.531021 2113.905762 11.641727
-31.607300 2164.990234 3.614038
-54.077354 2314.284424 -19.752810
-83.192581 2174.412354 66.646362
-208.485321 2142.343994 362.424530
-248.934738 2131.623291 6.877314
-245.014420 2123.069336 -143.573318
-249.917923 2250.171875 -140.151459
-165.553085 2119.282715 -50.041523
-319.346375 2092.333984 292.301758
-173.343933 2371.740479 -78.536346
-129.391830 2243.569336 -69.779343
-349.283844 2098.547607 214.767532
-278.667603 2098.167725 45.723145
-67.663940 2303.465576 20.779182
-339.266571 2091.903809 135.240311
-147.528625 2212.215088 -75.196625
-164.850632 2119.696777 -55.385818
-82.505722 2212.768311 89.334595
-187.484833 2302.631104 -90.460136
-164.811630 2141.954590 243.373016
-258.407104 2257.947266 -153.529053
-383.230957 2066.120605 114.773285
-419.653473 2105.130371 236.754364
-104.545624 2176.573975 -57.371742
-38.155815 2225.103027 145.140320
-242.435608 2102.967041 271.764954
-10.388806 2264.716309 160.209457
-115.409561 2130.592285 25.653353
-347.773651 2079.587158 88.629097
-140.556732 2122.212891 24.349457
-16.397280 2320.763916 81.206207
-297.238129 2099.601074 15.451463
-416.016815 2078.948730 95.182663
-315.839783 2102.529785 -48.229088
-315.433838 2086.373047 259.096680
-98.150230 2144.186523 96.180672
-184.655350 2219.069092 -108.736832
-28.420809 2205.527100 5.637530
-78.881516 2140.537598 -23.088457
-174.266693 2129.677246 67.227661
-238.165710 2069.711426 -98.987373
-344.079193 2082.117432 62.366383
-3.048172 2232.752686 157.265045
-180.769363 2169.501953 -113.092491
-78.691338 2156.584717 49.199905
-169.847031 2397.024902 -56.102627
-210.525299 2117.706543 179.104080
-289.251526 2100.543701 212.608017
5.348238 2312.186523 91.263962
-211.073624 2110.256592 -116.099808
-302.494202 2084.080078 312.891754
-168.333557 2287.917725 -89.362427
-166.685577 2127.468262 222.499985
-150.028198 2251.938232 -67.805740
-296.161713 2110.116699 138.604980
-170.255371 2118.456787 -33.965630
-158.916306 2223.613037 -87.739708
-84.239609 2139.409668 -21.042131
-468.014740 2044.531738 171.112640
-299.643494 2072.854492 -44.492199
-134.750732 2159.963867 218.840057
-71.350967 2148.901367 8.082535
-417.060913 2060.176514 134.441071
-195.711075 2336.728271 -110.458061
-387.793579 2077.480225 128.288330
3.872690 2254.397461 154.470718
-194.966965 2135.014893 182.444489
-68.584946 2201.028564 65.636803
-236.956192 2109.595459 -32.205109
-238.878784 2111.153809 241.590149
-166.293747 2159.388184 216.821869
-139.073135 2272.673096 -60.751400
-72.575874 2199.342285 62.016251
-231.051453 2108.474609 -5.473126
-197.974442 2151.953613 282.337341
-118.521286 2127.817383 25.345066
-152.662811 2191.477051 -86.302742
-267.982819 2113.827881 -52.551472
-80.606354 2221.553955 -26.683489
-239.166702 2238.523193 -142.901825
-104.348289 2250.715820 88.902092
-363.642883 2084.102295 235.202591
-107.480293 2372.954346 -29.509686
-80.276825 2140.218262 43.155777
-79.341774 2182.693115 -26.304344
-127.033157 2172.469727 140.235703
-187.078461 2178.823486 -117.155479
-55.815594 2339.281250 -7.295658
-143.195953 2168.616943 -83.140915
-79.620117 2259.206543 -26.327280
-54.995964 2184.264648 -18.362713
-44.767361 2213.369385 -11.547435
-181.394699 2114.071777 -108.480644
-249.481979 2118.345215 -21.583902
-162.816299 2103.440186 -12.450394
-61.741154 2182.509033 -20.984510
-278.676300 2098.363037 -17.284672
-235.851379 2212.594238 -144.915466
-202.431381 2120.692627 -56.849312
-165.623016 2117.456787 -115.021385
-217.862488 2108.215332 -21.630085
-36.141232 2221.106689 144.128403
-246.632629 2131.773438 19.659859
-131.014023 2118.604736 -41.205360
-256.313049 2103.743896 247.807266
-61.547535 2157.861572 -23.178879
-484.744080 2104.632568 215.061935
-109.192101 2135.671387 82.000595
-248.046188 2121.921143 -129.556076
-166.426498 2154.369141 247.427383
-149.910004 2145.608154 79.383919
-224.720596 2106.478027 -74.108971
-71.557549 2315.019531 38.914188
-269.384674 2100.286621 -57.630585
-267.711334 2116.035156 -101.138451
-265.084259 2106.203613 -8.865972
-144.340607 2203.773926 -89.832817
-61.477570 2316.867188 -24.822685
-47.259480 2244.579590 -23.859016
-179.384323 2138.963379 75.057747
-146.321442 2136.467285 -105.552078
-222.086945 2246.847168 -129.002808
-3.941650 2250.111572 139.661667
-75.684471 2147.059570 29.810883
-75.029846 2271.223145 39.959499
-148.855835 2137.771484 166.289413
-274.622894 2123.599854 192.363235
-156.195465 2138.234863 108.472107
-94.713013 2188.614014 82.190781
-98.218254 2130.509277 1.817307
-268.434204 2111.864502 -83.877983
-256.498108 2373.196045 -141.319550
-241.567871 2188.829834 -146.048141
-73.936089 2265.641113 152.905945
-271.088318 2123.326904 79.689804
-138.486328 2125.851074 -18.543360
-285.188721 2176.144043 370.378754
-41.723747 2206.029297 120.896835
-318.916901 2090.854736 -5.743848
-33.307949 2217.841064 114.290024
-74.920235 2221.481445 130.758591
-176.346390 2185.360596 -106.413010
-438.838287 2071.980957 242.447266
-224.776703 2148.235107 37.961296
-50.019962 2276.116699 -5.369660
-436.200073 2052.628418 151.987015
-434.301758 2042.644043 128.214462
-187.959854 2112.050293 -17.280287
-306.768036 2098.255127 123.531410
-101.208351 2151.688477 88.527191
-163.473740 2207.040039 -92.619560
-218.980026 2120.266602 269.530701
-409.109406 2053.817627 186.879486
-185.022751 2244.954834 -113.043663
-43.410667 2317.242432 55.006008
-196.119049 2119.570068 14.000227
-119.235222 2129.997314 45.473110
-185.698532 2113.868896 -63.807529
-174.277817 2142.065186 -108.420708
-184.320587 2320.466064 -83.361290
-122.337471 2126.850342 41.458508
-315.162323 2096.954590 59.038700
-159.425842 2114.870850 -8.257274
-68.845184 2284.489746 -25.013681
-418.123230 2062.582275 186.069946
-64.877472 2274.211182 80.874550
-298.824768 2081.380127 -49.026295
-209.514099 2330.757568 -93.265030
-200.925949 2143.480225 298.723816
-160.493835 2142.961182 250.735931
-179.628860 2166.148193 -112.850449
-95.460526 2235.267578 85.801857
-139.753006 2290.200928 -50.106129
-76.232742 2146.347900 -0.527630
-68.445824 2221.061279 122.704826
-185.928848 2264.212646 -92.572296
-335.731934 2088.894287 291.528198
-127.259766 2133.350098 -79.364189
-93.924522 2204.636475 -24.929632
-153.035873 2149.396729 216.868103
-89.671593 2261.533203 -23.641634
-157.860596 2121.477539 -54.954269
-168.586685 2142.985352 237.742966
-163.460739 2123.898438 -24.860617
-40.561169 2265.050049 133.287384
-418.305939 2077.830566 167.499619
-282.481445 2113.457520 268.829926
-225.299835 2147.633545 -145.239838
-140.098923 2342.761230 -46.018410
-43.322975 2207.457520 22.496185
-200.729004 2154.128418 303.428467
-93.560059 2200.061523 143.431717
-19.057980 2201.172607 -7.934512
-431.847778 2054.268799 122.667091
-297.726959 2105.476318 60.470409
-154.029785 2267.344238 -67.039513
-372.866180 2066.876221 272.242462
-231.604935 2390.537842 -101.628510
-66.070992 2143.973633 -2.216219
-175.249451 2112.336426 -31.707987
-98.220444 2182.371582 118.738998
-52.516056 2160.199463 18.848186
-425.168457 2052.314941 112.076553
-207.186966 2155.368164 65.681862
-135.259613 2127.914551 21.895014
-198.652771 2159.478027 265.276886
-117.291611 2130.477295 -16.279631
-84.585518 2173.562744 75.919907
-72.168083 2233.931396 88.818436
-216.770721 2272.408447 -117.874901
-35.683765 2206.127686 131.542480
-358.440796 2070.432129 79.721146
-251.270355 2229.200928 -171.117050
-272.456635 2109.911621 340.143036
-277.091919 2091.129883 -87.636894
-105.224617 2180.339111 116.550179
-177.362198 2144.784668 255.603836
-329.296539 2100.755859 253.682007
-205.737396 2179.600342 289.352783
-107.179611 2269.407959 94.141418
-102.570274 2142.928467 101.495605
-170.650177 2342.548584 -71.310394
-207.187180 2126.850098 191.353851
-258.301117 2278.734863 -148.197357
-106.193123 2175.969482 111.994316
-143.644943 2131.825439 161.494019
-234.136292 2147.398438 -166.716980
-137.095352 2132.792236 151.990784
-115.836380 2225.958740 -55.223824
-368.737061 2078.143066 124.450562
-128.194931 2125.881836 -10.858937
-214.479752 2235.822266 -133.132294
-168.362564 2107.645020 -61.843533
-181.408966 2212.107666 -108.198891
-154.273392 2182.010498 -78.407837
-202.742722 2115.468018 203.825134
-200.813461 2240.625244 -111.817184
-67.458038 2148.007080 34.642155
-432.492828 2066.299561 224.319855
-283.206055 2118.664551 56.358463
-104.524254 2135.586914 49.358204
-233.159210 2112.416992 287.865387
-148.163574 2110.245850 -40.463482
-215.160873 2177.924805 349.962830
-252.201736 2101.153564 -73.082001
-234.101181 2132.593262 320.963287
-333.004364 2093.820801 188.881592
-307.616882 2086.329346 38.168358
-398.201721 2068.415039 247.826950
-106.257523 2266.617188 99.354584
-371.632874 2082.449219 278.665192
-122.098381 2132.280029 -22.290321
-412.966034 2055.636230 157.781357
-219.360794 2157.603760 87.842888
-304.976166 2389.924316 -162.900665
-202.244156 2322.672607 -99.187874
-221.757675 2112.379639 227.928024
-28.257715 2325.163818 64.516769
-192.813431 2406.149414 -59.315140
-88.910172 2150.025635 57.758129
-160.453369 2191.084229 241.741974
-116.032700 2149.954834 166.371628
-254.381454 2114.729492 174.721558
-272.102692 2332.920654 -147.380707
-155.312881 2151.261230 -103.450203
-28.515358 2211.433838 156.129578
-258.224548 2096.091797 281.792542
-122.036217 2167.574707 131.599380
-283.464600 2121.037842 60.748409
-186.432526 2131.801758 -81.997444
-89.603317 2134.967773 -11.659999
-309.477814 2099.085693 -45.089787
-417.858093 2062.489258 119.905128
-47.043243 2228.586426 152.398041
-46.694069 2234.842285 125.278809
-342.811859 2236.297852 347.542114
-307.889587 2099.666260 37.252750
-260.794617 2100.815674 -38.641190
-111.641945 2164.257568 146.732483
-223.565475 2118.270508 222.219528
-313.699921 2099.710449 163.047577
-80.204285 2202.711670 114.254761
-164.748947 2115.678223 -70.345238
-325.677612 2091.948975 329.632080
-160.453781 2233.427002 -82.356583
-488.761688 2120.627930 215.012222
-242.019089 2101.976807 332.647186
-286.267120 2087.839111 281.344086
-172.817657 2120.156982 199.263596
-84.838173 2184.594238 -31.599709
-211.574875 2125.115234 111.022987
-101.725349 2153.529297 -11.983505
-84.634514 2153.450684 67.472153
-218.826248 2152.353027 313.986206
-109.924515 2239.864014 -41.035942
-283.885406 2118.411621 130.147354
-67.915092 2203.333252 -18.310341
-226.994598 2103.005615 -121.410316
-235.074051 2120.688232 207.608902
-257.018372 2106.170166 198.838684
-235.144318 2116.618652 -115.289688
-232.376495 2139.101807 -159.566650
-74.877243 2195.300537 104.177719
-80.974312 2195.345703 116.781097
-215.960709 2162.047363 309.798859
-283.736938 2099.263184 -22.958193
-121.725197 2166.736328 196.423691
-52.920723 2225.708252 16.453226
-158.969696 2199.472412 244.620972
-298.917999 2104.440918 45.160133
-224.257584 2111.032715 219.742279
-126.231133 2176.427002 133.110626
-51.056286 2194.997803 -7.510814
-47.160877 2250.067627 12.017130
-255.294357 2106.893066 190.557266
-169.336105 2144.583984 108.153145
-204.820740 2133.123291 258.956757
-290.966675 2110.939941 225.437302
-43.817814 2188.276855 8.106812
-133.780609 2124.271729 -66.130241
-21.996124 2225.988281 131.971130
-176.469971 2114.855225 -43.971874
-202.050705 2154.403320 273.773438
-334.409760 2088.462646 208.483932
-111.624458 2131.305176 28.948280
-77.237335 2238.670410 85.333763
-117.874603 2218.943604 157.525497
-210.288452 2116.205322 -119.508026
-47.921394 2265.239014 125.924820
-189.260971 2148.343994 265.554718
-44.937992 2244.807129 123.385757
-341.671082 2216.879395 350.042450
-4.286939 2234.192871 166.582748
-352.055664 2083.348389 36.798050
-153.120132 2138.557129 230.350769
-213.657440 2122.732910 151.353897
-127.453979 2245.713135 -59.091637
-71.871246 2154.181641 8.246533
-188.218658 2238.931152 -104.528900
-96.751472 2193.751465 -41.914127
-41.794331 2233.700439 8.868369
-290.042908 2107.447998 129.126724
-138.438995 2144.446777 196.794937
-143.694016 2168.375488 180.012161
-204.229416 2329.088623 -100.728210
-238.513306 2191.509277 -147.016754
-112.420258 2153.358398 145.320419
-25.871090 2186.214355 19.159403
-120.410751 2327.001953 -44.880096
-118.197540 2313.589355 -27.667225
-162.335342 2201.031982 -87.518333
-111.454445 2140.922119 9.646363
-272.976196 2131.417480 -0.250324
-188.158829 2350.209961 -83.187813
-175.726196 2109.115234 -66.246460
-139.575974 2223.933838 -71.092697
-215.899963 2119.687500 265.784332
-265.154419 2100.005127 -23.630457
-215.145798 2125.414551 23.705486
-16.072685 2250.194336 139.577454
-411.313751 2059.680664 126.669739
-118.894890 2131.181885 68.146255
-114.208504 2139.920654 56.273670
-186.181839 2131.155273 86.121788
-195.003235 2111.684814 -102.812454
-168.135529 2142.439209 124.969902
-232.211182 2104.385742 -64.981293
-239.303329 2112.152588 -34.031799
-145.879395 2138.858154 164.152451
-111.919205 2125.442139 -48.305885
-327.756104 2083.066162 45.451786
-112.071114 2398.146484 36.770096
-216.400146 2109.971191 -91.419525
-257.531647 2327.209473 -138.949524
-246.954849 2114.150391 -94.621902
-188.301773 2233.931885 -92.362259
-129.343124 2176.350830 207.633163
-150.479065 2122.179443 -14.363191
-257.587891 2090.181152 299.999054
-108.636536 2139.796143 40.289848
-132.080505 2181.266113 156.894485
-38.699173 2232.811035 11.003334
-270.670349 2298.032227 -147.299667
-237.155029 2115.586182 110.274445
-116.983093 2148.257324 115.241211
-84.197273 2140.308105 -11.288009
-39.353050 2215.886963 150.222626
-88.588196 2163.656982 81.666344
-190.261261 2160.000732 -117.977379
-377.464905 2124.302979 217.016739
-78.593086 2255.718994 -26.248144
-75.416031 2169.267090 -23.195589
-326.955170 2118.254395 157.693909
-117.542992 2198.202637 124.624313
-116.343185 2132.673584 -49.826954
-326.984955 2090.051025 -0.393586
-230.943161 2119.069336 118.964417
-63.193909 2367.496582 -10.356625
-139.303314 2139.039307 214.736176
-225.380005 2106.569824 -58.827274
-135.918503 2146.451172 175.221878
-94.446915 2236.467285 140.792007
-315.010284 2102.199219 254.397705
-40.460438 2361.709473 59.574940
-190.586182 2116.047607 257.094116
-140.789337 2278.122803 -62.236332
-310.083893 2067.862549 -31.019665
-166.894287 2120.934082 -13.588955
-272.954315 2102.639160 -76.395973
-183.089447 2206.467529 -106.356140
4.783419 2223.313965 158.882751
-236.685547 2104.657471 271.567322
-99.713196 2136.841553 -42.069427
-44.808395 2173.952881 -7.570721
-272.029053 2110.373291 178.996674
-163.773346 2193.604736 -91.017380
-261.387085 2235.518066 -153.373993
-205.733246 2202.627686 309.074036
-202.371246 2104.792236 -46.707481
-204.495331 2197.581787 312.295502
-240.028839 2115.191895 -18.174595
-18.518879 2209.723877 183.974136
-314.489594 2097.779541 220.742844
-42.317783 2227.251221 129.918884
-193.563553 2264.824463 -103.523705
-142.449203 2155.548584 171.703522
-133.354050 2136.749268 119.365974
-43.800816 2183.159668 19.157993
-237.759369 2408.909424 -109.953316
9.614792 2247.110107 176.926788
-227.698196 2119.038818 306.055145
-95.747467 2183.860596 121.985893
-82.374161 2222.976807 59.957508
-144.410217 2118.305664 14.343224
-200.327026 2108.102295 -167.081253
-165.072983 2122.390137 27.397963
-192.255920 2352.303711 -85.503853
-178.050812 2138.525879 255.623764
-279.361298 2095.484619 -18.752985
-302.691437 2108.919434 230.918884
-166.139908 2122.694824 -3.865949
-71.678398 2338.829834 31.487463
-121.247742 2128.261475 14.030294
-46.455463 2241.929199 -24.273291
-161.864731 2128.662842 -115.336235
-368.248840 2081.984131 192.906799
-306.203705 2367.367676 -146.059784
-128.938232 2146.490234 148.067749
-438.058228 2056.523193 163.776001
-93.438744 2141.438721 -49.945770
-266.890259 2295.081543 -163.466095
-76.832199 2314.981201 36.955956
-299.309998 2092.342285 328.733521
-73.678993 2304.530762 43.655514
-141.067398 2129.677979 149.714859
-131.225052 2143.702148 116.187805
-306.822876 2095.306396 231.589142
-313.120087 2097.016113 35.848255
-159.712234 2180.018799 -78.394714
-295.553589 2100.391357 157.579132
-239.250763 2193.746338 -174.990738
-9.501060 2317.279785 64.001106
-74.204605 2263.778809 -21.688726
-86.640526 2237.107178 109.957901
-112.373833 2175.776855 162.054855
-75.425232 2211.446289 105.423347
-231.308426 2180.495850 -134.781662
-87.927994 2287.695801 53.622269
-153.576233 2116.452881 -44.724445
-416.438293 2062.011475 104.009041
-195.235733 2132.091309 130.247833
-419.445831 2061.629150 128.210770
-300.336792 2095.029053 169.568848
-43.932285 2298.973633 97.257294
-350.074738 2082.196289 43.749050
-337.095123 2098.797852 143.643219
-123.447426 2185.912109 148.870712
-286.092834 2096.038574 241.110580
-275.989441 2106.747314 113.739952
-204.132858 2148.873291 272.853302
-407.248047 2110.460449 168.252655
-172.054993 2120.483643 5.116593
-195.767822 2184.176270 68.765831
-167.441818 2122.695557 201.267807
-137.668320 2180.094971 -72.899963
-27.246325 2223.043701 114.758842
-80.490952 2382.610352 -41.798050
-69.147919 2183.461670 47.868595
-383.782776 2065.909180 210.128265
-200.602234 2132.974121 252.664658
-112.758781 2320.255859 -30.016092
-86.745651 2388.935547 -35.537025
-48.920452 2296.392090 52.816113
-213.033859 2328.320068 -103.129356
-232.444794 2102.053467 -26.132515
-144.046814 2322.874023 -45.351433
-134.254639 2151.106689 -72.214729
-98.952637 2330.832764 -25.886427
-55.144428 2158.950684 32.546379
-335.010406 2095.140869 -12.870248
-237.872177 2171.616455 -162.452454
-76.930023 2400.863037 0.029900
-198.384491 2118.043457 -114.519928
-95.768990 2202.214111 89.025833
-415.806763 2078.350098 147.998886
-125.970421 2148.348877 171.995819
-127.086555 2141.758545 185.771255
-72.318825 2286.938721 48.630310
-27.804504 2356.082031 70.392952
-339.680237 2098.456543 276.117889
-111.379814 2141.035156 65.952736
-89.757370 2185.080566 89.159569
-257.556213 2113.453369 208.152756
-215.750717 2152.897949 -154.418610
-214.188126 2140.807617 302.077850
-236.894196 2142.166748 21.415577
-271.160767 2126.561523 341.367889
-341.419250 2097.374512 123.879044
-185.319824 2129.216553 -95.269341
-82.559860 2341.949951 21.679556
-368.360107 2067.738770 104.949089
-30.868382 2324.634521 62.111412
-43.343121 2156.349854 23.057255
-227.906479 2153.616455 354.907562
-190.189529 2216.720459 258.360931
-114.544159 2196.250977 160.479355
-45.983662 2277.315674 34.177643
-292.731049 2094.682617 -15.313539
-49.071205 2281.800537 -24.674286
-119.277672 2169.839111 193.617096
-255.949509 2124.849121 307.535950
-281.079132 2100.249512 -14.410720
-192.033813 2105.444824 -173.259766
-166.777542 2207.141602 -102.178978
-325.020966 2093.211426 277.411560
-245.403839 2102.004639 284.985474
-170.742584 2313.583252 -73.835831
-203.936127 2125.165527 83.687286
-256.504852 2116.785400 46.242542
-234.862656 2175.439453 -2.449044
-102.832718 2138.114746 6.570710
-275.449768 2118.812256 70.648788
-119.938522 2136.381104 114.879219
-220.105377 2118.527588 219.501312
-163.211777 2249.874512 -92.224182
-90.335030 2144.109863 31.579729
-151.450317 2162.910400 -96.215851
-362.990936 2080.366699 43.550312
-31.205898 2297.260010 5.724537
-132.133499 2126.342285 -51.424770
-226.454971 2155.218994 -181.241745
-351.267303 2082.209717 44.027477
-122.126686 2123.961426 -58.607933
-156.284195 2132.243652 169.495422
-43.114883 2213.947266 18.965574
-279.988922 2058.130615 -41.803627
-84.753708 2412.318115 7.042271
-58.561184 2362.349609 -18.242737
-224.838303 2175.614746 351.224365
-63.352978 2260.651611 102.696098
-55.358273 2224.639648 24.633944
-214.384644 2130.613281 275.664093
-265.326782 2407.342529 -140.655121
-294.328400 2107.950684 101.964165
-313.893127 2106.491699 200.410690
-274.434937 2105.936523 244.010315
-146.154999 2212.690186 -72.811485
-266.823944 2104.097656 298.218567
-239.405029 2118.490479 105.576195
-260.652069 2265.729248 -171.585083
-216.774139 2107.223877 -37.588593
-159.593460 2234.124023 -83.845459
-101.454422 2138.350830 49.556271
-190.084396 2108.697998 9.750037
-201.327805 2145.561035 288.901855
-98.674896 2400.245605 32.438168
-293.319366 2091.964844 52.188107
-266.387238 2110.672607 91.076866
-36.066422 2262.270264 -11.186448
-62.968075 2342.893066 -4.382029
-148.257904 2229.153076 -87.079330
-81.370728 2396.502197 -22.274992
-185.300385 2136.524170 216.504105
-182.578308 2126.322754 -104.250832
-64.774330 2157.215576 48.325920
-338.269196 2230.501465 356.638245
-203.034805 2107.962402 -55.683819
-288.604370 2104.947510 222.475632
-168.120392 2251.739014 -84.187576
-35.542397 2207.936279 142.621964
-107.859680 2155.169678 102.160988
-105.333702 2139.227783 -41.211533
-43.676311 2232.799561 -14.516171
-403.939972 2084.166748 190.884735
-123.988487 2122.783203 -8.354852
-208.143417 2115.701416 -111.565559
-424.862427 2055.478760 150.670563
-47.137669 2291.494629 162.502670
-231.658463 2110.701660 240.720825
-289.580383 2094.596191 -27.074692
-94.675056 2408.102783 -19.445396
-79.705902 2298.943359 53.739235
-270.219421 2098.721680 259.403534
-146.303558 2331.810791 -54.146118
-466.371552 2026.301514 181.989426
-120.136002 2136.091797 -52.023556
-351.005249 2084.729248 107.837540
-5.907968 2227.622070 167.732758
-270.370758 2114.891846 8.653622
-202.534134 2409.933594 -93.931526
-203.753525 2164.803955 59.224968
-332.024017 2087.611572 19.335594
-116.442894 2139.033936 -2.532979
-146.023682 2118.225830 -49.087837
-26.260221 2338.833252 71.049561
-131.601074 2228.771240 -49.073235
-185.866608 2133.191650 53.555649
-7.784923 2222.488525 165.997711
-302.222992 2097.972168 259.423340
-105.368622 2136.713623 19.001600
-99.452415 2182.093994 125.353424
-35.272087 2189.206055 1.932413
-225.067047 2253.403809 -130.749847
-237.770462 2137.214844 320.808502
-80.838631 2146.057617 41.313633
-17.454325 2353.411621 74.319344
-154.404144 2120.921143 -92.753334
-56.748096 2349.423584 35.890820
-175.553802 2116.824951 -95.302147
-170.057053 2251.178711 -89.665581
-229.814972 2349.767090 -131.085876
-180.371933 2140.460205 132.000275
-208.072357 2125.914551 160.377548
-216.871170 2113.928223 -148.280838
-210.611176 2108.137695 -30.652004
-184.621811 2377.751221 -72.366051
-175.529327 2359.458252 -68.760406
-325.339233 2091.150635 216.086548
-434.343109 2054.162842 121.183304
-353.027435 2077.196777 304.182495
-85.743355 2191.765137 66.665627
-93.441208 2150.575684 77.266304
-185.241119 2313.766113 -88.245651
-273.762939 2110.348877 21.316751
-127.581268 2396.196045 -27.576597
-142.547485 2165.588867 208.548691
-159.222046 2127.382813 -23.154106
-41.265228 2211.154541 6.659917
-109.025116 2133.050293 -33.870968
-136.115128 2118.874512 -23.731108
1.295566 2231.938721 153.329330
-241.843552 2115.677002 227.702789
-263.861755 2143.168701 359.984589
-173.442490 2118.408691 -139.082657
-30.308695 2367.453125 68.811043
-102.257774 2130.881348 -20.874342
-54.270611 2298.089111 -27.164204
-244.105179 2103.281250 -74.655540
-219.567734 2189.464355 354.710327
-98.295609 2292.490479 -26.353548
-97.140297 2220.267334 -50.904785
-170.855820 2158.437500 255.123764
-9.236125 2268.614258 155.267136
-104.223419 2269.728516 -30.347752
-262.488617 2114.507813 96.681900
-35.636692 2261.773682 135.442734
-43.278976 2302.155273 -16.372917
-263.116608 2103.041260 237.201813
-197.152283 2138.075195 290.802612
-207.554169 2138.636719 -144.354797
-61.506577 2222.968750 100.870331
-205.670029 2143.330811 148.986404
-6.359426 2248.318604 145.839035
-224.461563 2120.921387 63.228668
-13.081372 2218.812744 149.386246
-203.769821 2128.950439 169.659470
-43.182423 2179.904785 -7.151814
-51.010277 2206.166504 161.761414
-29.467604 2247.889893 141.418365
-15.263424 2305.586182 126.564285
-126.873795 2147.460449 -46.591259
-283.244781 2330.098145 -174.066208
-215.867294 2322.771729 -111.548203
-114.923737 2205.281982 152.279739
-88.396751 2193.110596 111.558388
-75.384857 2333.090088 28.993538
-396.450775 2049.250732 74.329422
-206.792648 2115.041504 -82.278175
-310.951141 2102.618896 278.254669
-176.397308 2118.063965 -7.689818
-280.911285 2120.915527 17.275032
-52.132359 2338.318604 49.222771
-294.698578 2099.287842 166.331009
-98.505203 2194.403320 111.001556
-324.413818 2086.106445 -29.548313
-208.303116 2119.633301 205.677078
-128.312164 2195.491211 151.194534
-58.456627 2157.178955 58.507771
-167.766312 2234.723633 253.207718
-215.397995 2118.580322 -110.107323
-309.661530 2101.977783 122.433578
-157.281937 2308.449707 -63.293091
-213.660629 2216.657471 -139.788757
-259.389435 2106.753174 -115.461113
-92.435127 2138.626709 -13.684563
-259.082153 2225.209961 -150.895416
-277.899475 2148.880615 365.874207
25.465532 2226.089355 184.629791
-187.727539 2397.567871 -70.760117
-246.282288 2115.258301 140.709045
-52.654797 2179.355469 53.204044
-66.909760 2208.514160 136.173279
-4.288869 2255.402100 160.642014
-42.569313 2313.582275 74.607552
-6.141661 2251.334229 158.388153
-160.400787 2252.120361 -77.744781
-218.759583 2120.886230 94.102234
-325.395050 2102.821045 236.805267
-67.102974 2166.775879 -3.057783
-17.638981 2230.691162 135.835632
-130.417175 2115.791260 30.444637
-238.847672 2116.369141 -116.525612
-418.839386 2057.750000 202.114517
-263.456940 2129.722656 61.831520
-44.289848 2161.716797 29.076195
6.515754 2243.508545 154.490829
-119.336426 2203.895264 141.512756
-57.428917 2161.533936 9.397374
-88.839775 2379.861328 -31.439959
-39.246723 2212.276123 118.994858
-248.552322 2218.840820 -167.595932
-256.922180 2102.777832 268.065704
-336.517212 2090.447998 73.942009
-330.453064 2088.754883 182.363586
-168.021759 2188.663086 -101.689949
-445.333252 2064.437500 162.526917
-72.812820 2144.712402 -8.213915
-186.526794 2342.178711 -78.967049
-254.982925 2097.002441 293.244446
-125.865356 2133.884766 62.198860
-185.182449 2110.398682 -62.217930
-261.500580 2097.532227 295.693329
-227.903564 2124.635498 110.243675
-160.859894 2126.340576 188.954620
-238.105820 2112.653320 190.370209
-212.552017 2173.325195 -139.571579
-321.998993 2171.784912 350.757050
-59.711159 2202.482422 91.682610
-187.669724 2102.446289 19.764193
-145.756134 2126.181396 46.494610
-264.781067 2131.799561 18.213543
-52.098579 2176.449951 20.649006
-197.239822 2133.835693 147.354782
-396.276642 2076.289307 244.721649
-378.754578 2067.913086 48.308765
-310.726624 2101.904297 115.795372
-306.104523 2106.187500 43.127518
-289.682526 2103.644775 247.343323
-64.121117 2298.259521 -27.065006
-168.043854 2117.461670 -43.769505
-58.437637 2206.205566 168.956909
-127.922485 2249.387451 -53.347298
-360.010895 2077.573975 255.140167
-211.745712 2167.742676 -139.487473
-96.440773 2186.927490 103.462318
-176.244171 2144.621338 105.614883
-179.317734 2282.637451 -88.236015
-510.970001 2139.012695 199.971100
-314.206482 2104.163086 121.796524
-84.061317 2253.121826 76.569839
-10.789649 2263.773438 150.199173
-235.291931 2121.791504 315.972473
-266.591827 2241.000488 -159.200317
-118.365524 2135.675049 -72.114639
-151.467880 2176.801025 -85.736488
-290.035645 2100.176025 -33.651085
-222.377762 2147.628418 343.966278
-284.588623 2399.986084 -136.783798
-208.279251 2107.864746 226.561920
-135.077988 2195.813965 182.880554
-257.275055 2263.326416 -149.089630
-156.596222 2270.043945 -75.279984
-124.249657 2178.325195 143.417465
-80.530022 2152.893311 37.806515
-46.454494 2260.561768 15.045019
-214.603394 2101.491699 -86.113609
-22.445101 2198.220459 171.849976
-328.525909 2093.870850 259.368347
-194.993622 2236.748779 -108.236374
-66.678162 2244.386230 155.670700
-215.519196 2111.533936 -87.935127
-31.494747 2211.792969 192.419418
-134.591934 2303.781494 -50.117168
-61.839306 2145.018555 14.642497
-245.035233 2100.520996 280.599976
-126.145721 2140.005127 8.966624
-208.788010 2356.951660 -80.131157
-204.338898 2249.572021 -123.652657
-121.422356 2129.736328 -5.535580
-235.504333 2105.786133 263.087646
-14.531859 2248.608643 169.031311
-117.813477 2251.392578 -57.262615
-61.377048 2149.662598 11.547136
-17.754997 2213.254395 183.722275
-82.670341 2147.302002 34.334896
-286.981232 2307.094727 -160.628540
-87.124840 2283.337402 -24.227207
-11.929285 2334.983643 76.507233
-87.404137 2198.659180 106.951942
-216.506256 2257.344971 -121.080315
-125.836235 2141.316650 87.905609
-312.411102 2093.436768 75.851906
-172.573730 2283.847168 -83.984955
-278.301147 2101.137207 174.575745
-68.405472 2157.387451 -14.485977
-98.464684 2179.586670 135.760132
-248.081177 2112.842041 -95.047897
-150.449554 2177.335449 223.059296
-164.876251 2324.443359 -69.713585
-257.867859 2401.803711 -126.231056
-316.209259 2088.664307 214.935776
-81.592735 2291.254883 73.450066
-239.771698 2104.062012 269.087311
-135.735306 2211.914307 191.999908
-24.099539 2304.682129 112.170029
-344.599976 2085.667236 21.120010
-224.024979 2074.278564 -118.912415
-158.316437 2265.628662 -77.599205
-368.553894 2080.323486 246.667572
-158.946243 2201.484863 -84.782555
-335.592468 2090.963379 230.766113
-257.182831 2096.196045 277.651398
13.440764 2225.411377 185.997314
-121.096657 2205.132813 152.427399
-164.216629 2273.409180 -76.506798
-124.453835 2234.769775 -51.528179
-275.830688 2119.639893 138.115692
-148.362823 2110.666748 -36.394390
-394.883087 2080.030273 123.341293
-203.660400 2362.232178 -89.587326
-172.009964 2132.659180 173.692581
-395.649292 2066.719727 124.531540
-199.107788 2129.004150 173.512619
-174.387741 2309.400391 -81.610977
-88.291954 2229.178955 97.046997
-192.005295 2125.804199 58.948853
-125.108528 2324.247803 -39.779499
-145.360443 2117.514648 -41.160759
-96.828201 2264.475586 -25.460978
-292.131592 2336.884033 -141.816711
-94.892509 2173.589355 89.453522
-76.840057 2196.574951 110.144600
-301.822479 2096.503418 291.089996
-95.842461 2261.288574 75.797546
-265.617371 2120.262207 165.206161
-117.468910 2250.391602 -42.801003
-154.541992 2133.771240 151.606689
-223.237534 2109.945313 253.017441
-306.948761 2096.610840 -16.019678
-190.516937 2377.520752 -90.102371
-306.721710 2098.324707 48.976627
-118.617035 2141.775635 125.369171
-154.049362 2291.259521 -67.303291
-140.094727 2224.395996 198.974915
-232.518860 2118.823486 66.075462
-95.675797 2294.397705 81.921806
-64.653160 2169.608398 -4.389637
-372.451630 2080.643555 228.129715
-193.439026 2213.397461 276.850128
-103.389091 2173.201904 95.597931
-132.024155 2153.210205 192.078476
-170.659241 2130.881104 -83.892029
-201.426865 2111.419678 -86.433983
-94.361603 2141.646484 87.425804
-257.898468 2101.110840 -105.328247
-216.612488 2110.049072 256.422241
-91.151756 2291.803955 -21.938320
-231.014206 2168.625488 -176.833572
-67.470444 2195.699219 109.846443
-162.270752 2403.743896 -52.566170
-72.668114 2237.880615 43.678493
-127.670982 2212.663086 -65.601776
-187.209885 2111.655518 -33.531239
-420.682587 2056.177246 170.997971
-277.123779 2096.498535 -5.622789
-151.783279 2124.257568 210.073547
-133.622574 2295.336426 98.465576
-224.035858 2242.478760 -131.397232
-211.368225 2121.546631 142.370728
-261.237122 2276.502441 -177.566147
-300.978699 2109.143311 252.910278
-177.889374 2138.951660 126.250488
-199.760132 2168.062744 304.521820
-65.625580 2239.872070 77.508896
-255.115875 2081.140625 -95.841919
-213.573944 2205.270752 -127.731644
-38.378235 2246.453613 134.022781
-197.306366 2133.027832 180.177673
-45.311481 2245.199463 121.384331
-234.693405 2120.399658 47.834393
-90.668335 2216.051025 132.827118
-324.820038 2096.969727 157.908981
-354.626709 2083.004150 48.517223
-373.703522 2084.283691 265.685760
-199.659592 2128.030273 249.870972
-274.296539 2107.719238 347.404175
-225.836945 2386.979248 -101.949463
-276.925812 2102.591064 -52.533611
-113.775719 2131.285400 -63.692326
-177.481537 2186.234619 -102.889610
-36.160492 2248.872070 -18.715473
-193.329788 2189.475098 -122.290482
-108.093750 2152.273926 -16.520500
-83.685051 2147.910645 59.712082
-175.448090 2128.754150 164.808136
-456.872833 2037.067627 167.875259
-64.934715 2338.883545 8.777507
-187.450577 2333.487549 -82.543793
-126.534729 2145.547119 130.659271
-67.994644 2221.954590 -21.711266
-73.689316 2214.621582 67.910149
-234.436676 2118.087158 151.547562
-252.854950 2111.187988 200.108566
-80.403786 2208.583008 117.514832
-163.594360 2183.389893 224.571686
-258.484100 2097.732666 309.350311
-176.266968 2274.916504 -88.594872
-388.799957 2115.867188 216.339996
-196.497299 2140.432861 272.333252
-130.803986 2229.720947 -60.152493
-69.101677 2187.221191 69.429863
-107.972420 2249.693604 -49.796043
-266.540009 2122.450195 151.901077
-282.376160 2107.650879 159.532806
-176.033737 2151.569824 249.241684
-80.706253 2136.351807 -3.019291
-78.377274 2137.461914 -7.217021
-70.173676 2166.215820 53.303200
-397.478485 2084.163574 191.095688
-147.450775 2292.176514 -60.388729
-150.488342 2404.315918 -30.722321
-181.259247 2115.953613 -26.774988
-380.667419 2068.516113 248.042511
-194.359146 2118.761230 218.191055
-178.604263 2127.401367 173.732605
-82.911079 2283.400635 46.789516
-137.076004 2121.239502 30.951380
-207.382629 2121.318359 64.590118
-278.957001 2101.196777 288.357178
-300.916016 2102.288574 -45.788815
-170.952011 2122.436279 1.648141
-230.385147 2115.871582 247.068085
-298.853943 2090.853271 312.517944
-265.885315 2124.090332 1.511350
-147.257492 2127.138672 -12.046503
-72.718239 2215.132324 -17.044209
-162.737442 2141.523438 -81.464546
-56.791630 2243.819580 20.382442
-374.796021 2078.298096 167.126297
-225.795486 2269.666504 -128.279480
-248.410782 2129.053955 143.593704
-201.491455 2140.101074 81.162186
-317.715393 2101.054199 133.345352
-349.688293 2090.622314 290.828003
-91.389481 2144.571533 83.522041
-214.247330 2117.521484 -12.983549
-158.905136 2123.744141 50.124851
-32.188511 2268.323242 136.631699
-114.766342 2264.342773 -41.812904
-137.816101 2121.544434 -68.644775
-175.878586 2122.658447 -140.268646
-350.329224 2071.819824 12.808426
-200.440933 2112.137451 -36.239124
-192.322845 2137.757324 103.200821
-264.477173 2101.759521 245.489410
-257.727600 2376.171143 -129.608017
-125.802979 2138.471191 73.744171
-386.728729 2026.040161 99.021454
-54.864365 2201.595703 31.896465
-104.179657 2257.544434 85.060059
-250.924957 2119.462891 73.837845
-199.555771 2303.126221 -100.542763
-208.623703 2111.602295 -65.141998
-145.084808 2354.485840 -59.761463
-228.869247 2120.421875 -3.810696
-79.557648 2290.064941 -23.259224
-230.838791 2117.519287 103.310791
-250.942062 2093.936035 273.414429
-102.503738 2264.513672 -45.520859
-190.895477 2120.937744 -18.881151
-246.654129 2101.002686 -69.573105
-249.633209 2365.372559 -138.072464
-434.445251 2045.510986 124.499161
-222.391846 2180.320313 369.028076
-471.757172 2044.568970 183.896347
-222.947113 2123.588379 118.607147
-448.113983 2044.021606 195.249619
-240.993271 2229.253906 -156.501968
-59.356091 2297.226074 4.872470
-201.195587 2209.198242 297.072510
-237.559189 2181.770508 -177.047470
-336.502777 2253.563721 356.337494
-247.971130 2159.631836 -155.944244
-166.213684 2184.850830 -101.210335
-44.320824 2266.504395 -5.043244
-62.590599 2352.764160 -24.336172
-79.119942 2199.329834 104.679047
-255.687866 2103.547363 -31.250969
-280.032257 2126.175293 2.951430
-278.481293 2107.943359 -88.674347
-85.785782 2142.558594 -30.721199
-299.515045 2051.721191 -16.156021
-50.846024 2187.899170 29.590473
-223.589676 2263.071289 -125.180122
-46.635101 2298.046387 94.236748
-380.405304 2162.462646 309.342712
-330.058289 2076.271973 -16.887169
-307.612122 2087.464600 287.086273
-215.027069 2125.208252 199.201706
-159.312210 2248.732666 -77.525955
-93.167351 2261.873779 -23.037653
-353.948364 2069.275635 103.111931
-246.569031 2109.186768 215.456985
-323.428253 2104.815918 197.457397
-266.910187 2105.030273 199.532730
-323.386139 2099.163818 25.466284
-116.233734 2131.025391 -32.019417
13.549038 2316.230469 82.544365
-155.637787 2303.355957 -66.910172
-130.436981 2340.999512 -38.448425
-61.828094 2171.696045 52.292961
-279.642609 2104.993164 123.753693
-103.898987 2213.044922 -41.799118
-15.493328 2237.579346 151.350952
-409.904358 2098.834229 224.249283
-86.276009 2178.546875 -29.503813
-205.701126 2110.310059 -8.262404
-73.958412 2147.629395 25.708799
-160.626129 2290.187988 -72.735443
-299.551544 2109.626221 233.645264
-150.229660 2132.059814 -70.953835
-310.295990 2104.456787 248.717316
-257.752502 2106.645752 308.986847
-83.137726 2141.165771 -23.196575
-49.738289 2310.276123 39.815987
-112.902679 2146.759033 83.224983
-71.086906 2335.849365 7.257930
-381.527679 2065.072510 105.041496
-70.191734 2283.316162 86.903664
-94.872597 2223.245361 93.051338
-255.080994 2297.576660 -151.530258
-69.411217 2310.769043 32.191265
-207.642197 2103.312500 -27.643391
-237.949966 2108.250977 208.600555
-235.943863 2127.253418 288.150269
-99.215912 2138.850830 46.267368
-50.416485 2211.195557 128.427841
-180.775253 2130.263428 111.848518
-379.833344 2075.390869 81.772133
-60.972191 2172.976318 51.235779
-183.821274 2121.189697 -104.357834
-190.417023 2178.251953 304.490112
-341.547089 2092.435303 169.223541
-281.483002 2103.640137 -46.832588
-153.498215 2277.190186 -70.957245
-256.801453 2253.738281 -152.701080
-161.606079 2131.763428 235.639511
-378.133972 2155.227783 306.785065
-128.679871 2259.004639 -56.785923
-134.427124 2136.230957 130.151932
-214.371033 2174.440430 331.881653
-132.084503 2122.514404 -44.848907
-158.098129 2120.447266 -38.638119
-172.850327 2351.999756 -72.307655
-199.502075 2124.852295 127.119881
-89.049881 2384.403809 16.712601
-194.194458 2258.043213 -100.420586
-153.264359 2122.315918 2.386930
-285.969055 2111.520996 209.063416
-382.210754 2084.801025 74.326378
-256.497528 2289.147949 -153.436920
-185.499664 2301.031494 -101.942940
-382.009552 2078.038574 70.132645
-85.641731 2142.685303 46.837620
-19.559292 2183.541016 11.988144
-128.408356 2333.857422 -38.107960
-260.891602 2372.651367 -131.062668
-60.284985 2240.418457 102.211800
-127.485207 2135.938477 19.941759
-82.611794 2243.424805 -18.975334
-243.681030 2123.312744 -85.291138
-125.868187 2125.631836 9.011893
-159.467560 2129.602295 163.644577
-280.111053 2090.618896 320.526917
-61.198410 2236.550537 -19.958904
-230.325150 2121.816162 89.849907
-167.591141 2122.821533 222.386826
-230.887222 2144.532227 -162.169312
-128.280670 2141.675537 92.228477
-266.649841 2104.147461 304.191376
-203.507813 2119.057129 -145.109436
-272.534393 2113.104980 344.033051
-125.546486 2388.974365 -27.517805
-88.591469 2291.059570 -27.303364
-241.167603 2109.322266 -11.598851
-362.355011 2074.437012 214.279129
-92.818581 2148.463867 96.889885
-97.329330 2225.884766 -33.204956
-148.286880 2126.601807 35.911449
-276.691467 2102.203857 317.255280
-363.226196 2074.527832 208.631454
-214.680252 2119.839355 -65.102318
-433.080475 2055.016602 128.690033
11.545757 2228.681641 182.998276
-318.145050 2092.017578 91.583107
-310.839325 2192.130127 362.508148
-144.274689 2327.037842 -53.477978
-102.359032 2211.771973 161.827087
-241.010635 2129.345459 357.032654
-35.059803 2225.431152 140.619797
-275.587952 2320.714844 -134.830856
-289.395264 2123.130859 222.251678
-220.724274 2132.956543 83.790756
-401.258179 2103.842773 185.473969
-77.423004 2246.416504 -18.476009
-57.416443 2162.926270 54.570816
-80.514244 2165.941650 86.587090
-153.096008 2129.298828 185.322876
-180.908981 2128.959717 136.822083
-166.156982 2130.406006 203.419052
-195.443771 2106.347656 -42.434769
-383.953552 2072.867188 173.442886
-157.719376 2147.281494 63.480656
-73.070274 2196.624756 82.141068
-203.919250 2201.427490 313.935852
-212.097244 2124.995361 60.202644
-222.463348 2387.546631 -99.298691
-124.718964 2128.853271 -14.523791
-237.191895 2365.758789 -116.200455
-185.441879 2129.004395 28.507944
-203.185577 2254.365723 -111.829407
-263.703094 2108.184082 195.525620
-276.026642 2107.942383 89.046616
-52.052433 2175.142090 15.213685
-239.919876 2120.702637 163.764923
-208.332840 2352.437256 192.614975
-165.422287 2134.697998 155.684525
-174.807617 2125.597656 -0.827377
-446.083984 2052.628662 150.298553
-279.543488 2324.235107 -151.789917
-118.048012 2316.045898 -37.654217
-399.230896 2059.553955 135.143204
-268.201996 2121.050049 160.261566
-185.136032 2187.270752 -116.754929
-261.674408 2184.303467 379.135223
-154.766922 2161.193848 230.523331
-103.463135 2135.552490 -25.470129
-169.920746 2405.468506 -69.672638
-41.693882 2350.160400 -39.241596
-287.132751 2408.018066 -192.251312
-152.703156 2208.694580 237.573730
-128.318024 2179.698486 145.597443
-156.353378 2293.918457 -79.590187
-43.231762 2210.395996 150.188675
-86.578506 2383.138916 2.229396
-14.402193 2225.719971 162.780609
-131.248993 2304.171875 -58.905739
-318.794312 2068.902832 -14.997330
-63.062023 2215.295410 149.034149
-160.554535 2215.437256 224.519638
-61.043468 2259.099365 125.893700
-113.205414 2143.039063 80.686913
-79.827667 2190.316162 127.572929
-347.983856 2084.867188 206.901901
-105.837090 2284.321045 88.879959
-161.931961 2208.291260 -87.271187
-282.751160 2387.637695 -189.472824
-165.351791 2128.262207 166.627426
-280.432617 2111.055664 160.326538
-366.981598 2077.907471 278.008057
-132.056656 2121.950439 -9.196572
-44.215103 2172.925537 -18.221802
-45.518784 2185.777588 26.367704
-200.254562 2136.346191 273.099915
-126.818771 2124.342529 -3.600792
-191.731110 2128.355469 248.791351
-28.867353 2323.216797 75.150581
-91.967979 2140.882324 -1.149348
-0.968659 2221.289795 179.610535
-95.268776 2170.114258 -52.010273
-281.195038 2334.730713 -150.609314
-40.553383 2346.362549 60.384792
-116.769958 2297.937744 95.649544
-254.479095 2104.749268 -34.166840
-54.787209 2147.700684 2.795007
-468.863312 2192.395264 244.935455
-48.795094 2308.122070 43.632133
-411.746399 2057.266602 167.686523
-199.241287 2146.822266 297.845306
-184.729126 2131.587402 -137.222198
-229.271210 2118.561035 326.250549
-242.897614 2125.143311 208.523209
-276.498260 2298.729492 -154.005051
-177.766296 2118.381348 16.219732
-131.748459 2247.727051 -57.706120
-287.464081 2100.809326 7.562394
-22.816854 2304.313721 100.320114
-153.490356 2189.504395 -83.070419
6.965816 2245.895264 181.123871
-34.807556 2200.786865 -9.363782
-150.919189 2109.331787 -43.270859
-221.492722 2138.403076 297.141724
4.988514 2221.711670 207.295898
-402.602936 2079.691895 246.615601
-368.102631 2273.448242 334.835144
-163.087845 2122.212158 -75.206879
-95.282684 2139.021973 -36.704082
-46.722450 2152.090576 9.747067
-194.978210 2160.049561 316.746796
-61.288177 2266.398926 61.867901
-322.000336 2090.834961 233.330246
-73.189980 2239.718018 67.553436
-75.912086 2411.923828 -29.811846
-244.277634 2114.250244 -113.982109
-365.565216 2065.701904 34.722904
-41.498791 2289.892334 9.273443
-48.206402 2321.785156 38.074108
-74.331642 2202.411377 112.165810
-185.829590 2141.511719 101.706291
-72.438660 2152.773926 46.864098
-414.991272 2101.452393 268.118378
-101.807869 2133.881348 24.700212
-175.802094 2346.668701 -74.523544
-84.381737 2238.870361 59.526833
-68.731987 2183.449219 55.133705
-16.726122 2347.867920 71.868889
-286.621460 2106.240234 129.134460
-359.888031 2090.662842 305.824188
-272.509735 2365.190674 -143.122009
-264.471710 2112.009521 175.951706
-223.059830 2106.593262 -103.782883
-285.725037 2106.567383 18.427528
-205.059265 2164.053223 -129.400894
-332.299438 2085.512207 22.786537
-262.903839 2100.622070 308.151733
-314.381775 2092.048828 10.977938
-78.407768 2246.906738 109.300636
-368.363831 2082.019531 236.487839
-149.544250 2227.100586 -72.250969
-53.239010 2204.430420 -19.165298
-260.039795 2261.898193 -170.997314
-227.366699 2123.991943 115.683426
-432.779602 2065.307617 243.590225
-307.423615 2101.667480 168.197556
-292.465607 2104.616943 79.762093
-148.357178 2122.249023 -76.361229
-276.804657 2086.132324 303.603424
-134.436157 2318.067871 -58.730782
-8.533362 2253.186523 153.914490
-79.181313 2198.431641 94.446053
-307.546143 2088.145752 336.283630
-16.522261 2299.923340 128.576553
-355.932983 2085.563477 203.397919
-210.780228 2132.207520 292.331329
-298.004608 2124.504883 232.881348
-107.715019 2136.778320 83.788841
-10.417782 2262.622803 167.098541
-230.285004 2104.354004 -83.719353
-198.089386 2306.344727 -100.736137
-215.201599 2190.205811 -131.625977
-192.858490 2132.396973 123.000526
-164.485077 2123.821777 -96.284912
-371.735962 2127.527344 224.030975
-251.657883 2107.666992 313.949585
-243.956131 2119.647461 348.772858
-326.304565 2095.832031 43.406349
-85.453621 2140.662842 15.705503
-279.994507 2101.671387 3.735079
-264.490051 2110.670898 182.323502
-289.719330 2097.798828 -54.938431
-211.596130 2110.350830 281.276855
-191.244003 2139.620361 -136.794907
-259.927582 2108.262939 126.314255
-228.894104 2119.207275 63.494179
-209.070618 2142.305664 311.411133
-274.872040 2287.261475 -167.724884
-354.233185 2054.458008 25.799261
-123.649673 2387.689209 -25.709984
-266.202881 2114.806152 276.688751
