ply
format ascii 1.0
element vertex 1410
property float x
property float y
property float z
end_header
1989.405640 45.702477 839.724304
1979.095581 -72.567039 765.125183
2129.273926 -151.092346 915.459290
2049.391357 -236.366776 913.205444
2012.135010 -230.117249 586.033997
2024.787231 -209.564148 904.259949
2011.556763 31.822580 868.154297
1948.423950 -93.348122 829.784302
2050.304443 38.478889 899.982605
2179.299805 -37.532871 921.114807
2017.437866 38.218285 800.681702
2184.136475 -140.545074 927.675781
2156.808838 -224.704239 929.797241
2172.007813 -116.376862 458.535767
1987.421875 -199.231720 717.646240
2044.715088 31.377224 675.966797
2090.354248 54.820637 697.691284
2083.683350 3.602971 510.108795
2166.145508 51.102352 877.114258
1959.660400 -114.069221 795.025635
2006.026245 29.306482 772.472656
2013.502808 -77.389084 712.024841
2136.370850 95.066376 852.782776
1994.232910 4.791461 831.823669
2012.162354 22.143192 738.189026
2112.391846 85.304626 753.276001
2185.458496 7.523905 945.992554
2001.266846 -11.308480 868.260071
2186.207764 -70.002678 922.991760
1991.455322 -224.252396 875.578735
2041.320557 -149.426056 563.309265
2026.509399 -115.870354 633.459656
2006.515015 34.176388 858.111389
2000.909424 -180.564041 709.159790
2063.666992 -76.086205 500.546814
2096.933105 26.293865 512.565491
2095.211426 48.528664 567.655762
2012.597778 48.685673 827.138611
2054.071289 30.928408 746.348145
1999.254395 -31.184725 865.053467
2088.672607 -42.613075 465.424866
1971.322754 -221.530151 632.329468
2081.946045 -18.796518 894.727417
1993.105957 -223.240143 685.281982
2083.916016 88.058434 774.048828
2017.833252 56.417561 868.225037
1982.407837 10.410124 820.051147
1987.330444 -224.416275 712.746277
1972.414429 -60.041306 859.857483
2098.525146 58.430954 578.909851
2015.126099 -54.542027 875.096252
1959.695435 -95.728447 797.157959
2085.788330 -221.264648 912.226624
1981.504028 -74.619957 863.166321
1952.741333 -206.806854 838.493469
2099.750732 150.342361 779.524170
1991.848633 -48.105450 753.004578
2091.321533 154.135712 763.425842
2027.226440 -194.226425 555.381042
2029.987793 36.208763 776.801392
1980.331665 -130.536270 759.802979
2026.051392 -164.089417 594.770325
2151.370605 96.465904 870.368774
2017.293335 -165.999649 642.310425
2102.343262 17.981421 944.023071
1960.147705 -218.024628 810.404419
2044.047607 -79.120850 628.084045
1971.804321 -186.401886 756.455383
2066.451172 65.802010 754.818115
2017.871826 -236.146866 475.898438
2066.594971 48.844223 571.504272
2091.251709 17.124176 473.814331
2031.381958 46.114189 760.515442
2014.734131 -56.499001 877.146362
1977.553711 -36.966118 790.229187
2182.330322 -94.403908 456.493500
2000.499512 -184.575684 642.888794
2218.939209 -56.421097 932.287659
1987.234863 8.660531 803.344238
1965.159302 -43.236504 810.863647
2131.110840 -73.621696 911.546387
2129.151367 -194.967941 454.811340
2082.612061 -1.083064 469.291504
1987.308350 -50.170799 868.158997
2108.540771 37.233524 461.833923
2110.367188 -205.561890 920.019958
2069.124756 -86.661644 894.557068
2131.577393 54.838329 525.742920
2175.449463 -242.598206 937.666443
2030.802002 -164.491028 645.827087
1953.656372 -161.027527 835.222656
2052.540527 32.147263 781.171997
2095.705566 15.744112 465.859772
2056.251953 24.436693 584.691528
2061.217285 -44.229538 889.928650
1963.330200 -53.464539 816.449158
2094.007080 29.395683 541.661011
2009.480713 -164.894669 888.450623
2143.910645 82.648262 765.081421
2210.724121 -143.000504 923.463745
2058.967285 -4.218843 581.790466
1966.525146 -92.645798 876.304382
2171.182373 -120.662216 458.669220
2050.113281 33.209686 892.981628
2067.874268 29.472010 905.668640
2070.507813 -109.737343 897.177124
2075.325684 -163.193695 518.546875
2014.179932 37.081169 806.637207
2002.704712 53.770802 820.906433
1965.318726 -213.975845 707.015015
2057.616943 46.050480 787.733948
2003.728516 9.982386 774.950134
1993.034302 34.646202 828.012512
2036.951782 30.472738 695.813721
2061.612061 -149.591980 896.539124
2058.620117 -34.353977 585.388672
2044.243652 43.289528 639.409180
1951.894897 -208.848373 795.384216
2158.995117 48.998211 598.971985
2150.216064 21.761501 931.487366
2093.982422 47.141846 793.908386
2021.701294 -208.903168 596.092773
2163.218262 75.290382 509.017090
2031.711670 -91.202492 690.451843
1992.783936 -182.684021 735.793030
2090.145264 -167.209549 920.358887
2087.019043 70.787384 665.349915
2079.469482 -65.901199 506.401001
1996.802490 -34.948280 756.744751
2048.001709 -16.190779 885.037048
2006.937744 19.850420 773.082397
2026.804688 -230.500626 553.817322
1949.312866 -147.383972 836.406067
2061.267822 -234.551971 444.162292
1993.798584 5.801070 848.634521
2002.518921 -206.304443 642.947815
2087.829590 41.104538 499.593994
2003.476196 24.855143 855.909668
2078.431396 31.278292 818.749573
2027.971802 -54.112324 683.351318
1998.673462 2.110514 764.515381
1972.871338 -62.612122 787.130249
2159.111572 -87.388077 929.695068
1995.039307 -24.599321 767.561157
2166.370605 -247.792282 937.767456
2032.796265 -90.325150 711.071289
2039.442261 32.093105 719.883972
2087.693604 -119.034897 455.190063
2079.668213 -67.559517 484.590912
2037.063965 42.627735 669.432983
2038.467407 -73.214828 649.199097
2152.098633 121.663116 837.121399
2141.407715 89.283150 826.301270
2018.021240 -46.334534 736.296692
2075.208008 27.274900 556.412048
1975.220947 -59.298294 775.871277
1996.607910 -182.788116 680.802307
2200.216553 -217.571869 923.910217
2064.003662 45.964256 808.189026
1968.830322 -17.173311 845.747314
2025.758789 -203.088486 521.571777
1973.819824 -9.475972 851.356445
2065.547119 -22.215155 888.450745
2136.670654 80.127579 516.106873
2011.973633 -168.365448 599.800720
2150.135986 96.806946 864.407288
2107.401611 57.642868 591.715332
2104.738525 167.208954 792.183472
2049.701660 -105.959755 902.103699
2132.787598 77.829605 861.557861
2075.496582 -68.048729 485.103119
2044.705933 -74.987816 891.139099
2161.558838 -142.342712 914.316223
1997.355591 35.948124 823.163696
1976.005493 -76.912628 741.975281
2088.124756 150.700699 749.051453
2137.448242 43.718483 866.179077
1956.798584 -212.923080 802.805786
2174.836670 97.046783 885.778564
2011.421997 -228.507843 909.329346
2050.049805 -155.241806 584.626282
2004.438599 -202.920288 622.793274
2088.946045 61.162933 674.952576
2083.954102 -9.622416 539.450256
2113.922119 -48.512730 904.137878
2035.680298 47.379776 754.335999
2057.126953 37.227783 808.143250
2087.854492 27.306890 919.234558
2053.658447 -0.761085 576.117615
2050.090820 17.648817 609.366882
1968.308228 -167.172836 812.269653
2009.389648 -133.384888 699.090027
1986.740356 -145.771271 754.246948
2045.770508 -208.477158 900.823975
2039.502441 49.524288 758.888489
1985.160156 35.727119 833.306396
2047.241943 -103.635582 612.337036
2164.024414 -246.619431 928.606384
2017.136719 -119.878197 882.284546
2035.282227 -63.059978 653.441162
1995.917358 30.809996 855.772400
2094.339844 57.263218 744.434998
2102.986816 129.060226 785.028625
2052.019531 -155.808090 524.496948
2060.106689 12.991799 562.560547
2036.925659 38.932369 666.105042
2033.646484 14.004660 671.688416
2089.077148 91.888550 779.946106
2048.934570 -39.324276 627.106140
2001.048218 -231.113312 603.001099
2017.694458 -23.102055 742.579285
2192.148438 -129.093628 931.942749
2091.768555 83.366089 784.169922
2127.208252 41.078773 878.251892
2051.666016 -53.119003 598.368896
2110.872314 59.311539 520.907288
2047.071167 14.990828 664.890015
1982.473877 -164.494064 724.541260
2078.496826 26.343016 587.985291
2211.133057 13.856718 898.085449
2094.675781 135.826874 749.420288
2126.911377 65.484856 605.519531
2130.805176 51.394939 521.657166
2040.150879 -6.899003 677.394653
1992.163330 33.265831 839.950256
2139.726318 57.936092 850.559692
2113.678223 44.457294 645.262634
2036.839233 -231.519547 474.741486
2063.088379 -35.710800 547.369934
2099.635010 176.059128 784.434021
2168.941406 -74.873627 922.504517
1975.483521 2.927845 812.455078
2066.303711 12.830759 912.123169
2170.263672 50.054718 888.062927
2078.729004 -134.232162 904.029297
2030.866577 -88.606850 633.925537
2029.296997 -106.848602 649.482361
2116.766602 46.107059 593.329895
1963.878784 -27.870844 838.920166
2137.641846 51.550419 570.533875
2069.393799 68.111954 756.354492
2136.522949 21.480072 815.480896
2041.043091 -205.005188 468.080994
2039.206177 -68.010017 630.369690
2031.032227 -34.675793 706.753479
2004.533569 34.876293 871.770081
1966.265503 -33.026226 823.675354
1936.936157 -206.115158 889.361694
1994.296509 -207.285950 664.164307
1981.061035 -182.520752 883.203918
2159.859619 -58.059109 918.083679
2021.743530 -195.271545 894.430847
1971.194702 -117.247475 789.454041
2202.457275 -58.193058 939.477905
2056.655273 -30.608601 888.496643
2041.112793 -68.740395 618.222839
2124.763428 -202.802292 923.044434
2023.735840 -178.636078 587.937134
2105.412598 51.435608 835.582275
2077.888916 58.308846 702.925964
2094.897949 -43.343349 900.897095
1972.116699 -67.253525 774.752075
1971.725220 14.277314 851.907349
2073.486572 57.438969 741.095398
2044.236694 -85.833031 622.703613
2094.687744 154.725769 784.122070
2135.968750 69.848412 856.690125
2268.656738 -66.823212 475.851196
2153.762207 81.403160 865.323486
2020.891235 -219.927521 556.623352
2092.213135 146.220352 774.653564
2029.800903 -12.139468 690.654541
2046.074951 -67.225853 890.623535
1960.375854 -98.285500 838.982422
1983.327881 -6.615828 853.203125
2078.450195 23.486139 543.712280
2147.098877 -35.531792 920.790161
1986.395264 -20.011732 857.321533
1956.257202 -142.301987 765.548035
2065.466553 31.907312 771.978760
2197.208496 -110.648712 931.964050
2102.314941 12.940162 457.703552
2039.393066 -39.296646 650.831543
2137.145020 30.412081 464.575653
2092.663574 14.466837 477.524445
2053.140381 -240.370575 914.530518
2087.729980 111.703667 791.165283
2192.208984 -104.295982 940.761230
1963.201294 -45.529861 827.326599
2040.816528 -231.925522 905.625122
2031.768188 -70.440315 640.457275
2126.203369 -178.633301 919.862549
2063.101318 22.661804 527.150146
1966.971558 -213.925720 884.253601
2029.417114 21.731974 682.232605
2141.139404 59.227623 837.383423
2055.221436 -208.281036 509.998566
2002.124023 39.003494 814.289734
1988.267334 29.577967 840.013672
2117.105469 -69.874084 908.357544
1972.799927 -226.125900 772.586548
1972.220215 -44.194862 852.270996
2011.070313 43.652454 793.719116
1986.191284 26.363634 820.396606
2047.227783 -84.969208 570.940979
2139.562256 127.045837 875.529419
2032.751465 37.814819 799.201477
2088.993652 -43.314545 434.663452
2144.328369 31.981539 804.109314
2072.156494 14.009084 538.611755
2125.286377 56.673637 543.455444
1960.609375 -142.287216 792.550720
2113.889160 6.026927 925.237793
2046.872070 38.220333 639.574036
1992.958984 6.312933 786.638062
2137.708984 54.077393 689.025574
2134.567139 81.101204 519.355408
2118.656738 137.153244 787.616821
1969.460938 -78.996529 776.964844
2093.699463 176.643738 772.046570
2058.546631 68.418579 688.565186
1962.043457 -73.958588 865.873657
1947.247192 -218.374298 863.134155
2070.453125 90.686737 777.626160
2057.907471 10.131339 577.411621
2040.993408 26.564695 642.429321
2071.703369 -17.089859 552.031372
2056.259521 34.986439 858.710205
2057.224121 -41.382801 556.478821
1983.209717 -51.628181 779.745300
2145.908203 119.594620 849.905212
1979.833130 -222.689575 649.081177
2046.028442 -162.170456 899.419983
2010.803955 -141.198349 890.235352
2016.804077 -92.110069 878.708008
1972.187744 -185.325150 744.907532
2104.856201 111.211914 793.140442
2014.699341 -219.122101 559.961243
2199.486816 54.565742 566.587708
2019.320435 31.381609 748.155640
2119.953857 77.583725 488.813782
1946.677368 -194.068802 855.623718
2156.159424 60.299351 774.576416
1973.203735 -184.116745 734.121704
2108.690674 62.004395 536.272644
2207.919189 -218.946274 944.463989
1989.087769 -12.363628 778.615112
2131.461426 -186.182785 925.020874
2007.932007 -184.216309 669.463074
2147.242920 63.813507 645.208801
2033.847534 -111.285492 635.167175
2021.884277 -58.278557 698.711243
1971.325439 -124.339706 760.400940
2115.081299 -106.713989 910.862427
2052.185303 38.915306 773.904419
2170.676270 -170.812912 929.697693
1969.154297 3.305623 850.334717
2091.168457 42.582367 566.825745
2049.464111 -184.006592 447.583130
2067.806396 -56.378242 495.398346
1995.386230 16.802290 781.063904
2024.044678 -128.291962 680.408691
2037.270386 19.189100 662.599854
2005.848999 -172.718536 722.898987
1981.925781 -182.513336 701.379272
1945.450195 -197.185837 748.534363
1978.391846 -23.970497 790.812439
2011.372070 40.183964 853.978760
2001.936646 34.448116 800.123169
2177.405518 -161.099182 928.242188
1975.960571 -74.913895 779.960327
2068.423340 109.318909 780.988220
2059.321533 34.592316 870.622803
2083.356934 19.454700 556.829712
1984.511963 -23.741575 823.635254
2127.405518 29.564638 808.404968
1978.839478 -30.040445 844.020874
2087.379395 -129.073578 438.742035
2192.565186 -59.429077 933.738892
2148.205078 53.794487 870.387695
2065.027588 -87.896591 523.830627
2073.714355 42.564449 871.801819
2044.657715 -152.969254 544.491882
2009.397095 -138.133118 887.340820
1978.200195 -24.974003 786.810852
2209.845947 -41.213432 941.187012
2036.713867 -55.528732 872.473572
2179.233643 -18.421841 938.483521
2084.546387 -216.738068 919.024231
2005.769287 -193.125214 612.060730
1996.481689 -191.057541 652.726868
2041.928711 49.275269 691.530029
2110.033203 27.585983 814.182678
2079.851563 -164.665634 914.369751
2062.494141 62.467361 788.219238
1940.377075 -121.616287 859.556824
2077.039795 -155.611832 905.338013
2001.831299 -150.083481 722.497437
1999.658081 -231.341934 553.456848
1994.807251 -133.636581 878.713074
2142.552246 -8.324199 926.702759
1970.409058 -130.120544 864.606812
2073.980713 13.670740 518.853027
2023.648926 -141.549149 665.453918
2077.421631 -72.521133 533.643188
1975.991577 -209.079910 727.644409
1978.831177 -224.122086 631.227722
2019.890015 -229.197571 554.457031
2030.594849 -145.020004 602.573669
1958.166138 -94.892540 813.437683
2192.895752 -165.681107 935.803223
1955.194580 -96.812340 844.138550
1971.708740 -35.699913 806.030823
2141.731201 17.778608 906.842407
2138.054443 18.240517 875.572754
2058.231934 12.846964 898.645020
2038.974854 -131.990829 603.089111
2024.038330 -189.700241 585.721741
2083.641602 -85.349960 488.532867
2016.255615 -172.634354 892.732361
1991.031006 -27.292681 758.894897
1954.958130 -129.037750 873.941528
1999.892456 -41.276039 738.944519
2192.505127 -121.923698 919.244446
1997.311035 -1.558923 763.773621
2059.985107 35.838200 615.649963
1935.473633 -205.710464 850.568237
2077.366211 16.414497 516.985718
2049.149170 -34.055943 628.267578
2001.879272 -12.333200 751.794006
1991.231323 6.793962 781.963928
2035.343506 9.998536 660.171265
2037.680786 -45.668095 675.919556
2148.962158 -138.273697 920.488220
2035.147095 2.715442 666.417053
2090.128662 50.054173 592.637451
1998.274170 -212.085281 625.352234
2138.011230 70.990822 859.700378
2036.986328 -165.524826 517.094421
2096.390381 -100.631523 556.151917
1998.584717 11.389324 796.266968
1946.866699 -97.838196 839.429443
2028.395752 -10.654589 694.200806
2207.805664 -263.177429 946.077026
2028.246582 28.584244 727.572571
2058.953857 -177.334976 458.219757
2026.438110 -87.741776 668.196411
2023.415771 -147.959946 699.873840
2022.692017 6.350283 724.707886
2010.577515 -168.548615 647.053833
2181.872070 -109.779259 928.446533
2076.676025 33.834187 785.294434
2040.593262 36.364326 764.440918
1953.384521 -111.941032 834.010376
2025.885864 -89.527901 709.939941
2051.555420 40.357788 840.139099
1996.094116 -61.902103 728.291504
1996.217529 47.150520 837.037109
2093.289307 -46.604156 455.231750
2059.437256 53.332672 598.708679
1976.634521 -223.820038 615.135254
2002.456909 -181.291183 619.564575
2076.326416 27.951887 556.640991
2089.329102 102.292587 750.598877
2046.538208 -219.820648 906.220215
2084.996582 170.501587 788.420593
2042.271851 -4.415249 885.555176
1945.246338 -142.615768 852.311707
2184.878906 76.656387 879.661560
1941.564819 -182.228561 851.333435
2161.571533 81.962029 877.800110
2051.750977 21.637268 605.676514
2073.359619 75.415970 677.748901
2030.730957 -112.310646 627.555847
2155.364502 60.536919 865.282959
2064.977295 -118.093887 541.667908
2101.836670 153.158203 788.918152
1978.859375 -30.198627 840.306641
2011.840576 -161.281860 701.362549
2054.405029 -236.500092 919.899902
1987.084839 -2.617819 759.539185
2057.733398 -191.116119 477.033875
2081.568359 45.086975 546.817627
1972.656250 -38.534492 813.966919
2134.397217 -32.232037 909.489929
2087.768555 56.964123 595.409180
1989.540527 -206.886169 676.784119
2152.304932 -82.888756 919.262024
2069.775879 67.311478 673.821411
2093.922607 18.129124 482.554108
2153.239258 -24.314857 918.172852
2092.747559 54.273045 581.487793
2107.884521 57.322540 625.381714
1962.340454 -85.284348 808.064087
2058.962646 -1.209609 585.747192
2045.209961 0.096241 612.635498
2050.558350 -22.013338 617.553223
1951.720093 -74.675209 828.833435
2053.056152 -72.143097 700.603516
2178.611328 -261.326385 972.489624
1952.173950 -168.650787 822.114685
1984.386597 -75.121490 759.046814
2008.387939 39.345860 788.729492
2074.309082 -33.694904 527.453125
2124.803467 -214.939926 924.541748
2073.737549 -20.993553 481.584259
1990.977661 -64.504524 745.630981
1970.517944 -49.038078 822.604370
2029.494141 -57.604649 684.029785
2046.611816 -33.758862 647.724121
2080.310303 22.240070 531.844666
2006.255005 -21.244841 862.450684
1991.715698 -195.221329 703.237915
2164.920654 -13.007943 942.614807
2024.055298 -192.869614 541.876160
2095.336426 8.900065 498.638794
2042.771851 -130.195511 895.558533
1949.428711 -69.908379 825.237305
2167.396240 62.867802 885.668213
2181.126953 72.901894 887.412415
2064.510254 -18.520229 571.610962
2205.635742 -90.701157 943.145203
1988.567749 -26.892605 864.050354
2037.051636 -114.046875 647.960815
2014.877441 -162.775543 643.720703
1948.908691 -131.482910 818.768494
2033.611450 -19.122789 669.398621
2182.896240 86.970856 885.580078
2114.147461 30.781639 875.902283
2093.015137 34.981750 795.942078
2040.213013 -135.908264 893.780945
2074.039551 32.360245 574.189331
2011.895996 -237.177292 545.598328
2035.112305 -164.561417 577.629089
2065.557373 30.447670 585.593994
2039.587769 -93.191635 587.201599
2045.663940 -11.875415 643.652771
2040.000977 -188.987625 504.442505
2028.569336 -104.938126 647.267456
2041.893188 34.340469 716.794312
2076.582275 123.655182 752.861328
2038.106323 44.102188 687.965820
2088.438965 38.273590 526.291992
2073.792480 -126.910995 570.531921
2220.779541 -207.630783 933.773926
2009.750244 -230.849915 478.390991
2015.311401 -229.273880 895.826660
2089.541260 47.099876 598.316284
2027.497681 32.536068 708.865234
2090.995117 134.855133 775.180603
1991.879517 -42.530102 769.563232
2014.004150 -239.034500 534.325317
2090.926025 58.176456 513.836304
2037.255493 -125.874352 889.137390
2094.507080 -204.285645 915.506470
2088.374756 -138.831696 902.063416
2063.031250 -16.606049 597.122375
1997.615845 -209.727478 655.739075
2089.997314 143.853134 780.256531
2220.574707 -83.041512 923.979675
2015.035156 39.094887 817.110779
1987.239502 28.757511 860.808411
2067.474609 60.157978 747.390442
2071.698242 -75.765778 897.142151
2113.091309 39.216129 460.560364
2078.832520 -16.744879 886.885193
2120.143066 45.110329 577.067322
1934.254761 -131.046570 879.959839
2096.310791 -202.886154 499.145966
1991.808228 -171.323898 739.824829
2153.783691 101.018539 855.318970
1955.347900 -168.481552 810.839539
2023.163452 1.221659 716.986145
2034.261841 43.516121 682.827026
1986.587769 -60.706085 874.379883
1921.415405 -190.437424 863.084106
2214.399414 7.803124 944.686096
2118.602539 45.715263 463.207397
1958.572998 -188.665878 838.950317
2197.431885 15.354469 913.998474
2208.345703 34.020763 462.474731
2080.445557 117.012177 769.465820
2037.053101 -9.867777 706.353149
2051.064941 -80.521378 606.106628
1950.921387 -197.433334 820.439514
2084.882568 59.002831 767.427246
2049.235107 -29.531025 874.244019
2079.520020 32.604290 572.171021
2096.249023 -131.238541 907.862976
2083.731201 -226.476883 918.555237
2050.730469 -141.661545 536.874207
2024.796021 28.556581 705.759277
2034.903076 -67.440842 640.336060
2021.262451 -133.054352 695.056458
1981.557983 -168.129639 745.002136
2023.714478 39.750809 822.228271
2006.716431 -167.696732 669.530273
1981.616455 -42.564056 764.145569
2019.156250 -133.773499 888.083557
2160.462158 48.332962 891.536743
1999.609497 39.804176 819.237000
2048.698486 47.788002 679.873474
2019.769531 -49.801075 703.687134
2005.955200 1.967787 739.511353
2064.433594 34.312588 743.543823
1963.956909 -191.675949 792.463928
2026.204468 -239.530594 531.597351
2127.730713 17.938463 907.651489
1973.122925 -162.059296 784.598694
2039.195313 37.801319 662.785828
2101.062744 -182.324203 911.264221
2149.197510 39.863007 868.037354
2077.100098 -243.996384 904.550049
2106.958252 -109.630089 903.143005
2068.797607 19.286232 582.797607
2037.806519 -18.963814 648.912964
2121.932617 57.212318 538.333008
2116.549316 126.840004 787.809814
1982.030396 -150.129150 890.849487
2015.994995 -95.142487 692.680847
2090.071533 -67.383736 460.224670
2064.989990 -232.101654 905.600769
1983.658569 -73.651276 787.037048
2095.864014 -150.147324 473.211517
2095.236328 -218.004150 447.959595
2031.339844 -149.470337 639.903076
2015.830322 -238.207764 593.467590
2001.537598 -189.065201 635.541443
2135.905273 6.867599 930.074280
2087.517334 143.634369 772.422424
2033.778687 -149.567352 550.286560
2221.149658 -43.736706 944.831299
1963.338257 -38.402279 847.155945
2179.351563 52.813854 465.045166
2033.476807 -68.962082 682.387451
2041.628662 -138.324631 575.388245
1952.178345 -94.062622 833.023438
1990.513550 -27.492659 788.172424
2037.103638 -141.094894 895.209534
2020.822754 -58.854610 712.894287
2019.195190 -72.065025 703.591125
2048.938965 34.371109 776.171936
2029.115234 15.044993 692.865662
2011.644897 -238.453781 529.283386
1936.432861 -211.689697 884.771545
2141.190430 -59.945724 913.212646
2141.680664 52.651466 872.097107
1953.051636 -214.610992 782.561401
1981.628052 -214.777435 892.597656
2092.447510 29.479248 859.872620
2156.489014 76.345337 865.190430
2072.236816 47.456028 836.278503
2020.766235 -69.695267 878.613708
2057.857910 -103.688698 523.498962
2112.870117 116.736794 794.484863
2085.694824 154.808716 767.540527
1939.531616 -210.847214 867.066284
2144.192383 130.434586 831.541992
2190.909912 -58.317406 925.110046
2166.658203 59.315838 876.406982
1991.724854 -168.174072 715.462830
2081.332031 -126.641838 901.006104
2121.960449 58.137283 541.090210
2198.934082 -163.784912 934.058472
2013.550415 46.782104 864.104736
2146.308594 131.928268 847.878174
2033.792725 -47.402729 705.887939
2102.854004 46.870605 891.027405
2066.165771 -53.482002 541.082275
2000.882568 -175.834274 882.861267
1974.025757 17.065754 844.253662
1998.348022 -200.381088 654.980042
1955.967651 -95.618393 859.644470
2027.021240 -220.362701 525.637268
2084.200439 118.852730 760.133728
2115.878418 -104.304565 908.060974
2056.297119 -217.688034 902.590271
2101.123779 177.927185 767.669128
1967.298950 -64.637833 842.048828
2048.088867 -6.333475 631.727661
2220.985596 -1.883889 945.469116
2042.594116 4.976993 629.596741
2065.235107 68.912247 735.200867
2093.620605 -144.120285 908.330811
1958.808838 -143.738007 802.272278
1995.966431 -9.729984 777.625488
2048.246338 45.952599 689.196594
1957.156006 -51.319817 837.020081
2092.960205 -137.913559 479.706116
2047.617188 -144.232788 542.737549
2056.683838 44.388958 613.645325
2044.434204 -136.104462 892.555359
2072.279297 -87.670570 446.259644
2161.108398 -249.268677 930.495667
2006.927246 -176.541458 647.393555
1959.664429 -156.504425 809.228760
2093.135498 -31.057367 893.894714
1927.489868 -192.917038 764.762695
2021.192749 -35.038338 725.370728
2065.507080 44.628578 748.292053
1975.043457 -24.840736 808.183411
2161.495117 -66.634499 920.145020
1989.900513 -122.673439 750.542114
2032.907959 -145.682602 880.611938
2038.171997 -152.141479 593.363770
2140.724854 6.820725 942.528259
2167.909668 -148.538330 920.066833
2100.489990 164.275757 779.135681
2080.585205 135.300888 774.558777
2135.239990 -61.614399 913.162781
2207.051270 -42.595039 931.128296
2125.516357 36.674984 490.064026
1958.627686 -171.874649 809.243958
2077.748047 12.042014 551.347961
2035.254028 -145.856354 550.125488
2045.723145 -229.852402 482.902985
1951.113403 -198.920914 876.307312
2094.289551 149.734039 770.215881
1958.804077 -215.952057 812.834351
2076.898193 52.087109 742.311646
2034.165527 6.038164 681.417358
2160.951660 14.219789 925.797668
2073.345703 -10.493213 530.839355
2055.383057 38.992744 685.502930
1931.008423 -210.097580 885.621094
1996.148315 -213.566299 653.522766
2123.652588 -182.026108 928.670288
1982.737915 6.764909 826.883301
2017.943970 -72.796158 880.377258
1975.431763 -40.695572 798.201660
2054.886963 -5.647026 581.074890
2035.649170 20.377678 670.183716
2013.551636 -29.239887 738.099548
2029.761719 -66.420815 664.438843
2015.523682 -185.901276 597.558777
2192.566895 -170.346573 936.168640
2132.669189 60.512718 546.097534
2082.325195 -55.821709 457.043579
2048.898682 40.176708 875.578918
2065.112793 9.943106 546.657471
2067.413086 -64.793861 477.173340
2061.057861 69.931282 756.320374
2039.536865 31.493496 727.214539
2020.207764 -92.865837 684.452148
2070.291260 24.956556 567.755310
1975.621460 -92.568115 763.840759
1937.414063 -206.167313 840.889465
2082.928711 133.958588 762.501404
1988.206787 -224.763489 647.101929
2048.841553 -95.749229 569.329529
2044.725342 -137.590881 562.991638
2037.285522 -25.618967 688.571777
2027.214111 -56.229195 667.929749
2144.401367 24.267887 892.527283
1986.462402 -19.983475 784.180542
1995.913208 -10.060152 781.393921
2062.231201 -47.177021 545.255188
2190.240967 12.522982 943.214783
2013.969116 -236.712036 523.828552
2034.112061 41.677292 865.763428
2009.848877 -165.715134 665.945435
2199.713867 -239.670944 946.043518
2130.989014 34.555733 897.448669
2113.887939 -13.793923 907.836243
2112.045654 20.957575 466.791901
2095.022949 77.633621 690.767639
2095.739258 66.440727 788.603943
2050.125488 19.878265 615.703003
2143.914795 54.649994 886.159180
2041.450928 -134.363892 579.117920
2192.062256 -233.424301 939.088806
2071.972656 98.581497 789.372559
2065.866211 -64.907326 559.302612
2043.516602 -215.725433 479.955536
2110.840332 62.046185 805.021362
2065.158203 -111.068695 505.970245
2029.851563 -44.258213 675.674377
2136.292480 41.175766 853.611206
2004.432495 -169.908493 674.710205
2215.863770 -39.306282 938.786194
2004.195923 -182.121765 640.015747
2092.730469 132.276093 768.943054
2165.104004 80.742859 884.847229
2049.473389 -100.669014 899.095825
2064.271484 -53.526260 580.892517
2023.633911 -134.127182 643.321167
2138.464600 76.837227 851.351013
2078.125000 117.155861 739.021057
2158.919922 18.109808 916.097229
2029.744873 -208.591324 897.237183
2026.057983 -63.590084 879.095520
2050.637451 60.267979 665.220947
1982.229614 -3.759002 814.332458
2002.184570 -217.232941 639.385132
2026.614746 -214.165817 530.762634
2037.744507 -45.163349 890.158813
2011.273438 -188.332062 886.579529
2034.463989 -49.773838 645.184814
2021.591064 50.129917 860.391907
2154.963867 67.572914 865.774414
2091.685059 36.612514 491.923706
2079.068359 51.349903 617.856018
1959.604736 -214.503265 837.168640
2013.663574 -208.714264 581.479919
1971.300415 -223.331299 712.684509
2010.683228 -26.456961 737.669128
2172.579346 -163.946243 927.538208
1954.120117 -219.701492 868.563721
2089.178711 -67.305992 448.625519
2154.442871 40.389160 903.206726
2040.929077 44.559044 716.824158
2113.769043 62.991287 496.005432
1945.285522 -138.630890 844.061829
2213.484131 -49.861572 931.457031
2051.689209 32.254002 610.966492
1973.074707 -198.540604 772.734314
2016.699585 -49.979736 873.522888
1961.510132 -55.534782 801.760315
2050.880371 -82.100693 566.548950
2038.739868 -175.887680 494.723755
2058.629150 -95.503342 894.482788
2039.662720 -37.962376 644.099548
1984.877197 -225.030853 690.033203
1970.248901 -220.773010 784.971436
2046.197266 -59.536228 882.978821
1955.026367 -189.744095 792.708008
1955.708618 -75.309006 849.617065
2053.282471 53.030521 691.307983
2007.483398 -151.632202 640.153381
2058.754639 35.054020 619.230591
2078.363525 -28.008173 487.933472
2020.910889 -146.475159 715.381653
2073.735352 -52.905518 893.984985
1984.985718 1.711651 802.748535
1969.694580 -24.951952 863.394836
2118.988281 53.082706 658.462769
2190.716553 -204.029419 938.403381
2064.813965 -153.390213 479.479767
1949.860718 -131.538193 858.736328
2025.596191 -206.477768 525.680969
1987.840210 -72.593369 750.466431
2159.845703 100.206490 883.743713
1986.015869 -220.910217 622.017151
2047.742188 -67.890190 623.027832
2027.427734 -110.029488 653.549683
2165.981689 50.023174 886.575928
1948.144531 -188.647629 869.004700
1981.763062 -20.918476 871.841187
1984.332397 -95.596085 732.342285
1961.564331 -110.892273 801.166565
2070.701904 59.816536 608.788818
2009.855103 -86.230286 706.840393
2186.633301 -114.913925 928.831970
1950.554077 -65.233902 848.294556
1947.152710 -185.896439 825.386475
1974.755005 -67.398613 762.930786
2074.143066 57.272312 676.478821
2119.048828 66.199333 639.671875
2059.978027 31.769667 714.363403
2044.079712 -149.430710 552.453247
2032.474976 -42.472755 667.702759
2225.140625 -107.961655 936.537903
2099.827148 -250.060654 947.927246
2084.550537 29.571449 907.416443
2174.965088 -14.796346 946.954712
2105.308838 -213.810318 916.857849
1984.727905 -45.354801 865.457275
2002.238159 -176.398346 684.686157
2122.491943 51.352360 507.730560
2052.353516 -91.344086 600.077759
2081.732910 -89.411034 901.111938
2089.950195 37.081688 485.732666
1982.132935 -110.486099 758.350708
2056.640869 -177.250732 911.756714
2022.132202 -199.905670 649.089600
1981.294800 -150.674530 880.479248
2093.483643 -20.593422 438.767151
2061.212646 -16.429268 599.735779
2095.499512 41.528149 894.445618
2194.805908 -43.526447 926.696350
2036.500000 -147.289322 588.475830
2008.626343 -209.781464 890.634705
1994.559448 -83.222557 740.137756
2099.976318 -91.287636 903.998352
1940.560425 -154.971848 836.773438
1943.979980 -154.059189 833.989441
2086.722656 33.793468 505.905304
2072.251465 -83.496750 894.161926
2049.676514 46.681477 846.208252
2033.165771 -52.966537 673.648987
2021.626587 -138.563446 686.904297
2214.135010 10.014412 910.596436
2046.660522 34.068672 795.376709
2078.042480 68.269890 761.140076
1996.425049 -3.745230 865.524475
2154.290039 -90.997200 449.474121
2060.360840 32.583447 764.178955
2020.483154 24.676413 719.735413
2079.480957 58.204128 749.990967
2131.468018 49.090897 832.001160
2053.289063 -239.668060 923.649536
2148.152100 130.081390 850.030457
2195.619385 13.956758 908.820435
2067.243652 -99.105774 895.442383
1966.727417 -117.986290 853.751099
2027.515747 -170.685486 592.441833
1977.184448 -3.950027 863.825317
2204.455078 58.479137 888.806458
2164.201660 32.053875 883.421875
2015.446655 -127.805344 673.321350
2068.386230 -26.358963 514.965820
2015.550049 -176.856720 651.158936
2068.431885 22.510477 564.344055
2072.542969 41.005367 812.663391
2059.611328 -89.513390 544.762085
2076.806885 38.305355 822.503235
2187.815186 43.485691 581.994080
1970.524658 -114.471344 865.325195
1978.642456 -71.440567 757.296143
1981.708008 -198.499847 732.094971
2014.689087 27.310747 875.692139
2078.557373 11.125183 497.229553
2056.982422 -154.291718 572.416504
2093.302490 -55.940651 888.804688
2071.265625 30.346973 577.830505
2153.471924 103.865677 873.288635
2019.372437 -179.493134 603.785278
2083.734619 166.515320 760.235168
2030.003540 -221.778519 499.238831
2045.803223 -234.116226 452.756042
2017.756714 -159.927322 620.536987
1989.136841 -220.554230 689.756592
1952.847900 -117.645744 841.742310
2011.199463 -140.088730 643.229126
1962.455200 -176.637848 790.802673
2003.357422 -194.382538 680.025818
2145.137695 88.655586 828.939758
2100.245605 -169.153122 482.812561
2139.016846 34.668919 858.372986
1962.667847 -189.710159 795.953796
2079.783447 122.850868 783.308167
2143.031982 101.979523 828.168457
2049.830566 50.509403 684.536499
1978.307983 -147.085602 877.439331
1982.914429 -17.619854 781.167236
2034.117676 -170.254028 596.923218
2139.510254 100.043564 839.077637
2098.945313 23.823246 492.554077
1980.480347 -219.799484 888.087280
2103.002686 31.174656 515.898010
2064.339111 8.265980 903.075684
1942.116577 -185.810211 860.091125
1989.783813 -20.362715 758.333374
1999.925537 -233.969696 564.348816
2074.992188 116.986969 770.450256
2163.188721 103.753334 886.428528
2198.474365 56.630276 891.014404
2103.768555 29.558338 489.054169
2048.616943 -88.068222 610.766235
2058.862549 14.654160 572.999756
2010.142700 43.643307 777.576355
2028.388428 -174.172821 536.306396
2039.267090 -127.135315 595.183105
1959.752563 -52.330116 833.102539
2033.833252 44.807850 765.229126
2090.199951 111.299545 757.001770
1971.596680 1.878474 836.205627
2166.470459 -66.087852 920.842834
2045.878296 -10.619264 660.996155
1968.804932 -185.680405 766.585083
2041.777222 -105.455528 583.220642
2045.616943 -122.116844 574.334595
1958.486938 -58.601681 825.349792
2195.615723 18.431471 909.283630
2001.355835 33.814621 803.611389
1991.371094 28.579872 798.690674
2085.425781 19.378649 490.031403
2082.009033 57.147701 638.557556
2025.909424 -66.879929 882.161926
2086.938721 96.689560 770.072632
2053.111084 36.972862 714.346924
2014.808716 27.589394 763.412415
2080.690430 -53.021236 896.032104
1986.208252 2.568273 814.230774
2005.547241 -146.629990 888.629272
1962.612061 -81.110504 824.619446
2185.083740 4.670518 917.143616
2056.877441 32.385250 626.690308
2113.650146 47.020058 472.390869
2042.187866 -214.936935 900.514526
2139.245117 96.810623 843.657959
2038.998413 -100.488167 617.861633
2129.190918 63.305443 872.438660
2076.008301 75.689156 637.684937
2071.832031 -163.548721 489.452637
2057.931885 41.885952 757.490173
2080.737549 57.956944 582.690674
2040.617310 -37.617287 630.183716
2117.175049 42.962284 860.892090
2018.673950 -81.416245 697.528564
1945.027832 -175.836868 850.162964
2159.541260 -23.100233 447.360229
2106.493408 10.808034 494.615662
1967.872803 -137.765228 786.755188
2077.825684 -90.098763 504.338287
1948.985840 -109.596573 846.651306
2055.417480 90.355591 787.276306
2057.123535 62.406918 792.901062
1980.954834 -64.208786 869.710693
2070.325684 -56.666798 888.920288
1987.581665 -46.569313 756.370544
1952.853638 -127.891479 842.526672
2005.646851 -165.162567 718.027405
2092.482910 75.241714 698.207458
2075.382813 -101.464012 908.678772
2009.796997 -112.601387 884.797302
2042.442017 -58.183971 892.876038
2101.106201 88.459938 789.412964
2040.509521 -110.624077 897.674500
2072.674072 4.588837 478.964966
1996.186890 -217.637207 648.089600
2075.738037 106.869263 797.324524
1993.079468 -35.083202 764.968628
1993.826538 -178.684219 882.292786
1961.679810 -95.523865 810.567566
2077.728027 7.993683 555.585693
2016.761475 -141.269669 692.341370
2045.432983 -51.321785 628.120300
2013.780518 17.249865 875.198608
2021.057007 18.363829 718.526245
1977.500854 -32.250904 870.047791
2051.979004 17.370415 904.474243
1987.406616 46.149624 842.072510
2060.416260 48.787766 904.012878
2087.155273 -118.470055 913.848755
1962.141724 -157.480515 766.944397
1989.632690 -215.024902 564.785645
2116.382568 51.322517 856.912720
2067.013428 -174.589630 455.351685
2043.192261 -97.617722 631.001953
2032.792480 36.228138 784.050293
1983.364990 -39.227165 857.827576
2002.516724 25.727091 846.370422
2021.153442 -73.375648 695.747742
2124.118408 7.751754 928.703308
2044.294434 32.910248 744.883850
2067.655762 -31.231401 524.959412
2074.718750 -237.913528 908.058411
2011.448975 -76.183144 728.333984
2071.735596 109.094856 747.448059
2098.990479 -78.179634 897.869873
1986.311646 -181.321106 692.466309
2021.570557 3.356313 721.935486
2020.567505 23.776579 732.581482
2084.043701 31.684679 783.461182
2165.378174 3.699493 930.520081
2185.659424 -40.430546 924.346802
2104.143066 -146.772202 906.353027
1992.479858 -98.079903 888.857117
1985.150269 -32.003654 856.645569
1998.043823 5.423196 870.548584
1961.772705 -76.685242 790.272217
1948.797485 -201.793365 825.295837
1992.186035 -167.267426 740.406433
2035.613037 -229.900604 503.022949
2054.110840 39.376137 770.398499
2034.559448 -116.780228 887.235413
2004.896240 -144.695984 881.531433
1965.595459 -175.871216 730.676941
1962.648315 -119.148117 804.177979
1967.729614 -90.044586 769.872375
2028.457642 -202.329666 897.298462
1985.560181 -53.344410 785.356689
2034.076294 38.331726 881.831726
1961.185303 -74.367310 819.650757
2026.937256 35.792736 738.207031
2142.362061 97.375267 875.976440
2016.811401 -127.263733 677.879028
2049.530762 37.604137 909.956726
2056.721924 26.852867 626.991150
2095.123535 -112.837143 913.702148
2087.985596 93.337860 756.661926
2139.791504 27.414009 896.180664
2017.798706 -188.906952 608.371582
1985.755493 8.865042 824.317566
1988.664429 29.071699 835.173035
1958.687012 -190.990417 840.601013
2024.213135 35.596272 720.499084
1992.926636 -227.121948 655.473938
2152.943359 46.714916 583.587341
2155.148682 -81.465874 917.370911
2131.136719 -148.758606 920.555237
2216.556396 -59.677357 943.589539
1949.862183 -97.520042 866.017578
2181.950684 -90.922096 917.628418
1994.173706 -214.111847 681.713379
2069.426758 -231.932480 910.984985
2068.068115 49.322781 909.340210
2075.494629 -11.880184 498.492035
1963.024658 -206.283356 871.727234
2193.422852 -223.491638 942.637268
2091.128418 60.025497 742.526428
1953.374390 -117.732101 808.500671
2188.635986 -192.342422 921.539856
2087.462891 79.294823 777.311279
2176.498291 -172.606384 933.729675
2148.159180 -205.342194 938.986023
2165.966309 94.793282 890.272644
2103.808594 -134.263596 909.664673
2022.921509 20.258739 727.308167
2177.048340 -202.273941 946.279846
2106.038086 30.701412 796.635437
2115.661133 50.498280 563.824280
2003.764893 -10.302575 737.308167
1986.104248 0.106166 783.344177
2155.439209 -86.499489 928.470154
2170.845703 -95.428391 921.617493
2076.204590 -103.542809 436.630432
1952.678833 -131.353653 846.621521
2141.704102 39.670780 473.767975
2056.099365 7.753981 603.664917
2045.146484 41.556908 634.351990
2128.094727 -6.087632 927.689697
2075.307617 67.610329 622.666687
2066.213867 35.098797 904.091125
2041.630005 -62.793354 874.473206
2026.686768 -3.618242 724.404724
2021.968506 -217.728210 547.039063
2205.236572 12.180573 926.651733
2002.793091 14.488687 791.981140
1939.340820 -179.454376 853.213440
2066.066162 -44.257256 898.081238
2141.455078 -69.849419 912.508728
1974.800781 -187.388031 730.361267
2079.839600 -174.857971 539.744690
2140.030762 -57.668835 910.724365
1985.294312 -25.903708 772.790771
2128.684814 60.671757 631.054565
2092.929688 -155.692444 470.317810
2020.327026 -192.559433 552.392639
2013.262451 34.015404 755.169128
2025.407959 29.471180 735.148254
2046.840942 45.873116 685.462646
2256.855469 -25.809233 474.022552
2189.837891 43.834114 894.508789
1974.795898 -156.218094 874.742859
2084.895020 168.020325 768.178894
2068.111572 19.950857 542.804321
2034.877930 -36.886410 699.185608
2052.081543 13.245490 603.767639
2059.264404 10.972041 565.850769
2052.681885 44.538517 789.756775
2057.573730 -147.244354 449.689728
2186.939209 -147.781281 923.496216
1954.722290 -68.385201 831.257751
2026.547485 -114.888840 649.557434
1941.259399 -171.812073 872.367798
1984.239380 -43.273163 756.659790
2182.130859 -241.258942 922.943665
1992.594849 2.606897 849.386414
1951.888184 -141.780563 821.185791
1947.919922 -114.147942 837.090027
2066.387207 -243.142288 909.750000
1968.132202 -54.705036 814.679871
2071.847168 124.232895 778.833191
1957.142578 -219.666214 745.605530
2022.908936 -177.823380 592.029785
2066.863281 -42.339420 610.877380
2081.177002 -38.178406 438.136597
2127.561035 71.062386 544.381470
2058.821289 -239.990479 908.103516
1939.984741 -199.882217 884.016846
2066.490479 -16.701035 532.309082
2059.418945 53.681126 759.576233
2186.182373 -135.328796 464.300079
2100.072754 35.582886 867.572632
2080.457764 97.959763 781.094360
2076.427979 -135.619659 448.109924
2008.196777 -115.644508 698.455383
2219.082031 -227.127640 948.575806
1969.410522 -215.702515 684.218323
2087.869629 155.260132 754.059875
2171.172607 -254.666031 936.218323
2104.977051 59.845165 579.162415
1938.404541 -162.850586 878.935852
2081.600830 37.386993 549.471252
2035.728760 -59.385654 631.635620
2044.654175 41.400780 636.585754
2055.972412 -71.493706 537.093262
1946.788086 -148.188293 847.616760
2015.097290 -159.094574 744.805054
2073.228027 51.528004 765.958069
2034.566040 -99.499161 613.810242
2153.463379 108.228493 868.805115
2087.075928 -237.635696 911.715271
2235.868408 -54.912708 466.658997
2026.869507 -112.292015 639.649292
2056.832520 45.139492 794.555176
2068.273193 -241.231766 906.482544
2142.518311 79.128571 866.848816
2033.458130 -80.957733 654.039612
2177.473633 -41.773174 924.602295
1957.047607 -222.274902 755.504517
2081.740723 -166.558609 908.310425
2059.749268 -19.223721 599.844360
2124.592773 -128.202042 914.266235
1985.853271 -37.987072 763.184570
2195.512939 -59.954403 924.510376
2073.034424 64.122604 627.891052
2003.251953 -167.983047 682.130554
1968.000732 -185.996323 882.816589
2071.144043 -13.661243 543.066956
1975.142212 -218.813766 596.146667
2155.775391 104.962975 825.258423
2013.105225 -230.734146 912.558411
1955.900757 -35.175091 866.956177
2103.223145 22.210995 891.925476
1999.736328 5.241777 752.961670
2048.940186 -205.171570 489.591400
2003.586060 22.453798 790.336792
1985.528320 47.261517 852.519836
2050.830811 39.426579 653.308228
2078.709229 -67.688400 488.405853
2005.596802 -207.386124 625.204346
2025.162109 29.132151 728.346313
2143.381348 -121.640457 928.231934
2078.259521 -77.514130 541.744629
2081.952393 -40.300610 462.035065
2011.974487 -3.630290 873.643005
2042.941284 -156.979507 898.650269
2085.177002 48.789043 740.710999
2068.599365 -159.242569 541.990723
2073.507568 45.490574 583.381775
2003.018921 -4.805344 740.374634
1981.692139 -28.250696 807.787231
1995.805176 -198.759506 666.341431
2046.572144 -101.920471 584.377686
2036.952759 -80.079796 625.173950
2052.856689 35.597515 877.581970
2121.472900 38.863026 874.645020
2022.982422 37.216923 790.923706
2133.514160 -42.960949 902.055908
2058.943848 -82.222954 515.770630
2068.785645 -28.229675 489.391724
1997.554565 -192.264938 643.721252
2085.891602 -33.461418 902.106628
2090.380371 41.322750 548.925720
1958.327759 -115.936768 815.495850
2132.244385 62.375187 617.531616
1951.865356 -91.630142 822.554260
2131.765137 -13.883573 920.755005
2038.752808 -208.921310 471.815887
1982.364624 -72.535561 766.841370
2074.789063 -75.749573 481.842102
2096.510742 -160.694748 908.843445
2128.136719 -170.443802 918.768066
2162.430420 -236.561279 923.865662
1947.719604 -203.582138 861.151794
2172.312256 26.870289 772.205505
2132.668213 34.364567 833.238708
1932.076538 -209.658478 858.588867
2079.060059 0.960064 461.975464
2059.565918 -55.298866 892.440613
1977.457642 -21.851044 821.979126
1944.917358 -210.310944 854.976074
1962.963379 -132.732666 770.140869
1977.312500 -226.509018 704.966309
2020.660645 -168.038742 625.664124
1973.821167 -83.715546 784.589172
2100.634521 50.661915 928.015686
2007.819824 -75.522629 881.376648
1986.344971 21.476654 807.287659
2196.440430 -126.001625 932.877991
2222.449951 -52.003780 938.760681
2218.972412 -243.882721 947.199585
2067.617920 -170.209305 455.010132
2004.817505 -186.668991 661.403442
2133.113037 46.726315 480.508698
2031.426880 18.500811 708.154480
2163.353516 -47.750057 916.085632
2052.851563 -5.182933 623.469055
1982.149048 -4.527206 800.540222
2083.641357 -83.818718 468.496582
1949.134277 -161.921707 830.300110
2149.345215 -203.703415 928.298950
2026.394531 -81.139465 718.379883
1970.784058 -66.565834 814.415894
2012.895142 -5.701773 743.194397
1969.380127 -72.829338 799.432434
2034.163818 -45.602871 697.042114
2022.764771 -240.668167 518.753235
2124.568115 30.592730 854.257813
2136.305664 -242.658157 924.933228
2132.378906 36.673832 895.444336
2002.539185 13.521496 780.962097
2157.392334 115.968224 868.660522
2077.603271 -195.403564 909.645508
1964.005859 -76.387276 765.230591
1973.496216 -207.081894 874.058472
1980.375000 -24.338453 788.251038
1982.751587 -152.316330 882.716248
1992.298950 18.069633 802.141174
2051.229736 -140.991730 473.851440
2035.206909 -26.468271 679.572327
2097.586914 -147.385254 508.057617
2032.896118 -92.701111 675.249695
2083.983154 122.504959 755.294006
2028.905640 42.983711 739.196045
1981.199707 -219.916183 892.924377
2113.952148 31.658243 466.852112
2080.238037 -113.043312 909.420410
2045.167236 -234.698639 901.756287
2166.541260 -263.868439 941.714539
2164.495117 8.534062 918.627075
2129.271729 61.999386 846.355103
2006.246826 -69.145493 732.733521
2005.726318 -145.917007 654.775574
2081.370850 -24.054483 502.817780
2037.172363 -223.727249 535.458984
1938.114380 -148.757584 862.379395
1964.464722 -107.083733 772.323242
2093.625244 -219.844543 914.546082
2094.262939 -194.423477 914.075439
2078.046875 -2.965416 483.212860
1961.921997 -99.245964 855.506470
2136.447998 54.879589 504.816101
2004.455444 -38.106277 863.460205
2029.313110 -4.138778 874.890442
2071.416016 80.713905 784.898926
2171.559082 -230.469116 937.808105
2047.044434 -78.318146 632.417725
1999.183228 27.974113 794.791138
2066.979980 -9.383985 597.970215
2104.758301 -136.702438 499.915131
1977.849731 -170.976517 732.569641
2070.634033 140.476624 744.949402
2182.119385 -115.793953 930.965454
2080.304443 -14.172273 466.161285
2104.843018 149.427567 781.437439
2087.787109 2.426353 913.917603
1989.686768 2.052745 832.448853
2008.131714 -207.045853 616.931213
2033.223877 -181.795456 506.262329
2125.893555 35.586548 895.621521
2015.863037 -74.313889 699.921570
2046.328125 31.395384 876.931213
2044.592407 -34.169701 886.103210
2206.307373 -206.169937 941.800354
2004.647705 -226.326691 636.814270
2092.493164 -137.511124 464.257233
1988.345947 -29.034412 778.886414
2017.494751 -71.326309 720.416931
2018.852539 -233.124893 475.958160
2179.463623 42.987160 890.719849
2141.428955 37.573215 856.666626
1993.255737 -152.312302 696.857605
1987.547974 -162.844193 705.349121
2087.289063 154.455002 763.975647
1967.786011 -220.924728 781.564819
2154.735107 -20.836142 915.222229
2139.865723 -2.185931 922.935242
1992.380737 21.403345 832.867126
2015.489624 -100.156944 689.479736
1976.541748 -70.656708 851.630249
1941.431641 -127.260185 859.668701
2037.622314 42.357105 866.984009
1969.981323 -64.652168 820.996887
2015.127930 -209.298828 587.689209
2158.830322 -257.373383 470.725128
1994.619141 -50.362137 751.820190
2041.931152 1.963862 637.171448
2158.467529 -16.944904 930.824646
2005.344727 -26.262114 743.398071
2071.927002 66.057274 639.781860
2029.247925 -79.794594 670.982117
2055.561035 -38.444622 581.644165
2195.365723 68.971603 891.184143
1970.079712 -18.813240 823.224182
2156.484619 95.518730 870.165405
2042.319946 45.524300 808.520142
2062.458496 34.353088 888.034302
2043.123779 -224.414703 511.016754
2026.408203 44.364029 763.823608
2110.150635 165.716675 795.745544
2020.764282 37.755829 883.892029
2030.737671 -70.156754 880.419006
1986.594849 -63.760983 754.302795
2031.716064 11.499267 676.244019
2071.522705 69.343857 765.334656
1978.713257 -5.950444 813.936707
2045.855103 -25.966049 616.737793
2163.063232 61.073246 529.661438
2156.510742 61.379940 545.169189
1998.568970 -192.095825 639.563721
2069.208984 -21.822176 544.756653
2053.046631 17.322197 598.301147
1982.295044 21.818441 838.447937
2028.143066 -69.094231 884.780212
2204.775879 37.753284 594.751831
1968.463745 -53.069080 816.437683
1999.589111 21.704208 868.709167
2042.252563 -53.727100 873.969177
2014.156616 -190.592911 893.233948
1972.210327 -44.181145 858.666382
2041.464722 35.994125 762.242920
2115.327148 -192.861694 919.374329
1998.291626 -9.101371 852.187744
2098.555420 -69.814919 436.162872
2056.604248 17.022718 587.159119
1974.233398 -180.194061 736.329468
