ply
format ascii 1.0
element vertex 613
property double x
property double y
property double z
property double intensity
end_header
257.000000000000000 257.000000000000000 232.000000000000000 0.067058756900000
257.000000000000000 257.000000000000000 233.000000000000000 0.073189259900000
257.000000000000000 257.000000000000000 234.000000000000000 0.080190973800000
257.000000000000000 257.000000000000000 235.000000000000000 0.088202325200000
257.000000000000000 257.000000000000000 236.000000000000000 0.097058078300000
257.000000000000000 257.000000000000000 237.000000000000000 0.106162168000000
257.000000000000000 257.000000000000000 238.000000000000000 0.114521070000000
257.000000000000000 257.000000000000000 239.000000000000000 0.121041682000000
257.000000000000000 257.000000000000000 240.000000000000000 0.124924813000000
257.000000000000000 257.000000000000000 241.000000000000000 0.125848008000000
257.000000000000000 257.000000000000000 242.000000000000000 0.123868851000000
257.000000000000000 257.000000000000000 243.000000000000000 0.119262599000000
257.000000000000000 257.000000000000000 244.000000000000000 0.112481084000000
257.000000000000000 257.000000000000000 245.000000000000000 0.104204664000000
257.000000000000000 257.000000000000000 246.000000000000000 0.095334069800000
257.000000000000000 257.000000000000000 247.000000000000000 0.086841591300000
257.000000000000000 257.000000000000000 248.000000000000000 0.079563036400000
257.000000000000000 257.000000000000000 249.000000000000000 0.074071264400000
257.000000000000000 257.000000000000000 250.000000000000000 0.070670698000000
257.000000000000000 257.000000000000000 251.000000000000000 0.069454819900000
257.000000000000000 257.000000000000000 252.000000000000000 0.070379540700000
257.000000000000000 257.000000000000000 253.000000000000000 0.073326531800000
257.000000000000000 257.000000000000000 254.000000000000000 0.078117006100000
257.000000000000000 257.000000000000000 255.000000000000000 0.084421345400000
257.000000000000000 257.000000000000000 256.000000000000000 0.091600828100000
257.000000000000000 257.000000000000000 257.000000000000000 0.098657721300000
257.000000000000000 257.000000000000000 258.000000000000000 0.104425075000000
257.000000000000000 257.000000000000000 259.000000000000000 0.107836266000000
257.000000000000000 257.000000000000000 260.000000000000000 0.108036818000000
257.000000000000000 257.000000000000000 261.000000000000000 0.104500023000000
257.000000000000000 257.000000000000000 262.000000000000000 0.097343678500000
257.000000000000000 257.000000000000000 263.000000000000000 0.087519585200000
257.000000000000000 257.000000000000000 264.000000000000000 0.076472101100000
257.000000000000000 257.000000000000000 265.000000000000000 0.065519562500000
257.000000000000000 257.000000000000000 266.000000000000000 0.055504912200000
257.000000000000000 257.000000000000000 267.000000000000000 0.046816265500000
257.000000000000000 257.000000000000000 268.000000000000000 0.039527484000000
257.000000000000000 257.000000000000000 269.000000000000000 0.033498417200000
257.000000000000000 257.000000000000000 270.000000000000000 0.028458531800000
257.000000000000000 257.000000000000000 271.000000000000000 0.024112964600000
257.000000000000000 257.000000000000000 272.000000000000000 0.020239139700000
257.000000000000000 258.000000000000000 226.000000000000000 0.021554282300000
257.000000000000000 258.000000000000000 227.000000000000000 0.025834316000000
257.000000000000000 258.000000000000000 228.000000000000000 0.030137996500000
257.000000000000000 258.000000000000000 229.000000000000000 0.034403642000000
257.000000000000000 258.000000000000000 230.000000000000000 0.038669757900000
257.000000000000000 258.000000000000000 231.000000000000000 0.043050821000000
257.000000000000000 258.000000000000000 232.000000000000000 0.047701120800000
257.000000000000000 258.000000000000000 233.000000000000000 0.052775924100000
257.000000000000000 258.000000000000000 234.000000000000000 0.058381312200000
257.000000000000000 258.000000000000000 235.000000000000000 0.064509234200000
257.000000000000000 258.000000000000000 236.000000000000000 0.070969841400000
257.000000000000000 258.000000000000000 237.000000000000000 0.077356951900000
257.000000000000000 258.000000000000000 238.000000000000000 0.083094346600000
257.000000000000000 258.000000000000000 239.000000000000000 0.087575704900000
257.000000000000000 258.000000000000000 240.000000000000000 0.090328656600000
257.000000000000000 258.000000000000000 241.000000000000000 0.091108909000000
257.000000000000000 258.000000000000000 242.000000000000000 0.089901205400000
257.000000000000000 258.000000000000000 243.000000000000000 0.086878814900000
257.000000000000000 258.000000000000000 244.000000000000000 0.082368944500000
257.000000000000000 258.000000000000000 245.000000000000000 0.076826972400000
257.000000000000000 258.000000000000000 246.000000000000000 0.070797204400000
257.000000000000000 258.000000000000000 247.000000000000000 0.064850479400000
257.000000000000000 258.000000000000000 248.000000000000000 0.059514265500000
257.000000000000000 258.000000000000000 249.000000000000000 0.055219593600000
257.000000000000000 258.000000000000000 250.000000000000000 0.052276286200000
257.000000000000000 258.000000000000000 251.000000000000000 0.050865427000000
257.000000000000000 258.000000000000000 252.000000000000000 0.051044482500000
257.000000000000000 258.000000000000000 253.000000000000000 0.052758772800000
257.000000000000000 258.000000000000000 254.000000000000000 0.055847063000000
257.000000000000000 258.000000000000000 255.000000000000000 0.060022607500000
257.000000000000000 258.000000000000000 256.000000000000000 0.064830312300000
257.000000000000000 258.000000000000000 257.000000000000000 0.069624339500000
257.000000000000000 258.000000000000000 258.000000000000000 0.073621099900000
257.000000000000000 258.000000000000000 259.000000000000000 0.076027719100000
257.000000000000000 258.000000000000000 260.000000000000000 0.076203521700000
257.000000000000000 258.000000000000000 261.000000000000000 0.073833940400000
257.000000000000000 258.000000000000000 262.000000000000000 0.069072477300000
257.000000000000000 258.000000000000000 263.000000000000000 0.062530371300000
257.000000000000000 258.000000000000000 264.000000000000000 0.055063305300000
257.000000000000000 258.000000000000000 265.000000000000000 0.047493750700000
257.000000000000000 258.000000000000000 266.000000000000000 0.040436918500000
257.000000000000000 258.000000000000000 267.000000000000000 0.034253936100000
257.000000000000000 258.000000000000000 268.000000000000000 0.029066139100000
257.000000000000000 258.000000000000000 269.000000000000000 0.024796781200000
257.000000000000000 258.000000000000000 270.000000000000000 0.021244800300000
257.000000000000000 259.000000000000000 229.000000000000000 0.023030120400000
257.000000000000000 259.000000000000000 230.000000000000000 0.026223635300000
257.000000000000000 259.000000000000000 231.000000000000000 0.029637829500000
257.000000000000000 259.000000000000000 232.000000000000000 0.033334239400000
257.000000000000000 259.000000000000000 233.000000000000000 0.037348067400000
257.000000000000000 259.000000000000000 234.000000000000000 0.041664640100000
257.000000000000000 259.000000000000000 235.000000000000000 0.046196432500000
257.000000000000000 259.000000000000000 236.000000000000000 0.050765702400000
257.000000000000000 259.000000000000000 237.000000000000000 0.055104131200000
257.000000000000000 259.000000000000000 238.000000000000000 0.058885998500000
257.000000000000000 259.000000000000000 239.000000000000000 0.061790294900000
257.000000000000000 259.000000000000000 240.000000000000000 0.063568561000000
257.000000000000000 259.000000000000000 241.000000000000000 0.064088308900000
257.000000000000000 259.000000000000000 242.000000000000000 0.063344067700000
257.000000000000000 259.000000000000000 243.000000000000000 0.061443859100000
257.000000000000000 259.000000000000000 244.000000000000000 0.058584932900000
257.000000000000000 259.000000000000000 245.000000000000000 0.055027287400000
257.000000000000000 259.000000000000000 246.000000000000000 0.051070678200000
257.000000000000000 259.000000000000000 247.000000000000000 0.047036332300000
257.000000000000000 259.000000000000000 248.000000000000000 0.043250520100000
257.000000000000000 259.000000000000000 249.000000000000000 0.040025211500000
257.000000000000000 259.000000000000000 250.000000000000000 0.037632397100000
257.000000000000000 259.000000000000000 251.000000000000000 0.036276157600000
257.000000000000000 259.000000000000000 252.000000000000000 0.036067124300000
257.000000000000000 259.000000000000000 253.000000000000000 0.037006059200000
257.000000000000000 259.000000000000000 254.000000000000000 0.038977496800000
257.000000000000000 259.000000000000000 255.000000000000000 0.041747509300000
257.000000000000000 259.000000000000000 256.000000000000000 0.044964259800000
257.000000000000000 259.000000000000000 257.000000000000000 0.048168978800000
257.000000000000000 259.000000000000000 258.000000000000000 0.050834415200000
257.000000000000000 259.000000000000000 259.000000000000000 0.052439152200000
257.000000000000000 259.000000000000000 260.000000000000000 0.052573356500000
257.000000000000000 259.000000000000000 261.000000000000000 0.051047328900000
257.000000000000000 259.000000000000000 262.000000000000000 0.047958509700000
257.000000000000000 259.000000000000000 263.000000000000000 0.043670499800000
257.000000000000000 259.000000000000000 264.000000000000000 0.038704012300000
257.000000000000000 259.000000000000000 265.000000000000000 0.033595767800000
257.000000000000000 259.000000000000000 266.000000000000000 0.028785376700000
257.000000000000000 259.000000000000000 267.000000000000000 0.024551925500000
257.000000000000000 259.000000000000000 268.000000000000000 0.020996516500000
257.000000000000000 260.000000000000000 231.000000000000000 0.020230460900000
257.000000000000000 260.000000000000000 232.000000000000000 0.023028766500000
257.000000000000000 260.000000000000000 233.000000000000000 0.026055032300000
257.000000000000000 260.000000000000000 234.000000000000000 0.029245533600000
257.000000000000000 260.000000000000000 235.000000000000000 0.032490423200000
257.000000000000000 260.000000000000000 236.000000000000000 0.035638950700000
257.000000000000000 260.000000000000000 237.000000000000000 0.038513281400000
257.000000000000000 260.000000000000000 238.000000000000000 0.040930307900000
257.000000000000000 260.000000000000000 239.000000000000000 0.042730909900000
257.000000000000000 260.000000000000000 240.000000000000000 0.043804669300000
257.000000000000000 260.000000000000000 241.000000000000000 0.044103446500000
257.000000000000000 260.000000000000000 242.000000000000000 0.043641258500000
257.000000000000000 260.000000000000000 243.000000000000000 0.042483637000000
257.000000000000000 260.000000000000000 244.000000000000000 0.040733276000000
257.000000000000000 260.000000000000000 245.000000000000000 0.038518326100000
257.000000000000000 260.000000000000000 246.000000000000000 0.035988737300000
257.000000000000000 260.000000000000000 247.000000000000000 0.033318725500000
257.000000000000000 260.000000000000000 248.000000000000000 0.030709294000000
257.000000000000000 260.000000000000000 249.000000000000000 0.028379406000000
257.000000000000000 260.000000000000000 250.000000000000000 0.026545216900000
257.000000000000000 260.000000000000000 251.000000000000000 0.025389175500000
257.000000000000000 260.000000000000000 252.000000000000000 0.025028577700000
257.000000000000000 260.000000000000000 253.000000000000000 0.025492304900000
257.000000000000000 260.000000000000000 254.000000000000000 0.026709063200000
257.000000000000000 260.000000000000000 255.000000000000000 0.028507417600000
257.000000000000000 260.000000000000000 256.000000000000000 0.030626444600000
257.000000000000000 260.000000000000000 257.000000000000000 0.032738459000000
257.000000000000000 260.000000000000000 258.000000000000000 0.034484693200000
257.000000000000000 260.000000000000000 259.000000000000000 0.035527589100000
257.000000000000000 260.000000000000000 260.000000000000000 0.035613049900000
257.000000000000000 260.000000000000000 261.000000000000000 0.034629106400000
257.000000000000000 260.000000000000000 262.000000000000000 0.032638045200000
257.000000000000000 260.000000000000000 263.000000000000000 0.029862998300000
257.000000000000000 260.000000000000000 264.000000000000000 0.026629703300000
257.000000000000000 260.000000000000000 265.000000000000000 0.023285261100000
257.000000000000000 260.000000000000000 266.000000000000000 0.020122180500000
257.000000000000000 261.000000000000000 234.000000000000000 0.020275303700000
257.000000000000000 261.000000000000000 235.000000000000000 0.022530049400000
257.000000000000000 261.000000000000000 236.000000000000000 0.024654180600000
257.000000000000000 261.000000000000000 237.000000000000000 0.026529857200000
257.000000000000000 261.000000000000000 238.000000000000000 0.028054259900000
257.000000000000000 261.000000000000000 239.000000000000000 0.029152400200000
257.000000000000000 261.000000000000000 240.000000000000000 0.029784982900000
257.000000000000000 261.000000000000000 241.000000000000000 0.029947090800000
257.000000000000000 261.000000000000000 242.000000000000000 0.029660533000000
257.000000000000000 261.000000000000000 243.000000000000000 0.028964224400000
257.000000000000000 261.000000000000000 244.000000000000000 0.027906471500000
257.000000000000000 261.000000000000000 245.000000000000000 0.026543619800000
257.000000000000000 261.000000000000000 246.000000000000000 0.024945804700000
257.000000000000000 261.000000000000000 247.000000000000000 0.023207042300000
257.000000000000000 261.000000000000000 248.000000000000000 0.021450398400000
257.000000000000000 261.000000000000000 256.000000000000000 0.020541957500000
257.000000000000000 261.000000000000000 257.000000000000000 0.021884190000000
257.000000000000000 261.000000000000000 258.000000000000000 0.022989900300000
257.000000000000000 261.000000000000000 259.000000000000000 0.023642163800000
257.000000000000000 261.000000000000000 260.000000000000000 0.023684527000000
257.000000000000000 261.000000000000000 261.000000000000000 0.023052865700000
257.000000000000000 261.000000000000000 262.000000000000000 0.021790183100000
257.000000000000000 261.000000000000000 263.000000000000000 0.020036433100000
257.000000000000000 262.000000000000000 240.000000000000000 0.020153481900000
257.000000000000000 262.000000000000000 241.000000000000000 0.020245852000000
257.000000000000000 262.000000000000000 242.000000000000000 0.020069354900000
258.000000000000000 240.000000000000000 241.000000000000000 0.020089861400000
258.000000000000000 240.000000000000000 242.000000000000000 0.020462323600000
258.000000000000000 240.000000000000000 243.000000000000000 0.020565753300000
258.000000000000000 240.000000000000000 244.000000000000000 0.020373511200000
258.000000000000000 241.000000000000000 236.000000000000000 0.021822042900000
258.000000000000000 241.000000000000000 237.000000000000000 0.023832010300000
258.000000000000000 241.000000000000000 238.000000000000000 0.025690215100000
258.000000000000000 241.000000000000000 239.000000000000000 0.027327115600000
258.000000000000000 241.000000000000000 240.000000000000000 0.028678429900000
258.000000000000000 241.000000000000000 241.000000000000000 0.029685004900000
258.000000000000000 241.000000000000000 242.000000000000000 0.030292501000000
258.000000000000000 241.000000000000000 243.000000000000000 0.030453912900000
258.000000000000000 241.000000000000000 244.000000000000000 0.030135975500000
258.000000000000000 241.000000000000000 245.000000000000000 0.029331365200000
258.000000000000000 241.000000000000000 246.000000000000000 0.028075008000000
258.000000000000000 241.000000000000000 247.000000000000000 0.026458159200000
258.000000000000000 241.000000000000000 248.000000000000000 0.024630710300000
258.000000000000000 241.000000000000000 249.000000000000000 0.022787747200000
258.000000000000000 241.000000000000000 250.000000000000000 0.021139967400000
258.000000000000000 241.000000000000000 255.000000000000000 0.020221237600000
258.000000000000000 241.000000000000000 256.000000000000000 0.021355900600000
258.000000000000000 241.000000000000000 257.000000000000000 0.022561979400000
258.000000000000000 241.000000000000000 258.000000000000000 0.023610364700000
258.000000000000000 241.000000000000000 259.000000000000000 0.024288813400000
258.000000000000000 241.000000000000000 260.000000000000000 0.024436234700000
258.000000000000000 241.000000000000000 261.000000000000000 0.023973354800000
258.000000000000000 241.000000000000000 262.000000000000000 0.022920100200000
258.000000000000000 241.000000000000000 263.000000000000000 0.021390641600000
258.000000000000000 242.000000000000000 233.000000000000000 0.022304741700000
258.000000000000000 242.000000000000000 234.000000000000000 0.025125377800000
258.000000000000000 242.000000000000000 235.000000000000000 0.028119404600000
258.000000000000000 242.000000000000000 236.000000000000000 0.031206767300000
258.000000000000000 242.000000000000000 237.000000000000000 0.034279778400000
258.000000000000000 242.000000000000000 238.000000000000000 0.037207646600000
258.000000000000000 242.000000000000000 239.000000000000000 0.039845045700000
258.000000000000000 242.000000000000000 240.000000000000000 0.042045400000000
258.000000000000000 242.000000000000000 241.000000000000000 0.043675432400000
258.000000000000000 242.000000000000000 242.000000000000000 0.044627939100000
258.000000000000000 242.000000000000000 243.000000000000000 0.044830888000000
258.000000000000000 242.000000000000000 244.000000000000000 0.044255078000000
258.000000000000000 242.000000000000000 245.000000000000000 0.042925197700000
258.000000000000000 242.000000000000000 246.000000000000000 0.040934618900000
258.000000000000000 242.000000000000000 247.000000000000000 0.038456459700000
258.000000000000000 242.000000000000000 248.000000000000000 0.035739081800000
258.000000000000000 242.000000000000000 249.000000000000000 0.033079166100000
258.000000000000000 242.000000000000000 250.000000000000000 0.030777465500000
258.000000000000000 242.000000000000000 251.000000000000000 0.029089680500000
258.000000000000000 242.000000000000000 252.000000000000000 0.028186388700000
258.000000000000000 242.000000000000000 253.000000000000000 0.028130317900000
258.000000000000000 242.000000000000000 254.000000000000000 0.028871356000000
258.000000000000000 242.000000000000000 255.000000000000000 0.030255097400000
258.000000000000000 242.000000000000000 256.000000000000000 0.032039862900000
258.000000000000000 242.000000000000000 257.000000000000000 0.033920575100000
258.000000000000000 242.000000000000000 258.000000000000000 0.035560819400000
258.000000000000000 242.000000000000000 259.000000000000000 0.036635907900000
258.000000000000000 242.000000000000000 260.000000000000000 0.036887003800000
258.000000000000000 242.000000000000000 261.000000000000000 0.036176780700000
258.000000000000000 242.000000000000000 262.000000000000000 0.034526690000000
258.000000000000000 242.000000000000000 263.000000000000000 0.032113707900000
258.000000000000000 242.000000000000000 264.000000000000000 0.029221600800000
258.000000000000000 242.000000000000000 265.000000000000000 0.026165031000000
258.000000000000000 242.000000000000000 266.000000000000000 0.023214249500000
258.000000000000000 242.000000000000000 267.000000000000000 0.020541845600000
258.000000000000000 243.000000000000000 230.000000000000000 0.022309050500000
258.000000000000000 243.000000000000000 231.000000000000000 0.025093588900000
258.000000000000000 243.000000000000000 232.000000000000000 0.028154280100000
258.000000000000000 243.000000000000000 233.000000000000000 0.031559687000000
258.000000000000000 243.000000000000000 234.000000000000000 0.035348988900000
258.000000000000000 243.000000000000000 235.000000000000000 0.039515436100000
258.000000000000000 243.000000000000000 236.000000000000000 0.043987879400000
258.000000000000000 243.000000000000000 237.000000000000000 0.048613397800000
258.000000000000000 243.000000000000000 238.000000000000000 0.053158437000000
258.000000000000000 243.000000000000000 239.000000000000000 0.057333167100000
258.000000000000000 243.000000000000000 240.000000000000000 0.060836816400000
258.000000000000000 243.000000000000000 241.000000000000000 0.063405167000000
258.000000000000000 243.000000000000000 242.000000000000000 0.064845372000000
258.000000000000000 243.000000000000000 243.000000000000000 0.065052248800000
258.000000000000000 243.000000000000000 244.000000000000000 0.064015316400000
258.000000000000000 243.000000000000000 245.000000000000000 0.061828019500000
258.000000000000000 243.000000000000000 246.000000000000000 0.058699505800000
258.000000000000000 243.000000000000000 247.000000000000000 0.054954236000000
258.000000000000000 243.000000000000000 248.000000000000000 0.051003514400000
258.000000000000000 243.000000000000000 249.000000000000000 0.047289337800000
258.000000000000000 243.000000000000000 250.000000000000000 0.044216634300000
258.000000000000000 243.000000000000000 251.000000000000000 0.042095204600000
258.000000000000000 243.000000000000000 252.000000000000000 0.041104450600000
258.000000000000000 243.000000000000000 253.000000000000000 0.041284407300000
258.000000000000000 243.000000000000000 254.000000000000000 0.042543759400000
258.000000000000000 243.000000000000000 255.000000000000000 0.044672447700000
258.000000000000000 243.000000000000000 256.000000000000000 0.047351436200000
258.000000000000000 243.000000000000000 257.000000000000000 0.050165526000000
258.000000000000000 243.000000000000000 258.000000000000000 0.052634041400000
258.000000000000000 243.000000000000000 259.000000000000000 0.054269354700000
258.000000000000000 243.000000000000000 260.000000000000000 0.054662459500000
258.000000000000000 243.000000000000000 261.000000000000000 0.053583326400000
258.000000000000000 243.000000000000000 262.000000000000000 0.051057879100000
258.000000000000000 243.000000000000000 263.000000000000000 0.047368021200000
258.000000000000000 243.000000000000000 264.000000000000000 0.042960100000000
258.000000000000000 243.000000000000000 265.000000000000000 0.038312436700000
258.000000000000000 243.000000000000000 266.000000000000000 0.033824135000000
258.000000000000000 243.000000000000000 267.000000000000000 0.029749497100000
258.000000000000000 243.000000000000000 268.000000000000000 0.026176357500000
258.000000000000000 243.000000000000000 269.000000000000000 0.023049972800000
258.000000000000000 243.000000000000000 270.000000000000000 0.020237333600000
258.000000000000000 244.000000000000000 227.000000000000000 0.022195389100000
258.000000000000000 244.000000000000000 228.000000000000000 0.025679287600000
258.000000000000000 244.000000000000000 229.000000000000000 0.029092336200000
258.000000000000000 244.000000000000000 230.000000000000000 0.032486425300000
258.000000000000000 244.000000000000000 231.000000000000000 0.035986731200000
258.000000000000000 244.000000000000000 232.000000000000000 0.039763232900000
258.000000000000000 244.000000000000000 233.000000000000000 0.044001906900000
258.000000000000000 244.000000000000000 234.000000000000000 0.048870555300000
258.000000000000000 244.000000000000000 235.000000000000000 0.054469779200000
258.000000000000000 244.000000000000000 236.000000000000000 0.060768576500000
258.000000000000000 244.000000000000000 237.000000000000000 0.067548681300000
258.000000000000000 244.000000000000000 238.000000000000000 0.074397218500000
258.000000000000000 244.000000000000000 239.000000000000000 0.080775548800000
258.000000000000000 244.000000000000000 240.000000000000000 0.086137205400000
258.000000000000000 244.000000000000000 241.000000000000000 0.090032242600000
258.000000000000000 244.000000000000000 242.000000000000000 0.092155929000000
258.000000000000000 244.000000000000000 243.000000000000000 0.092353631900000
258.000000000000000 244.000000000000000 244.000000000000000 0.090626212300000
258.000000000000000 244.000000000000000 245.000000000000000 0.087160846700000
258.000000000000000 244.000000000000000 246.000000000000000 0.082359635000000
258.000000000000000 244.000000000000000 247.000000000000000 0.076811908500000
258.000000000000000 244.000000000000000 248.000000000000000 0.071198740700000
258.000000000000000 244.000000000000000 249.000000000000000 0.066170167500000
258.000000000000000 244.000000000000000 250.000000000000000 0.062244431800000
258.000000000000000 244.000000000000000 251.000000000000000 0.059754373900000
258.000000000000000 244.000000000000000 252.000000000000000 0.058841791800000
258.000000000000000 244.000000000000000 253.000000000000000 0.059489649200000
258.000000000000000 244.000000000000000 254.000000000000000 0.061557178800000
258.000000000000000 244.000000000000000 255.000000000000000 0.064784243000000
258.000000000000000 244.000000000000000 256.000000000000000 0.068761523900000
258.000000000000000 244.000000000000000 257.000000000000000 0.072914420900000
258.000000000000000 244.000000000000000 258.000000000000000 0.076551903800000
258.000000000000000 244.000000000000000 259.000000000000000 0.078966688000000
258.000000000000000 244.000000000000000 260.000000000000000 0.079545415800000
258.000000000000000 244.000000000000000 261.000000000000000 0.077910338200000
258.000000000000000 244.000000000000000 262.000000000000000 0.074082879000000
258.000000000000000 244.000000000000000 263.000000000000000 0.068527397300000
258.000000000000000 244.000000000000000 264.000000000000000 0.061974529400000
258.000000000000000 244.000000000000000 265.000000000000000 0.055149984500000
258.000000000000000 244.000000000000000 266.000000000000000 0.048597714000000
258.000000000000000 244.000000000000000 267.000000000000000 0.042632283600000
258.000000000000000 244.000000000000000 268.000000000000000 0.037352175000000
258.000000000000000 244.000000000000000 269.000000000000000 0.032678824900000
258.000000000000000 244.000000000000000 270.000000000000000 0.028439999400000
258.000000000000000 244.000000000000000 271.000000000000000 0.024474414700000
258.000000000000000 244.000000000000000 272.000000000000000 0.020704904200000
258.000000000000000 245.000000000000000 225.000000000000000 0.022281474300000
258.000000000000000 245.000000000000000 226.000000000000000 0.027540774500000
258.000000000000000 245.000000000000000 227.000000000000000 0.032809624800000
258.000000000000000 245.000000000000000 228.000000000000000 0.037787982100000
258.000000000000000 245.000000000000000 229.000000000000000 0.042357245600000
258.000000000000000 245.000000000000000 230.000000000000000 0.046602421900000
258.000000000000000 245.000000000000000 231.000000000000000 0.050754615300000
258.000000000000000 245.000000000000000 232.000000000000000 0.055134662700000
258.000000000000000 245.000000000000000 233.000000000000000 0.060118621400000
258.000000000000000 245.000000000000000 234.000000000000000 0.066087767100000
258.000000000000000 245.000000000000000 235.000000000000000 0.073332695800000
258.000000000000000 245.000000000000000 236.000000000000000 0.081911717700000
258.000000000000000 245.000000000000000 237.000000000000000 0.091512199600000
258.000000000000000 245.000000000000000 238.000000000000000 0.101426510000000
258.000000000000000 245.000000000000000 239.000000000000000 0.110721502000000
258.000000000000000 245.000000000000000 240.000000000000000 0.118514843000000
258.000000000000000 245.000000000000000 241.000000000000000 0.124160727000000
258.000000000000000 245.000000000000000 242.000000000000000 0.127249783000000
258.000000000000000 245.000000000000000 243.000000000000000 0.127530736000000
258.000000000000000 245.000000000000000 244.000000000000000 0.124929916000000
258.000000000000000 245.000000000000000 245.000000000000000 0.119705907000000
258.000000000000000 245.000000000000000 246.000000000000000 0.112566443000000
258.000000000000000 245.000000000000000 247.000000000000000 0.104560191000000
258.000000000000000 245.000000000000000 248.000000000000000 0.096792852200000
258.000000000000000 245.000000000000000 249.000000000000000 0.090181067600000
258.000000000000000 245.000000000000000 250.000000000000000 0.085346290300000
258.000000000000000 245.000000000000000 251.000000000000000 0.082607041100000
258.000000000000000 245.000000000000000 252.000000000000000 0.082033038300000
258.000000000000000 245.000000000000000 253.000000000000000 0.083539442400000
258.000000000000000 245.000000000000000 254.000000000000000 0.086949998000000
258.000000000000000 245.000000000000000 255.000000000000000 0.091940732600000
258.000000000000000 245.000000000000000 256.000000000000000 0.097901349400000
258.000000000000000 245.000000000000000 257.000000000000000 0.103919037000000
258.000000000000000 245.000000000000000 258.000000000000000 0.109006718000000
258.000000000000000 245.000000000000000 259.000000000000000 0.112327473000000
258.000000000000000 245.000000000000000 260.000000000000000 0.113153682000000
258.000000000000000 245.000000000000000 261.000000000000000 0.110854543000000
258.000000000000000 245.000000000000000 262.000000000000000 0.105266330000000
258.000000000000000 245.000000000000000 263.000000000000000 0.097050227900000
258.000000000000000 245.000000000000000 264.000000000000000 0.087451586500000
258.000000000000000 245.000000000000000 265.000000000000000 0.077662344100000
258.000000000000000 245.000000000000000 266.000000000000000 0.068424481600000
258.000000000000000 245.000000000000000 267.000000000000000 0.060044819800000
258.000000000000000 245.000000000000000 268.000000000000000 0.052546907700000
258.000000000000000 245.000000000000000 269.000000000000000 0.045783507100000
258.000000000000000 245.000000000000000 270.000000000000000 0.039536116200000
258.000000000000000 245.000000000000000 271.000000000000000 0.033636020100000
258.000000000000000 245.000000000000000 272.000000000000000 0.028048614600000
258.000000000000000 245.000000000000000 273.000000000000000 0.022861594600000
258.000000000000000 246.000000000000000 224.000000000000000 0.024474359900000
258.000000000000000 246.000000000000000 225.000000000000000 0.031980174400000
258.000000000000000 246.000000000000000 226.000000000000000 0.040048906300000
258.000000000000000 246.000000000000000 227.000000000000000 0.047856176700000
258.000000000000000 246.000000000000000 228.000000000000000 0.054710783000000
258.000000000000000 246.000000000000000 229.000000000000000 0.060422121400000
258.000000000000000 246.000000000000000 230.000000000000000 0.065278398700000
258.000000000000000 246.000000000000000 231.000000000000000 0.069783914200000
258.000000000000000 246.000000000000000 232.000000000000000 0.074497050200000
258.000000000000000 246.000000000000000 233.000000000000000 0.080021369900000
258.000000000000000 246.000000000000000 234.000000000000000 0.086996223700000
258.000000000000000 246.000000000000000 235.000000000000000 0.095981011000000
258.000000000000000 246.000000000000000 236.000000000000000 0.107205233000000
258.000000000000000 246.000000000000000 237.000000000000000 0.120257022000000
258.000000000000000 246.000000000000000 238.000000000000000 0.133985424000000
258.000000000000000 246.000000000000000 239.000000000000000 0.146862057000000
258.000000000000000 246.000000000000000 240.000000000000000 0.157585842000000
258.000000000000000 246.000000000000000 241.000000000000000 0.165383224000000
258.000000000000000 246.000000000000000 242.000000000000000 0.169793937000000
258.000000000000000 246.000000000000000 243.000000000000000 0.170347248000000
258.000000000000000 246.000000000000000 244.000000000000000 0.166670788000000
258.000000000000000 246.000000000000000 245.000000000000000 0.159040485000000
258.000000000000000 246.000000000000000 246.000000000000000 0.148726213000000
258.000000000000000 246.000000000000000 247.000000000000000 0.137595228000000
258.000000000000000 246.000000000000000 248.000000000000000 0.127334178000000
258.000000000000000 246.000000000000000 249.000000000000000 0.119046944000000
258.000000000000000 246.000000000000000 250.000000000000000 0.113342947000000
258.000000000000000 246.000000000000000 251.000000000000000 0.110508468000000
258.000000000000000 246.000000000000000 252.000000000000000 0.110603736000000
258.000000000000000 246.000000000000000 253.000000000000000 0.113564849000000
258.000000000000000 246.000000000000000 254.000000000000000 0.119224654000000
258.000000000000000 246.000000000000000 255.000000000000000 0.127055482000000
258.000000000000000 246.000000000000000 256.000000000000000 0.135819387000000
258.000000000000000 246.000000000000000 257.000000000000000 0.143813665000000
258.000000000000000 246.000000000000000 258.000000000000000 0.149849082000000
258.000000000000000 246.000000000000000 259.000000000000000 0.153626521000000
258.000000000000000 246.000000000000000 260.000000000000000 0.154795123000000
258.000000000000000 246.000000000000000 261.000000000000000 0.152295103000000
258.000000000000000 246.000000000000000 262.000000000000000 0.145130333000000
258.000000000000000 246.000000000000000 263.000000000000000 0.133718998000000
258.000000000000000 246.000000000000000 264.000000000000000 0.120047291000000
258.000000000000000 246.000000000000000 265.000000000000000 0.106282364000000
258.000000000000000 246.000000000000000 266.000000000000000 0.093622524800000
258.000000000000000 246.000000000000000 267.000000000000000 0.082307733100000
258.000000000000000 246.000000000000000 268.000000000000000 0.072124288500000
258.000000000000000 246.000000000000000 269.000000000000000 0.062741540900000
258.000000000000000 246.000000000000000 270.000000000000000 0.053862909300000
258.000000000000000 246.000000000000000 271.000000000000000 0.045344390400000
258.000000000000000 246.000000000000000 272.000000000000000 0.037261611900000
258.000000000000000 246.000000000000000 273.000000000000000 0.029846990300000
258.000000000000000 246.000000000000000 274.000000000000000 0.023337640900000
258.000000000000000 247.000000000000000 223.000000000000000 0.024135250800000
258.000000000000000 247.000000000000000 224.000000000000000 0.033617283400000
258.000000000000000 247.000000000000000 225.000000000000000 0.045162225400000
258.000000000000000 247.000000000000000 226.000000000000000 0.057611651500000
258.000000000000000 247.000000000000000 227.000000000000000 0.069029870100000
258.000000000000000 247.000000000000000 228.000000000000000 0.077888482300000
258.000000000000000 247.000000000000000 229.000000000000000 0.084081988200000
258.000000000000000 247.000000000000000 230.000000000000000 0.088636928400000
258.000000000000000 247.000000000000000 231.000000000000000 0.092744959000000
258.000000000000000 247.000000000000000 232.000000000000000 0.097298436600000
258.000000000000000 247.000000000000000 233.000000000000000 0.103031239000000
258.000000000000000 247.000000000000000 234.000000000000000 0.110744100000000
258.000000000000000 247.000000000000000 235.000000000000000 0.121298196000000
258.000000000000000 247.000000000000000 236.000000000000000 0.135249423000000
258.000000000000000 247.000000000000000 237.000000000000000 0.152181562000000
258.000000000000000 247.000000000000000 238.000000000000000 0.170359914000000
258.000000000000000 247.000000000000000 239.000000000000000 0.187386606000000
258.000000000000000 247.000000000000000 240.000000000000000 0.201422364000000
258.000000000000000 247.000000000000000 241.000000000000000 0.211672983000000
258.000000000000000 247.000000000000000 242.000000000000000 0.217683287000000
258.000000000000000 247.000000000000000 243.000000000000000 0.218517650000000
258.000000000000000 247.000000000000000 244.000000000000000 0.213159007000000
258.000000000000000 247.000000000000000 245.000000000000000 0.201970736000000
258.000000000000000 247.000000000000000 246.000000000000000 0.187401699000000
258.000000000000000 247.000000000000000 247.000000000000000 0.172761215000000
258.000000000000000 247.000000000000000 248.000000000000000 0.160352692000000
258.000000000000000 247.000000000000000 249.000000000000000 0.150979600000000
258.000000000000000 247.000000000000000 250.000000000000000 0.144825306000000
258.000000000000000 247.000000000000000 251.000000000000000 0.142152205000000
258.000000000000000 247.000000000000000 252.000000000000000 0.143286279000000
258.000000000000000 247.000000000000000 253.000000000000000 0.148462774000000
258.000000000000000 247.000000000000000 254.000000000000000 0.157584174000000
258.000000000000000 247.000000000000000 255.000000000000000 0.169499707000000
258.000000000000000 247.000000000000000 256.000000000000000 0.181476034000000
258.000000000000000 247.000000000000000 257.000000000000000 0.190798732000000
258.000000000000000 247.000000000000000 258.000000000000000 0.197495163000000
258.000000000000000 247.000000000000000 259.000000000000000 0.202396763000000
258.000000000000000 247.000000000000000 260.000000000000000 0.203554818000000
258.000000000000000 247.000000000000000 261.000000000000000 0.199931447000000
258.000000000000000 247.000000000000000 262.000000000000000 0.191393794000000
258.000000000000000 247.000000000000000 263.000000000000000 0.177103941000000
258.000000000000000 247.000000000000000 264.000000000000000 0.158806884000000
258.000000000000000 247.000000000000000 265.000000000000000 0.140104256000000
258.000000000000000 247.000000000000000 266.000000000000000 0.123270361000000
258.000000000000000 247.000000000000000 267.000000000000000 0.108582783000000
258.000000000000000 247.000000000000000 268.000000000000000 0.095401806100000
258.000000000000000 247.000000000000000 269.000000000000000 0.083029925300000
258.000000000000000 247.000000000000000 270.000000000000000 0.071019370400000
258.000000000000000 247.000000000000000 271.000000000000000 0.059276424000000
258.000000000000000 247.000000000000000 272.000000000000000 0.048068544100000
258.000000000000000 247.000000000000000 273.000000000000000 0.037863232500000
258.000000000000000 247.000000000000000 274.000000000000000 0.029067721100000
258.000000000000000 247.000000000000000 275.000000000000000 0.021850530200000
258.000000000000000 248.000000000000000 222.000000000000000 0.021086742400000
258.000000000000000 248.000000000000000 223.000000000000000 0.031026314200000
258.000000000000000 248.000000000000000 224.000000000000000 0.044849569000000
258.000000000000000 248.000000000000000 225.000000000000000 0.062487969800000
258.000000000000000 248.000000000000000 226.000000000000000 0.081605804600000
258.000000000000000 248.000000000000000 227.000000000000000 0.097954129600000
258.000000000000000 248.000000000000000 228.000000000000000 0.108387579000000
258.000000000000000 248.000000000000000 229.000000000000000 0.113348429000000
258.000000000000000 248.000000000000000 230.000000000000000 0.115710169000000
258.000000000000000 248.000000000000000 231.000000000000000 0.118075979000000
258.000000000000000 248.000000000000000 232.000000000000000 0.121723723000000
258.000000000000000 248.000000000000000 233.000000000000000 0.127200624000000
258.000000000000000 248.000000000000000 234.000000000000000 0.135158982000000
258.000000000000000 248.000000000000000 235.000000000000000 0.146716696000000
258.000000000000000 248.000000000000000 236.000000000000000 0.162997141000000
258.000000000000000 248.000000000000000 237.000000000000000 0.183822549000000
258.000000000000000 248.000000000000000 238.000000000000000 0.206810470000000
258.000000000000000 248.000000000000000 239.000000000000000 0.228387735000000
258.000000000000000 248.000000000000000 240.000000000000000 0.245973108000000
258.000000000000000 248.000000000000000 241.000000000000000 0.258777871000000
258.000000000000000 248.000000000000000 242.000000000000000 0.266320479000000
258.000000000000000 248.000000000000000 243.000000000000000 0.266868889000000
258.000000000000000 248.000000000000000 244.000000000000000 0.258502258000000
258.000000000000000 248.000000000000000 245.000000000000000 0.242074514000000
258.000000000000000 248.000000000000000 246.000000000000000 0.222130578000000
258.000000000000000 248.000000000000000 247.000000000000000 0.204141794000000
258.000000000000000 248.000000000000000 248.000000000000000 0.190957303000000
258.000000000000000 248.000000000000000 249.000000000000000 0.182163566000000
258.000000000000000 248.000000000000000 250.000000000000000 0.176659195000000
258.000000000000000 248.000000000000000 251.000000000000000 0.174630229000000
258.000000000000000 248.000000000000000 252.000000000000000 0.177162028000000
258.000000000000000 248.000000000000000 253.000000000000000 0.185254756000000
258.000000000000000 248.000000000000000 254.000000000000000 0.198928489000000
258.000000000000000 248.000000000000000 255.000000000000000 0.215809075000000
258.000000000000000 248.000000000000000 256.000000000000000 0.231527215000000
258.000000000000000 248.000000000000000 257.000000000000000 0.247666142000000
258.000000000000000 248.000000000000000 258.000000000000000 0.280367428000000
258.000000000000000 248.000000000000000 259.000000000000000 0.324184956000000
258.000000000000000 248.000000000000000 260.000000000000000 0.316975122000000
258.000000000000000 248.000000000000000 261.000000000000000 0.272234447000000
258.000000000000000 248.000000000000000 262.000000000000000 0.243111437000000
258.000000000000000 248.000000000000000 263.000000000000000 0.222948730000000
258.000000000000000 248.000000000000000 264.000000000000000 0.200064220000000
258.000000000000000 248.000000000000000 265.000000000000000 0.176057327000000
258.000000000000000 248.000000000000000 266.000000000000000 0.154607000000000
258.000000000000000 248.000000000000000 267.000000000000000 0.136365048000000
258.000000000000000 248.000000000000000 268.000000000000000 0.120167186000000
258.000000000000000 248.000000000000000 269.000000000000000 0.104760097000000
258.000000000000000 248.000000000000000 270.000000000000000 0.089447141100000
258.000000000000000 248.000000000000000 271.000000000000000 0.074192200900000
258.000000000000000 248.000000000000000 272.000000000000000 0.059521721500000
258.000000000000000 248.000000000000000 273.000000000000000 0.046215312100000
258.000000000000000 248.000000000000000 274.000000000000000 0.034901265000000
258.000000000000000 248.000000000000000 275.000000000000000 0.025808649600000
258.000000000000000 249.000000000000000 222.000000000000000 0.025014170600000
258.000000000000000 249.000000000000000 223.000000000000000 0.037977571600000
258.000000000000000 249.000000000000000 224.000000000000000 0.057149381800000
258.000000000000000 249.000000000000000 225.000000000000000 0.082779029700000
258.000000000000000 249.000000000000000 226.000000000000000 0.110765658000000
258.000000000000000 249.000000000000000 227.000000000000000 0.133076084000000
258.000000000000000 249.000000000000000 228.000000000000000 0.144007943000000
258.000000000000000 249.000000000000000 229.000000000000000 0.145371810000000
258.000000000000000 249.000000000000000 230.000000000000000 0.143265062000000
258.000000000000000 249.000000000000000 231.000000000000000 0.142413521000000
258.000000000000000 249.000000000000000 232.000000000000000 0.144403472000000
258.000000000000000 249.000000000000000 233.000000000000000 0.149157728000000
258.000000000000000 249.000000000000000 234.000000000000000 0.156782547000000
258.000000000000000 249.000000000000000 235.000000000000000 0.168549874000000
258.000000000000000 249.000000000000000 236.000000000000000 0.186361763000000
258.000000000000000 249.000000000000000 237.000000000000000 0.210531404000000
258.000000000000000 249.000000000000000 238.000000000000000 0.238079755000000
258.000000000000000 249.000000000000000 239.000000000000000 0.264121230000000
258.000000000000000 249.000000000000000 240.000000000000000 0.285153537000000
258.000000000000000 249.000000000000000 241.000000000000000 0.300281642000000
258.000000000000000 249.000000000000000 242.000000000000000 0.308855380000000
258.000000000000000 249.000000000000000 243.000000000000000 0.308164350000000
258.000000000000000 249.000000000000000 244.000000000000000 0.295570270000000
258.000000000000000 249.000000000000000 245.000000000000000 0.273064964000000
258.000000000000000 249.000000000000000 246.000000000000000 0.247541499000000
258.000000000000000 249.000000000000000 247.000000000000000 0.226628687000000
258.000000000000000 249.000000000000000 248.000000000000000 0.214064116000000
258.000000000000000 249.000000000000000 249.000000000000000 0.207745199000000
258.000000000000000 249.000000000000000 250.000000000000000 0.204269158000000
258.000000000000000 249.000000000000000 251.000000000000000 0.203466925000000
258.000000000000000 249.000000000000000 252.000000000000000 0.207591335000000
258.000000000000000 249.000000000000000 253.000000000000000 0.218829918000000
258.000000000000000 249.000000000000000 254.000000000000000 0.237350365000000
258.000000000000000 249.000000000000000 255.000000000000000 0.259472363000000
258.000000000000000 249.000000000000000 256.000000000000000 0.283658398000000
258.000000000000000 249.000000000000000 257.000000000000000 0.354908192000000
258.000000000000000 249.000000000000000 258.000000000000000 0.681567047000000
258.000000000000000 249.000000000000000 259.000000000000000 1.296238040000000
258.000000000000000 249.000000000000000 260.000000000000000 1.156259300000000
258.000000000000000 249.000000000000000 261.000000000000000 0.553935567000000
258.000000000000000 249.000000000000000 262.000000000000000 0.319954486000000
258.000000000000000 249.000000000000000 263.000000000000000 0.266614136000000
258.000000000000000 249.000000000000000 264.000000000000000 0.237604999000000
258.000000000000000 249.000000000000000 265.000000000000000 0.208800926000000
258.000000000000000 249.000000000000000 266.000000000000000 0.183028192000000
258.000000000000000 249.000000000000000 267.000000000000000 0.161541484000000
258.000000000000000 249.000000000000000 268.000000000000000 0.142717125000000
258.000000000000000 249.000000000000000 269.000000000000000 0.124667562000000
258.000000000000000 249.000000000000000 270.000000000000000 0.106385935000000
258.000000000000000 249.000000000000000 271.000000000000000 0.087884031200000
258.000000000000000 249.000000000000000 272.000000000000000 0.069964417600000
258.000000000000000 249.000000000000000 273.000000000000000 0.053737911000000
258.000000000000000 249.000000000000000 274.000000000000000 0.040065067100000
258.000000000000000 249.000000000000000 275.000000000000000 0.029238902700000
258.000000000000000 249.000000000000000 276.000000000000000 0.021031266500000
258.000000000000000 250.000000000000000 222.000000000000000 0.027905176800000
258.000000000000000 250.000000000000000 223.000000000000000 0.043437473700000
258.000000000000000 250.000000000000000 224.000000000000000 0.067477714500000
258.000000000000000 250.000000000000000 225.000000000000000 0.100748619000000
258.000000000000000 250.000000000000000 226.000000000000000 0.137573819000000
258.000000000000000 250.000000000000000 227.000000000000000 0.165531339000000
258.000000000000000 250.000000000000000 228.000000000000000 0.175594793000000
258.000000000000000 250.000000000000000 229.000000000000000 0.172172802000000
258.000000000000000 250.000000000000000 230.000000000000000 0.164957022000000
258.000000000000000 250.000000000000000 231.000000000000000 0.160609794000000
258.000000000000000 250.000000000000000 232.000000000000000 0.160828817000000
258.000000000000000 250.000000000000000 233.000000000000000 0.164736058000000
258.000000000000000 250.000000000000000 234.000000000000000 0.171756898000000
