ply
format ascii 1.0
element vertex 1421
property float x
property float y
property float z
end_header
750.528748 -91.500725 -692.088623
389.522308 48.440170 -720.565735
516.156494 -38.924667 -738.929138
619.115479 -37.825451 -718.185669
652.909790 -112.373711 -788.578003
661.275757 106.691238 -661.062256
437.466522 130.108444 -676.739563
803.659607 -70.610245 -701.902649
688.968994 249.570267 -590.446655
818.673401 262.807190 -577.076477
738.855530 141.583298 -644.485962
480.151398 -42.376781 -734.356812
868.861572 167.071442 -611.424805
684.937927 -18.669361 -705.741455
747.309387 121.503075 -652.939148
711.410278 56.226974 -656.844360
818.181152 187.003235 -607.980591
619.052124 42.343601 -687.837952
450.291504 -21.343618 -760.687622
756.263062 273.061371 -566.141052
712.263245 32.797848 -695.061829
458.124146 89.551346 -692.601135
740.977722 -25.298521 -710.552429
562.800598 151.214340 -647.741760
696.324768 38.026073 -685.464722
852.492920 175.995682 -607.208252
708.369629 230.551544 -604.087646
507.144196 98.241287 -682.267761
595.002625 35.201748 -696.715637
439.169708 27.185564 -730.676025
664.921509 220.630630 -600.993652
678.151672 -62.669674 -749.634216
726.409973 192.480896 -616.264099
421.621613 33.497932 -714.515137
745.271179 -58.669704 -731.390015
693.076660 164.147507 -641.120483
645.768982 2.796261 -722.247375
864.168579 101.243217 -649.065613
472.191345 19.182192 -726.836243
715.185730 -56.151180 -753.501709
850.979614 119.451225 -613.004700
621.640198 187.049438 -618.453125
628.625916 207.614594 -613.899231
685.742920 -127.374062 -709.203552
541.482239 -95.118050 -786.674255
603.989197 21.418240 -716.101563
779.043579 18.835621 -688.437744
646.605957 92.763229 -676.964233
827.399048 167.239746 -608.180481
729.523621 272.465881 -577.016602
912.630249 92.681099 -638.819824
663.836975 1.382823 -688.682617
793.975952 207.676544 -577.840698
418.745697 52.566273 -710.913269
572.570374 18.779726 -712.072021
901.630981 23.916075 -696.122009
782.265564 65.173698 -667.135437
784.954468 234.330002 -589.742432
847.333679 146.760880 -629.260681
632.798767 -91.092316 -781.862610
849.698547 191.873383 -605.315247
539.196960 60.220535 -705.868774
643.523438 3.261267 -717.309875
408.196136 55.808800 -729.115417
839.034485 58.940357 -638.866943
756.344116 -86.662285 -700.444092
721.099609 -115.156303 -718.528564
755.862122 286.269775 -571.272827
718.640686 2.588959 -706.922913
686.678894 131.132050 -657.275940
814.683350 126.690971 -637.480835
524.378479 -13.327648 -727.378357
738.644409 -27.753866 -707.259644
713.841003 41.486004 -682.818481
484.841888 66.998344 -703.445923
582.646179 -93.198845 -769.564392
808.661377 189.871445 -609.168640
555.985657 76.677864 -700.247803
759.929138 -21.181164 -711.343445
756.496216 183.849304 -625.403687
598.257629 173.282394 -648.615845
504.058411 -26.680050 -735.841431
602.856201 149.550903 -659.769714
530.681763 13.501211 -697.097473
749.289673 167.792877 -630.588989
809.703735 1.668262 -717.921326
391.379364 115.704071 -689.666016
684.898132 -67.383118 -742.759644
802.710999 64.957298 -666.860168
594.399292 133.825317 -657.577393
444.678192 136.316467 -674.320557
714.726563 -4.024288 -699.503906
529.530579 90.293365 -686.317688
620.511841 196.355865 -606.310730
520.450684 -99.373047 -776.331482
497.386108 70.182114 -707.631470
405.733612 42.802818 -725.162903
833.675781 193.647324 -578.736633
465.606232 16.839277 -710.999329
518.616699 76.550667 -689.184692
622.382385 132.638245 -660.977173
435.541016 129.449646 -691.662415
833.532043 -1.835897 -728.009583
697.154480 217.325348 -600.378174
675.741821 64.553001 -685.698303
634.839966 50.994900 -679.730469
457.090759 -62.076603 -779.109680
510.879425 -108.981979 -771.653137
662.147278 144.514740 -616.995605
726.758057 153.138504 -613.477905
468.248260 117.617111 -678.658325
751.654175 202.283966 -614.970703
613.532410 11.515298 -704.172302
789.445129 295.372894 -569.322388
501.878967 22.316977 -714.838074
790.477966 270.628021 -560.726074
522.971375 178.926132 -645.428528
558.678162 -40.799923 -746.186462
800.234497 -89.078140 -666.650818
705.713989 200.947281 -615.232422
493.303162 134.255875 -663.598633
496.837585 -42.115562 -742.856750
808.022705 117.348267 -648.815247
478.460693 86.765083 -703.313782
484.441010 85.126083 -687.225037
707.245361 87.684578 -666.171143
811.124268 -29.034317 -740.967041
456.670929 -65.979393 -770.378052
709.832275 203.090775 -613.502991
853.522034 72.962883 -637.069031
564.536621 105.887405 -683.785095
578.480774 177.796814 -632.408142
930.857056 56.482822 -690.766235
804.089172 188.314331 -609.426880
761.148438 240.972931 -573.371399
720.201416 177.250519 -605.088440
562.038269 -2.504321 -723.083069
766.502991 95.077263 -660.565857
653.538879 -105.005074 -766.701050
710.528931 -16.214918 -719.852539
777.873291 108.099442 -646.712646
750.926697 -82.009232 -719.764465
717.306274 -77.686028 -740.868713
563.679871 186.846527 -633.796143
825.867859 65.738846 -655.936584
740.786682 -107.668221 -692.301086
671.674805 41.321159 -685.389771
551.938538 -37.292267 -750.571533
587.220459 98.059052 -668.840027
562.595642 109.006279 -671.480347
733.589417 208.847916 -595.520935
822.260925 133.760727 -627.051636
517.456055 -4.183090 -738.152588
467.699371 157.476791 -674.296936
821.011108 268.181885 -553.149597
660.684204 85.217224 -678.758728
700.687317 30.278580 -671.061646
603.276672 97.141472 -653.837219
656.656189 -111.877411 -778.220520
464.872986 57.829708 -709.280640
700.326782 115.066399 -654.864990
641.429016 -24.988775 -716.797058
561.155457 87.616783 -668.363525
387.400208 82.035965 -685.836609
583.232727 7.197001 -728.749451
829.559509 107.164375 -645.816284
761.216431 140.383667 -631.067810
688.122009 -91.119949 -765.162781
433.443817 53.685192 -708.667847
415.583191 85.811424 -702.774048
570.901367 -4.305492 -716.488342
712.623047 261.578583 -586.110229
935.861328 33.942024 -702.889771
675.172241 16.792686 -699.976990
742.498535 178.088821 -629.745422
625.796875 139.920700 -660.740417
441.737976 -16.529221 -734.138428
510.224304 75.524712 -703.417236
764.991272 150.811996 -639.769165
616.692139 -18.383274 -729.639771
828.528870 163.690002 -586.343567
762.424622 246.713699 -569.845459
737.870361 130.323715 -641.613464
717.822144 -87.287598 -729.251465
696.951416 -71.863350 -762.513489
441.339783 74.961990 -716.154663
773.291870 254.987686 -572.446106
723.659912 -129.201385 -688.026794
612.001587 176.471924 -648.536682
844.955444 21.455618 -680.609924
721.209534 202.068726 -616.148621
890.122681 109.109344 -637.902710
665.463623 -48.521973 -727.301147
587.371216 162.991867 -658.085388
762.358826 103.825722 -646.855103
593.054382 96.014267 -687.919128
446.935364 8.565483 -740.871155
842.331543 129.930466 -633.841187
469.216400 -58.251282 -751.805786
686.229553 -19.603712 -712.183350
899.345032 139.827026 -627.652283
694.921021 -70.302452 -753.702759
757.429504 248.809509 -576.740601
557.660461 80.910561 -683.579224
529.836426 117.616699 -668.052795
515.381531 -60.551952 -753.354553
664.697693 -2.263633 -702.203430
565.280945 -56.572941 -758.760559
808.670166 -68.506561 -701.643738
592.509155 116.165253 -678.407898
691.626526 -5.756638 -706.353943
787.690613 114.082794 -649.191895
474.879425 49.691940 -717.914124
848.044556 190.829788 -606.089172
657.306152 -92.144409 -780.417053
830.123718 197.766830 -607.407715
877.304077 86.443825 -646.320313
831.383545 201.114441 -593.605652
732.805725 114.493317 -656.640625
879.185791 116.336411 -614.308716
662.387390 14.907172 -697.936768
735.408081 -31.492128 -727.194336
485.313354 -70.112892 -757.396179
648.237488 131.397476 -653.785583
766.676331 70.328857 -655.584412
451.625305 155.932251 -672.673889
708.117126 74.400932 -667.118530
467.423920 45.482315 -727.707275
506.732513 -94.821495 -769.134827
750.471619 162.988525 -618.314331
656.693604 -119.830582 -784.073547
592.366699 -42.506275 -736.925720
518.905945 -59.770721 -745.922607
573.034973 58.461773 -694.351257
384.372070 70.276588 -696.648010
766.999817 114.862907 -645.155090
464.484680 -36.214756 -765.073364
496.064148 -111.217506 -786.996887
699.998230 171.386017 -636.555664
570.453247 118.114822 -679.692932
829.547791 -68.393669 -695.764893
490.582642 145.286636 -663.743896
681.583313 -116.341324 -752.394958
691.585449 239.506317 -598.210938
598.768677 134.382034 -650.896729
670.254761 213.897949 -622.981567
688.926086 33.797775 -691.474609
767.276489 226.463470 -573.746155
769.745483 22.210032 -683.910645
701.556458 -25.017965 -720.832886
609.644104 139.962387 -652.844055
622.367249 -15.376338 -708.627686
731.113342 -87.298470 -720.303223
809.085693 70.902145 -636.548157
519.869446 6.011780 -718.954163
571.910583 83.397514 -690.993164
492.411346 71.898964 -693.221863
531.873962 139.545578 -672.867554
458.285156 -1.204955 -746.538147
468.138397 -32.871658 -742.237305
408.657959 74.735245 -704.961914
485.594208 -64.619087 -772.504700
583.705994 -62.736809 -750.064453
510.164581 135.404541 -677.097595
495.935547 -43.224842 -743.816467
899.144958 52.055183 -659.611450
637.420715 173.270782 -645.183533
819.122375 -74.607925 -694.868530
739.255249 7.003905 -685.483459
511.748016 -41.224644 -740.606384
509.975983 -32.657711 -727.130676
493.427216 -26.304651 -752.905640
851.395203 96.522202 -644.616089
697.241028 -10.778653 -717.592041
658.963745 201.498718 -609.994324
541.687988 59.833675 -687.610962
883.538269 99.040787 -640.119629
859.988342 92.637497 -645.572449
794.669434 -78.102814 -710.087524
733.450806 240.323074 -600.570435
610.957947 51.845470 -691.059875
627.244385 -84.309921 -768.936157
516.066101 89.082176 -681.317444
879.786743 64.116524 -643.480408
701.329712 222.148376 -592.807007
824.536865 89.623383 -654.889221
787.197754 204.916092 -580.259460
644.993652 -1.275370 -719.495728
571.196838 3.258251 -705.616943
593.508362 189.795456 -628.144531
871.726013 54.795067 -639.173218
649.116516 154.861145 -621.617249
744.502258 36.853085 -680.425537
830.496765 160.894760 -621.779907
724.753601 41.946941 -688.570190
629.508118 6.173434 -689.957886
517.978210 127.728722 -667.894470
810.752930 170.048325 -621.018860
750.857544 231.358734 -573.340881
673.871521 102.512970 -659.478699
607.862793 199.596924 -625.810303
553.768311 127.733047 -660.156311
686.270752 41.479298 -683.013000
793.952881 -90.972046 -668.246582
875.271912 49.539551 -670.011841
583.627502 134.050156 -656.359192
475.696899 140.690002 -687.271057
533.392639 61.296970 -692.444397
572.057129 80.185547 -684.894958
793.959717 66.286995 -659.864563
549.769653 -84.969971 -773.408997
652.091553 75.890617 -676.203674
778.895752 -61.693420 -720.340088
698.963501 98.110390 -638.950012
803.006348 27.205559 -680.399292
595.902710 13.010446 -706.097046
501.972961 76.687225 -689.725586
776.093384 -46.937740 -747.152649
808.147217 117.402695 -639.533447
754.382141 42.154293 -669.598267
896.177612 71.793396 -655.492920
734.685547 257.347321 -586.850098
905.708191 119.453087 -641.032776
551.126465 191.580139 -622.167542
668.183044 -118.204010 -743.548035
602.575012 102.834267 -670.322937
687.100708 214.392838 -608.641785
587.515015 9.405638 -702.577881
701.635498 221.183380 -604.541504
633.914551 148.184753 -640.045898
498.484619 -12.016418 -732.163269
594.650330 84.741638 -673.983215
576.348145 35.337849 -698.224548
576.462280 142.348328 -626.093628
523.167236 150.975998 -649.694702
719.164307 11.387495 -703.274597
564.872375 92.752457 -688.920349
834.255798 -57.843121 -711.520142
604.926392 38.490807 -687.404419
760.096313 -60.006794 -705.444946
659.505798 50.525616 -683.410828
770.961426 105.178856 -656.534363
420.417297 104.227081 -700.436340
855.442932 63.814529 -659.949646
773.172058 -44.544510 -704.949829
847.968689 147.629211 -608.027771
789.596008 294.381622 -572.485168
900.114319 51.050877 -669.901794
689.378418 178.689575 -628.444763
634.655090 6.710157 -717.050720
802.857666 -88.384186 -689.509521
744.592346 254.440353 -581.731567
757.893066 165.580261 -615.738220
689.707886 -29.477423 -722.791138
777.010864 98.851097 -658.170410
423.099731 119.034927 -683.143127
721.753418 -73.077286 -742.223267
631.441528 105.180153 -664.100037
625.658081 194.179382 -632.620056
755.354736 -1.440639 -693.054199
643.466309 185.929718 -623.528687
701.116272 -30.487551 -718.613708
602.617188 54.192951 -702.123474
579.400940 195.880737 -632.122192
457.010254 -0.652830 -726.614990
801.806946 -61.849388 -716.935730
650.104858 62.963333 -678.787842
667.754822 107.300522 -668.981262
563.099609 207.970978 -639.101868
486.152649 0.352387 -705.389832
445.288788 128.195633 -654.710205
726.996704 169.800323 -603.214539
739.181519 141.574631 -634.873657
581.364441 121.363785 -674.140564
904.843323 94.373245 -637.675293
561.144043 113.257607 -669.314880
547.328674 -6.366066 -720.739624
879.986694 26.982639 -680.862732
707.226868 204.821609 -608.066772
587.278870 71.495316 -676.872864
848.798462 180.936600 -606.436829
758.067505 -71.821411 -719.282288
788.848022 82.233070 -657.138794
674.245178 158.533936 -629.768188
812.698792 80.892769 -660.689514
644.909302 -63.067535 -747.548218
881.395264 8.480778 -710.006409
786.526306 202.775955 -604.235107
551.543030 173.921692 -652.846191
687.204041 195.623276 -613.381226
901.698486 58.480152 -663.508972
799.661743 -30.926544 -717.568848
656.087891 177.298462 -626.763977
618.208069 163.912201 -652.293579
753.523743 214.812210 -608.307434
699.283447 25.818270 -693.132507
842.998108 -24.242786 -706.369873
670.689514 112.302444 -657.602234
755.787109 28.259851 -682.303040
530.340881 15.162095 -715.754395
796.146362 203.141327 -605.299011
762.945251 86.405739 -649.844299
838.456665 173.707596 -604.634521
814.337463 -76.947189 -673.911377
470.524261 -91.521576 -779.247253
670.927795 163.483963 -645.152466
881.412354 20.812998 -707.261292
781.265991 -78.142944 -707.756409
563.757141 -30.778828 -729.130249
811.385620 -15.442286 -723.145203
686.491943 -38.585220 -716.139893
501.520233 151.733643 -655.711853
386.103394 88.555939 -712.756348
512.428955 -109.752838 -783.186340
913.060913 140.811386 -626.596130
536.915222 70.073471 -673.467041
653.079834 235.732956 -603.703430
753.802734 251.259033 -592.686462
759.855286 235.345322 -595.744446
794.620605 229.195251 -594.788208
920.074707 27.372715 -716.477173
576.339844 -65.081917 -741.881409
877.289795 165.401443 -615.042175
426.585114 116.557587 -681.256104
698.778503 68.198341 -667.875122
624.824646 206.868774 -627.802368
635.776733 161.734467 -641.219421
405.555328 80.359428 -719.403503
794.636108 211.567795 -583.574951
740.861633 99.115578 -630.312683
712.454346 -57.727768 -743.891113
826.259888 82.677544 -650.149780
784.907837 35.821495 -688.794312
575.829895 -66.499298 -741.086731
762.768982 181.742798 -611.213318
732.897827 231.905670 -593.590637
516.237366 121.555740 -669.812195
764.247803 275.477356 -572.014709
612.256653 193.213531 -641.349121
544.205933 -22.930622 -740.579468
438.577667 109.455025 -701.704224
437.031799 31.708115 -728.807434
402.235992 46.961960 -718.562622
444.890350 136.528137 -688.153992
485.113525 135.196915 -664.820679
651.230164 -125.843742 -755.162964
822.842712 265.418182 -577.516907
434.559265 119.772430 -678.677368
678.197693 214.534805 -611.141785
671.267395 33.174992 -700.435425
657.786438 118.352951 -653.991821
778.988220 170.300873 -623.936951
718.063110 34.753410 -678.660950
863.556396 166.431534 -598.815002
557.517273 -43.838730 -734.769409
638.464661 67.470634 -683.853882
545.978455 156.282028 -653.088562
452.803833 56.643970 -723.665283
518.551758 128.938858 -662.235657
705.413757 108.308937 -650.150024
824.469543 66.237953 -666.660095
791.006470 -78.287819 -698.762268
727.186035 242.853485 -595.021179
796.064819 162.384583 -621.669006
604.665588 178.181335 -628.865051
743.660706 139.276245 -637.422424
691.720642 -18.886688 -708.618286
611.622192 35.994572 -696.838684
748.002258 -74.766342 -727.581116
541.480530 47.103477 -698.126343
563.100342 118.781151 -680.008118
477.211761 -74.716232 -772.371643
625.896301 133.064377 -634.530701
684.044250 -30.985960 -706.878845
789.112122 174.634369 -620.247437
620.534729 -85.643600 -759.603882
778.287720 -15.539207 -715.954956
399.459717 48.377491 -724.534180
817.518494 187.575912 -602.506775
655.603027 162.693420 -635.732788
468.016785 33.949383 -732.994202
822.121338 188.225250 -600.350403
698.943298 207.333771 -614.979736
617.707947 142.351501 -651.604248
867.736572 104.331047 -640.934204
554.067322 188.245392 -647.585510
557.875061 124.359856 -646.155701
404.741943 101.134201 -669.497498
783.880371 281.280090 -559.005676
794.093506 200.348511 -580.841064
882.196228 34.025417 -674.617310
399.613922 69.648773 -697.821289
793.421082 -55.774258 -714.985962
739.686401 158.779602 -630.531982
774.063049 -59.509022 -712.801208
709.424011 216.507065 -598.877258
857.980896 -6.418366 -715.511536
774.234619 262.167297 -581.738464
660.350830 -33.971611 -718.609924
818.204712 259.340881 -570.052063
684.490234 192.441864 -599.480408
896.858704 73.100304 -649.596252
415.691254 131.635880 -679.669861
773.359741 1.348833 -699.607544
754.436340 276.862213 -563.315308
534.532288 164.750336 -644.730347
721.760620 -28.205164 -726.252380
710.440186 36.643154 -693.934570
560.682678 26.360106 -706.450989
826.346802 115.578743 -649.236206
779.355530 287.871735 -554.098450
738.580261 -124.082550 -681.748047
769.982239 257.727051 -566.648132
815.360779 -81.277840 -684.325928
716.912048 139.128311 -649.311707
692.835754 -42.908092 -727.022095
847.112427 83.493225 -645.734314
582.498596 189.595261 -641.121704
778.219910 243.047012 -579.134583
863.959717 -15.785116 -733.308533
452.935181 23.808388 -704.699097
410.152222 56.360954 -687.490723
566.672607 148.938095 -638.496033
723.457520 -45.567455 -721.490479
420.747803 126.005524 -698.758545
764.335571 242.978210 -566.910950
651.688538 161.657532 -647.474915
774.935547 32.562801 -679.041626
532.000793 24.362474 -709.130249
789.609253 -61.493118 -717.674622
583.458862 139.866455 -642.575562
691.786621 -4.208999 -713.431335
718.665100 212.316406 -611.603882
612.947876 45.085636 -702.554443
671.235291 200.149307 -620.580017
703.133728 132.226883 -642.948792
643.557007 215.158463 -608.815613
697.380920 210.268555 -619.885620
574.533386 -28.657887 -738.980774
553.093567 176.888245 -643.382751
758.226013 254.631439 -562.326050
693.960510 -79.217865 -761.760437
504.362274 -54.988625 -758.570190
839.809570 186.231094 -609.464844
606.043762 207.927200 -611.103149
692.417786 19.496098 -689.156250
687.743713 -134.140335 -728.185425
803.403320 -60.983826 -708.523804
502.391144 -106.309708 -779.370667
620.259094 71.590561 -684.008911
732.293152 71.496071 -664.386292
565.731506 42.512894 -697.049622
630.019409 227.436096 -611.612915
428.441254 28.352760 -730.639221
817.502625 -67.947662 -703.519043
840.021179 83.765335 -661.405396
686.372314 105.115959 -669.532104
603.100403 67.081490 -681.938965
787.840698 125.220512 -646.703735
468.702332 107.584084 -684.435730
434.895813 144.465775 -676.483948
903.452820 44.930977 -651.694824
672.793030 182.634354 -628.145569
672.927063 238.143372 -600.659424
612.942200 45.779224 -694.729736
871.643005 2.824123 -737.981934
628.325806 132.168732 -650.122742
644.276062 120.949089 -654.143555
820.492065 263.344604 -568.346985
755.197815 249.009644 -570.069580
851.061707 206.623718 -596.134766
720.496216 -122.055519 -682.025146
588.015869 38.180725 -696.334717
718.370056 -101.324409 -736.160400
547.476990 169.279556 -650.654419
693.019714 -109.499321 -739.267212
765.470093 32.907349 -678.324829
448.081909 99.137390 -691.215820
610.655396 170.135773 -651.947205
872.397888 8.176237 -699.167175
755.480530 -27.658384 -709.541809
819.603088 -60.001701 -707.037476
569.089111 -48.371655 -735.508057
681.176331 50.397072 -688.502563
574.773987 207.148453 -624.857483
689.414185 -94.318222 -752.002991
706.181824 156.909332 -642.181641
602.635193 138.927353 -654.518738
597.677063 181.472595 -630.005859
405.329407 119.664078 -700.781982
724.626526 -120.909943 -685.447815
882.183533 129.279144 -630.938904
733.617737 75.008057 -664.028809
764.614929 159.675461 -617.562073
792.702393 155.586533 -634.178162
454.435883 -37.777634 -732.664551
659.936707 59.979000 -679.220703
701.524536 -121.107460 -727.331848
831.441406 -64.597176 -685.623840
800.249817 104.163307 -646.660828
711.229004 -21.429752 -726.451111
866.080750 106.552109 -640.619934
811.355164 30.344275 -669.378784
726.190186 195.244537 -603.954102
565.398621 -43.780590 -733.763672
624.335388 15.384870 -706.947021
717.929932 -119.775124 -691.641235
493.820465 117.863762 -676.792725
553.944702 101.079544 -671.812256
784.018494 -59.797935 -718.908997
553.875427 21.384621 -719.864685
771.794556 112.433670 -653.249878
609.147400 10.751060 -698.814514
650.750061 217.125031 -604.602722
768.907043 -48.005848 -728.921509
730.920471 -45.401081 -730.284180
556.616394 90.395302 -676.631470
432.238068 -20.311853 -745.151978
573.404968 -5.472508 -728.906677
780.934814 268.258850 -567.399658
512.855530 139.970764 -675.093201
649.362976 -103.228432 -802.619080
605.126404 2.378546 -712.337952
563.244629 -87.841934 -763.121460
473.911133 59.434486 -702.477539
731.809509 -72.674507 -733.008362
826.490479 168.280029 -600.651062
904.073242 78.917183 -647.582581
874.759583 -15.919817 -710.022522
545.898987 117.247688 -680.112549
852.233032 116.899818 -638.167542
535.445862 83.036781 -700.293579
571.189392 -87.417351 -752.153503
731.543030 13.988260 -706.750122
557.226440 179.030151 -642.011353
864.923950 76.553337 -646.960754
839.170471 121.323395 -637.000732
789.459900 188.935074 -613.256653
664.919128 14.154723 -701.795166
615.729187 -39.986561 -737.321716
562.219177 56.091137 -690.980286
824.322327 222.001266 -577.907288
642.405273 154.198257 -639.447021
756.880920 -83.109238 -714.572449
509.094360 147.912613 -677.160034
820.115540 227.130554 -587.458374
727.571045 244.151031 -580.326782
465.668762 65.519890 -701.482849
789.457092 54.703533 -649.252197
551.585999 1.446833 -708.638916
878.094177 103.509850 -630.412170
798.522156 49.282383 -676.901611
565.714111 136.965103 -654.274353
507.016693 -8.771380 -728.960571
819.866577 40.268414 -652.492676
783.443176 230.186844 -584.936157
719.134155 -84.988564 -739.115723
552.858215 -18.800083 -708.346924
662.996155 -24.812502 -721.925415
577.083252 192.038498 -633.243896
795.031677 83.382599 -653.157410
823.414795 59.250114 -662.984741
699.412292 -116.620056 -724.151184
738.073181 16.065781 -699.135437
555.796143 -83.035759 -763.362183
603.580566 85.569092 -685.891541
669.634277 98.064735 -662.016846
781.913391 -94.776611 -667.044373
795.680603 136.687485 -636.042542
770.852661 -10.638462 -686.197510
666.136230 15.775313 -694.647156
488.444702 -93.300179 -787.682861
698.274780 -93.463638 -751.651794
760.029236 145.482574 -625.258667
832.154053 103.643799 -644.505066
617.750427 -13.896764 -721.991455
379.027039 103.139137 -719.053040
730.621216 -28.325127 -720.800659
769.906250 181.403687 -609.801331
660.322815 196.648239 -615.938232
799.526611 183.184418 -605.524719
376.509033 115.684036 -692.334961
872.867554 181.302170 -607.269592
660.004822 156.787674 -641.049133
802.216370 125.294670 -630.650574
534.051392 -83.763435 -768.342651
672.278809 164.856216 -643.153870
554.980896 -112.497719 -793.166077
730.015076 63.188679 -674.217468
775.676575 114.457436 -622.475220
738.625854 218.075394 -601.460815
534.010681 39.952286 -702.036133
725.101685 -128.413879 -698.048218
834.857605 -40.974194 -723.187195
662.487549 189.726730 -626.768982
574.100342 92.989403 -672.885925
664.992004 112.031082 -655.586426
619.995361 148.248184 -647.157593
756.773560 -38.925819 -726.905518
591.630920 -73.262726 -764.004517
758.289063 -64.808441 -717.375610
726.657715 45.611164 -691.149841
796.534058 34.526150 -687.133667
722.774719 -54.850212 -743.604736
738.890503 94.270760 -656.844666
754.652222 37.908577 -685.567566
692.985657 191.881470 -620.105225
478.731201 -65.095596 -750.754761
653.768433 -49.280571 -737.335571
611.386475 106.822311 -667.281860
739.484375 -1.288355 -706.645081
591.149048 48.962860 -690.920898
858.099365 203.401932 -599.478516
572.184998 84.518700 -681.886780
781.822998 282.775574 -569.577454
722.380615 14.333993 -704.725647
646.031799 136.953690 -643.396790
425.663330 135.816086 -675.894592
612.853088 107.288582 -665.030151
734.962036 255.023483 -583.842285
550.834290 -81.762390 -751.546936
517.217407 109.797691 -675.278564
658.389954 -61.171219 -759.110107
711.021423 270.186493 -589.979248
702.199280 204.901566 -613.488525
499.685181 65.732384 -709.408264
552.140686 65.861214 -703.022949
722.583191 -125.757378 -670.881714
725.623596 37.857334 -694.657104
645.441956 164.073593 -639.548218
758.558350 214.672272 -600.676392
548.258789 -77.083084 -764.396362
589.995728 93.907799 -668.945251
486.001587 134.494507 -663.468872
871.188660 73.151276 -648.913208
777.363831 254.210892 -560.685425
582.442322 111.186470 -667.840149
619.448730 131.818527 -665.064148
771.332397 71.583519 -660.350891
842.393799 118.606361 -632.614075
558.036560 -34.871883 -731.841553
777.589844 80.083130 -654.962219
580.744629 16.374048 -719.377625
721.214722 89.756310 -671.772522
806.124329 91.222908 -644.421631
687.309509 259.646912 -580.594543
467.614227 123.345963 -653.086365
611.866577 126.025146 -657.320618
559.381409 175.624023 -639.124390
704.540222 18.066204 -687.596252
808.470642 88.515221 -652.004700
653.270874 73.867729 -668.625305
785.856201 95.231636 -646.843262
573.150208 128.966568 -658.357788
836.190125 119.863251 -621.970093
748.313660 168.683533 -622.278320
574.612610 -22.971468 -715.363525
589.824219 84.730789 -690.192932
624.821045 84.867699 -686.197449
610.488708 54.759083 -692.276245
770.464172 -80.779205 -709.739685
615.490479 120.102722 -641.940247
662.402466 -21.201134 -714.703064
613.724854 -64.659660 -734.979187
598.657410 -34.036682 -731.937622
797.175598 175.202850 -585.063049
691.190369 245.959946 -591.351135
813.728882 153.189896 -616.396179
587.244080 202.528564 -626.019775
815.178589 243.611252 -581.676941
390.311005 65.392113 -692.751465
552.785583 129.438232 -655.952759
787.507385 -62.492378 -705.222290
579.978821 122.376343 -651.015991
785.716187 241.661865 -593.501953
789.983582 251.919556 -576.868774
760.464478 -90.959862 -704.515381
770.336243 195.284088 -612.765991
651.394287 91.838348 -667.087280
596.762329 20.751007 -698.898438
766.238159 220.916473 -600.776367
699.894165 200.704605 -605.130554
403.189850 38.631355 -711.552307
677.074707 161.836578 -635.207336
480.209290 -81.301643 -768.322327
500.212097 116.112732 -672.489197
714.661377 256.392853 -582.882385
828.170166 214.903152 -588.758728
646.953674 183.851471 -629.365417
870.293762 -24.738400 -710.571167
785.082764 -34.745327 -718.382813
711.891846 129.271057 -654.558655
681.165955 214.334290 -621.278076
628.826111 23.569754 -684.249817
729.062195 -128.448090 -683.809265
775.262756 -54.627415 -701.123169
874.549133 176.338928 -610.772949
468.812134 105.749245 -694.597046
822.612366 -68.030754 -669.463989
911.569397 38.959496 -669.598938
751.545532 192.645020 -617.593140
818.055237 213.007416 -582.403564
701.208130 -105.756996 -730.760986
695.813782 227.034149 -595.444946
672.104675 79.140663 -668.351990
628.033936 144.979355 -653.979614
771.370422 72.098099 -653.861755
590.441467 -8.730909 -730.202576
605.515320 49.513985 -703.847778
544.858215 164.241531 -643.249390
753.542480 192.006668 -611.650757
530.477112 189.091644 -648.438354
775.276245 25.996656 -671.843262
488.491791 89.653214 -691.949890
735.470581 -29.954121 -729.631775
381.886261 77.035828 -704.322021
674.731689 69.735611 -684.774780
619.335693 219.886322 -615.898315
670.639343 35.430382 -686.756958
798.232910 -86.984184 -680.192444
743.170532 144.056442 -641.348511
680.739868 27.099483 -690.438965
801.496887 158.800461 -627.536072
671.200378 134.436890 -645.428162
500.672272 -106.304924 -767.772766
831.566956 -43.064407 -710.807129
525.140808 59.818974 -712.534058
681.259033 187.083923 -615.735901
821.398560 197.933212 -600.248657
631.345337 6.806743 -711.010193
753.939758 42.269466 -684.999268
756.756348 130.701645 -635.568726
726.514465 -20.608200 -724.460144
667.863403 -126.461273 -722.538391
487.116791 -47.808804 -747.067932
814.088745 -79.398468 -669.285950
526.391235 -43.918579 -740.254883
644.625549 143.218460 -657.740173
849.138794 195.580795 -597.233093
650.332214 66.987221 -691.237732
527.006042 -70.188828 -737.250305
742.249329 97.469193 -657.466431
867.987366 82.919907 -625.174866
788.450745 -37.783104 -700.443726
675.962891 205.917145 -626.171082
742.210327 43.165470 -686.461243
629.366028 195.817612 -595.437683
599.917908 143.136093 -653.017944
711.885315 163.757294 -607.911987
659.675964 95.864197 -666.143921
712.190247 -26.611446 -721.224548
712.792725 137.634430 -621.980530
524.217285 -45.625011 -745.997620
744.910278 145.904068 -634.384827
796.383972 258.973969 -565.151184
516.530151 16.206329 -734.535583
837.150085 -35.137905 -732.523987
514.800049 -68.723778 -763.793518
563.079224 -18.764477 -742.888123
818.220032 202.296982 -604.737244
794.840881 99.237511 -649.877502
376.681610 76.309601 -699.712585
815.410278 123.730995 -623.610779
686.472168 -119.471382 -747.625610
713.383972 159.105576 -642.275879
798.730530 -28.390200 -725.156799
807.626648 -0.100400 -706.027100
713.913208 -105.201767 -708.112793
806.936951 -78.073807 -669.658203
528.787292 6.159968 -719.409485
694.302979 34.035492 -686.116211
501.132568 35.114708 -714.616943
719.485413 -93.187187 -736.852905
399.887848 93.027863 -691.048828
476.615997 -53.000175 -761.870789
550.995544 182.299652 -638.769653
759.110779 257.145660 -583.653687
893.071045 21.293823 -686.667664
698.415527 7.380848 -691.641541
865.206604 -23.147339 -727.237915
621.894287 129.235840 -655.216187
600.447144 16.898537 -716.190674
506.265106 108.938782 -676.539185
695.444824 -125.896835 -703.723450
774.084412 281.692474 -561.429443
846.091003 -12.163741 -739.167236
764.790039 -72.427422 -722.740723
775.900513 119.444855 -642.185486
886.510925 66.791962 -648.445557
845.855835 205.597580 -592.981140
798.601685 214.322525 -584.578186
654.750244 -19.529825 -725.220825
715.270081 -111.559067 -717.996704
655.148682 228.356934 -607.958984
781.713562 90.535088 -651.405457
694.462830 24.198586 -702.031372
567.374390 71.760704 -688.580505
881.676208 33.190594 -652.515259
497.867828 -44.400864 -751.681152
768.373413 -89.031067 -701.417725
459.085815 82.167137 -710.151428
736.837036 134.267761 -637.172913
732.403198 184.390915 -619.375061
761.092529 220.887878 -604.577026
649.941772 86.551239 -682.725220
604.602783 27.503712 -698.920654
689.389099 164.884064 -642.973022
641.719910 -6.192938 -708.097412
569.381531 31.848156 -703.525269
777.198730 -102.706261 -696.003052
823.386108 57.254711 -665.193604
705.411621 143.256348 -640.395508
665.877441 -112.735832 -759.697937
858.715271 75.706017 -651.059265
624.620056 199.298203 -621.325195
583.551392 78.403442 -692.465088
472.081573 -20.655033 -749.055176
666.273254 21.679663 -698.903137
569.429138 -120.186768 -823.457397
757.660034 193.636612 -611.737549
866.571960 59.083927 -666.835571
436.582153 115.679222 -680.471130
668.597839 97.146523 -673.471985
623.608337 233.471680 -620.327698
811.752563 179.381119 -613.950073
749.020813 269.362885 -558.479126
790.153809 248.839920 -587.585510
792.112366 18.581057 -668.183289
492.529327 89.545517 -699.224792
843.539673 114.812035 -629.922302
693.895813 238.324020 -609.049866
796.436707 203.865814 -607.066772
564.375854 -40.951324 -745.817200
519.582642 97.887596 -689.103516
693.514771 -129.173416 -727.087219
752.734741 -90.321236 -698.887512
545.944580 -72.766304 -750.397339
594.273987 26.798943 -700.601990
662.796997 -101.739479 -771.607056
502.061157 45.279942 -718.574951
814.939575 127.904556 -611.954407
530.696899 179.734818 -654.219482
463.980682 29.169561 -719.070068
728.253662 -102.517624 -699.137573
652.561829 26.050449 -698.896179
850.459595 102.262299 -651.323730
531.974365 -36.886555 -735.353882
511.150940 -93.207375 -767.564880
399.764221 63.332443 -703.751770
689.424561 139.488831 -640.912781
769.756104 171.018494 -597.398376
910.255310 38.080841 -659.320251
847.945923 149.206207 -607.680969
627.856506 147.702362 -658.169983
537.622192 -52.027607 -745.407532
888.639160 67.689163 -646.873352
768.206665 255.235855 -569.121521
908.751770 53.304230 -656.482666
831.310547 -63.788937 -689.981567
702.694885 201.100571 -614.035706
789.804321 243.763046 -572.316833
750.530884 -60.702930 -728.407776
594.237000 153.737106 -646.504456
587.304932 -29.215336 -726.714600
824.016846 199.503708 -598.956360
592.415344 -22.508503 -721.056030
799.563354 -38.179478 -710.729065
826.268188 111.571220 -644.313354
787.111267 -67.387436 -725.390747
712.816895 231.702469 -606.771606
436.928558 75.814606 -700.925049
454.824677 38.628094 -725.866394
923.952698 22.359554 -721.741089
675.487488 12.725397 -709.579651
702.157410 159.045242 -628.065308
630.814087 -37.043228 -723.318726
752.576294 95.293182 -661.242859
885.551208 7.752656 -720.367432
784.788879 -64.837738 -716.279419
662.236633 144.376862 -641.703125
786.931030 -76.047577 -702.207458
831.264282 -47.067101 -730.382996
718.152283 -67.013039 -754.420654
530.286438 120.928429 -664.954224
876.723083 10.855785 -705.477417
733.804321 -15.002520 -703.578735
460.929810 115.544914 -677.778503
712.967712 -128.756668 -681.250549
752.645935 267.705627 -566.258484
533.401245 30.036427 -719.317993
623.801697 11.847340 -702.628723
797.144043 -72.953865 -706.229004
808.952881 121.287567 -639.876831
879.493225 -10.401842 -727.156128
509.994019 -139.135071 -828.610718
445.340027 45.201237 -728.446289
815.170105 180.604996 -604.216858
762.262756 98.221184 -663.645386
733.453979 57.969990 -666.618408
391.831177 111.560349 -692.365723
481.171051 -69.326569 -755.246887
663.657410 247.654373 -599.878906
767.895142 33.448555 -687.291077
808.806458 268.062347 -568.187012
589.705322 44.578251 -693.510986
848.056152 87.369453 -645.838623
695.781250 246.684265 -576.487549
703.774780 221.724686 -610.224731
657.850037 -113.558495 -766.667908
717.951050 15.031028 -703.267395
780.681458 283.989868 -565.993042
542.711243 -112.683243 -781.005310
912.288025 11.833728 -717.955444
796.079834 249.932968 -578.951660
816.962646 25.006643 -689.172058
467.181152 -88.747971 -768.021851
736.884399 87.851479 -656.612976
556.813660 -20.122789 -725.737732
538.779053 140.433746 -661.075317
764.918457 -38.868916 -732.180420
799.002319 -87.615326 -690.792908
499.670105 -79.750252 -763.039612
555.485352 100.727798 -677.907471
869.067749 153.473663 -621.763672
633.705566 108.666504 -671.237610
538.550049 187.202499 -639.956177
589.187073 158.844910 -647.299866
710.655579 226.058380 -585.909851
725.076538 107.846008 -659.801147
743.045105 114.846825 -653.179016
851.490662 -43.101879 -695.513611
457.614319 61.309753 -711.015991
619.919067 -56.024067 -729.011658
746.990967 87.825912 -669.024902
774.678772 53.867073 -672.937134
707.164734 205.855591 -621.551025
781.670227 33.451801 -682.778625
584.665588 121.869576 -663.454651
495.199982 164.070770 -656.745361
589.872314 162.312500 -653.899231
742.447571 111.456726 -658.493042
710.222900 239.351257 -602.529297
689.733093 225.953674 -596.472046
715.160156 209.062408 -613.290344
469.655670 84.554321 -676.019470
887.358276 72.996231 -639.705505
801.532715 -71.402458 -692.372681
656.606323 206.534714 -625.629883
678.277466 165.631104 -625.722656
563.316650 141.170242 -652.531921
454.023590 49.861088 -727.186218
933.729797 45.734879 -727.908325
512.045959 102.447716 -691.782104
453.740387 53.881561 -713.153992
741.895386 26.379894 -686.028076
671.101624 10.246288 -711.373779
815.828674 -52.331799 -706.920044
607.414185 39.865082 -689.472412
543.317322 -43.023674 -731.919983
618.905396 53.606064 -688.023010
848.547913 -4.386877 -733.103699
581.025269 -29.884924 -732.012329
734.464905 111.668869 -656.767090
786.703735 -95.770889 -688.047546
852.672668 103.634132 -640.108215
783.349609 -4.668290 -697.700623
612.979980 60.221992 -683.543518
802.273560 225.428070 -575.609497
488.816345 125.232964 -685.131409
378.743195 83.263893 -696.587280
429.079376 125.042343 -679.132324
857.301514 135.971008 -632.111572
903.392761 15.282878 -725.501038
798.483643 -46.049740 -720.914001
518.699097 103.711540 -667.983337
653.260071 156.390289 -637.122803
618.398865 212.945206 -618.434204
656.271667 110.113190 -667.438293
854.823547 182.419052 -609.228088
660.602661 -8.401240 -720.835510
823.716675 253.082840 -581.722107
601.452393 178.510590 -644.816406
584.068359 179.918808 -623.679260
793.762451 -67.691673 -699.186035
735.657532 -118.588303 -700.179321
415.596008 56.064228 -704.126465
787.982605 120.407547 -646.453125
697.167542 -83.898628 -749.868896
670.303955 33.393307 -700.781433
638.702759 -105.645805 -787.386719
760.759094 198.468918 -612.494690
356.232635 87.707695 -714.643555
510.981110 148.219147 -653.276184
736.552917 145.024261 -613.072083
489.733185 135.247818 -680.461670
832.125732 88.310959 -651.363708
653.311646 62.372902 -692.809753
555.362732 134.220673 -675.519897
621.687073 162.429260 -642.520081
451.470062 105.431656 -701.373901
514.091125 136.034851 -661.093445
789.902039 175.051086 -616.875061
585.907898 156.586700 -661.325806
620.029175 7.265520 -721.463135
586.847839 190.303711 -647.127991
675.446960 -115.723976 -746.423096
739.786194 -49.182175 -748.348328
742.546448 44.705605 -680.117188
853.180908 179.022980 -603.237671
693.032166 262.337341 -593.528870
560.627197 49.234604 -711.465515
609.158081 -65.095650 -759.457214
642.495361 2.476413 -711.702271
486.277832 6.573699 -723.584900
726.333679 43.135166 -661.818726
878.680359 77.388229 -651.391235
715.532166 -97.367493 -719.795349
473.085022 -86.398659 -764.917297
847.764832 52.622562 -650.775085
414.353394 94.938255 -686.189636
897.806396 95.916519 -638.694763
407.639893 68.974304 -723.156799
551.258972 -111.896637 -785.995789
710.515076 -48.158352 -740.174561
758.037109 -47.646500 -745.313049
816.882813 -76.960609 -687.722717
702.961121 227.966782 -589.697876
885.851379 138.380676 -606.641174
779.727539 69.547180 -663.639343
634.097107 -78.281197 -753.312195
474.605804 124.005585 -672.678284
434.320496 141.274811 -688.229492
527.085449 43.247662 -702.112183
742.724609 112.942398 -643.808472
576.160706 -76.013367 -757.618774
776.434082 -8.835785 -719.081665
678.504700 99.889107 -665.561707
568.718628 83.720200 -695.194702
667.888062 -10.642228 -721.036316
542.421570 108.603462 -686.669067
812.779785 -75.043213 -694.509277
805.281921 -63.107693 -702.731506
788.750916 159.976990 -627.477173
725.189819 44.281055 -679.207825
412.643494 99.523712 -696.054993
744.605957 -61.798920 -739.122864
837.111206 165.372803 -616.935974
529.327026 49.012287 -698.401428
590.441467 26.511986 -713.871216
684.035400 95.244194 -671.077759
489.780884 -39.931377 -760.854675
685.229065 125.790123 -658.626160
661.835999 -51.945633 -741.561890
646.446655 88.253975 -668.292114
465.677429 56.215176 -705.495178
690.814697 -89.534096 -758.365173
507.996063 -6.952275 -724.727478
830.694214 8.366411 -710.258545
538.749573 130.123581 -675.088623
555.056885 0.573367 -722.730591
805.225830 140.582550 -632.872620
839.929504 72.740913 -658.154236
691.639832 0.595211 -700.679626
504.162689 35.010971 -727.592712
616.356323 135.577057 -654.598450
589.824341 -54.644104 -735.204285
729.309021 240.418015 -590.978455
878.280334 21.693472 -701.077881
749.817200 265.143677 -570.059631
720.394592 198.918839 -606.478943
475.587585 -47.513172 -734.496094
905.879150 141.787415 -621.546509
774.205872 -98.967903 -660.019287
517.507202 -31.024961 -742.032898
716.422424 15.144838 -708.023315
861.459595 198.825958 -596.633789
856.305420 91.321526 -646.427795
700.547852 189.544388 -623.427246
704.442810 -121.969414 -709.098328
588.973633 187.074310 -627.125549
488.401764 -26.025185 -735.449158
805.511902 193.180756 -608.319580
732.626221 -125.509796 -667.392090
525.914551 -119.243500 -774.881653
845.677795 206.582565 -595.880066
683.960632 -16.257078 -708.179565
853.336914 69.025024 -655.731628
598.251221 46.613037 -690.977112
723.124268 -56.113098 -731.242371
546.025269 76.832947 -683.762573
754.539124 205.287827 -605.526733
399.785889 48.322403 -715.292908
483.565308 -108.036385 -796.526550
569.036438 67.230530 -686.165222
367.027893 104.624519 -695.069092
930.389954 76.788544 -643.780273
490.024292 170.799759 -672.541809
706.143188 -24.223375 -709.675415
724.646606 -90.680611 -736.631042
808.846313 180.153168 -605.697510
552.446106 13.800247 -728.914795
768.955750 -65.599113 -711.367615
431.621185 37.399448 -729.788269
680.562195 -124.479790 -733.081055
417.209167 102.664017 -704.248474
835.608521 99.450348 -646.187927
832.350525 29.329945 -673.817200
512.328308 73.098503 -681.409119
728.289368 36.753773 -684.393311
658.201172 15.550039 -697.758057
484.070496 99.000954 -684.426941
640.795471 157.340866 -646.220215
426.155670 22.158516 -732.939880
529.564880 -56.769753 -745.038269
572.138733 -0.463427 -732.581238
460.019928 6.189454 -730.758118
489.541962 6.641505 -724.972534
521.844482 -97.718010 -778.161133
839.044495 125.849434 -629.177612
802.197937 -64.525635 -708.712402
713.663025 88.483231 -659.458740
705.666504 155.555374 -632.104187
771.038452 125.044144 -645.570496
439.028748 19.570862 -727.506470
800.824341 256.797180 -580.937561
789.646851 -58.833248 -716.513550
772.169006 -35.898510 -728.956421
758.402771 -63.899830 -719.612061
510.910126 -62.240463 -754.801086
692.136353 239.466415 -597.704956
717.601318 109.508698 -651.398499
802.582092 21.640987 -690.051270
727.876648 48.458473 -680.657654
575.986633 64.946404 -686.121399
841.694885 -26.307924 -735.777893
875.122131 -14.681123 -749.202576
856.059875 126.739769 -634.844971
863.813782 -28.749699 -723.191895
644.622925 161.041901 -636.537476
446.891815 50.151569 -710.208618
756.975586 -15.200316 -705.863342
546.557617 96.084312 -677.176880
875.421753 86.986824 -627.771179
629.518005 46.398804 -692.607605
623.997498 29.323929 -689.776855
561.889526 -71.989243 -743.610596
760.262207 276.875519 -558.964844
760.097900 -15.694606 -711.868286
485.016937 -33.544296 -742.047913
792.961731 199.511337 -599.593384
594.152100 -4.746500 -713.575378
495.725922 41.942070 -706.787170
523.197815 -136.557968 -830.934937
701.337463 -114.894424 -731.238342
792.728027 207.390732 -593.067749
507.342926 164.334885 -645.523254
595.337830 116.312294 -674.993408
786.684082 -93.440109 -689.558105
420.663147 1.984403 -725.827576
559.451538 73.977554 -684.504822
666.500671 -61.424000 -741.435364
843.497986 -17.022602 -720.899292
648.680298 -51.044586 -722.583069
435.666748 123.365685 -678.128784
598.591248 166.013779 -651.205017
583.844177 -88.173897 -753.590759
469.379547 41.979576 -729.166504
534.350464 -66.656334 -748.831665
679.044189 -24.712725 -711.120300
918.880127 68.502396 -661.706299
858.960999 220.941071 -589.639526
564.928589 -43.474037 -733.744019
570.357422 74.578323 -695.102234
472.891815 109.297478 -683.242615
936.186035 28.202202 -729.445679
833.216553 104.561012 -643.322266
652.096436 200.048920 -599.809387
786.990601 -3.516782 -699.542358
548.066345 192.054367 -641.521973
769.445740 150.851517 -601.221130
707.990906 -61.818947 -724.604370
799.032349 39.065662 -672.894592
601.994080 212.767319 -618.762024
805.706543 207.091064 -600.917236
700.983093 -14.290370 -706.905212
676.469604 172.263062 -640.880371
712.418152 -42.637302 -748.962646
568.812012 -15.097680 -739.389160
568.021362 138.912491 -668.459900
458.782043 -30.615719 -731.748657
603.642212 -5.258951 -715.647827
501.069824 -12.447546 -729.118774
877.727539 106.365341 -627.701599
762.015747 -108.904175 -687.602539
811.465332 150.472061 -633.879517
736.942322 -29.432432 -714.046265
882.076172 110.918327 -633.803650
756.358704 59.450066 -668.783752
912.359009 52.587994 -662.415955
626.707947 220.474228 -622.903442
430.762695 47.789791 -715.040466
498.994659 114.068504 -664.833557
498.324951 135.901230 -678.188354
469.111084 81.195099 -690.673645
853.013977 151.763245 -592.313477
785.879395 -84.540665 -700.995789
711.801147 -110.146645 -721.131165
437.163422 78.719460 -699.044189
654.086731 205.053284 -629.441772
662.081360 -79.166336 -766.727539
610.081421 77.386780 -688.761719
849.467041 200.749191 -594.496582
815.326111 -42.343418 -712.657837
491.495941 43.900150 -705.977112
528.964355 41.117699 -708.619263
640.562317 56.190811 -694.232483
518.905273 136.723175 -643.141907
790.952393 250.070877 -584.056396
704.984619 180.819809 -631.616699
816.522461 67.905167 -660.117676
535.528442 -60.592518 -728.045776
707.074402 9.505290 -696.673279
579.359131 70.489967 -682.947693
694.790649 35.478672 -687.092163
775.011658 -76.745514 -717.778015
512.594849 16.143583 -697.569336
666.855042 180.020935 -624.546082
683.657776 102.211212 -654.001343
683.448669 75.510941 -676.647217
852.498413 97.710205 -619.354370
678.310120 -123.297363 -740.054321
448.580017 17.572506 -739.185486
859.704895 68.458672 -653.794678
504.804718 146.654068 -656.390869
908.932678 119.624359 -634.227539
664.801758 -92.261551 -762.416321
503.543152 82.089638 -686.605103
751.975220 42.578396 -689.804199
866.303711 -18.538843 -737.805725
711.937927 249.691589 -587.126770
507.338928 -43.525051 -742.283997
500.601898 46.338032 -704.497314
496.242432 -74.793648 -773.761108
827.087280 203.056732 -600.633484
777.686707 -93.840607 -673.314880
660.099670 164.516556 -634.321594
465.927460 104.606506 -685.142883
581.461243 -43.075390 -731.928589
576.255127 51.797741 -708.209351
686.159302 -24.995728 -721.460999
849.408508 173.095947 -598.803894
847.430481 109.436638 -615.910828
830.042847 86.718781 -654.143372
745.906616 -71.845123 -735.381348
604.103394 135.770218 -653.690063
712.603271 0.891554 -708.073059
547.570557 -51.163792 -752.481262
497.924408 139.198471 -671.002686
677.288391 -137.331772 -724.081787
804.634033 252.378204 -575.097168
782.061340 153.037399 -627.396606
862.370483 161.965973 -618.873474
862.424622 42.710926 -663.874207
538.146667 -89.792854 -758.682312
759.710266 238.877335 -582.372559
622.156677 90.505241 -673.477966
655.022888 225.596573 -604.177490
725.801636 260.376801 -578.021790
489.934082 23.297876 -730.321838
681.413208 211.834427 -619.943420
739.947021 134.166000 -641.684204
461.339294 6.377459 -746.516846
649.533203 157.332397 -652.051453
840.204895 189.397934 -594.794739
818.954407 177.287979 -584.719910
904.482727 127.377373 -628.290405
819.900879 78.537842 -646.639038
446.867981 136.976166 -670.990540
877.523743 114.067947 -638.011047
519.124573 69.500534 -705.645752
782.994690 40.710178 -680.020691
875.704041 102.538696 -639.319580
474.439880 5.257974 -725.321106
853.708313 -12.185252 -751.663147
590.145325 66.897179 -683.530762
811.453369 121.828865 -615.320007
702.110962 72.562302 -679.128418
791.671631 -89.252464 -701.813477
465.481842 -50.954910 -771.853394
678.297424 -132.480515 -734.855408
906.803406 97.955658 -632.396667
609.716003 50.244465 -690.743896
783.323059 235.645462 -586.959656
674.402771 -109.987907 -752.670532
621.557312 21.731300 -686.268127
750.458923 257.463898 -568.593384
663.059814 -126.137604 -748.847229
774.992004 231.320694 -590.141235
759.188599 249.986191 -590.283447
575.243347 193.361206 -634.161987
518.224609 29.127964 -709.071411
620.096252 -12.541559 -713.104309
426.761047 35.823383 -721.883667
760.406860 118.296776 -650.879211
725.753479 -128.896423 -670.876526
887.803833 6.491869 -705.857178
401.968536 130.851532 -681.803589
414.608612 68.067474 -680.993042
609.816772 -20.921377 -731.671936
807.805481 310.682861 -552.376099
463.556976 151.123657 -664.230408
405.658234 53.254665 -706.152771
775.939392 177.160217 -612.017090
781.568665 -100.314484 -683.984741
670.257568 77.100594 -673.574768
493.232056 -130.567703 -818.617615
689.620605 51.910034 -682.872925
835.396240 42.349735 -651.396729
739.802612 -1.195054 -697.991333
906.298950 96.997673 -638.044617
836.236694 49.368813 -659.880920
