ply
format ascii 1.0
element vertex 1417
property float x
property float y
property float z
end_header
-226.163269 407.407593 873.249023
-103.696274 478.591919 715.437073
-96.757942 518.039551 689.001282
-232.655441 481.843689 801.663330
-56.369633 448.527893 706.456238
-238.315613 489.084442 785.290222
15.045917 377.429077 730.543823
-288.538666 623.588379 691.698914
-190.175705 493.578949 748.503601
-200.416306 411.974609 838.243835
-19.908142 413.880768 719.490479
-315.293732 349.324921 880.410828
-327.005096 484.195831 852.706970
-138.257980 334.392792 864.776611
-296.632721 484.101868 829.802307
-196.577225 589.189514 668.527527
-45.182491 448.849792 696.165100
-267.794830 467.476440 822.655823
-323.571289 480.241699 902.135376
-331.292633 487.326141 865.828125
-100.484665 350.133820 855.674438
-270.634064 344.419312 892.786255
-316.433838 639.225037 698.376831
-364.998657 624.400330 753.080261
-366.092316 523.959839 830.506836
-384.085571 682.041260 697.470520
-92.428123 531.212646 667.562927
-358.377594 559.150513 795.340149
-331.307739 400.689301 879.264038
-324.747986 409.847900 902.692688
-436.298615 579.890137 909.336548
-71.447403 393.914124 789.793457
-400.536865 464.599548 893.517029
-200.308655 605.041565 649.222900
-54.683704 392.952850 757.824707
21.754450 396.595856 720.385925
-93.531021 360.713348 818.848999
-358.177277 587.206848 784.216675
-304.496521 418.112579 902.616272
-237.528976 604.321228 672.525391
-371.730988 587.224792 782.345764
-54.708115 512.319397 654.686646
-404.449188 594.656433 814.984985
-214.201797 606.635742 668.881653
-228.426361 478.896271 807.494934
-318.751038 675.213196 658.105164
-141.309082 338.724548 894.941284
-301.552795 538.947571 794.871826
-328.378845 675.916199 669.688110
-266.134338 340.764252 900.424133
-149.535431 422.451508 785.479980
-114.810539 530.861145 681.779358
-159.487961 530.241394 691.830505
-113.377960 411.628571 779.516724
-277.289734 426.920258 894.204712
-382.469757 628.458374 767.947571
-256.348419 669.552246 643.244019
-388.090881 562.256958 800.723145
-252.041733 502.525635 759.469482
-323.156952 596.682434 739.921997
-102.343658 472.772675 732.325806
38.350979 410.051849 694.144470
-301.769989 671.655151 653.282898
-289.825928 372.191620 897.449341
-27.045059 358.068848 809.066956
-375.338013 581.264771 792.127808
-17.472208 411.068207 717.705383
-262.350494 665.143494 627.665283
-200.568466 616.610291 650.301758
-312.542755 701.776367 609.220093
-461.353882 593.859924 848.429077
32.883842 450.142365 678.963318
-312.151031 515.661865 828.895935
-166.919800 545.005737 644.580627
-240.995285 596.862549 678.276855
-408.176819 654.259033 741.526489
-67.612473 409.234344 750.979065
-228.435776 422.506409 873.028564
-414.655670 577.229492 837.696411
-378.232635 610.742920 768.432495
-240.450409 412.458099 881.415710
-271.661652 391.631775 901.059692
-187.832275 530.607727 716.313843
-235.698242 614.959351 677.211304
-366.632324 599.263306 769.069336
-231.360855 573.190002 701.529419
-184.491837 384.928741 854.570923
-429.736877 632.714966 779.190125
-190.210724 482.752930 766.588074
-166.387665 549.527405 677.183716
-378.309479 723.039551 655.137939
-255.856415 591.073303 706.327148
-416.143158 587.126648 793.276245
-242.626541 372.400574 920.221191
-222.398407 606.835327 644.193054
-158.675751 481.107178 746.998535
-123.389336 471.878479 728.192383
-84.781586 412.963501 779.791565
-355.338409 593.183472 785.391113
-44.117149 351.462952 787.448914
-369.481415 629.008789 737.111877
-291.604797 340.437317 883.751038
-107.853149 331.657654 889.349182
-132.148575 559.377563 663.119507
-64.645981 393.820953 764.674988
-316.883423 541.098022 765.317322
-346.038605 511.138733 874.577698
-414.004059 628.101013 781.914001
-73.676712 477.505524 688.202454
-368.508759 452.148529 884.100464
-178.600998 492.275787 768.670349
-232.199539 633.633423 639.655457
-343.224945 639.484131 717.153809
-443.438904 610.544434 913.450073
-292.973328 573.089417 743.333252
-148.689728 528.573059 694.774109
-393.706635 638.811707 741.557556
-380.029572 548.682007 799.959961
-400.959534 647.443787 711.976257
-330.245972 434.991516 888.516174
-305.979218 659.369446 639.153687
-284.036133 421.933624 904.314148
-80.822342 462.626282 707.760315
-209.995224 568.775269 697.568298
-345.118073 721.410889 639.980225
-102.536659 403.712982 800.594482
-295.113953 699.412964 629.467407
-175.796768 494.906036 719.180359
-364.991211 607.898254 744.306946
-327.467316 502.316681 832.340027
-279.161041 576.844543 744.757507
-396.656952 610.011597 795.114685
-169.177551 427.440216 820.376160
-373.080109 522.285706 847.279785
-56.506439 403.670959 778.118774
-58.115101 444.922577 688.858521
-123.509315 502.931671 695.075439
-305.186859 656.906128 676.439636
-347.578217 410.379211 880.684448
-289.447540 460.197052 864.120605
-254.268478 541.353149 721.969910
-123.892464 324.469299 911.267822
-124.165298 531.938110 664.518188
-367.952637 683.096069 691.486084
-219.843079 492.325043 770.139465
-351.854675 454.433319 878.332703
-204.570175 577.978821 684.744446
-311.763885 465.755768 887.887695
2.954147 414.822540 710.049805
-194.337753 601.181458 642.793579
-318.778290 583.015930 716.598999
-247.726501 450.197632 811.129456
-364.590179 524.603882 847.759827
-356.276276 511.370026 890.211487
-18.507324 451.063232 677.602722
-415.256348 632.361938 747.396545
-382.886505 435.628937 886.263367
-234.100204 575.219299 721.492615
-325.925995 661.686340 689.044373
-213.083710 519.418640 737.894226
-109.239899 515.396118 670.439880
-276.106964 606.092468 705.104919
-318.315796 519.203491 826.232544
-395.805145 613.794067 780.840698
-194.385941 387.344299 891.893433
-294.379852 544.597168 791.867554
-462.249390 619.788330 839.580566
-323.215607 436.815460 892.854431
-255.343735 629.099365 649.406738
-276.702942 667.231018 628.769592
-321.736298 444.248047 908.922241
-222.108673 479.359192 792.831604
-304.584717 530.606812 792.427490
-234.996246 657.916748 633.673889
-321.638855 701.259583 630.128784
-313.438568 641.060364 702.959656
-389.352264 631.278687 756.294983
-290.078217 562.596497 724.105469
-187.923279 461.233185 780.301514
-156.085739 506.732361 712.914063
-122.141563 526.738708 648.502563
-46.273743 450.664886 723.662598
-208.906235 468.023804 798.021912
-226.314499 393.799805 870.050842
-47.367279 329.785675 851.275269
-197.938766 569.541565 688.253052
-156.987656 521.145508 705.208130
-140.037125 534.491211 675.402832
-130.979874 375.511688 842.699036
-259.603546 506.175629 780.145630
-209.815155 566.966003 712.711853
-272.505615 437.283478 861.071838
-120.775734 418.342346 766.729858
-72.907326 318.844055 871.652283
-298.527985 555.554993 775.713562
-383.060272 532.576477 836.857544
-432.724304 566.998108 861.042114
-312.884949 690.545715 640.052856
-334.145477 419.127808 882.071350
-131.099976 324.009460 877.539246
-206.773605 540.186646 718.790955
-220.217697 441.352417 839.516357
-331.577118 449.881378 890.275146
-269.489594 646.261292 655.620605
-182.367920 413.638763 839.925842
-7.506400 436.080566 683.098328
-243.582901 480.326111 806.286255
-334.084381 612.190430 720.010010
-223.839874 402.521149 878.061401
-219.620895 402.306763 859.243408
-275.261505 589.772156 713.821838
-30.640968 404.701233 727.268005
-301.955231 642.351624 689.752258
-89.587479 401.145233 775.040527
-334.074371 542.279724 813.787659
-114.294006 499.433441 713.286560
-139.787537 519.425964 714.425049
-246.812256 631.170776 646.423645
-282.371582 651.426147 670.437500
-164.882446 595.187561 647.641541
-16.996973 454.487946 668.289307
-154.887527 534.251343 663.227844
-98.923187 477.801239 666.746399
-84.590202 369.560394 787.884277
-311.843658 417.379486 904.894104
-166.130783 490.700348 733.138306
17.104710 398.455292 740.962036
-145.440628 537.055115 676.672913
-322.865814 663.157166 653.122803
-135.339127 423.454041 790.675293
-54.586372 475.457733 680.216064
-325.662415 346.298431 866.390137
-7.224800 399.633575 712.984131
-22.446150 405.911316 719.416382
-344.736084 581.692505 772.571411
-344.914154 417.375183 893.466919
-210.397949 429.114410 843.205322
44.561863 417.906555 679.928772
-173.071167 499.169647 702.882996
-272.095673 536.461975 771.678528
4.413717 446.313843 695.922852
-185.509567 412.151398 843.708618
-174.644302 403.206146 827.695557
-251.945114 469.686859 827.965820
-161.542862 363.358551 909.625671
-78.459053 301.630371 912.283203
-176.816483 499.830444 753.841858
-20.089890 445.583313 703.882080
-353.820679 578.430786 778.352173
-39.187542 508.832336 657.672058
-19.116154 430.600128 700.134888
-98.860832 342.219116 819.792053
-118.490196 550.665710 650.631104
-142.053391 541.512451 666.434021
-292.994751 683.227295 626.190247
-188.879242 515.793762 748.336548
-363.651245 559.084839 823.491089
-232.174744 357.301514 913.341431
-392.835175 652.316223 727.968750
-158.175827 516.982910 709.501343
-16.257715 371.622101 787.168213
-89.772507 319.131714 858.413147
-50.222656 484.443024 676.718323
-56.738811 461.635406 707.387817
-147.839371 337.888275 863.060730
-190.881226 520.062805 722.413269
-314.149048 375.033142 895.802368
-409.982513 614.783813 779.447693
-301.272003 577.332214 763.419250
-334.786499 560.757813 794.998962
-236.692703 605.559631 664.432495
-117.276596 348.315735 865.685181
-191.110825 611.679810 648.497559
-190.486511 522.010193 731.035339
-86.177734 475.502441 714.015503
-310.817963 595.059509 732.456848
-146.158203 372.633484 837.625671
-267.267059 450.558380 883.289673
-225.776291 465.785522 799.282837
-43.506710 502.354675 669.901489
-388.370605 692.286865 696.383545
-92.587265 365.068695 809.507751
-276.542297 503.354279 822.539001
-239.613831 411.246826 895.415405
-115.202721 440.562225 778.851807
-103.858231 498.655518 693.151794
-295.209747 696.916260 631.247375
-88.710846 527.598450 668.724182
-134.093338 413.373047 791.114197
-234.428879 573.189209 710.918518
-392.543823 681.204712 706.443359
-130.513382 418.058533 773.622986
-445.076996 587.767883 864.596863
-196.502441 470.884216 768.336182
-386.304840 666.602600 719.176453
-201.312042 548.246887 718.883728
-21.116249 441.067444 715.149231
-273.822998 460.836090 838.858337
-267.201660 527.307922 784.624451
-338.563873 503.924652 835.519653
-191.968613 532.023987 692.049438
-272.838562 566.337708 709.171936
-151.112915 389.042297 852.679138
30.992348 407.427307 705.802063
-317.544769 511.873901 831.924133
-115.509811 507.656677 711.427368
-207.600922 502.861755 759.858582
-176.794556 527.855347 696.684265
-132.738403 433.646606 770.987671
-205.448761 495.094940 783.758301
-231.388748 376.444275 909.877991
-200.293152 512.488831 762.719116
-270.501556 540.273499 779.054138
-219.296219 605.354126 655.494995
-51.695923 328.385040 831.645508
-302.593781 715.496887 634.441650
-106.364960 331.483063 824.474854
-30.865850 361.581573 790.190857
-233.015244 507.778625 763.005249
-360.608215 507.426880 850.777832
-139.553040 423.138733 803.565125
-356.953949 560.265015 801.571777
-248.228302 620.140320 662.103149
-372.572357 561.561829 819.408813
-273.559052 461.848663 831.192017
25.290537 429.310028 688.100647
-340.555145 560.388733 806.309265
-391.593109 610.650208 790.562073
-473.541565 608.974609 836.132263
-298.271912 591.350769 739.871582
-330.801239 560.018799 755.015747
-160.775269 541.002258 690.907532
-164.751846 410.214203 814.574585
-77.028625 508.350586 663.794312
-109.459686 335.947876 870.671753
-383.462311 564.123657 811.524048
-201.801666 589.276794 683.298157
-209.681625 456.242584 824.423889
-261.090881 422.447540 916.484558
-412.834381 551.042053 866.110840
-218.259811 444.315369 835.875793
-292.457062 669.966553 654.861267
-324.624969 579.707153 760.329041
-212.897858 566.137512 714.637756
-95.256256 427.674713 771.001404
-370.268921 413.910187 887.135315
-216.121872 375.447083 936.338379
3.735226 389.238708 752.406067
-385.116180 676.526733 709.344910
-133.103165 546.995728 670.356445
-145.537842 342.270935 893.290405
-312.557404 618.427368 709.108154
-146.302155 482.502716 730.793335
-107.838188 519.395386 688.704712
-154.029510 571.398071 656.174622
-161.862137 565.429993 655.562439
-209.796799 620.169800 651.596008
-256.746582 445.136932 840.753784
-63.264450 432.648132 752.347534
-102.701675 333.682770 839.211426
-404.470123 592.095093 808.658203
-308.801117 440.889954 900.153992
-215.920517 604.620361 675.744995
24.215380 411.195496 671.357910
-442.275787 587.363220 809.474670
-255.318207 434.060669 855.946960
-66.418030 504.683746 657.140381
-358.884186 585.425781 795.514343
-254.835678 414.305237 904.149963
-438.598724 558.118225 904.415405
-120.679893 488.504181 707.989441
-146.335495 440.743225 780.661987
-215.431274 495.328308 790.332031
-44.450111 466.622101 705.432556
-84.837166 440.091278 758.917603
-283.690704 638.653809 689.385986
-283.264191 683.367371 624.635437
-128.106277 492.152557 714.229309
-365.878998 682.107605 695.355774
-65.748306 430.578003 699.445801
-384.034698 709.324646 669.919922
-375.528442 651.162415 728.992981
-220.533035 531.520447 741.468018
-235.776611 397.709900 905.597717
-289.515717 647.880127 656.492249
-301.661560 598.577026 721.997620
-255.635223 537.465210 767.735291
-407.222412 504.955811 909.814148
-207.696930 612.708435 667.472961
-389.640289 623.980347 734.917542
-356.089325 642.576599 728.129700
-85.542145 532.833679 648.417908
-220.896820 501.115356 769.187012
-244.793915 458.859070 826.931274
26.272074 405.085754 685.258850
-276.181580 569.492798 732.670532
-221.074738 596.176758 663.048523
-220.555710 566.530273 678.590942
-78.016388 410.487488 778.130920
-11.198275 393.364349 751.709778
-169.374573 357.215179 871.927368
14.298191 395.645782 709.647583
-36.811611 467.300934 694.263977
-180.059875 433.408081 801.326294
-374.652679 692.419312 635.983643
-121.977310 314.749817 854.920715
-61.725266 413.076141 771.864075
-191.065445 483.600952 785.836853
-66.027061 446.674011 734.285034
-419.296478 599.566467 802.220520
-269.364899 676.452637 627.151306
-300.186676 434.869781 898.600586
-154.492065 465.542633 776.358887
-432.402893 618.279968 806.120605
-172.410553 386.421539 842.418823
-264.723633 426.735321 898.294556
-309.543976 419.414886 905.155151
-211.736893 423.022400 846.955872
-114.254730 464.638092 747.317383
-189.170975 422.776703 808.900513
-293.862244 463.547943 864.286011
-11.417555 348.175232 795.383118
-162.400162 452.774506 779.191406
-246.464096 533.200500 745.896118
-151.944946 574.088928 661.618103
-319.728760 664.367554 653.538269
-255.114975 396.686615 897.971619
-258.706726 549.935059 756.925049
-282.050842 442.065521 906.307678
-303.209076 653.836304 682.251526
-181.612961 432.129883 782.314514
-289.005646 609.180664 698.636841
-295.962585 613.213379 702.516296
-151.946350 462.814606 754.825806
-163.688370 405.077026 835.699097
-193.183136 562.472351 661.153259
-68.378052 301.704193 862.600159
-372.098541 480.874023 898.876892
-35.120457 437.931641 723.084900
-328.935364 701.175049 643.315735
-283.510742 380.037079 906.380432
-408.835846 580.819336 783.687622
-184.081238 473.539612 772.645752
-272.933655 557.404968 741.844177
-212.309433 479.256439 778.562561
-61.335472 370.001251 793.608093
-192.145126 608.296509 646.110779
-328.709656 631.346252 715.009155
-278.743835 458.716797 848.448242
-171.375931 545.258484 710.014648
-185.114899 583.458862 663.259399
-334.179626 438.194031 889.250549
-386.138031 418.364746 879.264038
-288.328278 560.470764 765.153625
-89.199158 442.784943 734.223572
-217.105560 522.450745 737.606567
-375.410187 663.042603 720.748108
-298.394287 462.876221 886.834106
-6.194675 438.813690 705.147034
-160.315216 445.263000 794.782898
-175.216980 378.592041 848.405090
-308.137115 603.222778 717.463684
-320.095795 583.828308 749.103027
9.846951 408.334869 678.488281
-257.903168 478.908966 810.273865
-350.663666 492.282440 883.722656
-166.743927 476.674011 755.555969
-309.785950 478.829956 839.660950
-253.952591 487.933929 815.658569
-369.755859 661.216675 717.228760
-180.023270 510.586761 695.859375
-414.545135 574.469971 850.524902
-439.481384 575.808594 838.181091
-165.985428 469.777954 757.813538
-122.473961 512.940308 683.683289
-265.962921 420.849792 913.726807
-180.587906 439.128540 822.486084
-13.772985 390.624725 755.334473
-344.386566 370.447693 874.889709
-299.384338 451.365173 896.650024
-233.216705 403.875793 908.001160
-93.694695 506.071198 678.179688
-28.357578 360.998688 765.579590
-385.977081 457.863831 892.611084
-371.631958 593.354919 775.824951
-298.047180 464.598206 887.454956
-206.759766 563.656738 694.385315
13.519227 412.364410 719.632385
-194.516159 459.056152 787.344421
-233.164642 485.198029 806.078491
-215.200073 420.274811 828.440002
-210.645767 406.313293 847.189819
-369.799103 450.180084 890.691284
-380.756775 582.297302 794.428345
-107.349152 538.266724 652.502197
-125.610756 377.915863 843.763977
-340.909821 507.345245 874.569519
-160.529510 459.442352 781.453979
-342.593506 676.690308 677.993530
-173.536377 401.132538 844.684387
-374.114441 465.105682 898.366516
-353.629486 712.536987 654.765808
-495.877167 631.249512 864.516296
-206.259247 604.301819 649.706726
-143.616898 404.167236 823.540710
-0.262321 372.439606 753.152954
-134.673584 507.722931 673.488464
-222.957077 591.933838 640.285950
-372.854919 696.045593 680.662842
-147.866898 426.805115 777.176697
-342.380493 669.473938 676.306824
-306.726715 386.169861 899.670227
-43.161049 356.512207 771.375916
-63.038414 419.068970 766.740540
-356.847931 589.192810 769.189209
-305.532562 544.655823 791.969177
-432.666840 583.467285 824.520264
-282.237823 649.820313 626.663269
-314.336761 636.275146 691.891541
-407.490814 622.104980 767.409302
-386.960236 546.878601 806.947876
-300.727203 677.033936 652.734863
-52.854958 503.238739 671.539856
-291.538086 512.144653 814.907837
-417.792175 519.082275 899.667786
-359.966278 678.342834 687.551636
-24.795898 449.798309 702.661560
-412.222717 558.803772 931.466492
-216.655319 629.307190 656.362854
-266.887390 536.501160 780.395569
-309.325134 428.114075 899.287903
-339.734650 376.711945 871.061462
-349.871887 558.241089 805.082703
-170.607651 509.301758 724.372192
-133.464325 510.044678 700.698547
-322.836121 390.427002 905.341919
-57.686684 364.796692 768.561523
-337.678009 686.515686 662.881348
-68.167732 364.783722 795.718933
-401.139832 484.478119 905.308228
-85.058334 523.936829 669.760559
-222.899994 358.425323 901.284302
-371.410614 528.002258 890.293213
-227.185059 615.051880 669.594238
-152.167038 396.981415 836.614380
-148.596146 544.869934 668.142334
-356.572235 705.545105 644.605103
-33.893475 401.256256 732.803528
-173.865295 600.942871 649.544128
-276.755432 404.658813 894.203186
-312.019714 599.351318 706.174866
-351.372681 718.295715 639.165649
-154.448639 477.310974 746.001465
-92.151382 491.514496 686.317200
-58.557781 335.051727 816.377197
-254.607697 626.183472 667.230164
-194.394028 434.231689 816.388611
-133.368149 374.541534 821.390930
-185.980011 550.309326 705.619141
-176.172714 419.269775 821.710449
-231.605042 538.780823 757.176270
-124.580872 422.850067 765.113159
-132.724380 503.509033 706.382202
-306.681519 572.987244 718.282227
-77.261269 407.877106 759.581238
-220.693695 473.667572 797.665833
-329.808807 468.157074 900.242676
-173.890839 431.214020 806.413147
-389.100098 676.497925 703.247498
-262.566040 491.871460 824.921265
-143.081238 398.266907 812.203491
-331.239227 682.518799 662.553101
18.776100 425.867371 689.480042
-49.901249 361.530365 794.386841
-331.530334 421.076691 895.338806
-455.158539 607.673645 820.970093
-326.138031 681.474182 656.378540
-333.125183 673.093689 680.858276
-243.387924 468.153717 814.823914
-304.968109 452.333344 872.253479
-232.953751 570.778015 722.036011
-357.223755 510.958771 853.326294
-146.332901 439.071960 753.615479
-360.085144 426.910522 889.577454
-319.119598 635.928223 709.614807
-311.202484 554.730408 785.523682
-438.179840 593.227783 819.431335
-252.477875 565.591125 723.230408
-421.235840 607.254578 766.775574
-16.200373 379.389008 776.869263
-115.357986 371.067963 827.526306
-131.161148 482.416931 741.515625
-311.295013 383.617493 901.770325
-130.876343 428.776428 800.646362
-368.480164 487.526672 900.214783
-15.683283 374.418823 745.134644
-204.924988 574.980286 698.896667
-219.001221 449.493500 817.538147
-384.003387 545.354431 852.629883
-363.503845 634.375916 739.809631
-214.977356 596.067444 673.855225
-400.348511 576.211304 811.791199
-14.209752 418.757111 716.830933
-110.804825 485.251373 704.885254
-161.695755 536.213684 703.853455
-164.276901 362.127533 859.722168
-33.133213 393.801910 763.179565
-201.828476 556.284851 717.373779
-268.949036 516.104919 778.297119
-382.484253 595.861938 754.306946
-251.777603 629.197632 633.945862
-22.742535 435.347595 691.863708
-308.948242 702.971436 634.299438
-122.506966 540.867981 654.482727
-222.067902 568.010986 707.003235
-240.501404 512.164429 783.793213
-332.624542 512.847473 839.634888
-352.984161 651.307068 703.145447
-165.717789 495.895050 752.277222
-127.748161 528.102722 694.572510
-343.959503 733.457214 614.485840
-456.377472 605.782532 854.659058
-121.174156 440.621887 757.536743
-297.909698 537.717102 793.780762
-45.140099 430.558105 727.093262
-183.081665 451.445923 786.505920
-337.110840 679.675842 642.217102
-385.370239 546.640137 836.003906
-280.447693 506.019562 813.141907
-135.734283 455.590454 753.948059
-257.272949 518.535767 774.578735
-162.293015 519.253967 712.994385
-366.628418 426.944092 880.722473
-189.594635 578.690552 689.648743
-194.551559 403.282043 839.429138
-305.080383 663.111389 669.655884
-229.274109 597.038208 673.744385
-400.069916 632.028076 762.045166
-181.000519 443.370270 797.444336
-335.100555 703.175049 651.677124
-97.051178 351.317932 825.490356
-371.351196 625.735229 762.961731
-142.179337 536.332947 700.899231
-417.327148 575.072083 828.857910
-334.297363 410.192200 905.581848
-188.822113 523.056885 740.025818
-133.702713 413.559662 811.516968
-109.318810 416.265442 772.107788
-189.165939 479.781677 766.672363
32.544708 444.390411 662.885315
-318.801300 469.326874 906.397278
-301.099243 535.205444 797.752563
16.936134 440.416077 669.291626
-200.277695 542.124695 730.954895
-381.904907 403.499542 866.144348
-197.472946 563.248474 691.294800
-250.812485 429.078125 891.935791
-226.586319 561.514160 685.368958
-293.464325 429.780579 909.038208
-222.781860 573.381409 701.950684
-349.908112 708.929810 624.694702
-11.747272 431.149506 695.343933
-136.106766 510.638702 696.782776
-164.366928 421.576874 810.059021
-109.373329 524.424194 678.500977
-341.218536 555.598633 799.225159
-93.240501 459.745392 721.120178
-341.749664 466.057343 891.025452
-204.049026 446.540710 811.781555
-109.346443 537.245178 670.545410
-231.001205 415.649628 852.631714
-127.776222 513.754395 692.881470
-381.725525 715.456543 646.526245
-379.514801 630.164978 755.936829
-90.149506 293.456970 882.797791
-384.621185 683.381470 703.566589
-283.500641 357.867706 905.016724
-165.924469 500.213928 729.497925
-432.657379 629.323242 766.192993
-87.871727 457.560883 717.936035
-199.435043 560.761169 667.556274
-376.147034 510.005890 920.204529
-251.169815 603.079346 677.615845
-140.886597 332.005310 852.474670
-341.581970 374.998749 879.069580
-392.178101 569.244629 820.588318
-336.533569 444.404510 887.184998
-329.092743 656.571899 698.328674
-116.904449 471.732391 731.265198
-361.620026 455.241852 884.919006
-52.477657 417.572540 736.672974
-422.984711 629.076416 783.050293
-369.181427 463.565765 897.723328
-221.600800 425.931274 854.181274
-44.070858 328.104431 818.384827
-380.319702 562.547607 817.782959
-244.743088 588.261597 695.439453
-344.221069 550.993835 808.231934
-34.426426 422.957092 698.992249
-111.675255 550.368958 667.611877
-161.308029 515.745300 687.736694
-265.105316 559.883057 735.082947
-273.354645 498.258728 822.322083
-97.076126 510.662903 675.068115
-313.329651 583.245178 759.938232
-405.061737 564.321289 848.767517
-270.375946 476.416809 825.257446
-383.961426 667.909363 706.965332
-176.565826 513.613281 719.447815
-19.679766 421.046753 688.358948
-352.110718 443.291260 894.540771
-349.477570 457.129517 893.112671
-367.651917 478.055573 895.806091
-21.653687 433.146118 724.834717
-259.690765 494.095886 797.433228
-317.323273 621.307922 717.176758
-362.367706 549.989990 832.298767
-358.869415 629.058716 711.260193
-423.298279 583.388977 932.818481
-237.551941 658.978943 636.089417
-199.156601 493.784119 761.992310
-342.739685 619.656616 735.961609
-191.475220 520.540283 743.994934
-349.185272 402.713745 889.734192
-337.337830 630.782166 726.619385
-219.019302 586.032104 699.962830
-212.389053 512.474365 768.065308
-162.175751 544.872864 704.980530
-247.310593 350.290985 908.401978
-206.968735 405.366241 847.317688
-28.065676 384.915192 764.832031
-293.276123 421.865753 902.766235
-224.760452 616.726074 665.053223
-238.986206 452.849915 839.825256
-294.440094 443.349152 892.958435
-174.617554 569.964172 672.907898
-218.788177 555.180481 687.489319
-196.365723 584.445129 662.003479
-391.483093 679.403748 709.361023
-427.209442 565.662476 864.377991
-145.112274 540.480957 693.794861
-444.038147 618.916626 813.508545
-41.337566 372.311890 777.388062
-152.670044 423.362396 799.588623
-172.244446 364.720245 950.565918
-406.827148 541.463562 907.955383
-19.392168 435.560272 720.702087
-388.142029 576.804626 821.382385
-445.300537 589.222839 826.980835
-343.995667 512.362305 864.443298
-286.320892 362.236877 904.293335
-137.511749 337.110840 866.687012
-86.346138 519.999512 661.369202
-369.506348 522.660156 837.892029
-225.299377 613.563904 662.938416
-338.677612 644.152222 711.606018
-208.286087 446.545044 816.979614
-224.872803 462.344116 810.761292
-223.870041 425.078064 837.758484
-350.602661 545.744446 816.977905
-339.654663 493.589325 861.907104
-221.695129 603.573914 667.589355
-319.529938 679.775513 652.781921
-333.125122 655.085815 682.176331
-150.385818 376.373596 839.789551
-212.226425 563.023804 705.003845
-285.123688 354.953644 900.137024
22.325155 411.146057 700.916138
-460.826263 597.354309 831.201477
-190.540695 604.322510 645.234253
-18.327044 408.578888 723.636841
-359.537323 504.339508 915.613647
-152.398544 569.879456 648.383179
-210.453720 431.447540 842.421448
-70.242508 424.242950 737.965210
-220.942520 548.030334 736.596985
-16.408419 455.830353 683.094482
-168.347702 451.548889 794.231445
-294.997620 544.162170 785.169495
-385.771912 614.437439 773.526367
-288.605225 445.265137 867.878418
-308.668091 420.405396 895.184387
-340.129578 640.343262 718.406799
-302.704224 656.256775 655.555603
-139.388931 338.083405 931.506470
-19.340849 443.383270 670.570923
-347.624329 627.049194 722.727661
-270.416412 448.720734 871.084351
-116.739487 429.393066 784.790161
-188.625366 573.359741 694.482300
-352.563995 502.878265 887.342651
-255.804016 596.965332 709.972717
-59.857933 362.084930 791.236084
-338.345215 356.940186 859.709351
-392.576813 578.566406 795.243042
-345.138367 532.308044 815.839417
-372.411896 608.709839 748.160706
-319.811798 593.677856 752.770996
-404.431335 653.396729 749.630066
-6.683392 400.942352 697.765320
-385.077728 578.882813 802.416504
-95.511673 335.390869 847.291016
-400.649689 620.304504 755.255066
-249.358032 494.864044 805.540161
-369.139099 467.589691 898.073303
-94.629288 329.997070 867.922668
-193.069260 504.445099 739.513672
-124.180176 404.113007 798.307312
-136.413406 561.603088 653.587036
-26.326395 428.197327 732.907959
13.193466 416.459778 685.545776
-227.519318 376.130890 924.809265
-155.547668 357.833130 873.454224
-227.569382 402.058441 874.137451
-400.419037 609.795776 753.217163
-333.558319 437.551880 890.349609
-395.327209 486.914185 897.577637
-355.613617 588.886719 778.360229
-208.604828 590.022644 666.658691
-364.612000 599.444336 785.949402
-246.662781 330.407318 889.740540
-325.327637 712.507385 621.527893
-335.276459 421.433228 886.632263
-290.757599 701.636475 631.313599
-330.109497 582.721313 771.497559
-320.500610 432.560791 882.378235
-153.024567 533.918945 706.049316
-154.285706 543.042419 685.503235
-367.148346 557.085266 827.496460
-71.683273 444.364075 705.875366
-263.786133 567.900085 724.653503
-118.158623 536.058044 679.508362
-173.966400 600.464539 650.292297
-302.765991 599.623047 722.177490
-159.026260 473.175049 770.421753
-361.001160 566.529724 810.485840
-220.233170 509.179260 774.139038
-352.160187 634.657349 732.703308
-311.598267 500.558807 829.282349
-419.318604 544.015747 915.928772
-382.713165 561.111511 834.359436
-26.739649 355.617340 777.238953
-228.491470 463.142975 803.676208
-236.797577 621.577759 652.142151
-261.816803 548.221741 760.858887
-398.554077 605.613403 754.317017
-323.960602 556.126831 792.489014
-138.081543 446.647156 779.059204
-248.898148 524.041443 766.451660
-116.152855 445.145660 769.171875
-354.542053 385.025696 870.059509
-203.524246 416.282471 824.785767
-76.917419 327.477783 845.934570
-226.468597 388.072784 923.718262
-329.212585 461.565826 896.752930
-155.824524 369.556610 847.889587
-20.551050 441.670502 690.318848
-376.254456 571.279907 812.149658
18.302103 434.982819 672.788147
-386.994751 650.783752 713.455078
-66.962082 456.199677 704.592773
-291.661713 571.422546 756.274170
-177.605438 487.738556 752.697632
-290.595398 521.167725 813.310425
-103.350647 396.729126 761.356873
-158.411942 492.991730 747.211182
-247.378448 439.632202 858.946594
-217.157562 394.580933 900.425049
-350.048157 566.903992 806.905823
-372.771606 626.637451 750.543091
-48.026234 448.797485 719.940613
-213.710922 415.044342 868.527405
-202.473816 589.461731 681.216187
-226.409149 622.090759 651.987061
-65.371735 468.313110 690.563965
-174.913452 585.046997 656.034363
-189.436356 514.735413 726.908142
-471.808533 624.136047 907.996033
-347.957184 516.036438 861.655334
-368.197174 622.459473 757.580811
-238.972015 364.427979 911.091003
-56.208492 414.259338 738.414490
-109.473396 347.125275 844.767883
-216.727524 476.386749 785.512451
-58.500599 466.399261 693.828552
-136.801865 410.807098 815.545776
-233.960312 586.566956 683.772095
-32.223072 466.727539 693.349976
-120.781418 403.991211 818.638062
-94.562897 292.003265 898.522278
-85.697861 441.007263 750.070740
-427.959686 565.735596 854.841309
-270.571503 652.597412 662.575500
-2.212740 392.391663 729.219971
-241.667053 618.111267 666.218750
-71.278793 334.362335 852.529968
-431.954620 567.797607 845.656616
-337.840759 693.158447 647.821533
-88.025604 464.801086 713.797974
-78.583481 389.852020 778.963806
-371.440918 462.141205 894.509949
-382.767761 678.429138 686.974304
-323.961365 645.803345 696.862000
-317.859985 401.329224 898.964783
-154.031006 336.515594 869.733887
-410.317719 640.357971 763.356995
-348.785370 597.642151 763.208374
-23.007584 452.918640 672.048401
-461.214539 633.975403 807.109985
-121.208496 378.455566 843.892456
-392.736084 482.588745 901.669861
-414.333282 680.908447 724.443787
-301.714478 581.373840 740.692383
-222.823654 417.208710 835.910583
-0.279761 413.219910 714.018555
-31.201797 420.708160 711.715881
-380.864594 662.555542 725.323730
-397.475769 561.165161 826.853455
-159.965897 575.558838 647.413574
-276.205688 444.887604 857.544006
-383.052551 688.129089 694.391785
-395.931732 622.008850 775.951477
-7.374235 400.489136 724.894287
-219.533554 569.667053 695.940979
-278.102051 532.955872 786.120667
-351.836884 434.303589 886.483276
-208.763779 557.728821 713.887329
-353.611938 665.445435 698.614136
-413.361420 562.132568 836.342529
-151.494537 526.023743 698.075012
-38.716480 358.682465 780.521057
-250.807892 498.205383 784.263672
-315.212219 579.592346 753.671509
-250.062378 421.807678 854.608276
-142.384079 398.564362 834.765991
-242.329056 449.244598 824.797363
-192.997910 467.664246 803.246887
-141.816162 562.658997 647.727661
-330.736450 693.129211 635.183350
-249.238342 653.216248 652.198364
-355.367676 616.368713 755.541870
-233.426941 606.072632 674.810974
-124.674072 470.436584 728.304626
-228.075623 569.333008 702.873596
-173.009827 556.511719 673.399902
-36.304550 382.366150 754.468994
-395.561340 527.783875 852.916321
-61.459965 322.971802 864.063599
-352.728027 550.155273 800.712463
-173.436569 464.604065 761.801880
-234.744598 655.746521 636.017883
-206.660248 556.528198 705.758484
-296.220245 640.217712 690.037903
-266.981171 448.302673 853.288757
-265.420288 484.190887 812.774048
-324.858521 525.415833 812.008667
-162.044891 437.728180 810.423950
-312.209686 402.166473 896.373169
-441.809418 636.508972 766.392700
-207.983856 591.457764 685.669312
-114.755402 362.140259 801.420410
-93.304718 362.758575 835.810547
-300.512238 672.629333 657.641174
-310.655670 495.090149 840.929810
-134.025620 495.514435 713.072998
-186.825836 400.123260 858.150696
-89.943192 493.904358 682.569092
-60.950493 334.045166 819.838257
-351.819824 388.859619 870.402893
-80.279770 440.596680 750.233215
-345.560425 665.161011 691.975952
-314.082520 646.260559 698.061218
-258.615417 458.309570 848.692261
-323.062653 499.344513 833.250305
-178.153320 557.052979 667.397034
-280.536530 611.242798 669.921326
-164.021515 360.522034 858.206848
-174.546829 484.717560 752.944763
-340.645782 433.869354 895.311951
-288.357941 646.629761 681.631775
-352.666321 413.101135 880.213928
-377.910431 623.001282 761.490112
-221.468216 474.912720 809.441833
-117.392822 341.263031 865.452698
-329.545746 613.815796 699.419739
-269.037964 566.326477 748.163513
-146.542938 544.459290 650.286804
-117.460159 422.845337 796.133911
-98.303566 477.562439 686.550720
-322.155945 443.012604 900.599182
-67.397102 424.547455 735.824646
-113.968269 454.008026 737.781433
-106.327568 344.126953 863.727722
-162.129578 395.320801 827.825928
-197.539154 594.846252 669.603577
-207.992554 503.703247 754.047241
-344.999054 519.811768 861.387817
-72.666298 413.212524 763.119019
-414.736084 553.293701 921.842896
-296.997284 441.983612 915.341003
-300.535950 588.201538 724.604309
-373.246429 490.184265 893.255005
-138.317703 546.717529 669.089783
-246.148956 626.868408 652.777100
22.909595 419.251160 684.641235
-265.616730 608.724365 698.308594
-474.531860 634.006165 823.685730
-345.522430 616.650330 707.425781
-132.959824 568.279846 651.500732
-389.389038 660.324402 692.674927
-86.067284 470.700714 703.201477
-235.552582 580.114197 696.630798
-321.366241 494.714050 841.815857
-233.226700 390.538239 874.408142
-55.224457 461.261932 698.485779
-333.408844 664.979614 666.250610
-40.574677 332.067230 848.721802
0.771379 415.738556 692.084534
-174.288895 512.700256 723.876892
26.847717 432.084747 658.045959
-196.812057 501.568207 764.991211
-259.833527 579.024658 730.485046
-460.685150 593.011719 858.900208
-392.734711 458.066437 878.420044
-364.875092 512.862488 894.327087
-216.489487 540.051636 723.633972
-92.073311 348.375519 841.101685
-330.465302 632.194031 706.859680
-89.111404 420.884186 772.605957
-370.177643 626.009216 755.287170
-82.864548 468.524475 723.720581
-68.985374 416.789490 744.367615
-268.036499 531.531311 781.236206
-48.662643 459.951874 693.038818
-211.661896 506.255127 773.553162
33.997864 402.452637 676.190918
-102.717857 346.403198 818.919739
-222.510742 403.948029 855.603088
-382.995575 461.068848 897.109375
-402.659210 439.966156 878.697083
-185.719208 597.629089 662.840149
-317.113892 617.496216 713.686890
-20.499130 469.672516 691.347046
-93.849449 445.873688 758.216492
-418.831970 667.467102 734.807800
-336.264984 530.519287 824.362122
-310.644348 395.339813 908.476135
-63.474236 433.856689 727.273254
-325.038788 541.899963 797.418701
-219.116440 396.750946 882.652893
-176.130920 446.189301 787.593872
-173.010193 499.122681 730.614624
-438.776428 649.876892 779.228638
-255.581711 482.775360 807.148804
28.627745 399.998047 698.456055
-208.210754 372.419281 876.356873
-221.258453 629.892212 639.808411
-282.975372 391.221100 894.286438
-352.820129 706.663086 628.164124
-286.243958 657.069763 666.097656
-293.127655 638.832397 691.400024
-116.312233 329.982727 944.564941
-152.365982 341.711761 929.832397
-235.239838 630.327698 627.714417
-359.075348 605.982544 763.961548
-425.261078 627.398865 780.285156
-231.895950 462.678497 814.651550
-300.930115 432.727814 884.163330
-316.807495 509.148865 824.796143
-279.485718 567.842285 739.813171
-28.166094 417.102844 735.454956
-222.152161 604.630859 678.454590
-328.316498 651.272461 698.458435
-272.810425 685.193481 622.898682
-237.066711 626.863831 653.351868
-266.834442 503.312653 814.207520
-62.328236 326.850769 849.848816
-396.810913 591.650146 812.257935
-370.948486 468.052582 900.138733
-124.513374 375.875732 848.485413
-8.331153 384.487457 740.610046
-241.856949 461.639801 828.087891
-17.862934 436.504944 712.177856
-214.301834 449.708618 813.936768
-398.347748 455.075165 894.411987
-106.091202 337.870789 850.051392
-430.069794 559.037415 868.632568
-291.302948 644.599792 685.377197
-270.044800 587.431458 705.664856
-80.216713 451.495544 738.530518
-187.152130 553.571655 696.541504
-127.061172 346.003693 873.301758
-152.093826 418.423431 823.104004
-297.888031 415.119141 885.954102
-58.505550 473.821198 681.559692
-394.824463 645.799988 749.185242
-470.372223 585.370850 825.370239
-303.475861 651.780273 666.514282
-263.316467 611.393677 690.772217
-409.492554 559.264771 895.658752
-410.209320 537.344971 857.786804
12.206984 393.237854 713.845032
-323.299561 633.159485 721.927246
-96.021393 514.677246 665.166199
-357.555756 454.484589 890.127197
-215.917725 598.937378 660.701538
-272.580963 485.290161 838.255615
-110.510284 353.564148 831.875122
-69.892342 439.155914 722.090454
-389.394470 553.776062 846.796875
-423.504944 637.259888 755.435120
-332.825623 485.400543 877.032532
-89.521706 503.747498 670.465271
-138.315262 519.126038 710.778076
-315.979065 402.794373 887.932617
-110.298882 343.878387 869.256836
-25.148249 466.207184 666.670654
-28.498209 452.601410 702.076050
-150.473434 427.157227 813.070740
-226.256607 482.582886 792.715332
-237.568970 547.873230 695.681335
-267.502960 614.460205 703.444397
-214.577591 463.561981 813.484619
-336.910553 480.052277 886.980469
-385.165710 482.017761 906.866516
-207.820572 523.542358 736.278259
-86.286530 396.444305 777.204224
-133.022827 554.319153 658.275391
-144.181091 384.346527 811.974731
-356.193665 569.282410 778.051453
-38.132950 452.594727 693.088257
-103.789291 456.797363 712.084717
-446.339081 581.150940 857.606873
-204.677383 587.065735 667.195679
-432.808655 573.168640 921.781189
-289.306946 605.778992 723.741577
-343.818085 501.451782 885.128784
-200.804077 574.491150 668.493286
-166.517868 368.727264 931.406067
-93.573616 334.081085 824.091919
-289.265411 536.380859 778.547852
-281.094666 351.363617 900.762939
-41.377449 340.534668 822.101868
-419.115021 562.915527 915.072510
6.099433 416.454376 706.025574
-371.286041 645.283264 731.617371
-385.315430 460.294891 901.047974
-350.720642 694.369751 639.324707
-337.241974 678.059326 674.486206
-78.319153 345.723846 821.709412
-146.827209 402.158722 811.226379
-37.596279 502.849091 662.633118
-5.784182 369.477295 742.799744
-232.237305 596.149475 684.153259
-122.044792 386.769745 800.213257
-367.663116 541.819397 825.228516
-248.834106 625.255493 656.641113
-157.498093 369.062042 848.812378
-357.175659 540.649048 804.605591
-157.686829 525.036987 717.185608
-223.301193 486.825195 798.703796
-375.624847 546.997070 835.126465
-140.381760 377.587372 846.748352
-237.499664 467.975983 825.304443
-448.616455 615.264221 834.090088
-91.043297 314.697418 865.040283
-195.236542 415.147675 841.394409
-200.856735 562.807922 694.312805
-246.848297 372.332458 905.560669
-280.198914 377.684906 904.489502
-147.976349 361.426544 865.251038
-356.734436 570.423767 789.171082
-279.885193 473.128845 844.364563
-164.665192 468.252533 779.204529
-66.281914 442.099274 728.541748
-59.731159 476.238556 702.558289
-174.851944 549.760742 684.435181
-142.780350 420.492371 792.388062
-279.337708 543.609070 769.260132
-308.712585 489.039185 837.859497
-108.567192 507.909515 680.470520
-182.605667 361.638672 940.677551
-89.355980 428.224426 774.597900
-394.879913 468.544037 889.327942
-82.008728 450.117432 723.623474
-401.931854 537.141663 840.649719
-181.461731 446.414398 810.820801
4.976676 418.006317 721.563843
-290.277191 576.520935 710.317139
-291.580841 695.764282 629.555359
-131.140518 530.824219 680.314697
-222.548218 418.685059 841.363953
-8.062857 461.817596 683.238892
-256.291473 388.548218 919.576233
-373.992584 440.200714 895.208130
-375.969696 428.291992 875.541504
-216.343857 568.323181 715.200195
-262.650757 676.127991 626.421448
-279.020844 443.673920 894.908508
-251.265350 453.520660 834.880981
-289.605164 671.780457 651.055298
-214.548065 401.251221 883.677734
-132.245514 555.123962 659.753967
-206.411911 548.407288 730.971802
-163.181839 590.310730 654.056763
-145.141357 500.998260 735.918823
-292.344208 559.520264 758.975952
-54.778683 467.921692 684.742493
-102.364464 359.850708 843.688904
-193.008377 547.134460 707.001343
-475.676727 609.067383 851.409363
-153.920929 474.445587 752.013062
-143.824066 429.016327 800.649109
-252.245926 521.361511 786.027283
-335.239044 700.224182 625.652466
-320.504242 462.506683 855.447021
-148.940353 467.876251 751.379883
-198.136383 575.769104 664.817993
-318.785461 700.904724 616.356567
-353.618347 614.613525 740.940125
-174.115723 359.778107 895.297424
-343.974945 563.746582 760.943604
-224.093918 560.172241 716.095093
-265.449738 363.320953 903.420593
-88.652679 325.720673 817.663452
-315.379089 677.040039 662.738098
-369.782898 536.745178 856.530212
-274.557007 465.178467 851.911255
-114.784042 335.170746 859.639526
-284.917542 382.148346 910.165039
-182.016571 534.654846 682.367310
-113.746895 502.126984 696.261475
-132.091980 497.140930 706.958313
-116.972672 569.260620 647.968384
-380.027863 543.301392 855.208191
-371.673767 445.426361 889.139587
-268.417816 608.026184 701.830200
-397.287292 525.133545 921.796997
-74.345612 519.109375 680.338745
-44.545921 474.883331 691.855103
-416.469910 648.170166 759.451172
-70.394806 417.929626 746.910278
-261.616028 610.656616 683.467896
-98.384026 373.910492 793.415833
-154.873367 562.423157 668.369324
-291.953186 648.808167 669.844299
-245.540283 626.580994 662.772156
-392.885773 654.900391 713.016968
-371.438812 682.804321 690.664490
-265.605804 502.889954 799.498352
-207.161835 471.239685 801.828247
-160.211411 495.797546 733.016907
-137.763626 541.660278 672.201660
-284.842712 664.540222 662.377991
-174.471954 551.622803 669.837036
-213.103348 518.655029 762.635559
-350.695648 488.370087 886.397888
-25.485851 409.570068 725.661438
-337.595184 558.340820 761.579285
-194.909576 475.261902 770.682678
-167.991348 566.489929 670.226868
-274.233612 597.625854 711.474060
-352.746887 612.630493 752.433960
-28.131403 421.034027 716.359741
-286.026001 543.943848 777.976929
-297.283142 523.959534 800.428223
-81.134613 399.534943 791.330078
-334.158997 508.575897 837.836243
-275.608429 678.692139 621.988159
-67.862999 294.533722 908.447693
-344.191742 593.131836 771.274597
-32.877346 398.088257 767.322754
-225.426483 464.856750 812.747498
-127.155746 548.247192 656.323914
-288.683502 550.923584 760.178894
-341.248322 454.278687 882.625732
-219.110001 545.305969 727.225525
-137.700546 465.402405 743.449036
-132.749908 443.194489 787.365417
-184.070633 378.590698 947.649902
-302.762482 707.372803 627.917480
-244.419022 515.388611 771.961182
-113.083511 362.788116 846.591309
-412.613190 552.225525 850.023743
-351.596039 678.997864 681.721680
-195.450027 389.798584 841.536072
-265.613037 358.886475 895.522095
-295.166290 512.620667 817.209656
-254.783585 631.029602 667.671021
-132.862732 484.286774 720.556946
-52.831032 460.014130 678.100708
-318.348663 525.176147 819.271790
-19.938740 438.490021 698.694336
-87.590210 519.938171 683.666321
-315.271301 651.939087 652.802490
-32.037056 502.949921 658.181335
-334.806152 477.178864 892.306702
-403.198517 671.146912 719.219299
-242.134079 451.494049 817.325623
-58.251904 455.598389 704.329895
-271.902374 502.584412 797.555542
-402.149200 447.265869 886.108948
-467.790894 606.856506 874.026978
-378.921814 443.191681 888.343384
-303.341827 472.159576 869.668152
-183.890213 540.032349 677.818909
-266.972137 508.513947 794.422302
-239.282562 611.495300 676.567383
-72.820137 379.760437 770.573059
-61.109924 370.216980 754.171997
-136.978256 565.119507 667.104553
-325.306183 397.158173 891.893127
-370.457123 496.889404 889.567688
-148.895874 560.980164 642.087891
-439.832397 640.728271 785.288269
-233.312775 592.243164 664.194641
-377.718964 528.128601 890.417542
-244.552536 533.864441 748.122620
-265.502075 636.408752 653.805420
-108.744598 387.505646 800.678345
-108.631927 466.758484 721.298218
-429.526398 580.177002 802.157532
-284.748840 456.760040 832.417969
-337.414490 597.676941 762.383484
-86.720146 327.429138 868.742126
-138.979126 327.094543 887.185303
-116.595490 496.288666 713.639404
-47.538784 401.551880 725.037537
-100.989220 307.546814 915.873474
-167.041611 447.884796 797.703369
-348.162720 509.850464 884.650330
-129.371063 464.175171 745.200562
-365.815613 511.900726 900.081970
-48.105347 416.790405 699.649109
-291.998627 492.319702 823.449036
-350.931335 674.094360 686.882813
-46.744434 480.192444 666.478088
-351.812744 630.723572 731.645325
-244.869308 660.865234 636.419617
-326.980591 371.243866 883.507507
-377.831085 687.121521 691.374084
-136.421478 532.670776 672.963257
-103.963326 429.612946 755.904846
-257.824310 464.306610 839.950378
-50.347046 349.651733 817.619873
-108.516190 513.751404 658.354919
-182.982910 563.659058 698.713318
-363.616425 638.248169 732.657288
-382.516693 512.401001 913.353699
-331.451599 691.439819 625.294128
-312.550293 692.365051 625.384644
-115.981865 335.982239 854.264465
-318.138885 455.528290 901.534302
-380.882813 648.497620 739.024658
-188.617249 376.137848 940.575317
-196.451767 607.675781 652.334473
-242.512817 496.406616 782.512085
-259.431274 450.149933 869.784729
-433.164001 579.230408 862.535706
-424.505127 675.787354 739.231323
-370.822632 658.201050 714.763550
-299.514832 490.774139 839.089966
-165.667328 373.038849 866.437012
-253.562073 498.088318 805.178772
-135.949142 383.632446 821.910889
-226.609650 576.340027 697.418823
-259.310608 633.869995 641.305908
-376.281494 407.309662 883.327087
-423.211273 554.413452 917.025635
-160.735519 473.489075 768.299011
-102.818726 448.771576 738.755188
-77.923294 522.401062 679.614746
-354.874146 629.037231 735.705872
-333.655548 711.545227 623.258850
-137.096573 502.285309 710.356506
-304.168884 479.357513 846.357117
-30.108751 417.004761 745.060242
-38.113350 380.100250 777.898254
-161.717361 451.061493 790.253845
-330.156921 656.887512 677.680115
22.206270 423.981262 678.137817
-321.583130 543.206665 792.241272
-399.050934 436.613800 877.175293
-290.683472 416.570892 903.591797
-351.097473 539.829773 816.116943
-243.411499 571.389465 711.822571
-339.265198 443.321899 899.494751
-383.216614 644.976074 745.510010
-52.754524 376.652802 774.294128
-187.065567 572.459778 668.755127
-332.494659 675.149841 683.405029
-320.600708 680.147278 634.694824
-269.451141 538.025940 757.965820
-111.923592 431.145386 777.447205
-148.514297 446.214966 773.520142
-171.609467 479.981628 744.596069
-388.349274 627.320679 722.102478
-385.594421 666.615417 694.687317
-231.522903 425.235779 871.741089
-69.727829 508.457520 657.080261
-93.001991 519.890259 670.936401
-57.078136 458.442932 694.587769
-137.654312 455.042572 778.708130
-351.983551 681.359802 677.429138
-52.001633 425.321655 728.147583
-345.118500 662.626099 662.838745
-343.940216 536.847046 826.460266
-386.887207 524.052429 925.498840
-166.530762 406.856476 806.912292
-383.385864 502.293030 909.011841
-377.956482 592.090454 802.224243
-20.405241 368.872559 765.184570
-191.735916 451.858704 799.686646
-111.313965 538.607361 653.104309
-109.266975 500.514343 688.736206
-167.746841 515.441162 711.743408
-184.342346 445.335602 811.776428
