ply
format ascii 1.0
element vertex 1408
property float x
property float y
property float z
end_header
-565.259888 673.975281 543.638367
-555.549316 446.336761 531.177063
-683.926880 488.153290 404.433258
-390.475647 556.428772 656.285217
-561.445190 371.848083 518.278625
-597.107056 609.111206 505.733276
-463.203003 747.224060 623.649353
-548.084473 470.445435 524.686096
-467.815643 456.315216 583.793274
-529.773010 513.232300 543.954285
-484.531830 715.547729 616.731262
-411.196472 694.245789 655.579773
-577.593384 646.379822 525.478027
-573.180176 835.329346 593.387268
-495.314301 727.650696 609.356262
-378.562927 611.321777 663.539551
-555.947937 438.971039 529.846558
-498.738098 676.090454 599.314270
-535.273926 513.193787 528.214966
-515.962524 838.401123 597.076233
-665.700317 369.169525 427.078735
-656.612244 391.796509 445.081268
-717.158081 404.630432 391.091553
-490.078247 746.139465 606.109253
-533.832153 413.050995 492.714417
-740.770813 430.650208 358.205566
-617.867859 485.588959 468.351166
-524.961731 737.939514 559.138245
-641.619690 453.581329 446.609375
-610.758850 606.419983 480.431915
-438.009613 541.621582 614.596375
-623.784790 499.511200 458.159210
-643.830200 388.352966 444.067322
-513.831665 798.059082 599.043945
-421.472778 621.685425 655.312622
-454.637207 559.964539 604.572998
-466.692413 429.590881 586.423218
-422.311890 529.735779 626.916748
-591.528931 279.365112 462.269135
-653.339844 693.151550 430.608612
-437.891266 538.255920 639.352661
-438.905273 587.929321 640.531982
-647.629211 685.233154 442.482361
-479.253906 560.251526 590.755676
-466.146332 651.425293 622.584900
-644.348206 715.830750 456.185211
-630.660156 330.932220 447.507935
-561.645691 740.235229 542.498047
-497.121216 751.451965 599.066284
-520.021667 653.508423 575.640808
-530.503662 408.709503 533.392395
-518.610474 425.192261 526.252441
-618.433960 748.241333 470.713165
-402.091522 681.841309 664.979187
-518.731995 612.304321 572.289001
-610.040405 756.217346 454.730408
-381.604248 662.150024 691.333923
-641.050415 524.631592 460.621094
-672.154663 467.591370 412.805450
-629.423706 708.026184 483.455750
-462.182861 437.856598 574.118652
-537.298767 746.617554 565.896240
-460.469452 653.775146 621.556580
-514.156250 396.962952 551.500305
-459.718506 657.259644 592.686523
-381.990997 645.937683 681.942139
-623.016907 375.800262 444.525482
-452.692749 634.838196 629.266479
-653.430176 694.668335 423.581024
-476.840363 564.187561 592.881348
-536.139099 601.090942 557.156250
-491.821289 651.767517 592.260681
-615.981506 712.157837 404.466431
-412.123291 535.563049 613.168579
-595.098450 426.173889 475.523712
-667.829041 662.729675 455.668884
-459.034698 533.502686 607.421082
-607.470764 498.550232 472.208099
-603.681580 617.302490 500.334229
-643.963989 424.423187 433.607452
-583.735535 386.998169 480.176331
-633.963806 327.987396 434.131134
-418.587250 521.167725 645.111328
-468.676697 545.301270 612.591431
-585.047424 684.918335 524.134705
-564.244019 800.808960 546.026672
-494.383453 729.557129 605.141174
-519.247192 663.758118 545.199036
-434.193909 555.769470 629.115051
-683.303833 397.937256 394.079681
-674.336731 508.059143 428.873138
-366.251617 692.810791 685.154968
-625.930298 335.494354 424.456757
-646.370667 684.340454 393.962708
-655.966614 430.555573 424.945923
-622.982300 821.381958 585.719971
-568.753296 292.873993 487.709442
-546.092041 422.172607 533.551025
-600.198364 341.196136 458.865601
-698.662781 449.842590 403.279724
-537.926514 376.770264 519.403748
-403.057831 688.429626 676.186035
-575.886108 308.629486 485.602631
-366.413696 630.752380 672.683655
-648.787720 453.318146 447.523224
-402.305817 592.142395 656.434570
-709.159424 469.750305 394.559845
-537.848877 608.424866 543.911682
-475.797180 505.839844 588.617615
-450.395294 710.871216 623.703796
-723.026062 597.951294 395.146790
-651.352539 670.945740 473.671600
-454.150452 483.408020 581.231628
-466.223816 657.163330 614.680725
-694.609558 631.765198 452.730194
-507.589813 424.944702 564.995911
-580.553406 380.269958 500.577820
-503.795776 455.175964 552.934753
-683.683960 491.000336 428.418701
-407.588928 631.880066 666.096619
-557.316040 654.896240 533.276855
-546.093323 540.197083 543.096741
-608.614990 413.381042 463.786926
-509.656036 650.072815 573.450745
-518.207336 713.652222 550.185120
-377.961884 593.140198 667.397400
-631.455811 732.171875 450.423859
-527.792480 419.615021 536.810059
-556.722046 386.053436 520.899353
-476.460663 714.859863 617.215759
-669.736877 555.839478 432.474365
-416.780029 680.748108 656.428833
-701.469177 505.084137 408.779785
-564.281799 686.410278 538.412231
-518.929016 804.320923 590.394653
-423.323517 658.668396 659.991272
-569.871094 514.170898 509.269775
-515.028625 725.610535 577.858826
-483.963257 400.053192 578.384155
-630.327637 459.524414 449.774200
-645.387512 598.134521 464.115295
-637.102478 336.902618 424.587830
-511.074219 727.871765 581.569275
-611.997192 573.168640 491.234253
-654.968811 533.196289 436.957825
-635.810303 342.922577 444.353333
-497.655884 524.805420 584.871033
-521.271729 478.741486 556.254700
-459.214081 516.892700 613.156860
-448.938965 620.019470 619.034546
-560.070496 378.638641 518.417419
-452.036560 609.841919 622.618042
-706.874512 425.320343 389.582672
-393.880188 669.344971 680.923401
-492.153656 695.301636 594.045837
-654.029663 692.724426 429.118408
-656.020996 456.378815 449.532623
-508.551086 494.481354 561.932739
-624.808655 798.177490 555.508667
-604.305847 306.587982 475.150970
-642.673889 761.643066 532.040771
-675.850708 629.069702 454.545807
-643.586914 742.940186 487.077820
-358.313293 609.080627 696.211670
-647.300537 729.888062 513.698914
-659.945496 566.023193 447.028290
-467.437653 738.392273 593.475586
-462.688507 619.984436 624.811768
-640.766968 476.432495 455.563110
-460.107391 712.253235 632.163574
-447.834045 538.520752 629.787476
-654.364014 485.969330 435.249268
-415.848419 701.084412 644.439270
-648.184998 567.942749 442.882080
-625.249634 745.480164 440.089630
-600.191589 401.936218 491.191559
-391.750732 672.571838 683.695068
-554.796021 670.179077 527.565247
-695.697205 492.637451 394.089966
-559.807190 291.581970 490.199585
-698.489746 469.700867 392.124664
-498.207306 573.568054 584.844849
-638.517334 387.422943 436.489899
-541.583069 392.682129 529.576538
-560.926086 426.898193 495.296295
-557.222046 677.937744 543.728821
-347.057617 660.695923 709.261780
-542.850159 542.409851 529.791321
-478.254150 552.124146 593.905212
-625.601807 668.376465 489.611267
-426.912628 723.923218 637.667114
-431.990845 641.624268 645.397827
-522.220032 596.483826 557.917419
-516.567932 476.954102 545.851868
-590.586243 649.516357 515.313904
-442.100159 546.075745 621.631226
-655.488403 530.543823 424.558228
-630.513062 358.630615 460.016174
-562.759888 624.111084 525.472900
-476.979767 594.733398 600.356140
-387.366730 598.853149 678.257568
-665.878174 423.698486 389.717377
-700.445923 530.210388 403.510803
-478.507813 516.607178 565.818115
-516.591431 432.104401 548.300598
-709.459839 480.350372 377.951996
-440.974274 640.520203 634.716980
-438.949829 535.605469 625.156677
-376.482971 661.073303 685.423096
-622.218018 796.712585 554.504761
-524.107178 625.848145 558.851501
-657.552979 641.064331 468.090912
-567.444702 527.744873 514.407654
-461.080688 564.768433 583.158630
-546.101563 517.659790 531.531616
-610.338684 477.869629 458.268768
-432.945343 666.711060 648.245300
-627.516541 736.154236 430.088226
-619.232849 786.966064 562.478699
-514.306946 375.061035 532.974182
-683.560364 470.653046 424.257690
-676.881226 536.720642 415.836639
-591.226868 788.152649 546.447144
-637.607178 354.028351 418.069672
-660.447327 626.804321 357.533722
-458.818268 488.874878 601.432312
-522.058411 508.015381 552.970886
-572.714661 274.787018 488.382599
-567.512878 487.414978 504.539215
-641.693115 507.946960 444.697449
-643.569153 410.769440 450.485260
-575.732971 375.082916 492.406189
-487.952667 396.405334 574.639832
-624.345642 500.107239 478.194733
-466.376007 588.976440 604.042725
-561.517883 318.458160 492.719269
-397.909943 659.810608 671.243164
-488.261902 481.445007 588.791321
-553.092957 549.452515 504.757050
-710.388794 569.809937 409.512177
-694.145386 626.242126 410.142151
-599.375122 428.168854 488.601715
-532.298462 733.106140 577.268188
-473.028076 460.859100 562.872986
-391.017212 654.661926 683.840881
-628.153259 788.830811 544.826355
-709.586670 485.980347 400.936768
-623.722900 756.808655 475.012054
-477.335510 472.878601 568.582336
-641.272644 604.856079 469.060516
-580.151245 497.559723 480.194153
-616.703186 384.511353 462.296814
-425.049347 536.498230 628.959656
-411.402924 649.804932 661.933533
-536.670410 502.387939 540.126770
-611.796326 362.954712 478.731140
-703.724243 399.117523 398.284851
-679.771362 647.244202 396.627319
-600.355652 306.838226 469.616516
-602.235718 451.232361 472.968384
-630.764709 738.738953 472.923157
-591.599792 288.617371 472.265808
-691.720398 642.351929 416.854614
-590.056458 739.485413 531.293762
-593.952454 483.968658 497.545349
-540.947815 393.545807 519.422729
-408.703979 538.057556 650.700439
-541.467041 751.497314 571.679871
-537.870361 626.985901 548.458252
-499.275208 760.639893 605.928650
-584.699829 505.038086 487.073914
-476.803070 612.767517 589.721130
-493.894287 456.015808 579.948364
-565.487976 720.775513 536.375610
-457.316803 447.297455 598.219238
-397.198059 662.309448 654.297424
-367.295715 643.731323 688.443420
-561.744934 688.368042 543.252380
-672.417725 656.717529 429.165192
-466.613403 500.666840 606.821594
-639.958862 537.795105 438.652588
-448.607361 743.536987 634.641541
-571.412231 540.658936 506.733582
-671.575134 518.928406 402.002960
-389.977753 664.274475 672.000977
-437.830566 494.716797 620.563660
-669.682007 554.427917 438.043243
-512.221863 654.035217 571.601624
-658.176331 686.342346 471.138306
-692.130737 510.399017 397.029388
-538.329285 531.230103 532.608337
-486.136963 776.921631 601.824280
-450.519379 694.370605 606.651672
-625.932739 697.253357 416.676117
-633.900818 575.366455 456.670685
-726.600342 591.956665 407.227081
-521.659363 539.925720 557.726196
-629.000916 584.729004 478.049133
-420.026611 703.822388 662.297546
-627.289673 686.142944 490.450043
-502.260864 795.264343 597.351624
-672.348755 440.591949 412.594757
-688.278564 641.501648 418.935333
-428.941589 719.860962 620.864502
-662.947571 636.325684 470.063171
-487.246735 462.491608 577.123901
-369.906250 590.729919 691.117432
-623.765564 770.672791 547.131531
-464.221100 526.277039 611.227356
-566.795288 614.713806 531.559998
-611.835388 596.697388 483.055725
-607.480896 317.468872 436.898987
-510.281342 558.691650 565.971802
-454.403076 668.251343 626.258545
-384.938782 618.102722 684.486267
-529.359131 464.998596 538.215637
-606.338013 425.143829 466.471954
-617.248840 552.661804 484.537933
-526.458496 722.205383 575.810730
-457.569458 641.665833 620.752014
-520.105286 661.293091 566.984924
-509.562897 535.991638 571.813477
-484.110992 466.848389 573.897705
-463.410828 645.161194 602.452393
-606.804565 668.713257 494.512970
-446.534332 502.511078 620.906189
-450.111603 718.521240 633.419128
-669.651428 506.421051 418.804077
-642.795593 543.854187 460.691742
-555.681091 339.300110 498.311676
-354.519592 614.102844 691.397949
-552.806396 619.640625 512.509338
-552.635132 273.655579 490.050507
-608.265076 750.816162 440.570007
-667.832092 681.547424 417.299103
-686.841125 638.609558 400.570343
-456.170563 607.615845 612.059326
-526.020142 512.101746 556.594971
-529.230530 373.111267 553.645020
-533.331848 654.832520 562.925476
-702.536621 442.284424 404.391663
-469.065704 470.096771 583.037292
-538.581604 535.021423 515.725220
-451.175171 595.631042 621.451599
-555.038208 416.140442 508.252594
-417.164642 525.780273 647.037476
-619.784851 724.099976 525.420898
-585.845581 354.602081 479.237701
-581.195313 359.120697 478.653961
-653.285156 391.079437 436.769348
-586.785034 635.915039 507.713745
-678.627441 651.795715 423.484253
-410.733856 590.271057 662.772949
-563.446777 607.334473 534.243958
-548.476318 766.156189 551.580139
-539.643860 601.533386 554.451294
-455.872772 718.095703 622.596008
-499.506439 414.379425 572.226990
-622.567383 340.836029 460.313599
-678.856201 378.248444 417.163574
-576.752075 380.237946 484.692810
-367.801880 649.791565 700.524170
-586.392090 754.735779 538.246460
-630.419128 734.973022 464.732758
-495.638153 769.958191 609.420776
-514.622742 364.115784 532.946350
-682.204407 600.914673 358.232422
-709.607239 595.651794 409.856018
-504.375397 789.875977 605.844360
-611.174072 483.081055 467.388977
-705.105957 602.133850 412.151703
-434.376404 660.528137 641.932678
-401.746521 548.951843 652.064453
-628.226196 614.405640 487.449493
-423.808167 561.954407 650.089294
-646.324463 698.745605 453.095490
-551.290222 328.394684 531.781677
-577.297913 559.755859 503.174103
-380.481659 654.041809 678.415955
-520.394165 588.163452 563.042664
-494.602081 482.032532 566.240112
-598.979614 555.576477 503.048035
-548.408264 393.189545 517.868835
-363.637238 627.670471 680.431885
-403.963043 606.730225 651.713318
-560.832153 777.159546 553.553040
-540.772400 732.623901 570.014465
-415.019836 573.761780 655.917969
-636.767212 572.643982 451.270477
-643.746887 359.914032 441.556976
-418.361938 524.915771 630.297791
-727.842285 482.482635 387.463623
-534.304138 587.766602 541.436157
-495.176178 764.637939 602.532715
-562.168274 408.126617 502.630554
-388.166046 601.928772 661.700989
-555.807373 634.998901 548.904785
-600.961121 484.610535 476.583191
-620.260315 735.689270 509.509796
-565.172607 682.726868 530.296936
-546.050537 335.668518 508.007355
-500.002014 524.721497 571.078125
-632.381958 749.613342 504.349121
-386.320404 604.118103 676.188843
-565.654358 689.712769 529.525574
-364.025177 645.380432 686.391113
-508.690857 489.991455 574.975952
-608.082214 766.710632 545.581299
-614.223694 511.544586 473.303009
-670.861023 651.789185 449.123016
-405.354340 560.297974 654.578979
-462.566010 692.762390 626.780334
-638.130920 686.088562 432.946472
-576.000305 817.855164 560.896179
-674.794556 408.909576 389.808350
-576.179382 496.608826 513.996643
-537.431519 439.183105 525.227356
-648.842834 691.778992 442.941223
-583.398438 363.943176 493.158569
-461.493408 547.842834 610.742004
-592.602356 372.660736 460.079834
-416.464386 598.918457 640.880432
-633.846252 579.261597 456.025269
-623.518066 530.390625 476.942413
-594.642273 417.337097 476.387756
-635.488892 717.041687 469.012970
-636.395142 353.607330 446.573303
-511.232300 486.241333 552.829834
-479.701324 743.468567 611.238647
-592.353149 482.785706 505.081604
-391.406036 667.594543 663.153503
-419.119537 510.605194 645.045410
-379.237244 645.548645 686.096558
-613.622009 764.704773 493.215576
-496.131226 501.353546 573.703735
-621.855530 344.675690 440.502502
-644.965698 684.800598 462.033661
-448.013245 693.830688 638.832886
-441.461884 656.146118 645.397949
-644.199768 692.988831 397.547119
-602.713074 652.121765 504.909576
-675.098633 489.888306 413.398682
-701.505127 625.491638 398.237488
-580.278198 708.399658 533.611328
-514.538330 550.556580 572.838257
-496.277985 527.499512 564.345093
-547.386230 487.579590 513.154053
-643.830017 555.138184 436.997986
-466.233826 444.711914 603.256409
-639.789856 713.447327 453.975464
-511.117950 469.470581 533.664063
-580.013062 617.934265 520.085571
-496.634033 585.913391 582.736938
-559.577637 541.683044 525.700562
-480.249786 695.765625 612.261536
-544.988525 822.351868 591.548706
-578.495850 679.632935 523.795959
-371.953552 692.921448 681.136658
-432.855499 498.364990 632.377747
-466.802917 656.011658 607.358704
-691.875732 572.218628 429.604980
-565.649170 325.338196 486.970459
-378.180420 653.054443 665.177734
-501.087494 544.035217 575.479248
-636.119507 690.496094 433.324554
-437.089752 604.801331 626.930237
-492.334137 670.554871 598.062561
-606.651306 441.149567 488.632843
-589.907593 377.170502 449.778168
-507.099823 384.978668 543.238831
-669.862305 419.200684 412.088409
-703.773071 618.801575 386.306061
-438.646332 501.959106 616.415100
-462.130951 489.999268 614.798706
-438.011810 510.654572 614.390747
-466.731171 496.034912 591.845703
-408.444672 611.124939 638.341675
-681.187134 661.892273 453.830048
-474.837921 622.401001 615.067017
-706.054688 606.661804 391.721191
-457.781311 752.369934 636.705139
-631.695923 653.339478 478.573364
-445.297455 463.461884 615.564819
-651.809265 696.851807 434.370544
-637.297913 496.307800 446.104889
-498.593140 561.049622 578.883972
-654.618408 452.878479 442.612915
-637.648010 768.133911 532.205017
-494.648987 586.321960 582.890198
-525.523865 737.622803 570.402527
-443.996033 562.110352 624.584778
-520.922302 413.977081 554.465942
-458.271454 460.211243 584.574280
-526.782471 780.885559 577.769653
-594.348328 433.045105 479.792542
-572.302307 454.268036 515.582275
-533.198242 685.700928 565.902771
-427.765961 511.635223 623.228149
-547.952148 390.564941 501.041962
-617.013062 730.083313 428.842163
-642.075134 715.435486 437.318420
-407.269928 641.896240 671.161621
-476.161194 720.078369 622.643860
-497.109100 472.305420 566.462341
-389.737732 663.931213 664.225342
-1037.877319 653.382019 211.225311
-656.271362 514.140137 446.170624
-636.971680 674.447144 393.085815
-696.472046 613.376587 418.775391
-499.934174 725.049500 594.143005
-414.190125 522.238098 646.762573
-582.401428 373.022766 479.388977
-701.045898 609.337280 435.606964
-588.410461 794.800720 560.527283
-443.706421 557.017700 630.907043
-487.362488 540.495850 579.930237
-581.283386 470.858490 507.432678
-477.238647 514.891724 604.363342
-517.003540 375.073517 513.325378
-557.280884 494.535309 509.046600
-676.560791 524.925842 410.598572
-697.744324 389.073700 386.849823
-550.608582 645.671753 537.459961
-470.091919 719.973022 618.661987
-620.129578 742.383667 444.062439
-742.985657 481.829742 382.329193
-534.048523 443.242401 528.335205
-444.342346 675.101501 637.912048
-530.163879 551.888733 551.900085
-636.648499 684.078735 417.089783
-666.397095 656.394165 397.175598
-483.719788 738.534058 614.106018
-598.485962 558.623474 485.471313
-454.528168 669.683105 610.897461
-588.208191 583.001526 496.125549
-663.018005 675.270691 421.244598
-392.685455 600.086975 677.675720
-567.595764 302.136780 512.283081
-477.467133 736.034485 609.099487
-572.933899 574.844543 530.026001
-677.273560 470.627655 429.809753
-673.745422 534.360657 404.749115
-600.149841 552.409119 504.853516
-432.627258 734.777344 655.001404
-540.910217 493.334717 526.204102
-409.581116 656.483337 651.669006
-468.139404 571.597351 614.733276
-582.312927 328.107880 484.999237
-590.207092 338.202087 489.056824
-646.619873 397.332520 453.211792
-565.340027 363.829742 501.302979
-606.375305 613.562073 497.628998
-623.871033 764.352478 507.307343
-469.107819 754.595398 614.305664
-527.606384 783.815491 581.665222
-514.580139 445.145081 527.171326
-543.022766 442.885925 538.650330
-674.457336 425.991058 431.371704
-578.933105 284.015228 468.812225
-529.966064 426.343475 529.283203
-473.919617 590.474304 605.978943
-596.149292 593.622253 505.841156
-595.724121 739.090454 421.559540
-567.852844 669.955078 535.778442
-558.441589 519.086365 530.858948
-597.948792 390.372833 445.201233
-421.145050 483.103973 619.840149
-403.820038 600.610840 650.064331
-636.890808 776.294250 533.658508
-551.301270 413.025024 497.336548
-562.200745 610.940491 533.752197
-647.732422 700.747986 445.121826
-668.861023 581.793701 440.267731
-402.750793 571.947510 645.437439
-544.570313 676.489502 561.620361
-515.884277 449.178833 549.340515
-632.400818 455.651703 467.840820
-620.917053 518.123047 465.237610
-489.587982 487.195984 562.663513
-476.407288 660.957397 592.897522
-493.897827 505.841309 580.737366
-446.555023 504.745270 618.665710
-539.456970 538.787964 532.256531
-495.446381 418.189087 559.116455
-601.572998 350.390686 474.419769
-633.682190 524.011108 468.951660
-550.685974 435.727997 513.639709
-642.021057 673.692322 371.789185
-588.139771 526.875549 483.725739
-645.403687 595.893799 450.971191
-578.570435 563.753418 509.123840
-356.951965 661.649231 700.625488
-693.329407 616.858826 411.394287
-629.929382 792.123108 557.264832
-658.329712 641.252075 476.974701
-431.138580 615.204285 644.522766
-685.971802 527.466980 419.645813
-479.468323 449.558472 590.589539
-514.686768 670.304260 583.747070
-517.272278 803.687988 560.143005
-496.772003 563.144775 589.220764
-646.516052 391.966980 446.488556
-418.214874 534.131104 641.662659
-632.687622 740.975525 492.735840
-626.093567 519.504150 463.077942
-550.461853 751.931824 550.006653
-473.749268 480.576172 582.653320
-489.614685 706.827881 612.250916
-518.983948 617.789429 539.347046
-549.284607 564.584656 544.159302
-632.847534 356.314056 433.380768
-677.022583 371.401459 399.717896
-486.766571 469.373260 577.062683
-572.357849 490.096008 504.878265
-539.020325 573.762390 534.980591
-516.982605 449.219788 525.892822
-516.288208 381.631042 541.947815
-584.694275 305.554535 490.868622
-655.884033 673.110291 382.455872
-434.166046 713.864075 634.456055
-551.411743 663.278320 541.706726
-443.640839 708.269775 623.479980
-361.106110 623.111755 687.911621
-517.322388 833.454712 608.910950
-630.859192 774.135620 532.725037
-636.442322 654.567139 353.957428
-619.449829 390.290436 452.158508
-477.321686 571.276855 569.910767
-518.117249 438.747620 536.653992
-486.564911 718.783447 577.044373
-631.949341 369.731873 439.631134
-505.350250 402.284271 521.400146
-434.333771 743.295349 653.783386
-648.412109 594.561340 460.808960
-464.117981 432.614777 592.455505
-587.102173 472.940521 493.347565
-701.552612 409.920105 406.862335
-657.810486 679.230774 421.171173
-536.697876 451.041016 504.284180
-495.169952 621.097778 594.445068
-478.229401 631.022705 596.734558
-644.804993 510.873962 439.730896
-637.105713 672.253662 496.778107
-525.469788 676.687683 541.684998
-524.973450 596.817810 566.476563
-532.206970 650.831909 564.309143
-526.335144 642.340088 558.441833
-575.221924 399.378845 466.905212
-643.819702 710.238770 437.603241
-559.419617 665.101318 535.298584
-624.341553 329.670715 444.879913
-622.007141 405.033112 473.576874
-459.754578 696.710327 625.602051
-472.628479 483.219849 605.507446
-626.742981 346.726196 446.609375
-530.359253 344.005280 543.084534
-587.255676 747.221863 533.011597
-436.379730 665.305237 643.776001
-473.197083 683.565979 618.120605
-655.611267 692.858459 399.837982
-501.809875 420.387360 551.903992
-628.527161 690.445740 472.716156
-513.731812 625.221069 577.631714
-537.264099 332.733612 542.314941
-560.637939 759.028015 559.018250
-581.261108 604.172241 518.669067
-544.785217 747.961182 567.662231
-519.073669 712.078369 577.096802
-611.382324 401.049347 460.180725
-652.954163 390.852448 406.716919
-408.221436 668.942749 654.403809
-509.171906 398.897186 568.825134
-554.307556 669.120056 538.838745
-434.410248 715.115784 641.920715
-401.720032 521.086914 634.626099
-619.830750 582.899719 469.781708
-514.035034 676.942261 585.376343
-555.029236 766.182434 551.050476
-563.507507 453.962921 508.138153
-402.183533 663.624817 667.011597
-364.745148 617.420288 700.017334
-671.393433 463.120728 399.223358
-503.919250 603.615479 567.178406
-662.179626 667.402283 386.424377
-586.535889 593.524353 510.721100
-529.856323 446.836975 532.485046
-409.330017 554.125183 637.301453
-526.883118 627.232971 567.485352
-424.361206 569.471558 633.843506
-490.821198 779.459106 599.115051
-437.695038 742.733765 642.257385
-479.117554 556.128052 602.856628
-472.037079 512.074768 588.661438
-515.919922 666.207397 585.273132
-632.647888 725.625916 495.438812
-633.113037 763.039490 498.849274
-624.637634 695.158081 397.408203
-415.051849 571.554871 640.630615
-504.675903 746.351929 591.445862
-753.610901 564.846313 420.657623
-452.328735 652.310486 619.012878
-514.279358 624.654297 580.367859
-497.018433 442.152557 565.951782
-449.822327 743.387573 622.432861
-559.470154 357.314026 516.987488
-430.780304 576.892822 630.721802
-533.497742 462.389160 534.993469
-449.851532 721.943054 632.697266
-625.294800 722.234863 509.088409
-629.781738 320.017456 449.327637
-598.841980 388.586884 477.972626
-374.045532 649.493835 681.504883
-537.622009 748.127502 540.548767
-646.853088 393.510223 425.669495
-572.059387 648.390625 511.416077
-539.297363 419.893402 540.523682
-426.928070 652.419739 641.127014
-594.576904 498.976929 489.612518
-395.866547 556.077393 663.614075
-466.352936 468.242065 592.110840
-598.290405 750.855225 439.919067
-696.353210 624.502441 406.135406
-547.652710 560.731567 531.656494
-725.281860 425.839172 386.364746
-515.136658 415.405914 553.736450
-612.404602 367.200256 457.172516
-517.852478 431.773285 535.473816
-643.470886 400.668335 437.103088
-607.403259 637.379517 507.459076
-488.490356 544.981873 584.121216
-631.976318 759.493530 519.306091
-359.042542 634.853943 706.177063
-445.495270 549.013550 632.357483
-587.536194 594.465149 505.515656
-609.092590 657.202148 501.103638
-636.621338 794.501038 571.196289
-600.870972 613.414307 482.737061
-513.832092 428.800629 525.181519
-621.945740 364.406769 451.944702
-664.000793 483.120239 419.887726
-439.844666 669.912842 610.298950
-376.519958 596.610291 688.188416
-492.386810 532.498718 580.893921
-490.695801 667.303833 607.177429
-697.009888 457.193298 393.802277
-475.016083 657.728271 597.960876
-364.119385 650.880798 707.759033
-518.097290 370.179260 531.563538
-647.736023 754.508362 511.095764
-449.122955 725.057556 642.526794
-694.377319 614.197937 389.413330
-510.374420 677.212769 578.578430
-610.028442 636.572876 470.933411
-351.960327 632.731873 698.347107
-598.140015 487.264984 473.300903
-471.930054 533.889404 592.868408
-553.403992 509.771545 535.566040
-515.729248 777.527649 585.880249
-658.641907 675.217224 386.677216
-512.793945 378.326904 543.894531
-578.808350 650.424316 516.053101
-630.455872 714.338623 412.606384
-607.766052 643.647522 500.361542
-387.937225 683.512085 689.061035
-686.980774 427.395935 381.306061
-684.840393 592.043884 447.124146
-638.626465 716.820313 441.733978
-508.221252 441.721161 571.743042
-738.450806 590.442810 409.346954
-647.900330 710.557190 489.074951
-676.754211 660.125671 444.479797
-358.813263 609.386536 676.370239
-564.977722 576.314941 531.320618
-584.452576 416.021973 498.128296
-460.237640 470.645081 562.955627
-518.846802 449.492828 559.911926
-627.317139 571.270874 461.769470
-663.239380 625.987305 472.352936
-510.616577 476.443817 551.208435
-654.885010 648.837585 462.958679
-455.734436 548.414673 602.275085
-605.777466 454.778473 457.343964
-544.663147 438.004364 540.815125
-527.106079 685.683960 566.536255
-688.371338 456.851471 395.756287
-639.502014 763.033569 529.220642
-641.892761 680.587646 480.983124
-554.126587 347.575287 476.174225
-589.420227 577.999756 511.330963
-651.989380 452.766327 429.306122
-632.229065 736.406616 464.497192
-404.310455 685.423035 663.503845
-451.015808 549.692383 582.773560
-536.967651 614.097900 543.146301
-601.550415 306.626740 451.247833
-404.796021 585.279785 660.259460
-464.804230 738.771362 626.869568
-635.786560 694.375549 407.718201
-528.317261 400.195221 552.441406
-483.087311 472.759979 582.427551
-459.449890 654.010376 614.022400
-638.565369 763.948120 511.720276
-649.921204 701.060425 403.927612
-642.041809 655.518494 484.276276
-641.925537 795.743958 554.242554
-473.458954 630.755554 611.440796
-532.530273 422.038483 520.005066
-651.695435 408.671295 427.658234
-434.152191 588.052673 613.716370
-739.050293 579.290527 402.973907
-651.861389 463.086182 451.893463
-594.955444 561.687073 503.956696
-540.845215 792.004883 575.708374
-456.158508 481.910828 600.159180
-614.912292 559.027161 475.579559
-585.833862 629.393555 517.074768
-774.437073 517.897888 402.595337
-354.762451 654.472595 715.353027
-418.860779 525.287476 615.241760
-471.840302 678.965210 612.962280
-517.314758 593.730652 560.473022
-571.113403 445.467010 489.589874
-571.556519 698.351013 518.588684
-594.951172 646.736755 511.434418
-619.440063 402.995911 475.909668
-629.487427 785.397156 544.377686
-509.987701 554.803833 568.660034
-445.814362 449.735077 598.707581
-576.520691 520.009644 500.917664
-634.963623 593.210388 472.777649
-670.401123 538.086609 443.771729
-401.219727 691.441284 671.495789
-668.775391 646.279602 416.846344
-609.480896 477.570923 488.405212
-475.711029 636.519226 599.393005
-453.993744 662.723328 619.037903
-587.139954 512.581299 490.613373
-521.526245 783.190308 581.290161
-573.057373 282.305206 498.638031
-513.835876 581.120911 577.484375
-457.492065 690.428284 619.543579
-669.504089 531.423584 439.300934
-500.525635 646.297302 554.500977
-503.004639 576.058594 565.651245
-553.854065 541.979431 516.762695
-557.354431 459.152649 531.105408
-511.785309 666.178833 585.549133
-561.482788 483.470947 492.592621
-733.668518 565.708191 422.520020
-559.098572 435.363373 523.904968
-525.733887 344.108673 529.546021
-512.568420 412.600922 523.255249
-516.394348 407.974182 551.701538
-460.909302 611.297729 614.870178
-644.465332 438.097015 435.107056
-437.968018 602.363525 632.629395
-684.396240 395.549438 412.488373
-720.825439 442.079590 383.645325
-712.042664 595.955627 402.539917
-591.712708 299.095764 491.480347
-459.012634 711.317932 610.380615
-621.995789 618.482422 484.058685
-666.998352 666.470215 472.886475
-561.482056 462.096436 513.141174
-471.513794 601.295898 605.548645
-652.910889 569.430420 454.798798
-511.597565 510.392426 561.992554
-597.856018 748.632385 435.306000
-600.530762 490.976135 492.149475
-549.244873 793.462830 559.308105
-562.890686 351.259186 517.621094
-658.580872 704.680359 471.684601
-663.063782 607.067566 457.673584
-611.336182 585.551758 493.368683
-567.522888 330.563141 507.993958
-637.971313 537.924438 451.712891
-487.072876 523.031006 583.771667
-591.832336 611.512085 515.500977
-420.608795 614.648560 646.518066
-540.574158 547.959167 554.436279
-525.664734 812.754883 593.894592
-520.744812 517.627319 522.804077
-525.832397 791.690613 559.970886
-387.604828 615.838562 661.820679
-980.881775 657.999390 201.728180
-376.684082 652.856445 691.967529
-537.928101 349.807037 515.884644
-649.537170 550.640381 430.652832
-424.338348 547.955750 625.516296
-356.708038 644.539001 704.245117
-484.307648 458.871857 577.184204
-489.789978 583.588135 590.131897
-492.345490 523.072937 578.901245
-476.028137 483.424744 589.790955
-460.487946 488.606171 596.615784
-625.920776 753.640137 501.547516
-643.524841 347.400635 443.463165
-490.421051 608.250061 578.552368
-599.577942 684.150391 508.291656
-483.637421 759.345703 618.998657
-541.932922 442.947723 525.605347
-542.543701 684.967468 559.481506
-507.684143 568.093689 561.458679
-466.002045 474.925446 593.756348
-391.670563 559.838196 668.500671
-693.073608 629.276062 425.267059
-445.011719 726.912476 624.474060
-529.507019 756.642273 568.760498
-670.687805 647.594421 467.736115
-511.305298 483.739410 572.992371
-549.314819 425.445557 531.151855
-657.869080 423.488434 409.006042
-376.104004 643.823669 681.210144
-616.696777 753.071411 458.929077
-724.103943 422.095154 366.300537
-484.041901 519.190552 589.773926
-656.180359 378.107605 425.239258
-420.113342 661.237000 662.694214
-743.802063 578.366211 410.088074
-646.019165 452.847015 434.620575
-614.598633 459.292206 452.535858
-452.281586 503.727142 624.481812
-453.607849 654.876221 633.584717
-629.139648 557.121094 450.615417
-529.593018 675.552612 549.556763
-502.992981 542.932434 546.603638
-475.379852 539.278870 606.524902
-499.719818 404.640411 532.787537
-638.996155 780.036987 526.360596
-374.437683 654.611145 670.946228
-631.875488 437.201324 444.450867
-554.897766 675.244141 552.714722
-670.848145 394.582123 420.917816
-631.164673 741.122559 491.768341
-676.794067 390.309204 410.072266
-498.667664 374.100281 563.122009
-628.050293 479.075104 452.395599
-616.542603 402.456055 456.565918
-662.998108 447.316284 405.614655
-708.068542 598.459839 426.567474
-624.164490 687.864807 499.927917
-558.182312 514.559448 514.854614
-505.321136 684.471313 582.687927
-646.848022 347.283600 440.364716
-581.727722 674.806152 527.274414
-471.084045 513.473328 593.943359
-489.077911 553.821289 575.445557
-512.955200 690.464539 578.834534
-623.803406 732.723938 461.191772
-615.072266 397.768524 465.928619
-387.239655 633.044495 677.903259
-600.060852 499.473816 496.479645
-628.302856 759.575012 481.554779
-484.296509 445.334625 593.031128
-521.840515 556.078308 547.585144
-609.477966 552.373352 493.382935
-579.777039 537.941345 505.083221
-750.915405 499.921173 386.229126
-599.696533 543.599854 491.530792
-419.135651 637.918274 661.354187
-601.321716 633.818787 495.752563
-619.755920 782.238770 541.048767
-561.963806 579.898621 524.879944
-458.424622 640.772339 624.838745
-516.773621 735.994263 578.003235
-686.774597 637.617859 430.615753
-703.595093 592.509521 387.993744
-544.333679 676.103027 549.067871
-365.819153 668.804260 693.852661
-463.069122 450.301392 589.329163
-675.769287 471.366180 409.995850
-687.994446 624.388977 402.296051
-631.988220 511.354584 467.504852
-478.800446 726.982178 617.571045
-650.720154 661.980774 408.237732
-489.048615 722.719727 606.425964
-641.978394 574.133972 470.132996
-676.277039 657.126770 460.299896
-646.464844 354.280823 428.913666
-631.437378 700.313293 490.426056
-606.309998 366.729706 469.334595
-422.307617 674.325806 617.564392
-650.664673 569.290527 440.411774
-548.431824 411.579865 516.079285
-573.684387 332.981323 469.119232
-396.007294 635.845337 663.741821
-562.132690 420.382416 504.782867
-638.469604 705.559143 429.815094
-619.475586 564.242310 485.286896
-589.484497 709.361450 515.914612
-588.053955 531.216614 488.118347
-395.043701 704.328186 681.974609
-484.577118 692.900085 594.581848
-489.114655 403.377228 558.418701
-638.816467 762.552551 523.215027
-510.398682 469.475586 550.041626
-621.309998 752.207825 467.301483
-515.975220 410.785217 564.940369
-552.937073 603.523987 510.351257
-618.894165 760.582947 484.625610
-415.909180 734.000000 666.912537
-600.980774 407.693909 468.878265
-403.333405 582.685730 640.078064
-628.438599 719.749939 486.017426
-531.710510 654.527283 565.621704
-446.929932 488.864563 620.184570
-586.785583 500.496704 496.844421
-628.857178 450.179932 455.003479
-402.305145 719.738220 654.829468
-565.376099 676.158813 541.190308
-395.693420 665.467896 659.367004
-475.807678 508.943939 585.001587
-685.826538 438.054199 422.409332
-583.006165 694.593384 522.502625
-534.948914 514.102905 535.113647
-569.264099 576.670166 515.218018
-588.376160 618.771362 496.175537
-382.592468 601.066772 666.105591
-587.537170 677.701965 518.659851
-488.562805 592.606873 579.047363
-595.216003 285.435577 493.827759
-413.428955 589.271484 642.389282
-655.152039 501.608734 446.016541
-619.090088 680.427551 501.297150
-575.074402 368.887054 461.070160
-686.940857 581.144104 431.235413
-631.465454 714.171936 478.129120
-578.401184 599.914368 507.717285
-596.000366 451.104004 478.384613
-645.199341 675.905090 393.807281
-602.410095 778.983521 522.204224
-681.138367 641.875000 397.037354
-557.015442 690.900574 539.051025
-475.129333 448.562225 585.591492
-600.970154 288.519257 466.061951
-571.514893 751.262573 548.235718
-474.901184 595.585938 597.057495
-427.481537 581.008179 631.373535
-521.999268 543.669983 551.532715
-581.896667 513.907715 513.888794
-486.742218 719.651245 614.887512
-727.338745 560.109497 419.282043
-479.829926 595.499451 605.505432
-622.873108 715.543030 497.640106
-629.042480 569.834412 460.157288
-674.511597 396.464081 425.239441
-507.738251 616.601685 584.786804
-483.975342 396.037994 567.801270
-617.368835 585.342773 488.377472
-535.336670 678.614075 557.045715
-493.003296 389.914520 553.188538
-612.878784 632.792114 478.947662
-694.440491 620.781921 405.024719
-542.241272 711.698730 556.764221
-501.992554 387.661957 520.267212
-589.459534 378.352966 474.840820
-568.370300 497.025391 511.141235
-568.904907 708.794067 529.536743
-685.046143 616.123352 398.437225
-536.824219 576.516296 555.070129
-588.420593 429.153809 498.142090
-397.521912 634.534668 651.987549
-548.941284 606.040283 534.704956
-549.933411 372.169891 513.991089
-534.009949 569.144348 546.520142
-627.080322 710.310608 437.952881
-597.021729 497.635223 480.355072
-413.182495 554.779907 640.700562
-633.130615 696.120911 389.603302
-393.517731 552.531250 665.767578
-423.102875 530.169983 635.546448
-605.487488 594.314880 484.683624
-578.324158 447.129028 509.577209
-485.440887 714.727539 601.053284
-458.027374 530.117859 602.399719
-548.465332 345.274780 533.630005
-615.655273 436.645691 449.330505
-610.971069 811.963867 563.993286
-511.468750 500.925629 574.251404
-683.090332 643.177002 385.389771
-637.395569 558.764221 467.807648
-559.528259 491.935791 516.956909
-633.928955 476.080597 435.868988
-483.114410 578.364380 592.389221
-426.852020 516.384705 621.741394
-608.500488 541.607056 474.971832
-426.275024 563.126587 640.091431
-605.755371 392.416565 480.991089
-440.500763 666.221985 630.553101
-594.015747 543.885742 509.617737
-513.504761 602.285828 565.599548
-636.383728 674.008850 459.677490
-641.404846 709.740540 419.241119
-689.628906 374.311005 411.651947
-614.243103 344.736847 447.255890
-540.715271 577.771301 539.977966
-561.947632 679.352661 541.845642
-489.114410 613.183960 599.050720
-544.925964 332.808868 508.731232
-684.988342 630.106140 434.904785
-616.131165 440.234009 461.983276
-472.963745 522.766968 590.776184
-387.541199 572.151611 670.676086
-610.071533 507.836456 462.793640
-549.585388 363.318024 507.698181
-627.072876 698.798218 453.799622
-486.100586 735.157715 611.181396
-475.442169 437.490662 572.808350
-597.812683 596.998962 508.842377
-693.242188 613.063721 438.557434
-640.180725 348.314545 434.458405
-547.324463 450.519135 525.106689
-448.750336 515.189819 615.858765
-634.398682 446.855011 467.692200
-421.578033 606.017212 638.495117
-649.376343 435.438782 430.508667
-630.929443 549.422607 474.825989
-402.583221 583.950073 662.194885
-473.799500 635.977417 617.328674
-616.752747 348.299500 466.668701
-639.030640 420.686829 447.251526
-492.657196 676.441223 596.089172
-441.278320 546.279541 598.950989
-586.075012 316.588806 472.517578
-646.088623 395.503632 413.099091
-540.578003 767.372192 560.830017
-576.440247 535.070435 517.405334
-635.676147 610.480286 456.996765
-573.106506 317.752930 483.498444
-443.623016 731.350830 643.624756
-551.627991 735.685242 539.556885
-630.016113 732.905945 454.316833
-532.145935 493.903961 538.623657
-512.467041 430.224365 557.755798
-459.542877 611.853882 610.271912
-504.089874 505.876556 543.436157
-634.893494 460.141296 422.605469
-514.937073 640.006958 545.612061
-405.092377 624.169861 648.800903
-474.633057 439.566895 576.592346
-470.291565 532.835388 599.621887
-604.467163 705.225830 521.534363
-676.578857 422.868011 403.945038
-614.281677 729.127258 434.826599
-421.646759 575.343445 641.685547
-439.802917 594.451721 630.482361
-630.147156 740.758850 482.428131
-662.223328 547.097778 428.003265
-396.366760 638.791626 662.745544
-451.149597 468.247040 621.078491
-505.986572 614.042725 580.944458
-401.160767 664.075317 672.782715
-671.778137 638.194275 380.830414
-480.793091 476.272491 567.113403
-534.082336 374.316498 498.558563
-480.792603 698.952576 613.614685
-690.193054 452.547577 397.085327
-474.764648 740.438599 613.345947
-639.179810 690.104675 389.800842
-679.021973 632.976196 426.395813
-633.893738 750.690430 496.904846
-574.988098 666.224182 532.302307
-688.569153 634.655029 412.913757
-448.303650 719.861572 628.806824
-510.448151 577.195251 579.638672
-619.903687 752.776062 480.178253
-451.288544 696.242859 633.318481
-462.545715 530.940063 614.835144
-672.742004 496.531830 412.294037
-515.875977 372.478516 536.773132
-693.418945 625.085327 418.060181
-611.792358 447.753510 454.021545
-534.541504 720.160950 549.624634
-455.680481 717.901367 615.598938
-514.311340 494.370605 570.554382
-396.392273 580.781555 666.083313
-769.822266 522.353394 400.128479
-518.326111 825.281860 592.397461
-497.478149 512.035706 585.213562
-461.090759 601.020874 589.362427
-342.493561 641.453369 721.957581
-464.840210 518.712769 596.790894
-662.611206 640.377869 429.141754
-554.823364 421.570007 526.574646
-567.677429 749.711121 545.543884
-401.855164 644.731445 671.360229
-501.567169 623.078613 590.222168
-457.599792 527.225098 575.212585
-587.045532 784.619019 560.068481
-540.126343 650.073425 561.423096
-676.469666 512.557922 427.228210
-694.889526 400.510406 385.661621
-527.750000 794.917358 556.689270
-628.384460 710.280945 456.434662
-431.206024 667.318115 610.301025
-597.552490 597.844604 490.941956
-387.610382 642.176636 684.553040
-679.904419 372.627899 394.975891
-557.314331 588.164307 529.347168
-594.354736 551.554993 488.678314
-578.547241 316.200806 497.176117
-598.367249 569.832458 484.987305
-571.907349 549.031738 508.394379
-457.874542 540.916626 617.971375
-648.075684 393.195068 433.321503
-685.385132 432.033936 412.589508
-552.849243 552.321411 523.773926
-443.147675 540.350647 614.851196
-680.413757 536.035461 425.099670
-420.141388 558.020874 640.155334
-480.102600 638.258484 608.434021
-568.769226 592.703552 521.611633
-678.883118 583.206726 425.364471
-658.580017 679.578613 406.078125
-569.811401 479.719482 519.980896
-436.761017 668.608215 633.768372
-647.227417 550.249573 449.473602
-474.955353 796.577698 626.229492
-660.997314 663.813110 436.675995
-549.938110 533.863708 523.857178
-641.812073 754.552551 518.882751
-646.545288 758.362061 504.746460
-550.972473 308.425049 495.101227
-584.014038 609.132690 504.124420
-685.831482 616.490112 444.867920
-613.933655 480.407135 453.741364
-456.927734 698.210571 635.609192
-497.334625 579.255127 576.663818
-531.713684 751.057434 568.220093
-512.723694 463.970459 553.564819
-444.314209 691.330444 613.689026
-600.273987 427.553223 471.423828
-517.691772 448.351837 542.996460
-581.703552 662.098083 523.542969
-569.598145 584.970276 514.347717
-525.797241 794.525879 580.215942
-653.397949 673.696777 454.940094
-385.978333 642.413757 684.619141
-422.933441 533.450684 642.810608
-509.488220 764.196045 585.204529
-528.092041 658.778992 557.647888
-566.834595 385.644409 513.624878
-663.642151 695.256592 457.154694
-554.461853 326.112152 485.441589
-574.324951 644.098938 509.177429
-479.406830 424.651550 553.631470
-764.591858 450.945007 360.919861
-410.646088 675.275452 655.575806
-635.479614 720.402527 493.519379
-563.695374 673.788391 519.636597
-599.928711 431.320343 473.749695
-524.506775 543.894226 555.796936
-399.742157 548.850586 652.144287
-629.773499 719.966248 417.663910
-631.929688 766.195740 507.976563
-451.298248 639.899536 632.824219
-513.697388 441.682037 567.001709
-452.914490 510.756775 624.969543
-696.454346 506.074615 395.277161
-412.571075 595.349487 644.050415
-757.984741 548.518066 409.029236
-783.579956 477.013428 373.968384
-490.998932 411.988251 561.292542
-706.127991 618.789124 407.354523
-646.015137 347.873413 423.576538
-637.082947 500.382446 467.740814
-470.095093 689.143372 606.830078
-545.317200 345.669617 509.735077
-604.117249 543.705688 495.019836
-367.145935 675.313660 681.762878
-564.389771 713.842957 542.920166
-510.894867 529.128906 552.143616
-575.669067 600.855042 516.749573
-401.175751 543.280884 663.338257
-546.187500 532.131958 533.886841
-625.730286 685.641479 473.594727
-512.894531 749.332520 587.402161
-584.992004 398.770142 503.642090
-437.663391 525.866150 629.261780
-486.886841 448.059967 568.164490
-526.773438 372.248169 525.267334
-564.360901 746.780518 540.241760
-542.998718 416.357361 537.096252
-455.901459 629.274963 607.071655
-475.050598 729.852661 616.774475
-643.372131 613.469299 468.961365
-495.913879 754.318115 598.385193
-466.746094 665.359619 608.972046
-543.498596 670.817444 537.587830
-554.929626 446.212830 518.355286
-579.612244 497.561646 495.689728
-573.057251 569.058228 511.062836
-621.312073 453.467926 471.532623
-526.502808 511.799805 559.687378
-660.520325 666.648865 380.965271
-628.344910 778.020020 510.476776
-600.565491 431.457794 478.201691
-610.738831 310.492737 441.199097
-423.452972 695.998779 649.739868
-652.879456 423.867798 450.678741
-623.819336 749.463196 476.811554
-636.653625 713.934692 433.118927
-578.151428 366.641785 501.116699
-648.013062 675.649902 449.741547
-617.976868 391.449646 452.744202
-574.412415 499.687103 482.295532
-766.681824 468.419312 369.310699
-614.717041 451.492493 461.991882
-593.771179 387.944702 473.307129
-574.460449 596.888245 513.255005
-528.175659 763.886658 571.556030
-540.410217 469.940735 528.380005
-671.242371 408.651855 414.948456
-560.898987 717.026550 545.744629
-692.315369 502.080444 398.001282
-675.953369 379.299591 408.155518
-671.707825 656.372192 425.765594
-586.867188 347.596313 488.528687
-626.490845 810.446350 584.357239
-532.116272 474.479736 535.742004
-576.233826 493.821106 498.170288
-434.789917 632.410522 638.803467
-524.473999 688.703979 573.492493
-578.635742 454.429596 510.091248
-577.350403 600.973999 509.379303
-440.613770 549.852539 618.144653
-559.534668 307.644226 514.231812
-382.672241 687.609924 688.800598
-675.724487 520.710449 429.048370
-449.898224 720.845886 635.927124
-378.771576 645.984802 680.795898
-596.309753 479.310272 501.415009
-558.585266 631.395020 529.521667
-497.583588 668.300293 584.488953
-492.182983 658.355835 562.584778
-566.769531 503.713409 507.942657
-693.858276 608.470642 373.173798
-405.066986 700.145874 669.613708
-623.044922 421.867432 440.948547
-581.402954 427.045319 508.712280
-513.667114 803.974121 619.162109
-485.930542 589.045776 600.246155
-405.057556 662.986267 653.297852
-729.862732 580.775879 400.448273
-363.704041 649.102417 703.917786
-421.890045 677.857300 653.470947
-559.417664 453.970001 526.310730
-566.908936 560.383240 531.285095
-565.842651 469.856995 520.158508
-573.026733 749.270569 534.251953
-441.198120 613.278748 603.785095
-568.504822 434.545319 473.826172
-549.571228 561.893738 508.428375
-512.655945 805.626831 591.757141
-384.654419 615.109619 679.605652
-672.925720 641.629456 389.398163
-604.211792 539.528015 483.127533
-636.236572 724.851746 482.197052
-547.382324 400.240997 515.252563
-371.517487 582.012939 664.240540
-575.248840 573.672668 506.670471
-578.351135 535.183899 501.046661
-422.940308 536.724976 637.241577
-548.602783 354.970612 511.718414
-549.799377 438.216217 518.323669
-639.573181 700.254211 454.199921
-498.855377 662.419983 579.878479
-506.250671 572.093262 545.407288
-585.881897 440.138733 485.905853
-551.709961 565.322693 533.330261
-629.333862 739.364563 476.633942
-639.746338 595.574829 464.626862
-673.533813 490.128998 421.223541
-504.007568 640.778564 578.156006
-661.023804 665.431458 392.593048
-633.519043 730.510132 488.004089
-448.105652 615.047302 631.473633
-449.796906 509.779419 613.393982
-613.642273 620.878418 491.712219
-550.159058 528.409424 525.099854
-422.939301 550.051941 638.450562
-545.013733 654.971863 544.862671
-541.703491 683.058655 545.937927
-459.434937 667.322815 627.363586
-666.277039 641.245544 402.438782
-663.313293 471.252441 419.824677
-682.563110 499.074219 429.835419
-601.374207 555.154785 479.658234
-704.328369 409.158478 388.469147
-410.994843 689.255798 657.277222
-484.141144 627.874207 596.257080
-637.400208 405.404419 438.472229
-515.978394 367.253632 542.131714
-636.631653 489.013092 446.698059
-377.328552 687.583679 651.877563
-543.188782 360.477753 510.692474
-512.265564 722.884155 587.095215
-557.811157 367.769623 502.356384
-451.782837 502.824036 616.012573
-454.543610 603.515930 609.817627
-623.128723 751.587646 498.425964
-471.001404 791.585999 628.253723
-486.887939 602.966675 587.622314
-536.677246 551.120361 557.725525
-575.180969 377.383392 486.834534
-752.538208 511.585449 384.269745
-553.931030 519.792542 521.319580
-586.811218 254.325317 494.633728
