ply
format ascii 1.0
element vertex 1424
property float x
property float y
property float z
end_header
771.453064 294.861023 -350.853577
971.196472 421.994476 -58.381481
798.359253 516.216553 -76.498779
818.594543 252.036469 -334.626312
995.673767 333.540955 -186.909698
777.614319 541.195496 -50.735283
820.895569 261.117065 -312.566406
716.436218 339.584717 -346.035828
960.460205 264.133331 -239.438416
1006.615662 438.267853 -9.733174
755.917603 340.934937 -299.669830
978.790894 260.500397 -153.654236
827.127197 542.524109 -36.929218
766.306702 306.980560 -306.780060
752.592346 498.896881 -112.334335
1063.683350 427.105316 -19.037819
769.572754 297.109589 -326.333130
738.522339 352.900909 -296.406403
861.603027 543.995239 19.054764
868.860352 488.938629 -50.778912
846.062134 370.192474 -195.896973
756.863159 509.458466 -125.531097
773.963013 497.159729 -112.802521
860.183044 400.943268 -160.194229
717.872742 493.473389 -151.605881
737.559021 306.579346 -359.779205
811.545776 510.138031 -59.116554
761.010010 308.006805 -327.438690
909.275330 457.683472 -48.862850
938.391907 417.107788 -56.782894
750.537964 438.352539 -199.932663
737.718201 467.269073 -179.772995
864.635620 533.426086 -1.100885
762.717407 267.888947 -384.929810
822.556946 543.376343 -29.527407
865.593079 574.649658 43.110153
907.572388 401.051758 -144.858917
710.782104 376.420227 -252.292740
745.101624 429.224091 -196.370300
739.929871 282.419647 -381.545654
926.312683 310.233704 -235.517227
886.982849 419.801300 -119.761696
992.482666 257.403442 -144.828598
623.531921 397.280853 -322.392212
742.466553 513.279480 -106.287743
887.018311 363.539673 -196.317719
834.853088 416.434937 -155.175919
895.166199 382.540741 -168.201599
825.984070 597.452393 55.269169
673.969666 435.040466 -242.569931
733.148621 389.331299 -271.506470
648.540466 381.071869 -315.003174
836.071655 604.954285 33.054413
886.060486 515.835693 21.451029
898.418762 335.016571 -220.414841
851.540771 443.706818 -130.459991
836.145691 362.197052 -211.779953
935.679565 257.544830 -325.298553
695.761047 451.042725 -205.539627
786.512878 350.475189 -276.362732
769.096436 447.794861 -161.300766
858.057129 366.689545 -188.189636
1008.214294 318.462738 -154.775116
1027.700928 435.055023 -9.593784
840.302124 552.829956 21.441040
743.556152 411.948608 -184.912170
846.232239 538.640198 -28.708294
684.017395 337.502411 -346.585144
758.240234 264.643860 -366.467926
750.257935 298.606079 -325.037720
920.663818 544.450928 35.825417
786.734680 438.002716 -183.187454
685.197449 443.786621 -241.518585
864.839478 447.760040 -107.495964
762.263489 353.379547 -270.703735
975.408447 249.951538 -142.117264
901.100891 479.686157 -33.559723
659.858948 373.655640 -310.072968
909.017212 389.749329 -137.169266
878.498596 506.494293 -39.705688
811.618225 531.343811 -33.965641
751.007202 421.102539 -201.492599
784.108887 422.512482 -177.437775
1047.645996 409.037323 -66.852654
879.389465 421.468903 -122.856155
967.096924 467.226532 -6.959768
770.750916 307.484680 -315.633026
863.461792 562.161438 27.071344
913.240967 451.096985 -79.040222
790.402527 555.280334 -43.965614
803.645752 487.124054 -69.035919
917.056335 352.716248 -170.607071
937.043030 414.936768 -93.391953
908.368713 439.004578 -83.777412
646.672302 394.930847 -324.082733
795.116943 343.633301 -277.864380
801.336304 267.659210 -338.837708
991.990295 280.558014 -173.142075
807.962463 337.803040 -283.841309
894.753113 438.308258 -83.258133
770.282349 288.489380 -363.381287
791.268066 522.749329 -51.193516
714.853088 368.721436 -307.072968
1055.773438 367.795685 -98.526947
962.481445 312.760040 -225.651245
728.945313 474.162140 -158.084686
948.270142 462.724640 -40.809830
961.136902 476.061584 -6.431339
721.157898 404.505707 -210.123840
801.649902 556.029175 5.640193
1046.824341 353.117310 -134.585297
783.140442 576.514587 -22.428082
927.201782 520.725586 14.078488
985.210449 402.356415 -89.161095
885.178040 267.927917 -311.538177
858.724182 509.780426 -42.962280
827.784546 493.791748 -63.681843
909.037903 281.709534 -275.069855
1042.586304 336.896393 -124.167282
806.729187 271.832306 -312.544861
697.624817 446.177582 -210.003174
782.040649 516.414368 -91.063004
663.352417 420.770447 -293.700989
863.260742 551.199158 18.205282
958.298035 468.304657 -36.808811
688.776672 311.078583 -358.461243
694.963196 421.153351 -240.769028
765.101379 499.323425 -111.865433
1075.239258 381.001099 -127.084831
781.541809 338.837067 -275.137543
912.178711 404.614288 -130.993454
676.360962 404.458710 -295.260040
942.699402 442.355652 -58.516571
838.256714 581.884583 23.412062
813.601013 425.772888 -162.521286
999.353516 312.184113 -176.126709
799.667847 399.285309 -192.824799
833.953308 410.513306 -185.557739
925.341125 511.859924 13.311789
826.182434 401.177002 -181.498032
680.072876 448.971985 -217.879974
918.500916 537.834656 28.316204
817.940979 367.719635 -217.909698
894.020142 297.276306 -233.115936
717.365356 337.144318 -346.427032
933.186096 281.208862 -302.584778
821.509888 380.737762 -198.424713
871.920654 287.414764 -290.779877
842.135559 431.313782 -150.803787
900.399109 440.839325 -81.801521
756.615234 425.073242 -219.896255
867.903198 354.821228 -205.466232
789.069397 358.998993 -274.985748
968.637939 452.546509 1.216915
772.189209 444.608459 -187.991302
802.213745 469.843750 -124.052643
983.475708 308.615784 -176.995285
997.794434 476.336121 6.593897
833.021118 443.242310 -120.127457
886.633301 455.972595 -81.777649
803.255066 349.508240 -241.185425
852.995056 542.141235 44.684525
897.003906 284.434509 -264.238098
895.846436 349.910919 -191.089478
978.230164 251.191193 -134.227615
706.313599 326.703552 -356.503662
937.617798 268.988220 -284.767944
802.826233 450.944122 -144.754623
911.420349 429.632629 -104.158455
928.059753 460.512482 -50.215309
836.660706 461.180542 -104.820587
832.954956 310.224792 -289.250549
725.130249 383.554718 -279.090210
800.782654 554.880188 -23.258593
832.018066 471.850311 -112.838020
787.423096 403.118042 -206.068832
888.365723 505.322693 -40.281380
1042.684937 456.044220 15.336690
822.985352 415.109222 -180.049789
734.677979 519.615540 -119.775406
966.984314 261.678253 -200.497543
650.260437 353.248138 -355.526581
793.541565 536.915588 -54.280228
857.359558 230.319458 -404.186310
825.370239 227.914917 -364.958405
847.647522 455.511475 -95.948280
673.396362 393.571320 -290.352112
962.758423 254.856705 -223.931503
825.198364 433.153473 -143.551239
846.914795 532.175598 -13.410910
793.603577 532.022583 -60.744205
806.140869 338.792175 -275.413635
641.145935 416.108459 -316.436371
808.272278 490.731110 -84.567596
629.867249 406.628052 -352.374847
919.874451 474.958588 -33.254185
830.054932 271.880920 -332.149048
749.213074 391.393585 -236.359360
839.551025 215.543030 -387.615356
727.948181 468.224640 -170.633896
829.898926 558.110596 -5.424856
907.635925 457.748291 -74.438438
827.688965 478.715698 -108.280327
663.891296 437.051422 -278.276398
792.741821 409.415619 -193.400787
837.212158 280.553894 -318.219391
691.896606 334.434814 -321.079315
795.385742 568.605164 -19.106730
776.351807 502.712158 -70.688881
891.542419 417.166748 -119.776169
915.471924 365.583618 -160.440811
808.516602 326.145111 -291.871948
856.185181 512.293762 6.095558
988.248596 257.815399 -151.666641
1017.110596 367.821564 -116.261337
701.914429 439.937653 -216.417160
772.440063 349.027039 -246.272400
659.639099 400.687836 -290.430664
851.962463 531.692383 -24.423119
1002.607422 431.917145 -3.664172
882.369629 420.872437 -113.038826
690.411499 480.294861 -199.244308
858.804321 339.539886 -240.907059
828.863586 553.624817 -12.883444
1010.277893 450.806824 -6.591445
750.774048 379.151062 -228.549408
828.388855 388.427307 -189.582062
850.208801 549.268005 7.155038
990.995361 269.685425 -187.135498
778.368896 313.451263 -305.151154
953.764221 360.076172 -163.271667
700.867615 344.780365 -290.013062
930.227295 258.849731 -350.708221
651.325256 408.077881 -276.294922
836.024414 575.403870 22.648111
842.578918 335.220184 -219.123932
689.677612 406.189697 -287.423279
752.259888 408.958527 -214.154800
854.275208 374.119873 -194.801315
883.982056 436.490143 -101.590218
787.154541 475.704681 -126.804138
784.534363 313.191467 -300.866882
828.482117 597.744385 40.796288
973.927185 243.736374 -188.632935
685.951721 417.698059 -263.488983
896.675049 372.920837 -155.847977
802.317078 440.608948 -164.055801
836.065857 427.183075 -150.952454
798.785156 358.386536 -245.619904
911.930664 301.174713 -252.084045
949.867676 482.145081 -3.920695
934.069763 508.166901 13.332708
766.130615 548.317017 -51.101616
859.238525 465.174469 -84.700226
818.820984 532.893066 -51.199734
933.068604 403.005188 -105.091942
769.045410 328.787689 -281.709381
910.426392 483.520142 -44.033077
757.378906 363.719971 -289.743591
982.139832 258.459503 -171.966751
842.721497 361.161316 -236.089432
1004.556702 407.276459 -61.803001
911.973572 401.807556 -133.650497
884.627136 283.351685 -263.087524
827.400940 411.613220 -183.826920
781.699097 543.836304 -50.197075
952.169678 485.962128 15.220737
937.212280 339.516876 -167.560059
948.768799 468.465485 -44.010090
958.760498 464.815948 -22.604488
838.397522 595.503418 49.856663
861.927734 527.484680 0.036806
810.603394 295.895264 -286.779755
711.038574 483.583954 -158.379013
943.739319 373.986481 -143.871567
997.810242 269.871124 -143.610580
1019.059204 328.921936 -138.512527
854.142700 382.317932 -156.112411
926.025635 371.839691 -148.831787
715.196960 479.431396 -186.206238
815.391663 589.456421 24.423813
738.055298 326.169800 -317.831390
900.926636 407.424408 -114.930023
677.821228 472.327454 -211.731888
720.652283 431.381836 -233.285980
945.112793 276.258362 -317.872253
1106.701782 439.550751 -63.653912
914.454956 364.929291 -162.127350
882.449036 311.423553 -263.399536
838.363770 365.328735 -207.534302
749.429382 447.815033 -150.685959
822.261475 596.560974 54.495632
732.487915 521.406921 -110.897865
857.492004 279.593292 -290.649963
830.438049 226.439362 -352.374786
697.112915 349.884369 -315.175903
820.922180 480.964478 -84.527260
978.306519 249.782501 -178.680588
847.740234 470.051483 -92.346809
959.581055 254.085373 -233.709641
985.798096 322.787872 -169.474594
911.807129 513.891418 12.991460
896.730042 530.452087 6.900543
1084.628174 419.204102 -90.022728
984.245911 268.679199 -143.840591
1027.947021 309.999268 -119.370834
811.832825 548.422974 -31.988184
848.598328 472.398743 -100.848999
804.079651 416.999969 -194.691864
666.856873 398.605896 -282.082336
812.512695 593.957886 36.898830
963.743286 372.664429 -126.869225
1012.977478 280.677399 -119.174179
917.207214 306.862915 -207.737915
843.265076 565.205811 12.793471
886.961609 479.219360 -22.218353
752.017273 493.224091 -122.821968
649.249451 377.608612 -340.742859
1088.101074 422.808685 -45.951874
847.159546 564.095947 13.987514
1045.359497 401.140320 -81.740723
927.300476 311.247742 -229.555984
806.631592 536.434631 -22.947636
956.001648 410.341614 -97.080872
743.760620 311.949554 -311.976013
898.250854 501.093750 -29.198858
847.229126 366.948975 -199.860367
686.438538 401.868744 -282.063019
899.530945 536.791321 10.553364
864.902527 371.313782 -181.013535
873.310303 449.077820 -97.600189
995.346680 285.805298 -186.051956
815.220459 592.125610 22.582420
741.653320 298.749298 -353.474060
916.596680 540.285950 27.868555
809.216553 499.011292 -86.371445
852.503662 500.231110 -53.625492
814.202515 444.005341 -146.202438
832.984436 375.097687 -206.402908
772.932068 355.905701 -238.751953
794.968567 317.673035 -263.099762
940.767761 472.864655 -23.402805
793.720215 345.923370 -264.143829
783.799072 461.474091 -157.057068
787.431274 505.880615 -76.444107
848.907410 494.306885 -66.085121
857.826111 342.701752 -224.451248
963.475281 390.283966 -118.450851
779.706604 551.945679 -42.944920
1024.759521 312.162903 -92.762054
727.515625 385.219360 -268.076874
903.882507 445.839355 -75.373444
939.552856 336.540192 -178.716049
981.679199 452.038483 -25.971083
809.117065 502.358978 -95.873268
921.442505 438.696320 -63.332203
974.991089 407.777039 -88.861153
865.434387 427.385651 -125.245766
777.396179 432.652283 -163.119446
1004.021179 394.497528 -94.189148
1005.856873 454.083221 -7.038663
768.798828 309.294342 -329.291046
794.076843 412.781708 -206.529404
1032.929199 345.607361 -147.084244
991.909912 262.774811 -150.869995
728.804871 472.986145 -170.814346
842.592834 286.043457 -292.187897
852.016174 388.849274 -174.740128
811.050537 480.304749 -100.117409
728.652283 441.207031 -193.532425
780.046753 426.494049 -200.008621
951.638733 456.016083 -56.735107
860.445984 265.134399 -321.854614
981.451111 266.495209 -186.333359
973.273682 260.178528 -188.343124
907.026550 360.816345 -193.086884
815.383057 600.305603 21.269522
769.186157 391.883026 -243.754868
952.510559 398.670807 -82.943092
793.084595 381.663300 -196.967300
858.260132 305.959076 -259.521912
929.724243 366.103088 -160.901199
780.225342 383.156616 -226.231415
670.252075 417.481842 -283.555450
854.120544 424.452454 -105.250183
902.284546 498.584045 -30.941332
953.543274 269.476624 -248.544281
760.374084 477.890289 -153.873169
828.097107 306.051971 -297.223633
827.313416 423.609436 -150.801727
819.155334 394.843597 -188.609375
913.422485 250.207108 -347.059509
1050.167725 420.920044 -25.017139
899.409729 397.415070 -148.214066
820.407532 575.238770 3.284070
811.565491 474.742920 -112.430229
862.273193 410.023926 -167.535843
821.970886 385.457672 -218.331238
907.574097 520.192871 23.961796
745.940308 408.645874 -222.529083
953.358521 452.948914 -44.423244
868.344849 459.016693 -85.732224
742.396118 440.519196 -186.483337
980.413574 399.435120 -56.910938
869.197144 293.768921 -285.942169
863.003479 453.457977 -116.320656
847.576660 505.368073 -44.540882
767.270813 313.333954 -315.492249
790.765747 513.636047 -92.921524
649.582092 438.678497 -256.754578
994.643066 430.508331 -54.519905
728.425537 501.569427 -131.730743
748.269836 482.345093 -143.517105
1032.781128 461.258057 8.871426
729.355591 376.796814 -233.198303
677.706299 390.273468 -281.011230
822.390564 276.322845 -320.292908
820.184387 458.298279 -125.454010
996.221436 307.387146 -144.065094
761.123962 385.604614 -236.658951
772.404846 522.917969 -41.623394
887.131531 306.061066 -259.962738
893.644226 530.361023 31.842909
994.832397 303.016876 -179.155472
919.283508 509.315796 21.440117
917.856445 495.382507 -9.786501
1026.190308 315.246887 -134.971664
827.787415 292.915436 -292.365021
878.491211 251.546005 -346.353760
815.991394 427.845215 -158.514053
644.930603 412.328369 -282.399933
881.865784 397.927002 -144.411377
986.647827 441.007385 -8.068680
756.767639 546.540466 -37.626064
888.678650 270.496735 -294.701599
913.222595 412.812439 -127.247650
830.295105 558.530457 3.197261
955.460266 431.404236 -68.973114
649.133057 429.928284 -255.440598
883.826172 354.999146 -210.445862
845.116211 388.166534 -198.822601
750.557495 482.005035 -133.560608
676.621887 379.414307 -319.461517
891.691650 550.888916 20.384474
982.619263 381.409271 -107.027451
879.258179 286.713837 -267.750732
895.275208 358.546173 -156.165710
774.836731 266.296906 -339.955170
955.822754 265.483917 -246.334320
996.361084 325.742981 -154.341797
785.005859 452.091003 -146.984207
864.198181 259.863678 -328.112671
830.357849 277.533020 -329.590912
736.364380 308.912933 -334.105713
1032.513184 392.533936 -76.539566
757.606506 482.364594 -120.850548
913.316223 391.050690 -132.963989
867.246582 451.295380 -109.737038
1005.937073 363.034180 -130.398239
1025.247070 347.979401 -155.411697
948.232117 350.466553 -183.090881
793.004944 549.191223 -50.407471
696.552063 353.171051 -341.104919
843.679443 358.106079 -219.591202
791.866882 292.151306 -320.311951
949.817322 287.945770 -259.701599
1005.269958 352.022644 -166.867294
726.833923 480.819458 -155.678619
714.832764 465.108368 -175.362350
792.535767 544.924500 -26.320887
1007.676697 273.717346 -148.186310
975.507507 342.856201 -163.400970
861.273926 504.179443 -0.514742
969.254639 267.024261 -217.917740
887.519714 382.977264 -151.394730
717.783569 430.833130 -219.107513
833.561462 354.626495 -241.324127
756.580139 396.281464 -219.724350
869.197266 337.234131 -217.649490
978.063171 262.772308 -193.142120
767.272827 486.069550 -95.891571
779.377625 429.039063 -179.475449
802.372009 485.067047 -119.704269
1061.375977 377.528473 -94.738342
984.668030 438.236084 -37.112862
906.249268 399.488983 -128.147766
824.220886 406.590942 -176.932541
628.668213 355.803345 -340.850830
896.029724 276.670349 -295.532867
840.045410 558.159851 26.183466
764.157410 526.591003 -88.932930
684.608826 341.283783 -353.220154
787.557922 356.901611 -252.719177
888.810669 436.125000 -99.751282
841.835449 390.006775 -179.373871
837.422058 413.779114 -128.816193
943.841736 342.282349 -193.673431
859.890930 459.624268 -103.801926
813.182861 420.481018 -130.290176
795.789612 556.316040 -40.788815
971.999634 499.321228 16.432381
999.644836 440.216980 -23.855520
921.930908 329.298340 -196.773697
919.380005 333.565857 -207.915741
867.456787 375.997803 -183.970993
742.757141 502.335938 -121.557976
806.817322 497.054596 -83.314049
863.361023 573.917664 27.863100
842.994690 494.142303 -61.604511
923.851196 381.694916 -154.411301
705.591125 451.329102 -226.942978
818.478271 522.104492 -42.928432
811.076843 572.892090 15.665347
845.030701 482.339691 -76.540718
988.175720 312.128906 -175.767181
997.450134 385.049011 -122.314720
840.544617 265.637360 -301.087585
621.987000 408.712433 -310.358337
918.893433 401.144287 -129.872757
723.218628 356.935547 -316.703339
957.564331 322.796936 -181.776276
921.091492 363.215271 -161.686874
992.043823 402.461426 -42.226524
739.591736 318.790344 -354.968445
828.480530 460.293060 -119.052673
829.747375 439.422791 -108.572090
931.193420 481.018127 13.040503
855.289795 437.942261 -118.994621
695.632751 397.545227 -273.555481
979.696228 406.537903 -91.930489
696.761780 455.663055 -231.256836
953.442200 331.612305 -197.585709
717.056519 486.509674 -169.507187
1030.639038 395.387756 -72.394958
897.055481 476.423462 -61.936466
902.280396 437.991608 -99.329742
697.591797 454.419067 -220.191971
998.797119 458.040039 2.099228
953.659302 442.780457 -52.942459
761.355896 529.780579 -102.038300
728.348145 393.333038 -253.488281
970.774536 381.315521 -111.474312
641.820801 377.136627 -347.627625
841.170898 449.141663 -123.568405
985.707397 478.666382 2.161451
942.031860 268.908417 -327.905579
648.196777 401.263428 -286.234222
990.631287 296.775726 -145.612503
958.106018 262.675079 -238.429626
812.679565 509.308624 -62.963867
953.384155 502.534698 8.346014
737.060303 366.058563 -275.758881
963.197205 397.746185 -106.674522
839.084534 364.835785 -203.845200
916.667542 335.403717 -203.026001
835.415039 459.002106 -108.701958
778.117371 454.794556 -124.351158
791.167603 390.140747 -232.828613
855.415771 471.321167 -79.812164
774.585449 271.670837 -351.240173
731.476807 497.488861 -134.374115
907.394531 314.364899 -243.468567
745.424133 458.680328 -142.798859
871.280090 468.809967 -89.308113
990.526672 272.621277 -172.536713
835.471680 354.882385 -229.461746
911.905273 489.116119 -36.208309
624.325073 394.035767 -317.536255
687.369202 439.293457 -198.674316
1002.877625 271.187714 -132.170532
724.745728 411.737671 -230.074738
907.480591 345.142029 -185.993912
847.016235 481.565521 -72.326202
1024.945435 434.129425 13.347364
813.476624 414.635315 -162.657837
820.350891 303.193604 -294.073242
839.925537 463.235016 -96.783913
806.304932 219.585495 -379.771179
982.799744 485.389618 6.938671
752.255371 395.950195 -235.457565
952.701355 457.851715 -24.396072
750.577271 319.955200 -320.610962
992.838440 316.322601 -150.992386
897.222229 469.173737 -43.441666
834.437317 492.728058 -59.944408
895.726685 492.143616 9.173693
689.118408 405.622589 -260.520874
898.556274 493.304138 -7.909456
921.618103 332.328278 -202.821594
843.348267 317.472015 -275.637512
871.402771 432.834259 -127.593307
787.542908 396.554291 -211.749908
839.205078 517.492432 -25.939783
1075.604614 421.521637 -52.745766
742.285278 420.247711 -208.306900
786.858337 444.699493 -156.738617
852.159607 570.595581 29.797007
967.463867 353.128754 -151.825729
979.507751 390.562958 -67.802879
727.631470 346.224243 -323.930817
896.804443 343.698303 -195.109360
923.974182 521.768860 25.026844
804.853455 414.343689 -182.037857
708.137634 473.920410 -152.144424
1027.247192 380.105682 -113.685585
888.888062 380.951141 -182.877808
797.453796 559.366821 -5.824079
804.282288 533.990723 -53.886456
700.065796 394.729675 -274.783722
781.619324 278.814606 -370.244629
938.082458 449.042084 -48.029755
808.945984 285.053864 -314.845306
694.903625 439.200897 -223.894913
720.675537 449.568176 -166.736435
734.396240 443.680420 -208.299103
761.399780 272.782227 -358.192291
959.034485 309.520264 -186.741791
855.639160 557.461304 9.180079
726.070618 293.466553 -360.042145
775.103638 421.631256 -184.447098
789.598694 543.682068 -14.224545
841.491028 513.564636 -45.816849
819.529541 416.587158 -171.128235
936.512756 407.544312 -86.535347
864.367249 418.807434 -148.726822
997.167175 444.179260 -24.045992
889.482788 339.797668 -226.805038
980.736389 398.642395 -65.578957
937.533447 502.076691 -5.532620
808.132324 375.412292 -216.769638
825.728760 409.238007 -188.137527
839.928040 449.093018 -122.616501
714.669617 431.618927 -237.115875
904.562622 372.410156 -173.594086
800.329468 575.877686 -10.554191
804.426270 344.167206 -258.950562
993.379761 317.925415 -138.127792
890.562317 408.744843 -129.903885
1007.472107 447.427521 -11.609290
781.751160 396.838318 -209.941147
1005.526855 305.197754 -153.737076
683.994995 401.097382 -267.250763
820.174622 357.387177 -228.436005
808.392761 599.954895 25.708941
1020.122437 300.896637 -124.383087
652.927917 377.234161 -341.849792
929.056763 488.362061 -25.803043
817.783813 377.946991 -225.534988
814.308838 527.738647 -44.152004
826.106934 563.984924 23.155426
1005.340637 433.193298 -25.657066
903.651917 367.753082 -169.826218
842.637512 276.053314 -320.196381
868.480774 464.115143 -87.286446
858.518311 383.143707 -174.113846
882.603760 532.067810 -1.246227
966.340271 260.716705 -229.026779
1017.213013 283.324341 -115.534332
755.526733 416.413544 -222.560165
967.436951 460.469727 -26.557491
959.243042 434.888275 -54.413025
1026.951294 334.168274 -129.927155
960.766479 375.873260 -101.427780
885.456055 323.725281 -247.451614
839.877625 411.141876 -181.074463
983.934570 251.980576 -135.013779
857.853943 319.940399 -262.509857
844.099854 554.103394 0.946536
983.004456 324.632690 -183.571121
703.725586 318.391785 -344.487366
835.967773 337.182861 -258.687134
821.275085 524.164307 -37.745029
895.871826 463.778961 -35.042992
899.634827 273.412384 -292.589417
904.115356 388.330750 -141.154968
724.242554 291.003693 -358.504059
812.541321 545.181091 -24.081667
913.222717 387.177643 -159.052460
742.828979 344.034485 -323.743439
891.068848 397.708069 -112.982750
932.144775 377.152527 -135.279648
834.377747 560.578247 -0.471238
814.139282 574.143433 -3.452810
836.135986 409.609650 -165.517761
832.091003 243.284698 -369.363708
929.311340 496.111877 12.020364
930.445862 489.680969 -8.305913
822.192383 309.467499 -278.332611
903.741333 450.522034 -73.714706
961.772339 271.362549 -198.735046
964.126038 501.775177 14.586317
797.888733 523.818726 -52.489910
694.184082 445.925934 -206.505600
965.468567 476.904572 -9.817922
916.552856 255.752167 -357.388977
860.033386 403.661499 -158.172043
898.887939 487.028900 -48.503601
690.315918 427.056854 -235.736328
1019.590881 422.458588 -11.117594
866.067322 442.940948 -97.930183
1050.595215 430.776154 -10.507752
1006.036682 406.844177 -50.432499
839.033325 453.213531 -115.571716
833.513611 276.272705 -306.574097
821.799805 410.485992 -187.291718
806.967773 271.849335 -325.705078
677.797607 468.356567 -230.501694
840.783875 481.370026 -85.668175
761.451111 474.161346 -145.096710
1047.421997 384.680450 -132.357025
922.648438 528.778381 26.940750
948.104370 324.381622 -206.937042
881.828003 401.534576 -114.078758
853.269348 358.677826 -215.157104
897.052368 383.165405 -126.121361
974.168884 351.118927 -152.097549
813.808960 584.610901 10.464993
763.847595 478.013123 -149.866699
765.464844 373.239594 -246.127487
807.416870 322.605530 -303.263702
706.760193 473.914337 -175.525543
895.947876 310.505707 -246.313110
657.190186 427.984467 -261.832336
951.655579 226.561874 -182.798462
984.887695 308.014984 -176.761841
670.188477 388.044830 -301.022125
948.266541 501.405396 -0.552654
944.598389 355.501862 -169.588409
813.503967 296.991974 -325.550171
714.322815 400.516998 -252.934814
1036.489258 410.394745 -36.672504
881.311951 520.056335 -6.292089
938.208862 438.003937 -51.010040
685.048706 366.680603 -333.701843
884.976624 399.626007 -145.767670
701.983887 420.232239 -256.876648
953.759705 277.346741 -232.417114
801.192566 314.010315 -288.946381
971.525452 316.258789 -204.942917
685.448669 321.061737 -355.888031
799.821411 581.478577 1.312977
891.808533 263.464233 -310.770142
987.376221 296.345093 -162.286774
636.521484 358.052734 -325.097870
953.645203 276.291809 -224.202835
790.371033 315.216553 -294.478088
878.218689 387.629639 -152.397079
728.418396 413.439789 -247.598938
818.193054 367.461945 -208.949158
851.875366 297.487061 -270.713928
742.049805 415.953949 -219.168549
859.240051 359.750427 -197.662064
988.680542 275.485748 -170.004349
925.243774 324.105743 -187.846481
1009.232239 411.757172 -18.238434
868.226990 526.259277 -15.634684
859.505371 355.128479 -223.297012
1018.124023 432.632477 -26.307203
908.062561 465.074921 -60.610420
856.371338 402.944397 -176.304443
762.415955 433.675751 -206.185516
759.442078 502.221344 -113.034782
902.680115 409.976166 -131.227646
984.454163 402.620544 -75.486382
1079.306641 393.131927 -99.528915
1003.347961 414.927124 -47.543453
1056.847778 400.622040 -84.274292
834.655273 354.129150 -216.863480
802.606445 526.612732 -50.585205
715.547241 444.075134 -194.327835
707.595093 327.868134 -366.548279
872.898193 481.372589 -61.737614
788.680237 515.152283 -80.914635
766.986633 374.113708 -264.109100
826.174438 258.484161 -323.610901
995.474915 386.177185 -108.187637
889.290222 318.556976 -213.570099
737.793945 326.872681 -303.369415
751.621033 383.254364 -271.063721
996.295837 437.580414 -27.090641
867.890442 469.098969 -77.069221
809.910339 442.721436 -161.229202
672.920532 394.146118 -299.656494
931.536804 456.502594 -56.818092
740.342834 335.362640 -306.745056
769.880432 469.683258 -136.168945
970.924316 280.402466 -189.797653
1076.568604 404.528137 -123.096352
769.133667 394.202576 -228.812500
652.706604 416.953186 -283.296265
952.684204 399.348145 -111.057007
924.527344 327.269897 -214.894073
689.076538 406.768494 -260.040710
693.784302 409.257751 -260.410858
627.235413 410.633026 -300.413208
833.583313 436.757996 -136.372452
869.395813 515.334656 -26.909893
846.191772 360.187988 -215.578232
855.545349 573.862427 24.015068
852.905640 340.172607 -248.949722
977.743103 292.183502 -180.177963
964.772156 290.076569 -217.302750
692.217834 452.207520 -203.460251
964.463257 427.731354 -74.441086
872.047913 365.935638 -202.955246
836.642578 269.503784 -337.395203
851.779053 452.364441 -125.180183
876.983459 230.044647 -399.213135
744.485901 522.325439 -108.613182
892.056335 304.661346 -232.192749
1054.116333 397.883148 -76.135521
948.519043 453.354858 -47.073101
943.111389 478.170532 11.297690
929.364014 474.729279 -40.634724
889.978577 433.316437 -100.137856
984.042236 387.235199 -97.529236
977.366394 316.429688 -194.109024
805.470337 572.682739 -7.048764
1003.458069 462.724792 1.076521
834.719971 296.455750 -309.760803
1063.637207 369.122589 -96.529213
978.459106 463.709106 -13.071442
698.306580 322.525146 -349.260406
930.270874 423.565430 -81.893745
741.428955 489.983063 -128.321030
866.557373 484.896088 -56.660618
1031.059204 348.460510 -131.909286
915.086243 425.868011 -94.112137
1014.174683 300.256165 -132.462769
816.948975 478.398712 -116.154434
737.220642 475.471344 -150.349594
1000.166260 386.836853 -101.410614
836.819824 495.841187 -76.331635
880.180481 485.112823 -47.421658
793.797729 526.501099 -71.549843
826.674316 449.123901 -119.656624
744.340271 513.316467 -109.367035
953.253540 359.123596 -138.442795
940.201904 214.590591 -185.271439
1018.002869 343.742340 -141.756561
980.457275 269.795044 -145.649200
925.582703 439.017151 -83.550125
835.915649 569.599182 20.660250
824.633545 567.698730 29.686964
802.356079 331.644531 -267.909027
900.074829 360.666351 -193.473114
795.737488 265.843384 -363.491364
781.956909 396.575592 -231.715057
974.998657 397.716248 -105.456108
888.082397 378.858276 -161.081345
856.508118 532.724426 -19.950541
801.672424 321.327576 -286.511627
963.023926 260.938690 -202.956421
874.443176 434.969757 -130.077179
934.012634 458.707245 -52.499996
957.082581 233.868301 -179.950912
913.038208 353.371460 -171.726669
939.032959 463.958649 -4.236512
926.001038 348.633453 -173.872772
934.026733 474.440399 -18.022793
715.327515 408.196869 -216.177078
829.736206 469.329346 -120.473846
1004.906372 305.781464 -155.430145
724.595276 497.125977 -121.062241
855.504028 275.218079 -316.465698
856.418030 535.602600 -15.892258
828.631836 328.780518 -259.141937
810.990479 286.170471 -309.859283
822.345398 435.126068 -150.887405
873.112244 396.269012 -158.659607
702.882019 314.135040 -359.536957
820.846741 347.402191 -266.038574
782.143555 494.606812 -100.533958
753.666504 523.576172 -86.854477
721.927246 506.209045 -132.692810
961.263123 457.457794 -38.499645
863.068970 523.681091 -13.174185
822.350891 485.545166 -104.117882
806.907837 577.257568 3.060591
735.905579 442.114716 -204.569107
741.832458 526.389221 -99.779945
967.604553 309.574249 -180.724960
1006.173950 305.830322 -125.778191
698.693665 396.840881 -285.289825
942.050537 228.628128 -241.968857
816.010010 378.184906 -214.967392
852.324341 355.220398 -208.934448
899.945374 403.485077 -149.104309
804.699646 485.333649 -105.913986
855.245544 244.560715 -348.413605
667.048340 396.488586 -310.097961
722.905884 328.687958 -349.031738
983.811401 290.049927 -197.530533
742.308105 378.693909 -244.909546
984.395996 430.003784 -50.814922
684.747681 406.317902 -264.095917
870.861023 290.988800 -253.879547
934.543030 503.550812 -10.717974
727.230286 447.268066 -173.146576
995.761963 431.348816 -34.041763
997.907104 427.268707 -54.242508
848.446228 459.346252 -95.458771
979.130554 429.594086 -48.724117
767.229736 527.870178 -77.924835
921.186279 415.567627 -99.604660
982.579773 475.219299 -6.159374
719.118469 463.615936 -174.842133
904.999512 463.575470 -55.596863
705.645325 410.069733 -265.890961
963.317017 267.058167 -226.168198
980.614563 271.513672 -143.130737
722.041687 357.928070 -290.945282
1042.597168 355.547363 -124.153419
774.321655 407.527222 -201.238373
793.749695 554.335938 -44.915459
689.362427 391.653442 -262.132660
886.047852 435.043457 -68.365654
909.972900 495.002808 -16.067490
633.251709 437.233368 -285.472931
694.697327 399.924683 -284.461578
903.355286 400.001587 -141.740234
851.269287 350.161102 -225.033493
884.929871 519.276550 -19.486263
811.950317 352.520294 -243.175781
819.118591 282.845215 -331.908386
838.190186 479.426575 -102.879463
721.379089 289.392120 -352.549927
908.404846 413.529114 -102.312035
873.446411 562.636169 25.541361
703.558044 406.439545 -250.774612
740.845337 472.781219 -150.009384
781.308899 420.034332 -192.498657
965.256714 271.696045 -214.664780
844.662231 274.453156 -299.014709
786.181702 294.099915 -321.121857
1003.187439 453.403900 -10.067239
950.723511 392.131134 -106.905922
696.132263 338.888855 -358.196472
1066.937134 415.480835 -66.353951
794.111389 525.824585 -61.802029
704.231262 462.708801 -207.876266
687.724792 429.654419 -229.740585
731.226135 417.148926 -213.133377
837.908936 253.164993 -331.068481
698.141724 441.775665 -242.549408
827.493042 323.717163 -262.173859
922.371033 355.821045 -178.310944
678.951843 412.159851 -281.242798
767.834961 551.826965 -57.540211
977.143127 335.666931 -172.374557
810.277161 239.054230 -345.473419
916.632568 462.885437 -22.272224
807.988525 512.054565 -62.449909
940.451660 385.200043 -134.616669
835.078796 503.298401 -77.398392
803.199341 301.400970 -300.616699
785.623779 433.644012 -166.337509
714.517090 480.362762 -158.621704
672.931335 411.838806 -264.584991
771.740173 364.575165 -278.467133
976.771851 252.776825 -211.464676
952.677795 409.797913 -83.059540
852.612427 394.590271 -172.385147
850.322388 471.732117 -74.487701
864.418701 351.763458 -224.167389
892.494812 519.734131 -18.106125
786.559448 274.337036 -323.483368
1068.306152 425.370667 -45.432613
844.352661 484.064972 -85.326637
658.659790 401.122162 -306.560364
848.955872 428.700226 -126.495697
861.321045 557.666687 41.645683
799.409607 570.997009 0.756779
936.662170 437.638611 -78.815437
787.809753 330.194489 -280.744965
909.751526 374.085907 -167.890289
889.096069 500.785278 -42.093781
929.581970 482.604126 -14.760678
1012.517212 425.095001 -31.302835
952.975342 400.804169 -95.933289
760.354431 441.472931 -179.558273
721.267578 483.350128 -152.466034
794.944580 351.650421 -270.781433
811.139832 425.528717 -181.182968
1009.247009 456.602661 -6.690204
643.354675 440.514679 -269.837097
932.964905 463.525360 -32.372627
625.706604 366.415863 -338.456848
783.071838 361.190277 -247.623138
763.253052 347.803833 -284.174011
889.596069 539.365540 20.076073
802.847351 269.416290 -340.606995
940.875183 422.722778 -78.964188
1068.659180 377.727386 -90.784042
813.467407 376.069000 -218.850266
818.753296 511.881561 -53.872845
645.634094 380.458099 -337.260406
838.073547 497.216370 -69.379425
925.520691 367.021118 -151.098740
889.533264 453.471741 -49.776558
725.767761 439.869781 -220.503281
920.594177 295.623688 -253.920502
807.157959 346.290619 -274.690338
919.025391 427.131165 -86.334183
1002.043457 419.180450 -56.219261
1027.521851 414.033173 -4.519041
618.583435 384.377686 -320.200409
718.222168 416.921021 -251.257874
935.689453 443.083923 -62.557880
717.579346 292.008881 -367.053650
708.654480 427.993439 -245.143707
728.382263 474.144653 -157.232132
767.703430 489.249603 -126.268135
798.001465 392.658203 -181.386703
761.920654 251.067307 -364.787872
857.408325 422.967102 -132.060364
1004.421814 303.162231 -147.327087
850.203125 498.240570 -59.785213
842.474854 347.314880 -228.843155
800.614441 479.046844 -129.069626
857.266052 469.459106 -97.507477
736.064331 501.884766 -120.205208
803.881592 525.706970 -57.076752
861.063538 420.030731 -140.827728
690.337891 338.742279 -349.464355
772.606934 546.606445 -70.115303
762.588806 346.723999 -287.926636
821.254272 461.897583 -114.028526
959.627380 410.877380 -96.053535
951.420227 279.268433 -285.306976
818.795105 480.811066 -112.179001
818.801697 348.266510 -239.180069
916.012634 464.219666 -62.499466
785.206848 265.582367 -368.647217
972.214844 485.199615 10.224702
616.494324 380.205322 -324.104736
754.793152 349.849121 -282.673828
852.894897 263.070465 -289.267395
932.030762 459.871918 -62.074940
902.712097 493.828125 -42.148659
875.649841 362.503601 -193.467300
869.729553 286.361176 -273.905212
843.806580 573.763550 30.871323
605.302429 392.375580 -347.175690
914.838806 508.414551 -6.315591
687.598206 344.445557 -355.723389
831.890076 345.064362 -252.900375
729.829285 495.693268 -149.294113
1042.062500 390.173340 -117.868141
754.640625 323.461029 -312.629303
938.603210 490.043762 -2.684129
821.959534 557.497009 2.721943
749.175537 368.554749 -266.131073
866.777710 401.359009 -150.942230
1003.941833 271.465546 -139.927139
796.799194 551.437561 -15.315196
969.171326 380.362335 -113.782318
659.125366 452.405853 -229.005341
988.878113 380.483917 -80.551331
732.558777 497.445587 -133.235596
640.904846 411.228882 -309.963074
889.722229 331.085297 -211.318573
778.536072 543.543213 -22.672647
981.379517 436.771149 -16.872759
720.340637 453.577179 -182.215057
791.014648 410.149384 -207.156448
828.694092 387.958893 -207.487701
944.711365 222.381927 -216.313232
935.058044 506.965454 10.037062
870.475586 506.718567 -45.927341
992.257690 273.456024 -172.053833
996.741882 335.922791 -161.759277
830.126160 262.068665 -347.760986
832.957153 265.272919 -336.041687
838.114075 468.447571 -96.003281
968.518127 375.100037 -136.850967
894.983154 453.254089 -74.837486
803.559204 515.263367 -60.344093
804.979980 576.331909 11.077889
845.570862 523.193481 -42.699295
838.883728 243.024933 -366.468384
1030.212769 329.381531 -143.662903
814.988892 455.168335 -138.174973
717.722534 366.420105 -286.898376
878.094910 302.794556 -249.739777
899.554016 405.156586 -139.281128
784.604370 363.799500 -244.506653
717.862061 399.353119 -252.681808
821.276428 246.471375 -373.647522
876.822205 474.825409 -75.440475
851.923828 368.260010 -217.417572
767.295532 400.742340 -214.974274
804.204102 445.545074 -150.596161
797.244812 529.398193 -45.794476
698.303772 416.946259 -245.193802
823.407288 328.508942 -276.548645
719.862915 406.192810 -215.958282
713.537598 361.003967 -266.701172
955.477905 270.857483 -249.691483
932.848572 345.189972 -163.547684
883.672180 449.028992 -107.623680
790.902527 510.357239 -93.991676
763.356750 491.586212 -126.026627
725.148315 490.028748 -147.025284
899.540039 561.730103 38.956841
1028.810059 357.167450 -123.809425
991.750854 284.932861 -151.629883
808.840454 421.224609 -132.128967
689.291565 420.873383 -248.988861
713.200928 385.376251 -296.102020
972.405823 299.193970 -206.372620
1025.227417 365.126190 -118.393135
859.598572 500.067413 -43.182522
808.443420 548.815491 -40.135223
771.142334 340.005432 -289.648834
661.706970 385.994385 -321.324219
750.630981 495.021667 -109.856277
792.616760 297.419281 -297.719666
957.887817 279.862854 -250.324234
774.766174 321.156952 -299.467743
1085.461548 414.416229 -50.867363
696.184326 482.469818 -178.798767
862.632263 267.408356 -286.965271
880.157776 382.059204 -180.220245
953.624451 263.817780 -287.528473
1065.192017 443.191864 -14.914809
871.760559 510.940704 -36.472076
916.893433 332.767731 -196.303024
750.253906 505.216949 -92.747917
1059.236816 384.364319 -65.994141
913.627991 454.247345 -58.182762
909.938843 497.321106 -28.071962
1053.020020 428.465546 -31.381399
786.624268 382.319092 -222.699463
824.971313 360.429413 -216.100616
954.384033 495.847473 -1.772379
981.923401 283.298523 -171.240738
795.672241 273.716553 -331.089417
904.610474 424.868744 -112.924179
816.625732 309.715485 -282.889313
882.900574 551.447327 21.141996
798.827148 380.646851 -238.432251
847.521484 479.956207 -47.226624
847.167786 332.350342 -246.718063
788.755188 579.047058 -10.714377
1020.030701 347.450836 -123.655022
767.971008 483.302277 -122.688324
780.184875 543.171143 -62.501823
809.069946 503.942078 -94.417114
656.379517 410.973053 -258.650757
706.467407 344.189758 -314.979248
938.208374 291.441742 -275.974396
975.879639 297.973389 -167.082016
636.894836 367.939362 -348.011963
814.712830 535.850464 -46.635681
969.706421 268.592712 -214.418701
953.181824 274.444550 -265.388672
794.599182 367.154785 -241.737381
887.271484 343.236267 -202.952988
969.635376 470.027985 -9.453330
999.500732 289.946533 -160.343445
603.553223 386.688446 -358.064423
949.171265 232.468018 -186.914398
1072.482788 379.544128 -100.294014
716.419861 298.096649 -373.040222
1034.395630 433.486389 17.174526
806.546387 504.082581 -82.049660
958.220947 269.377197 -266.343536
733.118652 314.659515 -303.044250
934.415405 415.130981 -91.422295
912.990112 441.571869 -78.661263
835.220581 400.592194 -189.048782
854.151550 483.342102 -82.661217
692.887268 402.658081 -285.948792
833.874084 481.042358 -93.643661
717.843628 462.432495 -153.691788
857.834656 541.578308 13.808789
961.706787 451.916626 -53.749096
810.127991 562.490051 2.763653
922.167236 410.449432 -94.365150
736.759888 385.342072 -229.625671
845.487488 398.607483 -160.775742
819.593750 266.378906 -353.571167
635.348511 411.727509 -314.596649
815.088440 256.693787 -341.025696
1009.184753 442.983246 -5.048965
983.921143 335.514435 -163.528900
1007.172668 323.080750 -138.451096
887.855286 297.809326 -234.645569
791.696167 548.496399 -41.730530
910.702271 436.943176 -89.064735
710.698792 390.860687 -291.148102
941.277588 371.833984 -148.226685
696.666565 370.973175 -274.522186
676.047485 381.476929 -300.890137
758.216248 480.619049 -130.270157
863.797241 542.147034 -0.948562
791.419250 558.034119 -40.041878
863.380798 255.799026 -331.038300
825.867249 469.779694 -110.488083
817.927307 313.032776 -277.589081
708.124573 462.049805 -182.499664
953.946899 402.285400 -94.256424
934.813721 339.336395 -189.473984
1020.042175 444.651245 -5.711489
641.140991 379.784058 -315.266052
864.703796 492.568726 -62.773384
879.114807 476.936523 -71.195923
953.018250 416.668549 -91.504044
789.538391 400.799591 -205.677261
919.194397 517.590698 4.866316
850.641113 414.761200 -149.912903
836.395020 466.778015 -90.410439
819.577332 553.631226 -23.498621
646.609741 376.538025 -346.405151
724.213074 450.162079 -190.498718
928.955627 407.971710 -115.120560
682.241516 476.400391 -204.397552
852.426575 504.959778 -42.530773
766.689026 475.746735 -108.409386
853.809998 578.448303 28.473259
1060.644653 363.064423 -103.751945
799.939331 462.916504 -120.475090
832.215088 299.784973 -283.948242
865.358032 440.847321 -109.219139
695.745972 385.703735 -278.221741
780.726929 454.730194 -154.420013
902.993408 565.224060 41.892879
943.584534 452.079102 -9.768466
745.065613 323.908844 -316.298340
727.427307 472.733521 -155.731400
752.973511 462.032135 -155.925369
843.870667 415.500488 -170.911942
607.730774 391.444489 -333.869110
773.946960 369.294769 -224.294632
1035.424683 329.530212 -102.947876
814.339966 406.186584 -179.834854
831.719116 572.369324 28.275459
812.431763 556.942566 1.814890
885.881104 449.746887 -56.502316
875.823364 445.911438 -61.301746
719.905029 467.357971 -166.617874
765.679138 256.661591 -374.223816
725.653503 502.906189 -128.437912
784.375305 378.092285 -250.432739
791.633972 397.890167 -221.664276
885.661499 493.891022 -34.277943
869.620056 305.425171 -270.294342
762.695923 366.594574 -242.267746
768.490234 379.734436 -245.890274
723.912170 513.653809 -126.324379
880.008606 445.075195 -59.862301
959.507751 274.196686 -224.512650
966.595825 287.770752 -196.707718
767.773743 469.567474 -159.183624
896.241394 476.002075 -11.354152
815.501648 483.702179 -93.724548
670.819885 430.163757 -267.214233
795.614014 576.343323 -20.407703
965.303040 480.509247 -11.833784
820.568848 472.251526 -64.690361
711.193420 471.120819 -169.908432
879.176208 449.852203 -95.987564
1073.075073 397.747986 -100.768555
770.651855 401.791290 -216.196762
826.611145 516.389221 -59.145336
817.684570 588.924744 23.674564
854.528381 317.611603 -254.535248
836.960205 263.954498 -321.701874
726.300232 451.127136 -206.963470
1020.178711 333.629150 -136.546921
764.162781 532.669006 -80.564453
1050.342407 377.662872 -120.386215
819.233459 423.875763 -160.981323
908.569092 424.486755 -99.712097
754.936829 303.924744 -349.387115
835.591492 444.540894 -87.397980
867.064575 363.943329 -167.528549
622.720520 399.043884 -290.450226
1041.130249 420.180603 -52.872269
828.077820 396.632904 -181.183121
717.153564 306.238220 -375.878174
1030.813110 382.028900 -127.496208
1030.758423 450.742401 4.329391
823.519836 262.874878 -333.544373
875.728516 524.659363 -19.161514
942.260315 216.395157 -180.902542
917.032959 305.503113 -236.738983
902.556946 432.478638 -94.473351
973.713379 243.339157 -144.580887
760.836121 521.498535 -97.491188
945.789368 446.274994 -57.458641
848.346497 420.052399 -145.178406
840.652588 244.807709 -361.172546
927.325439 409.180389 -115.373306
908.587036 519.438049 15.823734
809.888489 490.235535 -107.281464
839.494324 437.952637 -124.053711
988.010010 486.017914 -0.484607
753.236633 515.022644 -89.426987
887.278442 401.982361 -151.298157
658.927734 403.712708 -261.947571
750.726563 300.220764 -357.414764
1021.916931 441.218201 -11.382195
873.431824 437.402466 -73.166252
700.171265 452.256012 -230.962570
830.188538 583.662903 25.692715
655.685913 383.957977 -309.846100
682.230347 452.726471 -246.987396
848.832825 558.395996 -0.464496
969.488464 266.626465 -189.325455
918.812988 346.797119 -175.119690
776.544128 462.857422 -144.661148
754.848206 344.170837 -279.057526
729.242432 448.868805 -212.906036
863.508423 563.387451 15.214321
625.687317 371.798981 -340.738983
864.378174 306.974030 -266.494720
858.009766 426.467316 -133.836548
651.015259 383.112793 -320.434723
975.778809 313.788574 -206.340851
679.945374 402.000916 -298.601929
1003.563660 479.197327 9.993201
962.312317 370.756958 -146.841614
826.479675 382.149597 -218.764206
976.500549 289.283478 -186.286301
960.620728 308.257416 -243.116257
792.142822 539.741272 -62.299534
847.838501 360.985809 -209.337158
744.684814 368.090118 -243.412354
817.905518 514.013611 -75.937515
762.590149 457.354767 -159.417969
1018.487183 397.605011 -62.805870
941.974976 239.139404 -266.385773
628.096375 410.457001 -327.200989
899.687378 331.306396 -194.209976
698.508728 328.710052 -364.913025
1010.234070 296.254028 -145.012344
969.842773 280.680939 -185.384750
891.643982 414.198975 -113.999969
1003.418213 346.272736 -148.314835
1008.787170 430.054901 -24.555485
746.093872 381.212830 -228.946762
755.213989 432.727539 -186.938187
984.704285 457.716400 -6.029685
1021.309326 308.735443 -122.262436
946.407104 384.130707 -114.892265
939.864807 486.764862 19.855360
861.558838 534.332764 -13.200446
752.137512 301.650116 -332.713623
865.799255 449.549744 -98.716553
1038.958252 345.792786 -123.817863
1002.998108 375.650726 -112.782684
758.476135 479.045288 -109.806122
882.117798 490.235840 -56.058830
894.735596 324.559998 -232.972504
928.835938 491.778046 -20.849115
703.781738 407.454926 -277.115143
964.137695 248.995270 -163.884750
810.890259 543.294128 -40.667801
918.680054 380.504395 -154.201385
774.124084 550.632690 -50.470558
614.927307 387.385254 -328.656860
756.450439 418.408173 -224.038177
757.132202 401.896271 -219.599579
969.200073 264.862946 -196.621262
914.623413 304.562653 -240.402374
731.742188 429.339691 -212.034317
782.924866 481.791473 -109.921387
832.614075 525.570801 -30.389740
1001.786743 424.718140 -40.671108
947.973938 326.900970 -207.877808
819.605286 470.702515 -76.350601
1012.799072 305.763367 -137.162460
664.987610 412.321869 -290.788849
985.541138 369.124512 -121.104362
874.124634 548.572449 16.813147
1051.607544 432.366516 -25.405226
927.210571 362.431671 -172.144150
834.295776 404.250031 -168.647385
720.401489 407.083099 -203.090103
815.987732 347.294617 -259.842255
754.954712 422.060425 -205.539017
828.477722 452.531921 -136.607315
834.826782 454.457825 -116.930313
822.106628 462.299500 -133.795715
676.420471 468.200806 -200.589981
859.136597 508.583252 -32.291744
1024.957642 426.225952 -28.762613
770.075317 283.386871 -372.323334
736.183411 388.897980 -250.489670
952.892944 246.995804 -253.112305
639.390747 380.618378 -340.612549
922.274048 445.332550 -70.296486
684.534607 463.606079 -200.972305
830.464050 484.002838 -99.838295
858.955688 259.687653 -330.755493
687.971680 351.550720 -305.730865
882.975464 515.361206 -7.633221
831.432800 483.830231 -82.306900
932.838745 220.329300 -235.736969
952.357483 273.425110 -240.218216
852.779114 358.538605 -209.172333
627.358337 372.211517 -333.865143
835.391052 514.141113 -50.789490
956.208069 231.810379 -230.584534
844.167969 291.562469 -282.385986
981.918152 323.499390 -186.829590
859.169250 313.849365 -251.042465
808.531250 493.526917 -84.406670
808.428711 386.394043 -225.628799
808.180481 561.765198 -19.241749
789.308655 567.820068 -36.267052
939.651062 225.707581 -253.158203
849.806763 563.897583 7.515910
902.301208 499.002838 -4.601926
730.794067 380.807526 -261.924683
766.699463 510.079254 -85.227890
860.257263 472.647095 -75.141571
1016.064331 295.156128 -134.292130
953.440613 238.372833 -247.121506
1024.791138 439.394501 -1.791564
921.058411 507.598419 -8.045325
922.008728 314.425323 -216.783630
