ply
format ascii 1.0
element vertex 1405
property float x
property float y
property float z
end_header
-62.952087 798.091370 -360.456879
-190.216766 744.604187 -354.162476
-113.525032 794.618164 -523.764343
142.783768 948.424927 -492.114044
156.374771 944.556335 -381.987732
73.627457 909.479858 -598.370544
-182.875366 750.790833 -585.429321
-173.080475 743.766663 -543.426697
47.867603 875.835205 -409.426758
119.274818 914.155701 -389.459381
44.048294 903.174011 -674.300049
24.764065 884.913086 -582.435486
-132.510620 768.936279 -383.241241
-198.287430 734.334656 -594.065430
-284.992188 691.260193 -474.727539
-45.842842 821.654724 -401.848785
-195.611099 726.034485 -330.465729
-18.225674 837.525024 -361.331696
-3.005255 843.238037 -351.988464
-147.691895 777.596680 -648.151978
-208.598312 719.019409 -312.692993
-79.144783 800.842590 -521.522400
64.513138 891.782959 -462.221497
71.377724 894.900024 -365.004547
-40.908386 822.528564 -364.777893
108.832298 929.168030 -529.467041
51.267113 891.278381 -570.880005
-118.438744 763.765076 -666.002014
-73.173424 806.959900 -500.669220
-70.601089 815.658691 -317.095001
-0.918420 862.809570 -544.270996
15.161555 875.269714 -567.477600
108.415375 922.398560 -433.893738
-23.419054 834.867859 -382.284241
43.946899 893.920532 -557.509094
-224.817291 711.547729 -294.387695
-167.225296 737.652161 -514.393982
5.572070 864.437744 -685.416321
-136.894760 760.410583 -595.144653
113.725189 900.249390 -430.707092
-170.811249 747.917725 -460.049286
-64.376579 824.315552 -450.807343
32.960625 866.580444 -342.659302
-235.983032 713.870178 -489.227783
-11.832709 847.211975 -452.960114
-277.247223 699.178345 -371.466583
125.592712 935.362549 -508.096954
-68.102516 815.333252 -521.487976
14.371802 872.461121 -513.405823
70.640022 912.698914 -516.169861
94.242729 915.940063 -626.250366
-56.811596 818.661499 -345.540405
-8.038666 859.185486 -387.183380
-254.782928 679.620850 -508.225525
-92.196457 785.009277 -669.387268
-21.437460 839.724060 -426.009094
-108.085670 788.733398 -474.529388
121.856224 919.257019 -538.003601
133.144012 926.813782 -375.196075
-220.938171 769.841431 -649.146545
-74.157333 785.756409 -663.115540
-123.255798 802.955933 -636.558044
-177.425720 753.766357 -462.199829
-188.745255 733.785889 -456.882477
33.768448 882.462830 -571.202881
-52.593159 800.006592 -395.040894
-54.056252 776.717407 -677.829834
98.592194 902.450562 -346.744507
-244.061661 718.518188 -310.423981
-156.545135 757.227661 -534.791687
122.014740 928.794922 -435.616028
142.777863 937.630920 -380.810181
-153.255295 789.712402 -613.262573
-116.667198 791.531921 -400.256470
-204.165527 709.453064 -357.903625
135.818237 936.042847 -539.841980
122.426353 934.072632 -379.164215
-6.009471 872.601013 -612.013733
-216.090622 731.234131 -586.047852
91.531403 912.677673 -440.527710
34.892391 903.515442 -675.072021
-232.696625 718.442078 -591.927551
20.931950 878.493164 -427.265320
-43.354504 825.386658 -572.516113
-220.956909 697.599426 -566.853333
-117.420792 775.800415 -419.632019
-162.805588 739.814880 -483.577240
59.860359 900.246460 -508.578674
106.954971 920.148743 -408.824707
113.507408 933.736877 -525.792786
-271.320435 702.223083 -564.410828
-174.851974 755.507019 -311.725128
-107.644318 779.164673 -662.992981
22.941589 876.710144 -399.087158
-38.677269 831.117126 -397.785736
-196.557663 729.315125 -514.227905
90.950333 889.886353 -555.806580
-16.608198 853.826538 -451.924591
-31.842405 849.878967 -536.198059
-65.864510 792.485596 -463.977509
-92.007050 804.778259 -361.127716
-253.510880 681.911194 -352.435699
28.120296 862.356995 -425.949341
107.735001 899.995483 -543.594055
-168.471924 759.132690 -503.000488
91.610779 913.396179 -371.190674
-277.748535 687.992493 -355.302155
-12.689778 824.765015 -671.885620
-59.122452 810.765564 -536.465576
77.411774 916.462158 -587.385498
-220.602142 726.743530 -538.848389
-234.418381 718.243652 -552.507080
-168.793503 745.713623 -425.748993
79.108200 906.261841 -611.824951
-152.445465 771.956421 -317.325531
111.072296 893.113647 -345.124786
-20.785013 851.263550 -424.855560
-201.873169 716.211243 -468.593231
-86.888016 739.423706 -673.688171
36.621708 878.331665 -523.200928
-41.205692 826.774170 -595.456909
-110.760551 785.221863 -439.858887
-156.573257 751.278503 -662.401489
-108.882355 786.261108 -444.613678
-220.333313 784.634583 -641.135742
-29.251820 745.324402 -672.606140
-221.457748 720.651917 -493.511505
-70.174133 805.154663 -391.935394
-252.374908 690.922302 -458.078613
60.922504 894.342529 -481.356720
-145.535355 774.296997 -482.130798
-209.282547 721.186401 -298.298157
-166.978149 751.115051 -487.208771
-154.505707 733.949646 -432.566101
90.492149 899.357666 -421.950256
-178.771790 770.991882 -654.171265
-47.007511 824.105408 -501.948090
27.485533 859.274353 -336.641937
-112.940170 781.319946 -523.861572
-178.565659 753.625122 -539.464905
46.185047 890.760010 -332.327881
-116.920723 776.061035 -414.390411
84.583038 911.481934 -594.609680
-30.667356 844.003479 -390.051849
39.412193 885.468567 -449.177460
-157.427719 752.770752 -518.561218
-169.131775 766.555664 -638.000305
-213.444000 723.556213 -319.091431
-35.735256 831.609375 -446.083099
30.515650 882.775513 -619.940674
-104.921478 784.219177 -559.717834
-30.306730 843.294617 -452.461578
-7.297364 866.882446 -620.983215
-170.708725 738.600708 -432.482239
91.639069 916.880920 -607.271484
120.423584 928.764648 -417.035156
-93.605202 814.978149 -632.854126
-242.327972 705.173340 -471.467072
-96.772064 776.170227 -666.396484
-144.208725 769.965942 -309.034088
135.455032 931.074768 -390.526184
-204.763641 728.009094 -304.656830
116.575363 924.730530 -334.785400
-13.075142 840.220825 -367.104797
-80.002449 772.153503 -370.312500
71.079063 893.630371 -429.885040
-221.690643 758.701904 -611.750000
88.526039 923.794312 -613.648315
-257.155151 711.611694 -527.588623
-214.344574 735.884705 -331.546387
-103.121002 790.097412 -603.021057
57.771885 890.790955 -545.899170
155.046082 943.061401 -368.939972
91.465012 904.354309 -364.048065
99.118675 903.208679 -463.832886
-70.380974 818.369324 -429.016907
98.274940 929.174194 -523.887207
-29.758446 845.914246 -457.461243
122.620331 933.800598 -519.735168
71.493355 873.807983 -375.146393
123.307510 937.755920 -436.215149
107.275772 926.986206 -569.593567
-44.563175 808.265015 -668.744995
22.952477 860.565918 -394.189362
154.169525 932.615540 -448.715851
94.985886 920.447693 -503.576233
-251.874863 701.595947 -562.777283
102.608139 923.024170 -483.000580
-319.662537 680.450439 -556.478943
32.980721 874.983276 -581.516663
4.231638 867.793274 -388.409515
-269.798859 704.114075 -583.825989
-78.713058 794.980530 -643.566467
33.731270 891.184204 -589.699524
122.508255 925.380066 -428.356232
-57.937180 812.732849 -319.171661
-207.568054 715.419373 -445.668030
-58.801830 811.221436 -367.701660
-164.342300 769.399292 -570.195374
-222.850388 732.182251 -321.837555
-274.723816 676.101807 -454.067047
-155.820786 766.620728 -374.057098
-242.662109 695.736267 -412.860931
109.788422 908.988464 -336.970337
48.500813 888.270203 -574.190796
-140.249283 755.776733 -496.387207
-69.383080 796.918152 -382.256470
-68.307838 815.388489 -528.440857
-71.198151 808.191467 -433.692566
-100.364372 805.842285 -637.798401
136.714676 934.399902 -402.065277
-22.669111 842.903259 -564.065918
134.023346 931.363525 -438.163025
-148.914825 791.531372 -630.440796
-208.320923 735.373901 -337.040497
-46.370022 766.266541 -680.584961
-187.044312 750.465820 -487.751373
102.988129 917.655579 -384.069489
-257.495392 704.299438 -508.665222
-49.758762 837.097229 -450.552185
94.846588 894.940979 -439.763062
119.520538 946.357910 -586.348145
-68.699799 809.366638 -406.280182
-244.033554 704.304443 -352.494202
1.139423 885.153870 -676.058289
-105.430191 786.046326 -539.987122
19.068827 858.109131 -555.947571
1.024294 853.475220 -478.061127
152.780701 951.091003 -451.870331
-41.463718 835.434082 -323.022064
134.951279 935.697876 -527.174561
61.247902 884.479309 -338.179657
90.286667 897.603271 -440.167847
120.759186 933.389038 -480.081085
-248.645935 695.380737 -504.349762
-40.893745 825.654907 -432.678650
-76.539948 780.190491 -672.639282
-279.070282 693.858093 -394.380707
-140.379242 749.457764 -387.806305
124.532372 921.984436 -373.631073
40.823082 859.565308 -502.850952
-138.256210 768.470276 -491.550964
1.260046 855.346863 -545.080811
-277.453491 687.756165 -344.037201
124.388718 934.140198 -388.350098
-11.797902 873.306091 -684.347534
-182.031372 727.215698 -583.199585
-182.542679 755.989075 -539.277588
54.875786 935.340271 -659.243530
23.581390 868.899414 -495.043701
107.900764 933.502869 -564.847290
64.860733 904.342957 -612.370605
-238.675949 700.153015 -568.668518
-65.225586 813.958557 -340.350037
-254.785309 712.877686 -424.662323
-10.839346 823.382996 -348.072174
-199.726105 726.600586 -542.213623
-103.363495 778.646545 -447.222595
-47.861145 817.197083 -393.318756
-274.660187 701.918884 -377.359253
-249.658844 692.241516 -418.588104
-2.657545 849.302307 -353.951233
92.159111 917.908325 -369.584564
43.784271 882.636597 -422.482544
-234.324341 707.253235 -545.515747
-191.200699 731.456604 -552.672424
-191.958084 736.691772 -429.099030
122.586723 917.156189 -566.914795
-277.580078 701.928528 -295.079437
-158.828995 747.763062 -320.926361
135.558716 924.527771 -473.468262
112.370659 936.378479 -524.525574
-184.592239 749.315247 -322.555817
-115.762253 775.615540 -362.402985
6.501590 861.528748 -328.559021
28.343660 860.210144 -586.115234
-232.314850 698.633423 -490.090515
57.090168 884.372437 -488.623810
52.269073 901.569458 -585.448120
-147.367493 758.716125 -309.358551
-128.945511 800.324768 -637.798401
-23.243320 830.693848 -670.589111
0.530021 864.487671 -342.636566
106.461655 931.659546 -587.901550
-152.804413 755.133240 -560.261536
-232.662323 706.651306 -468.032867
5.316007 851.674683 -375.650726
-150.837021 785.335754 -634.947571
-103.503334 791.609863 -518.036743
-119.165710 786.244141 -655.478882
90.216682 904.396118 -441.028015
-230.585220 717.902466 -366.340607
74.500099 906.070129 -434.984039
-26.746832 792.594360 -671.255493
106.122169 922.682129 -465.642914
-17.993195 773.624084 -671.219543
-158.962555 771.981445 -495.832275
-153.569382 778.010010 -637.004944
-27.636103 819.199219 -673.682861
-102.637405 789.566284 -474.703857
-46.820896 835.855164 -539.992798
111.247620 941.610107 -605.892944
-246.349274 718.281433 -522.384338
147.496643 946.921875 -426.256561
-2.722967 852.172302 -347.368744
28.288311 903.031921 -678.694763
-37.593483 837.940674 -622.135803
41.806564 884.703125 -350.947632
-11.636378 903.667053 -659.608337
-239.688507 722.989807 -523.098633
-167.031876 735.509155 -395.027679
-99.157257 784.652893 -395.040436
-165.546753 751.705994 -458.551056
-5.380661 854.846375 -539.469788
-17.405567 840.904236 -671.701111
152.353729 930.131470 -347.284241
-125.565582 752.100891 -661.845276
-74.005966 812.041199 -469.824158
-281.220428 695.333374 -366.737091
-88.855698 809.134277 -492.333679
-174.673355 755.502563 -435.163269
-20.365725 838.954285 -322.415588
136.163574 943.181946 -481.959290
-10.507713 848.728577 -566.235291
70.973328 891.847107 -370.361542
-256.460144 701.020569 -572.723022
124.178535 924.522461 -342.107605
-93.997520 779.256287 -376.388000
-61.537678 813.610535 -382.281830
-69.600037 820.912109 -466.722870
-22.400209 808.089233 -679.799438
-169.691116 745.505859 -436.821991
145.426544 930.521606 -505.350861
-145.385818 766.352173 -575.315125
14.014898 871.998779 -457.200958
50.310345 880.500061 -384.144958
-31.611954 830.901062 -344.121948
-1.116739 830.983276 -410.753021
-53.641140 812.316833 -361.066589
-17.701307 802.721985 -667.537720
-125.641617 771.044250 -367.214935
56.396175 894.225769 -328.860199
-214.484116 713.553223 -332.148987
-276.054657 695.526855 -478.003723
60.632565 888.466492 -343.664642
-109.615257 795.350220 -303.808594
107.066391 921.984131 -398.465027
-266.436493 683.760742 -493.886841
-86.129906 798.839417 -663.791382
48.372215 881.490540 -486.614136
-81.804062 784.762878 -352.465149
-53.390297 836.699036 -620.987122
-87.421570 796.497192 -581.555359
-270.771790 685.762024 -422.378876
-237.338791 706.155029 -533.661987
30.765091 873.636963 -384.653809
-59.847111 821.173279 -550.238770
-221.815079 731.293823 -367.178619
81.646309 896.288879 -334.795349
-134.402512 766.824646 -425.348724
-18.732828 846.395813 -552.295959
58.481552 880.187256 -452.390564
20.402880 877.834534 -416.915527
-204.401520 727.772339 -532.241821
-42.198505 828.000000 -371.920929
-268.974792 696.066162 -446.009613
81.251419 892.685364 -438.973022
-136.841476 783.760864 -432.701691
78.263107 892.019226 -372.886475
104.104256 927.992432 -553.953308
-20.859455 826.804321 -673.814697
-259.646454 692.257202 -562.953552
-59.360783 819.810059 -585.421143
-207.231674 712.055420 -492.752869
119.145294 936.936279 -533.959656
-66.299873 811.571899 -407.083313
-65.587936 815.728943 -355.258759
50.957550 882.162170 -444.296112
-187.144760 755.096008 -515.264526
-162.862885 750.801941 -464.367676
41.827808 886.343079 -551.581482
-103.950203 788.632507 -381.884308
-231.359756 698.020142 -440.564789
-157.355164 768.859863 -478.641907
141.733093 938.697205 -414.071106
80.548874 989.952637 -660.668152
-138.430450 751.985779 -665.525696
-179.817398 745.103271 -419.496613
-109.755302 794.110596 -580.693542
40.264587 884.633179 -432.173676
-23.729691 837.966919 -582.085571
0.288007 852.540405 -456.506348
-107.427574 788.700989 -506.660400
-301.989594 691.563293 -540.646912
-35.082054 790.150024 -689.970398
-249.602188 696.869873 -296.584991
-30.329865 846.131531 -399.342926
114.553314 926.498108 -388.876190
-76.943375 732.306458 -669.478027
-59.342670 811.853394 -388.770172
-148.124039 773.306213 -553.908020
-227.687454 725.668945 -445.279938
25.708948 872.716858 -528.998474
-187.179443 754.964294 -467.721680
0.752383 869.502441 -675.971252
128.119034 939.370850 -434.686584
-37.146706 780.414917 -670.274109
133.318222 938.209351 -350.357971
56.993279 889.738281 -360.100372
-233.476273 721.624084 -529.101196
-146.396378 765.467224 -545.487244
36.305801 869.860107 -419.651611
-183.062622 714.504456 -399.012726
-190.514175 729.839478 -381.937805
-134.268600 782.504211 -556.570557
-123.741272 771.711365 -606.251160
49.040825 888.273621 -531.885132
-91.537544 773.272949 -356.910767
-4.201741 889.672180 -657.145508
-275.564667 691.090149 -563.538574
-171.492950 733.617737 -643.454773
-106.598465 782.858215 -437.681885
125.881477 952.312378 -639.138000
25.049231 870.962158 -533.944824
0.657469 849.632507 -448.092438
-99.580467 794.978699 -344.066620
104.321365 894.684204 -385.389221
-10.916245 890.039856 -645.830627
-272.539612 680.427734 -350.294434
-234.317322 688.902649 -372.949921
-183.755539 736.535156 -340.294342
-231.839539 727.837646 -459.478699
-71.928596 820.101685 -428.014771
8.812132 867.888855 -547.439880
96.425880 917.389160 -644.095398
-227.055908 723.742126 -320.522705
-155.719849 757.978333 -566.724121
-18.327606 820.562073 -379.646210
-169.062485 751.940308 -476.223877
-65.564407 828.389587 -532.396423
6.237256 860.332275 -403.427856
-188.389297 734.021667 -312.371735
-0.433381 841.095642 -333.415710
47.905041 889.972717 -404.495392
-142.786087 726.336670 -328.532715
-230.306519 704.837524 -417.939148
-78.459160 796.340515 -668.425049
-49.166298 826.778809 -370.740784
-18.293507 880.778320 -643.999207
46.526592 934.082275 -676.711365
-77.270012 817.686340 -525.561707
-231.181305 704.206482 -428.907135
166.343033 942.492188 -408.013489
-40.180214 811.729797 -654.510986
99.961845 906.390747 -397.364868
-274.066925 695.096863 -473.874329
51.633057 888.340698 -602.045044
-73.164886 816.385620 -603.294739
0.514094 865.226440 -572.033203
70.673386 886.410034 -563.845642
16.324896 862.432251 -459.056915
158.143127 943.374817 -355.515320
-105.963326 764.897705 -367.595337
-60.918316 816.573669 -335.456940
-142.089417 761.754211 -453.715454
-101.131355 790.676758 -654.730591
137.222626 924.852234 -376.306244
-230.548676 721.333191 -481.461060
-44.609730 827.280273 -336.167816
-185.037125 733.526184 -319.701538
-219.111771 736.681335 -312.445465
-121.409569 768.172058 -574.964539
-163.221146 758.289001 -581.855652
-193.243652 750.058350 -492.894531
-222.904404 712.324768 -294.047455
19.950014 860.325928 -515.591797
-100.269814 803.878357 -380.890503
-102.521378 784.259216 -395.430573
32.418770 957.928345 -676.516174
-68.327660 806.215027 -564.284851
-5.556032 854.987549 -533.779297
-44.077950 835.582092 -590.336792
-128.156464 754.313171 -657.789246
-179.908798 736.266296 -346.697235
-35.715946 849.657288 -632.514465
-88.495750 761.280396 -670.205139
-28.280888 836.848389 -469.893494
126.642357 925.860901 -394.614197
-207.727844 741.173828 -504.444153
-240.263718 723.901306 -480.767944
-93.713974 807.262512 -537.952209
-139.597153 765.908325 -446.308411
125.122047 923.616333 -382.070038
-151.746582 774.454163 -486.721832
-78.029953 787.141113 -336.620422
-251.460754 708.095947 -317.246613
-151.202194 773.770142 -341.860809
78.278694 899.393860 -384.191071
-79.226746 756.491943 -672.394897
-218.385880 714.988037 -435.288849
79.516441 905.981445 -365.128815
42.359676 900.362305 -624.105408
-255.174072 709.971680 -302.088409
-107.465660 798.380920 -330.043121
-230.552811 723.560303 -577.517883
-57.602730 847.481812 -624.980103
-175.370331 754.760254 -628.296265
102.213425 915.580566 -389.730530
-160.186691 750.083496 -366.661530
-199.752838 726.408752 -551.111267
-41.849895 834.065430 -620.593201
-93.857071 802.912598 -544.864929
-80.035477 803.165894 -571.483459
-35.443569 829.446411 -422.627014
13.828397 869.548889 -358.524597
-274.462463 679.911804 -440.078827
85.701393 937.343872 -664.897888
-40.026333 830.900085 -534.353821
-186.426651 753.817566 -527.555908
-9.210809 885.137634 -668.818909
38.760853 870.834900 -577.879639
66.726196 898.735657 -501.795410
-300.456421 688.531128 -575.012817
-259.736053 714.923462 -317.798004
105.815849 927.278381 -478.852478
50.834408 894.050110 -547.813721
-139.691223 747.568970 -660.106812
50.174328 883.988281 -501.885712
-121.586174 789.096252 -561.144348
-100.095566 785.198120 -369.837769
167.488052 950.949097 -374.085510
-161.436798 773.047180 -595.388428
-132.196167 770.979858 -584.949158
-49.085926 871.316528 -653.076050
-88.550049 801.993286 -501.163239
135.711929 941.705688 -488.559692
137.241028 934.666199 -406.836517
12.159937 838.599060 -404.282135
-52.916122 797.313354 -670.679321
-12.812609 857.679993 -388.435425
36.839211 892.484375 -555.168030
117.791451 942.711182 -636.519775
139.527771 940.232910 -409.837463
14.693336 870.717590 -384.113953
92.136269 916.690735 -417.594391
-79.028694 823.773193 -631.215454
-208.712814 721.485901 -311.343506
79.796951 910.480896 -416.161285
58.206871 881.659973 -377.020264
-216.123566 737.889343 -468.891479
-100.858292 803.614441 -469.021729
-233.167633 706.848022 -503.294037
37.301556 937.207947 -675.279236
127.623055 934.288696 -604.818604
-138.305466 765.866760 -562.857300
-28.939388 853.839355 -614.391907
-45.182301 838.857605 -477.531982
-105.656647 793.962158 -376.502502
118.721756 936.338562 -528.813049
-315.167572 696.391174 -588.361511
48.490532 888.932800 -382.870087
129.510910 946.105957 -588.344360
-200.018524 716.399414 -434.024841
98.972969 915.235229 -410.435425
71.402809 893.545654 -536.306885
139.450256 919.735962 -505.291565
-205.046295 726.959656 -632.814087
-212.832275 732.601440 -508.167847
-165.500763 739.485413 -455.773285
-69.472519 802.288574 -353.559204
-42.225266 806.742676 -405.344360
-85.777870 812.434082 -419.686310
15.644438 854.998230 -408.031708
-158.728729 740.775085 -565.483398
140.711075 950.454468 -605.219604
-114.797600 799.460083 -543.241516
-27.289467 836.841736 -452.951294
-14.823337 832.921509 -661.744751
-49.606663 800.909729 -373.956146
-12.101707 846.572510 -550.354187
-277.871582 683.364075 -385.701935
-53.841728 813.852173 -350.854889
-120.823685 749.040649 -672.188171
-73.558228 825.096802 -525.382446
-189.369949 749.105103 -592.687073
-90.744675 791.222168 -345.881500
-6.215523 907.442444 -666.673462
-50.883747 835.783081 -418.232422
-212.878769 718.218079 -587.129456
-10.985671 834.213745 -679.595764
109.595779 906.728882 -345.879761
-212.078690 715.019531 -317.475189
-103.932411 764.517090 -322.144257
-80.553711 816.384766 -387.420776
-168.171402 746.314941 -371.734161
-102.173080 733.592041 -660.474182
47.630402 876.905090 -334.148682
-323.787476 705.322754 -596.580200
39.129669 881.380310 -559.165710
-143.860718 773.641602 -345.422028
-42.803867 826.784546 -513.668701
-144.244034 765.873291 -403.074097
-215.565918 711.005615 -322.269592
-3.797895 858.606079 -377.025909
67.397591 894.335815 -341.840881
-51.958744 816.251343 -667.613098
-168.892288 759.263977 -368.538910
-122.317619 779.323242 -429.583771
-170.525070 785.889221 -614.340942
-107.500748 801.003723 -537.380737
94.465317 924.677185 -470.848694
-116.461014 778.685364 -492.869751
5.372099 861.503052 -676.631714
-154.552063 745.883728 -425.813995
95.022926 953.012817 -639.128784
-234.607727 707.325012 -313.401398
33.901432 875.302307 -560.839417
-50.112446 832.712219 -643.190918
-65.769493 825.401917 -389.543518
-191.499786 722.153442 -495.320099
-185.389709 736.034485 -463.039581
-26.326141 778.203064 -685.711914
79.176193 877.862610 -358.030212
-75.013054 817.722778 -482.961578
20.016361 880.027405 -497.851227
-63.799564 821.025452 -499.885742
-77.441628 718.601318 -670.524536
61.557026 896.845581 -395.015717
149.843430 933.314209 -402.996216
-158.693466 735.089783 -651.990540
-64.265923 813.123413 -330.127686
-248.154099 698.039734 -520.386169
107.687096 931.263672 -555.099792
-21.002144 852.603455 -347.525604
-153.086990 743.830383 -424.188293
-325.900574 707.009827 -602.917847
-259.069611 677.558228 -570.638062
92.873169 916.431213 -453.707520
106.681992 922.742004 -432.524750
-82.295769 805.815857 -563.627075
51.324383 892.093384 -534.960938
-92.750046 793.531128 -448.903076
-231.355530 727.043457 -321.786072
-110.833290 798.293762 -486.193512
-95.796417 738.546082 -672.448303
-179.203659 740.376465 -552.940430
-116.953613 771.879333 -413.909241
-267.756165 697.088928 -507.010681
-79.836464 815.773987 -656.096802
96.440933 933.624939 -649.774048
-60.352211 831.117737 -514.066650
39.165081 876.319763 -326.891541
-47.228523 824.139893 -362.808289
-99.012878 717.681946 -665.295837
12.976385 841.888306 -452.718567
-93.188446 836.713745 -636.861145
-32.450684 828.514526 -468.668640
74.559265 906.425476 -403.148041
7.691404 863.165955 -521.117554
27.984556 886.536255 -557.942444
105.634888 924.140381 -431.550598
135.587143 923.797729 -351.278351
-90.998413 792.537170 -566.038757
62.513454 895.884766 -507.308167
53.676456 950.817749 -668.052368
118.268898 935.765198 -523.704285
115.224968 942.662109 -585.657898
-164.233185 752.662354 -498.285095
-257.535919 711.356201 -546.515015
-202.832901 738.866882 -376.717194
115.920654 921.001160 -333.440552
8.478656 892.186340 -631.285767
63.936401 901.060425 -431.112823
-82.913574 782.972961 -500.449615
-257.611176 688.792297 -558.334167
-130.549362 764.028503 -445.349091
-56.350056 823.163452 -647.694336
-30.889727 847.828430 -429.522430
-47.592548 814.211853 -341.217010
8.109833 863.297119 -438.505981
57.361279 880.991943 -492.231293
-137.710953 767.706238 -412.028992
-117.099220 771.719849 -560.743164
71.385399 894.240662 -512.924622
-160.862595 741.130249 -571.842896
129.668716 935.866516 -440.675568
112.904495 931.124268 -594.028931
-256.458557 689.096130 -298.991333
-186.854080 748.258423 -544.659668
-267.397949 675.936646 -370.345764
66.793861 891.515503 -508.704468
101.002441 923.699524 -462.097321
64.786217 885.672546 -425.222839
-50.850552 821.456909 -478.937866
-247.552307 695.465332 -551.547791
137.236832 931.246277 -479.232361
-250.223846 704.203552 -383.613464
-91.153900 795.551819 -363.489990
-76.850517 786.390137 -321.297485
8.745184 852.216797 -679.480835
-30.582106 833.268677 -485.049988
-156.825409 738.402954 -472.706177
18.284725 860.134827 -433.137360
46.552742 898.907959 -563.586914
-94.384399 783.622559 -329.558197
-137.341736 765.299927 -607.014221
-127.471481 732.732544 -658.405640
-236.186539 700.853638 -342.677673
93.119370 912.744019 -381.883118
-23.299700 835.737000 -327.760315
-131.003372 769.377014 -512.152527
-243.748978 715.309265 -379.259003
-259.527344 700.259460 -414.423523
115.304512 902.522339 -497.434937
-212.421143 718.938049 -513.952576
-9.513264 846.375793 -578.283325
-133.837494 782.885864 -550.684814
-11.468826 859.752136 -623.671204
5.435211 867.079651 -507.742523
-208.861877 722.907349 -585.941528
-77.103027 805.720215 -334.690704
119.055779 928.491760 -457.011414
39.466702 884.343689 -387.341492
-235.516541 703.698853 -312.219543
-177.978867 750.083862 -380.242432
-257.373138 712.103516 -509.151184
-16.485325 895.549438 -664.268311
-126.797562 778.394775 -486.579742
141.845810 941.158325 -435.416199
-134.719040 797.729187 -639.086304
152.859238 951.416504 -461.046356
87.660294 914.985779 -408.813324
114.400352 930.023376 -446.461182
-90.273430 812.682983 -444.057739
-15.244821 833.633850 -355.807098
56.198357 890.356140 -466.201569
-90.196579 812.878784 -449.613647
-157.273010 766.121033 -476.264038
85.521172 902.222534 -457.365234
-80.340019 822.038269 -605.784607
-148.790054 771.489197 -477.563934
-23.995909 847.101013 -631.599792
-103.495453 775.838623 -651.121094
26.500526 876.538940 -380.536407
-220.131714 717.880066 -587.778870
-139.463928 766.030090 -548.775513
120.342339 935.410583 -335.113037
-181.781693 744.315552 -474.236145
-247.441467 692.787476 -334.116425
26.562504 868.971497 -356.155090
18.462032 884.974304 -603.380005
-121.849571 757.911987 -341.118896
-66.954437 815.286743 -481.301758
-69.486855 803.862000 -513.653137
16.918381 872.245239 -401.026794
79.187485 911.217651 -545.376526
-40.845020 829.493103 -361.613831
176.962326 954.104980 -343.360138
85.206230 981.074341 -662.214661
14.868598 851.421326 -339.811218
-236.118256 718.136841 -359.147552
14.220553 870.811462 -518.310242
-91.642624 791.320190 -413.079926
-192.761795 747.097107 -574.321045
-77.293388 805.152100 -571.510498
70.487099 901.783936 -395.941925
-64.971245 818.469116 -519.040710
-201.992004 744.015015 -331.776428
131.249008 916.835693 -390.569763
126.965149 938.830505 -461.812683
32.077976 865.011108 -437.531158
-255.399429 711.582703 -453.611359
-126.190193 788.417297 -539.477722
84.027077 919.599548 -602.274841
87.030151 915.830383 -521.475525
-160.478668 786.862061 -632.672668
5.322448 850.718750 -547.943176
-3.641604 889.222046 -635.037537
-21.740505 843.221375 -565.666077
-146.999374 771.744995 -314.882019
124.990219 925.251465 -534.351501
28.784893 882.589172 -535.952576
142.838196 951.619080 -607.800720
-250.099792 708.712524 -347.069366
-4.982113 852.870728 -416.948578
-219.140366 722.552246 -496.927216
-136.899475 778.745117 -392.237396
-75.665680 821.246521 -424.084442
50.513615 861.660950 -413.800171
-169.520081 766.733276 -327.701050
93.768433 925.506348 -606.155396
-174.415115 733.911560 -324.066437
-50.734028 815.716797 -579.087524
78.933945 874.868774 -459.077332
-236.776169 690.978394 -527.600220
-98.732399 809.332886 -544.514221
-70.230553 811.022400 -525.800903
-19.710154 909.276794 -667.201782
101.962486 920.657837 -345.895233
-177.502197 778.882141 -641.976563
7.590956 819.506592 -673.214172
36.882198 874.416565 -456.371033
170.696899 946.155884 -409.049408
4.015880 891.146729 -661.298584
-220.620209 729.516541 -473.940063
98.100037 926.237000 -649.254089
-279.501404 693.641724 -451.177612
33.653328 876.847595 -531.876648
-73.134178 818.042542 -384.730896
41.000828 883.670349 -336.525513
-114.488647 781.066589 -385.671295
-258.981903 683.497375 -527.529541
-47.904972 839.924438 -652.516479
-244.264389 694.874268 -429.394867
-32.305531 777.410583 -683.105652
-99.421265 777.527649 -398.603790
-188.486633 751.458862 -382.882751
-158.285339 752.383911 -321.060089
-227.523346 704.466125 -305.537415
77.730667 915.591187 -557.927063
-214.846176 718.881165 -318.270660
-71.949608 812.258240 -573.054749
-138.428009 755.261108 -333.344116
-7.972928 859.010864 -397.070618
-11.804158 808.424255 -685.985168
-28.724968 837.341797 -388.034790
-140.577850 766.101746 -555.645142
-1.881717 846.339050 -424.210052
-41.328938 831.122498 -566.848328
-99.710373 806.022705 -634.701294
-275.050629 692.977722 -429.060059
-187.979874 778.922607 -632.434875
-13.433539 847.442383 -412.159454
-84.902527 819.052429 -604.929138
76.023521 904.319702 -578.329529
-173.866928 724.828491 -502.150391
-147.396347 771.675293 -426.327850
-183.136612 726.154480 -408.743561
-146.852600 793.797241 -644.063477
40.479832 870.201965 -336.936798
18.854519 874.704895 -425.884796
-91.853271 795.739014 -593.452454
113.902054 927.253662 -549.900330
-63.092392 822.652466 -359.767517
-147.446823 763.279053 -576.162231
-209.762482 729.632996 -361.193207
-264.240021 699.121704 -441.374542
-72.939827 826.215881 -554.899353
4.203855 855.602478 -324.474457
-2.189432 860.997253 -473.883820
-132.815628 779.536255 -339.433380
-25.900951 810.646667 -444.102875
-227.312576 724.611511 -381.085022
-226.069489 724.690125 -304.749512
24.372805 880.150085 -548.254456
-244.988754 712.776428 -480.161621
-46.926548 825.307190 -524.530701
-281.764862 697.807068 -295.575836
102.439590 891.867065 -518.128601
-158.557709 751.737488 -373.682159
-113.207359 785.055115 -542.059021
-131.069550 779.008057 -582.570496
-119.767433 794.623047 -594.185303
-254.770813 705.167236 -432.115326
-16.294538 843.000854 -672.630127
-96.418510 799.688965 -309.238983
-263.216553 688.878296 -544.011169
8.273717 859.685486 -394.883514
-250.321304 703.626648 -294.857605
118.913155 932.344727 -420.191101
131.805954 938.525452 -377.649994
84.105682 912.068298 -487.287781
-183.326019 741.824707 -425.715729
-197.025223 729.249634 -488.907227
-170.512421 757.749695 -321.590240
109.997726 908.346008 -461.145294
76.744293 908.581726 -339.297424
-58.183933 809.874634 -342.203125
-162.687103 750.104431 -560.742432
-1.596596 844.922668 -405.532379
27.641428 872.511536 -372.479828
-255.768784 691.783997 -516.684143
-169.312576 741.659485 -362.824158
-100.324379 802.936890 -595.580811
-223.469742 730.874451 -533.523499
62.790199 901.162415 -582.809998
30.233997 842.403870 -382.124725
-277.547058 693.470886 -496.167969
-172.896820 741.336304 -367.108490
-9.769775 827.576050 -389.208740
34.590469 886.268860 -423.788849
-95.972771 815.866394 -611.459961
-277.232269 695.601135 -422.440033
23.256165 886.209717 -610.208801
-242.930450 714.562012 -318.827423
93.975830 901.555603 -538.603638
-13.999668 857.819275 -650.828247
-275.630676 703.725220 -293.696442
-3.392608 861.463989 -451.769867
66.775421 903.096619 -370.443085
-19.209145 835.711731 -680.755981
14.799032 875.174805 -549.914490
137.808975 931.363220 -353.501831
-108.875610 811.808655 -646.452942
-60.702667 817.455444 -559.892761
-81.775993 798.344055 -561.899170
-95.536034 809.717041 -445.367584
16.227535 862.986023 -487.807617
13.782725 853.972412 -358.017426
142.566238 921.307434 -360.872284
131.403534 925.940430 -418.087738
-10.473020 839.011902 -398.380096
38.296730 876.398987 -481.098083
-254.121429 697.636292 -547.193787
123.369209 914.967590 -356.999878
122.162804 913.677368 -416.669434
-121.145363 794.292786 -462.917938
32.973072 866.628723 -373.610352
-258.347595 694.616882 -345.163727
56.312416 858.883911 -420.011292
120.981598 942.720398 -568.840210
-0.550112 849.970825 -447.231903
112.586487 912.428162 -494.877594
16.171734 875.043579 -570.412354
-294.274353 694.473511 -524.861633
4.468503 923.117188 -678.515137
-128.857681 773.865845 -378.539001
112.727249 892.175598 -398.656128
64.921669 901.279663 -617.742859
-204.697968 717.023132 -342.305023
-31.618973 828.097900 -558.952454
102.732887 905.988159 -420.434509
-38.457050 846.522461 -663.804504
4.611484 915.092041 -671.583679
103.379631 915.930237 -499.328583
-29.523161 812.416748 -336.886658
-154.425613 746.047180 -497.034485
-90.710274 793.689209 -338.167358
-206.484451 706.985168 -555.206360
-235.052155 682.490906 -478.475189
1.149577 848.553894 -535.505615
126.721550 926.056396 -446.148834
-99.545044 777.878540 -659.975220
-85.861862 806.352722 -312.554962
121.539536 922.514038 -536.087708
-17.060349 821.375122 -383.929413
128.648254 925.343445 -381.149658
-233.157074 692.565613 -405.982788
-210.329971 738.697998 -331.663147
154.500320 938.492554 -346.850067
-278.883728 674.028442 -442.889160
-89.386642 811.651184 -377.980835
-265.062408 695.133362 -402.279297
-229.380524 726.024597 -556.956482
-84.597115 773.122375 -670.112427
-61.137241 805.300415 -645.115723
0.869575 878.490784 -610.581604
138.215958 947.250061 -489.009277
-129.243027 766.265076 -603.242554
-67.812073 808.095581 -454.155396
52.383350 876.124084 -364.186066
-136.617462 782.249207 -655.926941
96.409882 902.480774 -368.290833
-213.012375 726.492004 -481.010620
133.445984 940.617676 -504.514862
126.875465 928.951660 -492.912201
-191.195053 730.816406 -381.835327
-111.205368 775.752441 -505.702118
-218.773270 711.104004 -388.622314
-216.798050 725.800476 -362.934082
58.291538 897.606934 -432.031311
-85.905945 795.722839 -468.736481
143.690887 945.452515 -447.941071
135.912415 934.999939 -482.976318
-302.812714 692.081299 -534.644592
37.583134 878.529663 -549.805664
-183.679352 750.578430 -375.149353
-47.209877 822.273560 -595.723206
71.563416 892.355896 -559.835876
26.544842 862.689514 -464.660706
-70.595352 790.314636 -423.652069
-14.339564 827.293884 -677.122986
-113.891380 779.874939 -515.304260
131.815536 946.409729 -534.106995
57.783989 864.884644 -350.158539
-121.568695 759.013550 -458.827179
3.080284 867.359985 -597.403809
-97.239662 809.932190 -641.657776
68.812279 921.858093 -628.707825
-36.035954 843.134583 -575.833740
14.934915 876.351929 -597.926086
5.720026 866.979004 -542.416870
10.619348 858.320984 -677.901672
59.327919 888.705200 -464.839081
-72.333176 808.931580 -509.997894
-9.327578 843.346069 -373.094757
83.453293 908.756836 -468.252960
-145.560104 760.297546 -326.593048
72.229660 895.412842 -462.566589
-140.888626 769.276855 -497.946808
-158.373520 742.293457 -409.942902
-120.020752 752.375488 -664.518005
-122.721725 788.199219 -420.932922
-131.569489 782.710693 -425.109467
121.868362 926.097778 -337.926178
94.572807 908.320984 -376.116302
148.812668 933.188477 -405.541229
104.276024 914.258972 -437.488129
-110.104469 798.265198 -474.741211
163.323502 947.603271 -368.833923
-90.513908 781.141296 -665.480103
79.291687 909.109619 -521.218018
-87.537971 807.568359 -356.590485
-160.220383 764.418518 -383.801392
-206.776260 744.038696 -317.464294
-57.934643 790.270081 -658.428955
-106.269539 784.729919 -464.905579
-35.866337 815.558594 -341.368805
-111.931595 795.532349 -606.250305
-232.910370 706.784973 -497.289764
-269.937927 671.260498 -458.281281
-6.150701 876.581482 -669.150269
93.685776 914.243347 -398.482330
-147.451920 759.660461 -398.330688
80.137772 905.285950 -445.202759
-222.473206 733.740906 -562.127686
-96.614761 808.109863 -332.448273
-135.502426 767.520996 -572.562744
-134.302094 773.557800 -337.418976
-105.666969 803.451782 -447.807343
13.881310 866.917786 -590.283508
-25.075033 849.666382 -362.539673
-19.760494 835.858582 -330.549469
-137.557983 762.958435 -374.578979
17.025740 846.309509 -363.214722
91.180397 914.464966 -423.319916
-191.761230 732.835083 -478.853302
-57.834637 827.873230 -496.710571
-26.889023 827.555725 -400.230164
-151.453476 762.467041 -473.327271
75.526421 922.745483 -625.341675
-94.562485 805.578979 -446.566345
56.978085 885.898499 -446.300812
113.038048 928.104431 -368.083313
-3.673499 862.730652 -461.221100
-97.537712 802.821655 -305.347229
-129.876114 770.135437 -498.031921
-144.947845 736.292725 -651.287109
140.378830 925.931946 -458.336365
19.828897 866.908997 -512.606750
-69.420547 822.321594 -457.711792
-67.018547 742.938965 -666.144470
-128.494934 770.253662 -346.560333
-136.232620 749.757507 -506.072632
11.684627 894.490784 -685.538818
3.140980 863.705872 -595.262512
-109.648300 774.402161 -449.876495
-113.955856 778.421692 -390.289459
-209.397507 727.292175 -388.809326
12.138140 862.723083 -563.199829
-196.296555 737.280151 -357.865234
-111.446480 797.445251 -403.871552
-153.769775 747.439026 -306.279327
89.498810 912.744080 -469.558319
-9.603541 846.843567 -515.186584
-214.337463 702.719666 -364.698639
-31.278097 830.707458 -648.271362
108.316483 923.155029 -627.065430
-117.491005 790.044495 -422.579468
-219.037109 719.266174 -372.556854
126.108192 941.778931 -340.465881
57.209007 975.605835 -676.360352
143.738831 946.460632 -453.792114
-7.326116 858.010010 -565.811218
53.037125 878.877563 -580.019531
-241.420883 729.073242 -588.136292
43.928257 878.717041 -348.297882
-184.034225 786.042114 -659.839111
-114.537560 774.421509 -318.778870
59.688519 895.661621 -505.511566
-252.661118 708.305908 -470.585266
-172.770828 761.203186 -404.082733
-135.413391 779.242981 -331.101196
-86.122917 795.630920 -457.721008
55.393578 895.080078 -428.806427
-110.648880 800.606018 -460.298431
-163.573196 753.672058 -434.544281
-32.511482 829.483643 -383.916748
17.960308 866.215393 -394.855164
-199.244156 746.640015 -510.322845
136.739410 946.161804 -440.983398
62.543945 883.040344 -469.936707
61.688198 891.698608 -559.629578
-34.397526 816.394165 -669.732788
-108.961288 798.496338 -461.879791
-245.085663 691.208069 -364.307983
-161.375885 749.806335 -558.543823
17.135939 834.999451 -419.082733
9.032294 839.611694 -434.123322
24.900587 885.396667 -588.387207
-215.364746 737.725891 -445.181366
60.915070 898.337769 -433.428955
-237.616516 714.058289 -373.645721
-36.048752 782.146912 -679.281311
76.995880 904.707825 -542.827576
131.147614 918.492371 -412.423065
81.132851 899.132141 -439.805054
-192.157104 746.177368 -425.273102
154.234268 942.508850 -444.464935
-215.535324 712.599182 -556.442871
-207.042511 735.187317 -322.619232
45.582977 878.067993 -413.020691
137.270142 925.169128 -587.553223
-7.556244 848.566895 -496.612549
-57.728355 813.382507 -468.149261
-83.838669 814.810547 -342.264191
-19.804020 844.609375 -594.295471
-187.648666 751.599915 -556.709412
-55.974232 743.534241 -679.419617
-211.253876 719.017822 -422.107819
-64.353340 807.251648 -544.884094
-269.654175 691.563477 -325.750519
15.360464 871.791199 -565.606750
-128.686615 786.494629 -626.792603
84.377342 911.329651 -557.519897
-63.684135 813.074524 -472.705261
-274.697754 693.161377 -512.831177
-63.910187 795.690979 -341.604126
-89.674736 791.815002 -392.114685
111.671494 906.911865 -583.235291
-53.307457 818.171692 -437.535522
-5.376529 838.368958 -684.954224
55.359016 893.976318 -544.179871
71.765678 899.345337 -357.568268
-61.117764 816.026184 -350.469604
132.975403 933.092285 -430.873505
-2.109730 862.277893 -437.080933
-32.583771 805.027954 -658.801819
-204.839310 723.829529 -311.839600
-148.640289 757.646057 -563.627380
-35.212120 840.831116 -626.923401
-236.471481 722.665283 -382.845032
-131.775131 754.138550 -532.797302
105.560112 920.560242 -385.014496
47.249893 875.390076 -374.714294
145.497726 949.278992 -475.505524
-58.246227 817.040833 -418.206085
-137.676727 771.046082 -484.289642
-48.611546 834.328796 -514.009155
-4.596941 855.076843 -586.206543
31.533108 876.895508 -531.098633
-217.785690 723.050842 -516.090149
-235.347641 693.148193 -311.571716
-21.885801 836.578247 -327.448303
-37.234844 802.624268 -424.596497
85.208405 915.530273 -395.977417
4.389933 861.135925 -614.194824
-80.031311 832.425842 -624.466797
8.176641 867.640991 -523.632202
-25.149408 841.556213 -433.186615
43.184017 880.915527 -452.927460
110.781586 908.526794 -375.779297
-190.110611 746.589417 -485.812347
57.749561 893.027100 -503.936646
60.409313 873.004456 -330.094452
90.878448 913.581421 -555.341309
-57.855358 819.765869 -651.838989
139.042770 914.673584 -448.285126
-219.914612 712.226135 -338.548340
-127.058617 772.141418 -527.230652
90.708069 901.841736 -347.431396
21.219194 877.616638 -377.994354
-13.001908 828.612976 -680.372437
-260.449493 688.892273 -476.342255
75.635155 896.942505 -446.578644
-203.370468 721.496643 -329.407684
-217.525620 699.196533 -349.072815
-181.724289 725.926086 -440.644592
27.121094 883.171204 -457.568390
-2.297472 834.015137 -686.298950
-61.660019 816.296509 -360.822510
60.759697 933.561890 -663.001465
-12.688628 769.987244 -676.030884
57.836395 886.292114 -622.729675
-241.600266 679.551086 -379.507935
57.572605 898.502991 -468.120941
9.941085 829.709106 -680.949890
-196.299835 733.506470 -514.925720
-167.676773 759.206909 -647.839172
53.937283 973.059204 -677.907043
-251.122192 692.852112 -486.825165
93.664040 913.899780 -341.035187
-234.401367 724.163208 -304.379913
-100.132370 772.686157 -308.301178
45.978748 878.602478 -390.050201
-205.165100 711.624756 -513.708923
111.610893 899.265137 -372.645294
16.600035 875.071594 -347.625549
63.939915 951.704834 -657.643311
47.803722 894.091003 -420.471771
-13.621885 836.827759 -682.227905
-58.379734 829.629456 -342.241791
-58.409027 814.593323 -468.776794
-5.529132 854.883667 -527.960999
-100.788185 756.122070 -656.615234
17.300215 874.230225 -362.401550
-171.235046 772.260071 -640.068237
-38.107803 832.555969 -567.236389
-111.839203 792.798767 -348.112488
136.035034 926.838928 -528.123291
89.365334 922.872498 -499.243652
-181.415619 743.183533 -327.763275
-19.623453 844.294373 -598.767822
33.627110 867.401855 -375.398621
47.961655 885.883667 -516.706482
-103.152618 791.560242 -512.138794
-166.617630 744.869507 -341.067474
-17.908916 838.619751 -331.255859
109.859245 923.506592 -538.113464
87.652779 911.305603 -462.802856
54.958149 904.163025 -591.649170
-256.833282 689.649475 -409.977356
22.763901 849.096863 -379.660614
95.730553 900.431030 -356.325897
-32.369461 837.635925 -534.650330
-178.742188 754.193970 -533.683594
22.498137 845.597351 -463.702972
-47.410828 814.723999 -336.410736
-2.056100 874.878784 -627.808716
-182.653793 743.575867 -587.406250
-110.973404 783.849670 -358.608032
-163.762177 755.163025 -642.471436
105.967514 911.438416 -381.744446
-62.578125 825.439880 -661.092651
14.747598 854.816040 -429.481110
120.461609 921.338867 -337.953705
138.673462 942.983032 -477.184113
-201.632156 742.439331 -562.573914
82.871658 899.616333 -415.261627
139.711746 929.380188 -350.008026
-29.930040 845.494507 -490.810913
4.659007 865.360413 -528.897461
134.881470 942.040894 -413.927765
-262.587189 699.955688 -359.370270
32.194633 869.116577 -466.420502
-227.275375 696.250244 -526.155273
-61.814522 769.037354 -678.377197
-168.138855 741.078186 -347.155212
-74.325745 815.892151 -655.976074
51.091179 895.689392 -404.272919
133.070480 939.991150 -541.825562
-156.809830 751.906921 -320.883820
65.149193 887.324158 -459.103821
122.660629 928.927002 -551.012268
31.841827 882.900574 -490.513916
-33.732883 832.933838 -485.520538
-157.689117 753.345825 -511.936859
-194.362457 744.315979 -318.225769
16.978102 868.318970 -581.644592
-145.736130 738.997925 -373.272278
-264.733643 671.408203 -416.738953
95.619270 892.413391 -590.726563
-35.674026 832.513184 -447.801331
-217.804138 715.526001 -541.645508
-50.850410 801.841736 -418.239136
-34.732162 786.650024 -681.991211
-212.402267 740.125183 -589.710449
-110.606079 728.798462 -661.356689
-155.513092 777.952393 -593.203125
-144.492615 758.252258 -575.408020
47.776890 879.866089 -544.735168
-180.990677 750.407410 -656.562744
-249.313812 713.759399 -510.142303
-94.149231 775.603577 -489.687378
108.705589 925.416687 -405.267120
-121.308968 774.512207 -433.221405
117.448906 910.086243 -337.809601
22.523849 847.593018 -456.927643
-74.956497 804.392944 -444.722687
-202.371292 779.738098 -649.286255
-200.689011 727.454956 -482.874054
-130.432159 783.665344 -515.076050
-140.948059 772.090515 -370.374969
66.650192 897.083069 -417.569183
4.393877 869.237671 -680.134583
-145.383881 777.828064 -458.432587
-230.450485 722.413940 -417.652039
-99.267456 758.751892 -682.466125
125.683823 929.127380 -478.128235
-146.266312 781.878113 -616.404846
-75.207237 821.796997 -440.399414
-42.067825 744.042053 -673.582520
-50.133369 835.702820 -653.942322
-88.897316 793.354126 -429.679382
-37.726582 840.805969 -443.450409
-117.420792 781.744385 -541.900818
-8.536767 860.731445 -484.249603
-128.897659 739.729370 -655.646057
-239.097855 706.697876 -449.919678
51.347057 914.814575 -655.603638
-53.272751 822.172302 -595.744629
-32.490021 817.391357 -674.632263
-128.374680 783.208557 -349.144897
-50.498890 822.783142 -435.316162
-241.641006 686.560913 -469.750763
-211.290726 706.228699 -540.641418
-20.004263 857.056091 -567.654968
-112.132423 779.722229 -313.056152
65.250893 899.914795 -336.662933
33.231083 887.535706 -570.576355
-137.474197 770.559021 -464.144745
-49.980034 817.119690 -514.984863
83.045120 914.508545 -496.793030
79.437096 911.000061 -372.545074
66.161385 870.935852 -341.741760
-159.571518 756.054688 -479.563538
80.368095 937.479736 -643.332031
-91.526711 741.363525 -674.634094
-80.939156 814.381470 -566.949341
-63.368191 814.637146 -372.992859
62.870625 862.167114 -345.690033
33.305416 888.029663 -488.499786
-73.862244 796.783386 -662.071045
-53.648838 792.024536 -672.767578
-77.257355 817.575623 -425.043213
91.168030 911.690796 -423.994537
-99.952690 787.040771 -528.878845
-44.601784 821.515076 -366.814728
-47.293613 752.159241 -670.727722
-51.531303 841.641602 -639.729248
82.374580 901.816467 -383.412323
24.101831 884.868347 -589.865417
13.328049 881.211365 -628.594788
100.269188 902.719543 -380.644867
-51.135235 833.362488 -419.667877
-154.347549 767.623840 -348.697021
-227.138794 710.778259 -489.337799
131.458511 920.056091 -352.564056
114.234840 916.634277 -348.197662
41.236938 881.077087 -529.163940
74.031311 910.659363 -511.282074
125.914108 941.359009 -581.752380
-221.333786 729.057434 -429.662598
5.816494 816.477600 -680.416870
-30.925446 840.618958 -653.760437
1.255485 854.562927 -480.198456
-198.029053 742.313843 -319.449890
-139.750854 751.634888 -408.491180
-122.182602 769.426697 -592.314392
6.778371 880.673279 -608.164551
111.404152 914.660583 -334.566040
-28.990038 836.014648 -452.167328
-267.085907 687.064636 -401.655609
-35.251167 835.325562 -664.367065
-282.958344 698.843872 -485.009064
-235.085251 703.647339 -514.933105
-249.603851 691.748596 -435.304749
-17.016844 855.604065 -327.784424
-150.685287 749.380737 -452.963501
49.689957 893.122498 -443.805450
-101.078094 789.010620 -393.703033
-236.646423 725.320923 -570.557678
12.801570 860.516174 -363.025879
-46.258598 818.789185 -348.288757
-37.393475 841.728821 -357.289581
-54.504532 843.217102 -604.815063
118.203133 926.796570 -376.091827
-189.730774 739.811279 -467.522888
-219.226212 733.261414 -539.353882
136.904449 917.407776 -407.392639
93.345123 893.426941 -378.628387
-43.991871 768.147766 -674.207031
69.853661 905.175659 -435.184448
-116.386734 778.670288 -359.255219
-180.852432 741.726685 -365.942169
-50.634903 824.334717 -409.435730
-233.642761 714.477234 -492.639313
-220.180878 708.264160 -570.319580
-135.828659 770.676453 -404.169769
-278.075348 681.537903 -314.103760
66.044601 884.034058 -371.935089
-11.387537 845.109985 -400.237061
-201.996796 730.927979 -479.266327
5.521054 867.337524 -384.174774
-231.564087 698.693298 -322.454224
-64.930977 811.720886 -580.288147
139.727539 933.515808 -502.499146
-211.469193 712.729797 -441.758789
-1.460654 876.750549 -625.129272
112.457909 930.614014 -619.296875
-72.449875 820.724487 -403.807770
-235.674301 720.422485 -546.554138
46.011295 886.850220 -323.756317
-131.756302 784.127869 -447.379944
65.525612 891.719360 -374.423828
8.663344 854.609924 -422.742889
-38.673805 850.584534 -628.850037
125.468765 936.503418 -354.036407
-194.453705 743.796143 -582.384338
-165.938644 761.481628 -395.202942
-25.974716 842.942871 -654.345825
116.932007 920.279602 -375.191772
-203.191299 769.695374 -649.771912
-70.340576 818.154419 -348.528137
-189.619003 732.879883 -535.113342
