ply
format ascii 1.0
element vertex 1419
property float x
property float y
property float z
end_header
865.071899 -369.653778 -57.623806
953.125366 -258.391876 254.230972
997.298523 -392.483887 264.398987
965.701660 -263.916077 281.482788
866.428223 -224.980881 63.086781
966.872375 -414.356171 223.511887
961.372437 -290.839233 231.549332
952.611816 -405.352905 159.397461
876.115967 -337.144989 31.113274
967.825012 -265.554504 309.772766
941.830078 -137.648651 313.330170
922.101257 -108.980141 261.686157
834.759338 -118.233170 -3.748015
952.854431 -135.795578 344.984619
849.901245 -114.950729 159.498276
817.618225 -222.777832 -56.622459
817.122192 -153.499359 -25.923365
1020.647217 -380.375824 244.014511
911.760803 -102.913452 287.220947
916.732483 -279.449310 171.662247
964.638306 -408.546021 198.610580
928.839722 -327.877289 160.582703
794.206909 -197.877502 -63.441753
794.072205 -115.609489 -116.800247
809.065491 -126.212410 -20.759062
874.678650 -331.510681 27.732607
871.201355 -340.157990 -21.206203
850.280396 -125.067978 52.391335
917.447876 -350.154480 128.983475
935.068237 -118.523689 285.839386
986.229736 -410.708038 221.673599
937.862000 -74.218895 337.749939
887.407837 -288.465210 86.069801
920.108398 -426.554260 201.331329
958.626831 -407.459503 183.720032
984.225403 -196.397736 369.255524
897.949585 -339.069885 87.327049
839.705811 -177.105057 -19.252876
881.710327 -164.701675 202.565125
906.976807 -155.880997 208.884979
858.374084 -307.584839 1.352704
879.387512 -304.440948 57.345375
984.977173 -201.866730 364.163544
969.259766 -314.359924 256.627899
928.570251 -413.345673 157.318680
908.858154 -196.290482 200.662476
894.853455 -290.584167 104.551521
857.138184 -192.636002 77.051109
822.980042 -211.245865 -35.121925
986.533997 -261.348633 309.775513
876.724609 -155.899155 127.093246
810.407715 -217.315628 -101.299911
901.089539 -131.078186 198.169556
935.891907 -410.751801 188.306351
937.954285 -431.815460 196.848297
909.994873 -354.534058 85.708275
1001.610168 -257.325378 360.904968
872.750000 -89.935478 230.272339
915.731506 -210.273422 160.036667
903.769592 -302.256500 109.022926
930.132141 -73.777657 293.852600
883.145996 -262.534637 104.498177
951.151672 -294.783875 229.726974
946.888123 -144.041214 293.674957
989.782227 -232.778732 354.396667
901.916992 -383.344482 -7.924602
886.661438 -142.454636 133.572525
899.486450 -75.593300 229.674194
886.186218 -92.814453 257.782043
881.791382 -155.118927 137.180222
961.383911 -358.788788 181.445709
950.524780 -135.417084 308.390442
946.165955 -259.935028 212.353912
887.519897 -77.000984 197.339035
940.594238 -281.555725 195.995148
873.138123 -134.986786 134.766708
908.178101 -110.451614 229.825165
946.995850 -199.433304 286.751007
910.891174 -233.753433 137.238632
902.476501 -398.106140 -1.003087
815.584839 -92.116501 13.569836
944.819763 -60.331112 394.387939
879.218567 -219.441986 106.876137
1028.243164 -361.915192 285.382721
946.159912 -399.761200 196.103592
908.653381 -66.129517 288.575470
945.687012 -217.742981 272.805450
945.186340 -120.759193 320.845215
909.472717 -175.563385 267.448822
869.517944 -137.743225 115.569374
981.509460 -314.691986 345.665527
943.924866 -122.482101 316.609222
1052.577637 -381.592316 311.652252
914.012024 -222.200836 184.636978
958.170593 -404.272614 190.626968
916.375610 -124.360603 301.561676
793.724243 -78.064369 24.792534
912.435547 -320.247162 125.160431
905.886658 -358.416046 70.327087
906.173096 -425.717865 149.222168
865.397949 -128.949432 126.936615
969.357605 -111.616676 389.991974
987.818726 -363.339447 250.444702
849.692871 -338.095154 -70.666939
908.686523 -105.220993 223.117081
828.895142 -225.141464 -34.279835
869.029236 -390.367371 -89.041946
841.046509 -169.813385 -9.678764
873.021912 -208.859711 49.518230
939.567078 -404.075195 113.136909
849.295349 -298.887329 -39.636040
988.499268 -217.020142 355.256958
806.801025 -140.847000 -35.632061
897.762329 -245.812515 146.021591
831.075012 -262.043732 -82.796577
916.193420 -216.359375 167.908173
912.593140 -80.679794 265.742889
924.016479 -303.044647 164.999573
849.554382 -241.297607 -1.802312
929.974487 -433.315308 162.515747
976.203918 -203.209473 324.597321
868.263428 -255.344360 18.386753
956.249146 -238.620407 290.706848
971.452698 -215.227020 323.890442
851.112610 -122.613403 44.397072
901.141785 -442.288727 112.215271
888.348511 -99.038277 193.611664
944.584473 -181.635239 312.686829
834.862244 -143.303558 33.786430
923.803406 -190.621048 234.652832
955.621399 -254.735672 319.249390
877.034363 -143.611328 110.948326
938.456116 -58.606094 347.511261
878.708008 -360.326660 -16.964449
959.575012 -92.531998 384.778748
891.573181 -84.536079 219.449127
964.992126 -159.310028 329.174438
982.171448 -154.527893 381.832214
841.763306 -161.335114 3.150446
941.985596 -332.875153 191.524261
850.667419 -243.558701 11.722839
929.326294 -380.276642 125.093834
910.927795 -363.216980 70.838783
933.410583 -367.183502 127.248917
928.713562 -260.890839 189.610687
829.540771 -165.908325 17.383060
915.189331 -188.223923 180.210358
944.300049 -271.357849 234.617126
921.142517 -65.342575 311.848083
937.161438 -278.242371 210.833466
894.753052 -430.200989 52.264042
908.169373 -287.070038 117.961899
905.946350 -142.733490 204.127594
972.596863 -385.703156 187.724854
994.464539 -370.715698 223.984406
829.710022 -85.019302 17.758614
915.759644 -433.195526 116.234138
922.922913 -125.642242 290.985107
895.494629 -65.014336 215.232346
985.848022 -310.679840 299.073242
811.912903 -166.041626 -85.690804
842.546326 -118.002625 20.072376
933.900757 -248.918030 220.101334
948.080872 -418.305908 186.818970
971.090942 -415.065857 250.203354
866.646912 -136.839935 116.376442
907.137939 -135.090073 214.382156
904.997498 -97.852158 232.525177
859.483215 -265.721893 59.435448
851.932129 -346.108063 -69.770966
834.981445 -319.429688 -16.926729
849.005615 -95.060791 85.320305
860.178406 -154.518158 86.808800
951.420898 -195.357010 312.355438
943.985474 -374.050354 119.114769
881.890137 -211.077377 113.682350
900.769165 -172.593445 176.081100
947.129456 -103.407043 343.347656
950.221619 -424.882111 169.919052
819.707397 -98.705864 -16.662378
929.974792 -255.129944 202.871582
843.761108 -203.741638 22.964651
818.388184 -127.156792 7.702869
904.632202 -125.519424 237.919830
837.140564 -118.006020 57.688221
1043.718384 -389.076630 248.669968
949.776367 -362.688385 171.807983
1009.041504 -320.760406 359.341187
908.166077 -295.772461 124.244644
921.362793 -98.103851 266.901093
818.326172 -207.617905 -19.600935
787.286865 -176.376160 -43.161781
837.887817 -120.336540 50.200806
937.239380 -220.936249 226.911972
1027.847168 -385.568756 241.841019
904.269226 -427.905396 66.699013
892.575806 -116.089668 167.422089
912.254517 -132.581375 209.297867
889.373352 -189.576599 152.493042
960.103943 -217.482330 345.311737
917.960754 -384.642975 85.107895
967.490967 -134.920197 356.675110
908.428650 -379.740265 30.855000
833.163757 -237.932327 -25.942039
877.552856 -150.016998 131.054657
919.235535 -270.285889 168.609802
921.461426 -246.496658 237.233688
953.666138 -196.377167 364.499847
920.917419 -187.906586 238.855484
903.701294 -65.083504 233.078735
889.892883 -298.700500 95.162514
934.057556 -272.038239 185.983383
913.120422 -230.455078 152.628616
920.173767 -419.435242 108.031342
918.895996 -149.468079 235.617554
919.384521 -189.859177 204.484848
893.825256 -382.227417 48.293228
854.306335 -77.120262 88.415405
963.057312 -377.723419 162.072418
940.866394 -287.503723 192.199585
894.295227 -291.380707 100.983604
851.308533 -108.442902 102.189156
961.749573 -148.535355 362.860626
970.603088 -176.076355 366.332123
897.123840 -87.605927 239.447327
959.171326 -85.288330 359.362000
825.872742 -177.953613 17.801245
869.446777 -98.501884 184.011230
854.008545 -248.321899 -27.928944
915.691650 -102.594200 281.426910
882.746948 -155.642120 139.106003
895.018250 -228.748505 126.903877
787.729370 -145.460190 -68.688545
934.125122 -172.791092 257.964844
893.114197 -91.710602 190.672012
980.165161 -406.889191 273.392944
972.446899 -264.583008 312.917694
931.706909 -375.889160 90.145775
938.969360 -223.753433 218.105347
891.462830 -365.654297 16.454514
949.182983 -283.546021 238.654877
918.810730 -123.243332 243.602432
964.193542 -400.530792 218.752289
1007.881714 -367.653015 242.367706
993.668091 -407.704285 248.101700
879.885315 -361.735107 -6.181220
949.404541 -52.496826 361.369598
817.836731 -184.896515 -37.369022
891.400269 -392.888000 -36.163925
863.375244 -329.998871 1.154610
854.202209 -87.891106 106.135651
890.446106 -347.821869 10.500327
813.325562 -176.331360 -31.026634
963.027100 -156.062531 356.643402
862.532654 -201.942459 72.936249
877.662231 -115.836441 130.281723
843.830017 -135.033524 71.676834
925.127380 -108.899055 260.976837
827.872192 -260.111481 -85.948532
845.872803 -129.156021 104.490616
934.624756 -432.627533 200.197479
820.647278 -130.767822 -29.441378
805.696045 -107.027328 -10.611521
895.464478 -171.188339 170.786606
894.664856 -345.633759 85.159889
954.512878 -305.913605 282.094757
935.705505 -142.696884 341.056702
883.069580 -391.879791 9.462261
986.377502 -241.558823 323.788849
1007.463074 -240.910187 386.568665
889.831787 -440.829620 159.411880
919.958252 -75.228065 337.277069
964.407043 -177.637314 349.588409
917.544739 -306.940552 184.326340
922.794006 -160.061905 249.789719
920.084839 -210.670563 171.308685
885.708069 -67.568375 174.353973
936.078125 -146.347885 260.264282
901.977478 -372.269318 61.969986
895.995422 -288.699890 111.878662
887.903809 -106.763329 237.044449
926.519653 -415.427429 174.336517
965.492249 -400.708923 216.855820
901.774963 -373.632324 55.361515
806.873901 -196.583359 -56.782375
860.594543 -192.352585 38.776978
903.754944 -242.807068 120.954597
913.893738 -197.562531 163.446365
946.169861 -378.024078 129.270996
960.784851 -307.927551 258.717010
946.246338 -247.854462 250.671768
799.078369 -109.776398 41.261921
927.989380 -417.325409 91.170059
1031.243164 -376.718933 297.774658
850.704346 -360.531616 -81.912376
859.620483 -217.854630 77.378716
870.148987 -142.920395 128.737213
929.341248 -125.038017 258.170319
872.168091 -215.901535 81.508850
1001.755432 -306.923981 342.087372
971.594666 -156.867203 353.864441
820.420898 -209.630249 -42.973949
852.826965 -277.682709 -29.283958
944.098877 -171.776627 364.800171
962.712830 -132.076340 349.677094
875.248352 -314.424896 7.888718
938.281677 -149.168503 345.467133
876.019043 -375.709045 -31.675859
938.553772 -197.440536 274.516815
885.869141 -144.098770 142.897369
923.253845 -360.047852 118.010696
926.352356 -318.214233 159.929077
912.151245 -108.780647 228.032104
998.008911 -248.902206 354.169006
880.851746 -107.655418 205.011353
810.644897 -181.407196 -54.480164
812.100952 -125.697983 54.524002
1024.175659 -302.230835 374.274597
816.176453 -116.136902 3.730318
905.375122 -433.628235 143.480240
824.182800 -143.920670 -23.870049
949.744751 -422.642731 249.033493
952.219238 -144.419479 321.473969
872.106873 -352.184662 -26.097191
874.997009 -384.869293 -27.300007
899.302734 -261.159180 132.088593
872.805908 -338.266052 -23.479006
875.889709 -74.125359 157.131683
931.594543 -419.889404 96.431259
867.190857 -444.155029 154.061157
776.804871 -135.021225 -75.679298
1029.526245 -266.612183 396.434296
964.917542 -101.297234 388.090607
908.141785 -65.514091 258.807587
887.411499 -347.401794 13.190631
945.930725 -202.411041 281.766022
1018.071777 -402.683411 239.796936
838.661804 -143.350723 7.477628
912.301025 -112.426979 236.323502
924.143921 -329.580414 109.645844
897.906189 -108.518738 232.565796
945.690063 -362.693237 129.966049
856.393616 -87.549789 95.083549
884.608276 -118.650902 177.319748
789.503174 -161.924973 -73.235527
872.940857 -133.244263 127.160690
978.007263 -272.982513 313.367737
928.009033 -232.051926 189.745743
986.674561 -197.491440 366.566925
880.142273 -353.018036 31.898970
886.043213 -282.853058 85.643326
956.688965 -322.982513 248.296997
823.712646 -193.672440 -46.912296
924.507874 -442.442749 148.234756
967.333923 -181.392609 327.585510
906.828430 -209.434586 137.330215
865.685547 -132.607819 159.919815
911.873718 -167.721100 227.296524
983.932068 -299.815918 281.981354
891.254822 -148.044724 136.026749
991.435242 -299.724823 331.440033
846.291626 -125.587395 30.705269
920.938416 -225.443939 258.939606
849.012878 -355.789368 -62.627388
847.146729 -339.280396 -53.550186
876.311768 -212.728958 93.850906
979.115906 -391.002716 212.001740
934.992554 -408.185638 133.408722
929.370361 -120.444496 296.440857
985.567383 -180.158890 391.805084
948.946411 -407.349152 109.994919
850.658752 -297.165131 -11.476136
796.992554 -146.411362 -81.704414
871.644409 -103.610031 126.317352
934.728271 -415.194794 88.618134
910.565979 -71.337524 287.912201
856.980591 -133.557419 100.456238
920.199280 -100.239006 262.407623
925.366272 -280.483978 223.538223
958.651794 -149.057373 315.384644
982.002808 -270.850525 294.292084
838.553040 -216.201157 16.967878
890.022888 -67.998566 209.884995
805.127380 -106.558716 -66.685089
897.449402 -309.757782 65.404510
983.479126 -271.603363 356.414154
840.203491 -238.662277 -9.298690
950.020264 -298.000946 254.521515
961.596863 -320.847839 269.296295
905.059875 -329.852570 111.040977
975.776855 -176.555756 362.509033
951.988586 -100.727104 333.011047
921.917358 -100.161415 286.232880
887.881714 -207.057770 99.858200
843.814880 -204.757050 24.525995
969.812622 -143.799805 359.441650
843.155151 -131.201370 68.371628
909.800781 -69.594597 312.841309
954.557556 -430.055969 229.583939
880.439636 -111.607666 214.967957
913.866943 -237.555206 142.859940
923.221008 -415.908417 113.407646
867.078796 -205.982208 118.629036
958.211426 -381.239777 182.307297
853.169739 -151.470337 70.616829
915.834717 -89.202667 263.643219
860.108582 -336.012634 -10.233669
826.180603 -170.777603 22.633018
943.859314 -82.989212 385.016876
893.442444 -123.111313 162.662979
899.072449 -159.814941 197.911209
913.517578 -148.889923 219.097900
993.259277 -246.384644 350.900513
941.740540 -321.117249 201.048981
889.243469 -318.148468 62.542919
865.945313 -121.379089 130.672333
908.191956 -432.332947 209.878036
963.654175 -413.303619 47.411507
948.892212 -117.843178 373.903778
1030.537598 -384.542633 289.300476
854.590088 -119.309258 131.470932
852.917358 -127.877831 134.346405
918.445984 -427.913544 175.376541
926.907898 -91.752739 317.065491
816.757568 -174.555725 -32.614235
886.900818 -99.247620 184.617020
956.180420 -255.509048 263.697083
872.720825 -215.376617 107.753822
810.419556 -139.993042 -104.313492
880.668335 -180.020172 118.222847
839.804871 -106.318283 76.847588
908.058655 -436.366821 142.207321
807.425598 -167.449341 -46.981602
964.062927 -152.472382 332.553314
807.848938 -239.102753 -34.167496
949.457214 -293.082703 201.224197
955.704468 -133.158524 322.100677
801.776794 -138.719116 -41.477936
853.225464 -288.630066 -2.270249
929.961914 -336.672089 135.950821
876.717346 -205.890930 64.324745
876.412109 -106.183273 165.415512
872.466797 -96.427582 152.379822
893.768311 -341.098663 52.537804
815.450439 -144.472748 -56.251148
884.979065 -203.685440 169.964447
968.506104 -328.544250 254.955338
872.797791 -160.360062 80.107437
892.867737 -443.717987 192.517456
1034.565918 -344.368134 378.108582
901.375000 -237.428589 158.243271
850.404541 -292.108795 -12.505238
966.859436 -418.269989 204.356369
822.957581 -129.140549 25.932117
796.808533 -163.340912 -59.461048
909.613953 -134.288208 212.782898
853.409790 -129.568726 88.944244
903.386292 -313.634247 99.675186
988.414612 -326.913879 276.899445
868.818237 -387.716675 -76.631668
863.646179 -188.259079 120.555878
842.057983 -310.152649 -36.216133
868.970032 -182.422028 96.956795
837.039978 -194.631973 -6.055485
860.976563 -351.643555 -48.179707
905.057434 -370.356781 47.013622
906.207092 -377.372620 19.011333
784.138550 -154.430939 -83.395859
880.960754 -441.024506 141.216095
931.381958 -146.837982 257.446045
980.246277 -407.736176 251.079193
817.674255 -148.054520 -10.073693
868.444763 -292.334656 3.007072
825.593262 -148.628021 -0.431608
834.946960 -334.176849 -78.134155
984.904846 -224.762161 330.226166
870.310059 -315.737457 -6.494760
855.492126 -370.625763 -18.233728
970.726868 -216.859131 358.305573
1041.451904 -375.439697 320.515686
920.143982 -424.901672 184.216843
929.005554 -175.520065 243.810089
815.596924 -237.544983 -59.147167
1058.225586 -374.502594 322.500580
897.025879 -163.160492 168.325165
914.317200 -439.921722 191.310944
942.930359 -419.633331 37.739952
975.746277 -420.061096 243.436417
969.013733 -128.649460 364.236725
839.455139 -261.336823 -56.830555
840.796570 -275.630737 -62.442837
951.009094 -374.464386 126.563286
967.957275 -178.687836 328.763855
792.721863 -114.563171 -55.520966
836.005554 -296.742798 -46.179253
889.938232 -187.720459 137.420059
1048.705688 -374.639404 309.106781
896.703796 -204.040436 151.010818
1008.064453 -376.445679 237.852036
839.443054 -124.743912 11.769816
996.940430 -312.244690 311.565460
861.221497 -336.166718 -8.241507
873.060181 -199.238541 136.575897
866.622437 -257.849609 45.329018
860.900635 -284.334869 2.796309
859.697327 -100.459053 136.993378
1046.061768 -384.914398 279.405518
952.076538 -202.693161 269.354706
937.765747 -59.780388 310.844971
835.734863 -273.309723 -73.442711
991.041565 -214.747833 364.839478
888.752625 -294.969086 39.581211
917.367004 -283.660736 130.953873
964.743286 -300.370697 244.889130
919.484985 -433.367584 139.121567
830.893555 -186.202011 -45.388168
984.133850 -332.874420 342.739471
973.393433 -247.565369 318.693237
920.151062 -127.079689 251.710281
818.161804 -120.590302 -30.976959
822.820557 -202.217789 -63.831245
980.978210 -371.915802 202.172791
898.076599 -394.297333 -8.147490
944.535461 -262.898743 235.339691
957.653381 -157.173492 363.310272
953.332520 -115.990517 327.000854
883.825500 -348.288910 13.305734
983.203979 -284.635345 321.161560
898.490417 -179.536118 167.395096
958.719910 -407.515289 189.786911
865.126099 -252.310989 45.044010
943.633301 -302.793976 209.498367
897.993164 -120.545013 213.861160
923.296387 -89.149841 265.809143
840.338196 -185.297287 17.068914
941.451172 -158.966949 367.869202
833.802063 -252.641541 -62.766907
798.188049 -108.363449 -38.952938
873.546509 -138.748901 98.982460
932.668091 -144.771179 270.449219
814.525391 -201.042664 -73.160835
924.262817 -88.518356 283.297546
1007.087830 -407.300934 254.154800
859.446045 -295.983154 -6.408973
861.544067 -298.160156 -22.994045
911.723450 -349.116272 81.760544
909.689697 -335.031067 121.134415
869.229370 -171.428131 127.373459
941.251282 -253.086746 233.340912
908.500793 -381.513275 51.607922
930.440186 -342.891235 128.302185
943.592041 -176.712769 256.105774
893.046082 -160.753555 234.444489
904.429749 -369.704132 69.538383
880.659485 -155.242828 103.386429
823.533569 -212.197174 -90.528862
918.705750 -319.476349 139.938507
931.042053 -56.769543 324.074432
957.151123 -153.082199 312.677582
974.616699 -402.913452 218.847931
1018.094910 -344.297211 330.289673
912.458557 -84.670738 232.775085
940.219849 -318.602142 155.164490
961.229614 -207.708023 322.891052
938.231750 -194.306778 314.343506
911.186646 -215.823303 226.879288
950.837891 -233.293930 267.539429
967.286377 -409.981659 231.092239
865.065979 -311.663879 3.486003
956.567566 -184.803848 340.281006
940.579285 -125.654442 345.142548
867.350220 -277.432098 36.468952
845.920959 -102.248344 116.887756
964.272888 -212.193329 321.651947
911.481689 -62.693928 278.291412
978.060486 -262.775970 303.769531
981.311340 -300.535522 299.451355
942.561707 -176.218994 266.477173
1034.692993 -395.066223 285.231903
962.997253 -408.189423 209.036102
910.743408 -440.839508 133.015060
879.967957 -139.020615 151.350281
899.633240 -206.933578 170.963730
947.008240 -424.626831 247.600357
943.559814 -402.543335 107.415749
875.262024 -348.631989 -4.376149
865.515930 -289.533630 28.999876
880.898926 -89.768478 197.385483
1002.181885 -321.011841 319.621979
902.623535 -216.770782 121.177902
964.864197 -220.547134 293.166046
1041.251099 -372.921112 312.653503
950.134460 -327.399261 173.899612
951.025330 -54.668602 356.593689
944.333313 -107.698341 305.866760
949.998535 -356.375092 172.485046
840.584595 -250.177704 -58.745373
874.139160 -298.262817 -0.320139
914.977600 -258.239655 175.655914
875.010559 -311.226379 58.941631
978.039124 -249.474731 311.559662
849.527710 -213.282578 27.121298
951.227600 -249.956497 269.225006
989.263977 -218.211578 377.737579
835.958374 -230.460846 -13.970015
978.781250 -321.672638 253.225311
924.971680 -261.999878 190.873642
773.629333 -150.839905 -81.596519
914.070923 -114.871765 217.302612
957.549988 -109.111053 359.019440
1043.833008 -384.188507 252.504639
932.583618 -394.128021 122.707779
810.070496 -174.441650 -48.027740
832.684509 -105.215897 58.618389
831.724060 -326.461853 -79.637085
875.898132 -117.554825 157.202179
855.390686 -94.212845 129.688797
817.984375 -149.761337 38.469151
920.274048 -417.505981 67.863976
939.313110 -201.212738 264.575714
915.420532 -82.635658 270.541534
917.130615 -385.968231 41.307339
897.923401 -67.734741 227.450012
827.846130 -241.423828 -42.396648
898.832642 -85.008545 189.838837
929.999207 -76.308456 301.642029
971.359436 -313.795166 245.933365
918.935242 -68.053101 317.513763
865.682800 -95.960411 98.361694
842.286011 -190.249588 17.900980
967.075745 -321.706177 236.774719
904.878662 -72.773338 256.472504
946.306396 -135.831467 341.283600
852.372131 -146.467484 70.889832
785.466125 -102.562317 -72.149414
835.492432 -325.198547 -36.176651
825.749512 -244.680161 -84.385338
925.994507 -130.227127 281.128784
841.063171 -318.999054 -41.128918
847.653809 -184.407059 16.501970
940.059143 -131.989822 353.747711
986.758972 -308.448395 320.286407
801.572876 -154.547760 -45.822708
873.570496 -342.075897 19.632671
831.765686 -157.733292 8.116315
953.531494 -128.513046 369.164398
936.887451 -429.301697 170.297867
838.907166 -280.601044 -70.434639
821.600769 -121.157944 20.697338
853.912354 -259.739258 35.917770
974.383911 -231.593872 320.433777
842.770325 -266.119141 -21.725691
909.314270 -178.378418 189.231628
887.590393 -192.114883 102.090820
902.765015 -234.343292 144.643204
968.467651 -148.490082 349.493042
918.215149 -222.823532 207.496933
959.616089 -164.452347 310.323883
829.687500 -186.857132 -6.228569
930.619019 -221.746201 227.688477
930.236084 -437.377167 150.702240
863.849548 -174.573853 113.424446
993.940063 -211.176605 379.290741
916.264343 -152.376724 203.679871
887.753784 -231.686035 102.708061
985.681396 -355.223450 249.172989
979.473450 -145.508087 377.135345
874.429321 -128.234344 153.892548
858.552246 -163.099838 87.307816
809.549988 -250.121094 -88.525620
887.613037 -202.124298 124.439026
987.816772 -317.442535 285.301300
970.869141 -241.011337 328.082123
974.853882 -201.078613 333.840607
894.184814 -377.825775 -10.330079
938.663147 -380.678497 168.956940
975.623535 -201.886978 349.102570
866.433960 -101.281967 134.205460
934.848755 -421.743530 144.088104
819.329285 -100.879486 23.044849
887.117249 -208.485443 94.086365
816.252075 -139.285126 28.758698
874.892151 -94.647804 139.899979
909.344666 -183.922012 205.807877
909.642212 -438.416840 118.265602
821.284424 -126.076088 -39.955326
956.352539 -268.892761 320.686737
953.940735 -401.944305 95.105835
812.348450 -275.840973 -44.503490
943.426636 -402.912476 140.768829
927.723145 -242.707352 208.630051
917.236084 -132.660461 255.604645
821.084656 -180.252686 -25.157373
929.224915 -77.328606 297.040222
886.749146 -149.043564 129.133789
1001.356323 -329.012238 329.981903
801.132751 -124.069038 -70.005432
897.981567 -110.939072 231.904785
789.065369 -157.081497 -28.651915
964.439331 -410.057373 175.719803
832.999878 -166.094070 12.655910
826.510437 -171.763672 -1.838001
858.315918 -177.737427 99.329140
856.697083 -171.485626 72.666771
834.116943 -128.842865 52.079845
850.444458 -313.917267 -69.755188
989.573303 -350.809845 312.246429
946.090637 -228.085022 282.809723
944.808777 -75.360931 348.589844
884.577698 -356.718231 38.831997
863.651428 -312.168274 -25.969038
817.686462 -143.205795 -3.587023
826.082581 -107.724327 -23.213184
831.832397 -179.958572 2.757217
941.041199 -206.590881 236.080185
965.885742 -247.118500 303.053589
803.090942 -254.882782 -80.093735
988.793884 -386.458710 191.237747
1008.069336 -366.773468 267.699005
902.161987 -151.032242 201.506470
945.265137 -96.914474 337.228607
864.768250 -106.951759 199.047668
835.215454 -196.020294 6.733174
966.906494 -198.372253 301.157074
860.554382 -130.864395 98.566483
941.746643 -83.868202 326.974609
945.078369 -231.281860 229.173264
889.855408 -278.119965 83.582924
987.715942 -282.103485 327.421265
876.987366 -185.411804 122.143776
919.718201 -113.892723 252.181046
966.123596 -225.151337 299.925537
950.778137 -288.159668 240.272919
912.854797 -382.115387 97.682281
897.400330 -105.492149 236.192520
936.148376 -196.716919 260.342194
847.484802 -135.251099 77.317513
931.820618 -168.950546 267.281372
795.324158 -176.355850 -84.209648
848.048828 -100.835243 166.751190
868.277100 -299.563629 17.444008
947.967224 -117.094353 345.122101
907.452820 -123.149071 237.132355
945.745483 -267.436218 217.400986
1019.354858 -404.795471 266.499237
999.925903 -331.533722 357.742950
849.020081 -134.230423 84.122108
959.905823 -195.210663 285.341797
902.998779 -207.544144 168.006683
849.502747 -333.542053 -46.298893
891.890686 -229.263641 172.897751
930.662781 -221.452927 234.069046
906.913757 -273.473206 182.095657
947.287476 -56.551460 347.884949
893.772644 -149.682465 148.589188
857.695190 -360.212830 -25.164652
938.312256 -424.583527 150.498978
855.347595 -202.319412 55.978012
1046.821533 -341.306763 397.632935
903.346619 -154.637024 197.197144
974.769653 -357.403076 242.778702
949.950195 -372.516266 141.528137
809.964478 -123.626671 -54.683895
907.875061 -251.594254 152.737869
925.626526 -243.993271 256.916687
838.564697 -145.123306 34.849770
893.286560 -96.241180 219.998581
918.328308 -63.238808 268.415100
863.750916 -303.955750 55.548378
882.723206 -282.902161 45.666054
883.716187 -85.586967 168.418518
947.404846 -235.694962 309.306061
997.388306 -353.778931 283.708466
916.794800 -72.532021 299.798462
926.379395 -95.146576 340.713257
980.312134 -362.350464 206.725296
968.125366 -395.287323 179.344086
1037.184814 -380.290833 301.084442
833.820007 -246.871552 -77.182831
955.222656 -136.538345 334.664459
878.952881 -301.028473 21.722269
874.027222 -437.989227 91.396843
904.498657 -188.704742 245.457336
847.213867 -232.656067 10.555241
818.736633 -187.923019 -25.353966
840.296814 -253.161438 -66.606438
999.924744 -355.503815 250.627563
839.554565 -192.160919 47.053017
919.042114 -155.938889 209.130051
888.594299 -448.274323 143.604538
935.046448 -408.127319 104.370499
799.656128 -162.139954 -83.965584
869.408447 -94.497002 142.453278
887.817993 -440.244873 201.184937
811.054871 -99.835495 7.278461
829.420410 -95.433670 54.968414
899.369080 -266.523590 88.354240
913.341187 -59.229198 292.834534
943.221863 -396.793549 193.342682
859.321045 -167.212433 78.384514
948.014587 -272.808441 208.802689
971.452637 -184.207245 335.517181
900.672302 -438.276276 87.730186
875.728333 -173.027283 113.007256
981.670410 -225.601883 340.601166
984.685425 -410.135925 226.190582
968.152100 -195.943542 320.536438
898.310669 -281.825378 79.143791
873.114685 -221.391174 78.094299
884.858337 -126.845871 171.662201
813.178955 -104.785286 1.063452
986.720642 -414.714569 250.577850
1049.254150 -364.946228 331.029053
943.699402 -111.308571 339.058838
897.963196 -391.605042 -10.442456
892.376892 -129.229355 178.938675
996.833313 -289.605530 322.254364
892.997131 -143.308472 175.224930
882.390320 -196.564713 124.474251
820.019958 -126.767082 11.957513
934.180786 -416.940887 121.130386
878.230896 -135.555923 128.733307
992.656677 -375.735291 237.995209
907.708069 -441.440308 180.634171
898.754089 -99.652763 245.100433
943.194092 -345.563965 139.692444
959.691040 -366.335327 182.571320
1012.516357 -376.577820 269.181580
998.862915 -310.883911 314.422333
818.339722 -274.128784 -55.471504
967.617310 -147.274734 380.944763
840.666626 -300.780457 -69.871414
930.852539 -73.010124 318.575470
841.166565 -323.617889 -64.545937
830.671387 -179.065308 29.023428
891.041931 -147.652878 163.578247
970.745972 -422.884125 251.979065
923.010925 -421.542419 105.293373
947.725891 -179.451523 358.123901
801.364624 -139.666092 -56.205814
891.569092 -325.384521 70.773560
967.036865 -188.451279 324.337006
946.587402 -371.316071 201.885925
924.854370 -133.917252 251.448318
987.827759 -325.464966 282.174744
834.001282 -135.269501 0.629242
843.473206 -221.607010 32.036510
903.114746 -118.636192 195.323898
987.778931 -409.438049 230.978790
857.087585 -215.524323 16.149195
892.792908 -294.513123 58.901234
948.893555 -274.676849 221.355240
929.249756 -367.943878 116.698029
935.525391 -318.515930 143.368271
967.416077 -147.151993 368.279053
899.180481 -259.784058 92.934868
954.618225 -254.524796 265.458313
876.393860 -272.602844 36.013115
926.380554 -173.670059 256.776703
938.778809 -168.762405 254.116409
994.412903 -289.317749 353.972778
964.026245 -401.795868 193.662750
994.610840 -232.110199 363.208282
860.556580 -254.290146 -14.406315
959.584595 -396.018219 163.814255
875.124390 -120.057831 119.669525
983.133362 -286.849701 339.111847
830.062622 -260.348907 -21.678019
907.544922 -169.945648 163.990311
945.947205 -421.201782 204.535797
938.265503 -143.959808 304.229675
933.954956 -110.212921 324.629517
961.530029 -285.330841 280.741669
926.528198 -351.703094 122.140457
983.669312 -265.831726 324.195190
923.591797 -430.678223 92.637466
964.173279 -409.837128 258.730713
887.192688 -229.103088 121.284683
858.911682 -269.729248 11.505585
850.850159 -196.747574 45.088409
869.025024 -351.220886 33.647518
981.178772 -395.190063 242.802216
975.112854 -295.713898 275.502502
823.250244 -234.321762 -47.596073
856.282043 -186.130630 23.645390
905.778931 -247.968903 150.831955
923.376404 -381.739166 76.467026
934.304688 -165.718674 244.010849
832.983826 -138.527542 68.808739
906.322327 -269.345123 153.380875
880.936523 -260.630035 37.811893
961.865906 -212.046295 314.769348
829.009033 -130.441223 23.583115
947.585083 -245.594284 274.539093
976.296509 -257.175995 302.874786
847.325439 -287.454407 27.621212
871.515625 -189.123398 94.415413
925.974243 -216.060989 208.579132
870.793518 -169.066330 109.736488
865.511719 -244.121201 17.678562
895.330200 -145.721100 182.158997
838.551270 -218.746689 -30.970175
865.528198 -117.021690 118.485649
919.312500 -418.031738 59.774006
1009.513367 -245.047531 384.453461
877.867371 -178.018936 120.012512
870.347595 -277.534729 47.387497
882.282288 -243.315598 138.157608
981.549133 -235.551697 330.508362
936.994873 -397.930511 45.542576
920.518066 -118.061562 278.242676
811.934509 -154.941605 -31.922583
910.215576 -246.021912 209.854660
961.994873 -103.291702 363.841370
969.211853 -240.563858 361.534119
897.201904 -56.955849 262.079620
816.485596 -276.518860 -61.342266
933.377319 -341.749207 122.674385
825.422180 -118.106972 75.241333
919.590759 -438.643433 167.194016
959.614563 -251.581009 250.777130
941.031921 -171.720505 265.285553
924.011963 -310.973145 160.789261
905.933167 -132.760101 231.142349
834.255554 -143.313416 11.252269
919.932739 -78.115715 308.954956
811.908997 -236.644531 -74.358284
953.667236 -135.071869 312.274261
992.141235 -325.661224 317.301666
963.618042 -404.720062 166.916260
980.573792 -354.869110 231.308411
944.725037 -169.847870 288.881165
988.065796 -299.899475 292.776123
941.724060 -173.536911 280.185059
933.476746 -422.435333 69.912247
911.176331 -122.015617 227.271973
964.362244 -170.409027 336.390991
981.622864 -398.903595 224.570480
960.290527 -171.397644 306.950104
854.730652 -329.877686 -71.898903
939.478882 -162.774429 265.868835
919.070496 -415.247314 -16.544262
834.473389 -164.511154 24.565615
897.746277 -151.993729 190.100571
934.420288 -96.344307 300.499176
917.115662 -127.952194 253.237244
973.629089 -188.031555 355.983185
912.526733 -333.588226 151.861755
858.370911 -275.736267 -14.224019
966.054077 -147.785324 375.872223
948.263611 -427.795410 177.454407
838.700867 -135.910873 58.850964
1050.125977 -365.865051 324.624268
828.502075 -195.178162 -41.924145
966.017334 -292.158234 261.500397
976.543762 -313.702087 263.158691
825.663025 -185.591019 -57.886326
977.530579 -265.742615 307.902588
957.509155 -172.017044 308.904846
922.354675 -298.406372 122.517578
911.500671 -190.733368 192.650406
797.120850 -153.529510 -69.856201
913.867493 -188.785416 173.206085
845.958374 -246.838074 5.520021
969.187439 -118.367920 370.604858
832.667236 -92.526489 51.655083
808.562073 -202.005096 -56.421486
959.487610 -216.925873 281.255005
954.460449 -167.574722 351.192657
976.923584 -397.380280 229.934509
951.917542 -333.122284 174.854660
867.693970 -194.375259 92.204750
874.178955 -133.579529 110.511925
987.059448 -287.069031 315.095367
874.878540 -152.331741 150.444763
838.835632 -146.262802 43.164295
964.718140 -197.219315 309.970123
874.893921 -277.928711 13.849632
961.945313 -150.553513 326.746552
924.800415 -222.433884 217.624054
912.309082 -200.889496 256.189148
909.989868 -351.498108 112.815369
991.286438 -394.230957 232.659500
976.966370 -304.279266 292.520935
979.895447 -318.017303 316.599396
885.933350 -186.306412 111.602768
971.872498 -179.601715 364.364319
963.179626 -297.251770 260.703094
889.011475 -262.503235 103.558418
867.427429 -204.931076 76.304283
842.424011 -250.984756 -8.405492
886.397705 -220.878723 110.293709
819.070862 -140.582397 -41.293530
911.144653 -110.778061 221.607468
927.168701 -427.537689 96.406685
942.512817 -87.356422 359.064911
822.867981 -208.725464 -100.902000
819.011353 -140.647003 -37.155914
882.957336 -90.443367 206.724472
873.351990 -237.498856 79.322151
1069.045776 -346.897980 346.168213
934.086304 -170.879440 248.618118
935.339294 -161.323181 300.176544
963.623596 -304.793701 234.720428
1065.450317 -379.325653 277.773682
897.635742 -208.079605 201.627686
939.079102 -221.639435 250.741043
959.313293 -143.773758 339.506866
875.992676 -166.404739 129.679367
958.554504 -150.468994 324.872711
892.522583 -101.211281 217.056870
855.562134 -148.398193 41.345627
811.962585 -259.359344 -62.250603
924.593018 -379.124023 109.519859
807.534119 -181.128159 -76.342171
909.921387 -234.180359 179.172272
928.931580 -112.241417 328.595764
1079.137817 -372.486084 317.997650
881.368408 -120.732208 137.054382
923.362183 -248.481247 166.790909
917.041077 -147.617950 207.781769
911.180298 -318.454041 93.671562
966.995361 -295.061829 272.496582
888.741699 -431.407257 65.082512
903.275085 -211.972153 133.213913
952.987732 -218.888702 266.081940
901.643005 -383.739685 17.904568
854.293762 -314.360870 -29.823195
799.765747 -139.221161 -47.380383
1005.181458 -336.648315 302.122070
946.391235 -87.303780 330.394379
967.684570 -315.521545 251.668442
993.294800 -300.654022 331.630493
901.698364 -429.541901 169.759064
996.050049 -352.984741 237.547089
836.642639 -118.511749 51.029629
933.276978 -200.217468 251.102905
898.202454 -226.606766 191.504425
894.921753 -445.118561 158.151382
903.260315 -164.351685 182.766953
903.620361 -125.268845 211.690704
867.556946 -294.044678 51.499454
966.684387 -140.930145 367.896576
820.557495 -208.865753 -70.959389
1009.622498 -392.187683 236.234482
816.096863 -188.259979 -3.721159
917.865479 -348.135742 96.555145
848.651367 -190.632858 -0.854194
1005.851624 -408.706116 265.825562
925.031372 -106.577126 306.529999
975.325073 -284.920624 298.693604
1009.472961 -343.631592 326.174500
981.774597 -242.602112 332.778534
906.397095 -179.530045 154.562317
936.764526 -263.820129 216.713730
1009.414978 -301.959595 364.021606
965.605530 -156.615921 362.560272
878.507507 -77.952522 145.757797
880.710083 -123.773132 168.230850
899.242188 -136.886063 171.379318
1019.968201 -381.355194 231.772491
999.192627 -315.367371 349.410522
870.489319 -109.067039 131.817307
937.470215 -133.090225 305.831116
845.274414 -349.000122 -59.113697
841.055420 -311.466156 -51.364288
919.949524 -238.636032 174.439011
831.730286 -215.015762 -47.401840
829.999695 -226.499405 -19.822063
987.252258 -292.800873 319.696198
828.311401 -153.260254 -19.685369
925.569397 -256.835205 184.134598
979.428223 -252.812927 313.815369
964.679382 -149.403137 361.962982
973.232666 -379.016876 211.205246
918.589905 -133.555054 242.620850
952.305420 -61.568344 377.516541
892.414612 -331.402832 32.187492
956.490356 -129.596222 343.123138
985.538391 -350.024231 265.579620
881.774963 -193.579849 121.473045
951.214233 -147.502945 332.890900
803.846558 -127.518471 -26.888266
989.624390 -246.271027 359.927490
929.580811 -432.031250 43.864250
899.979370 -147.359024 185.432434
899.909668 -327.847504 93.674492
937.710693 -81.468117 310.072174
838.924500 -134.584091 47.294582
847.946777 -171.817551 55.634521
930.802429 -239.937393 263.467438
937.092712 -315.750305 148.746567
976.887207 -233.087204 312.153503
882.224426 -94.057175 159.123871
798.942017 -229.899521 -47.037384
886.764771 -173.626511 156.355301
966.114502 -189.054993 346.107452
901.007446 -142.658524 240.344879
907.801270 -314.900513 89.280685
959.331726 -302.169220 257.854187
796.392822 -135.300919 -91.639664
938.580627 -129.546967 384.529694
976.025452 -242.017471 312.025360
963.127075 -97.501976 385.545898
903.845581 -155.246857 193.912033
939.184631 -424.816925 156.744888
966.068909 -128.352905 362.983490
987.604553 -405.949005 235.811768
915.513916 -165.799210 210.423416
978.982910 -413.581055 249.230804
904.438782 -126.009125 223.751694
962.160767 -178.629456 319.198639
811.178650 -148.548737 -63.483452
931.851807 -118.775558 279.844879
934.289551 -277.824860 203.529022
948.214111 -302.155212 224.934937
836.890320 -132.821182 50.785873
866.240723 -109.827919 119.192108
932.044983 -222.607544 226.009537
935.836182 -400.586700 74.947319
899.829224 -215.172424 213.305176
853.599915 -251.621460 2.791992
900.790344 -299.273590 96.194199
888.526123 -84.407265 212.318085
934.430786 -280.307068 181.698914
894.749512 -432.978882 133.553986
836.991760 -307.626068 -68.891533
913.498657 -95.566933 252.483582
938.051636 -96.713791 348.769196
940.515808 -420.758148 143.876083
883.121887 -117.462112 163.232773
965.071655 -176.252930 358.490540
856.686157 -375.737732 -50.105732
947.406799 -215.995255 269.097382
902.312012 -166.458282 201.129852
950.496643 -103.736397 361.042511
894.172058 -256.134796 109.612312
871.657837 -220.883102 77.489655
843.488708 -151.991699 55.307438
841.476563 -233.042053 -1.887558
906.668274 -318.006622 70.688522
849.467590 -239.782257 -35.645134
854.415405 -90.428230 84.722527
943.812073 -171.016479 311.016144
965.987122 -415.064606 228.044281
918.447021 -263.151306 175.367432
857.394653 -329.969971 -23.610184
945.141113 -215.754211 316.852905
940.536377 -412.906769 75.821793
937.573608 -308.092255 197.345520
841.453186 -203.911560 -20.694609
945.124817 -285.045135 223.196106
813.400085 -103.163651 61.734844
860.345276 -178.785431 74.462563
869.672485 -288.660889 -10.090284
834.210693 -223.559586 -16.176899
970.406189 -324.826660 306.144684
932.535522 -259.239899 214.350830
889.026306 -199.991806 103.513573
855.036621 -120.409561 106.380035
883.443787 -70.042007 237.676422
972.783508 -192.511383 343.085846
824.816711 -237.399353 -87.140671
934.447510 -104.022858 333.671936
943.398010 -58.066734 385.852661
936.052124 -84.787148 317.824493
791.053955 -98.076530 -98.436371
898.278442 -326.147400 107.936653
862.501343 -321.590790 4.088878
918.328552 -430.714020 51.055286
887.348511 -228.968307 123.031662
825.219666 -154.013489 39.840862
956.948242 -164.216797 337.434479
977.307861 -281.627777 327.757050
884.150452 -387.872162 -51.536400
918.133240 -125.874588 268.908356
844.111755 -199.308304 46.504398
994.574829 -252.145325 375.415558
1031.496460 -373.090607 270.221680
965.717346 -337.315948 232.955307
808.443359 -108.241600 -13.100267
919.418213 -102.138710 271.733246
871.693787 -98.475700 160.611603
901.033508 -445.311981 83.366882
988.927917 -259.843048 372.496948
918.997681 -343.808105 117.650452
878.200195 -275.221802 81.471352
895.628113 -217.503387 130.237671
937.458679 -65.476349 339.869751
843.279114 -269.310272 -17.583500
836.816772 -222.362228 -38.437355
1004.557739 -311.431000 348.147583
893.666016 -233.447174 174.792480
990.058777 -255.556488 354.649445
945.824707 -398.065125 104.371338
847.684814 -189.587387 43.933609
1053.165405 -370.745636 317.409088
935.801880 -164.674789 248.679993
876.026428 -161.820969 123.073105
945.552979 -413.357880 102.090584
945.336731 -393.262024 185.738129
839.860352 -357.053558 -52.512955
828.427917 -92.761284 31.804846
1027.156860 -370.119171 320.757294
990.966125 -403.035400 216.271255
863.460571 -110.628693 95.584618
837.286621 -161.221771 -2.126243
972.586548 -361.259857 203.503433
905.903931 -84.789948 287.084564
867.081421 -114.426643 138.748993
984.200012 -378.562897 234.968674
958.241943 -400.034424 160.136978
848.736389 -255.732147 46.629135
850.109375 -293.465424 11.474138
921.942566 -120.985062 338.108704
881.896423 -220.855026 109.268227
811.105591 -146.233719 -16.356165
868.454041 -185.980804 92.862213
850.772339 -95.360542 33.747253
970.896729 -419.152985 254.497910
799.626953 -112.474884 -34.864086
804.872925 -260.704193 -80.191689
802.323914 -180.436737 -96.580666
859.320374 -184.381775 65.764435
904.039856 -189.326126 157.354507
920.136597 -200.183319 185.636566
962.659729 -367.447845 162.450958
923.063538 -435.814758 161.143951
925.600220 -431.461243 121.653854
812.841187 -229.139801 -72.597511
982.182007 -189.051514 357.143463
892.679749 -214.310150 151.603973
888.519287 -154.228806 129.423187
870.300232 -103.103622 117.987106
910.052063 -173.331192 255.494156
944.640625 -100.703575 362.555389
948.621216 -189.235428 284.988068
908.916687 -429.609772 96.443329
910.334290 -311.689392 92.029396
849.482727 -265.471283 1.792391
940.480103 -273.190979 265.995209
946.433105 -54.023354 359.156860
830.340210 -331.362885 -86.624817
866.314575 -125.661804 92.670395
914.249023 -267.558105 151.276550
813.342041 -269.287018 -91.839844
931.460938 -59.727009 352.439484
924.899719 -326.233215 147.078415
819.338135 -135.703949 -3.497324
960.318115 -275.135132 325.822723
962.092102 -299.601654 244.088455
898.667847 -285.745575 114.179939
1009.191956 -291.753296 396.233673
799.672058 -104.488808 16.367090
842.606201 -245.889496 -41.656513
885.053955 -270.777863 89.615768
886.741394 -77.795395 181.096024
945.155212 -62.066315 344.752167
992.089539 -316.047455 324.751007
905.255981 -282.202728 94.551392
868.135132 -88.019707 189.847443
864.762878 -288.574036 -23.273073
909.820618 -380.364471 56.882195
824.673889 -124.504456 56.810577
913.773071 -423.965149 150.678940
821.620911 -122.614883 13.770767
906.113220 -437.413757 140.960037
857.011536 -132.810638 104.072380
875.902771 -227.454239 77.923691
944.030090 -52.230156 354.026642
1007.859009 -269.770844 375.594177
958.763672 -93.568077 380.238983
904.231140 -166.472534 195.590271
930.476135 -403.717133 129.806442
974.572754 -180.598663 394.283142
828.082581 -150.581573 15.816007
887.747314 -117.510506 173.875168
902.574890 -432.920624 72.960876
867.786133 -304.444489 -6.505977
871.421509 -139.660065 130.155899
1012.747375 -273.163208 386.428345
971.451599 -401.735840 211.267746
886.825623 -98.685768 154.371460
903.599854 -358.488831 65.552017
914.762024 -436.634857 189.879837
866.655029 -311.289093 8.256638
895.225769 -169.338058 218.306046
911.656494 -324.039185 105.966797
857.968201 -84.600517 123.267845
932.325989 -51.647175 315.880188
818.890503 -128.790344 3.294667
989.420349 -261.399323 341.768616
843.661316 -166.256821 74.106148
851.811707 -167.225861 68.126862
965.674072 -232.024261 288.644562
887.075073 -90.259720 208.833511
879.861816 -208.178604 115.834137
999.998962 -323.836700 349.544189
913.657043 -92.324127 313.500519
1020.555725 -389.443481 278.485352
937.188843 -169.767700 252.360031
789.063904 -136.971893 -91.368881
932.136841 -145.239243 303.165924
913.478088 -442.676239 102.421959
1006.454041 -301.485199 360.409424
831.693787 -307.015167 -64.610756
893.979797 -228.159851 120.451454
814.838074 -146.175079 -10.116167
1028.449341 -371.526062 263.693298
868.416565 -124.584267 139.962082
981.719910 -259.357117 321.381256
817.207520 -231.377502 -35.058838
868.609009 -124.624023 121.602417
895.791077 -348.188080 73.559891
922.687439 -111.597969 288.676880
825.620422 -234.995056 -76.567085
830.706360 -89.942863 53.940075
895.813721 -292.027832 110.260399
954.981934 -194.325211 338.675507
882.900146 -321.414429 71.062729
945.855103 -90.036499 339.417786
850.993652 -198.450790 41.961029
919.523621 -149.512238 255.186615
955.568298 -425.285156 250.451355
875.217285 -139.282745 178.843231
926.337646 -323.548645 152.322479
888.717346 -113.692688 194.351303
930.891846 -59.824337 325.204742
929.213379 -169.401001 247.768372
982.174500 -278.543488 291.138031
959.241638 -249.929001 292.081512
907.290649 -305.974823 129.507523
830.072144 -130.885162 -3.376466
836.861816 -85.323288 56.571281
1006.545227 -313.066833 353.489532
858.144958 -117.597603 77.767708
877.784119 -139.231781 134.267746
786.766785 -125.515465 -53.671711
866.457031 -256.114624 70.381882
862.141296 -95.545639 155.192398
871.128723 -77.903580 163.340912
867.460449 -184.811691 53.352959
1003.542725 -319.899963 352.747742
975.660645 -351.536804 229.861252
918.088196 -351.539734 140.596054
898.796021 -300.439667 65.523827
973.340881 -364.828033 190.147476
989.454041 -322.559784 286.645691
950.374756 -319.194092 226.791550
963.273010 -208.011887 302.778900
920.379089 -436.604645 154.364548
809.304810 -174.340500 -79.927811
875.017212 -122.632713 119.134323
941.570251 -173.942352 262.873322
965.224976 -165.654800 337.752930
882.834717 -117.009987 157.163025
898.211182 -188.114532 168.578476
839.648682 -231.789169 -51.494785
972.493103 -164.492035 361.586578
993.249817 -382.882263 186.457245
839.708069 -98.809921 86.871597
931.364441 -409.013885 -5.417763
882.854065 -89.228867 192.218933
935.995544 -185.727493 266.582550
993.892029 -245.143845 353.902802
965.924622 -378.610382 139.743408
929.549988 -198.548187 240.473572
922.730530 -367.392365 95.832787
975.805847 -193.286819 332.750610
831.518982 -190.857361 -19.592918
957.465454 -236.914856 334.838348
925.990845 -105.458000 283.393982
857.259766 -379.511780 -92.209984
827.423279 -94.017281 60.873074
951.608887 -228.797577 253.453964
887.784546 -221.699524 127.063408
887.176514 -198.365585 97.868187
823.855835 -149.322464 -28.356365
890.215942 -332.446411 59.156551
944.359497 -260.291443 229.439758
951.105347 -210.351456 351.149017
910.563477 -148.894562 204.058395
832.907959 -332.179443 -79.553833
944.656494 -124.174286 341.625183
928.692139 -429.194489 192.753815
934.790955 -123.454826 293.962524
863.570313 -317.079224 -21.278902
989.145264 -347.655273 241.236862
834.570618 -130.083008 89.153664
957.777588 -147.810944 331.728973
919.286804 -77.595589 318.850220
841.211121 -228.073715 -49.590088
962.210815 -353.011017 203.069778
954.948853 -247.781357 247.073685
901.636353 -230.999725 149.913467
832.583984 -241.555420 -76.984123
791.011047 -207.478531 -68.515793
865.681519 -440.731354 88.611748
893.059265 -171.153778 228.062866
804.663757 -151.627319 -48.757538
923.313904 -168.948349 240.938629
877.123657 -162.639114 121.390106
979.025574 -179.183350 365.683838
851.317017 -241.103043 39.473000
1010.691772 -336.531677 344.725372
931.809204 -425.690125 182.261887
939.872192 -433.673340 233.522049
925.236572 -240.704666 209.164017
948.557556 -223.087769 239.492554
859.703369 -117.065880 82.286049
829.375061 -216.489990 -24.048426
944.839722 -265.534668 235.878174
871.687988 -298.863129 26.927492
898.017151 -100.007317 213.248840
814.942932 -210.423370 -86.787910
963.250854 -393.008698 200.891083
932.098572 -429.308868 166.582916
871.001709 -201.817581 112.081032
822.893799 -205.077621 -38.164909
