ply
format ascii 1.0
element vertex 1372
property float x
property float y
property float z
end_header
193.060883 -883.809631 -387.523376
98.311302 -749.523254 -458.949432
19.779278 -913.635803 -337.583740
243.730331 -908.171997 -378.666534
291.209351 -859.427490 -435.252808
165.958176 -811.501831 -421.792389
92.955147 -889.711121 -358.522705
-145.495499 -754.286926 -393.877411
132.886520 -1079.015381 -322.694275
12.094866 -904.187073 -340.575958
1.323934 -986.507751 -260.371155
211.385178 -802.990479 -447.708710
61.338566 -895.932983 -342.779419
231.822876 -1117.175537 -348.071442
-52.556393 -876.383118 -338.771332
57.387085 -1006.867371 -245.219345
109.197884 -875.025818 -351.865082
243.574081 -1063.663696 -311.958496
146.018082 -830.173279 -411.968933
136.178268 -920.050293 -361.343781
50.997272 -716.575500 -440.961243
150.092575 -761.974121 -457.523132
230.546722 -897.643433 -399.300995
4.035548 -979.244690 -208.756516
-174.600204 -854.684448 -302.237335
213.969238 -980.922546 -337.046539
-91.930374 -660.287292 -459.406799
209.375198 -1127.044312 -339.377380
73.248947 -883.934326 -368.854462
158.648712 -842.017517 -412.057190
174.090149 -822.567078 -433.921082
74.847092 -860.462646 -367.631805
-112.347244 -742.756226 -404.299286
210.762451 -954.489258 -355.055725
231.816803 -833.851624 -430.273773
252.353867 -916.014465 -360.020325
-40.408619 -913.349548 -303.344604
226.986389 -1026.924683 -315.343994
-25.207380 -906.057251 -330.434509
207.108475 -903.395691 -373.861298
136.805466 -969.386475 -332.800293
37.496304 -747.731262 -417.062134
214.909424 -1023.933472 -315.031036
-41.804516 -875.558899 -318.383057
319.414856 -954.900574 -381.609375
318.614990 -915.538391 -393.947571
64.962242 -830.098389 -382.543854
-91.388191 -640.460815 -444.042358
-23.346523 -979.225830 -226.348618
-15.983225 -996.801636 -283.737946
255.493683 -867.948364 -386.751312
122.929031 -742.491638 -432.097870
-4.246376 -966.704468 -208.570358
265.606415 -813.482910 -452.290619
293.932892 -849.072388 -427.179779
-68.186028 -812.939514 -365.636017
152.608200 -948.262268 -341.173615
238.143082 -831.011230 -439.548920
263.369232 -1050.082886 -338.181213
223.471710 -807.937195 -441.287476
-79.464188 -736.180054 -415.340454
64.351685 -1022.642395 -282.205688
65.262772 -795.593567 -421.931000
-150.780731 -929.399597 -307.278992
-98.650139 -848.427856 -343.507599
-46.041370 -672.796997 -446.259979
190.164108 -831.024536 -425.411621
143.628464 -950.253784 -337.741486
183.578918 -926.851685 -365.990692
199.503540 -1050.441772 -308.948425
128.132690 -779.249146 -435.223785
137.845184 -955.456238 -347.129272
298.061157 -793.677979 -449.799744
-75.369102 -850.838440 -334.046295
140.016464 -869.019348 -389.523804
-42.095673 -820.388489 -373.870544
106.851685 -736.162842 -453.525330
252.410751 -988.384644 -358.105072
143.776718 -807.348694 -424.327454
-109.385574 -899.424072 -310.344299
-99.639824 -785.487061 -366.772217
-82.281685 -776.423401 -376.620575
28.294754 -956.798584 -301.092682
186.408401 -899.173035 -379.021942
309.327087 -915.211060 -389.338135
-132.607315 -857.825439 -311.610382
58.528191 -929.820801 -325.110992
62.559940 -1023.298523 -243.927933
82.784927 -797.999146 -424.952637
122.849487 -976.981812 -311.565765
153.787231 -906.087219 -366.121185
-59.187420 -706.930054 -421.217621
135.752487 -868.716370 -393.737823
264.483124 -914.871094 -399.064117
100.165596 -918.373840 -352.980652
-0.844986 -846.428955 -356.675171
38.832756 -935.406494 -328.138916
58.398621 -947.807617 -327.636566
-60.726532 -694.186707 -429.721588
-14.306036 -971.635742 -302.868500
23.039320 -742.070496 -442.496765
-0.311633 -718.553711 -453.140625
220.555740 -995.479431 -334.107300
52.610317 -711.003357 -452.740082
254.902817 -865.464661 -412.886139
221.202255 -959.915894 -347.531738
289.406067 -929.900757 -362.881134
-67.628250 -659.368164 -445.834747
213.580658 -889.855957 -401.749115
300.719849 -898.007813 -417.038147
60.027557 -738.997437 -448.652740
118.575912 -828.722595 -400.323364
73.526627 -780.375732 -430.148376
112.899559 -750.276245 -438.608612
-14.620037 -745.335449 -426.552277
-80.969994 -732.218689 -422.492279
136.862259 -983.470520 -306.521423
37.399471 -1023.772522 -293.946320
16.414652 -1011.818054 -258.993073
342.931061 -929.046387 -408.268616
101.849113 -986.791321 -312.897186
-61.045597 -908.589294 -300.079895
32.221119 -765.168762 -406.127716
-20.058578 -935.401611 -307.878174
291.084656 -835.620117 -432.349548
196.898422 -1095.040283 -306.590698
257.336670 -948.400208 -377.846649
190.014053 -808.320129 -429.450623
142.121277 -772.764893 -441.755432
-40.228199 -701.963928 -430.619659
8.265505 -891.749695 -348.136932
65.990379 -1004.588440 -253.488113
-21.947086 -813.777283 -371.189636
-99.701195 -842.271790 -330.018219
-76.662331 -974.949158 -290.053040
60.630779 -754.362305 -445.174133
275.331604 -810.621338 -426.763733
203.063553 -976.239075 -345.075745
43.862877 -702.424744 -469.510803
309.817413 -864.360413 -439.357025
296.888458 -921.829468 -399.615601
97.917847 -1022.829712 -224.869415
97.321442 -892.692322 -361.073364
239.677490 -952.896973 -367.843079
220.324493 -993.484314 -332.460754
-87.324898 -1002.347046 -311.866791
167.123322 -792.574951 -449.221954
-21.059086 -718.733643 -444.752655
193.220901 -952.289429 -358.260162
323.382233 -871.876099 -427.623260
44.741596 -705.984741 -460.587799
121.565186 -1012.810486 -310.798218
89.009514 -1017.744812 -219.210632
45.574883 -973.903931 -316.877472
319.852325 -890.945435 -423.247314
162.740662 -1082.250366 -311.250061
39.547024 -933.703674 -320.492096
262.844177 -868.670227 -412.246490
102.832634 -759.155823 -447.958801
133.830963 -978.620361 -325.760712
111.987633 -951.961426 -336.200592
56.595963 -707.011780 -456.833588
311.993774 -906.565735 -403.661316
146.405029 -951.014709 -337.422211
313.188812 -956.469482 -377.893921
272.017303 -1033.154907 -322.449188
-60.206451 -727.086975 -394.964264
-78.628319 -884.560913 -310.775421
282.722473 -956.421875 -378.173218
71.884026 -847.116943 -381.070496
-18.074385 -777.629639 -410.455994
285.818634 -865.509338 -414.330994
109.045128 -1064.357544 -306.582642
327.943817 -916.671814 -390.673615
230.205383 -864.159729 -382.801758
65.659157 -821.488464 -405.243347
-4.183937 -814.370239 -365.062378
-215.677124 -898.799011 -322.288971
239.561447 -854.337463 -421.327332
142.269043 -849.077332 -398.349335
97.987396 -882.873169 -375.060272
102.903793 -827.302429 -390.594971
27.003147 -836.825500 -386.520477
204.816330 -793.098083 -438.778442
-8.102221 -889.583740 -327.914246
303.544586 -878.775330 -423.394867
24.190504 -860.867737 -371.643616
-39.825626 -821.670105 -363.752808
187.108047 -955.417664 -354.681061
271.747070 -862.921692 -427.541656
87.043159 -871.516357 -364.539215
-132.088226 -838.560852 -346.058624
-213.539154 -872.817139 -323.784546
217.768707 -948.461914 -362.705933
146.043411 -799.417480 -430.419525
-76.927261 -655.527771 -449.085754
46.678413 -725.022095 -443.338989
312.963348 -927.870300 -394.476776
146.493637 -865.056641 -393.424072
135.448227 -740.105225 -457.815094
17.734159 -704.802307 -431.410797
279.898071 -903.735107 -412.481537
-125.684372 -693.860413 -432.384216
28.948442 -916.881897 -316.032593
14.369061 -743.917053 -422.329010
-30.855438 -682.999207 -451.498352
320.298950 -901.107666 -421.196320
9.593090 -851.821594 -372.369141
169.834412 -853.722107 -399.862793
-135.191284 -780.656799 -373.796173
181.150787 -794.845215 -440.758392
25.133253 -826.488342 -392.216095
301.623779 -827.209045 -430.018280
246.469666 -970.947266 -347.029907
230.116409 -870.546326 -404.150726
-0.351611 -996.159668 -271.886505
-36.243267 -900.296204 -318.107819
-56.128929 -777.231750 -376.548035
147.533218 -787.046021 -430.250122
1.344802 -703.593567 -460.382690
156.527115 -889.467468 -375.912720
316.794342 -967.480957 -361.876129
69.224747 -885.937439 -365.635712
250.315933 -969.930725 -358.388306
181.312317 -898.335754 -378.046631
195.638611 -785.151184 -438.231171
147.792282 -774.462219 -450.086761
-37.010544 -823.250244 -365.030029
64.716644 -869.935974 -366.080414
137.156586 -954.375854 -333.628204
116.891434 -837.186768 -395.097656
154.026154 -754.938232 -456.163025
20.520138 -702.770996 -442.722870
60.974842 -854.299866 -384.910919
289.236847 -965.273560 -355.736755
43.374634 -774.449890 -413.007477
12.368769 -720.107849 -434.738220
142.064789 -1085.094238 -309.945282
159.858459 -940.012756 -347.072784
72.092468 -765.975830 -406.095795
-48.795406 -734.535767 -386.616791
251.945999 -990.621216 -347.399872
97.612801 -863.308044 -389.789551
-152.924881 -883.117676 -296.212585
-2.305112 -977.358826 -286.853058
-80.564613 -718.124390 -407.047760
308.027649 -845.814331 -449.617401
-139.715027 -921.278931 -306.215271
67.643318 -826.284790 -391.542450
83.817253 -1017.768982 -275.036285
-185.239944 -855.787598 -303.111877
69.928467 -889.504517 -365.359711
-29.797792 -966.966980 -235.664383
-90.707993 -653.594177 -446.295532
-158.642090 -852.720642 -314.692383
-13.889730 -863.589111 -342.595245
-86.402344 -834.777527 -340.053772
-24.093830 -993.244507 -245.266159
-60.671440 -872.858704 -324.386414
224.506577 -1108.245239 -325.796387
361.931824 -858.883484 -448.903198
-105.118332 -653.129578 -468.861298
11.037559 -916.698853 -332.731903
223.697540 -817.706055 -446.120605
107.842346 -852.420532 -389.868927
-103.227448 -667.786865 -437.573273
3.259085 -864.286377 -350.315186
108.469406 -808.572510 -424.068024
-141.494202 -792.867188 -338.418915
181.116974 -964.406799 -353.983795
85.281052 -734.611206 -451.341339
341.713318 -821.701721 -457.554199
283.881287 -910.552185 -402.609894
-42.236443 -983.831238 -290.578552
280.062988 -907.556152 -395.843689
149.072876 -874.075012 -382.439362
2.413960 -980.671021 -300.798401
-12.739080 -867.242676 -343.748810
-26.229240 -806.732849 -386.984802
-31.045767 -951.585815 -304.767609
4.650903 -794.190125 -394.511536
101.530350 -1010.413330 -215.507156
338.878967 -916.504883 -393.603790
227.181091 -812.588135 -443.427795
-93.551132 -761.496643 -402.333160
250.841675 -874.594299 -388.355377
244.608414 -958.923340 -368.541931
133.241913 -892.919189 -378.196564
-74.315155 -687.603333 -413.793243
57.666859 -974.962402 -317.761200
188.725189 -956.134705 -346.805298
120.479256 -827.757019 -406.467468
-78.736160 -983.418152 -288.001648
-23.156574 -921.329590 -306.443451
51.548908 -888.663818 -359.300262
30.524794 -991.782043 -208.078979
207.559799 -802.020752 -443.234131
-41.170380 -902.089722 -312.814240
-153.443344 -756.089355 -365.169220
15.140372 -993.483826 -220.264954
126.136909 -887.049194 -370.222778
197.014099 -780.912048 -455.184418
-98.569702 -669.467896 -427.105652
108.160507 -778.623657 -408.237000
-32.059971 -777.427734 -370.210419
33.682823 -705.072876 -448.639404
111.668114 -932.651123 -342.185303
271.350281 -1004.330750 -336.226990
63.942501 -1005.561279 -232.034607
34.368134 -837.714111 -367.605957
-84.291466 -723.480164 -415.764801
-36.018810 -990.877136 -264.796417
57.672447 -908.535583 -339.449982
181.296768 -997.895203 -333.858185
24.203562 -752.244690 -432.430634
-92.732307 -752.102112 -401.226654
197.742416 -821.804260 -421.073151
-56.692368 -780.235718 -381.287354
160.869583 -955.032166 -341.942261
18.728628 -731.668091 -430.791687
52.773003 -1002.851379 -308.625031
77.482910 -821.873840 -398.447052
-54.118088 -664.989136 -448.659027
-113.293297 -804.035156 -351.166626
100.116531 -1035.973633 -240.138870
10.161153 -833.401367 -358.980286
92.837845 -1040.827026 -304.477203
265.039307 -1021.475342 -332.075287
-41.301914 -898.536438 -327.085388
179.131256 -923.257080 -356.174286
288.886780 -998.794617 -356.713745
85.325981 -751.480530 -432.470581
158.658417 -877.397705 -393.008301
-112.524178 -662.779358 -429.656097
206.856995 -818.360291 -427.041779
-78.656288 -826.964783 -346.249542
72.072273 -955.398010 -323.667694
228.002945 -812.285217 -433.902222
200.772247 -914.171265 -387.756989
261.334961 -1006.132141 -346.365417
2.708239 -816.453308 -378.182159
106.501259 -844.962036 -389.466705
-90.438782 -735.987366 -408.022247
-55.754715 -903.901123 -319.849335
79.650978 -904.251709 -361.763916
14.972755 -700.855042 -440.509308
5.051359 -830.715698 -383.319641
127.518677 -826.488586 -404.427795
-84.984711 -653.924194 -448.865906
-17.151180 -797.383789 -380.350220
134.019836 -1084.753174 -306.283173
185.340927 -884.419495 -396.693146
111.610649 -893.476379 -357.404785
263.258209 -1021.430969 -335.488861
354.225922 -843.246094 -472.752441
268.949097 -864.106079 -425.171295
-99.686714 -844.798767 -331.621582
124.399017 -1071.334839 -295.436798
253.388016 -805.199646 -423.816284
107.740807 -789.382141 -424.374573
29.173555 -881.613342 -360.229401
36.870182 -876.017761 -355.359955
-134.700546 -801.614563 -347.629761
-154.227676 -861.639221 -316.961731
-18.607643 -802.901855 -376.831757
10.254889 -885.680542 -350.445953
157.987091 -837.882080 -408.971710
-117.131737 -854.671631 -307.192871
53.907124 -722.047974 -451.028076
240.804169 -994.709106 -342.771881
24.957346 -920.397461 -320.943878
-128.869843 -789.186768 -355.464905
182.317383 -1031.299194 -309.211853
-8.041552 -745.890259 -413.976074
204.446686 -754.483459 -452.632416
227.852417 -906.661377 -376.100403
144.774933 -906.604797 -361.277405
68.609703 -910.778503 -340.086029
207.620499 -892.207031 -386.771057
51.096130 -884.066711 -349.099152
318.788025 -849.200684 -436.655853
40.530548 -976.619141 -307.983032
251.914841 -846.021790 -422.423981
-74.119644 -929.562683 -301.945862
-52.470356 -980.840149 -284.024231
52.948727 -996.485474 -232.124115
138.989288 -745.398010 -452.981445
199.775452 -823.407837 -428.564423
-113.105629 -794.116760 -377.748962
18.399263 -819.810791 -377.452362
-127.985504 -728.101868 -405.319672
106.965790 -734.196716 -439.785522
86.912888 -1003.991211 -216.390137
99.109344 -851.809509 -382.912384
-0.516832 -983.740173 -302.274323
263.208893 -863.196655 -421.436371
118.575005 -1044.583740 -276.590057
-173.375626 -830.513306 -334.091614
138.743759 -906.092957 -369.553314
117.872787 -830.893066 -404.544952
253.465179 -912.235107 -378.344757
72.124405 -911.389282 -335.976074
98.719368 -1040.071411 -270.745148
290.481567 -825.321472 -439.800751
123.131561 -861.539429 -378.838196
242.656570 -951.188538 -338.680359
277.763184 -919.933167 -394.965942
306.229523 -852.095032 -422.621002
128.297180 -755.358826 -432.515778
107.639435 -971.538696 -310.581360
63.456097 -839.539734 -382.631378
120.517975 -851.477112 -387.361938
-6.737644 -739.228577 -432.045380
-4.148195 -840.927917 -364.634583
90.094711 -989.304932 -320.327362
53.397900 -789.473938 -400.709320
-3.497465 -778.254150 -378.950745
10.394872 -867.067444 -363.614502
55.076416 -735.092529 -436.139771
-39.033737 -990.518982 -246.636551
-71.742249 -858.722046 -328.981232
-2.908109 -779.289917 -410.185547
18.823088 -790.537964 -388.102051
206.269989 -855.645935 -412.777100
124.329094 -1081.068115 -310.957825
-112.833633 -781.640381 -377.241058
206.743561 -913.479065 -384.359314
-53.821655 -867.557739 -343.118683
-28.813240 -873.207153 -324.421722
313.950836 -856.635315 -432.284729
222.078476 -1019.152893 -331.253998
243.288651 -827.429749 -436.118378
265.263641 -1015.406067 -343.013947
334.564941 -822.650513 -465.614349
-11.716236 -695.972839 -431.918274
137.422867 -1074.218750 -315.268097
177.719421 -867.045959 -399.093811
82.591248 -870.552246 -366.790405
64.136353 -1005.405579 -309.298401
126.234650 -868.120361 -375.810974
90.576172 -863.719788 -371.271790
87.893204 -950.618652 -320.452148
-129.304062 -819.832947 -341.630554
40.115780 -776.705322 -402.894318
198.896774 -906.580383 -382.193695
215.267029 -875.156555 -395.056122
262.216125 -869.667786 -413.076324
234.711136 -806.507629 -417.458344
-46.731613 -708.925903 -434.580627
282.170349 -907.558594 -404.392792
265.406555 -1009.282104 -338.535431
213.017181 -820.563965 -426.638306
329.490479 -860.688049 -445.833954
58.143169 -966.779541 -316.113556
-29.312393 -730.601746 -432.195435
-80.563103 -828.022888 -353.450012
-38.043697 -699.611816 -434.879791
-146.553650 -787.303040 -374.886078
283.844025 -819.814148 -449.274933
214.828598 -956.549133 -333.090851
-41.752331 -675.934326 -463.854004
271.662109 -969.114868 -350.189880
18.512783 -805.822815 -399.042633
176.290268 -814.350586 -439.695679
-20.922600 -969.914612 -230.914566
85.372559 -1026.112671 -247.535568
208.445877 -908.050537 -377.455231
155.071915 -791.480835 -424.582611
-68.430313 -760.622009 -390.299377
46.132610 -1014.759460 -281.529022
19.048746 -790.334534 -410.411926
97.116173 -927.055481 -347.958527
329.539612 -863.589661 -437.851685
-11.880145 -993.056030 -271.624084
77.139664 -796.586548 -417.793030
-109.277382 -884.060181 -291.319061
178.156769 -847.908203 -417.907928
80.915222 -778.982178 -428.150726
299.473480 -823.649902 -443.053772
224.110092 -913.609375 -391.597321
57.302422 -1015.141357 -293.734070
179.208969 -848.010864 -409.533112
136.617828 -808.584473 -421.306458
291.228516 -908.329224 -409.139374
344.471100 -852.938110 -442.753632
272.016632 -883.214355 -416.252930
147.050674 -850.787598 -398.665466
235.762238 -824.570068 -425.161224
36.462402 -893.889160 -347.459991
-17.070812 -800.457214 -380.237396
247.291306 -1032.691162 -320.108032
64.092590 -1020.152405 -224.489517
154.880920 -913.932434 -341.853943
-95.939003 -816.681946 -348.972656
142.666748 -855.208679 -371.436462
198.778000 -998.408508 -327.592438
195.319504 -835.514526 -424.081329
32.397602 -836.126953 -374.493073
46.952808 -985.266174 -291.275360
258.220825 -1012.960938 -337.495331
257.676361 -984.762390 -359.117554
91.540825 -1018.239319 -299.415802
-43.579037 -868.690002 -335.840179
319.701294 -838.884338 -451.062714
-79.444679 -647.434631 -438.168518
205.819458 -1008.871277 -333.780121
18.520027 -725.091553 -412.241455
-99.178421 -874.111084 -327.000000
-7.619475 -976.641479 -301.728821
312.645050 -988.194641 -364.547699
314.024445 -864.983765 -434.019470
-182.229370 -831.667908 -345.097626
143.564041 -756.089539 -453.208496
219.998047 -789.542114 -457.748291
316.520111 -822.547058 -448.946838
315.579254 -831.047424 -440.169922
180.075653 -1110.435303 -336.382355
238.844406 -845.551025 -426.338257
68.200264 -783.584595 -415.480560
209.792801 -975.140320 -341.779297
63.861420 -996.087219 -210.669128
113.428696 -857.319946 -384.110748
-42.851559 -830.460876 -373.315125
209.295944 -777.303833 -455.047516
244.124802 -808.073730 -438.984375
-48.966049 -723.354492 -413.714813
-168.886917 -921.955566 -316.470490
-10.032403 -690.623474 -452.336121
-148.773941 -951.192078 -314.137054
333.531647 -832.158020 -471.653900
292.135773 -960.616028 -372.605347
324.287750 -916.273987 -409.063660
99.684090 -1018.036499 -301.732330
-101.541443 -780.562927 -379.509125
182.762512 -850.108398 -404.805145
216.029617 -1024.171265 -316.258392
-7.669915 -722.099854 -443.256836
-26.726316 -777.817932 -402.722717
336.260803 -835.193420 -438.261108
42.890751 -894.356812 -349.000610
-93.349548 -673.490356 -449.389465
-46.902149 -751.546143 -386.214569
71.451035 -821.175903 -397.149109
-103.880981 -720.068970 -402.567047
194.417770 -1105.014893 -320.411591
267.476471 -954.999268 -372.186554
123.309738 -899.649719 -362.531189
96.965073 -872.541992 -381.899139
120.422974 -850.608459 -388.773407
58.108070 -737.250183 -449.229553
60.519623 -1010.879578 -264.354889
31.591513 -943.998901 -319.159515
28.381218 -947.878601 -325.023010
9.697961 -972.272339 -302.666199
190.494202 -825.169678 -419.446960
-114.138153 -810.997681 -350.390137
-11.784903 -774.002319 -387.224304
93.302612 -785.242249 -416.595215
72.044533 -886.935059 -353.845795
108.152748 -963.435364 -330.586304
207.854553 -946.715210 -360.481384
165.729080 -1001.818237 -314.441742
-84.611557 -892.521912 -292.859619
190.951294 -825.745544 -417.251587
225.211288 -985.594666 -339.953247
88.429352 -875.116394 -377.532288
11.270837 -994.787476 -290.061859
-11.847578 -695.014648 -440.070282
-80.075783 -745.903992 -394.503143
72.104134 -914.699768 -337.206909
95.079834 -1022.057678 -300.966980
25.501955 -852.360413 -360.593536
222.344025 -1032.166016 -318.720825
206.444382 -793.735168 -439.205811
42.814709 -839.809326 -388.077118
-49.510937 -818.580322 -378.880005
158.838013 -1065.367920 -306.418945
12.724221 -788.511902 -394.891144
171.302612 -1100.552612 -318.823853
324.478851 -827.408386 -463.471344
-49.900890 -909.052307 -303.590790
194.052338 -956.083679 -357.312988
30.411346 -876.459167 -346.679504
-37.851650 -981.415466 -258.317627
-0.597076 -1001.183411 -268.665283
101.433205 -953.665649 -307.905457
182.443878 -939.210938 -352.417542
132.082611 -772.896362 -452.617432
276.989960 -791.832275 -450.089966
37.969944 -748.384644 -400.609375
12.859461 -903.350830 -319.435242
-62.642849 -977.464844 -300.329071
234.797943 -792.588623 -454.171234
-10.571930 -991.717346 -291.802124
338.379913 -861.955078 -447.432068
-32.176762 -965.924866 -267.037140
257.814514 -938.824829 -381.956543
195.817169 -940.843628 -349.055664
145.004105 -818.653992 -413.180939
-94.008446 -756.852112 -398.235260
322.278900 -877.432251 -435.353363
-50.263157 -785.448792 -386.349976
5.680591 -731.928467 -443.957214
-103.223808 -740.587708 -402.775726
207.259659 -847.068970 -427.397522
-106.773239 -661.086792 -438.287170
164.134033 -859.942505 -406.966919
-97.479462 -890.936829 -309.805939
-44.215816 -870.678101 -330.420898
91.154243 -950.787964 -314.609924
17.373096 -866.714661 -346.249237
252.498016 -882.333008 -414.638275
345.672302 -838.479370 -437.681732
155.394394 -755.257019 -433.649933
3.625067 -973.787231 -223.631226
252.363739 -1010.135803 -314.954926
131.417938 -757.153870 -464.894043
158.184052 -821.943054 -410.385834
26.155508 -1018.200745 -304.568146
-141.595245 -784.614685 -369.117096
226.385117 -1028.513306 -326.142761
196.899506 -785.365662 -441.689514
190.503296 -824.049927 -421.796387
-146.445129 -859.111816 -290.579285
161.660034 -973.565063 -339.390228
154.259735 -758.460083 -445.765381
139.795273 -957.554321 -323.644501
-60.879795 -864.566345 -344.099030
-86.439682 -759.615051 -382.091675
83.519798 -958.222168 -312.682831
279.625336 -1013.575012 -350.525208
77.245361 -754.511902 -445.033630
-29.552633 -828.388123 -341.412048
129.771896 -963.165100 -326.246826
-12.068561 -877.267639 -328.793793
270.651306 -973.836182 -367.661591
172.604919 -1001.541382 -323.818604
-86.602928 -992.744080 -299.432983
-152.689590 -849.774658 -333.411224
-109.673248 -855.049866 -340.916229
161.691910 -839.795654 -405.805634
179.816040 -1023.992615 -320.065125
69.053604 -821.869568 -394.456512
229.047943 -882.708069 -408.736389
169.800751 -923.794495 -360.383301
173.295517 -872.041809 -397.106964
40.290524 -775.079529 -420.676880
104.759682 -767.120667 -432.028839
272.088715 -868.795044 -424.613129
-66.127716 -846.613770 -339.163544
127.217751 -783.510071 -432.776672
-15.869349 -869.879822 -338.211456
39.702122 -1005.999756 -297.088867
269.964752 -942.343689 -383.916290
180.682861 -943.959778 -361.798859
-34.996765 -982.333435 -234.596130
299.788666 -849.781311 -440.842865
82.104645 -900.224731 -331.435730
-68.116196 -675.933167 -435.289551
-165.400131 -855.092468 -311.572998
22.198942 -1001.093079 -292.848816
228.007507 -1017.782471 -313.130402
237.339859 -992.339539 -346.231964
-20.859543 -698.219116 -438.427216
268.101440 -890.913635 -407.846436
57.126766 -761.118469 -435.371155
239.223190 -897.420105 -391.480194
186.428757 -810.478577 -439.691559
100.450523 -754.009033 -444.996643
-163.216568 -887.617737 -308.084412
-39.211475 -845.979858 -352.577484
75.531372 -899.382324 -359.392242
62.639370 -1016.182861 -297.489227
-166.470337 -764.774414 -376.029663
121.794327 -1033.778687 -242.246613
222.015594 -782.776123 -456.404938
69.297867 -815.163269 -393.669800
221.506180 -845.883545 -425.321960
38.514374 -843.576355 -365.861542
47.677208 -1006.393005 -223.435562
307.879303 -885.987366 -425.659180
63.850670 -916.556213 -347.045715
-136.279510 -836.473877 -323.855133
91.377739 -819.012207 -402.765320
85.481270 -984.592407 -313.564087
283.984955 -1016.597229 -343.095093
-67.197563 -851.314941 -335.958191
246.344711 -1037.488892 -316.835999
316.692902 -855.944702 -444.344818
-53.593609 -978.904358 -301.950684
162.426498 -1072.135132 -282.954102
49.426540 -745.260437 -443.392548
46.416832 -1015.450989 -243.789993
273.312317 -803.293457 -448.249664
61.823639 -836.716125 -392.335297
-62.159233 -837.864624 -344.998901
-156.089462 -840.479797 -337.517334
289.077972 -938.313110 -379.932892
143.655426 -826.244568 -408.415985
68.683754 -745.101685 -454.950623
67.992081 -805.608521 -402.174072
22.092022 -779.538635 -402.814362
50.809856 -746.602234 -432.467896
-32.478405 -842.623657 -341.345337
101.379601 -1046.252686 -251.936142
54.810646 -802.698303 -414.396088
10.590668 -806.405945 -377.862610
132.775635 -938.876343 -350.197052
-49.899830 -973.574463 -250.512039
278.591705 -854.875671 -419.077972
-127.833244 -669.648987 -437.804504
151.415024 -793.799011 -428.931488
75.765869 -1024.184692 -249.589294
310.193176 -904.714844 -384.111298
212.402954 -999.631836 -340.913147
-24.060282 -992.656921 -265.055756
171.221405 -1078.773804 -319.509094
13.231472 -828.993408 -356.822601
-2.450838 -770.124634 -418.002899
129.902893 -790.605835 -426.851746
-47.388577 -716.321777 -435.450195
98.250832 -1033.057495 -303.981873
126.806969 -877.106628 -381.615631
188.118607 -910.169189 -382.049622
233.525101 -838.328430 -432.268677
330.862396 -883.069885 -425.986206
91.593231 -858.875244 -376.417114
15.841830 -796.543945 -374.650513
21.715837 -694.397583 -464.207275
-33.869862 -980.925476 -254.163361
81.838097 -916.199585 -334.463287
17.611755 -814.465271 -374.713562
174.419876 -779.929688 -444.684845
40.680511 -761.242554 -420.306580
75.682602 -911.825806 -352.895660
64.041824 -941.209961 -330.855988
236.474136 -849.303894 -421.470367
82.681694 -898.093018 -345.283234
34.164429 -973.974243 -309.431183
-124.794769 -900.110535 -301.767944
134.942993 -970.134644 -338.042297
124.506447 -750.152466 -427.491364
-98.328392 -836.786194 -357.067352
-103.010002 -963.547180 -306.222321
-153.399719 -846.138855 -320.343933
227.060257 -1020.599365 -321.656403
-131.315308 -730.643677 -395.711334
-4.108416 -722.099854 -427.710419
161.369507 -757.405029 -457.314728
101.838531 -971.280701 -323.225891
-41.575138 -747.776978 -403.567047
189.636398 -963.306091 -348.224365
67.867805 -850.932678 -373.506256
83.244728 -1012.882507 -313.752350
255.109344 -942.006409 -371.119751
15.881723 -927.655518 -314.472748
50.010826 -1009.643494 -296.212921
-124.121498 -771.863953 -380.445801
-45.242367 -843.995117 -345.585052
193.811813 -1017.858032 -308.815582
136.547836 -905.525085 -361.469666
34.587898 -697.040466 -433.396179
113.024269 -887.077881 -364.946228
72.092651 -997.763611 -310.210358
82.076408 -884.926086 -362.584778
224.615341 -877.946655 -410.021210
-111.935135 -874.109009 -311.561249
118.916855 -735.808838 -457.288300
-7.450349 -830.838928 -367.616364
-29.414614 -767.047119 -414.675018
149.744400 -744.957458 -441.353058
-23.129770 -681.314453 -450.283417
-48.333668 -729.885498 -389.042511
-17.341200 -986.128174 -257.459717
-6.888015 -834.403625 -367.655945
15.700859 -999.808105 -227.906738
249.894745 -1029.828735 -324.816101
135.734680 -805.774963 -418.249084
-33.021439 -883.098328 -325.208984
147.652939 -926.051636 -353.662537
-176.643707 -937.805420 -311.866302
131.644928 -890.098694 -379.504486
200.949020 -1025.693970 -313.368683
-29.395065 -868.028381 -349.434814
-109.428581 -732.034363 -404.959778
252.307693 -1005.568176 -316.696350
120.507851 -777.570618 -446.078674
-60.736469 -781.816650 -398.809875
306.719086 -997.947144 -363.977814
-41.131535 -697.241821 -434.110687
174.456024 -821.238037 -426.643311
-99.971123 -789.329590 -385.170013
136.985977 -823.826172 -413.116577
48.504169 -796.693359 -413.712769
226.732803 -858.277283 -409.713013
17.742807 -1015.041260 -284.913574
158.946991 -884.357178 -381.742615
-8.358023 -986.495667 -239.234467
320.569977 -886.839905 -426.085419
261.416473 -959.538757 -371.404144
-37.270462 -749.620178 -403.482697
-79.387489 -742.114380 -372.714996
240.277344 -1030.992065 -321.206024
153.526535 -756.695068 -447.601654
203.464493 -770.156738 -465.350250
-50.394516 -687.049683 -453.408112
329.596863 -864.057007 -435.385986
62.043709 -743.463684 -434.049835
24.091269 -715.799622 -460.137909
342.848267 -880.782349 -397.330261
198.002533 -883.725281 -398.581329
82.463570 -990.130371 -318.793152
213.525009 -890.596069 -392.616516
36.343811 -743.401428 -429.704437
8.487663 -799.235107 -385.951355
204.541412 -848.886047 -419.252563
55.363831 -805.918457 -396.664246
-19.538132 -982.250183 -273.060364
220.473846 -938.913269 -344.723236
284.439789 -897.921204 -410.065857
-159.302048 -834.364624 -340.463715
229.312424 -811.812378 -447.004700
203.124924 -972.797180 -352.576019
92.528511 -1048.480835 -314.550415
21.907555 -932.790894 -313.454590
282.231049 -915.126526 -384.518127
-161.423920 -864.470398 -299.697845
-15.445467 -989.031433 -265.710175
-10.624171 -718.581970 -448.892242
112.541985 -962.346313 -320.208435
-23.341654 -696.888367 -426.625641
249.066177 -793.349487 -460.137207
158.605072 -1005.353943 -312.003021
272.454163 -851.546509 -422.793518
-23.207167 -684.015503 -452.531189
274.091949 -901.109924 -406.594330
-35.156696 -832.126709 -355.216980
152.703537 -901.012634 -378.038269
122.204895 -871.527710 -387.333099
135.019394 -851.452637 -407.413544
133.955475 -752.631042 -451.923981
263.957977 -1036.676880 -299.836456
6.793478 -1000.928711 -270.207825
-29.128014 -852.257324 -328.168823
-30.375128 -691.866821 -437.804443
293.001404 -822.116272 -436.233917
339.403687 -836.177185 -463.604065
221.414963 -966.716125 -337.630768
35.552589 -869.296021 -360.524200
-26.631357 -818.852051 -366.054626
230.878067 -934.615601 -360.678680
135.705322 -904.299377 -357.479187
226.141754 -780.448120 -463.534393
271.130829 -876.911316 -419.972137
-43.265362 -743.252441 -403.537384
171.004822 -965.397583 -325.623901
152.092133 -988.303406 -305.028625
98.967468 -1037.765137 -281.820099
257.676331 -901.468872 -403.475769
71.704933 -1011.905457 -310.481415
177.092331 -865.569092 -409.391205
48.090469 -1018.142456 -260.156036
115.074570 -902.658997 -367.962189
246.810638 -820.527649 -433.820984
63.142750 -794.408325 -402.653442
18.553349 -778.676331 -415.974609
84.261757 -1018.080322 -255.921265
-8.857783 -712.491028 -456.171906
-136.679001 -869.869690 -321.516449
212.780777 -947.645386 -361.633850
117.520203 -1036.462891 -255.860504
176.094131 -759.051575 -465.416687
111.768387 -821.015747 -405.675323
269.324829 -1029.971313 -335.209808
327.825806 -839.662476 -448.451385
267.143036 -833.608826 -444.353668
29.655554 -999.381653 -291.319336
213.476288 -804.897156 -435.081482
80.978271 -1003.697266 -285.510651
-17.918554 -906.699158 -316.329376
347.694397 -842.959229 -455.149139
-138.527481 -911.319092 -301.659760
168.091019 -1098.141602 -316.822754
7.397346 -952.347473 -297.859558
-4.854394 -992.137085 -281.152191
153.274414 -770.515320 -444.571991
222.523972 -1037.499146 -323.228119
0.442073 -843.058777 -364.631775
143.614151 -896.722717 -372.924469
269.315247 -930.561157 -387.121735
40.784473 -849.366699 -366.285034
249.875351 -885.845947 -401.088257
136.500854 -927.074097 -349.716309
-111.664284 -861.915466 -317.413574
-73.719116 -726.116638 -423.890411
45.698830 -1020.476807 -298.717651
71.172981 -791.704895 -419.262695
275.317383 -846.386292 -440.197083
325.950531 -891.737671 -388.099335
-96.743774 -953.892395 -309.836761
-109.349144 -782.186035 -366.245422
90.398743 -862.357666 -370.410187
68.753281 -1004.495422 -275.927612
2.411187 -865.065918 -352.232971
26.971632 -833.589294 -375.024780
-76.059273 -693.111145 -425.962585
23.510675 -688.288574 -436.211945
142.274628 -749.652344 -449.080322
128.243912 -815.217163 -392.390839
310.698639 -823.642761 -459.662964
-21.181585 -702.073975 -451.143158
78.262146 -949.226196 -333.949249
-57.894859 -987.198730 -258.411591
217.141174 -1007.633545 -327.422028
13.550914 -978.280151 -296.458191
214.113022 -812.439636 -438.819946
-57.459915 -863.775818 -331.138153
243.822525 -1016.369446 -327.331512
-81.693161 -861.978516 -311.871155
74.706337 -1011.856201 -229.282104
18.055874 -980.032654 -306.951569
225.205002 -946.014404 -357.541565
-72.665375 -681.255554 -450.779999
198.812439 -940.192505 -361.059265
-98.919899 -742.526855 -402.798828
-54.826473 -749.325989 -406.556946
120.801727 -1063.707642 -272.326538
-183.806274 -868.636902 -299.602417
153.278427 -888.078003 -374.053528
222.742157 -1088.072754 -306.569366
191.629608 -1078.933105 -306.951141
78.482346 -1016.571899 -250.560074
-80.022522 -815.027466 -369.450531
47.323940 -861.746277 -354.727142
72.995636 -743.987000 -439.901825
169.732010 -983.709656 -326.308228
-5.099502 -982.441772 -271.711151
-0.773400 -943.399536 -293.803406
76.555595 -740.401306 -420.511566
63.005783 -891.615845 -346.045746
194.034119 -1017.560974 -315.605988
-31.578651 -986.026550 -296.727875
-28.995022 -808.660339 -360.641785
77.270515 -1008.909302 -225.556183
80.372116 -997.794495 -306.921570
-141.203064 -915.421387 -307.894928
99.067917 -1030.154907 -275.311005
22.407246 -936.619324 -324.191223
265.005249 -951.919067 -378.065247
-10.252968 -929.726318 -317.470856
45.075005 -1019.217468 -263.019226
135.088364 -737.300049 -462.688873
16.144388 -796.214905 -390.879395
79.433540 -849.229675 -393.144745
51.555267 -730.281799 -435.818573
32.258152 -1008.097778 -265.243958
211.539612 -1013.082764 -320.246765
-71.771179 -655.008667 -452.825165
114.743675 -843.025940 -405.671173
-46.271915 -685.151917 -437.919403
117.513428 -753.792603 -441.143127
41.691334 -832.561096 -379.974792
214.205536 -805.401062 -440.410767
-105.465897 -875.278870 -305.633698
204.684158 -957.342163 -351.414856
269.815399 -804.759521 -458.513733
-163.503113 -881.845337 -295.245972
265.367737 -971.573853 -347.019592
109.925896 -1034.606689 -316.535004
-154.100998 -761.208862 -365.674225
-82.311508 -796.121216 -364.459747
-4.826355 -972.935669 -226.278885
51.088219 -922.591919 -323.084686
302.520782 -867.101929 -396.975708
224.708359 -783.772827 -448.632874
81.602638 -874.631836 -367.229248
-126.529274 -692.442139 -421.511017
149.338318 -766.574402 -425.078033
-73.619301 -849.907959 -355.490204
270.879608 -836.495667 -441.778961
17.501221 -722.345398 -430.088318
24.062424 -806.090027 -391.915741
166.687683 -840.835632 -406.785248
-25.787683 -928.016602 -304.132660
223.802383 -981.982788 -346.122223
-50.851711 -707.838440 -422.351196
242.315262 -993.971191 -346.646545
103.627632 -755.857849 -436.420837
144.493896 -922.684509 -355.345703
266.117188 -877.305054 -417.087311
-51.266785 -823.049805 -375.839661
209.644775 -827.104065 -436.548676
45.506512 -997.878723 -255.227448
250.876770 -913.998230 -394.916870
197.844559 -809.314026 -430.025940
125.885239 -1092.981812 -321.240540
16.344906 -844.188782 -362.598541
273.682190 -999.830811 -332.310760
40.056808 -1001.019409 -308.466492
-12.673603 -686.791138 -441.419922
246.790558 -1004.807800 -337.875854
-99.753494 -882.201233 -307.485596
78.190193 -916.530029 -350.002502
0.853982 -733.693176 -422.464478
155.658188 -981.793823 -337.027649
324.945068 -853.614319 -437.540344
103.645477 -1038.990356 -242.939392
230.868088 -1009.101563 -327.378418
315.021362 -915.156189 -410.313812
251.993378 -992.716003 -355.031006
-135.835861 -876.731140 -318.974518
-48.962715 -761.041382 -413.514526
302.687531 -909.884155 -408.113922
185.965851 -956.625305 -351.713074
-26.777918 -753.414368 -405.723907
105.606133 -895.772217 -354.894409
-17.872490 -874.822571 -339.249695
294.028809 -884.613831 -392.181763
41.230900 -840.608765 -374.375977
28.391251 -750.123474 -424.752228
166.082993 -997.392639 -319.315857
75.685364 -1026.337036 -241.612076
140.989914 -962.424805 -338.883301
59.764946 -871.301575 -360.627380
49.964054 -754.066162 -426.518951
-21.940802 -904.374023 -308.689087
240.778809 -810.803223 -452.675476
-27.692038 -866.012695 -329.495911
-80.663269 -784.874268 -387.002106
72.157104 -870.302063 -367.254730
16.097439 -1007.772827 -283.587158
122.539185 -843.605896 -405.998962
175.692810 -861.245728 -400.704895
-144.146515 -777.436218 -355.705597
78.210175 -996.767883 -295.246613
-111.038361 -770.382813 -391.383545
138.232712 -837.391846 -402.616730
24.431679 -811.703125 -383.015381
230.086945 -1037.934204 -311.641785
275.904541 -815.703552 -459.341583
74.933403 -1000.122192 -210.237473
76.351410 -1022.207764 -252.462814
5.271107 -820.614563 -391.114990
166.169586 -857.669128 -399.958771
90.431793 -839.369690 -386.471924
32.912987 -707.096191 -446.461853
113.088226 -762.597656 -424.741211
-67.497063 -974.020264 -298.957123
-48.034977 -714.166199 -404.658569
233.703644 -819.113159 -447.658295
94.180214 -932.811157 -348.801483
70.812790 -853.127319 -367.013763
-132.793930 -811.052002 -353.019043
-44.273552 -774.086731 -406.660339
201.894348 -1036.452759 -314.498932
176.587662 -921.401489 -363.908234
127.832191 -781.688049 -441.989319
187.697418 -975.248352 -341.635742
-89.076073 -845.418579 -346.471954
169.446060 -882.809937 -393.659973
-46.532616 -709.845398 -426.576080
-79.849663 -795.708801 -380.822784
-46.823151 -849.520325 -332.247009
-5.140606 -914.201294 -316.335876
166.404770 -755.286682 -458.325592
153.267654 -775.214172 -450.772522
53.223812 -963.989136 -307.083862
-102.675957 -823.112122 -364.014496
29.597599 -999.006653 -260.617371
78.038734 -1029.958496 -268.168488
-78.916397 -918.119568 -307.736145
241.735855 -992.644409 -343.980499
199.201187 -762.552002 -459.922577
-58.149738 -730.104919 -429.341492
205.289337 -845.521240 -413.442017
111.822281 -856.182373 -382.755585
103.694771 -1021.119324 -228.577148
69.740227 -1022.716614 -251.493408
-16.619257 -700.047974 -438.467834
324.652466 -856.135010 -436.905548
18.101662 -1011.642395 -246.773453
228.554520 -831.322510 -423.093323
-168.490143 -835.438049 -318.659760
113.272705 -755.165100 -446.672150
131.683640 -1080.832764 -289.745911
236.978073 -983.519714 -358.173523
272.820313 -1041.529053 -329.526459
165.314194 -879.002014 -384.587280
-7.493713 -867.593506 -357.989349
318.414978 -907.161194 -416.110321
180.753998 -1026.441772 -308.862091
107.125694 -849.159302 -388.041260
84.925453 -902.816162 -357.023285
337.379852 -838.167297 -437.420227
-53.797283 -867.609497 -328.768738
180.467545 -1077.162476 -290.448212
53.179214 -1013.221191 -291.608276
127.676544 -876.325073 -386.112549
-128.500153 -707.157776 -404.429474
300.563904 -945.582764 -384.821381
-12.604450 -980.855408 -237.789673
-51.308914 -735.088867 -407.224274
161.257523 -754.745056 -468.958649
8.000926 -999.304749 -282.872101
322.865448 -928.909729 -401.261475
296.795227 -930.188965 -399.265259
276.544952 -828.097046 -415.811859
192.154861 -798.397034 -445.873016
255.389175 -808.623840 -422.215759
50.947735 -749.775940 -429.159760
198.566055 -805.141174 -415.982117
347.382660 -859.547058 -451.711151
-42.491962 -676.653748 -442.514130
217.140518 -924.377136 -375.645813
116.623306 -852.792969 -366.269897
17.075394 -993.172668 -227.138474
42.296127 -857.740662 -344.565186
26.425394 -894.089661 -343.297699
40.940613 -850.173828 -365.162567
22.685471 -1017.549133 -285.772095
216.211578 -931.483948 -371.344360
-92.981392 -807.875061 -363.341919
12.651376 -785.003967 -414.636810
-61.858360 -668.432739 -429.413696
207.309769 -938.247009 -375.896149
310.315552 -872.191772 -418.035034
75.863258 -1014.343506 -219.055252
24.970503 -952.732788 -293.596222
171.555206 -916.166626 -344.899017
119.913193 -927.621216 -326.058655
-107.417412 -744.686523 -391.717133
186.576309 -795.018555 -453.715210
340.156342 -848.654419 -431.713562
293.063416 -1061.103027 -329.558319
285.339264 -978.287292 -366.629608
65.725098 -779.517151 -427.662567
-142.529968 -754.125000 -356.822571
168.110687 -949.200806 -342.870972
157.169006 -1103.866577 -336.165070
-86.239563 -927.779541 -304.882690
106.081551 -731.255310 -459.411407
221.244217 -804.188171 -443.393066
127.370956 -939.274170 -339.306213
306.691040 -831.358032 -453.673889
304.537964 -817.251465 -468.224335
337.807159 -921.086731 -390.579102
71.211792 -827.705505 -385.296661
329.824310 -937.780151 -398.373657
23.240843 -719.346985 -438.913544
221.498993 -966.449280 -352.895264
-19.523851 -795.353210 -384.601898
67.558655 -860.811157 -372.166992
-60.682373 -702.053955 -420.243408
8.895016 -836.634216 -380.951050
296.551636 -965.278564 -376.625183
-55.110847 -908.737183 -325.556091
240.353882 -921.980103 -386.822479
243.818497 -832.735046 -422.221497
223.477783 -986.480835 -343.746765
-101.928375 -839.881775 -348.040802
46.358250 -835.668884 -373.070526
36.797260 -1001.450378 -231.147324
-129.804565 -779.786560 -349.224945
-6.355203 -970.531189 -210.024399
-5.660410 -859.568176 -347.579224
279.131989 -994.998474 -356.797424
329.835083 -879.162537 -432.973572
180.020935 -1043.070679 -308.866486
296.478088 -892.039917 -415.431488
219.477264 -777.913025 -451.517670
83.771225 -937.259094 -338.590546
307.679535 -894.770020 -410.586273
167.182755 -875.829346 -384.518768
-29.761173 -808.488464 -374.372223
-39.789677 -697.781311 -449.099152
253.106888 -1032.823486 -321.501556
-99.112961 -724.964050 -401.609833
304.424011 -842.796814 -444.698242
20.051355 -748.165100 -411.236298
87.784050 -949.069824 -324.214447
101.692245 -843.284668 -389.177917
54.480820 -800.505371 -382.701019
284.123505 -941.852295 -368.646179
141.937881 -874.920654 -381.869659
174.166077 -855.681580 -400.309662
181.886627 -843.559021 -409.378876
-92.752014 -855.027832 -312.703186
50.870472 -896.418762 -346.837067
301.966949 -982.763550 -349.471283
-166.214264 -858.817505 -315.217590
136.526535 -881.066223 -354.991852
-59.338165 -720.188354 -434.359589
199.152954 -809.749939 -444.618134
88.470520 -1020.569763 -262.134857
81.836746 -1011.886902 -218.963226
216.649628 -922.516052 -382.119690
-86.666161 -661.906799 -460.102814
29.409733 -1019.546692 -273.933716
-32.356533 -831.794006 -357.187347
131.564285 -772.799927 -425.961426
240.863907 -782.899292 -464.468658
-28.342339 -785.487793 -385.317627
-53.736942 -780.764282 -381.801819
104.233978 -846.943970 -390.825836
188.207687 -890.147034 -384.609467
-81.016502 -752.425903 -407.783417
105.718193 -824.953369 -415.904480
137.902557 -865.568787 -399.896301
247.950562 -1007.630615 -338.646362
263.904022 -1043.424561 -325.490570
62.221642 -863.111389 -362.745911
287.383636 -947.942383 -377.163727
-119.870842 -840.910034 -325.885559
262.172150 -1019.145325 -334.991669
65.941414 -895.819336 -364.620087
77.542839 -1007.466736 -236.537659
27.271923 -1011.730591 -248.202606
88.263512 -748.418335 -445.396576
274.204712 -1019.964966 -339.725891
268.978333 -975.005249 -352.896942
-4.212298 -917.782410 -305.074554
101.525406 -1015.206238 -291.861389
298.335510 -884.122314 -403.331085
-103.441376 -679.885620 -454.617279
62.544182 -1018.985596 -278.309479
186.904312 -886.997192 -393.374969
201.849304 -847.130554 -412.780457
-47.111423 -700.768005 -445.122070
2.242097 -1005.267761 -250.837250
157.812332 -849.865295 -402.308777
202.286987 -1028.984497 -323.000488
94.710945 -892.213013 -372.245605
168.550308 -829.774841 -417.213501
92.507774 -890.628357 -361.175140
281.547913 -1093.027954 -308.224213
307.922058 -947.611450 -373.128754
-55.734283 -982.298828 -245.570419
20.507273 -889.252991 -342.428680
296.236481 -855.704224 -441.617615
233.070618 -940.067017 -376.662933
79.102364 -931.898987 -340.446259
328.394897 -842.436218 -456.443451
-9.622672 -816.124023 -390.230316
-8.206665 -797.402893 -401.945984
59.269344 -880.508057 -355.381470
132.490204 -865.632507 -378.628693
131.133942 -740.159180 -465.015045
91.181564 -809.062439 -395.974152
210.835495 -1073.293335 -317.174652
348.815491 -857.717041 -429.355286
86.268456 -792.810486 -413.624573
-20.970268 -967.214111 -232.135162
85.115150 -919.999817 -349.946503
161.133255 -1001.276733 -317.108795
104.308533 -989.218933 -309.293610
73.324440 -808.631592 -403.028015
127.099632 -905.369080 -366.828156
182.348053 -949.521973 -327.415405
-103.083443 -719.817871 -417.664551
260.858917 -856.717651 -426.467194
259.790039 -1046.766968 -318.529877
173.503479 -774.480774 -426.711517
-67.606598 -788.246216 -380.855682
5.176931 -758.634766 -408.475922
254.615967 -794.926453 -457.535126
229.077988 -960.182190 -344.431305
266.395905 -893.667236 -415.146790
338.806427 -844.621643 -451.375916
-125.054710 -707.371765 -403.564240
-1.251218 -920.198853 -313.563019
-29.182434 -966.778931 -301.960144
138.697662 -819.944336 -405.133484
165.736053 -1086.973755 -303.850372
195.859161 -898.601135 -391.676636
57.716412 -984.294128 -199.349609
213.193039 -798.408508 -438.974701
221.947327 -812.031372 -442.271179
317.608093 -811.857422 -468.435608
241.566177 -1016.876099 -331.643646
144.590469 -746.917725 -457.037964
-53.360184 -888.219421 -335.547852
117.562630 -1019.488525 -320.027252
65.438728 -1016.722229 -232.140320
11.627140 -983.981995 -281.576965
89.528282 -1015.987915 -307.193634
65.120491 -853.260132 -385.930695
242.646667 -988.077881 -347.249939
245.971619 -843.798340 -416.862823
55.060146 -996.441589 -211.324966
111.680038 -1059.242920 -284.122314
222.497208 -1015.518921 -323.778687
215.769394 -1024.020996 -327.179749
14.129458 -988.388550 -278.945648
219.867661 -925.723999 -386.567657
237.614090 -939.929138 -343.653229
254.182648 -787.164368 -434.714050
153.999023 -833.565613 -380.655975
164.092316 -948.176575 -326.156860
79.343147 -885.986145 -355.373596
286.803894 -906.053955 -397.645599
260.188232 -1027.532715 -302.680084
134.859421 -775.640320 -438.564056
316.406647 -873.248047 -428.379547
199.145828 -930.699280 -371.270813
249.421158 -901.923096 -392.203278
-170.413910 -831.460632 -319.448273
-83.815811 -687.649719 -421.023254
261.182617 -864.543579 -407.714569
92.766563 -721.147583 -451.442017
-64.952576 -837.207642 -344.454193
-72.887428 -663.846008 -438.837952
2.188343 -686.499146 -452.706024
-77.171738 -801.654968 -377.707733
-5.179758 -804.744202 -385.725464
312.134277 -884.423401 -429.368500
119.556030 -957.157593 -327.270416
-66.052811 -850.644897 -325.026733
-76.123192 -861.173767 -340.523071
-89.853134 -986.656128 -308.240601
132.450882 -893.343079 -364.196503
66.689377 -815.372192 -409.182343
215.404556 -819.913513 -433.469818
186.035294 -909.211975 -371.736420
-117.777786 -759.178955 -388.851990
219.282822 -918.357849 -383.810913
149.346741 -944.395508 -351.752197
75.079498 -1026.845825 -264.215179
-115.494484 -904.012024 -318.404755
288.029419 -848.385071 -445.025269
355.152588 -863.454041 -441.637238
204.240112 -857.361572 -417.589172
33.769058 -761.270691 -418.196930
284.691650 -821.079346 -438.772003
233.751617 -857.262451 -418.315887
224.756882 -836.313904 -437.749268
82.112732 -914.165649 -324.079163
-52.404690 -685.493652 -434.815582
310.305817 -889.636780 -422.836731
-46.810589 -702.470703 -449.150970
214.753433 -925.106750 -385.459229
179.657974 -939.047546 -346.292267
120.138412 -1042.227295 -294.619629
59.482132 -865.978394 -357.440918
143.513519 -920.118164 -353.879852
-30.772827 -985.861816 -261.519165
-53.042446 -659.502197 -466.791412
-43.195900 -831.897278 -354.299713
-87.318665 -871.857056 -335.910675
87.933121 -928.963745 -328.773529
173.973099 -1111.233398 -333.534424
-168.657455 -861.854248 -290.276917
294.136749 -970.798401 -356.613007
-45.528847 -801.369568 -362.205566
70.412766 -735.229736 -453.826752
127.863419 -877.415833 -375.897980
165.596069 -751.640137 -447.147614
-33.707275 -699.074341 -450.129059
39.249775 -931.658691 -329.188141
17.635439 -696.351379 -449.248047
-122.638977 -975.808594 -314.677185
254.802856 -883.745972 -410.673431
-156.901382 -943.982422 -317.892426
306.181702 -972.720581 -377.401855
292.665131 -835.973267 -440.757935
-76.857010 -664.375671 -469.244232
30.566334 -891.452271 -342.083771
21.931763 -947.715515 -302.987122
255.681732 -965.497864 -367.567017
-87.270294 -767.941345 -366.270935
39.485508 -716.363464 -457.624420
185.140747 -826.410950 -426.654480
280.841644 -986.300598 -362.474884
