ply
format ascii 1.0
element vertex 1417
property float x
property float y
property float z
end_header
80.395599 765.383911 -676.954895
118.596352 761.139404 -639.274048
-9.066306 736.799805 -454.323395
226.716980 840.141724 -452.566437
262.992065 870.396362 -553.091370
251.731033 863.381653 -406.270233
-137.363144 646.250977 -543.554993
249.186478 889.865356 -410.384857
5.515325 702.009766 -672.501770
-144.399826 669.972961 -455.776550
199.725464 860.787659 -414.411621
179.850250 843.385315 -372.705597
-81.617264 722.752197 -413.403442
212.972885 807.988098 -625.590820
-0.884374 730.329956 -495.344604
172.973862 795.874084 -692.678833
57.311974 771.317261 -529.821777
159.403336 776.482117 -622.243469
204.415848 827.769897 -656.621643
192.865356 841.511047 -442.587463
77.069298 744.277405 -621.347046
193.390259 847.122131 -423.289093
37.303009 723.747559 -651.398743
-73.586632 713.660034 -387.776642
122.127739 779.371216 -692.162231
214.147507 800.475525 -699.395264
185.245911 847.928406 -402.707733
202.891617 854.287170 -376.357819
255.533173 848.065002 -489.120636
235.742889 831.383545 -682.043274
42.995872 718.490906 -678.016907
-19.443899 747.265076 -414.320557
-60.536285 711.039185 -440.968719
60.256042 771.895996 -521.252319
154.878784 803.017273 -632.947510
135.891373 824.087952 -454.338531
208.353729 838.780029 -408.703766
288.350769 893.222351 -484.192322
102.779930 730.816528 -723.568054
9.030603 735.453308 -390.764404
267.735352 831.030457 -620.130371
171.896851 780.641052 -714.499939
124.467293 745.478394 -715.752991
318.143890 896.231384 -471.020721
131.871704 822.624512 -380.673340
227.234772 851.464844 -394.782349
175.850296 818.258789 -712.963867
110.505325 766.898315 -594.352661
200.757858 816.072266 -639.345520
56.079845 772.057068 -428.212555
312.034912 875.441467 -648.985718
32.037933 729.967468 -501.217651
218.237686 847.729492 -446.781433
82.331276 759.346741 -438.716858
55.908993 743.182129 -614.490723
134.029144 798.914368 -557.881409
-28.333298 730.585388 -482.708679
-139.969757 653.879700 -459.789734
25.319347 721.329346 -524.515747
3.316687 741.601990 -535.496155
140.288071 818.369446 -493.116364
-94.077362 706.620422 -424.321777
212.034073 867.632141 -437.665466
264.825073 886.857666 -463.802185
225.894241 830.908264 -604.783386
294.630646 870.866455 -610.896606
141.931992 796.150330 -452.025513
48.663502 761.512878 -458.559906
199.285248 822.523926 -701.934998
-97.493004 685.925110 -442.170288
-53.133255 694.249878 -530.070251
178.259186 825.257874 -550.846313
151.446213 809.843079 -511.886780
54.390823 774.147949 -403.401428
37.817223 744.379272 -587.286743
-2.044908 744.249390 -395.829193
55.716446 744.685974 -673.440186
150.123154 838.653259 -385.264252
-60.087490 696.450623 -574.127686
10.741368 737.040344 -511.651459
112.675446 695.424927 -727.600952
26.959057 725.515503 -510.877930
136.139313 799.939026 -431.412750
50.023220 716.500977 -652.772766
259.408997 892.180969 -380.356567
283.958893 866.773315 -412.073578
116.060684 796.029907 -479.121063
312.851563 894.587708 -525.191040
69.961525 768.156311 -512.646423
169.358322 781.716125 -675.245117
136.931427 806.890442 -538.279297
240.613937 862.985352 -504.232574
156.667404 815.539246 -706.297729
44.783283 786.837830 -382.351532
110.325348 814.815308 -421.104584
279.672821 905.617310 -434.178253
50.577415 771.493530 -398.571625
73.121361 754.604370 -651.796387
59.362396 788.528687 -418.785126
224.682663 836.189514 -567.403931
305.998932 888.958496 -533.912415
158.917847 788.853210 -657.538025
127.207977 818.314819 -415.569092
105.331421 771.220947 -572.007813
-33.248627 693.734192 -583.406128
268.367584 856.864807 -620.958130
-64.062881 718.981689 -466.240936
7.003897 737.977417 -462.092194
67.413498 770.216858 -458.661133
266.411743 898.033447 -407.761169
59.370857 793.952820 -378.553772
44.431664 783.796936 -397.337860
79.517502 704.436462 -728.753357
137.766357 798.580322 -553.606262
21.935907 738.910400 -570.573730
87.162521 789.799438 -496.844635
63.685135 686.153442 -720.294128
-102.997124 674.019043 -500.448669
-52.527107 657.609619 -666.092041
133.261276 780.626038 -697.606506
264.899170 882.198547 -427.803986
69.218925 796.747681 -393.244202
173.725540 846.579773 -421.592804
80.204651 752.960266 -475.301270
45.125748 716.651978 -712.647339
189.983841 821.240234 -718.930359
267.593384 875.456970 -543.243103
24.615599 741.830994 -511.844666
93.787392 796.789795 -453.882660
-76.491615 672.983276 -684.505676
-126.955788 661.721313 -588.747681
42.392532 754.464233 -467.493256
121.862701 796.468628 -502.010864
284.543182 867.993103 -543.193420
-44.443562 662.815796 -660.258484
101.695274 759.390991 -655.207886
272.929260 874.157166 -545.511658
254.513321 870.071472 -379.390167
275.142883 885.355408 -459.369781
291.614746 872.069885 -525.463440
241.791824 883.099243 -387.138062
159.245682 835.915405 -414.735901
78.629982 767.162292 -693.579895
47.551449 732.386292 -667.245300
-65.724762 696.654907 -483.578033
-115.194824 635.484497 -664.419006
-18.134813 738.328064 -484.046265
290.740601 893.193054 -479.966736
210.601486 855.949341 -486.791931
214.728088 831.967041 -586.053528
99.440109 720.262390 -726.101318
-18.084267 725.802124 -456.303009
7.402767 740.300049 -485.117920
221.926392 846.350037 -562.879395
60.539406 774.385742 -407.690186
234.053741 861.403870 -520.267700
212.227203 862.958069 -448.115601
-57.062801 679.720581 -646.881470
-41.551987 709.992920 -361.787750
-37.928963 739.201233 -430.107330
-66.755867 678.155640 -569.101624
170.076279 850.883423 -375.113129
43.419800 726.528931 -603.215881
224.197266 874.990784 -415.566589
200.909378 837.910400 -518.825439
62.521763 788.636169 -430.703308
55.950916 762.098511 -469.302917
-61.334976 689.438293 -535.855530
-117.628067 685.927856 -444.322449
224.102829 879.913086 -364.795837
-1.701259 705.775330 -588.335388
222.521957 853.807312 -508.906219
190.701309 836.268188 -505.332764
240.495499 883.849670 -389.924957
-7.906279 718.175232 -398.144653
-57.277065 670.703369 -531.285522
113.312508 749.517822 -719.726807
300.477600 885.121460 -656.938782
-57.882984 663.041992 -607.063416
317.214233 885.132935 -616.945190
268.689178 889.799255 -399.610474
112.273727 796.367554 -464.723389
171.192322 795.282349 -682.409729
114.678284 796.031677 -475.006989
175.062454 802.664001 -705.208801
150.876663 793.393066 -609.462769
160.840775 752.856262 -719.108459
-72.927254 687.254883 -553.316406
108.245087 779.723694 -615.369751
-103.784752 682.218262 -452.790466
202.864243 857.996765 -718.728088
169.359482 850.751709 -375.234436
291.889526 869.453918 -663.419067
182.666275 849.731934 -413.242462
-63.873032 710.808960 -403.733673
-25.500452 707.928955 -484.871124
55.769176 686.440674 -728.050903
-27.510073 707.469482 -562.106018
290.274689 901.881042 -402.234863
-78.186928 713.208923 -393.623260
169.087326 823.057007 -454.873596
117.403191 700.546936 -716.623230
-142.674759 667.943298 -461.549286
-74.143135 652.138550 -667.086731
70.734642 743.579285 -605.875305
182.796204 805.399170 -641.213684
101.617310 777.139771 -537.216003
10.739093 760.035522 -400.039307
-44.899956 685.419128 -638.524902
144.429016 827.442505 -412.791199
187.054764 734.118347 -711.425903
201.509674 835.065247 -408.600006
283.541473 862.891663 -656.894897
35.819458 763.939453 -509.272980
184.969757 825.271973 -526.758850
1.838099 734.718201 -549.982727
105.072311 800.129089 -508.188843
-1.366373 762.859985 -379.129059
140.979507 795.004639 -647.913757
176.032898 817.355713 -536.740967
-32.753830 727.233398 -418.595459
156.249557 756.921814 -707.463440
-76.810997 724.694275 -417.712097
18.760784 709.203430 -644.645203
237.153397 872.231018 -371.973755
273.569977 877.563171 -547.895752
77.362846 762.891541 -527.639954
-62.259274 697.493591 -525.547363
50.948032 747.591187 -527.432373
132.320648 805.128418 -451.137634
95.949074 773.531860 -445.556610
-93.413872 681.353149 -465.632660
219.291397 833.848145 -464.162109
-9.965606 736.739136 -399.288177
93.859856 809.885193 -374.829437
186.319977 798.485657 -554.416138
45.685497 725.041504 -707.220154
218.359299 837.021423 -619.654907
121.453239 727.481689 -711.707153
272.515350 869.872559 -575.993713
245.261459 874.187988 -390.784210
81.420151 741.892578 -642.787842
-54.672569 691.503967 -529.908386
194.249710 845.538635 -400.096527
179.305084 832.778503 -444.110077
174.004883 803.866333 -696.548035
136.835495 817.043640 -406.600983
244.509796 866.617004 -509.327850
137.783722 771.526306 -698.409912
245.067749 848.521912 -597.408997
21.030214 729.968567 -547.892456
83.026329 801.518311 -409.374390
83.914337 778.440552 -492.564453
297.200317 898.382874 -482.975952
259.481201 873.109375 -425.547974
-27.871861 709.860962 -441.012085
178.660324 831.195190 -433.247192
191.423492 850.365967 -411.837616
247.672806 847.829834 -571.523926
0.065217 717.362427 -573.814087
263.599243 881.582764 -433.308167
-8.286104 735.156372 -517.407715
185.591721 839.229065 -506.321747
45.247433 778.980652 -451.939301
120.512550 747.143250 -722.061096
11.196665 729.648804 -621.237366
176.206604 824.554077 -547.131592
29.436949 766.927490 -456.062836
235.674423 871.902588 -448.520538
294.011902 861.219116 -510.824554
180.623260 827.991943 -510.116943
28.900858 768.803223 -460.162811
214.391266 810.522034 -588.925232
-77.723282 664.563477 -626.741699
202.651917 827.178345 -614.037415
151.263443 806.776672 -523.143127
163.146835 832.891235 -387.257416
258.676117 867.420044 -438.740356
-22.050100 715.802063 -497.340729
139.662994 813.489502 -479.084351
60.930782 763.695435 -554.582642
254.018860 858.674866 -609.376404
117.798759 737.296875 -711.347412
100.087357 810.007446 -424.752625
183.336319 814.327698 -605.811646
268.255310 869.417908 -671.759277
117.271309 792.666504 -558.002991
155.058640 812.708984 -506.164856
-132.951843 666.265442 -423.166290
201.112045 863.132385 -406.055847
1.362183 713.713196 -497.900269
-36.432045 685.588623 -583.068420
227.047714 845.309998 -698.592346
128.835129 810.983215 -506.856262
-110.542496 646.282288 -656.510254
-21.895697 734.556213 -725.383240
198.705200 822.818420 -723.687256
155.354202 744.467285 -723.251770
210.192215 845.311462 -475.613525
5.920301 706.724976 -734.682922
98.076714 807.269714 -427.008484
285.537598 870.341675 -559.531311
19.249369 754.688232 -489.295837
221.732544 859.980286 -517.845703
17.442797 739.274353 -579.409851
64.226929 766.358215 -418.156189
97.138420 779.959961 -588.277710
125.309868 772.381531 -647.947266
-115.701363 688.617615 -474.859070
120.341591 792.075012 -412.880890
-76.066414 668.171265 -654.052307
142.513519 835.603027 -403.970886
66.316383 791.137756 -424.115021
26.761549 749.194397 -548.195679
260.088867 881.330688 -366.759216
202.799835 860.130859 -431.212280
29.301109 708.084106 -735.604248
69.021164 780.839966 -418.430908
269.009308 894.218811 -443.764984
-59.055897 714.525146 -503.039642
277.835724 861.098145 -545.000305
107.425034 815.909912 -430.385162
98.674179 784.620667 -486.624512
294.492798 866.473633 -492.874725
-127.781212 645.957458 -547.054382
99.237793 778.550110 -545.780396
152.413788 816.869324 -470.247192
100.319717 793.936279 -416.118164
179.959198 816.018738 -604.584045
1.402723 750.896057 -388.354431
205.088440 860.976318 -442.999359
190.697571 844.698669 -723.696655
163.754578 840.314087 -391.695679
-80.236153 655.398987 -644.489624
183.028290 850.749390 -403.960785
102.502068 801.755737 -428.415009
291.164276 890.062317 -526.778931
129.239731 673.799377 -726.346008
25.151793 703.483643 -666.192810
-12.797169 724.783752 -504.669159
86.107094 769.315063 -533.680237
254.816406 877.764526 -468.956726
210.059402 828.501831 -567.841736
166.019180 797.401489 -615.425415
-22.669516 686.174194 -676.679688
129.842392 777.154358 -631.534607
-42.251629 723.070984 -481.806793
85.782623 804.819946 -407.645111
53.364452 775.528809 -398.950134
22.903137 759.385559 -455.581604
-86.582214 654.234070 -640.740723
-115.073952 657.785706 -576.738037
114.509781 764.626709 -609.191162
52.913715 776.167969 -389.453369
171.335922 800.330383 -643.343567
301.153687 866.596130 -521.033447
-31.103828 705.152649 -481.058899
-79.194733 690.999939 -481.080811
276.136200 882.223389 -423.194122
212.041351 792.257751 -726.869751
-33.423889 714.838562 -544.299072
-0.755001 718.249512 -647.259033
294.828949 859.342468 -642.338440
101.748375 780.772217 -557.493958
140.676300 798.231018 -532.250610
-57.089981 714.207825 -490.713562
234.896896 833.654846 -612.259827
63.226044 765.557495 -477.050873
23.981676 725.064697 -481.443054
147.423630 768.132874 -713.771606
-121.735664 661.771912 -415.477325
-80.074287 702.486145 -419.458984
-138.057632 655.296509 -488.627289
-53.860001 722.892639 -416.925995
160.081573 830.519226 -383.296112
30.279560 710.854736 -713.969055
1.996656 738.925537 -459.029297
267.428314 832.856934 -651.166870
190.324493 793.642212 -646.696594
291.976318 872.706909 -558.359924
170.887131 817.128296 -707.376160
64.450432 777.724060 -501.805450
114.432243 761.003479 -563.188904
275.172302 858.264282 -610.310303
-101.410553 696.905029 -451.630157
26.696890 723.172791 -626.709778
19.983797 716.064026 -725.816650
-90.220139 670.206299 -687.426697
-56.022198 695.372498 -455.660950
272.152435 905.321472 -371.773743
113.755768 816.810120 -379.513672
-39.402386 714.756714 -492.379517
218.982437 829.962036 -621.995483
-151.962784 669.247681 -406.605896
21.261889 747.370178 -543.575378
87.822212 684.676208 -734.704285
-92.564758 663.580261 -568.955078
112.640114 787.304626 -494.229828
170.429703 849.063660 -373.758942
106.020271 767.093994 -596.581604
178.828186 850.229309 -420.006561
32.968880 750.878052 -502.760803
16.676153 719.400940 -601.460632
-27.609177 692.053528 -683.757874
-72.092407 711.964355 -398.670990
83.422745 794.025146 -401.728729
47.974720 713.065735 -722.955811
15.600124 763.722778 -436.011475
234.024460 833.705200 -659.820679
308.593353 876.153992 -440.454254
-61.006760 683.241394 -661.125854
132.818405 800.028809 -562.156738
206.034286 876.141602 -370.695068
-112.970589 698.015869 -386.371948
-70.489082 695.184509 -581.133911
276.167328 896.297668 -400.172363
-47.158478 697.031494 -629.401611
240.244156 864.662537 -515.916687
-43.869621 693.696045 -637.903503
-112.712517 684.633545 -478.167816
264.106445 883.925781 -502.321045
-26.979548 746.162109 -389.435486
109.939293 794.921509 -466.451385
-5.914101 719.639282 -555.795654
193.250076 822.468994 -555.470398
-24.467373 722.318542 -464.893097
69.636765 756.624084 -463.499512
59.203716 748.242493 -595.462830
251.912109 881.713928 -422.854156
88.953865 766.545532 -670.569214
263.562286 874.467773 -533.996338
140.164612 799.198730 -583.687622
174.113953 827.759277 -553.175232
148.906143 806.340088 -570.632996
166.681519 807.909790 -564.241760
178.650543 830.770935 -466.333618
129.944504 789.469482 -604.238525
154.951782 708.809326 -715.392090
166.414703 804.610107 -581.120972
202.497131 848.311523 -403.296753
224.766541 834.225037 -546.383179
266.068542 858.543823 -552.112915
-108.376366 638.197388 -600.749695
128.746979 777.056030 -700.472473
11.366710 740.309692 -547.156921
-38.894005 722.373230 -515.786438
-162.095428 660.487122 -414.030914
12.163093 707.444092 -637.710876
190.626953 848.036804 -428.073212
294.791870 888.834473 -520.302368
147.524597 805.141174 -571.593872
143.313461 797.834473 -601.522217
83.933426 758.669250 -699.160950
258.350677 900.020630 -370.593994
250.982040 866.878296 -680.449280
103.813644 776.696838 -568.098877
119.827644 779.869385 -632.491211
234.808487 891.451782 -717.802551
233.018661 852.804016 -405.538239
293.108154 878.036255 -508.342468
217.149384 860.172974 -502.617920
-56.224720 681.917847 -650.121582
19.273504 720.004395 -592.253479
-13.048155 736.514893 -404.230652
124.963585 820.843445 -447.944977
-32.784889 672.974182 -655.247437
128.147003 818.391235 -420.847473
6.019004 752.634277 -397.313019
-100.774086 645.489746 -710.358276
163.312820 722.198425 -716.503296
292.992981 891.223938 -525.877625
52.977448 747.141357 -549.267456
125.823921 740.111389 -715.016724
135.522827 770.657776 -627.705505
-3.418707 723.000427 -450.270142
121.930946 804.727600 -513.101929
37.748093 772.669556 -386.273102
74.083061 731.102600 -668.761475
-57.134914 731.586487 -423.667267
155.680878 770.816956 -715.262695
179.012543 789.448975 -711.660278
77.828819 784.230408 -411.507050
176.378098 785.966125 -619.490784
209.893692 865.031799 -731.452881
33.652222 734.889160 -716.458374
-47.479534 705.180603 -482.318237
264.684967 856.365479 -600.133423
39.733761 750.008057 -496.695496
192.455460 852.633972 -428.930298
129.334839 731.194763 -723.131409
28.777988 739.090698 -553.004944
134.277527 811.288208 -474.883392
232.464600 859.712219 -554.299194
68.895935 729.923340 -707.668823
219.033295 837.925842 -575.646240
39.611343 705.018005 -707.735168
204.255707 828.830383 -594.576660
113.619514 779.662598 -468.589355
33.744663 719.657288 -649.275940
72.540070 741.001770 -623.213867
207.614166 865.056458 -418.476776
63.099987 767.909180 -458.787231
-57.276108 696.775146 -502.940918
153.424957 836.364075 -427.246002
225.435501 858.228210 -436.114990
79.709518 784.922791 -388.778046
199.262238 829.810059 -584.782410
35.616779 746.210632 -504.570984
52.235542 769.808838 -509.573456
-27.502876 748.699829 -418.658112
11.960121 732.675842 -477.731293
171.771301 808.419189 -701.272156
197.146912 748.291321 -714.103333
207.714798 827.911682 -632.874390
-78.069328 652.887573 -600.035339
134.563828 794.638367 -590.605103
207.647522 865.680847 -408.574677
156.724396 827.857666 -459.049835
156.855667 736.616760 -728.959229
298.150330 884.459595 -524.243591
76.457626 751.626221 -583.325684
165.112244 811.151733 -588.530334
177.313690 844.539429 -452.963989
134.337799 754.995056 -695.082336
300.123077 868.849976 -482.293823
116.200958 752.118042 -635.174805
-99.493492 690.224304 -530.257446
219.824554 839.889832 -556.451233
204.305939 869.153015 -392.951111
-75.623314 664.695251 -562.986023
-117.039085 650.056030 -609.669922
26.334402 764.099365 -391.143463
68.451958 754.556091 -576.800659
-10.964534 751.123108 -424.151215
113.611366 790.570374 -560.016174
172.883575 855.223572 -374.750122
295.328766 852.252502 -618.303528
103.335426 744.896973 -720.388123
286.053619 866.676941 -680.181458
-39.390186 696.883240 -549.862854
191.811356 840.086853 -405.732910
300.808502 890.432617 -571.535706
222.687363 860.419983 -386.386841
258.752228 892.801758 -407.836060
160.741501 814.640076 -511.499298
132.673615 722.974121 -723.339478
126.605209 811.586182 -496.018311
169.716537 827.753906 -484.087158
-34.244003 719.888977 -513.615479
275.991150 876.957336 -432.543823
-65.037964 722.162476 -383.415527
104.241013 813.117249 -436.180054
-112.541763 690.175293 -430.432312
53.191849 722.117737 -600.815674
35.407742 775.775452 -378.700684
166.560791 831.609863 -509.023926
112.469627 780.552795 -580.464783
211.726059 840.194275 -385.917480
237.180466 848.485352 -406.244446
14.565339 764.317993 -421.694366
296.311951 897.421448 -376.525604
156.771637 827.866272 -448.023468
242.942535 848.145447 -684.184387
26.500347 728.710693 -569.323730
174.564606 815.728333 -547.411621
78.934921 748.260254 -616.224060
-3.468810 724.069824 -578.873535
82.309433 790.792236 -394.557281
271.936279 879.591492 -494.253876
203.750427 867.526733 -409.117065
242.108444 876.355530 -394.325867
163.325958 720.618958 -732.088074
194.523239 828.427124 -582.090271
184.517136 833.515015 -468.375885
304.607483 888.153076 -452.939026
193.394211 843.290100 -414.127014
275.412903 881.065369 -407.155792
110.601364 756.575195 -706.249390
150.411514 810.912476 -549.527832
-34.707104 696.315796 -523.497375
-44.394112 692.449646 -558.703308
143.742554 723.550415 -737.454956
220.982330 870.124268 -429.254333
262.345947 892.870667 -395.878143
-65.812225 683.063721 -472.927582
-149.446594 682.584473 -430.520996
148.793427 823.829956 -489.248840
310.205994 911.666138 -467.129517
146.923386 827.979919 -426.367004
221.795593 834.592712 -595.333191
128.331589 721.912720 -723.672668
185.958542 838.220886 -476.309662
53.784592 775.103760 -393.999298
119.046913 797.091919 -541.720459
206.215424 838.983582 -431.338318
263.660950 854.165771 -608.702087
217.399338 838.171692 -728.797485
-88.156815 680.162720 -605.764221
56.518921 728.847656 -658.671692
-125.990715 690.618042 -420.348938
254.704819 895.327576 -716.495544
291.881348 910.281433 -425.788269
-17.687410 728.964111 -544.782715
117.919754 776.166626 -651.459473
298.046326 904.416321 -368.039764
-10.166069 741.315369 -493.931641
253.530869 887.218201 -436.794952
-13.590436 714.854309 -390.938538
36.139996 750.001770 -556.351685
222.640808 878.562012 -395.773499
167.499008 832.593506 -447.599640
15.048369 715.997742 -684.466553
163.229141 839.204590 -438.461792
264.290466 862.346375 -492.937622
301.091400 878.929077 -497.397949
113.836197 802.403320 -463.510468
112.062729 732.449158 -723.720764
-126.688721 650.508606 -644.438599
282.492798 861.460388 -668.570740
116.253540 687.886353 -723.699707
52.397480 722.183716 -715.734131
-23.806778 707.741943 -603.580994
156.738037 825.400696 -503.948120
-30.446983 707.263428 -595.654663
121.117065 784.063293 -661.061218
133.124222 811.634338 -469.690247
255.291168 874.622253 -491.443604
169.234589 812.423767 -568.802490
-45.609467 712.004272 -533.890747
84.494209 712.732178 -735.942749
20.684603 734.406006 -497.558319
202.636841 839.998657 -725.874573
139.989899 723.748596 -730.940735
-103.913857 667.546997 -511.619598
83.435226 744.609375 -673.766968
175.186066 816.827393 -542.649109
-133.052063 688.088501 -417.263885
262.267792 862.976135 -574.108643
290.453400 873.457520 -620.245911
192.857788 821.341064 -699.350830
141.645340 808.393494 -486.946442
314.295868 904.899780 -510.832001
-44.547558 726.650452 -399.362610
80.186981 770.501648 -600.365051
308.310242 897.239441 -552.203186
21.138117 718.937744 -713.567993
-99.180046 635.062561 -650.291321
95.222237 727.269775 -724.020874
97.434647 773.112122 -546.536560
-153.291061 679.240723 -446.195862
-124.892044 635.999329 -647.832397
-73.261887 727.756042 -412.060211
83.698654 785.299500 -458.178589
-1.373926 696.199707 -641.910767
-124.263863 660.673279 -620.568237
111.169327 753.949524 -716.799988
219.468430 848.352051 -547.612305
-150.973648 671.957703 -476.929047
92.076027 772.927734 -593.651001
196.043671 859.122620 -390.957550
186.328262 760.411987 -706.828064
128.078384 832.825684 -376.940125
-59.381454 701.755920 -509.276978
293.288239 885.151184 -575.496948
135.134109 801.473450 -507.665649
239.839661 836.404541 -624.538208
186.511337 862.576050 -379.708313
187.877869 737.958374 -727.779968
75.834351 751.856323 -712.965210
-100.555992 647.052734 -578.684814
254.901550 888.320679 -399.931885
194.707474 859.218811 -378.171478
117.564209 734.693481 -724.854370
-8.043242 751.261719 -386.956421
-61.269566 663.124512 -595.835022
224.146881 833.632690 -590.246704
220.384979 871.613403 -393.483124
112.140625 715.418457 -723.177612
-81.910210 672.584045 -563.619690
-23.728691 748.850159 -406.610565
-4.443337 746.448853 -445.848236
236.643967 836.206482 -467.750580
230.829224 862.832214 -468.822723
-0.438932 723.541138 -590.133240
168.064362 827.897095 -497.869720
49.316479 709.595642 -705.869690
91.568840 769.592712 -533.028870
-96.973953 642.500916 -598.647583
-29.443350 718.439331 -403.233368
300.025787 866.018005 -612.136292
139.644608 828.519653 -381.282654
316.918152 888.666443 -598.875061
139.042862 791.258118 -570.097717
187.084320 835.079041 -718.807983
-53.283878 724.509460 -391.755096
231.173187 826.659363 -660.914795
15.693166 720.182617 -539.394409
131.349884 814.885254 -409.358246
194.034851 749.971558 -726.985535
-41.838909 674.620483 -651.020508
166.654785 797.868530 -644.356750
36.199524 742.670898 -600.176758
-3.825892 708.329285 -601.185242
49.554676 780.233643 -380.847107
-75.925018 686.248779 -515.307434
-52.618679 713.496338 -492.264679
188.304871 813.287231 -604.658447
101.971092 705.051025 -715.148621
151.199905 801.329407 -563.675049
186.449417 807.348267 -711.456604
-42.760860 681.826233 -521.499512
-67.248512 707.643921 -408.439758
93.753494 770.463196 -549.791748
200.927673 843.481384 -456.288635
-95.059067 680.754517 -460.678131
25.285391 724.784180 -646.553650
-163.084854 686.838745 -431.234833
293.180359 872.970398 -607.127441
-33.829857 682.173462 -633.894470
158.221420 791.422668 -645.406433
-21.726210 697.163269 -651.591858
287.392242 859.288025 -630.762878
280.836029 853.710083 -650.505676
15.827389 727.502686 -542.869019
50.229774 765.436768 -441.531647
-53.941971 730.198608 -417.218781
131.100266 797.018555 -498.636383
21.955786 713.928101 -629.382629
338.871429 896.201050 -671.544006
77.587570 776.720947 -387.304108
195.101517 843.325867 -501.131836
165.551910 830.422974 -415.938904
187.740234 808.640015 -694.695313
184.315048 765.479065 -704.507324
-119.407204 648.916016 -562.460388
-30.270250 726.075867 -416.791229
259.969238 891.211548 -428.060394
285.659851 878.367493 -512.181091
-113.688545 692.760132 -390.363831
189.448822 850.225891 -435.876404
76.395325 795.354980 -451.639313
-50.988403 686.549927 -654.442932
21.050014 729.437866 -616.845703
278.477509 895.239929 -454.981140
206.501190 827.411682 -726.200867
244.422119 903.560913 -717.372070
66.831757 747.296814 -707.063538
3.445281 746.134155 -511.099976
114.505089 792.290161 -491.823883
254.614868 872.308960 -548.755432
-70.922226 704.963013 -399.965118
167.921814 826.287781 -446.244934
-37.983761 711.353699 -731.191895
281.954285 894.979553 -421.664917
200.333115 831.308594 -608.179993
-126.088219 637.693420 -635.933899
82.555931 801.312805 -371.687042
148.359039 813.095886 -553.752991
93.755310 778.066956 -505.591888
60.014782 734.143372 -549.353271
-113.857841 656.027710 -550.407471
-43.003998 744.554626 -381.705566
111.670517 709.127991 -714.558960
247.861954 852.536926 -583.813477
84.354218 765.723877 -573.062805
235.981354 857.645325 -388.305389
256.084229 873.752136 -694.983887
206.025436 727.172668 -711.660156
73.279037 741.196838 -623.096008
175.958771 849.240295 -376.786713
-132.547028 631.863525 -683.252014
50.524788 743.370667 -625.134827
76.921112 777.842712 -476.821869
-9.641373 724.346619 -571.441162
-103.361000 657.501343 -657.317078
93.090271 795.694519 -485.518799
184.585083 840.188477 -417.044678
251.260178 890.108521 -377.395447
5.122238 741.283264 -440.598785
-46.226097 715.747253 -466.562744
-48.138351 720.188416 -482.482758
176.359894 800.072998 -701.460571
298.632874 889.175354 -555.359985
199.761032 853.659729 -379.183716
-46.509533 672.083923 -651.768860
191.373749 846.559082 -413.244019
-18.790636 735.355469 -399.165344
67.060692 766.656250 -563.455566
59.449150 746.886353 -606.009155
195.967438 828.521606 -587.396179
239.573456 859.363647 -479.666321
158.422272 814.169922 -553.748596
135.970444 806.820862 -494.172974
149.659637 804.222656 -583.314392
-24.635393 721.244690 -566.755310
-7.661351 715.880737 -501.762543
202.577576 832.377014 -513.481018
13.100100 737.962708 -497.705841
-0.353804 741.873901 -490.433685
238.214706 854.795776 -506.801453
177.027130 844.687744 -376.147491
139.016266 804.874512 -536.893799
81.356133 786.823853 -448.248657
104.434914 762.547913 -702.143250
84.632713 804.376160 -397.873657
279.174377 897.981262 -433.158508
49.372692 731.762939 -620.834106
4.022750 735.615356 -465.756104
-77.398003 698.269714 -521.106750
305.900421 897.247803 -422.143890
230.748169 834.100464 -461.954315
267.408691 863.633179 -611.884399
151.101700 813.893433 -509.707520
-98.854919 664.695313 -646.748108
228.199295 846.782898 -524.445740
210.558823 854.864014 -511.520447
6.521265 720.727173 -576.838867
281.712341 853.829285 -553.013000
72.704979 759.417480 -448.878021
30.420574 710.217407 -592.261047
282.171570 897.338196 -455.577820
221.222366 872.779968 -722.558899
60.780945 754.998718 -606.024475
169.783936 749.979248 -726.956970
288.957367 893.894653 -688.508728
-99.240646 691.275085 -410.121643
246.807190 858.804993 -589.697144
176.135635 819.696289 -570.043579
80.645172 767.214966 -528.759460
299.520966 874.909668 -559.383911
87.839874 787.910522 -448.382385
115.259613 799.475342 -510.966370
110.322868 810.867249 -447.404419
243.914795 875.312195 -465.692139
-60.989510 665.634033 -653.050476
-130.715469 662.554932 -598.614319
179.641983 838.073547 -408.655182
196.090576 838.981140 -450.930450
273.724365 873.182739 -549.856079
40.848869 742.922546 -722.956726
183.084961 794.138306 -696.885254
-1.401854 706.734009 -556.773560
48.133427 777.995728 -445.746674
297.397736 875.127197 -614.520813
-131.275986 652.840942 -603.250671
140.128448 670.016602 -719.747375
302.194275 880.523132 -515.136902
52.439289 760.890198 -473.238373
297.383636 910.236145 -445.722382
195.063095 784.964172 -711.608032
301.866089 872.177307 -614.580566
298.439606 868.453369 -506.079559
249.508179 890.218872 -373.540863
291.741272 895.872681 -459.979156
244.174988 841.505249 -615.067566
53.217800 744.030518 -486.459839
155.188339 829.271057 -476.050751
2.935271 754.494019 -452.312744
59.264767 763.682007 -503.889984
104.641632 766.676270 -671.966370
289.167633 890.167847 -465.054077
173.885468 850.734375 -416.298035
-56.789474 708.447083 -442.841797
-88.193390 659.320068 -555.529175
-59.757900 680.385010 -532.855042
-16.289680 702.767700 -497.557343
-21.672522 707.922485 -559.767334
134.407135 793.848328 -389.789764
81.211243 697.354492 -717.028015
243.105209 836.505798 -650.947937
-2.852792 706.628723 -648.013855
232.677597 848.237732 -451.735504
-67.727287 717.287598 -437.118469
44.020866 745.261108 -518.291626
175.808304 791.478882 -580.126099
191.855194 809.715820 -715.125427
138.542877 791.497803 -552.789307
-143.648239 667.887878 -523.158203
-92.481483 658.751831 -524.295654
176.739120 813.224304 -565.913879
6.326104 720.999451 -650.364014
145.859268 799.970093 -569.205444
172.932938 830.525146 -514.640686
127.772949 827.711731 -421.329926
207.276154 851.397034 -415.480011
171.456680 780.210266 -724.645203
164.752853 686.368652 -714.505310
-94.470207 667.859192 -609.914856
279.387085 873.860779 -700.170776
37.060642 744.356323 -466.775177
82.036911 759.037537 -544.316833
62.791489 750.439941 -403.392029
139.952515 838.874268 -395.203094
101.051964 771.235474 -690.486206
153.398819 714.335266 -716.622131
-43.385239 682.091064 -608.671570
25.904301 736.098267 -713.994812
-18.207874 730.488403 -445.012360
-43.556965 703.885498 -581.458252
133.773605 803.853394 -514.181641
170.569992 795.865112 -649.910095
297.759430 885.882507 -566.555603
-69.724396 724.067810 -425.704163
-89.364799 695.848999 -447.892670
163.731812 798.153381 -576.698669
-130.986145 649.655396 -692.077209
117.230522 780.141052 -588.463928
58.836319 741.597656 -594.072205
201.162689 852.243347 -481.881714
288.766937 897.202087 -695.610413
247.172638 872.438599 -486.212494
19.995581 754.010742 -494.541290
114.600044 764.926453 -629.366150
131.949539 819.553345 -428.685516
213.356766 867.042480 -368.222290
283.027344 876.456238 -676.861328
303.508850 906.874207 -455.973602
39.482094 740.232178 -544.939392
171.367340 755.010498 -725.693176
183.196365 855.853943 -417.859497
136.587570 828.545654 -440.644684
62.433681 772.425720 -460.916077
200.564163 855.228516 -415.043518
260.984222 879.300354 -440.352448
105.626419 655.392700 -719.368774
176.809845 796.714355 -555.396362
180.977325 812.071716 -694.799988
-99.425964 681.161804 -540.390198
11.909078 737.657959 -506.877930
55.896805 771.867920 -401.744171
-85.443230 663.300781 -590.555542
126.130379 697.068176 -730.991394
-121.077835 643.700745 -509.133698
-108.198837 667.274536 -570.913025
0.658559 741.809937 -495.922852
273.608734 857.718079 -682.378479
297.957794 873.109192 -661.005615
265.179810 897.066345 -379.751770
253.997284 882.920410 -424.784088
287.753174 872.519043 -517.216431
179.318008 840.997742 -436.279999
169.174973 844.508301 -422.053650
182.970840 817.826050 -644.730225
255.836975 876.594238 -393.151093
148.594086 835.848755 -426.831696
149.473785 830.223572 -414.388885
-22.891180 744.940063 -443.102173
192.890121 774.754211 -730.088196
-72.471527 689.694214 -504.610779
338.309875 905.918457 -661.763184
277.186859 838.062073 -619.616028
64.702751 792.093384 -438.031891
185.693161 825.857849 -704.777039
156.663223 838.782532 -377.442902
272.000610 833.856873 -608.792786
118.817940 815.903625 -386.489441
192.133911 833.395691 -703.318542
229.493546 870.717957 -367.467651
133.942322 743.632080 -724.650940
206.219940 867.837708 -418.785370
128.772644 783.592041 -599.758423
89.385048 775.152161 -507.246490
191.604904 819.023315 -630.832092
259.379333 880.047058 -483.304352
194.410736 788.232178 -719.312927
74.964523 756.690063 -626.723633
133.332199 813.099976 -436.641571
214.250748 835.770142 -625.192261
123.299683 781.090698 -560.539978
-60.696331 709.534058 -525.527283
-78.674492 661.393066 -620.452942
246.952072 860.280151 -542.250000
-0.180747 733.347778 -465.863953
35.765003 760.714294 -449.024200
13.160583 756.669373 -405.910309
253.015808 849.878174 -592.769226
171.281921 843.899719 -432.436401
78.226845 770.637817 -573.050354
20.502308 747.043579 -484.482361
140.982437 808.678528 -563.609375
77.305290 674.321350 -724.838867
-107.199760 655.437256 -579.242981
202.884247 840.676270 -543.348511
169.486542 827.544189 -392.010193
47.329849 748.429688 -594.354126
311.404114 881.861816 -520.774841
228.871445 859.912048 -534.002380
48.067467 729.779297 -601.328735
-34.809258 695.784851 -596.581787
89.473808 719.612061 -726.246765
73.995384 742.372070 -716.387695
278.185760 868.462097 -581.176392
295.373322 875.635315 -595.017517
113.245064 785.235107 -531.798462
175.922379 804.304932 -466.417816
-59.932503 702.574890 -504.069641
268.008179 881.626038 -475.455048
-42.732201 695.928040 -551.555725
112.924759 727.527649 -713.405212
104.834633 761.317627 -629.210266
-78.801430 678.890869 -524.184570
146.738281 796.151917 -691.971741
71.776413 764.877808 -531.321289
41.692551 768.206055 -425.237579
11.344028 751.577515 -397.173523
92.699142 784.511658 -452.643646
-142.492294 686.838379 -391.666107
-10.846681 697.501160 -575.822937
62.417519 751.530334 -550.306763
304.515411 891.620544 -553.920288
2.821607 719.601379 -498.822571
50.085880 785.598999 -430.085114
-4.177744 733.696045 -528.824951
126.745506 813.026733 -438.558716
242.850342 866.235413 -518.581055
260.227722 875.694885 -422.387360
0.987429 708.774902 -678.946411
-110.532669 656.903564 -561.749756
177.279099 816.192993 -459.207611
-28.328941 692.634827 -511.792847
103.426994 766.355103 -653.398010
181.094986 805.980591 -608.090576
-27.284060 688.931763 -617.629700
242.625534 869.156799 -491.644684
-82.625404 698.258118 -424.205933
159.173294 805.557068 -525.893921
-20.451283 754.981812 -412.823975
98.592827 815.552246 -382.075409
-85.202271 688.925720 -516.547729
-49.365879 731.319641 -382.987305
10.091350 727.437256 -529.734985
229.778427 826.138245 -591.556274
180.294479 836.388245 -491.474487
154.055450 794.497314 -678.685242
179.407806 816.052124 -605.732666
280.557861 883.952087 -701.762817
283.655640 880.287720 -574.723877
-84.626106 682.227417 -587.452576
225.668274 843.414612 -573.028381
208.093521 852.795288 -368.429108
31.608652 728.317993 -720.447327
162.359497 800.112671 -627.180847
77.111847 761.743286 -535.143188
224.462875 856.787720 -514.655640
39.031067 725.322388 -587.090454
83.381638 752.748352 -672.781860
166.765396 783.248230 -707.573914
48.036728 724.724243 -636.541748
-112.199280 659.683105 -634.780884
47.326317 748.607178 -527.568298
234.743729 868.893982 -469.009521
76.249733 750.705688 -617.116638
64.204247 784.546326 -389.078491
196.713882 849.928894 -703.058411
-154.078522 671.836060 -401.632751
238.267197 856.892944 -554.056519
288.546112 901.466248 -444.616699
137.624619 811.238525 -430.030853
46.406052 724.134094 -647.195923
46.345760 764.847351 -457.248016
131.572052 814.567444 -403.202728
148.407654 825.701904 -393.454803
121.394051 792.724915 -487.964905
-45.746597 658.777588 -638.439575
-0.660220 724.894165 -511.644653
152.159027 836.805786 -372.182404
-49.314789 701.598083 -577.020264
283.670837 862.678833 -540.624268
296.085510 891.785034 -454.497070
126.929993 743.660156 -721.412659
122.339218 786.096863 -599.062378
-33.152031 700.123047 -550.203186
253.277023 848.874329 -585.257568
100.693932 680.658325 -731.304138
256.061371 880.215271 -393.455170
11.874220 722.085999 -625.527588
286.818176 901.664795 -440.174927
174.363068 834.984802 -435.817596
89.121315 750.222900 -639.480530
-24.703339 718.184204 -552.306091
288.435577 894.883911 -370.143585
-48.518581 697.214172 -470.055481
211.593613 873.719971 -722.054749
60.189011 773.339722 -455.403748
-25.694088 729.916321 -425.554260
179.163757 827.183838 -459.713898
68.931366 760.651611 -598.427063
285.989990 866.443237 -600.970947
-74.056694 656.212219 -655.600769
189.468948 844.623596 -489.530090
-111.731140 636.017273 -675.702515
3.155323 738.133728 -471.014099
192.023468 868.378601 -372.849335
175.398972 830.840881 -540.449097
235.210373 866.647949 -485.214691
-93.671265 687.776123 -538.724854
-95.597046 676.485352 -423.900391
268.846222 862.141602 -588.201233
22.025295 740.232117 -525.912964
22.217434 724.592224 -650.175903
-105.019814 677.879211 -442.766785
254.882355 850.950012 -678.567078
199.944351 825.986938 -577.836853
212.416275 862.958984 -447.556671
112.977478 805.841614 -498.720428
-85.268517 706.703064 -393.301483
226.852402 865.140930 -503.710632
64.043625 731.764832 -713.019836
-51.716919 700.742371 -498.417145
293.837738 893.348633 -504.864258
284.686646 886.322754 -512.690430
53.611229 770.132141 -511.573486
272.914917 871.700500 -670.081238
-85.330170 719.849426 -419.174652
29.318558 736.796021 -534.079041
184.311066 839.081360 -391.031342
143.452942 829.591187 -449.687134
-97.111595 663.703918 -644.819824
225.632217 849.790466 -504.704895
194.518738 814.000183 -613.540405
250.201675 841.671387 -616.559265
224.581146 866.596985 -466.274628
176.657120 819.818665 -530.189819
-43.981861 721.633606 -406.681458
54.504471 779.108521 -466.043304
-112.588051 684.522278 -400.182098
18.594431 759.169006 -396.528015
224.294800 809.762451 -707.683777
121.046333 794.665710 -515.695435
255.643616 858.577820 -552.488708
188.070038 808.367737 -633.665039
82.138435 791.991272 -476.778198
20.835188 736.199036 -544.774170
78.033562 756.894653 -615.107117
255.552399 858.719299 -488.402588
31.830517 728.773193 -673.294739
-60.999107 670.050720 -521.005371
41.490822 784.020813 -382.328766
198.301422 855.745239 -392.920502
-33.665997 693.211182 -676.284912
57.105572 753.212402 -606.295593
262.724091 871.151428 -462.552216
200.916656 861.346313 -418.964020
168.803741 728.666321 -726.967957
110.102188 812.670959 -448.522858
160.244370 789.876465 -675.442566
-119.216934 692.783630 -444.090820
76.031670 757.010254 -565.258118
170.452209 809.587341 -536.988159
-142.797348 667.705139 -502.963959
-22.941702 729.983337 -408.157593
278.807587 867.411560 -584.016357
85.666489 775.299622 -579.527649
-92.439178 669.247314 -635.164368
21.228142 746.327393 -489.694275
-22.059191 697.044739 -594.529968
236.485962 834.473694 -660.827820
131.346664 806.325562 -483.058197
-53.669800 717.734985 -409.881012
100.723862 793.635132 -383.179626
-68.898979 724.272278 -385.762543
251.884430 885.089233 -411.041168
136.368851 796.949341 -689.095642
152.843948 805.707703 -381.318420
-16.543846 736.216431 -412.542175
78.315735 689.352539 -736.495300
-133.432724 654.221680 -474.354309
173.927475 802.218140 -705.032776
-33.793564 691.026978 -665.543213
233.608139 866.617004 -480.686615
61.779358 779.152710 -389.200531
-99.143784 684.453735 -507.004303
113.736801 817.639832 -419.163635
-48.593529 726.464233 -409.060394
24.689274 716.634460 -644.957458
255.221924 842.661438 -573.626465
-142.118774 676.130920 -451.259369
17.812326 737.327576 -598.297546
-26.618885 731.636841 -499.534332
-92.846779 647.954102 -582.632324
-80.001831 684.166626 -586.944824
216.372360 852.042786 -510.961121
252.065033 871.299133 -513.849731
184.945450 856.005554 -373.317169
318.441742 898.096558 -593.294312
170.429260 753.967712 -724.270630
275.575043 902.067322 -707.078613
265.034393 885.671814 -448.157806
288.998138 901.382019 -397.026733
64.836983 776.414551 -453.285828
184.204407 839.844543 -411.754181
-73.877487 694.053833 -504.794067
225.712250 874.128357 -395.696106
183.240723 818.901428 -703.762268
23.133339 744.213013 -507.461639
-87.333580 647.803223 -677.847351
220.136719 858.650330 -412.100403
84.895401 760.096375 -578.512146
-96.226555 705.631653 -426.891571
58.287693 781.975891 -455.733337
59.812458 775.157349 -483.031891
201.714630 844.726624 -410.568298
83.264954 798.831177 -383.478577
297.737122 882.455200 -667.020813
33.577076 744.700806 -523.645508
172.187302 801.673706 -655.500854
5.264620 744.904541 -413.517578
24.243006 752.666748 -426.727509
232.680023 817.035767 -624.722656
153.512131 820.696106 -442.742065
282.940857 909.377991 -395.619690
280.011414 872.813538 -588.175232
232.460938 849.647644 -554.507080
148.477173 800.610229 -558.023315
68.611542 765.512207 -532.445862
-11.514174 732.377319 -441.160309
108.830154 671.274414 -722.346191
48.373489 735.746643 -578.388916
174.405655 806.611389 -719.035278
84.627571 764.475891 -554.260010
178.454773 839.951355 -444.765625
40.331421 766.202942 -399.651428
-31.691244 717.225098 -450.897858
192.909958 840.141541 -486.387604
6.304597 768.131836 -412.908966
240.714813 881.202637 -440.859863
252.503601 890.855469 -716.564148
213.430908 848.810364 -529.854492
188.473160 825.876587 -551.769043
-90.874779 682.080627 -470.129120
-9.674653 716.506104 -561.410034
119.039909 779.216125 -580.618713
48.117554 742.323181 -537.763672
-12.314312 712.719788 -503.413666
118.952248 750.115295 -697.611938
-112.648071 661.570251 -509.082550
229.757324 873.746399 -432.376617
-87.752724 671.832703 -483.482178
52.054440 793.320068 -381.220123
-129.415009 652.298523 -609.024719
36.728901 764.266235 -488.467560
-7.382109 705.365356 -610.830933
266.216125 857.548584 -602.229858
294.270325 865.368835 -613.576599
241.983231 844.533936 -596.212219
-67.172714 695.820313 -549.342102
191.554993 720.371338 -711.862793
259.925751 847.268799 -627.755554
26.986862 760.673767 -389.040558
238.897202 862.626404 -463.344971
36.598404 778.512695 -427.090881
-80.713043 714.928833 -437.527039
259.234131 861.583984 -541.538635
49.486786 772.914246 -430.324921
92.738609 792.075623 -417.076477
62.335678 770.978760 -532.361328
27.036131 776.598816 -393.304413
-40.299580 722.710693 -434.953949
38.600132 720.623291 -638.698059
157.481781 798.254700 -646.069946
60.583027 731.946106 -642.615112
-49.484497 722.370361 -443.547913
229.440094 862.830688 -463.869629
-65.092949 667.130249 -635.118103
60.998089 752.478333 -539.043274
82.544006 761.722839 -708.765625
271.749084 899.920288 -369.032135
187.529800 752.702820 -715.718506
201.621017 847.410522 -424.211609
102.594536 763.498779 -662.643005
-93.406624 671.147217 -534.382690
73.625687 778.667786 -440.228699
243.231293 869.510376 -357.466461
-88.930984 698.488098 -490.312378
95.449615 780.817505 -563.643311
207.943100 851.207886 -494.909210
85.227737 769.684937 -494.417206
166.475800 810.294006 -543.985535
-3.490021 733.554932 -720.743530
152.452499 793.242554 -701.265686
73.580421 800.659058 -390.575867
137.313416 824.201050 -404.658966
300.887451 892.874939 -676.790344
7.473889 692.958191 -657.426636
142.349442 801.364197 -607.099487
259.114655 885.004211 -377.602875
176.607758 840.282410 -434.649872
-46.761581 730.901184 -386.052368
260.012543 896.755981 -384.495331
234.217667 864.685364 -503.230469
264.129791 858.695129 -633.534973
-105.193909 682.473145 -455.213745
148.557587 798.934387 -545.330566
210.012497 838.045471 -528.385315
127.995689 814.931396 -479.034454
284.027222 853.638489 -686.278931
121.624130 729.511230 -726.344055
107.944054 785.785339 -511.653381
130.053223 776.207703 -654.282532
-90.957840 641.088684 -618.450256
236.063980 869.225403 -377.521179
100.758858 685.989502 -719.093323
85.427322 787.318726 -444.440002
155.657440 834.645508 -400.955261
240.780151 846.148621 -595.851624
209.932159 825.369751 -676.794434
-68.375465 703.223816 -516.895691
-7.763525 697.200195 -628.402771
-126.005096 677.713379 -497.716492
-44.198673 699.887329 -720.789734
-90.502937 686.707825 -540.762085
277.578491 879.206238 -478.012115
111.045586 793.282959 -457.240387
221.146957 869.524292 -434.182251
124.276741 781.632813 -489.838776
208.143082 833.233032 -559.928223
-89.589256 700.424072 -471.099731
117.605217 721.820496 -722.342224
4.199598 725.985229 -546.951904
246.830505 870.986267 -399.455200
261.792511 875.929016 -520.852173
261.746765 872.995850 -538.359070
-11.279431 725.908813 -486.599701
0.081743 729.693359 -500.629425
198.723709 868.391235 -722.983154
301.884338 894.008423 -521.236267
262.833832 847.921387 -656.820007
138.702301 826.243469 -387.950470
188.215561 829.144409 -582.827942
69.137878 748.297180 -587.581116
90.497009 799.140320 -474.054413
199.471634 812.869019 -586.856445
112.485092 809.857727 -394.129517
-101.565392 640.378784 -652.573425
172.117416 831.734314 -396.601227
32.241467 764.526672 -383.299774
-114.417130 684.499451 -417.986633
256.457855 879.176270 -500.290283
-88.333206 677.098877 -594.781372
261.887024 880.778259 -471.027771
78.056595 766.517883 -679.132751
118.298248 804.959351 -429.575165
152.544571 700.798035 -727.923706
230.653091 844.547974 -571.990662
16.799461 730.580078 -548.203247
133.419754 807.822693 -491.745453
100.540222 667.596741 -718.491943
160.894135 820.246216 -707.303833
-59.424519 697.976685 -712.779236
52.150944 709.322693 -729.788025
213.610916 750.406494 -719.532166
-68.429291 703.402954 -538.328674
197.806519 793.877808 -716.747070
157.845840 802.423767 -570.345947
36.470364 762.140747 -435.982849
74.227760 768.999390 -400.140961
169.164703 823.852905 -500.646606
85.580246 783.720764 -452.492432
79.299026 772.793945 -408.438965
-124.466309 683.814087 -478.525299
87.402626 783.755371 -523.693726
263.149475 883.947266 -470.734009
68.672585 775.464233 -523.180176
-122.481400 637.447998 -645.577637
18.202467 710.522034 -600.405151
26.584324 735.668396 -551.741821
109.001686 782.054321 -507.838257
259.043732 884.780640 -404.069183
147.897400 810.613892 -475.918732
-121.404594 661.393738 -511.328339
114.081863 776.292908 -560.675415
1.553549 739.546326 -456.649963
133.707626 821.114563 -387.387299
49.630283 701.074463 -726.207397
26.480453 715.979919 -715.777893
224.946777 862.137695 -389.143433
199.480087 800.218140 -631.905029
-135.545410 659.943176 -558.606018
97.098091 749.263245 -655.896851
72.980110 729.625732 -625.204468
121.962273 816.000244 -411.033356
146.525055 734.133362 -724.534851
-108.071091 688.673706 -729.618225
-73.170868 673.588135 -569.319519
112.569641 665.190979 -718.158264
214.549835 844.871826 -552.744507
311.549286 880.364685 -617.203918
171.774384 724.882751 -716.345154
51.038914 747.693787 -720.307312
140.498169 772.389893 -579.559570
208.597641 837.424988 -687.751648
112.017181 781.029663 -702.716125
276.085236 862.388733 -419.318787
104.557358 775.687195 -695.313721
-125.779602 678.198608 -509.488281
227.902328 868.229431 -403.477875
151.557755 802.129028 -573.613220
210.831619 817.479736 -725.487305
219.485931 818.330750 -533.073914
62.115772 795.232178 -390.972931
87.495613 666.844666 -721.722412
-96.773659 652.096191 -655.567078
59.000072 730.977783 -628.703308
262.641418 865.792297 -568.687805
-50.969318 717.973816 -467.549072
163.789825 791.475098 -654.953003
119.362175 811.507446 -473.748779
63.366188 780.866821 -395.859741
89.865402 792.656921 -491.498749
44.176392 764.077454 -440.770599
184.272858 746.989319 -718.564880
86.951851 783.329163 -457.427673
212.028778 867.727783 -716.534607
-136.816910 653.670227 -506.304474
61.055092 741.711304 -517.140747
261.546265 862.728699 -612.526367
245.398926 864.802246 -565.896118
