ply
format ascii 1.0
element vertex 1368
property float x
property float y
property float z
end_header
-468.117218 651.823303 -267.727142
-343.295685 868.218201 -387.253723
-380.600372 816.244995 -344.840607
-482.278076 693.486267 -418.570343
-253.337646 942.018921 -286.315857
-305.863312 931.707642 -425.917664
-321.636810 846.447754 -301.116241
-311.884613 868.833496 -337.484070
-461.381836 727.710205 -535.177002
-577.264587 601.542297 -360.674591
-459.255219 674.468323 -186.630630
-457.875946 766.401733 -509.318665
-384.762573 807.794067 -389.983490
-468.331696 723.458191 -378.669098
-361.095367 946.052734 -516.768188
-276.934326 877.168823 -201.965652
-283.071960 856.000854 -246.682404
-419.914459 825.630127 -519.514954
-382.537323 823.846741 -550.017761
-299.590454 906.724060 -348.103790
-495.633606 616.826477 -242.470734
-358.377563 799.710510 -546.474060
-268.982819 962.622437 -417.287262
-474.327820 749.011353 -512.486816
-355.451447 854.560059 -424.637787
-267.069214 938.228638 -328.441559
-355.744690 843.798401 -394.711334
-509.750397 587.985535 -215.956650
-207.566147 943.850891 -224.392426
-301.667328 892.323120 -424.490692
-405.256927 664.710144 -167.347900
-485.455322 685.763000 -404.296448
-491.984314 650.878540 -260.765472
-471.966309 699.495850 -327.061157
-386.589325 798.430603 -326.148315
-492.135193 642.557556 -252.262207
-370.886688 791.183777 -225.901978
-513.257874 619.471252 -280.569855
-469.752106 778.833862 -493.090210
-405.835266 705.525452 -543.801086
-739.628479 600.240540 -785.726135
-264.856079 984.230652 -471.219879
-478.429382 702.723633 -517.606934
-378.067932 830.185181 -395.855072
-288.895782 894.123779 -266.186707
-226.983124 946.016785 -241.385025
-253.954346 969.768677 -402.018921
-284.822388 908.890564 -416.733368
-439.785492 701.675781 -281.995361
-444.537537 727.118774 -301.130829
-369.506500 786.908875 -263.629944
-424.143127 787.721802 -470.274811
-275.275848 876.376038 -310.818787
-276.470642 947.062012 -385.543762
-217.509796 954.053223 -209.272491
-341.668457 829.738586 -382.963715
-323.786102 897.540649 -444.186768
-223.609924 965.755188 -252.289932
-252.018448 931.067566 -263.607513
-306.038086 869.609863 -263.464233
-295.586823 946.776794 -489.850586
-576.837280 601.125183 -420.242828
-357.650116 785.632935 -296.998047
-349.066162 931.005920 -539.690002
-432.331818 713.348694 -360.496857
-382.790161 828.660645 -444.105621
-469.339294 697.186707 -364.942047
-327.985992 995.216309 -528.727051
-440.157867 714.057312 -256.640442
-467.537872 737.413879 -484.752716
-409.199646 713.918518 -216.903595
-433.715942 734.292175 -296.184875
-436.563416 724.273438 -314.246460
-364.135315 826.216553 -542.470215
-550.948364 621.400330 -362.232269
-523.495667 646.821289 -360.668884
-456.337402 685.380981 -224.351715
-556.354065 589.739380 -361.325195
-291.591736 841.176880 -210.901794
-433.931671 710.609619 -306.635406
-349.288605 828.907837 -267.660431
-362.191681 770.587646 -204.931900
-488.602203 675.420959 -387.886108
-429.806702 704.644470 -281.278137
-507.238403 638.900085 -302.307526
-287.450684 937.868652 -406.867401
-448.391785 712.036743 -410.691498
-524.708069 596.246826 -274.266205
-285.710907 928.867554 -379.301880
-355.673401 897.798279 -488.301605
-441.932281 679.292847 -218.262436
-491.347290 647.304504 -235.465347
-451.006348 745.652039 -459.030518
-452.871887 678.826660 -303.357574
-456.122498 711.866577 -354.631500
-302.302338 853.444275 -192.573837
-378.443787 782.689209 -556.947937
-443.118958 725.039063 -341.294189
-339.249237 879.648376 -443.107605
-363.449036 836.893677 -535.543457
-367.249725 987.572998 -535.718384
-312.824677 880.057007 -361.073395
-274.719757 896.140747 -206.237778
-514.707825 614.305420 -293.139465
-536.991638 629.311768 -336.241638
-235.187531 939.520874 -211.463867
-244.864685 950.430664 -296.162018
-458.503418 724.796387 -340.275299
-412.546204 815.949524 -447.449860
-436.316101 779.987915 -513.703918
-509.549866 665.328186 -364.862885
-511.265076 596.799438 -246.813995
-373.891479 817.458679 -364.452454
-366.291199 831.419739 -385.515533
-430.932037 747.580200 -317.834351
-398.613922 759.565308 -554.210876
-262.182953 959.134888 -402.219421
-536.538391 728.339966 -491.483429
-241.826691 967.481140 -333.462921
-401.634491 831.974182 -540.195435
-293.754913 948.307617 -486.660889
-497.900146 723.123352 -528.156189
-294.422577 913.804810 -394.586578
-316.394196 892.657471 -356.200104
-445.489319 689.627380 -260.600616
-422.415100 782.780151 -422.975342
-542.466736 599.332397 -256.902283
-255.948151 962.296021 -385.351379
-316.737366 888.282776 -350.356049
-451.231964 705.479980 -253.252594
-506.941803 642.685303 -303.788147
-335.920654 866.870789 -389.000793
-220.278214 934.586975 -236.697952
-503.123444 629.137085 -222.611237
-400.540161 782.715088 -318.757935
-371.566071 767.577332 -233.276978
-484.354797 737.695435 -501.987854
-445.312866 789.093994 -483.609131
-540.194397 626.283020 -328.495880
-283.719727 951.611694 -441.572876
-395.684418 748.612305 -269.400940
-389.633179 794.060913 -313.713684
-429.228455 690.847717 -187.582550
-464.280548 741.801270 -448.162964
-226.708969 948.256409 -209.841614
-374.466766 763.626160 -224.264587
-550.806335 632.012146 -416.358185
-475.866058 755.116821 -510.249756
-388.662415 785.369080 -340.898102
-316.063995 866.095276 -258.766205
-460.541840 800.508301 -501.301605
-252.123962 921.706604 -230.331451
-390.358917 890.566528 -514.576782
-606.462830 606.260315 -436.370331
-279.387451 886.431274 -260.414307
-216.851151 983.325317 -260.033325
-481.662231 725.108887 -431.653778
-496.467865 702.620728 -413.311127
-275.891937 987.827820 -461.144104
-374.254608 745.992371 -549.074280
-350.350677 943.546387 -535.814758
-478.777405 659.950256 -230.931015
-288.015076 869.883606 -313.180634
-448.024811 758.450439 -509.970886
-356.979919 813.591553 -288.591339
-411.193420 789.736877 -541.319031
-276.611328 926.488953 -358.496796
-288.948853 859.064941 -219.902069
-539.556091 588.859802 -269.415894
-370.587921 800.740234 -542.453186
-401.640137 802.507935 -459.650421
-292.439056 858.999573 -242.481522
-315.652496 993.191711 -520.117310
-362.024292 733.123352 -214.694382
-288.854980 958.937195 -480.070770
-515.690613 600.738220 -316.184875
-270.609741 922.752441 -299.964539
-499.663055 684.326782 -398.087921
-497.780426 604.382446 -182.090622
-521.914368 618.557068 -255.090683
-481.977234 687.920349 -399.092163
-351.759216 854.572876 -351.664795
-500.929901 736.126404 -493.324066
-416.338409 770.264648 -540.968872
-248.320984 956.391052 -378.683044
-395.950165 772.295898 -329.023254
-387.019653 756.551697 -196.115692
-335.579926 837.240845 -285.866760
-349.847595 822.370728 -252.683792
-431.401764 755.788269 -401.311768
-228.216751 933.442932 -222.445480
-425.909515 778.917786 -400.556915
-546.567078 604.539551 -306.473328
-435.482452 724.212219 -336.416046
-249.661316 956.442322 -314.646759
-422.937103 737.736938 -274.782532
-337.967957 815.466125 -228.382858
-567.063721 614.813904 -417.076813
-412.260376 771.083801 -368.408264
-473.802429 734.687744 -523.635498
-250.082977 958.499939 -393.357300
-492.557220 663.527039 -272.729889
-353.533173 835.227417 -341.387421
-369.621399 881.223999 -544.236084
-297.208954 890.247559 -278.469818
-279.798370 879.885132 -261.434906
-321.537811 853.315063 -268.974670
-472.621582 694.545227 -384.834869
-369.872375 846.241150 -420.970398
-430.860748 817.153381 -497.969238
-320.391388 809.698792 -198.058258
-231.292694 956.661560 -290.815338
-388.494232 783.389404 -359.053864
-482.389282 715.787231 -500.001648
-333.765991 829.344910 -272.008698
-410.586639 747.887878 -252.215836
-235.635422 962.082458 -284.448700
-516.551025 592.830139 -252.243332
-356.855621 818.354980 -269.148132
-273.618958 914.684631 -270.904938
-262.040039 914.299377 -351.771790
-306.665009 838.057434 -209.675583
-461.285492 768.170593 -462.338135
-317.250275 903.219727 -385.609558
-312.044189 878.730957 -344.508850
-491.982788 646.055176 -220.509430
-508.056091 639.372192 -346.375366
-314.061981 839.528503 -239.529282
-255.360886 961.737061 -452.943726
-297.253784 861.005066 -338.846130
-404.728851 760.706238 -555.533264
-290.846283 925.752014 -414.688019
-357.826050 844.157593 -385.568878
-372.665131 814.580505 -372.618103
-316.344299 831.152893 -294.742615
-424.376099 793.707336 -529.655762
-332.530945 925.090332 -474.132416
-382.214417 810.520874 -556.328979
-502.081390 654.736877 -297.892090
-405.496948 760.364014 -336.146484
-290.939392 930.878418 -362.869385
-428.469055 783.285645 -471.620667
-271.799194 886.794556 -210.096817
-363.863678 794.646790 -259.005524
-431.557983 757.910706 -364.578857
-410.575348 774.471191 -542.864502
-277.127472 899.013855 -241.936310
-551.922058 632.310425 -407.286102
-354.028137 875.787476 -441.660034
-270.920746 918.020203 -392.638947
-374.926636 795.829773 -314.665985
-426.784515 745.694702 -350.942535
-299.575867 910.508240 -402.587952
-393.894135 823.448425 -443.835236
-380.456818 847.815125 -512.542725
-441.225647 699.010803 -275.841400
-440.251068 699.731995 -267.283844
-329.796356 834.471008 -356.989502
-280.268341 934.970032 -407.602173
-502.017914 666.774658 -404.876709
-491.666565 611.175476 -173.424896
-448.429352 708.267639 -335.354645
-398.786224 743.715576 -542.123230
-392.754089 753.763611 -210.305374
-459.580414 712.211670 -320.302612
-428.725830 779.134888 -517.706787
-280.049622 876.182068 -233.470734
-437.116089 683.362122 -252.114975
-516.534851 755.424133 -505.280792
-461.157684 753.492737 -525.150818
-369.332733 788.024292 -223.877335
-440.206940 802.087341 -492.870239
-328.551941 815.225525 -199.476364
-484.437653 657.109009 -306.331970
-537.583313 608.857605 -362.052795
-456.672485 690.949341 -310.692017
-472.522949 698.025452 -368.641357
-235.995468 954.071960 -284.792328
-368.374603 779.156250 -545.443298
-383.105347 745.066406 -187.307800
-531.927734 602.519714 -227.820526
-383.758423 878.718323 -533.075317
-364.063477 763.430115 -261.007172
-481.655365 708.361145 -406.338531
-401.767273 738.709045 -318.059723
-274.273865 913.499207 -256.553864
-482.989532 645.630676 -266.277924
-386.926178 831.618774 -443.981537
-393.608368 771.406067 -327.799255
-359.373291 816.031738 -316.116028
-273.300659 936.093933 -375.900848
-281.817780 871.617126 -319.700165
-390.925171 763.376099 -540.346619
-403.043488 721.616333 -211.857407
-476.774048 692.787720 -373.872772
-263.418152 960.818787 -358.781158
-338.948120 839.263062 -307.095581
-311.636902 836.275146 -208.371094
-385.962524 787.137512 -291.615967
-240.170731 941.588623 -311.026733
-446.755829 792.859375 -503.203278
-255.607101 918.090759 -267.344299
-415.002625 724.934387 -201.606750
-280.248230 938.455383 -381.683624
-429.177246 720.204773 -286.224152
-241.538620 944.233154 -302.821594
-394.915833 755.166687 -216.967209
-478.267792 684.033447 -428.586212
-350.651703 841.242920 -340.901489
-253.158081 966.549316 -465.727997
-364.814148 787.522705 -549.992554
-423.215210 727.706970 -232.483887
-429.131866 678.468018 -191.048599
-403.332184 775.913208 -546.366272
-318.297485 892.351196 -388.134430
-380.452179 766.041565 -244.601929
-350.889160 819.760315 -292.451355
-604.791870 648.589783 -469.701660
-381.978912 887.320007 -531.930847
-271.296234 967.313782 -429.787933
-558.627686 595.682617 -439.972870
-581.574402 658.885437 -469.294189
-322.061829 838.925537 -261.842010
-547.836365 598.092407 -400.769562
-438.539093 756.411743 -388.804108
-268.593475 884.068420 -242.190903
-421.668365 753.919373 -378.276947
-397.790955 803.194641 -426.660095
-331.781616 841.251282 -237.727036
-498.491180 632.428650 -277.007660
-554.547913 703.545410 -490.120667
-301.749054 858.225098 -260.819183
-305.995270 903.965881 -417.023560
-528.078674 631.042603 -383.589630
-461.014679 679.037781 -285.247772
-210.061813 949.021973 -231.598984
-418.949005 790.410095 -521.236877
-355.912140 810.832092 -262.399353
-379.722565 834.833679 -392.170166
-260.383026 932.764099 -347.746216
-351.415955 832.173340 -346.300171
-433.225006 760.567322 -382.543762
-377.267822 771.416931 -252.446365
-330.210968 854.452148 -285.567780
-392.973419 822.871399 -401.946350
-500.905548 696.635071 -444.751617
-467.209076 755.368774 -507.962372
-270.815399 921.338074 -289.927856
-252.730820 906.911377 -214.817825
-223.154953 952.113098 -334.079681
-521.177307 605.353821 -296.480438
-301.028015 871.537537 -265.536591
-294.534546 888.859680 -313.669708
-349.776947 798.601929 -244.458557
-357.093536 858.589539 -553.650574
-530.901794 603.459595 -244.997070
-303.419281 878.803650 -304.701080
-379.560181 751.244812 -222.240051
-351.889984 871.371643 -426.526886
-373.383850 775.941101 -253.448975
-364.601807 855.438354 -555.223145
-334.994019 895.909058 -464.633759
-413.071747 759.217346 -328.708405
-336.539154 847.807068 -335.227539
-355.242645 824.588135 -271.740814
-430.448700 759.288696 -532.961304
-454.847961 760.541748 -458.645874
-425.799072 783.831299 -518.182190
-342.586884 943.185303 -524.454407
-281.794250 944.090576 -369.859192
-232.223969 971.043579 -336.373383
-344.135468 829.224182 -288.018402
-607.097778 629.446472 -466.911102
-442.402863 688.937805 -245.086304
-288.862976 866.643372 -211.584625
-478.634644 737.076660 -449.311829
-243.881699 894.302551 -212.043701
-405.373901 847.573853 -493.299042
-430.202911 788.199463 -488.397491
-401.275330 755.731567 -291.038513
-546.827576 615.713928 -418.070251
-466.281158 730.519165 -417.044586
-484.647034 757.412903 -499.547516
-497.937805 673.630798 -346.502960
-473.805542 718.680664 -536.030212
-253.802765 932.291504 -365.538666
-399.024567 784.309570 -314.365692
-254.215988 973.417786 -378.919342
-459.021729 774.246704 -477.134583
-299.200287 857.361267 -257.159973
-485.591766 686.831238 -339.595764
-401.600861 829.152527 -467.083557
-345.352997 837.599121 -282.950653
-394.016876 776.055664 -316.628174
-458.387970 714.303894 -392.119202
-364.400421 814.684387 -282.635834
-303.321533 882.279053 -274.003998
-372.957336 808.866333 -298.788666
-211.450348 952.140503 -224.993149
-222.230148 952.436157 -256.183167
-215.970673 938.312622 -218.809845
-266.800720 928.942627 -278.037811
-333.552887 831.564392 -250.546173
-382.929382 755.049255 -213.446198
-276.319824 947.844421 -398.392944
-446.057404 735.106445 -520.306396
-375.430206 767.741211 -238.425858
-480.169586 648.504639 -272.192291
-394.677979 802.955444 -531.875244
-486.824738 683.146667 -406.494751
-413.802795 729.494385 -248.054321
-284.367310 934.905579 -440.988922
-395.504395 855.734619 -511.691376
-267.063507 903.362000 -338.262878
-257.011993 954.490417 -345.481781
-480.452332 760.808655 -507.567261
-472.066895 762.187744 -487.590546
-294.090240 894.387756 -287.014984
-463.483673 642.048035 -175.674881
-415.517242 792.385437 -456.947235
-388.548065 863.166992 -478.739288
-436.220032 735.172241 -400.808044
-313.539032 862.021973 -377.944153
-262.332184 958.708679 -348.596466
-273.957764 959.443909 -417.792358
-482.108185 665.338867 -321.024536
-383.341797 817.185364 -547.245605
-227.233856 987.188232 -334.897949
-317.426453 850.564392 -289.415558
-379.875275 856.890198 -546.215637
-407.551453 822.400818 -467.560333
-290.605347 986.882629 -496.897034
-379.175903 857.937134 -532.717407
-238.179764 969.660461 -347.565277
-314.694763 885.686707 -379.233490
-449.248352 721.995483 -409.296753
-485.598663 675.372375 -365.615417
-437.262146 754.591858 -533.618530
-533.961975 590.726013 -286.809387
-586.052124 673.499390 -476.034088
-294.525024 869.698364 -261.326233
-543.832092 620.140869 -391.114044
-524.014648 601.505066 -266.713593
-264.691223 925.087463 -258.817871
-262.383057 948.414185 -396.436676
-477.655151 677.130188 -335.720337
-493.132416 657.056519 -398.326141
-252.918167 971.293884 -385.496582
-483.355438 670.999084 -323.925934
-448.446228 747.276733 -391.862183
-488.856140 634.481628 -184.109756
-349.826385 846.410522 -337.470673
-483.279999 614.170349 -175.410507
-356.857178 811.793579 -267.340454
-405.904541 728.100891 -223.535645
-434.328644 706.894043 -302.894653
-231.961426 910.286438 -219.141602
-451.333984 796.396729 -489.855316
-427.666748 756.268616 -404.890625
-223.212097 975.679749 -277.701477
-375.297241 900.164795 -523.848083
-311.123352 861.184387 -240.569534
-391.628448 819.280518 -492.839783
-257.749207 940.977600 -342.136139
-361.894196 837.213989 -405.613342
-434.932098 772.499634 -500.522369
-300.865143 903.986938 -354.316833
-421.787018 738.534241 -312.500275
-437.542664 744.566284 -334.100098
-287.103943 915.927063 -307.466583
-405.155396 773.839783 -313.756378
-260.467834 970.879028 -424.666412
-415.506042 810.382141 -527.812622
-480.571167 690.360413 -396.761383
-473.093872 635.761902 -216.692795
-386.055054 909.444824 -540.323242
-228.019882 945.722473 -279.659851
-455.512878 687.012024 -294.315094
-313.493011 886.198181 -401.998230
-522.448242 621.884521 -341.971954
-377.490112 921.048340 -541.042969
-335.165802 902.603699 -467.051636
-319.060577 849.136169 -228.686783
-478.145203 615.391907 -178.370010
-274.870728 916.833557 -280.202057
-280.273926 898.572021 -269.742737
-297.762115 826.742737 -241.221558
-448.085175 734.454346 -424.299988
-273.628693 887.497253 -213.956650
-339.120758 818.486450 -215.404221
-497.379974 738.168945 -511.409973
-487.971588 682.932800 -412.033936
-372.251038 840.972900 -443.143738
-437.574646 728.067810 -340.463440
-473.237946 601.459290 -194.321320
-260.045013 960.902649 -357.736176
-312.725006 864.190552 -282.466644
-433.940460 768.859253 -454.744354
-411.544098 770.036499 -393.033234
-472.938721 629.407288 -185.486633
-422.083984 740.197632 -331.052948
-223.821106 982.469360 -308.241730
-308.134583 906.824097 -362.233612
-457.308105 679.683777 -272.277954
-290.471771 863.513306 -248.305176
-475.359650 650.257996 -303.196869
-385.597321 819.517212 -391.574615
-301.633942 848.849060 -228.012329
-316.267334 841.383728 -249.378983
-239.858276 952.299133 -273.303314
-293.654419 938.842163 -435.310364
-288.065430 884.687683 -283.404572
-379.938416 826.317078 -365.558044
-469.056427 669.504028 -196.729874
-278.525116 900.120911 -246.976181
-430.195374 749.913086 -365.984894
-235.956329 928.690369 -243.080597
-458.816376 696.402161 -318.733551
-365.794861 912.676331 -541.648438
-342.181519 833.775146 -335.583313
-464.105560 684.132202 -314.353363
-465.679688 710.815125 -413.085938
-440.429047 699.763245 -278.187988
-510.701904 655.783081 -411.259094
-391.277710 913.612427 -516.612915
-259.863831 965.098999 -362.573883
-354.120636 827.781616 -286.323669
-482.799988 618.895996 -252.109711
-386.026825 802.068665 -400.272491
-208.731522 996.463379 -303.957947
-400.467621 753.493286 -285.077393
-223.939178 973.416504 -299.903931
-389.821930 735.941101 -181.789169
-438.309204 808.469177 -487.036255
-483.191620 639.971924 -291.740479
-421.170227 694.236206 -224.411209
-292.246185 890.327148 -265.573364
-357.055145 793.635315 -252.106949
-468.635498 646.953064 -203.738754
-354.654144 838.003967 -397.070679
-447.601379 672.133423 -216.896439
-434.852844 784.202209 -493.620117
-522.431763 608.980408 -307.789124
-388.741821 753.502930 -315.842896
-222.668152 965.433594 -266.145996
-285.559448 882.298706 -276.199371
-330.896362 878.213928 -360.514343
-335.153900 920.758789 -496.988495
-540.914734 637.214966 -376.505646
-205.274933 973.928955 -250.926743
-503.729614 688.454712 -455.305847
-454.653381 784.240845 -496.160339
-335.292877 803.156982 -273.806671
-346.740509 805.139587 -183.004913
-464.558014 696.866577 -402.174744
-500.608948 675.690979 -435.979248
-293.100281 943.052917 -442.833527
-523.257324 633.285156 -299.533081
-368.472931 878.411926 -474.272949
-401.850098 731.453003 -271.576660
-465.638702 662.827820 -230.952271
-218.385178 961.154114 -236.702240
-361.721375 750.227478 -247.595978
-380.237915 820.770630 -422.729187
-473.190582 682.575684 -262.827881
-542.409180 623.287292 -409.919342
-516.455261 633.355713 -316.695068
-355.372040 782.907227 -191.884537
-228.801712 936.624573 -214.012833
-287.077881 881.845093 -247.541641
-517.238708 597.276306 -268.032318
-246.639572 928.656067 -220.548645
-237.593689 957.677490 -329.092834
-509.311798 639.974731 -281.103485
-392.963501 778.795776 -324.959503
-379.158234 754.353333 -191.274734
-519.106384 729.912964 -508.176849
-410.386169 786.800720 -376.472473
-553.959717 617.424988 -355.020996
-287.629456 901.969116 -284.719788
-397.094269 771.347656 -260.643677
-315.499115 805.936523 -243.087082
-239.283691 963.822693 -307.864166
-234.552170 908.545593 -215.851456
-422.209259 693.477539 -187.764053
-500.266571 632.006470 -211.616394
-475.972046 672.091370 -370.592346
-385.134949 919.312012 -515.303223
-306.870209 841.855652 -238.374634
-392.947876 843.327576 -529.466125
-412.666504 774.477722 -379.300446
-524.941833 593.974976 -186.973267
-209.679276 962.561768 -232.480881
-479.518921 697.565674 -422.055237
-291.986511 879.316711 -354.759796
-284.411926 897.062317 -261.519043
-488.368835 615.780640 -211.925613
-393.848938 776.758484 -334.789368
-326.491547 836.771606 -216.864944
-457.420990 650.189148 -175.611862
-262.970184 979.859375 -419.229553
-334.959625 872.604431 -389.385590
-449.136780 765.902222 -488.214325
-394.079926 758.147095 -288.436981
-328.172760 837.535278 -261.381836
-341.847382 809.934570 -236.074677
-361.375031 782.305298 -217.798248
-287.846863 875.181824 -315.631256
-536.569885 621.551392 -346.755249
-476.245758 721.158264 -395.499054
-530.611938 639.517822 -354.252716
-258.606415 906.188477 -315.805054
-304.651581 858.792175 -224.346603
-513.424438 645.440552 -381.128937
-445.768585 751.251465 -525.442688
-273.821075 875.745117 -235.702454
-398.274628 754.510803 -292.836212
-380.113434 768.490112 -270.115936
-477.459839 636.470154 -201.903473
-416.075104 757.017944 -537.582275
-368.027039 842.102600 -542.566223
-376.721588 863.821777 -536.330200
-297.287354 894.190857 -322.994080
-513.368408 633.261658 -324.917419
-234.217590 974.632690 -323.861359
-409.338898 723.564026 -297.807648
-419.250305 753.954895 -308.463226
-517.917297 606.891846 -217.624329
-420.690094 784.773804 -425.557373
-271.807007 895.807617 -262.747650
-268.827515 986.136475 -438.184357
-266.589844 977.864197 -447.758301
-416.461029 758.524414 -530.865662
-215.587280 964.072510 -245.932465
-396.938110 754.732910 -283.024323
-249.601715 954.981750 -296.789948
-461.194611 669.244446 -190.520447
-359.079865 854.886597 -380.101868
-286.845612 952.939087 -481.870636
-384.149078 778.202026 -247.184494
-496.631409 601.312805 -167.630569
-407.139160 757.198669 -354.629028
-294.459076 914.822632 -345.301483
-462.291168 651.178101 -173.122086
-422.698181 746.424866 -369.308441
-379.813385 802.370117 -551.758301
-449.097504 764.851929 -520.101257
-541.765808 689.613953 -467.743622
-459.298492 670.614380 -243.519989
-374.458801 870.984009 -546.745178
-236.183456 937.049255 -207.875641
-237.944427 921.197205 -209.846741
-492.667694 729.394836 -500.927307
-489.368225 711.942688 -460.755981
-237.751160 988.934753 -374.168549
-397.577332 730.502014 -222.857788
-418.551788 742.668091 -312.356049
-525.229248 661.882202 -405.748016
-226.492752 942.144836 -237.194183
-361.726257 809.290283 -314.264496
-218.261108 982.973511 -292.559052
-254.220490 987.806946 -430.201508
-607.279419 644.088684 -468.392456
-356.177002 860.130249 -551.758606
-456.105988 747.473816 -494.479126
-245.556061 957.282166 -290.979553
-424.613495 716.933228 -202.835739
-450.390137 730.016663 -534.779053
-409.951172 728.191650 -243.624405
-217.301727 988.963745 -273.071106
-300.873016 883.884460 -274.840088
-320.900482 922.483032 -487.920258
-275.936157 900.764954 -234.054276
-364.777039 816.401733 -289.617920
-479.558136 741.431213 -500.632477
-448.158173 718.638794 -364.882141
-386.249939 828.830872 -498.668945
-422.323822 766.596802 -394.506836
-393.473877 806.563599 -374.454376
-342.932678 818.910950 -248.694626
-381.412598 812.647644 -348.830078
-394.087402 755.749756 -269.154816
-500.034485 636.531982 -298.366913
-270.390869 935.416504 -340.821533
-478.970886 630.140320 -199.451767
-272.690918 954.780212 -400.080261
-397.416351 795.193115 -341.281555
-503.222626 684.810059 -427.551575
-379.218353 800.914307 -297.403198
-282.715424 904.638306 -350.237701
-361.893372 866.897583 -456.123718
-313.789124 838.608276 -221.264374
-585.241638 660.256653 -476.644104
-573.097168 619.279236 -427.446136
-514.243530 611.310425 -217.412033
-272.112732 886.589905 -257.657318
-323.307037 888.403076 -353.108459
-371.702576 834.320129 -385.012909
-487.665405 720.620056 -450.024048
-513.777344 625.067932 -313.760773
-219.072311 961.022156 -250.727005
-338.839355 830.792847 -280.652557
-202.395172 981.714417 -306.877869
-514.816528 654.662964 -422.737122
-331.657623 876.596313 -389.147522
-296.098633 950.641357 -482.428375
-213.114517 939.971191 -243.170181
-360.496887 817.492859 -547.530884
-444.367584 704.296387 -297.420105
-461.778137 658.070068 -223.823380
-225.965485 970.084412 -271.933655
-236.528641 953.601440 -281.288483
-283.312286 917.289795 -391.772369
-515.967285 594.379395 -202.250015
-250.807037 950.306519 -293.969482
-304.844879 951.746033 -496.403473
-376.685913 854.875244 -553.397522
-472.266602 687.924927 -298.393127
-231.320435 975.899658 -320.027588
-541.424316 724.896790 -509.398529
-277.026062 942.361572 -386.003143
-268.934082 896.492188 -274.768158
-347.691864 839.345154 -299.160339
-539.355225 630.323181 -431.839172
-409.618073 788.855469 -382.321411
-398.996338 743.325134 -248.219910
-380.166412 821.030823 -398.451996
-460.612640 675.924744 -215.589417
-482.705017 645.695129 -316.583649
-274.353363 919.591736 -312.618622
-446.843445 764.515137 -505.756104
-536.174988 612.853455 -374.011261
-435.251373 742.637573 -323.348969
-273.041229 932.788086 -315.536743
-381.136108 799.622131 -343.656830
-439.485687 729.734314 -390.011230
-538.429138 618.639465 -300.045929
-489.638031 665.400757 -354.739899
-229.687546 951.312073 -209.821228
-489.701813 653.102905 -279.635071
-490.487305 700.259583 -416.183289
-268.556213 926.190796 -307.728638
-429.022308 773.616699 -533.337769
-409.492554 769.520630 -545.392151
-443.138184 772.414978 -454.933777
-319.450714 950.453552 -494.388855
-401.838593 839.674194 -502.464600
-355.755371 833.207214 -313.614868
-425.700714 743.969788 -357.702728
-377.578888 792.180664 -308.917908
-263.533203 906.233887 -221.588104
-470.978638 671.766052 -300.654449
-444.109741 698.397095 -281.301239
-518.670288 626.258362 -276.381744
-351.029816 889.849182 -482.524109
-460.444977 750.311890 -460.554260
-428.297577 773.165283 -380.610809
-324.579254 828.355408 -226.517731
-376.243652 857.490906 -537.612366
-331.463104 986.356689 -532.998962
-275.113495 955.602478 -427.022400
-508.239471 652.588989 -394.972473
-370.822632 930.947205 -510.678589
-349.401123 845.591309 -555.949341
-402.533478 790.101013 -539.996643
-415.276703 779.356079 -408.700439
-206.403305 950.553040 -225.139938
-457.769104 756.057068 -457.616821
-403.597351 780.655334 -320.202332
-327.960754 832.825562 -225.940018
-374.454132 816.406189 -555.803589
-310.925415 862.990051 -314.953308
-404.041473 757.688354 -268.622009
-292.845551 885.675171 -297.376495
-435.590363 794.985657 -522.593628
-313.780121 897.735718 -359.893951
-261.230804 959.610779 -367.504791
-299.460022 917.712341 -412.089630
-320.901611 872.793213 -319.213959
-291.502869 951.624451 -489.963013
-388.582397 806.959473 -550.461182
-482.902496 715.210999 -459.502441
-361.132935 940.680359 -528.517090
-394.836670 819.422119 -461.308197
-437.783295 691.348145 -221.331375
-259.192535 903.048096 -204.185013
-248.425903 998.843323 -436.847870
-451.556091 733.678040 -428.202118
-406.619141 773.871155 -544.042786
-347.548584 815.325317 -232.332016
-478.410370 624.003906 -175.067169
-446.408508 811.348145 -493.935577
-504.167175 747.515686 -512.111633
-296.894867 905.164490 -331.444885
-422.297852 700.850525 -244.420441
-446.834381 764.392273 -425.689941
-293.117859 860.285400 -201.164124
-282.883179 891.274231 -282.631836
-283.374268 875.316895 -206.242813
-318.503510 853.897156 -271.431213
-250.551254 957.458130 -319.916046
-256.954346 937.827576 -362.647888
-481.616425 739.757263 -521.800720
-461.822174 716.460571 -350.467896
-289.207764 927.610291 -380.785736
-366.069336 805.118103 -544.699219
-410.794647 668.949646 -159.051208
-368.007935 832.082397 -386.316956
-428.352600 766.409973 -436.590515
-223.893082 951.214783 -295.579010
-293.264496 909.526062 -380.525909
-311.403168 844.273071 -243.472824
-389.535339 784.635254 -284.131012
-310.753601 860.448059 -265.971954
-474.224670 732.401184 -524.091187
-394.068298 798.851013 -399.368042
-226.928131 962.820129 -257.359436
-272.105927 901.288635 -226.976532
-386.257477 857.034058 -531.182434
-372.830414 844.498596 -454.954346
-247.251572 939.674255 -268.472687
-324.361694 841.878357 -274.985809
-527.232544 601.386597 -276.775574
-462.803986 717.196289 -338.971222
-375.587860 829.368286 -413.802399
-322.160126 861.168945 -324.799011
-369.357330 841.977722 -442.141052
-452.869110 717.254150 -410.275238
-379.890015 813.978516 -552.891907
-400.201416 724.897522 -203.590683
-420.423431 781.091187 -526.926514
-441.621918 782.507446 -522.637878
-443.625671 717.578003 -263.991180
-521.708618 605.884155 -204.395645
-491.117737 657.592712 -306.204742
-262.335907 977.627075 -443.247986
-251.446854 904.106201 -235.336914
-326.670074 879.094238 -445.977722
-469.296509 716.543335 -354.266876
-409.750671 736.756592 -268.314941
-225.704636 958.075012 -238.362762
-353.930756 857.258789 -367.933868
-325.557159 872.859375 -326.727417
-390.484192 749.011169 -246.298019
-384.669098 782.814087 -300.288666
-362.889282 845.860046 -422.998505
-335.449585 837.967041 -552.264343
-492.862579 604.309570 -200.514618
-354.641174 853.482300 -383.125244
-275.889435 922.915100 -301.582275
-212.298050 940.737122 -296.082642
-378.902313 909.639099 -539.679749
-258.031952 914.111694 -225.990509
-336.116821 906.830627 -457.153717
-472.080780 742.117615 -445.729919
-565.038696 592.234497 -400.023193
-448.983612 708.013916 -372.015961
-315.682892 866.182251 -404.936768
-279.721069 914.536011 -291.964569
-373.054382 760.514221 -191.634171
-280.697113 919.273315 -316.178284
-548.498413 621.972351 -351.407898
-287.471405 897.798584 -315.203339
-262.753876 961.370850 -378.358704
-425.803680 695.034058 -180.160202
-452.672241 662.114319 -170.934311
-431.919128 750.340149 -410.981476
-319.318146 854.468262 -296.434540
-449.795380 757.562805 -509.731293
-373.342499 792.451294 -236.015213
-487.515198 658.697021 -376.621948
-367.405853 814.712036 -545.049927
-357.379517 780.765076 -227.797318
-331.239441 866.144409 -403.241699
-509.224854 658.214050 -387.869751
-422.975647 736.359192 -549.008179
-342.129608 923.806580 -536.642822
-318.762054 939.059875 -492.963806
-343.502991 865.481079 -417.006104
-495.534149 662.930237 -301.754089
-364.887146 954.833435 -528.832031
-404.907959 751.632507 -281.149384
-380.900879 841.778320 -469.160309
-529.561890 705.009827 -464.498230
-296.131409 893.069031 -306.356537
-294.236206 993.668945 -494.146545
-485.494293 641.867188 -232.139114
-351.433960 805.128540 -256.744629
-527.413452 632.025085 -309.049072
-230.567291 939.240479 -280.320435
-405.898773 742.252075 -291.755981
-308.782654 921.033813 -394.379944
-424.760864 700.881775 -222.379547
-428.025177 789.318909 -477.311249
-341.763855 796.868774 -190.712189
-466.946960 686.015137 -257.090820
-373.031952 829.605225 -415.759338
-312.548431 908.223694 -426.458954
-494.986755 665.999146 -380.276184
-374.495911 867.369080 -548.937195
-261.054474 942.685852 -378.344238
-498.230927 628.682861 -211.300964
-317.200317 846.931030 -251.107620
-389.353180 769.924683 -291.521515
-454.816833 771.192932 -478.239105
-297.879486 937.385864 -463.998871
-377.025787 871.634949 -473.315704
-346.395844 789.246704 -189.983917
-402.519775 797.190979 -411.462433
-358.087250 779.512695 -247.936127
-232.230148 951.948975 -366.637665
-232.312469 942.783875 -219.602325
-517.325562 615.597229 -284.815002
-449.882385 630.945618 -184.659561
-414.807648 844.397217 -493.462738
-347.494446 976.626953 -527.176514
-363.492981 784.177612 -193.928482
-400.604706 814.496643 -464.108063
-343.636780 814.471680 -279.258270
-525.811523 616.034607 -396.096283
-250.716400 970.745300 -370.720764
-406.499603 738.748413 -274.295074
-456.401642 699.152344 -372.291199
-471.911407 663.686035 -215.002609
-512.978149 654.331482 -340.448395
-340.598267 824.020325 -281.677765
-488.078552 612.700500 -182.190964
-307.390991 932.478149 -484.326141
-510.753876 645.785461 -370.265839
-411.946777 809.603943 -531.281189
-518.213379 583.963196 -236.621689
-309.674866 901.118469 -357.796967
-376.858215 888.512268 -498.398865
-569.897095 619.081543 -435.775787
-393.319031 889.760437 -528.799866
-271.349792 970.114868 -435.958405
-255.202591 929.910156 -333.738861
-418.718262 684.329712 -204.649368
-259.960938 912.086853 -284.424194
-420.471313 786.190491 -463.362274
-433.403168 719.892090 -287.151215
-396.359802 850.931458 -510.824921
-450.178986 660.998657 -210.677658
-501.984131 680.134827 -394.979431
-484.254639 691.809753 -350.688873
-373.376923 783.346985 -270.623199
-551.258362 609.615417 -351.177979
-358.676941 764.570374 -271.768188
-247.016098 939.381897 -298.631775
-422.404205 705.095886 -300.773376
-390.443848 761.438965 -219.617767
-359.882263 829.049194 -314.720856
-457.297516 706.269104 -292.892273
-249.496078 939.028320 -264.173248
-449.096313 693.762268 -223.896347
-358.703827 827.469299 -555.043579
-494.480896 661.988953 -428.110565
-293.120148 891.799988 -259.525269
-300.560028 873.842407 -243.774948
-413.771759 757.904358 -355.434326
-309.974518 922.754333 -434.498016
-363.923431 800.934387 -260.357300
-381.681427 755.133240 -548.163208
-363.568787 867.712891 -535.177795
-429.052734 808.741150 -476.530365
-526.728271 653.502869 -395.741333
-430.255127 740.899658 -339.968323
-429.764984 815.040588 -502.876160
-378.100769 833.075867 -531.748901
-422.518219 825.929565 -503.878937
-409.533783 764.635315 -532.946350
-216.433273 985.026855 -271.297089
-433.340759 748.728943 -405.779785
-463.822784 697.198425 -298.615082
-444.830627 793.129700 -498.881683
-330.208710 881.229248 -413.317841
-224.461945 967.392578 -329.680298
-332.050598 879.627319 -377.432220
-426.345001 693.107239 -206.528824
-381.577484 793.234131 -336.041779
-465.367188 639.109680 -245.418167
-286.936218 917.469055 -333.604889
-483.243652 731.037048 -522.530396
-419.338715 781.553284 -372.369751
-476.018585 710.616943 -366.905121
-514.224121 608.101257 -161.647110
-383.932983 760.279419 -257.156250
-306.955811 910.976746 -393.691223
-271.419159 874.026123 -291.612854
-246.603897 918.063904 -205.297211
-315.490753 909.502991 -394.566101
-339.397247 868.859802 -415.940155
-346.080933 809.544312 -231.909286
-273.416870 927.461792 -306.973358
-410.928680 683.427185 -238.737778
-432.283539 811.637329 -471.386993
-370.911255 760.221863 -188.759644
-378.152527 886.646484 -488.955261
-453.166565 719.734375 -521.031372
-352.148102 881.096008 -452.421082
-363.177368 818.039612 -545.504578
-255.795532 952.987488 -409.872925
-282.080566 900.040649 -267.956390
-482.343414 645.303772 -232.748459
-474.278534 760.134644 -479.408936
-508.332855 640.143555 -331.612274
-449.477966 732.856873 -531.928894
-435.478363 688.359802 -221.738403
-469.800323 640.406006 -173.748978
-321.415344 990.967896 -528.694092
-372.052307 768.848450 -181.777222
-367.988190 799.254272 -303.222992
-318.720612 829.580078 -241.903473
-400.442627 857.210876 -487.884125
-381.002167 791.792358 -274.982147
-494.343231 676.695374 -326.825317
-286.591736 890.089905 -236.445969
-317.454773 855.246521 -313.394135
-371.408417 845.499084 -469.320679
-436.437042 744.809326 -403.642151
-212.013809 966.665161 -231.535065
-529.035522 641.262268 -337.211487
-195.467377 974.653992 -264.168396
-369.930359 759.933167 -215.338562
-369.216217 897.551025 -537.486755
-271.899231 924.260681 -316.907990
-311.020782 906.642883 -409.676147
-248.252594 884.129639 -226.532501
-451.050446 722.381104 -393.240112
-396.275787 784.588135 -353.405212
-342.263092 811.861511 -188.066193
-289.716156 875.213074 -231.884384
-252.630936 1004.024536 -455.577362
-324.191620 917.945129 -447.606018
-408.583923 746.845825 -301.487305
-489.467438 654.603271 -251.653473
-267.796387 890.285034 -240.072083
-398.881439 800.171814 -450.209137
-382.433228 823.350769 -372.566833
-461.259949 714.728149 -408.342834
-306.709106 826.214905 -271.905670
-398.735199 756.993958 -219.697296
-383.823792 807.365601 -531.985657
-210.655670 968.984131 -267.791626
-468.041595 636.996338 -186.552795
-440.739685 712.401855 -290.914124
-360.405029 793.929443 -343.086945
-429.197479 768.550537 -441.845337
-286.081268 903.803162 -403.790314
-367.099976 845.293274 -457.592499
-452.114105 693.396057 -271.825745
-491.787567 660.295166 -312.330353
-259.083771 922.454224 -357.852814
-439.549744 760.315002 -396.417633
-393.669189 792.963257 -386.120300
-227.551468 959.631104 -283.014832
-418.721771 797.951538 -474.373383
-393.819672 858.616150 -481.477966
-388.482910 769.634155 -286.269226
-404.943329 762.344543 -334.344696
-389.068359 884.284119 -516.296997
-245.014481 956.244446 -286.166565
-263.103607 968.305115 -395.708099
-359.105560 824.622070 -366.349335
-317.168732 823.132690 -226.371796
-409.204712 766.099060 -344.491119
-439.143951 696.654602 -293.486816
-431.810638 766.534119 -518.951843
-415.489594 747.071411 -308.089233
-350.321350 894.438232 -543.485168
-441.754211 707.710510 -256.041992
-521.496155 608.554626 -296.354187
-378.895508 777.932800 -275.892029
-389.670410 788.538940 -379.283478
-358.116150 806.273071 -550.361328
-509.158142 705.862793 -445.430542
-296.713959 864.693848 -250.454315
-464.209717 641.344482 -177.309250
-223.589279 947.529053 -248.258606
-258.515076 913.526855 -293.495087
-359.986511 812.653442 -333.784912
-226.232834 928.132202 -220.843094
-438.535156 729.151794 -384.254883
-382.500641 768.994690 -280.379028
-295.382355 942.015198 -465.235748
-340.563812 883.909363 -421.318024
-435.145081 707.251587 -537.084778
-446.509888 732.216064 -404.631927
-267.527832 935.649048 -312.448395
-279.644073 872.467346 -228.047867
-246.484070 938.380615 -294.211090
-310.578552 856.052002 -208.625000
-261.401276 952.410278 -346.454742
-304.433289 928.891602 -449.271362
-413.942902 708.380737 -253.629654
-338.844391 796.826904 -206.248810
-261.067902 933.097656 -333.078583
-428.948090 723.423035 -282.623962
-290.561127 969.591919 -507.333374
-536.246826 632.058655 -426.953552
-234.981613 979.800476 -343.860840
-352.158325 801.000183 -258.662231
-403.354645 827.564392 -535.956970
-315.017944 896.302734 -387.896545
-400.146210 743.961731 -245.642776
-407.605164 741.907898 -270.204315
-290.326050 916.035217 -338.496796
-391.631897 779.539063 -322.132172
-374.251801 806.704346 -339.065857
-548.270386 638.216553 -412.089172
-346.827637 828.837097 -282.559784
-367.654572 877.654358 -542.770386
-275.699890 956.231018 -432.863525
-419.239471 749.959229 -543.764832
-372.587463 834.006714 -446.673615
-231.124023 953.361328 -243.248535
-370.314423 940.732544 -538.186768
-456.307648 692.269836 -308.607330
-270.983124 943.761902 -474.940460
-472.832428 650.554382 -251.536362
-250.837326 935.973694 -269.366425
-480.775421 661.349304 -389.075378
-468.732635 724.000916 -376.331512
-371.446899 766.643372 -546.322449
-537.935303 628.358459 -420.385193
-346.677032 838.711548 -293.850464
-354.754852 785.624817 -227.638474
-371.290649 879.158752 -528.881714
-480.236206 740.227539 -498.578033
-442.872742 718.034485 -275.617065
-487.605865 643.862671 -279.390656
-437.621033 716.036011 -316.911987
-461.011169 786.446960 -505.918488
-433.485199 716.725586 -234.666733
-478.835876 690.312134 -367.048859
-424.819733 750.014526 -377.408783
-266.377869 934.852417 -434.897858
-338.455566 828.429504 -217.485931
-352.411041 842.326721 -403.670380
-224.418442 969.287964 -292.600342
-452.550171 690.711853 -295.083405
-517.642883 647.120117 -380.022247
-326.520386 893.156616 -462.379059
-519.166321 635.272461 -323.599091
-375.197571 751.434326 -551.048828
-249.930222 946.690552 -288.968018
-386.590851 858.602722 -529.430115
-277.171143 888.306763 -261.902832
-356.266022 821.033020 -290.615021
-338.337860 849.625488 -329.727295
-386.228241 809.038086 -546.724304
-234.304459 976.929260 -338.322540
-233.463196 965.898438 -333.919159
-318.513733 865.791016 -323.091461
-315.250977 918.870239 -498.921356
-204.997421 975.439087 -248.529602
-446.092316 690.506287 -342.967133
-342.319611 812.396301 -212.185883
-281.207184 910.452759 -346.902924
-484.358582 683.812439 -372.317139
-367.787231 943.280273 -528.916504
-308.178558 872.478638 -248.878738
-471.350525 711.800964 -530.562988
-418.490295 770.156128 -413.232391
-367.950287 769.456604 -198.471725
-358.223389 784.976563 -554.246338
-261.574036 920.443909 -290.516449
-323.973785 938.528992 -513.787964
-475.878937 758.710693 -471.722748
-428.586487 759.020203 -388.801147
-397.883270 825.484070 -490.571167
-430.495453 690.861633 -204.534836
-444.570190 719.206787 -380.302979
-309.261688 904.903381 -393.001068
-311.671112 925.817383 -472.831879
-345.124054 848.564819 -370.705078
-516.254456 652.825684 -408.937958
-232.803909 960.925354 -288.751190
-408.818176 796.613098 -379.945160
-403.739014 774.855408 -349.686218
-490.964111 679.026733 -406.851349
-316.808472 853.360107 -234.331085
-353.831543 791.299988 -237.029236
-467.414948 662.966858 -253.158890
-239.354874 926.121887 -280.729187
-359.517090 866.372803 -431.085724
-275.355621 946.887695 -486.127991
-506.084045 625.566345 -222.027039
-436.320282 766.258301 -414.744019
-420.089783 754.848511 -313.802094
-332.580597 830.621216 -198.113708
-447.876923 748.643555 -426.584045
-280.729736 1003.346985 -511.585571
-341.430603 898.760376 -449.639221
-486.685455 692.358948 -362.276459
-518.644409 593.195129 -147.848740
-378.909210 792.989990 -555.346436
-275.734985 909.632263 -274.364410
-358.015533 785.303528 -231.340637
-415.360565 734.846008 -348.559967
-291.233856 856.152649 -212.043060
-378.895203 911.096008 -534.683838
-248.007980 947.624390 -406.921631
-274.512695 890.420837 -212.761108
-410.317719 765.806030 -307.030121
-374.186127 816.737183 -557.651794
-429.746887 742.529724 -371.079865
-215.302170 971.313293 -273.334167
-380.347534 795.747620 -317.323792
-372.542542 803.892212 -350.904846
-327.059265 875.821777 -328.972046
-278.537994 954.858154 -412.462524
-386.723358 844.845093 -458.697510
-311.529877 902.402954 -405.574524
-432.552399 701.140442 -235.471878
-401.241028 801.573669 -390.448639
-268.694397 892.131042 -207.559525
-283.344238 915.118469 -311.633545
-428.243866 778.449524 -421.680817
-337.284424 798.180359 -206.898056
-378.455994 781.054138 -237.608658
-402.846863 816.157410 -431.874420
-233.670303 961.012512 -353.357208
-343.495453 772.287048 -208.179321
-313.081024 928.142700 -432.617737
-380.199585 759.120728 -185.463562
-307.925842 877.071716 -301.757996
-346.685272 935.616821 -503.328979
-326.750549 876.386597 -383.439301
-468.572540 686.502136 -364.951813
-326.036987 892.489197 -433.096283
-407.474609 741.427429 -260.360626
-446.605896 698.127502 -296.622925
-224.114105 978.093323 -294.432617
-389.270996 795.597961 -549.329834
-407.939514 698.705933 -210.264648
-434.124359 778.297485 -532.245605
-413.708801 840.406799 -510.825958
-333.523041 847.143555 -312.631134
-298.216339 866.983765 -220.861404
-376.365448 843.127747 -472.562653
-464.557159 727.373169 -527.353821
-451.329712 709.023315 -321.873322
-321.455597 899.138489 -433.019165
-287.510956 974.616699 -480.911285
-265.063385 915.090149 -288.279755
-348.123901 819.259766 -285.099365
-512.119873 594.913208 -247.064697
-401.216400 815.249695 -420.179840
-270.623108 982.129761 -470.111450
-237.801468 940.974243 -243.664154
-506.201752 615.251892 -201.397995
-300.912445 958.823303 -507.501221
-493.562195 645.725647 -315.594452
-253.569168 928.453369 -286.387390
-284.101959 914.356873 -354.087982
-438.988953 784.115173 -522.027527
-575.821350 693.731018 -485.142944
-220.852386 945.709229 -213.719620
-227.249374 956.570801 -311.539703
-294.747223 854.795288 -199.441925
-330.453491 876.393616 -359.510132
-341.725433 826.644653 -557.291809
-467.512177 713.512146 -344.449524
-351.490570 807.862122 -293.114410
-280.824158 889.636963 -232.412064
-251.983597 962.912964 -340.019135
-401.428375 746.523010 -538.507141
-503.847565 619.739319 -206.430359
-397.181427 766.612793 -308.188477
-416.082275 778.532227 -349.811676
-459.692474 735.881836 -390.259094
-406.847717 771.113708 -341.810120
-457.063751 650.322388 -196.025665
-248.199066 996.843628 -414.330811
-276.342957 899.362427 -221.770432
-413.844055 770.225830 -404.292511
-288.653198 1004.053162 -517.123535
-336.782990 836.950745 -325.553040
-331.344208 840.006714 -315.568481
-387.719147 927.162415 -529.947693
-308.166931 960.260071 -515.754517
-376.497406 796.363525 -317.464752
-533.572388 630.961182 -393.221863
-546.149475 605.178040 -378.083801
-454.034027 753.215027 -507.865662
-335.961426 821.414795 -236.869904
-386.583771 824.694214 -450.096375
-446.917023 796.021606 -512.570984
-449.890961 712.117065 -274.138916
-298.920349 853.337891 -209.322403
-233.775742 956.655945 -262.801422
-370.494141 840.620056 -403.503357
-368.213501 848.295227 -393.741364
-395.077606 751.259827 -249.233368
-391.274597 772.446289 -319.453003
-438.624847 691.267517 -168.105148
-520.444702 664.384888 -414.794556
-444.752991 706.016113 -342.291748
-240.425171 975.304871 -351.593842
-428.895233 756.516174 -551.730103
-522.980347 616.269653 -394.497955
-390.411987 785.779663 -335.373901
-346.951019 832.244385 -317.287262
-404.147156 829.015259 -531.043213
-494.638000 642.820496 -237.195999
-449.120483 703.647705 -324.103241
-448.791290 681.933350 -249.821671
-282.174896 931.525635 -474.941071
-432.325043 718.764160 -303.718323
-402.508667 757.256287 -376.365204
-426.101837 741.788086 -353.707855
-381.935638 821.522217 -434.424713
-492.516602 677.814880 -386.491180
-256.237671 895.166992 -221.127838
-399.806152 744.832764 -275.259796
-402.501343 788.865417 -403.399658
-411.826019 854.303345 -525.083618
-386.253693 748.081604 -181.263016
-410.797424 837.449524 -479.916290
-288.793335 846.661621 -269.216675
-484.885437 658.765137 -320.673340
-372.641571 818.847473 -365.563812
-504.545410 594.722412 -214.333710
-230.671738 967.839600 -359.306091
-330.397247 843.325989 -288.669495
-249.936539 954.592712 -356.176941
-262.507629 901.813965 -229.368378
-396.153687 853.308350 -499.703094
-496.430145 635.938232 -180.862061
-330.512054 847.488159 -393.975769
-524.617798 657.093018 -402.048950
-286.505432 900.472107 -395.051270
-235.251343 961.105164 -278.228455
-466.235382 702.710876 -388.681305
-455.486816 682.186401 -276.608826
-445.341156 746.189331 -374.456665
-279.635254 962.448059 -425.271332
-494.800201 659.540771 -267.372925
-421.545288 809.488770 -522.748901
-423.519196 741.697510 -341.647705
-411.200439 730.823486 -263.936432
-393.246490 810.975769 -373.915924
-222.869598 943.838257 -227.546326
-285.706512 929.118591 -427.938690
-315.807739 854.149841 -261.144623
-352.495728 812.744995 -364.783295
-499.376282 592.537476 -176.010651
-406.850616 791.154602 -527.186340
-435.902466 805.115356 -503.539520
-496.862427 653.134399 -305.697998
-425.539215 745.946350 -365.523651
-276.655975 891.654297 -231.707367
-541.623169 634.826721 -369.061707
-333.778595 839.694519 -379.033691
-368.972443 853.079590 -421.183899
-396.870148 907.720947 -528.343994
-299.937256 943.336060 -491.404480
-369.545197 851.992310 -444.344604
-431.533295 805.720032 -494.055054
-521.636169 594.288025 -251.839355
-537.688477 601.655518 -336.470184
-408.669342 707.597229 -189.080032
-355.654114 958.751953 -537.271423
-482.663940 694.031860 -330.342499
-268.705078 971.795654 -461.450470
-489.580078 733.705811 -516.085266
-329.603149 909.540405 -448.912201
