ply
format ascii 1.0
element vertex 1406
property float x
property float y
property float z
end_header
1.758283 870.684937 -355.913635
-162.121857 706.756897 -541.231201
-232.658661 683.143982 -475.469513
-266.166107 655.666016 -367.512756
-179.137833 713.070862 -496.034637
-88.601151 812.357178 -352.437561
62.411819 910.714844 -477.637726
-6.708515 836.179321 -625.388245
-118.938416 748.090027 -674.545654
-42.815147 819.148071 -673.243103
-263.301636 672.214661 -374.083466
-139.664261 752.288208 -598.132324
-253.014206 664.195801 -592.527100
-249.380783 678.026489 -483.769714
23.856062 881.537842 -442.769745
-211.943787 703.833862 -358.300842
-122.405136 768.411133 -547.224609
-162.291779 748.836121 -478.138367
-64.142220 819.938049 -485.697083
9.339627 850.844421 -375.286407
-123.117455 761.291565 -487.921570
-82.654770 798.233765 -452.763306
54.320805 896.143616 -370.671051
-17.548719 845.953674 -410.026855
-217.713776 705.109131 -395.875671
-120.695938 765.289429 -478.610413
76.264420 902.629395 -592.640442
12.766044 856.662476 -399.398834
71.567139 913.473267 -396.595276
46.249344 884.694641 -632.494263
-265.418213 644.286133 -494.512817
-6.822283 855.205261 -416.576691
112.077812 947.970276 -384.353577
-26.955528 734.547241 -696.265564
-63.691219 781.430725 -513.868286
78.964706 958.154480 -686.977478
-176.629105 729.107605 -362.550690
-93.665039 786.294312 -457.585999
-82.185699 794.611328 -591.504639
-75.041885 780.774536 -445.922668
-107.834373 791.660889 -434.536530
-162.298004 743.030396 -363.516296
-133.438614 731.836609 -492.628784
-143.115540 758.228333 -372.231476
-87.546158 807.959839 -430.029480
-234.845703 677.751648 -460.153625
-244.247604 663.039917 -507.384766
98.762650 929.846375 -497.856110
4.660749 854.970154 -442.521362
7.647770 865.322815 -691.993591
-164.477524 734.515015 -355.999908
-13.366020 823.889893 -464.196350
-0.110628 857.341309 -449.215668
-104.687752 774.654785 -592.024841
-53.248528 804.253601 -370.017670
43.090092 909.334045 -388.020264
-74.077759 811.090271 -351.776703
57.288982 901.475647 -391.412384
63.950760 908.480469 -502.054932
-125.938408 754.410645 -647.726990
-69.076775 826.134460 -408.815521
8.507730 860.639038 -588.733032
68.801598 920.567017 -431.936035
17.043129 874.383240 -419.199707
76.177940 964.084656 -687.359314
-55.409954 803.356873 -554.794739
28.049520 898.529968 -346.494354
1.788995 874.201721 -697.211060
98.044838 915.893860 -620.798340
-227.367508 696.529907 -467.164764
-156.558380 736.963867 -569.651550
15.631950 883.431885 -703.608582
-107.138680 783.245850 -408.959991
-153.266937 743.012512 -702.010986
53.251572 888.830994 -476.893555
-20.262344 783.657593 -684.559631
-235.507645 658.882324 -496.998627
-100.116188 768.236877 -588.875000
-37.214046 825.494507 -641.157104
-246.708450 687.174500 -468.541718
-82.125313 778.580994 -554.222290
-22.120583 844.583557 -482.040710
-227.178925 684.913696 -406.744141
83.625450 918.756714 -365.753571
-148.465866 735.911865 -440.244354
-131.454132 750.952881 -486.368134
-92.043350 791.971375 -438.137604
-270.458588 652.484497 -610.159119
-184.133377 731.078857 -377.142517
-57.653111 756.114563 -711.467346
-83.355553 773.238220 -684.698669
-155.610687 726.786438 -571.774658
-79.496109 770.058777 -447.194763
-93.419754 797.115295 -493.000000
-118.574173 763.959045 -682.595215
-33.852077 848.533447 -345.355682
-14.449006 786.596619 -706.807495
-92.720070 780.974548 -542.178528
53.323299 895.859131 -643.153564
-64.037933 701.989624 -696.436157
98.664642 899.835815 -553.993469
118.467995 919.611084 -582.728455
-142.254089 744.872314 -458.105927
-7.458816 848.119690 -578.409119
-33.204674 848.521179 -379.600311
-35.481411 821.338196 -504.872253
-80.475418 796.366699 -656.487488
96.670662 935.434998 -456.553162
-248.021957 659.894226 -513.905273
-230.010071 699.174866 -471.864868
106.794197 939.307007 -526.878052
-49.979042 836.731689 -426.993378
-46.045643 835.226257 -483.531036
-165.642136 720.897461 -434.287964
-239.507431 648.359436 -527.564941
123.041428 954.156433 -553.762695
73.068611 915.389099 -532.762878
-234.348129 683.142517 -582.039063
41.193821 907.239990 -399.057220
-85.867096 796.878113 -523.825195
-68.700012 806.317261 -545.734802
-118.957092 780.781982 -377.527863
-188.935379 721.106079 -370.962219
124.937935 944.699829 -388.438782
-191.476639 710.425049 -570.667358
-142.869354 752.574036 -580.436035
-200.920212 687.380554 -568.943787
49.621769 896.700928 -489.974915
-104.539215 790.972229 -467.148071
-192.279633 680.034607 -515.005188
94.279297 931.147583 -396.056641
-135.172409 742.308838 -627.864624
-79.023552 791.809326 -494.132843
-260.821136 677.249390 -379.758942
-132.897949 783.645813 -375.910126
100.039032 916.043762 -524.302795
-80.016792 802.183594 -437.651886
-1.334976 860.488464 -350.048340
-100.480881 778.552673 -687.035339
-145.081543 723.386963 -562.380127
101.879868 938.748474 -462.182831
-160.455368 738.018250 -386.552582
-239.458603 657.332825 -557.655823
39.541039 888.155029 -363.734619
-272.422821 646.782166 -388.815033
72.680305 915.682739 -526.290161
121.947433 943.872498 -399.885284
13.421944 874.750793 -423.240692
-100.124596 785.026001 -406.949249
98.729469 926.080933 -499.158997
-115.671799 743.249512 -592.739807
-48.469162 826.561035 -421.634125
-183.032669 699.308044 -376.275055
65.825310 894.064941 -617.588684
-90.973251 795.654846 -411.292328
-2.371965 845.658936 -537.069763
-12.079348 844.116760 -587.942383
-230.299820 679.615784 -462.878326
-48.350327 797.645813 -678.108521
-10.624394 862.465393 -687.395752
7.783337 872.854370 -440.344391
-49.442146 819.573975 -650.241455
-25.730776 819.295776 -700.395203
30.768425 877.977295 -582.458313
-216.520050 709.360229 -425.476471
-117.188225 754.108154 -553.466064
-271.216309 657.854675 -469.932648
-24.135487 842.191895 -456.897339
-81.832710 797.141541 -539.565552
46.656544 903.182373 -684.023621
-131.289841 761.334229 -681.488159
-52.369263 828.647278 -411.149658
-11.247260 857.532776 -454.585144
-43.765156 828.038208 -427.024811
-69.042145 805.378174 -429.362457
-92.527977 791.118225 -395.178833
21.352552 767.724060 -694.320496
-194.967819 712.901245 -541.589844
47.639927 860.380005 -612.399902
-36.028309 839.062927 -366.856445
-13.443409 814.418213 -626.148132
-77.028275 823.649292 -373.702179
-63.143856 816.264038 -531.987427
-63.969807 810.791382 -476.845032
0.317896 809.379272 -704.334290
-225.190430 670.029541 -396.380096
98.825470 904.931335 -402.044006
-112.504662 751.618774 -627.742737
43.567516 869.418457 -586.197266
-150.948929 759.256409 -413.390350
-85.251350 801.824646 -465.461334
20.289484 886.765686 -461.071472
-43.138992 777.792358 -702.083313
75.889603 920.405151 -493.689758
-275.756714 630.718689 -584.930908
-151.771622 722.523499 -440.452820
27.402370 873.981934 -379.029297
59.291119 940.529175 -689.919983
-160.967697 726.658813 -501.739777
-278.115753 635.198975 -416.533966
-5.045068 787.365295 -712.542542
-86.640511 786.192993 -544.282837
-65.317902 803.323669 -534.083862
-5.888078 812.934204 -699.243103
54.044304 871.251343 -514.952942
-9.682933 818.717224 -689.109253
-93.644073 792.212952 -422.320709
-142.520737 760.276917 -511.991364
-36.365376 824.549011 -513.213623
-19.828245 830.870544 -568.622192
-153.239029 742.650574 -429.440094
57.118664 879.732056 -441.609344
-189.273529 683.564941 -622.706421
-27.872368 737.352722 -693.462891
-146.008682 755.960876 -352.649170
33.361282 884.626709 -368.642639
14.302057 920.469543 -698.922668
-137.213089 753.997192 -472.807892
-134.882706 699.806030 -694.646729
-177.032898 723.138733 -659.887756
-40.126297 842.215088 -380.898163
43.459141 882.624329 -562.717468
-107.248688 709.904724 -698.289063
-108.179817 755.655579 -619.088196
-232.865509 678.484070 -559.531433
60.251942 908.775879 -489.795715
-20.408722 839.448730 -652.081299
17.156712 842.231628 -704.737000
-58.954529 813.331299 -465.007233
-3.041413 850.739685 -620.265503
3.114073 850.860657 -606.703308
-116.526825 784.100586 -671.280884
-68.923256 811.537109 -496.848755
-207.690109 698.839478 -415.349396
-148.259476 733.073547 -527.139709
-64.206978 834.746582 -344.266174
78.237846 928.262817 -400.718079
14.800083 870.000122 -524.261169
-152.370850 743.691956 -396.177551
-313.164764 635.347168 -1015.537537
-209.051605 699.353516 -603.704041
14.015661 862.444519 -499.596527
56.135887 906.881287 -470.650726
-31.509607 828.351807 -515.612915
-121.521744 787.391113 -399.531494
7.706886 851.433960 -575.214233
86.105400 895.729309 -492.045715
24.373941 876.267273 -375.441559
-202.069824 705.330627 -367.308594
-94.495682 805.222229 -407.414734
-164.913910 716.570129 -490.971954
-151.391510 735.205139 -488.021698
-231.322235 673.111145 -590.139038
-28.781895 788.217041 -685.536560
-185.802917 742.554260 -369.744720
-4.364338 854.457092 -449.217529
-137.106232 754.764282 -396.533813
80.777878 923.296753 -516.050964
44.123253 902.774719 -649.533691
-5.517176 865.823608 -453.179688
57.377613 899.622253 -450.879944
43.093876 874.723999 -521.531189
-6.159841 865.938538 -355.289825
-219.626846 703.184143 -347.148163
-105.138084 710.597534 -708.338501
82.237946 918.964417 -560.939453
-205.249237 743.780334 -686.800903
-277.779938 651.005981 -531.422424
48.598202 901.872192 -484.432617
-301.108521 643.071045 -411.159119
-172.559525 740.280212 -388.815216
-127.537704 776.851013 -413.544586
44.771339 900.476868 -523.976929
63.272503 900.961853 -398.215851
113.684952 936.076599 -596.020935
-79.894783 792.615723 -613.376709
-47.046497 799.447266 -677.460022
-92.056091 797.627075 -520.851807
34.224171 894.275696 -454.068695
98.495506 928.242798 -453.622040
54.886654 890.036926 -544.891052
-168.846649 708.057617 -635.618164
-89.617462 774.484131 -386.724915
-6.752573 837.633545 -586.506836
-9.524791 846.322449 -669.057068
-183.257385 710.430664 -532.867188
-30.402550 836.590393 -437.893158
-59.615185 807.891724 -396.103760
-237.553314 667.579956 -614.759094
-216.995392 675.012939 -579.667419
-265.185699 686.055969 -683.334717
-76.839378 794.332581 -478.833038
-248.966415 674.130188 -659.244202
-198.640976 739.523743 -694.632935
-33.771572 779.367371 -703.385376
22.011421 862.993042 -486.734741
72.995903 910.045959 -458.416565
44.653858 859.374207 -517.741150
-285.943756 633.922791 -476.901428
-74.582794 800.224426 -413.986389
-91.555016 792.623596 -374.146393
46.076038 884.091919 -437.847534
24.103071 783.881042 -697.677795
-59.313690 816.922668 -520.668335
-113.058060 771.763550 -386.554260
105.616425 926.196350 -580.185425
-25.146231 846.795044 -456.523590
-189.983841 724.316895 -435.256989
-112.090103 762.233215 -561.202087
-24.187441 786.488770 -686.200684
108.767952 911.024963 -608.209351
-274.277527 647.757935 -616.443787
-89.013374 774.151062 -524.293579
-154.354568 742.943970 -339.885986
-48.662891 811.226624 -675.646423
-216.800919 686.918274 -482.734863
104.762169 945.042175 -387.680939
105.739082 941.957642 -504.998901
-234.388657 676.268066 -411.855560
-220.922272 680.526306 -589.922729
-62.788982 775.904602 -697.718201
-180.170975 711.608459 -543.528625
-68.908485 820.876709 -458.788696
-145.865356 751.692871 -535.257690
-51.642273 799.160461 -606.711975
65.662834 913.928223 -487.676758
-196.623901 699.993774 -629.525269
-286.950195 635.837524 -587.996643
64.557922 899.883179 -552.022217
-317.966431 613.132263 -1020.380859
-210.845551 703.634827 -367.356262
-108.432556 767.726257 -371.257263
-178.020645 709.647705 -443.678741
17.009262 878.269714 -385.361359
-89.835983 784.745422 -519.018921
28.603355 839.021118 -701.601013
-231.888245 664.131409 -394.078308
-280.596985 640.614319 -439.653534
-274.635529 639.474609 -622.947449
85.875099 919.249146 -455.999237
-181.894867 712.354675 -636.256287
-248.386063 650.156128 -576.413818
-41.016945 792.686157 -699.273315
8.983853 834.241272 -702.363037
-245.417007 638.429260 -576.352966
41.764103 876.326782 -546.185730
12.823079 876.406616 -349.381805
-202.350540 681.906616 -392.096893
-25.461935 854.454773 -429.116119
43.922199 859.744690 -559.533569
124.002472 915.632507 -610.976379
-186.775024 701.482483 -356.283783
-107.594368 766.185608 -401.809692
-121.478806 766.934631 -432.001587
96.577538 932.642090 -422.096497
-280.222473 637.935730 -471.867981
-172.119415 721.801758 -461.108490
102.485130 949.946960 -380.017395
102.846252 946.479248 -438.871124
-53.353085 814.596191 -667.858765
-222.573471 679.082764 -508.115112
-78.612144 800.910950 -528.225220
-197.358749 703.437683 -455.555542
31.636509 851.412476 -690.681519
-153.613235 723.587280 -587.925476
-119.096840 753.299866 -367.454712
-15.459354 840.821228 -504.557709
-14.508696 848.772095 -398.031860
-210.568573 740.352600 -693.642639
33.136074 879.113159 -418.312286
-120.332916 768.605225 -367.972473
81.265793 929.949524 -371.376465
38.925278 892.421265 -354.197205
-0.295635 826.468323 -694.857666
-251.580048 645.790100 -582.066406
83.534042 906.912292 -476.456085
-75.872124 794.286011 -484.118073
-44.962540 797.110413 -516.355774
-93.564049 801.267700 -453.500366
-152.987411 723.150146 -578.648987
35.403435 898.780579 -346.723969
-237.905487 687.238525 -357.133026
-127.495827 739.865479 -610.616638
-136.883759 764.787292 -486.807648
96.045059 921.257263 -597.864868
17.424829 857.324524 -580.870789
-47.407139 837.180664 -425.053894
-145.255325 740.675232 -615.531311
15.776601 875.210999 -507.521362
-79.062088 789.631836 -523.468140
67.255074 911.323608 -547.095276
-45.980770 830.025208 -422.584290
84.301445 925.325073 -375.520294
51.634869 881.186890 -593.661743
-212.273224 698.524658 -476.064545
-92.288857 745.324768 -693.660217
-94.252136 787.842957 -452.427338
-132.274734 764.912964 -397.782410
65.000832 889.995605 -522.279968
-71.229828 788.037292 -577.115967
-21.396971 821.166260 -627.283081
61.739555 916.678406 -357.257202
-32.257011 825.822754 -612.542725
71.203423 914.993713 -521.310059
-102.976730 780.462646 -387.259338
81.119141 908.949158 -359.197784
29.837723 879.709167 -423.467102
-49.317585 775.108643 -690.632507
28.453497 825.260376 -697.365234
-132.420700 762.493286 -537.377808
108.659088 938.965515 -623.825806
14.889829 857.255371 -361.819427
50.947239 902.477600 -418.318115
-163.006790 727.857910 -513.536133
-79.319290 730.970093 -705.975281
41.680267 885.021973 -585.247009
-84.948967 790.700256 -578.265137
71.853920 919.564697 -475.598572
-225.171265 671.627991 -544.659546
-253.502884 666.825073 -433.837646
2.692302 848.330872 -693.711121
38.169548 871.927551 -631.767517
16.770193 904.151245 -700.180908
-196.168701 708.865173 -487.187531
66.519775 901.473999 -541.687561
-33.055969 821.965881 -638.799927
-122.649719 765.000916 -549.696533
-264.925018 635.561707 -476.734528
38.419426 904.696472 -405.334198
-132.344635 767.338562 -361.147491
-177.961121 724.556580 -596.393127
-191.655243 732.878662 -380.466431
-3.569904 827.210754 -507.269806
97.752205 932.079041 -636.050659
-243.157181 671.685242 -365.425049
-181.149017 742.689270 -396.378143
-14.992878 869.836792 -365.922455
-208.931503 681.634521 -568.481506
79.383476 905.219299 -529.765015
-137.958420 742.522400 -692.841553
-38.715046 835.611145 -417.433380
17.145561 781.470276 -703.527710
9.389321 838.671509 -680.363708
83.702698 897.370667 -648.314087
47.119232 907.348206 -371.659576
-25.967409 827.656921 -567.790710
-181.927521 725.671936 -497.266113
-0.858014 876.087769 -358.152649
-4.147190 853.517883 -547.143188
-180.595306 715.883972 -456.165222
32.439186 879.033081 -473.688599
90.727959 927.273682 -548.622620
105.341034 946.318665 -432.140228
-184.129120 704.014648 -640.005432
80.978958 936.523499 -370.138367
18.662725 858.693604 -618.356567
-33.224983 831.154846 -458.003326
104.714676 940.655762 -450.554321
-97.511353 770.882690 -546.252258
-157.252884 746.334351 -375.990417
68.456085 918.238403 -434.383636
-69.926414 784.163574 -584.379822
-235.225540 674.717102 -434.714172
-109.470955 723.313904 -694.933350
-84.350632 790.098267 -685.132019
-2.123662 851.906677 -587.496826
15.707493 860.816467 -541.610657
19.399448 860.368958 -592.037720
-22.772333 805.294067 -682.594727
-146.110657 726.166443 -629.802246
-296.101471 648.834656 -478.419403
-193.889389 688.830688 -393.013550
-4.083918 855.705200 -535.470459
-35.780888 835.731140 -542.426208
-30.969435 849.080200 -425.019409
-113.614174 772.748291 -409.210663
-174.296143 750.881592 -369.613617
-211.945709 660.805664 -591.974182
-265.454590 663.916138 -421.275085
-132.383148 776.084045 -387.922241
-260.379272 672.432556 -352.638763
-34.495052 808.168884 -392.221832
-238.060104 680.055237 -403.832855
-190.861603 732.883667 -388.272064
-238.173645 682.665344 -563.998108
-108.644005 773.443665 -580.062073
-142.035995 749.231445 -458.072357
-14.435777 868.289978 -677.549133
22.117468 879.594055 -442.016571
14.342767 869.447754 -427.634613
-186.588989 699.333679 -586.122620
-31.502386 828.246948 -660.516663
-48.515282 772.031677 -695.664551
13.046384 858.482788 -528.145386
109.554573 944.348267 -479.238800
94.137802 928.617126 -458.315704
14.136642 873.543884 -627.101379
-33.078930 838.440613 -494.253601
-20.168009 852.159302 -360.795135
-124.716576 758.038696 -474.962067
-4.598250 852.285767 -375.360931
-170.316284 697.020874 -361.679321
25.109926 915.973450 -680.128723
-159.901978 757.878967 -365.339020
-257.619171 670.917786 -401.911713
-52.141563 764.198425 -695.591919
-129.498962 748.241577 -630.870911
52.795025 889.343689 -631.942322
-216.600662 688.635986 -576.957703
45.287552 899.601929 -462.721008
-80.255280 787.301392 -661.748352
44.833736 885.870972 -350.745209
-261.793243 659.519409 -587.017639
81.400948 937.605042 -347.529449
14.458753 860.148254 -500.964783
-36.639164 820.491333 -541.932190
114.106613 944.537659 -464.794189
-10.085437 852.662964 -367.315155
-101.622002 779.542786 -418.172821
-3.966854 848.150269 -486.653809
-1.909416 828.238342 -639.887268
-261.993744 658.736145 -401.606659
-264.989441 658.562378 -438.787598
-124.970390 767.029785 -521.248901
-76.738297 808.589111 -526.197449
-57.657688 832.419678 -367.585846
-35.445221 810.808350 -675.936340
58.403725 893.399719 -583.570190
-121.104858 777.553345 -470.981995
92.294281 942.075378 -370.790833
-100.408890 780.181335 -668.820496
-135.014206 751.174377 -490.099976
-140.639435 753.539246 -425.222015
-251.546921 665.577087 -421.987030
102.984734 951.682983 -369.578430
-215.881226 709.229858 -423.093933
-26.739935 853.549011 -410.279327
98.737579 921.851257 -617.060120
77.832275 924.722900 -659.554199
76.986420 914.877014 -531.240540
-153.836136 734.092834 -616.700378
-117.064842 741.889954 -535.953369
-183.606827 717.329285 -442.546478
76.307480 912.291504 -573.376526
-109.946602 719.184814 -691.380798
-112.596832 764.238342 -624.137878
-7.735313 824.251038 -695.864868
-69.009720 767.563477 -699.596191
-166.839752 744.714417 -391.929382
-86.836876 771.785889 -611.334290
71.874199 925.768738 -449.752319
-113.719040 759.795959 -659.617981
-113.882896 765.198669 -602.284119
-258.959473 664.679688 -360.997894
108.852585 940.406006 -380.470123
-82.384972 789.124023 -499.578064
-9.138615 771.335510 -707.380981
-39.625340 826.028870 -558.791992
56.487041 906.022644 -394.762573
116.576630 933.778992 -616.147949
74.539780 907.189514 -552.218872
-12.410060 844.792725 -685.832642
-276.894440 655.184509 -427.132477
-56.198189 821.016357 -682.681946
-56.909645 802.071289 -574.248352
-20.548431 867.314636 -344.519562
-147.770004 743.198059 -485.637817
-29.010612 848.375244 -476.315552
-18.379440 833.099182 -645.746826
-245.744125 703.378418 -364.966248
-279.033997 641.167175 -534.584778
71.510933 910.444946 -522.765930
-211.685028 701.113953 -565.940796
16.634686 847.214783 -694.651489
-159.628983 752.216492 -453.675720
-37.964764 829.062134 -368.335815
-160.114349 757.927063 -360.136353
-25.678301 788.672913 -697.506042
29.861895 890.441345 -678.493530
-50.902660 831.507935 -343.129059
-12.219927 837.595703 -359.549042
-121.851418 764.264343 -615.842041
61.060467 905.624512 -534.121338
-131.809174 749.911133 -529.788208
97.262627 920.030762 -389.122711
-40.047752 794.833130 -586.373535
-5.153265 838.330383 -693.014099
-239.516266 673.797546 -522.982971
102.479645 924.582764 -408.602020
43.252506 889.158447 -385.886383
-18.279064 849.142395 -650.963684
19.877234 855.247620 -580.369751
-3.307484 834.656738 -609.446228
-107.530602 770.304810 -525.070557
-263.764221 651.394775 -416.618256
-75.338593 800.292114 -398.258911
39.122635 884.032104 -479.629242
-102.457504 759.673218 -602.565979
-94.175484 795.720703 -375.289612
-213.133621 704.769226 -346.613159
-199.590179 716.539001 -477.946838
-41.431568 729.561462 -693.651062
74.187202 908.755371 -486.061737
26.610132 881.654602 -431.910950
87.764153 938.184326 -346.389832
-215.814468 693.698792 -497.595276
-16.646770 841.235352 -493.272400
-24.689175 850.982666 -458.737732
-109.762787 769.191772 -630.983398
15.723919 874.982849 -494.401520
-15.990380 847.274353 -518.664185
-73.036842 786.900391 -392.247986
-108.160568 769.261414 -466.790649
-169.642365 735.137939 -517.366272
-45.076797 807.706543 -552.985291
-36.689480 820.742249 -500.018372
22.989946 847.928223 -502.334625
-258.890686 656.196167 -619.214294
-99.865959 778.044983 -587.329102
-57.202156 808.416321 -509.095001
-144.833633 731.840454 -672.983093
13.160826 866.315247 -454.904236
-231.186951 661.688721 -566.377747
-234.987350 673.707825 -502.697968
-9.392249 833.502991 -553.737305
-190.222656 732.777710 -390.932068
-290.006805 653.218567 -527.602966
105.062103 910.420654 -629.865356
-104.379738 780.915283 -465.229736
-119.282356 713.977478 -705.632874
-136.701904 737.282166 -566.807800
-172.337097 737.602539 -667.706970
-74.369675 774.679504 -432.243622
-14.355191 857.868652 -693.707642
99.887390 928.321289 -362.051422
-177.152252 687.605286 -561.869324
-38.338478 748.835388 -714.806091
74.554543 928.164063 -418.541473
-24.320017 767.599548 -704.606873
-35.783173 825.177307 -492.394440
4.938938 848.570374 -621.250977
-19.346577 854.637756 -457.514130
25.292604 884.208679 -473.829407
-169.239975 697.197388 -530.467224
-181.576355 743.036133 -391.329651
31.985147 890.532532 -366.103546
42.899387 878.802124 -580.261230
128.740005 964.402161 -590.899658
61.005043 887.981262 -599.103271
21.181293 872.745667 -567.391418
-189.080307 693.287598 -602.334167
78.730034 904.859558 -460.324310
67.292847 895.795166 -471.082275
-85.316872 798.460266 -426.142487
-122.868896 765.648193 -473.650421
-221.237167 682.836792 -596.742859
20.153088 868.843933 -389.515808
79.216324 928.474854 -484.832672
-11.491412 855.464722 -361.502350
-257.534943 661.544495 -371.081604
95.608635 950.636658 -393.849487
-69.635818 796.032898 -528.710754
-8.353093 842.572144 -596.884399
-140.597397 739.038330 -578.386597
1.785761 856.995605 -436.359711
-13.902387 854.877380 -386.038666
42.898418 889.749512 -517.049011
-211.905136 678.202271 -568.635437
-79.647209 796.827820 -454.362427
-101.692398 775.350708 -636.571655
-243.973190 693.390381 -419.694794
17.791100 869.421448 -453.228516
-149.495758 747.794617 -542.077454
-68.097443 814.700684 -400.537018
-128.310394 755.924316 -591.690002
-174.942703 726.026123 -443.564697
57.270027 891.420410 -560.476135
27.170549 876.786194 -645.618958
-217.569122 683.586914 -557.765625
43.327774 913.692993 -694.543701
-65.603294 788.151062 -609.418274
-141.556793 772.558289 -396.780121
-146.002747 749.194275 -423.639038
-292.705109 651.999756 -563.632263
1.631222 871.653259 -354.506348
-16.418612 845.406921 -454.525055
-136.796646 780.529358 -364.888489
-172.592850 716.904907 -557.881104
55.924431 900.504578 -633.356262
-104.999153 799.292114 -408.013733
-145.178253 734.689636 -580.760193
21.861698 873.826294 -601.530823
-254.256958 668.839355 -558.721191
-221.825760 715.443787 -363.067261
17.085766 883.585388 -431.906403
-245.733582 682.801758 -465.642456
-4.170663 868.907166 -707.566956
-195.200073 703.396362 -471.721954
-161.493637 737.060608 -461.271118
-273.398468 648.338928 -373.631958
-22.670568 842.733643 -432.665894
-181.190613 717.750610 -435.503906
-174.328384 743.570374 -437.510254
23.622227 861.384949 -577.771790
0.600771 793.318848 -709.105347
-208.422058 706.007263 -402.254517
14.548779 869.325195 -665.671448
-63.753731 709.766846 -699.410828
13.086939 881.260742 -408.510559
40.794216 876.555420 -597.940674
-180.220825 703.058838 -578.731201
-148.710739 746.739441 -391.234467
71.736794 892.726868 -539.837524
-237.018829 661.276001 -564.070801
44.498032 887.733887 -589.051270
-150.658157 746.424622 -356.127838
-210.699432 703.080444 -398.416107
94.787308 938.946045 -659.621094
-117.828690 746.868164 -698.607300
-190.797195 720.936829 -476.508331
-211.140793 672.491211 -542.732483
-71.486786 814.400024 -373.028870
13.923519 879.497131 -666.398376
88.100548 910.244385 -525.459717
-74.789856 797.921997 -496.939026
-115.007393 783.253296 -681.237610
105.653824 929.844116 -426.644043
-146.281494 706.115906 -699.735962
-18.991871 849.643372 -498.837799
-199.057648 710.222229 -382.587158
-185.481247 713.047607 -581.233582
-259.467438 653.455322 -434.580750
107.396683 935.541443 -486.679230
-54.093102 812.771606 -578.561035
-120.062477 706.163696 -701.655762
95.755180 929.660828 -430.469666
59.586758 900.685852 -530.771362
46.331734 887.483765 -647.187439
85.648613 923.876038 -510.403625
21.820513 880.790649 -479.247772
-151.593018 720.479736 -601.453308
-224.211395 707.069763 -382.828522
120.190544 952.542358 -491.105743
5.971247 853.237122 -550.402649
-226.415436 673.529663 -534.481079
-64.584305 815.025024 -422.775146
-117.681686 714.451416 -688.451172
81.562744 905.971619 -598.307800
48.889809 893.146667 -433.245331
32.768803 896.525208 -408.010529
-241.427750 681.540039 -348.968170
132.744629 949.752869 -627.766785
-120.428062 765.032288 -484.141449
-50.557011 750.135864 -695.038818
-70.828041 741.905823 -704.644226
82.882683 884.771057 -576.459595
55.938328 915.127502 -429.713165
-276.386292 644.124695 -586.830994
-122.589043 758.108826 -448.946564
10.373606 872.854553 -416.029266
23.302498 875.857605 -404.924438
-133.249313 735.153442 -608.618774
79.676788 947.219727 -679.276672
-176.666595 721.549438 -424.262604
38.863983 900.521729 -378.693451
-134.807968 755.171082 -385.540039
6.630133 815.751831 -707.988831
103.188370 934.487122 -538.220032
-246.436646 660.915649 -476.658142
-247.981461 682.316650 -413.619965
-147.540497 742.467041 -598.110901
10.956586 859.205078 -510.989349
-1.153749 852.440491 -426.444824
-268.102051 647.322144 -465.174774
-7.249423 866.912048 -414.207520
-42.203259 827.557556 -657.556030
89.922562 936.724060 -452.241791
-18.110350 854.170166 -379.763672
-35.443115 852.404297 -388.842682
-59.223640 812.639587 -684.027527
-125.064743 761.313477 -657.706848
64.075806 908.057617 -634.373474
15.721690 879.879211 -348.669922
58.241055 892.781067 -357.617218
-41.178417 810.045349 -611.788574
-109.722992 766.240845 -542.943909
89.526031 935.211182 -407.098907
103.234077 904.119507 -638.334290
-190.985825 700.937317 -572.494507
26.184013 804.568970 -697.604492
-210.863693 718.010193 -392.242615
42.569359 891.199463 -480.637207
-14.387159 860.823914 -458.954010
-101.619202 775.072571 -530.023865
-162.475143 712.006531 -617.428284
39.574295 878.414551 -685.005310
53.452450 907.120728 -515.258179
-205.069351 674.575562 -544.673157
-11.606219 856.997620 -660.887939
-121.050812 749.411987 -668.229065
-271.302765 621.949219 -612.282166
-254.147064 627.500977 -622.413818
-95.174034 793.643799 -354.293396
64.969215 876.490967 -469.636414
38.118649 892.103088 -406.901733
-6.826564 860.433167 -379.508362
53.437012 907.112793 -525.715027
21.696768 872.242554 -454.967651
44.949100 864.356079 -506.143860
-209.779800 719.022644 -346.077209
-9.210286 857.543640 -359.306488
-286.382477 657.597595 -458.337067
-116.723381 771.192566 -427.197266
-218.795792 696.050720 -575.415283
-8.013433 853.115723 -375.965149
26.188314 916.623535 -688.302185
-204.818710 662.500793 -602.351868
-83.203499 762.982666 -636.754822
28.349739 890.572571 -402.761780
-180.884964 715.042908 -476.074280
-167.982544 754.658875 -671.593201
-68.215851 799.223511 -604.781006
-23.894220 851.855408 -479.831512
60.508514 896.049377 -378.940155
-112.512085 748.753296 -692.804077
-236.491653 681.112549 -492.421539
-204.750839 667.648499 -529.962708
-198.392822 717.886780 -506.398224
-275.334320 651.704102 -381.175629
-122.919365 783.224060 -390.110565
-212.823746 702.699646 -423.277039
-190.124893 726.633240 -374.066742
68.381256 894.572205 -387.641357
-252.787262 663.181580 -563.356567
-238.289093 702.691650 -383.191437
-170.775146 692.211609 -607.902649
-31.616449 802.495056 -560.405640
-210.189316 700.574219 -445.522034
74.910751 897.479431 -614.766907
-87.834549 729.056213 -696.452087
-106.105652 772.727478 -449.334259
53.271996 908.610962 -502.662018
-123.502815 768.775879 -535.495239
113.459854 959.674133 -449.308197
-222.617615 665.095581 -601.077759
-180.492722 719.364990 -391.605255
-297.452301 648.044678 -363.811371
-2.748112 852.734680 -410.635742
-98.489006 780.185608 -493.546936
-145.069183 764.618164 -672.509827
58.037910 891.898804 -565.744507
-204.930496 698.408508 -451.539398
31.567471 880.468506 -375.183929
-56.199722 814.673462 -528.261414
-184.698013 699.011658 -477.492249
-15.037361 835.807190 -496.690552
-81.898987 764.125488 -558.629456
89.963028 930.538757 -525.980591
-167.331192 713.603577 -636.307800
-174.649765 715.765930 -501.158264
-126.358681 755.591980 -546.305725
-36.490105 819.737488 -539.983643
112.372322 945.828064 -496.515930
32.240314 863.103760 -600.361572
-85.751747 810.214172 -391.492798
-4.138061 866.318726 -347.562439
-284.906952 656.887573 -488.304443
76.859505 910.087097 -494.775208
-229.234558 668.266113 -560.788757
-167.495148 720.041321 -560.502991
-10.072259 854.328491 -454.964264
-91.467499 788.733093 -663.447205
106.331848 933.238342 -580.985474
61.930077 906.749695 -358.001801
-32.565567 819.795532 -679.134888
-4.909945 869.253967 -431.771851
-2.121243 856.806519 -447.141846
-55.350788 820.059326 -659.589478
31.838894 802.540405 -696.000488
80.586327 891.993774 -496.840424
-60.912815 796.813721 -545.137878
-99.963684 794.421082 -655.137451
-249.213486 660.460083 -597.638733
-58.642952 805.617310 -528.633118
-145.040283 747.454712 -405.462189
-266.412598 668.953918 -506.113464
94.457008 936.172302 -488.262512
-209.079315 700.520386 -358.668518
105.566422 902.494324 -588.876892
45.723610 907.492432 -371.519043
-19.254581 818.164307 -412.368256
-304.065216 654.451233 -368.472076
89.320251 930.949951 -458.600800
20.806213 871.467041 -449.931152
44.058701 869.295471 -387.575409
-268.665344 621.426392 -631.245911
-185.470825 722.659302 -641.427612
-108.863190 743.397034 -554.860474
-127.728981 741.112976 -592.759766
111.284126 954.208313 -619.156128
4.849259 862.398254 -623.959595
-193.320511 736.843201 -369.740479
72.756790 912.663330 -372.588776
-180.606003 727.372925 -359.628052
68.262634 912.403687 -506.567719
34.596607 815.010193 -695.344177
-270.959351 640.344604 -509.383331
79.060707 911.899841 -603.710510
47.816460 887.863403 -533.933655
-153.416687 732.948608 -549.844421
-0.512522 865.315613 -485.334229
-258.275818 646.888367 -569.943481
-265.188965 674.730469 -402.735321
79.795372 929.928406 -371.832367
-112.825836 758.523010 -665.218079
-24.832748 841.032349 -398.381104
-267.495117 648.934143 -398.252228
-217.905792 672.675964 -626.179016
99.394081 936.923767 -517.728271
52.742302 911.857544 -370.582825
-53.000839 806.828003 -560.553345
-57.709663 812.751892 -662.248962
28.741814 878.329712 -389.775208
93.178108 942.196594 -414.367737
-270.295868 650.738892 -635.326050
-89.046364 721.989929 -701.869812
5.735916 871.705078 -473.559509
-188.581268 721.973206 -370.817261
-0.337651 805.312561 -708.449158
-18.243410 791.184937 -681.932373
-71.758484 798.032654 -664.285706
41.099106 874.859985 -504.260712
63.908707 899.782166 -584.641479
-27.257130 847.563843 -675.127991
4.966202 846.609070 -607.400208
37.938004 887.791443 -476.821869
-13.209578 771.812927 -704.715332
-51.811527 813.030090 -542.991699
-12.064631 842.648560 -594.844421
-76.583099 806.803406 -483.701111
-27.484486 817.744995 -639.115723
-130.946259 773.488281 -423.986633
-204.838837 706.980347 -381.312714
-174.125778 739.019592 -362.547974
-57.400455 825.013245 -385.712677
91.376389 943.625061 -395.593292
89.534874 912.188110 -390.664185
91.907181 949.652649 -352.575989
93.185020 916.082092 -630.348450
21.722929 883.885071 -471.493988
-102.116379 723.772705 -696.202698
-166.755173 724.231689 -618.483032
111.201797 932.961792 -587.230408
44.471424 880.996582 -459.547607
-74.926491 785.215393 -594.381470
115.032883 935.803223 -479.946259
-28.417896 831.263489 -512.738220
-4.504293 849.323792 -582.839783
-38.329655 800.816101 -438.394562
-137.852783 768.782471 -424.615997
-111.712463 788.112915 -668.824158
-9.388589 883.902649 -685.901367
31.527779 905.094299 -688.794067
-200.655487 682.950989 -606.881409
-214.527374 700.564514 -367.625000
-150.801208 725.903442 -602.795532
-76.821831 786.126709 -677.645569
108.040085 920.747864 -620.919983
-130.078201 754.177368 -500.537964
-246.133362 683.486877 -454.284241
-61.443684 732.991516 -691.284302
-241.456268 657.537659 -612.463135
48.146618 894.064270 -547.429993
-126.659340 753.821655 -520.290588
-192.265808 698.383179 -541.612244
-18.101587 776.009338 -703.118591
-31.171751 764.342285 -701.433777
13.199473 875.410339 -469.947754
-145.381149 750.779541 -420.877441
113.533134 944.883057 -567.960754
34.933975 883.826294 -422.149872
-200.782913 707.916016 -530.249023
-117.673309 770.595642 -422.322235
44.413727 874.709839 -533.237549
-232.736328 644.859192 -587.153015
-140.353043 739.472534 -477.170685
125.074036 953.287231 -543.405640
116.247765 937.095581 -364.289917
47.458591 889.592224 -489.774719
-251.841064 671.418579 -525.679749
-45.483780 823.441223 -548.027893
-156.494003 708.747437 -435.126251
122.512428 928.188660 -554.273865
-60.118286 805.134644 -517.940369
101.147865 929.245178 -523.911072
95.831093 918.918274 -367.186707
-286.526672 650.853821 -374.735626
-161.781555 707.008606 -506.301178
85.519577 909.094055 -544.544983
-176.211731 702.916687 -601.973267
-86.530357 744.278625 -705.522583
-195.032898 692.542603 -565.966614
-135.288177 759.485718 -430.146332
-163.182495 726.691101 -692.439148
-258.317902 648.955566 -573.222778
-66.673576 803.551575 -522.755981
-97.887909 772.826599 -509.051392
65.407761 917.031555 -348.464417
85.704414 934.418457 -454.269989
-68.761635 818.191528 -487.330780
-107.278976 787.175171 -367.584320
-0.406107 875.028259 -343.267395
-83.321701 790.366882 -520.274902
14.792923 904.229309 -706.248718
-91.659752 733.356750 -700.775391
29.641720 905.163330 -355.730164
-144.566254 763.783936 -449.649475
-152.107544 732.396606 -511.681000
-242.856064 649.637207 -523.417664
-120.428253 776.647705 -448.932587
42.378643 890.297485 -415.342163
63.774677 913.304749 -353.024384
107.722610 908.022339 -639.065308
-3.089070 852.371033 -405.184570
-147.565918 757.775269 -465.864563
-184.126633 711.799866 -471.851776
-112.640030 724.026306 -699.684570
-138.813721 758.046631 -652.333069
39.013199 859.316040 -694.578430
43.452881 886.021545 -578.030823
125.381554 921.179749 -432.665344
-84.547890 791.824341 -631.276733
-57.443855 768.377930 -691.696472
-174.042145 718.938721 -612.334534
-255.250000 637.100037 -584.318481
60.461369 901.125000 -536.282837
-69.044350 800.024170 -406.458191
-86.980843 759.368164 -569.056030
-30.933361 843.242126 -409.539215
91.036400 936.218750 -445.388092
-37.109272 814.171509 -617.713684
11.095313 871.813171 -359.208649
-250.609222 651.267395 -584.987366
-25.701176 834.879211 -425.839264
32.406704 873.150085 -645.037476
102.603111 931.574463 -489.917633
55.804020 912.344116 -422.335144
-84.457909 776.878906 -684.320557
1.603240 852.932983 -501.139954
-2.600755 850.046814 -504.900513
59.713261 921.283630 -366.380157
-58.250652 811.324280 -461.220428
12.234333 870.030273 -532.341431
-100.181099 760.042480 -469.708832
-66.059059 818.644104 -503.702667
34.450535 883.335266 -416.537201
-30.164843 858.646484 -348.480194
-63.003792 781.968079 -446.228729
36.428165 866.484741 -600.059265
102.297874 940.356873 -499.612976
87.710365 931.028564 -411.513275
-21.259995 849.511841 -392.770782
31.834404 894.295776 -376.266602
-165.708588 753.317383 -346.842560
-57.216419 815.163025 -434.767670
17.069708 870.599915 -422.956543
53.562740 908.348083 -420.013184
-189.012985 676.446472 -590.366699
-204.109131 686.858704 -469.151672
-131.552673 759.418335 -537.850769
-53.093739 753.347290 -699.057251
-10.553781 845.282593 -539.941528
-53.308681 823.551270 -551.995422
-214.812561 668.031433 -550.075195
-33.901066 816.383179 -403.493439
84.467491 934.084412 -394.484833
-185.473969 740.006714 -391.785553
-51.763561 817.723328 -398.938354
-77.717003 775.178406 -583.781250
-75.543076 793.016602 -553.871704
-0.982957 782.655762 -708.767700
-180.415680 715.027283 -614.434875
-181.779083 714.653381 -513.025513
-23.109419 844.263489 -476.972900
-48.184620 795.092346 -490.425323
-16.522753 832.267639 -591.228943
-137.362930 736.675171 -641.072083
-21.730751 841.085205 -454.071777
-43.175175 824.974182 -609.648865
-77.303696 809.237549 -354.347931
-85.672935 810.220947 -393.125824
34.851170 923.494019 -692.052490
47.963551 875.361877 -369.077057
-191.513351 688.030029 -430.830048
8.034260 824.307129 -707.699707
97.223549 929.105591 -466.814087
-67.413330 816.598450 -678.973083
-37.734581 768.861877 -707.561401
-159.095978 745.338623 -481.730438
-58.849003 737.356628 -697.824219
-158.029495 735.890503 -421.720367
-166.133713 740.260986 -369.065552
-254.999664 656.359009 -540.539063
-263.507294 670.950989 -492.720551
-94.523476 800.247498 -440.536499
29.342529 869.009155 -475.747833
-272.132294 629.588562 -622.997070
-93.854202 745.603333 -702.706970
-118.428940 737.401611 -692.052856
8.081616 854.265076 -475.232513
80.485298 924.099976 -453.634094
37.760151 898.222168 -351.584778
-90.255226 782.517761 -500.074524
-172.937531 722.158447 -471.342133
-262.447601 658.785339 -523.535828
-26.562822 855.591431 -388.278107
-235.301193 693.119934 -454.667664
-67.829651 793.211914 -368.652649
64.333801 884.883179 -385.705963
-266.118103 639.800293 -532.214905
-131.377731 736.826416 -599.987610
-102.943253 783.402161 -574.872803
-49.805981 804.320923 -691.212158
-0.848021 872.752014 -693.824097
0.373472 856.995117 -631.787354
89.289986 927.978333 -496.832214
-108.581947 792.117554 -403.342896
-30.940731 844.866638 -390.742645
-266.626465 661.373535 -525.434143
61.169334 899.018616 -636.154480
-134.050903 702.444458 -697.869141
-129.524857 738.281677 -562.078491
-158.385880 751.654724 -361.778198
-281.974945 646.066223 -470.379822
-141.924088 742.776794 -541.835999
-109.722603 767.177429 -621.781006
-48.135414 788.214905 -688.180115
-80.368179 803.503296 -507.106354
-233.841660 654.937622 -397.837891
-14.881487 844.586731 -468.064606
-146.099579 729.144226 -358.305786
-234.330536 695.927551 -343.688019
-178.846375 741.364807 -696.438232
-84.916023 797.692078 -404.501526
-278.997314 629.201477 -623.520813
-13.814644 755.728271 -707.621521
103.017448 927.309021 -579.259155
-159.853989 721.356689 -581.970276
-171.982010 727.227112 -430.658386
54.284985 897.004517 -518.163879
-2.728299 824.983765 -553.679382
-196.529358 738.625916 -698.969849
-52.545422 804.698792 -662.674622
-82.970818 782.800781 -689.449280
-103.869919 794.906738 -419.201691
-65.131439 815.039795 -489.046692
-30.433369 835.651550 -649.397705
9.730070 832.354858 -591.652832
-223.321213 670.760742 -406.564545
-101.745964 773.218079 -576.750427
-154.101517 718.664978 -616.773499
-38.771145 824.456787 -680.783997
-53.952156 820.107483 -523.221191
-36.916473 848.145142 -402.438568
75.132835 915.445374 -544.100952
-70.842400 808.096497 -433.678101
-276.696747 657.575073 -466.522552
-89.112190 778.735779 -472.313690
-16.183794 850.080017 -501.691010
-266.989471 645.575745 -562.343506
-52.023064 817.593994 -393.666046
-103.458229 738.574402 -698.956421
2.671596 832.925659 -513.821533
126.132744 951.611877 -470.480469
53.732792 875.220581 -484.760254
-216.504120 697.197449 -460.028076
109.775894 956.332031 -422.373810
-289.876160 642.688049 -523.265869
-42.424126 832.189575 -654.564270
60.944344 895.818909 -570.907227
111.188271 941.093018 -557.638489
-116.803871 774.251038 -644.527039
-260.930664 659.892273 -365.376740
28.835571 891.039856 -702.110535
107.435867 943.084900 -503.895691
47.730450 905.590271 -393.024139
-141.430496 778.229248 -372.018219
-266.439545 650.437622 -518.015381
-53.550056 783.803833 -703.635071
3.828985 871.829285 -359.278259
-144.698380 729.530090 -691.258362
-302.295135 663.097717 -354.605804
-52.413387 736.070374 -692.067017
92.413704 917.305725 -360.379333
40.814693 871.207336 -568.964417
-160.391663 746.951111 -690.524597
-9.191776 869.619385 -354.257263
-238.024933 683.313232 -498.789673
-232.620743 675.982849 -635.942139
16.476467 873.885010 -414.066132
45.879871 892.871399 -368.409424
-83.611351 806.784180 -667.318665
-64.760078 813.622192 -683.021667
-250.655029 678.835999 -674.935791
-98.691460 793.956238 -482.785034
-254.367798 675.192871 -473.299866
-0.876555 879.017639 -702.910889
-83.311066 798.605225 -646.587158
-93.871223 787.551636 -457.808533
25.648039 889.272522 -351.701782
-193.680954 716.985657 -418.395233
-160.997940 754.621765 -386.693573
8.804424 845.014587 -560.034485
-85.808998 757.254944 -694.656189
-203.556122 701.160278 -508.815491
-43.020664 850.156799 -364.571594
-11.439724 818.898315 -689.572998
-135.151566 739.007263 -695.478943
-40.662151 829.275940 -529.237610
-37.358639 816.574219 -529.681030
65.704430 897.046265 -583.822388
-107.978638 789.657654 -480.178619
-161.998245 731.489502 -441.438568
-154.619812 742.364685 -373.178192
89.385979 917.076233 -595.796997
-179.367706 726.467163 -513.169434
78.873322 958.505005 -684.207764
-4.457568 857.600891 -545.291016
11.555257 837.621948 -618.493469
-0.274850 859.325806 -367.713409
-141.804077 777.171875 -348.998596
-56.821796 806.825806 -463.094360
16.589338 867.819092 -373.071594
54.965263 913.550842 -373.084717
-103.998817 726.066162 -705.872131
100.692764 927.645691 -508.322296
-268.164642 644.534363 -430.157715
-69.094597 791.091064 -685.946960
92.839645 932.977417 -460.073853
-22.828003 795.539673 -685.046021
-105.762260 742.635010 -703.539124
-211.124939 703.709839 -382.975677
11.766102 792.673035 -712.637329
-8.422771 860.516602 -369.739380
-162.341675 732.300476 -431.117157
-10.680920 853.944275 -504.188354
94.652794 899.125000 -528.841736
-188.053772 693.173645 -598.420349
-228.240631 675.437500 -515.473022
-242.270325 658.862244 -653.444092
-70.783913 795.759705 -449.950623
75.427269 910.712219 -548.380371
117.864891 961.344666 -617.190674
69.886520 900.701355 -469.469177
-166.697922 712.213074 -515.052307
105.672089 942.895813 -456.880676
2.527309 850.757935 -547.469727
-27.042480 827.434814 -516.103577
44.626495 869.418640 -623.897888
105.433945 936.841248 -464.835541
19.688025 896.776367 -706.795837
-148.333755 743.759460 -663.269775
-249.062057 672.030151 -403.534271
-35.952522 830.017456 -535.195984
-52.638550 826.298706 -398.938599
-115.584122 769.727417 -576.005920
-147.851013 731.775574 -485.319366
16.025331 839.930176 -543.132996
-26.907896 838.904785 -419.531921
-99.196304 772.805542 -564.670776
-177.999451 734.042908 -700.211731
54.092537 911.514709 -433.716003
-54.642433 811.504822 -482.266541
-292.660278 646.094421 -409.828674
-261.651581 671.423767 -357.583954
-144.584244 765.386658 -680.870117
-93.555962 788.049194 -393.871124
-6.557594 766.277771 -708.183044
-27.816807 845.639587 -441.661255
21.981918 841.612122 -705.520386
58.153622 899.153625 -438.765137
-166.826004 748.222900 -403.029999
-278.583130 655.744080 -661.921021
31.573576 858.179443 -617.851501
-103.313766 782.674561 -436.174133
-270.547668 662.896851 -428.531158
32.465714 868.367432 -588.130249
-124.799530 769.285278 -524.019897
-108.561005 750.681396 -685.884399
-130.917252 710.908813 -699.562744
-105.545410 779.615540 -588.708252
-260.463745 662.812500 -362.681732
-70.341240 764.782898 -697.906799
76.162148 912.879272 -349.740753
-199.414398 699.656006 -481.853363
-2.393077 888.961243 -697.093567
83.774155 921.775757 -412.744293
-79.682701 747.995300 -681.646057
-92.712311 778.616882 -527.210144
91.592766 935.915405 -462.965912
7.411009 863.648987 -539.354065
107.555870 935.720459 -470.581604
101.651245 914.824097 -590.734497
57.594116 891.133423 -604.822449
-109.759438 759.173706 -553.336609
50.961510 897.621643 -483.001282
-67.994209 808.217102 -482.089783
32.015934 868.341736 -633.108948
-168.288345 744.930176 -468.643127
8.735403 887.291321 -368.071869
-46.845181 820.397156 -559.184326
-195.655823 719.885681 -437.741760
-127.883636 779.143799 -380.942566
-88.240891 804.325256 -463.416504
-99.369019 776.499512 -469.527344
-20.997587 847.694763 -362.187378
-166.417450 728.353943 -456.937500
12.040844 877.844055 -461.786682
-40.509724 836.400635 -516.098022
-187.243134 691.666260 -625.553894
12.739672 806.763428 -701.063904
25.512493 863.367981 -557.443970
-64.892731 824.496155 -381.256836
-174.111176 741.747742 -413.200195
96.416939 920.653503 -400.620605
-49.222641 762.734253 -703.765503
37.394634 885.655212 -530.364868
33.493134 888.525818 -537.937622
-40.452530 826.044006 -650.877930
-84.354210 803.566650 -496.479065
-113.735649 789.030457 -376.078857
-43.983139 843.589600 -416.032837
-112.264412 771.007996 -686.640259
-76.348251 811.431030 -380.273041
-71.459084 822.527405 -419.407806
-110.770500 796.201477 -349.208466
-51.646366 820.313782 -420.847473
61.278084 914.087402 -643.528198
11.870807 864.185791 -523.400024
-61.481476 814.755005 -371.339966
-241.237732 683.100037 -475.776794
11.161588 869.170532 -513.986450
-152.492844 744.120239 -380.924225
-172.763596 730.830505 -536.055603
-260.304321 654.423096 -431.918854
-131.453415 754.883545 -437.559174
83.761681 911.764526 -609.478027
-27.860888 842.621887 -451.851105
-100.657806 753.248779 -640.098145
-107.383194 757.689453 -566.258240
-245.605591 682.745300 -441.791168
-27.661238 834.511780 -472.388245
-160.218903 744.929626 -531.554565
-266.382629 662.869995 -556.647461
-142.736664 732.909790 -482.238739
77.660622 896.561707 -576.207825
83.415848 933.781311 -444.583252
-30.705200 832.281799 -415.247467
29.503437 869.486755 -561.561951
-163.183716 751.420593 -397.955750
-27.079758 803.737427 -600.351196
-68.234985 804.957886 -474.954834
-108.356743 764.385254 -556.892395
-181.924820 710.347900 -400.847534
87.566597 925.726196 -391.725647
4.664060 860.359680 -454.816925
74.729446 921.882324 -433.808838
100.047714 937.451538 -405.635284
98.013260 930.976746 -532.702332
-43.397713 832.680786 -372.463074
-188.532120 728.114075 -438.850647
0.086508 845.465698 -571.081177
117.191475 951.805725 -550.138489
-103.763412 798.789063 -418.242004
-232.727936 655.637939 -402.852875
83.261742 912.590393 -584.204346
-15.670598 848.268311 -408.879181
-162.805099 732.802612 -468.381073
30.880154 885.947754 -446.738037
-71.074516 806.516602 -400.461212
71.422607 925.978271 -668.726379
-90.201866 797.550964 -409.452881
-23.592546 837.404175 -570.705933
-0.218956 849.937927 -653.474487
-60.179619 786.561279 -694.722290
-77.040985 780.722656 -424.813965
-48.071941 831.566711 -362.979736
-1.151136 870.161133 -348.895935
-37.516178 758.527161 -715.021729
-204.426254 717.825195 -423.186890
-255.807938 666.641174 -398.054565
-143.401581 745.443604 -505.245728
-264.146240 668.218750 -485.965271
32.997051 895.702148 -356.828308
30.296387 873.952576 -633.254150
56.495590 914.096802 -427.404907
73.181877 929.885315 -396.588196
-35.750427 832.072083 -535.023254
98.800880 931.032349 -428.265686
-240.248795 672.575378 -592.395691
-81.575256 815.084167 -349.798401
-98.588203 766.669250 -407.759155
-267.471985 675.080139 -399.283112
-16.965509 833.123962 -561.454834
-121.814438 771.447510 -654.301086
-41.130821 810.946167 -403.047028
