ply
format ascii 1.0
element vertex 1368
property float x
property float y
property float z
end_header
-529.395142 -420.203369 778.168823
-244.598541 -454.724792 712.698425
-319.686371 -333.758636 876.387146
-155.728195 -446.549500 677.338745
-382.938721 -302.248901 926.211426
-389.248566 -492.193207 722.501404
-306.771606 -572.131775 638.409485
-142.460709 -504.783752 590.547974
-337.448029 -464.711090 761.160339
-237.942963 -471.576782 689.231995
-213.256805 -490.050781 658.660950
-479.857574 -377.964630 903.702209
-239.061874 -218.521042 968.740784
-268.187134 -487.378845 703.978699
-122.291458 -524.780701 614.779175
-483.726868 -532.316040 716.837646
-239.621552 -323.595886 849.131226
-446.950562 -367.327148 878.997620
-299.868011 -320.112976 881.460205
-272.286377 -338.756104 860.137756
-206.603561 -387.291504 767.456665
-295.449493 -501.050934 690.928528
-243.615112 -302.676697 879.513916
-328.913239 -312.450653 910.328430
-190.597672 -327.943848 813.171936
-342.110504 -515.433594 706.528015
-510.895233 -434.373566 916.369446
-306.062958 -521.555054 671.135498
-340.611908 -446.626373 739.454224
-360.570435 -567.339294 634.737549
-258.573578 -329.880798 870.089417
-312.963318 -564.109497 603.369202
-427.074829 -477.539368 794.261169
-299.209808 -420.099274 754.256226
-427.452606 -564.334595 722.969543
-416.800751 -502.842010 750.424133
-482.916534 -521.510803 729.458313
-485.979889 -538.721741 709.825684
-366.775635 -281.109497 919.639893
-182.520676 -485.064575 619.398438
-327.045868 -537.501587 656.106201
-456.291626 -568.905518 700.920837
-268.483765 -382.935455 768.299805
-447.223145 -428.378662 854.106201
-457.135254 -556.878479 731.465393
-263.773010 -492.847168 677.953430
-345.847260 -267.856750 957.721436
-475.528503 -485.880981 803.208069
-483.667297 -312.650452 981.691895
-361.708771 -427.283020 795.659302
-255.674698 -414.137512 766.654480
-326.203217 -275.106659 927.930786
-408.955627 -328.520447 938.940674
-273.590729 -363.720856 818.618347
-259.532562 -498.553284 672.929443
-354.406647 -336.949554 906.477539
-400.534882 -287.047913 933.663574
-343.989532 -323.553436 866.438599
-480.800995 -537.409729 710.571960
-179.885300 -349.274048 810.929382
-317.144287 -430.422607 774.662659
-273.764404 -428.836578 750.005066
-230.107880 -439.429626 720.548401
-380.240326 -416.035217 815.271179
-392.382538 -474.830170 772.575867
-360.694916 -271.182190 976.651489
-134.651962 -478.795929 664.335449
-320.269043 -302.936951 917.124084
-520.632813 -443.667725 858.476563
-460.664063 -543.351318 740.948181
-225.479996 -364.556976 817.785645
-202.816269 -389.129913 740.592346
-202.186996 -278.776184 888.576660
-438.904053 -339.063477 896.336975
-454.087036 -513.573669 770.113342
-260.774628 -315.739716 861.866089
-304.867859 -462.560394 728.436768
-202.566467 -321.843842 848.240967
-423.941406 -538.540894 693.034363
-357.773193 -395.911102 846.727051
-169.398239 -383.462402 740.962708
-204.556625 -374.831268 788.916199
-417.616730 -437.835480 802.459106
-231.046280 -376.388123 810.888000
-463.112915 -426.577087 868.763489
-250.819366 -471.052643 698.626526
-493.669617 -512.170227 687.068054
-239.033463 -480.691284 700.907288
-282.450958 -519.616577 659.093872
-205.867752 -508.692871 632.877502
-408.078644 -310.325012 945.889282
-337.134918 -342.837402 880.264648
-262.638214 -517.504028 651.131653
-301.771820 -289.541992 904.238403
-200.363846 -408.772064 724.178589
-303.506470 -532.694763 669.342651
-452.375977 -459.451965 810.771851
-511.398651 -462.533783 889.179871
-211.707779 -276.982269 905.199280
-404.994446 -415.669006 837.958008
-316.587036 -392.032135 821.384338
-229.588058 -265.187408 925.252930
-298.607208 -277.435760 943.921204
-412.162476 -323.692444 921.553528
-356.837250 -554.801575 676.801636
-182.014542 -518.052063 626.851929
-347.711334 -303.378845 929.239624
-229.973068 -228.660095 952.156555
-527.928589 -444.939758 835.861633
-508.821198 -450.394989 780.186401
-471.245453 -518.225281 788.785461
-249.153473 -293.813385 899.468262
-467.369141 -416.878235 884.489441
-172.336746 -443.270935 689.598999
-289.048615 -298.790710 905.418762
-360.987457 -377.366455 867.476257
-510.738861 -490.275879 739.983826
-382.439178 -489.458008 749.558960
-98.644524 -521.459351 603.551208
-334.767334 -424.975677 785.085449
-186.509491 -357.770538 772.356262
-467.917816 -451.500702 802.922607
-289.414215 -271.864166 934.791199
-296.931580 -540.508606 623.232849
-138.286972 -513.547974 605.634155
-521.353638 -447.094971 860.703064
-241.288620 -489.154053 656.098328
-183.772842 -525.950623 601.670776
-265.940918 -423.506012 754.762146
-224.050827 -284.382233 896.284912
-376.434021 -353.266205 898.311218
-395.177002 -603.421448 622.979126
-300.630157 -538.500305 644.280334
-385.767700 -382.035522 853.409485
-468.427582 -440.886108 849.607666
-511.695801 -458.766388 889.625488
-374.323120 -544.460022 683.604736
-350.098114 -553.123474 666.111267
-455.372284 -314.488953 963.385681
-452.458282 -321.603424 962.068848
-209.818542 -348.409454 823.754456
-221.921051 -328.138580 804.347534
-267.007751 -516.535645 679.010071
-230.639008 -562.415833 603.803772
-512.885925 -387.743164 961.244629
-265.961639 -392.315704 811.234924
-279.455963 -302.400909 896.715332
-239.612747 -398.683594 789.131348
-519.021545 -385.392487 960.429199
-304.187836 -427.958984 768.040283
-307.001709 -265.100067 954.366516
-293.585663 -453.650024 740.227295
-382.875732 -602.523926 630.958801
-391.494873 -362.391449 881.751160
-324.992035 -513.437317 702.100159
-355.954498 -408.868073 806.593689
-520.583496 -465.581085 750.737732
-193.728210 -494.173920 614.216492
-515.370117 -388.863068 955.556946
-524.502197 -416.386017 983.531372
-222.624802 -486.868713 682.782776
-306.475342 -438.932159 756.139465
-378.425751 -500.320313 737.433472
-289.396179 -567.671997 592.832092
-250.740204 -513.702637 675.253784
-381.344879 -400.527100 844.102356
-290.487366 -465.043823 723.873047
-237.618713 -284.010651 904.296326
-190.884232 -364.399963 785.699646
-359.277557 -409.274841 788.048706
-206.339294 -354.438171 800.164368
-201.287766 -507.179810 635.460938
-421.539520 -315.529785 954.753113
-460.420624 -591.133789 721.993530
-154.263077 -419.015503 711.046875
-362.774536 -432.224976 790.802979
-458.046570 -388.265503 894.872620
-249.576080 -264.289642 927.776733
-493.393433 -434.036804 834.739990
-512.979614 -342.206848 983.351746
-425.195496 -360.025879 897.551514
-283.604584 -504.773010 674.107361
-288.069305 -478.015259 711.176270
-392.141205 -549.182190 660.077637
-169.661255 -384.760376 762.731506
-205.891129 -343.120667 818.648987
-530.528931 -430.510742 802.124573
-357.022400 -343.038635 852.854614
-518.227844 -439.687805 822.695190
-213.386703 -326.193573 842.094666
-326.229614 -526.020508 695.021545
-216.692413 -422.295776 740.177612
-328.937622 -340.348145 877.477905
-250.054092 -507.069702 674.419678
-275.634949 -248.152832 945.283875
-225.852982 -539.112427 632.440918
-161.566086 -539.640442 596.898682
-423.035645 -364.410187 876.008301
-384.469391 -486.990784 755.119812
-354.226196 -320.875885 880.022217
-301.282593 -584.579956 577.492188
-233.429443 -261.856903 911.938721
-253.021255 -372.583649 809.916931
-274.519196 -377.566772 814.208923
-363.100006 -399.133667 831.747559
-353.698669 -382.630249 813.356995
-215.136917 -268.016846 904.545410
-412.547882 -433.951996 809.699768
-169.022003 -495.306915 653.194397
-222.680786 -277.620911 874.808228
-148.692123 -516.181274 579.222412
-357.722565 -589.871704 617.995667
-320.297455 -570.390808 618.108826
-206.710938 -302.519867 870.214844
-390.083008 -489.177368 755.096802
-276.448944 -489.376038 695.180298
-203.768463 -436.380493 727.891113
-526.637634 -445.486969 804.472778
-370.143829 -280.495880 959.310974
-306.105225 -318.080505 906.096680
-201.974579 -439.986084 728.821289
-385.057007 -341.095551 904.876892
-341.982147 -344.543152 870.909790
-471.764679 -427.056396 855.317505
-442.162689 -306.433502 968.101563
-252.957520 -399.425903 782.044922
-228.476700 -463.529388 669.670593
-162.467926 -415.103729 736.828125
-326.971436 -533.131653 661.491211
-339.753571 -594.068542 622.824707
-418.382111 -455.559753 810.930664
-412.651917 -337.273224 924.516418
-300.856293 -447.403351 763.737122
-376.281738 -394.898468 829.483521
-236.197723 -264.961823 887.923523
-273.465485 -453.772980 743.559692
-293.748260 -437.082184 772.990479
-198.046600 -305.080658 866.784363
-288.950989 -580.780334 601.989014
-298.871552 -394.971222 802.405579
-448.974792 -373.014191 892.677063
-113.398651 -522.332092 592.218506
-454.967834 -375.574738 894.992493
-333.324188 -481.971680 741.610229
-473.205658 -516.722900 775.688171
-352.619171 -470.215851 758.531433
-373.135559 -523.589417 691.098755
-424.668121 -432.029968 832.750977
-283.780823 -485.234070 700.716125
-502.565704 -493.844299 696.137695
-238.642609 -368.647339 810.100647
-210.666901 -347.703217 801.749023
-369.320587 -449.300171 781.607483
-435.032623 -449.436005 807.956604
-341.805176 -484.216431 728.372375
-448.036316 -573.980774 715.667236
-283.138245 -424.497498 766.908203
-409.227844 -388.122406 868.759827
-168.180344 -393.810150 745.613647
-497.890747 -491.231720 747.634460
-260.349274 -241.909927 959.566895
-472.342804 -403.772919 878.963257
-367.651581 -290.280243 910.748230
-243.668076 -350.253845 819.005981
-252.205139 -227.112183 958.277649
-399.463715 -277.858276 976.196655
-224.505646 -422.506439 722.667969
-450.409912 -467.046021 801.333191
-229.817657 -281.321808 907.808472
-493.785828 -498.245544 712.675415
-327.983185 -351.117157 854.395203
-486.776886 -349.972290 965.291016
-257.006409 -368.097992 789.009521
-450.267395 -319.658081 949.484192
-230.025391 -327.669189 859.040527
-530.036987 -432.551147 834.195190
-281.600433 -421.251251 772.360474
-376.573914 -524.219177 718.010437
-354.651276 -530.934875 701.789063
-473.850311 -501.887695 776.786865
-214.357101 -253.458023 926.459167
-403.558563 -546.725342 694.994507
-275.289276 -528.564087 663.589600
-455.796875 -506.146393 757.979919
-519.398499 -452.796234 819.379333
-315.495361 -531.768311 684.506958
-139.116043 -481.998138 633.240112
-314.178314 -261.576843 949.091309
-510.906860 -446.495544 926.584900
-242.095169 -338.657990 851.785034
-422.792511 -494.726715 749.991272
-507.717316 -374.100372 943.766174
-255.779083 -318.923126 874.243286
-176.004654 -491.541718 639.852173
-523.906860 -449.266235 823.354736
-341.042877 -279.240784 956.842896
-318.475555 -412.402252 810.593933
-385.108643 -326.739624 922.681091
-230.753510 -352.799896 834.357910
-385.276855 -627.818787 612.025085
-252.509705 -278.642548 922.443176
-423.378235 -302.754974 970.313965
-277.650848 -277.325378 905.570740
-352.150513 -285.993439 954.970703
-394.368317 -331.544159 913.506287
-389.016602 -400.766022 837.879639
-222.782288 -427.970093 724.344910
-194.766647 -303.795013 869.062866
-235.072174 -274.240479 877.644836
-338.340149 -462.279846 751.179932
-155.284805 -487.136871 665.596741
-141.060532 -477.459473 668.511475
-209.411133 -268.923767 878.084839
-368.010040 -323.020660 904.549072
-418.745361 -329.601349 933.625549
-321.014740 -333.309235 890.411987
-202.631134 -311.572723 859.462402
-460.875732 -326.683380 944.884216
-215.766571 -448.314331 705.031067
-455.695404 -462.732361 815.450134
-339.256531 -313.692719 895.909241
-493.298981 -495.557434 718.196289
-123.674438 -505.963470 604.908630
-381.995819 -505.270264 717.075134
-420.401550 -446.065613 802.381165
-219.063309 -431.860046 743.640564
-279.022919 -412.865021 771.807739
-285.797699 -506.853241 693.134338
-357.726318 -271.018402 946.509827
-164.768814 -549.633728 603.608459
-504.366180 -457.558838 817.582703
-423.847931 -458.884521 787.697815
-356.999023 -440.390869 799.920044
-188.557892 -365.400299 779.222717
-392.930298 -537.338745 684.183044
-245.858658 -318.350922 827.157288
-513.348389 -443.723999 865.714539
-131.931503 -519.806274 626.579529
-221.925522 -359.786438 821.418030
-324.528625 -444.907837 776.009827
-238.375153 -544.475525 623.204163
-292.434906 -484.550140 699.447144
-247.119385 -255.236771 932.368835
-206.163376 -356.857117 805.017212
-182.838104 -361.762024 793.437988
-259.607880 -477.097626 692.680054
-490.054169 -450.518219 845.132813
-365.705261 -400.853088 837.773926
-310.379333 -454.838531 764.235046
-250.870972 -393.434631 783.596619
-342.951843 -536.685974 670.739075
-214.661926 -315.224304 860.285461
-348.343140 -287.200623 927.008850
-396.657990 -546.021912 658.819885
-337.000305 -277.613403 956.228516
-211.530121 -537.421631 634.263977
-438.766724 -556.692932 734.106262
-311.995392 -315.816345 891.550964
-300.252106 -485.053009 707.151184
-417.847443 -453.294403 801.665894
-523.369446 -467.369324 789.602112
-376.064667 -611.320923 595.230835
-176.945831 -443.904663 682.452332
-440.311371 -341.047668 930.530640
-313.513428 -541.170227 618.781128
-377.891235 -651.270386 598.406921
-430.664063 -322.753113 945.134338
-245.126572 -330.262207 845.218811
-254.688766 -276.844574 892.034973
-225.885590 -399.428589 765.440918
-254.886307 -233.037720 958.821472
-239.640732 -435.577484 750.287720
-446.230347 -575.698303 718.143799
-399.883179 -287.408569 939.743835
-326.555786 -274.529022 954.891907
-408.424774 -347.320007 921.993164
-163.941391 -429.155151 702.461975
-466.663483 -343.215057 905.130371
-376.186005 -329.634796 926.112915
-495.796936 -483.052185 768.463623
-219.399384 -517.935608 615.826111
-361.103485 -536.403870 681.638428
-196.653015 -328.691956 831.099792
-191.286987 -455.325195 674.134827
-238.643173 -390.919647 785.094849
-307.713898 -394.781891 809.762085
-467.161163 -330.278625 944.072083
-184.637100 -454.997498 684.482971
-263.264679 -458.130981 714.902466
-457.284821 -477.026001 802.083069
-410.236298 -325.009949 944.553589
-477.747040 -499.364258 772.498291
-267.803833 -398.963715 786.866333
-198.644531 -505.329926 652.537781
-431.852875 -485.838501 750.149109
-362.617828 -402.600220 827.828308
-190.347656 -391.963501 779.941223
-477.597717 -340.199951 914.357666
-234.105652 -265.659332 925.669067
-259.955963 -503.199066 667.780701
-176.348129 -445.859406 717.340576
-266.132660 -452.452667 722.304016
-268.320465 -451.537750 718.821411
-261.473907 -320.352417 863.043579
-290.777069 -247.774429 959.915283
-447.329742 -426.122620 844.694031
-339.124237 -479.184937 724.780823
-240.324249 -486.892883 674.626160
-329.443756 -325.691101 905.659668
-426.309235 -348.802948 910.533142
-316.960846 -438.217651 777.994812
-352.305847 -583.867493 613.181274
-159.499313 -414.239899 713.890686
-313.886169 -338.925568 871.535583
-484.939453 -477.349976 784.641235
-515.713074 -476.797424 767.669983
-280.089844 -521.637634 655.802612
-384.104828 -453.501556 780.078308
-493.727051 -500.967133 766.533325
-384.389832 -325.526703 902.944458
-232.282547 -253.890701 903.220886
-390.160706 -300.915619 930.817383
-514.207703 -425.002136 911.007935
-187.762024 -439.790466 721.903503
-438.558594 -591.617554 727.959290
-533.327271 -449.084869 795.186646
-339.337708 -507.413330 718.424988
-270.197205 -361.956146 826.914001
-281.818970 -511.970093 683.255127
-286.521027 -246.322723 943.871460
-286.828522 -310.476990 852.786987
-460.242950 -545.314026 723.617493
-479.049805 -545.349731 702.838257
-208.670578 -423.389923 730.056641
-456.731903 -574.291809 715.425781
-365.941559 -278.500641 955.470825
-366.349915 -302.100037 945.417969
-219.283264 -360.339539 824.603638
-249.730911 -356.518799 821.180176
-232.447189 -464.484406 694.245117
-487.119324 -386.538879 909.791321
-300.350769 -444.291748 750.454956
-371.320099 -489.703186 720.552795
-456.164581 -377.362000 910.315796
-378.263763 -348.283936 890.218445
-268.958405 -393.551361 797.394348
-200.605743 -541.289978 604.048157
-457.454834 -382.832703 876.788025
-490.753448 -445.585846 878.233337
-457.968353 -468.958099 810.124329
-364.907501 -366.638367 875.648987
-283.841614 -535.758911 627.151611
-357.837036 -448.867462 791.149292
-533.281494 -427.547668 790.075378
-236.870300 -517.748901 620.931580
-222.103958 -363.615601 801.142578
-305.809357 -427.382874 786.851807
-418.911560 -542.100098 727.504333
-233.119217 -228.584274 936.448242
-192.736603 -402.648895 744.733276
-403.082214 -323.436859 941.645447
-420.484528 -517.401367 725.331909
-148.380127 -435.512360 698.729553
-505.364410 -442.101257 933.381592
-499.783264 -463.356659 822.149658
-381.132660 -464.444885 784.452271
-522.848267 -454.374268 807.519409
-249.256119 -242.565460 953.278992
-201.434753 -351.084534 815.265076
-333.679504 -337.819885 878.601318
-473.880524 -357.851532 926.017456
-483.696411 -478.386444 792.762512
-268.053619 -380.045135 808.572021
-404.734192 -467.727997 785.920837
-207.208862 -419.903229 750.740479
-335.592590 -570.224731 606.817566
-434.120850 -501.799316 756.467285
-289.119110 -225.962952 961.322327
-389.280457 -324.988312 935.812988
-325.064819 -438.782349 787.870117
-259.290436 -234.154404 921.079407
-521.204651 -451.163116 744.595947
-476.582306 -538.665100 739.874207
-305.408020 -277.578156 941.478516
-462.427490 -342.511719 918.736389
-187.485306 -379.107269 777.278564
-327.211151 -492.955383 694.682861
-280.109619 -237.326706 966.165649
-451.912659 -385.101593 880.392639
-433.639496 -458.179291 794.039124
-464.066071 -537.054260 742.097595
-240.755142 -275.971100 892.963989
-374.352844 -378.723022 854.244568
-421.626892 -310.103210 959.847717
-263.393372 -461.863892 715.092285
-185.390045 -341.093262 826.935974
-368.936920 -453.312408 784.300110
-347.839966 -456.445160 775.432251
-316.918152 -399.555542 825.283569
-211.566650 -513.053772 658.828186
-205.268463 -281.401489 890.871948
-491.462982 -461.789703 817.938171
-329.669983 -600.107666 589.543091
-418.736786 -503.841125 721.544678
-470.256714 -456.229736 836.133179
-260.406982 -266.919647 928.184998
-355.426971 -617.948242 594.884277
-190.090622 -526.107910 623.469788
-357.638214 -387.506927 838.238037
-317.840637 -310.607788 914.590942
-454.356873 -374.006866 897.281616
-323.105103 -564.789124 607.923706
-455.312683 -520.672913 744.200745
-225.608963 -499.106079 654.516907
-463.594543 -450.258057 840.571777
-308.763702 -585.499817 599.496765
-155.335236 -449.293884 682.164551
-327.541626 -508.617279 675.967468
-330.554901 -322.827484 866.794678
-229.233887 -467.451599 690.003723
-319.870239 -522.407898 672.789246
-224.939240 -565.396729 593.146973
-493.405396 -449.671692 854.891357
-179.303650 -486.434540 626.277344
-471.260742 -342.482391 909.516785
-494.929535 -451.773468 864.687561
-367.855682 -494.287598 746.145447
-198.592850 -411.919312 730.966309
-500.604156 -480.802917 796.695496
-455.565735 -386.561920 889.928040
-258.414337 -299.009735 880.002502
-267.972656 -373.161041 811.826355
-204.028442 -436.559082 717.963623
-390.666046 -429.457001 797.688232
-178.316116 -489.683807 640.414978
-488.010284 -440.960754 825.289795
-232.189133 -235.656937 963.543274
-424.220520 -307.129028 962.524780
-233.991058 -424.183472 758.798828
-240.930008 -438.303040 713.650269
-159.007751 -481.557587 664.917358
-301.343719 -250.065781 975.645203
-298.551971 -450.484589 744.462646
-408.188446 -419.236298 826.073059
-397.550507 -439.413879 799.781311
-360.653656 -503.750092 696.229248
-523.628540 -354.298737 995.550720
-517.611877 -432.889465 901.175354
-251.728867 -397.020020 782.584290
-227.926422 -468.098633 688.418823
-278.342102 -337.279694 871.531189
-321.009827 -329.848694 896.324707
-477.311707 -359.978882 923.956726
-267.397003 -231.789993 963.390930
-367.520782 -331.324738 909.293152
-263.312531 -232.552643 949.842651
-479.112732 -534.849792 709.909485
-258.640137 -382.915222 792.483337
-440.616974 -315.955963 932.254517
-179.965240 -431.873932 709.373596
-220.561829 -408.806152 764.289551
-275.371613 -570.742981 606.524536
-361.388397 -455.131287 773.048218
-354.796143 -504.332184 724.175171
-507.597900 -448.944763 876.531799
-334.583435 -592.775635 616.076050
-178.102829 -462.028320 675.399170
-326.497314 -307.927063 924.044983
-487.525177 -501.789520 778.418030
-187.964951 -534.203552 619.650085
-385.577759 -487.799377 735.463928
-271.071533 -454.447510 722.158203
-264.551361 -455.268372 723.182373
-139.085571 -516.878601 620.470825
-164.052414 -475.663940 653.755859
-495.060211 -515.525269 710.607300
-324.024292 -338.320160 847.374207
-477.481567 -535.236877 744.191528
-372.806702 -301.742157 949.340942
-453.945526 -333.591614 935.660889
-327.083008 -341.672302 886.140259
-366.108704 -382.435242 846.369202
-336.422882 -503.414032 714.979431
-263.398987 -300.039795 901.055420
-351.905212 -315.235779 884.878235
-373.812592 -552.189331 655.141235
-368.210236 -477.497192 744.843811
-495.297882 -481.139893 806.455994
-502.371399 -474.962830 764.436646
-418.643066 -433.848083 809.886719
-124.127922 -472.133789 643.282166
-231.841919 -544.506470 603.142395
-527.081421 -440.476135 830.541260
-457.573334 -379.146027 887.652344
-268.921631 -303.148315 891.938843
-445.907898 -325.331879 914.599304
-264.240601 -246.888794 953.974121
-370.985504 -290.345032 958.379822
-281.095612 -370.028809 787.435791
-333.487793 -371.580414 848.827393
-292.459229 -547.526367 643.042358
-346.017975 -314.445892 916.185181
-366.392120 -547.919312 678.127686
-182.040726 -344.171661 803.142334
-166.544083 -461.177795 650.303467
-309.540314 -552.115295 653.594727
-476.771729 -513.670837 759.871826
-437.557922 -335.311157 933.785278
-453.605255 -401.004639 864.504761
-495.492035 -491.653961 792.125183
-273.205139 -425.968475 776.063782
-471.334808 -452.089294 852.394531
-271.894135 -304.133484 884.878296
-390.963318 -361.392700 883.892761
-388.254608 -456.771423 773.262329
-179.551010 -446.070648 695.815796
-448.538849 -319.578369 954.045227
-267.873138 -418.294891 766.598267
-221.807281 -449.663269 729.289978
-364.439056 -306.889801 899.891724
-293.292786 -448.376160 744.193726
-385.103729 -554.898865 674.035400
-257.155914 -362.789063 828.735352
-295.412445 -522.440979 680.182800
-423.352509 -347.137634 925.148621
-344.775909 -493.636566 700.888611
-196.053116 -416.749573 727.495300
-139.913727 -497.293274 622.492981
-267.440033 -307.072601 900.106750
-480.458740 -492.345703 812.064392
-500.424103 -492.393707 703.491455
-323.350433 -529.921326 679.798523
-363.256897 -356.499908 863.885254
-286.168121 -557.568298 615.014587
-516.703735 -465.637909 790.837585
-227.698456 -335.606903 810.189148
-394.290009 -664.493042 614.052063
-494.392395 -470.019257 808.923706
-515.016541 -357.662048 975.119324
-330.027100 -529.367920 640.481628
-418.339020 -457.043884 787.064941
-282.133392 -543.300476 613.463989
-495.829620 -343.994049 962.866028
-223.366608 -389.138641 780.581299
-353.876740 -459.469482 753.423340
-362.921661 -429.247162 785.278687
-473.902313 -386.118958 874.492859
-202.770370 -427.262756 714.172241
-207.589325 -427.544495 707.671631
-489.427551 -515.322449 714.424194
-454.176117 -343.693634 933.172729
-391.755981 -470.996063 757.795105
-264.533936 -354.482452 846.214966
-311.533478 -519.205994 669.845398
-172.383301 -449.090729 688.305908
-412.638062 -414.040192 834.172363
-364.219696 -466.082581 771.942322
-385.652588 -621.548523 615.111877
-512.085876 -443.474304 787.696716
-363.207764 -443.913055 767.636658
-443.675446 -482.218353 787.971313
-305.135040 -453.136505 734.602112
-411.228760 -471.495941 779.237488
-517.464172 -444.290344 829.553223
-315.532776 -426.437103 778.989502
-397.752380 -342.462280 922.241211
-253.244995 -269.115906 924.479553
-392.466492 -455.603546 774.980408
-403.604156 -398.668701 859.478638
-501.762756 -450.517761 874.071411
-345.139221 -308.982788 913.024292
-308.947449 -272.887787 922.406677
-310.888275 -512.161072 678.549622
-223.766632 -365.280090 809.024902
-355.777466 -364.721405 873.239685
-250.293716 -450.905243 717.218201
-528.991211 -414.755066 889.882141
-272.718048 -340.592712 848.132202
-367.989441 -364.522888 877.047058
-306.505157 -462.418823 737.714722
-337.575073 -353.272217 876.265869
-97.463348 -524.492249 600.403137
-442.359589 -303.085938 971.842285
-238.302353 -413.056305 751.766541
-192.533646 -540.116028 615.182739
-532.110474 -416.495850 772.530945
-522.676208 -464.658295 765.714355
-438.845917 -322.291870 913.724182
-264.345001 -349.472198 854.762512
-219.313110 -256.915497 934.601746
-379.551270 -430.638855 797.846680
-405.169708 -374.634766 870.025269
-359.772949 -300.565948 939.126160
-326.519562 -498.410828 719.497253
-199.802139 -554.890869 598.008118
-484.667480 -492.585052 762.453125
-343.685211 -387.270813 831.679016
-325.659576 -397.731995 812.560547
-291.721985 -554.403809 621.526184
-349.607452 -270.128235 970.520325
-471.833984 -328.487427 959.278687
-370.736450 -474.082489 763.003357
-372.219696 -536.859070 702.949646
-313.086121 -485.816498 695.111023
-463.895050 -501.330017 750.735596
-270.795959 -541.797302 640.716919
-389.664673 -380.574585 848.884949
-524.799744 -463.461487 771.215759
-152.353958 -548.631226 596.668518
-248.818451 -204.081833 970.944092
-363.320282 -332.645996 871.547546
-325.273010 -437.614624 766.302063
-498.433899 -496.941864 741.933716
-294.121094 -580.479065 593.416443
-304.303131 -555.723450 644.464844
-499.178558 -351.683594 944.254822
-509.711090 -435.969727 859.622803
-330.716003 -466.995148 735.542480
-343.751495 -494.923126 700.223145
-185.881012 -399.802307 727.106934
-385.696106 -311.945740 924.722107
-212.792770 -344.577820 813.671753
-364.268036 -459.248871 782.833740
-396.423828 -494.033661 750.555603
-197.031693 -344.806946 805.111755
-274.335846 -324.333923 859.077393
-521.394348 -427.991028 872.433411
-514.913452 -471.629547 749.027527
-360.113251 -593.352295 631.742432
-193.446838 -498.027863 662.810303
-213.068146 -281.862823 864.570435
-175.350876 -417.805725 740.232483
-347.368011 -366.898346 857.471252
-285.030792 -283.789185 931.150024
-149.207977 -482.818878 623.402527
-207.959244 -321.305389 838.352966
-321.143707 -233.102371 945.527405
-193.573654 -310.312408 850.337280
-317.561310 -370.769836 837.148071
-260.101624 -345.923004 842.520935
-296.738892 -327.235352 872.770386
-395.823730 -293.791870 965.950562
-354.892487 -456.337433 757.502686
-363.313782 -562.299438 656.773865
-300.033203 -462.490540 744.805908
-409.048157 -511.402893 744.611572
-512.144226 -492.380127 709.585083
-320.123718 -290.503845 919.725403
-366.536530 -543.060730 689.525391
-265.485077 -295.502319 904.228271
-532.476379 -411.187836 809.148499
-290.493317 -248.148499 938.855530
-298.186768 -490.749176 700.226807
-413.731903 -470.803497 781.589417
-175.504532 -559.267822 585.171814
-280.831543 -233.711517 969.169128
-339.161865 -609.026672 595.258667
-342.595978 -306.467896 923.569153
-347.749542 -427.736053 763.393982
-527.273193 -416.029663 925.022034
-406.843964 -520.260620 698.717224
-385.346497 -609.711975 629.717468
-303.118103 -225.162842 974.212952
-484.589813 -490.797485 778.914063
-160.339523 -468.074768 646.396912
-280.394531 -447.829315 733.182861
-272.019684 -413.368256 775.400024
-256.949982 -377.005554 809.117371
-396.745422 -503.249359 748.457214
-266.447357 -274.039063 925.494690
-468.076721 -386.925507 871.968628
-141.385483 -439.004517 715.443604
-424.082733 -440.824524 806.279480
-229.652771 -277.932556 903.651184
-505.322998 -341.858704 967.221802
-407.328094 -364.803650 889.931702
-455.186676 -548.768494 746.852112
-324.306519 -501.986725 711.244812
-423.563843 -392.326691 874.988342
-510.808258 -447.515747 833.918091
-523.818604 -406.237000 930.521912
-388.323853 -434.403931 790.652405
-502.634796 -311.055511 970.386047
-260.409821 -444.297638 717.190430
-480.653381 -435.872009 856.052429
-189.927963 -359.414795 796.096313
-283.574585 -245.699600 960.458374
-462.931335 -590.685913 734.421387
-344.073761 -420.384338 799.309875
-471.980225 -450.684479 846.588562
-238.188293 -420.075623 742.877625
-238.843979 -504.735443 625.305847
-209.941605 -269.973969 900.798340
-266.596558 -451.319611 712.180786
-224.868301 -241.804367 948.042053
-461.352234 -325.027588 927.198242
-474.685883 -383.796631 896.528137
-291.754669 -406.286163 789.829712
-232.385208 -474.698334 707.401306
-399.586548 -524.600769 714.728271
-210.604507 -529.165955 626.299072
-314.129761 -585.678955 601.671387
-300.096588 -498.042572 693.175903
-484.874176 -332.830963 958.537292
-340.873169 -589.318848 612.183411
-441.966888 -312.710938 925.847290
-255.510269 -442.729431 716.309509
-497.456329 -503.073334 744.293701
-496.478943 -455.482544 846.830505
-231.329300 -481.975647 695.261658
-470.801331 -472.828827 813.234009
-179.594284 -377.057495 772.318054
-433.922058 -379.092957 897.510864
-480.491058 -478.642395 812.468506
-387.189240 -299.739075 953.050354
-360.698669 -345.318237 899.585022
-500.626770 -400.130859 914.192688
-510.442627 -502.126282 737.455811
-451.543854 -486.284637 780.465027
-387.182343 -486.083466 728.665222
-243.880310 -364.125366 828.382324
-338.749176 -465.070709 748.209351
-378.996185 -450.970215 785.106506
-471.026825 -516.373352 738.289673
-300.854431 -528.619629 664.402100
-302.947540 -236.938431 983.623657
-227.451508 -522.757935 630.986938
-538.639404 -426.533203 815.071838
-278.752533 -506.225250 655.423340
-487.133240 -500.103271 727.788269
-245.641724 -369.258850 804.755737
-188.618225 -496.501221 645.758972
-304.977295 -280.321045 917.315247
-271.116608 -511.389191 663.472351
-295.647369 -341.345673 855.826904
-252.104446 -241.627304 941.532715
-267.277039 -544.495178 604.060059
-321.780823 -279.393799 944.014282
-259.810974 -333.322998 826.369202
-423.481110 -344.209747 921.922424
-441.844177 -364.168121 898.391541
-318.124786 -384.251007 816.322876
-455.242340 -532.647583 758.779297
-246.143860 -266.648804 905.441467
-145.753098 -415.552856 725.774414
-255.480011 -293.992645 895.471497
-180.387573 -417.792725 723.025391
-161.604095 -437.496063 715.480225
-264.641602 -253.544128 942.300171
-476.836273 -369.035278 893.911255
-288.439636 -451.540741 740.229248
-417.154236 -308.886383 959.407715
-145.385040 -440.086639 691.252441
-148.285095 -513.003052 619.540894
-519.454834 -452.158112 818.021240
-240.216705 -414.309235 758.851379
-307.352539 -288.310364 926.626038
-376.172028 -452.209595 784.498535
-237.461182 -278.570587 895.161072
-222.717911 -432.667816 740.230347
-408.852997 -340.897583 895.754333
-338.441498 -413.507050 802.739075
-308.545654 -366.096832 831.108276
-526.007080 -433.567841 741.326355
-205.110260 -303.695221 852.987000
-418.615570 -326.860443 940.125000
-348.607208 -276.210968 963.010925
-195.655411 -315.523132 846.730652
-246.215363 -232.891937 956.166321
-250.858078 -473.845642 713.722473
-528.280579 -442.907043 864.400085
-214.865189 -353.151794 814.696350
-376.969269 -524.381653 703.789795
-278.392853 -381.973480 783.007568
-346.709961 -522.049805 698.950562
-253.894028 -538.334229 645.268372
-306.488403 -384.559479 819.534058
-274.020782 -456.555878 729.187317
-483.277130 -318.634583 938.110840
-255.947861 -268.918427 928.292480
-148.378616 -515.807617 608.985046
-284.550201 -538.504578 663.100464
-156.967392 -385.268005 769.674988
-200.672333 -369.941010 792.274536
-325.917236 -278.000580 946.782410
-340.086090 -294.945618 938.730347
-182.195633 -384.449158 768.181702
-513.674866 -447.496796 766.457886
-236.732224 -227.266571 937.822510
-503.686554 -466.507507 789.646545
-382.980682 -620.396362 618.477844
-257.932098 -454.920898 741.646606
-178.828217 -436.364044 728.468750
-261.157227 -267.647247 932.666992
-211.400497 -257.114136 923.894165
-430.176910 -412.140839 835.930664
-388.890015 -447.953400 802.402466
-260.441620 -246.636963 931.964355
-388.332825 -357.602692 872.515137
-332.435089 -353.861053 861.348755
-339.289490 -349.814575 870.909302
-309.238098 -320.533203 859.862000
-215.237961 -522.690491 642.484070
-311.042236 -272.225800 948.883484
-316.617798 -414.272003 781.290222
-517.309570 -445.266479 882.061584
-242.934631 -257.138153 936.819946
-221.547714 -413.032776 768.590576
-516.350281 -405.648895 931.011658
-425.124023 -583.811035 687.684937
-207.214706 -368.496521 806.424133
-369.529083 -394.211609 840.075378
-309.422882 -375.263245 831.433777
-293.980286 -325.897156 868.995300
-228.056412 -374.259094 788.010864
-446.265198 -442.943146 840.509705
-407.460419 -456.048584 805.212463
-113.380951 -507.385223 622.201111
-232.160767 -431.453369 746.406128
-247.006195 -376.511749 818.817993
-242.510071 -416.606445 758.349426
-349.879517 -411.203094 820.484863
-447.978271 -311.152313 947.103210
-272.267975 -498.482239 684.275818
-410.151794 -661.734802 642.009521
-222.813675 -310.620300 852.715210
-406.976471 -301.509155 939.481140
-211.532486 -532.651672 639.257202
-234.866760 -307.000580 862.726440
-249.081772 -518.098572 670.777405
-396.856903 -558.429626 679.242676
-381.893982 -401.220428 843.641724
-393.145691 -528.072327 697.177551
-320.430878 -420.056427 789.737793
-345.999207 -380.842163 857.513123
-328.579956 -309.832642 894.925964
-131.034454 -512.117004 600.574951
-378.822144 -322.540802 923.039795
-400.711334 -532.412170 693.928162
-499.266144 -466.973328 827.796143
-521.789368 -433.126770 864.789368
-248.232574 -554.177124 604.575623
-145.637787 -526.095215 612.679688
-256.105225 -309.462097 879.797302
-393.079987 -344.294495 895.126343
-253.044418 -483.300446 687.682312
-321.304230 -434.721466 768.928528
-350.804474 -342.394073 897.820496
-303.975586 -318.423340 892.511841
-192.303345 -456.248566 693.053162
-378.012360 -475.568115 750.560608
-184.128983 -536.934692 587.343262
-275.771332 -321.229218 862.825867
-406.982788 -306.354340 931.973145
-232.145279 -457.672485 725.703186
-453.640930 -307.904907 983.976990
-393.892914 -352.895844 892.224487
-370.912109 -579.067139 625.744080
-235.041016 -471.493469 663.737000
-287.458496 -584.277161 584.642517
-233.797882 -385.062836 790.292480
-488.977966 -505.799042 762.252502
-333.007141 -412.402374 797.652771
-521.992432 -405.373535 935.247314
-265.916473 -579.801147 604.642456
-455.298859 -425.920685 850.127686
-294.800629 -303.095123 878.120911
-313.893982 -407.160736 803.556580
-277.427277 -548.032166 652.553894
-256.105865 -382.541809 815.196838
-310.770966 -316.033173 910.573547
-215.005493 -348.668396 802.723389
-371.077026 -309.280426 925.558533
-396.098083 -400.487305 850.522400
-182.114716 -362.329437 782.786621
-218.436966 -359.386902 801.121521
-370.006989 -359.877045 871.315369
-389.988312 -522.609985 717.357971
-411.173309 -333.537048 922.433167
-374.235504 -560.262390 672.497803
-223.915161 -307.545410 867.729065
-230.879532 -289.066467 892.759521
-466.386627 -543.072327 730.839600
-270.355133 -323.143494 864.453003
-409.044098 -462.902466 774.127014
-362.224518 -549.088745 654.279541
-315.912323 -487.668335 706.540710
-246.225906 -299.337921 879.674072
-393.052246 -441.621643 807.487061
-408.057953 -460.571960 800.814148
-317.608124 -448.752563 750.050720
-523.541870 -416.934814 959.775513
-349.080170 -565.429443 652.648376
-330.675934 -473.334259 705.934570
-351.957764 -544.980713 656.545471
-251.509445 -301.889191 892.359863
-337.000793 -455.177216 775.777771
-337.743469 -399.452087 827.976990
-242.730789 -538.006592 641.028442
-131.805862 -460.454071 679.916443
-326.563202 -311.895569 912.308228
-341.956970 -288.373779 950.991760
-328.343079 -554.703491 665.094666
-148.031418 -528.523071 611.351196
-351.108826 -622.299866 602.347900
-242.564651 -536.863037 643.788879
-211.410767 -433.354919 682.716675
-382.716461 -551.712830 651.488647
-224.789139 -357.670746 808.623230
-195.004166 -372.616943 777.156311
-361.140930 -506.566772 722.774963
-377.335602 -385.444000 865.398071
-479.350739 -439.661438 858.852539
-286.569275 -456.856659 715.869019
-170.647827 -379.294952 762.580750
-182.459656 -465.571472 671.134094
-444.089783 -543.300964 710.222046
-453.648071 -409.298889 861.225281
-501.251251 -477.396362 772.401611
-222.688034 -437.030548 724.403015
-501.114319 -477.502136 770.985046
-189.823090 -482.039795 642.758423
-509.604675 -492.811188 738.634460
-317.462677 -335.390015 889.248108
-178.136841 -352.945129 792.472046
-393.549255 -344.910889 917.565674
-235.529556 -486.228333 672.868652
-463.153198 -564.074402 714.826782
-282.505005 -213.104294 951.207703
-146.823593 -439.386780 695.871643
-325.465118 -378.477631 850.787842
-202.467133 -375.354065 783.727295
-318.389160 -251.271194 973.947571
-295.497559 -583.741211 610.907349
-263.645721 -571.539063 614.466248
-303.433533 -394.054199 818.190125
-433.296539 -509.185730 750.503174
-326.081329 -277.597717 935.717224
-421.856232 -334.979095 938.737061
-392.883209 -412.821930 824.601501
-428.009705 -410.494995 855.678406
-215.915085 -426.396454 698.422424
-220.820999 -395.825134 788.498596
-239.268387 -376.179474 801.730652
-207.186615 -483.986969 643.998962
-131.239502 -478.404602 616.409302
-292.363403 -374.522156 815.605774
-291.505585 -408.254883 797.899597
-337.213898 -388.588623 843.039001
-300.254333 -455.292236 724.634094
-496.165802 -384.414856 934.798096
-219.927948 -377.467194 783.138916
-278.437744 -446.911407 755.735596
-533.722839 -439.013428 815.752136
-410.077087 -447.753906 807.650696
-391.755676 -453.005768 791.232056
-328.365417 -317.487518 904.193787
-354.418213 -412.903992 802.127502
-164.436752 -383.717957 758.052307
-431.036499 -415.930511 839.920654
-500.146515 -450.189270 795.615845
-210.608353 -376.200745 782.111694
-454.970154 -484.820190 806.356934
-429.415161 -301.334442 975.042053
-469.075378 -322.874756 958.830811
-303.774841 -270.212677 943.033081
-296.048096 -437.092712 769.591187
-421.628906 -558.304016 704.012085
-151.394241 -479.340271 643.691895
-276.983398 -569.270691 597.957764
-346.619263 -500.108246 694.490173
-509.835632 -366.858337 959.297363
-371.796295 -274.500580 972.480774
-413.620819 -375.718597 883.347351
-258.075928 -358.302582 817.174133
-320.052063 -488.393768 729.753601
-208.800217 -376.728088 790.284607
-191.722549 -382.878784 750.481812
-283.086182 -432.907715 770.541260
-236.811890 -231.454819 941.979431
-246.095123 -557.091125 594.014465
-198.281693 -327.865234 830.903809
-185.226639 -386.199768 735.416626
-525.181458 -458.892670 781.571655
-192.061432 -360.446259 768.730042
-516.734863 -448.093018 849.617249
-239.014130 -318.516479 866.208496
-235.923630 -547.265930 627.865662
-422.604980 -461.071289 773.780029
-407.783173 -329.103363 925.802979
-493.102753 -518.330017 724.869385
-375.527710 -327.392822 928.308716
-263.027466 -456.631683 709.508484
-253.889969 -260.230469 919.262390
-326.956421 -416.508057 805.429321
-314.307404 -435.275482 786.744019
-187.957336 -517.732666 630.327148
-443.205444 -394.500793 856.576965
-231.857697 -295.866791 891.783386
-371.998077 -505.334442 728.388977
-252.555832 -471.380096 695.927307
-312.964203 -307.231201 917.685181
-511.571930 -448.815063 838.355896
-293.406372 -461.835541 724.361084
-403.533600 -479.709747 755.531250
-181.432999 -357.843170 789.216858
-375.990417 -296.188141 951.420898
-289.089874 -527.965454 671.410583
-407.466309 -646.233154 644.303955
-138.431870 -437.072174 686.656006
-277.678650 -483.163300 712.476257
-377.006866 -302.096466 927.588928
-371.670715 -336.936432 916.332031
-256.502594 -531.391296 643.591736
-353.111908 -454.693665 759.008850
-297.146759 -390.030731 814.266357
-427.529083 -402.448151 846.259521
-272.131531 -263.424866 935.995667
-163.930954 -480.903229 645.460876
-248.090622 -284.346313 914.824097
-425.222443 -324.206268 950.145691
-307.485321 -275.543549 922.772888
-510.155670 -471.611420 698.731812
-284.340454 -472.505707 708.699585
-245.544601 -411.584564 778.042908
-373.825409 -400.098572 848.533386
-314.373199 -584.233826 625.990356
-398.456207 -497.464111 734.800842
-427.808838 -618.768738 687.014038
-223.633194 -462.286499 668.456726
-358.047272 -508.077911 704.262390
-472.018158 -525.665100 763.227417
-283.989990 -494.635315 660.934631
-172.711105 -505.160400 598.413025
-184.671844 -467.965057 668.622620
-229.891891 -552.467041 600.346680
-389.886841 -434.730072 811.892090
-219.335114 -313.504364 869.725525
-393.201447 -308.945526 949.037903
-336.165039 -577.410461 634.677490
-283.977509 -360.315125 828.116760
-385.215057 -441.065430 766.863770
-281.048828 -458.624756 722.003845
-484.198029 -449.439575 872.843750
-345.912781 -489.988403 734.460571
-291.003448 -418.704712 790.144836
-384.632629 -343.780090 907.162964
-388.517365 -332.988770 904.672913
-504.587830 -506.321533 723.480774
-238.307358 -249.344299 942.652954
-346.863129 -289.599792 951.786621
-410.727295 -465.739105 790.339111
-399.608368 -327.739868 932.478210
-349.967621 -396.576355 817.567566
-535.697510 -433.054443 831.287903
-408.674957 -449.301453 804.700134
-143.849747 -487.247589 613.939697
-218.068283 -368.867035 810.209717
-443.128815 -431.824829 849.533386
-535.170349 -407.397491 803.180481
-511.588470 -449.359375 839.754883
-341.234772 -352.455261 866.558167
-165.287399 -429.590485 701.193115
-259.529114 -406.694336 791.409790
-242.468353 -460.375641 696.120483
-323.057800 -283.937103 927.531494
-486.418945 -422.972992 886.371887
-230.011612 -332.407745 830.695190
-469.168152 -430.753143 847.233337
-302.005768 -291.700714 913.024902
-477.307892 -526.138489 752.245544
-515.099976 -455.050171 753.214355
-240.587234 -428.624207 758.414551
-430.049194 -514.629944 725.355347
-466.185333 -365.064514 910.774780
-299.400848 -245.588730 977.100342
-271.381805 -351.669189 852.792175
-324.497070 -324.395355 897.109192
-486.781067 -546.520020 705.649170
-203.953735 -469.678223 675.576050
-497.931335 -450.202972 904.686707
-317.569763 -502.695190 707.399780
-691.678040 -824.952393 602.230713
-514.376160 -450.955688 915.164673
-241.275894 -539.960083 640.267761
-513.461670 -419.539856 943.893433
-333.088501 -510.230591 676.141968
-372.188324 -334.046936 874.343628
-291.488586 -561.955200 637.305237
-295.793701 -246.566437 975.162903
-286.759979 -259.165497 930.662598
-222.294327 -532.419922 644.801270
-254.707306 -452.765747 740.100708
-432.053650 -553.268738 733.804199
-205.636124 -344.590820 816.945557
-446.427063 -382.336090 897.440247
-398.531311 -381.899597 858.719421
-380.734467 -394.815521 839.321594
-275.049011 -492.390808 691.520935
-315.739197 -316.355164 867.521362
-352.506958 -288.133606 953.380859
-215.512421 -367.791412 795.246216
-362.631134 -565.832581 642.918274
-346.567047 -343.376953 892.711670
-358.028320 -596.367493 619.793152
-241.146896 -224.770035 955.539124
-351.539978 -581.862610 619.318054
-265.745819 -239.976563 942.113892
-421.948181 -373.456787 891.548279
-508.115082 -461.819244 814.329468
-421.169769 -337.603302 925.286743
-498.648499 -471.928436 779.403625
-151.908920 -431.320190 719.328308
-502.486664 -468.200684 800.157898
-223.830780 -234.869537 951.966553
-295.382629 -399.178040 774.703918
-209.191391 -360.735107 774.448730
-324.600372 -447.208405 763.766846
-433.579315 -605.206909 697.318420
-382.965637 -490.168365 751.157776
-291.269531 -547.842041 631.087708
-249.263504 -289.102783 881.535889
-251.037308 -295.026611 887.904968
-269.339630 -350.747955 838.060791
-321.582123 -303.424225 920.682739
-370.914459 -538.971619 689.986816
-427.871765 -386.112183 871.184753
-393.025604 -519.497681 728.796997
-336.193176 -257.916626 953.838623
-167.765854 -420.850555 712.911804
-400.058868 -425.139435 824.777466
-171.948959 -421.633179 678.473816
-155.446289 -469.429474 678.996216
-316.798096 -501.542175 709.317261
-383.653961 -590.817017 652.493835
-418.292267 -416.684113 849.611694
-251.910110 -480.688843 685.619202
-356.454346 -468.289764 751.900024
-484.397064 -444.767609 880.207703
-317.956543 -508.717621 688.455627
-230.758591 -417.022369 744.644836
-296.048279 -489.694855 695.684753
-354.687103 -400.625031 822.130371
-284.586517 -274.820099 899.256775
-200.092560 -296.772125 869.193787
-237.986694 -426.802948 734.218933
-413.184967 -362.481018 881.404236
-169.315750 -482.327240 667.793884
-284.835968 -260.300140 904.833557
-172.511093 -411.812775 727.283569
-205.129761 -484.122223 647.903503
-319.993225 -579.591248 613.541260
-225.498535 -427.925018 735.849060
-409.792999 -478.476776 760.057800
-293.453308 -402.246368 767.736511
-254.207535 -307.152405 885.748352
-245.940704 -259.589142 931.221008
-371.154449 -345.751678 896.613220
-325.137299 -397.996429 805.386963
-151.870316 -442.047943 690.322205
-368.530151 -426.716553 796.686462
-450.387939 -367.554352 893.994629
-370.589996 -505.551910 709.653870
-201.212738 -485.273132 681.886597
-185.034683 -404.010040 714.747192
-266.930084 -276.965027 921.682983
-255.675400 -231.069778 947.603821
-250.421066 -379.670563 800.180542
-285.276550 -260.735413 938.230835
-231.619965 -466.682709 680.678528
-299.440094 -573.080688 586.144348
-196.356308 -456.596710 709.031921
-459.458771 -374.029236 912.888977
-182.391190 -518.882019 608.226685
-122.924286 -484.021362 656.561340
-296.720978 -563.575745 635.790527
-173.362778 -450.610962 679.340881
-191.973175 -520.793701 638.850403
-200.435852 -492.557892 652.315002
-189.816589 -453.566132 713.172119
-310.483093 -284.559753 933.985168
-519.000854 -412.461212 934.772095
-347.097046 -293.870697 905.010376
-332.032379 -563.635864 630.995911
-499.585571 -502.731079 740.235352
-412.652710 -374.126892 889.195068
-338.293457 -352.408539 884.281616
-272.370209 -312.134155 897.284485
-389.395996 -503.224884 738.467102
-364.951691 -342.469727 857.371399
-295.626923 -541.508118 638.436951
-523.075745 -466.320404 729.708679
-222.679474 -304.504089 861.603210
-403.254608 -310.236328 944.080994
-179.975586 -332.281555 835.794250
-391.339966 -536.792419 684.240051
-247.893646 -576.019775 581.988708
-357.209015 -289.054596 913.751831
-195.466553 -437.164063 683.172119
-428.413452 -325.287964 935.679260
-438.260681 -421.424438 830.062073
-138.595703 -439.591980 681.798218
-333.523743 -562.928955 638.756531
-392.093048 -325.241791 912.843323
-345.798462 -566.097290 612.916443
-238.362564 -567.174438 585.245605
-495.713104 -393.055634 910.158264
-397.595703 -566.120605 657.757751
-275.778534 -388.011871 775.606323
-198.111237 -391.957062 757.879883
-379.418793 -489.391785 750.606750
-390.572205 -466.156708 762.994873
-400.837219 -320.212402 921.076843
-249.561737 -368.506287 811.144104
-321.453918 -396.530914 787.988220
-489.535126 -490.133453 784.445496
-228.473419 -241.697739 946.215088
-333.108521 -405.407471 815.125732
-344.593140 -552.327759 652.811890
-260.098175 -345.766144 855.971252
-274.754150 -454.107269 724.803528
-282.067230 -388.090698 804.729492
-425.341675 -325.315948 942.486755
-189.580811 -564.603516 594.381653
-416.430817 -324.978027 933.150330
-522.096863 -407.781647 959.046021
-426.204010 -622.232910 683.115540
-477.306335 -426.384796 885.982361
-478.496765 -537.072632 701.065979
-205.890030 -314.382660 825.412720
-405.134674 -311.111542 953.116333
-479.572876 -536.637573 711.315735
-238.514191 -223.725632 972.955933
-337.283752 -341.384705 895.799438
-277.230103 -406.901154 797.199341
-314.649628 -465.920624 729.384094
-223.896545 -331.506012 841.203918
-277.820038 -566.201416 631.644409
-237.936935 -335.550995 846.475525
-262.691833 -496.606995 674.047302
-376.127838 -515.209045 700.729370
-357.139893 -501.241211 726.757202
-401.454376 -295.717163 964.470459
-372.690674 -396.579163 835.352112
-531.866882 -433.344055 847.336182
-392.734711 -456.559937 789.265442
-234.056946 -298.291443 870.455872
-441.872772 -305.483429 972.116943
-270.263123 -260.347809 936.951233
-254.705490 -350.488586 849.666870
-389.257263 -411.582001 824.329468
-413.244629 -417.902435 829.354004
-519.855408 -431.359222 871.987244
-437.026001 -517.204590 723.315186
-287.676270 -433.160645 751.762573
-485.998688 -530.224182 711.094116
-220.501648 -497.303680 654.173706
-519.830750 -467.605469 734.094177
-170.567383 -509.384888 622.840393
-450.957428 -314.230865 928.731995
-519.526794 -470.880127 721.000305
-240.344650 -420.756439 744.410645
-198.759567 -319.181519 842.579163
-350.989014 -500.942261 711.749817
-236.630249 -419.920990 713.931335
-225.008499 -273.101166 906.392517
-164.145721 -499.520538 629.990356
-173.290405 -511.544312 612.552551
