ply
format ascii 1.0
element vertex 1371
property float x
property float y
property float z
end_header
-324.805573 888.383667 -108.507095
-502.781830 669.791077 -148.200256
-474.123413 695.274414 -120.524841
-477.760132 794.792542 -309.089050
-448.535217 781.592407 -255.010895
-467.362640 668.126099 -68.218185
-439.899536 770.664307 -164.802643
-514.996216 609.000305 -55.997238
-254.046402 984.646606 -187.469650
-573.392578 667.898804 -282.815765
-369.735565 824.827881 -79.487373
-251.982422 947.267212 -122.125397
-329.105804 911.926941 -156.998947
-494.926300 834.250366 -386.369751
-420.059723 839.094666 -246.444641
-539.893311 700.774231 -292.154144
-467.603363 756.796448 -180.760025
-433.471680 936.215088 -409.288483
-325.408356 962.365417 -251.770538
-442.642853 888.610352 -406.967010
-355.160065 876.309998 -144.141571
-387.000397 804.148010 -154.800262
-436.467896 729.984802 -86.355522
-387.674408 806.779175 -86.338455
-517.350098 679.085876 -154.239700
-516.784424 700.554626 -230.961624
-601.609009 635.495911 -307.967834
-468.732361 757.956299 -207.585526
-435.128510 853.159729 -411.418732
-250.977158 993.383423 -93.860588
-418.044434 855.410828 -241.267899
-425.564941 883.990051 -401.334564
-579.631653 597.921509 -196.157867
-499.021149 709.049805 -156.402695
-490.171631 677.165710 -161.683807
-508.333466 812.959961 -399.537903
-383.520966 1014.133850 -377.083099
-380.464081 872.879639 -188.004379
-419.508057 850.739746 -425.081635
-457.343201 772.778015 -178.309570
-377.847992 848.404358 -173.283707
-381.505737 939.850891 -341.968994
-464.959625 769.616760 -215.509003
-377.006378 858.982605 -170.542358
-513.163330 706.534485 -280.006012
-443.506104 718.221741 -84.114082
-506.303497 736.064758 -412.796936
-290.434601 919.366333 -82.052689
-455.728058 892.573547 -372.353760
-279.415710 978.857788 -226.626709
-313.745514 976.464539 -204.393127
-347.043823 858.327942 -100.768524
-404.981384 875.775024 -261.677246
-448.651337 856.838074 -313.424042
-429.661743 839.556152 -423.843475
-300.961090 987.887756 -252.622192
-459.358582 781.260498 -226.199905
-323.405426 865.780396 -137.642960
-454.388153 801.716919 -431.456390
-401.799347 894.561218 -265.000977
-304.185913 980.184082 -207.468079
-335.615051 999.627625 -317.759430
-550.035156 670.264893 -255.594482
-305.539642 941.020081 -185.134995
-435.886444 730.935974 -96.684601
-287.461975 984.835632 -193.925781
-378.312256 885.543518 -191.482834
-532.117798 708.979187 -286.615356
-304.205811 1006.661438 -300.905304
-316.634430 886.376709 -159.591476
-412.961792 847.453735 -244.074951
-531.895874 615.245728 -116.891678
-333.266815 936.672913 -264.478760
-515.023376 734.910278 -240.630219
-441.113739 756.151733 -105.151573
-566.934326 706.999207 -334.076050
-404.315125 911.709106 -349.065338
-479.308624 658.500793 -70.462036
-304.549652 919.182312 -171.679871
-319.897461 983.330811 -297.325378
-247.578278 994.819946 -122.782227
-364.465637 902.138123 -242.192108
-391.013123 798.624084 -118.582672
-391.981659 1073.973511 -376.457275
-528.361145 641.579041 -161.200546
-403.693085 954.056824 -360.552887
-489.886322 850.832214 -366.797089
-381.410583 821.119690 -114.573868
-376.166138 818.189758 -125.650452
-487.499329 638.612183 -81.513885
-513.808228 682.941467 -141.918747
-400.419250 869.840820 -256.545319
-492.094818 751.443542 -266.233276
-446.337128 783.979187 -428.533081
-578.739441 639.392822 -221.846222
-514.858948 629.034424 -135.387833
-555.057983 771.226257 -347.803955
-523.595154 698.011108 -244.171936
-385.655029 870.272156 -194.660904
-358.808838 881.385925 -157.547333
-381.335999 1004.421753 -363.844849
-587.462585 666.480225 -299.029999
-578.297119 623.819458 -223.166870
-525.549805 681.528076 -213.012497
-382.398529 909.616089 -277.429565
-546.098267 680.025024 -228.858353
-390.414368 838.588745 -186.976791
-463.892151 806.221680 -271.811401
-501.447784 739.307617 -218.543030
-535.237671 626.227478 -174.361786
-411.786346 847.330811 -209.294495
-371.551086 843.904541 -111.664070
-439.057648 858.502808 -414.344727
-417.747833 958.154114 -368.979614
-355.548431 915.680237 -192.608841
-360.100433 912.343079 -206.001251
-352.715271 822.983154 -129.887268
-325.479523 928.094177 -170.622452
-597.329407 666.084534 -313.078888
-538.612671 769.684021 -398.392365
-551.340393 657.559326 -210.395966
-398.107483 834.348450 -148.772354
-393.270966 964.479065 -361.829285
-485.329620 685.173279 -163.833313
-234.856201 984.861511 -116.740868
-389.100891 921.012817 -289.580627
-340.196411 901.643005 -218.581314
-343.709473 1028.799927 -360.223022
-339.914917 880.201416 -133.922501
-257.304565 971.695251 -120.713104
-601.694824 612.030334 -247.401917
-478.891510 683.464417 -117.924385
-322.766022 976.396973 -269.751251
-380.596710 883.072205 -223.174469
-301.791351 1027.160767 -274.417480
-526.838074 581.799744 -73.468102
-294.735291 972.234192 -158.164108
-282.543854 971.143921 -140.011887
-480.617737 798.446106 -400.886475
-536.421265 659.542908 -185.066544
-422.821716 866.168701 -297.052917
-528.104065 579.943604 -93.927963
-571.759460 599.758179 -185.464615
-406.516418 864.505432 -255.734024
-335.903442 897.605957 -150.201416
-451.277252 826.011780 -312.123535
-502.802521 632.403564 -72.859604
-363.305817 875.420959 -191.823883
-344.931641 978.533081 -300.256714
-540.579102 780.780823 -381.458466
-401.581635 930.296326 -322.888184
-282.045990 948.166626 -99.044128
-475.467194 701.912903 -135.106812
-375.832184 830.243713 -103.335960
-442.767181 721.277161 -95.154716
-335.958252 917.228821 -239.198868
-286.765656 985.571167 -177.938446
-555.410767 636.011780 -246.289413
-511.845032 804.035278 -387.632294
-373.209930 923.476868 -245.876160
-483.877289 778.849548 -421.557526
-510.209778 660.999634 -149.770691
-522.486023 813.926453 -354.706238
-514.265930 634.701233 -105.507530
-434.592346 786.062683 -188.725693
-242.681808 1000.108582 -101.523636
-396.405640 842.029602 -242.285141
-596.041077 630.420715 -263.565125
-309.781464 994.842957 -270.104279
-410.594360 873.826965 -276.283936
-254.108170 950.229065 -106.937973
-353.186920 942.349854 -244.775131
-447.558716 906.866882 -390.300812
-501.623932 686.667603 -172.753296
-614.074097 627.007629 -296.772705
-384.149780 792.446289 -73.122520
-538.612732 600.632813 -169.342514
-415.017181 812.140015 -172.083496
-466.585358 885.306458 -399.435883
-434.364899 830.410645 -266.208435
-399.475586 924.831360 -319.815460
-397.406921 847.168274 -199.402405
-368.729156 775.219421 -96.702126
-507.377258 686.307251 -234.601868
-327.583221 896.609985 -175.979813
-277.900513 980.499512 -171.162918
-318.080078 891.160889 -95.996063
-414.886536 767.638428 -112.684494
-393.254547 894.986633 -278.150146
-288.666382 975.063232 -157.677246
-453.922943 795.652832 -238.661163
-415.393097 786.761353 -135.035782
-569.319397 600.410095 -191.258774
-505.088318 741.338074 -229.399902
-371.691254 827.849121 -100.738403
-469.054688 709.957153 -97.022285
-335.569824 999.677429 -334.536041
-290.073547 965.565491 -145.828415
-413.860504 835.330444 -232.778229
-596.038147 646.120422 -305.843903
-325.582306 994.681274 -318.113800
-451.868439 955.394043 -381.344055
-514.488037 649.310791 -163.819412
-264.574219 946.048645 -83.259399
-539.977783 619.876160 -114.043152
-567.564575 634.563782 -219.600433
-435.811279 882.824097 -369.879333
-304.837433 934.193298 -213.827744
-447.439331 928.937317 -367.659027
-450.834564 872.176147 -404.032715
-543.863220 642.550049 -198.470703
-442.358185 742.928650 -172.707565
-341.436371 912.549622 -243.002930
-418.542206 920.635437 -414.393036
-316.750092 991.304138 -237.346268
-529.895752 615.339478 -55.966179
-447.194366 827.376160 -290.827881
-477.976105 746.503052 -266.678009
-497.522522 716.990601 -251.950211
-415.217316 858.140564 -266.757385
-507.936523 670.898193 -119.611671
-389.711578 849.938293 -186.036835
-477.021820 708.370972 -112.528358
-465.276794 770.593689 -228.860107
-444.317627 713.457581 -66.087555
-440.831299 796.831787 -209.952484
-310.759125 963.748901 -193.146515
-535.166931 591.787170 -98.236397
-318.128998 989.720764 -256.500732
-542.366516 692.017395 -242.346497
-453.328552 971.720642 -394.556885
-230.254822 987.586060 -107.422562
-381.303131 847.450989 -169.497803
-388.161957 903.692139 -251.845627
-450.378754 854.814087 -398.154053
-528.387390 702.368713 -227.735245
-520.000427 809.580261 -370.185333
-562.102356 664.936157 -277.318420
-312.819519 984.171509 -252.634811
-309.970673 974.392883 -252.335693
-479.505890 756.332581 -207.742554
-472.300537 728.147400 -175.332901
-464.650482 747.024292 -190.888992
-365.611023 900.526367 -203.599487
-488.539307 850.988647 -366.729309
-337.732910 1016.898926 -327.445862
-524.216980 780.519775 -331.590546
-567.388306 640.546387 -194.992249
-454.561096 893.379639 -378.188202
-616.497192 623.949524 -322.248474
-361.699951 911.567627 -236.271347
-441.174103 739.335938 -125.646393
-457.651001 880.554321 -396.294739
-313.766174 1004.046326 -269.234558
-612.669250 729.417847 -364.038757
-380.552155 826.282959 -125.342285
-453.730194 776.934082 -177.712738
-344.914673 966.171265 -277.724518
-472.189117 687.122742 -96.684723
-500.654449 747.301819 -270.974182
-509.952209 788.466064 -413.788544
-598.422729 616.785522 -234.506302
-387.980377 942.764832 -331.070648
-381.051575 1030.137817 -376.503784
-474.056000 780.626953 -277.792114
-488.860474 640.307983 -91.392349
-331.499237 940.226501 -190.920090
-255.531403 959.197266 -99.131180
-331.967621 937.113831 -183.739471
-461.467804 795.731934 -432.157898
-428.536255 727.225037 -68.244209
-546.742676 584.975525 -73.720085
-614.214417 716.445435 -361.667969
-339.154907 989.301331 -303.647278
-480.999268 755.722046 -264.225464
-296.931213 925.498535 -115.369362
-373.553528 867.894836 -154.538162
-495.964050 787.169800 -415.057037
-485.365417 748.141479 -206.846451
-253.507156 994.949646 -113.634041
-384.870758 1016.036804 -389.194794
-476.057007 756.138428 -198.277008
-382.754272 822.251648 -119.414413
-404.429199 831.759521 -190.930328
-322.442871 928.281067 -153.973618
-402.124634 823.505005 -162.665817
-441.186127 871.976196 -331.461578
-326.777161 1008.331055 -307.721649
-325.511932 1022.946838 -323.631805
-286.593964 898.094604 -104.769218
-363.307312 985.504944 -336.711273
-421.790588 743.592346 -76.903587
-555.766602 622.665527 -173.092377
-361.380157 929.696655 -261.536377
-498.463287 790.713013 -335.327179
-506.041779 736.426636 -257.375336
-313.081757 930.271240 -223.550613
-511.865906 788.287781 -399.809814
-394.414215 953.985046 -361.612732
-460.575256 738.704529 -165.122406
-543.223206 754.637085 -386.775482
-473.935089 792.411377 -284.000305
-433.352020 807.475708 -213.809204
-313.498413 910.690308 -96.321739
-372.485626 901.445679 -219.750046
-505.038879 624.799744 -135.031738
-389.086182 868.145569 -192.767654
-328.084320 933.254517 -220.125839
-598.590393 636.813110 -257.612610
-439.293915 887.253967 -380.659332
-574.126770 619.642273 -182.572998
-472.991119 836.169617 -356.194794
-542.443054 613.545044 -116.673141
-441.200134 938.978699 -402.850403
-293.860901 967.193909 -165.517944
-267.212250 968.354797 -123.019844
-390.912598 790.547424 -83.137268
-421.432434 793.167908 -157.062073
-367.674103 977.747375 -350.462799
-304.439789 994.786499 -236.483551
-347.922577 897.287598 -176.144272
-354.157990 968.563538 -318.333313
-614.758545 643.141541 -314.314606
-462.056000 811.168030 -430.914276
-533.255127 789.239258 -383.010620
-575.276001 639.212219 -312.214691
-365.801361 903.871277 -207.983704
-465.166534 825.234009 -430.768616
-483.929291 687.442017 -138.015198
-532.648315 638.789063 -151.066803
-348.053467 890.863831 -171.790054
-327.990570 1008.972595 -330.976563
-384.824829 910.567993 -261.211182
-289.197601 973.348267 -187.051727
-372.273010 894.856506 -246.482269
-441.955994 826.301575 -414.209045
-463.425659 796.378784 -279.541443
-413.663208 854.801514 -220.959885
-385.062317 871.835144 -220.440323
-530.672119 616.642517 -129.218430
-445.108917 821.422668 -413.164948
-533.468445 746.806274 -336.980713
-509.668762 637.918457 -100.690826
-411.872375 793.705994 -156.390869
-503.349274 790.107544 -317.922394
-532.682190 693.827209 -221.555344
-553.380066 671.818054 -248.636490
-556.037109 672.242554 -259.233276
-490.621674 762.779907 -283.062195
-577.764160 686.141541 -299.834930
-269.484039 955.623474 -137.359573
-574.815918 617.754150 -190.132797
-295.235229 911.990845 -104.839851
-557.749084 663.031006 -259.762299
-429.207947 936.361694 -359.944733
-375.005646 868.894409 -191.847458
-280.524231 988.931274 -175.163162
-552.402405 648.278687 -259.165039
-402.666382 919.499817 -306.783478
-449.558746 906.179810 -384.201843
-335.170807 975.836243 -266.500732
-366.567871 849.001770 -137.754028
-528.248230 625.208496 -90.802933
-370.291504 910.184570 -248.765350
-442.573547 745.132019 -177.169983
-329.831757 951.105225 -199.296570
-294.072754 914.801636 -77.049812
-359.913452 892.635071 -170.663574
-530.921875 634.471802 -100.239334
-289.790924 943.683533 -143.264175
-604.346008 643.983582 -288.017731
-387.580322 862.901428 -186.937805
-484.247101 674.335083 -87.398170
-579.329712 599.232849 -203.041870
-388.812805 898.024475 -272.551483
-490.501373 844.435791 -384.012024
-461.728729 764.495605 -177.920471
-518.133484 589.667480 -79.853607
-478.745026 713.115784 -164.187790
-424.745300 891.683044 -397.544220
-307.547607 917.868591 -141.934189
-456.013794 800.018311 -269.992615
-426.676422 730.025757 -72.694626
-454.908905 758.269531 -174.388565
-597.352539 623.120667 -285.675354
-350.101410 860.502930 -109.577370
-469.728943 776.022888 -262.559753
-426.598083 921.952942 -362.822845
-419.035004 862.291382 -421.748901
-302.983093 969.963928 -211.268784
-442.298889 791.482727 -205.081360
-606.398499 613.255615 -258.137177
-260.934906 988.961182 -122.247513
-443.024078 870.550171 -392.661194
-361.517029 1017.076477 -358.161377
-498.919281 803.637939 -396.062775
-443.598755 742.289307 -97.092094
-380.713989 815.566711 -100.369720
-332.593536 939.125183 -195.024231
-369.163330 912.496765 -228.472031
-392.344757 797.178040 -77.626450
-432.874146 964.608643 -385.721985
-592.763611 622.346680 -277.093292
-525.280579 670.428162 -147.263092
-471.914612 873.341675 -373.660248
-435.213440 892.411987 -376.278534
-553.950562 638.883362 -160.006958
-417.457764 819.131714 -168.396194
-457.329590 797.440552 -302.116150
-329.855225 930.994995 -171.333817
-523.229004 757.716431 -312.994843
-502.822205 675.612854 -158.039368
-357.102722 888.525696 -165.041641
-252.617325 986.540161 -95.739082
-448.367401 895.659241 -396.071381
-338.747192 931.493530 -190.659317
-483.857422 665.363281 -99.847672
-285.226837 1002.519348 -250.849106
-510.369781 676.605286 -134.521530
-394.855469 767.128906 -97.490265
-430.192474 994.914917 -390.208099
-450.617859 738.593750 -66.962074
-507.835327 747.095703 -259.583130
-498.857025 764.187988 -309.945221
-506.199860 825.878540 -364.878510
-448.708221 866.634644 -347.366730
-598.991943 628.257324 -235.512558
-466.589294 677.249084 -71.709686
-444.256073 773.009338 -180.766296
-416.883423 758.195618 -67.091827
-419.114349 762.074768 -100.014763
-372.056763 884.891296 -212.955627
-252.187012 992.144958 -98.095490
-536.931641 633.848328 -167.214874
-447.718140 865.867615 -416.513947
-585.598938 654.743225 -322.756500
-264.111237 977.425049 -132.519104
-348.683350 914.853149 -184.269882
-476.360413 664.520874 -67.530006
-343.549347 1010.923523 -334.488953
-538.670898 739.799438 -396.281616
-392.561981 804.660400 -89.180939
-414.611725 800.942688 -131.863129
-444.485138 806.390686 -432.024963
-307.136383 980.313721 -236.134201
-510.353271 646.512207 -95.298882
-287.819916 995.890564 -207.387726
-370.476044 909.236206 -244.993423
-495.717072 710.709656 -162.376953
-515.144836 645.587158 -158.998413
-336.040009 983.266663 -267.121155
-391.954498 798.068726 -155.682388
-469.784729 820.016235 -402.023560
-396.063263 882.563904 -226.090851
-433.103485 907.404175 -339.061615
-590.332397 653.098816 -275.570160
-449.412903 828.915527 -286.682587
-353.088898 870.553894 -145.041763
-356.470917 881.055298 -160.332932
-521.094971 786.623474 -389.545441
-554.539063 641.278503 -220.568115
-342.892273 930.182556 -215.615631
-393.817566 852.909424 -219.584885
-496.962616 669.788513 -63.976364
-497.956360 760.057190 -252.976593
-447.071472 899.620850 -371.488220
-480.855255 809.380371 -415.232758
-337.794525 879.455872 -112.579102
-434.086151 725.920410 -100.818459
-358.443451 856.027161 -134.434280
-540.942383 680.179871 -254.399902
-513.157410 692.651917 -209.730988
-495.670074 709.713440 -245.756287
-502.487518 652.267273 -110.483788
-268.711884 969.633606 -158.665421
-470.660339 773.741516 -255.409317
-429.566162 948.358521 -395.044464
-270.648712 973.613464 -120.353638
-434.939087 721.478943 -81.977150
-463.605957 714.845642 -128.339981
-362.681427 832.540833 -119.044106
-412.632965 821.254761 -209.889694
-369.473236 953.817322 -287.232605
-590.427368 660.317810 -288.236298
-281.104706 977.798096 -229.247482
-471.875275 752.933044 -181.775681
-501.897308 828.560364 -366.704041
-443.486969 896.408875 -412.837708
-464.837860 817.063721 -306.021149
-352.991058 842.264648 -93.227707
-328.616852 959.214844 -229.264587
-480.740387 751.127991 -191.439743
-359.979706 861.470703 -107.247162
-542.171509 602.747375 -157.034470
-411.877991 849.259949 -233.580811
-462.953491 756.424561 -195.361221
-545.729065 674.558167 -255.101563
-397.949341 808.899231 -130.603165
-251.567352 951.649597 -92.684578
-421.514801 775.009033 -114.119209
-596.815918 632.482422 -269.167664
-552.358887 614.734009 -139.434326
-393.668060 918.519592 -296.888702
-551.719604 612.938477 -147.718506
-383.512787 820.863708 -128.939117
-319.279297 1044.203003 -348.487579
-614.021118 639.921326 -307.029816
-380.913483 853.811523 -141.945862
-521.402161 734.643860 -306.842865
-510.739105 742.135132 -408.165253
-327.892059 1034.250977 -370.205414
-432.001373 833.709106 -275.078461
-436.990021 746.980469 -88.827766
-357.682159 909.768555 -195.675385
-481.463409 876.578857 -378.263428
-433.577148 895.523254 -411.881134
-379.320190 853.098022 -166.957657
-359.387360 955.459534 -302.138611
-426.911041 813.434692 -224.462311
-277.270844 959.032898 -115.393593
-304.309387 892.850403 -96.642487
-416.522919 767.981689 -116.932465
-364.768524 834.012756 -99.050850
-523.626892 650.889404 -165.583572
-436.237274 907.920837 -406.114319
-572.930908 652.774231 -282.845856
-387.209869 794.172363 -95.748306
-280.553070 954.394043 -182.272095
-345.612885 845.869202 -89.555588
-470.163452 712.928955 -161.242294
-431.965118 854.258728 -409.590088
-460.278717 764.194946 -427.151093
-506.933655 798.600342 -389.230804
-558.369141 601.430237 -167.527115
-540.823608 677.937744 -249.602570
-401.898285 810.588928 -163.433228
-331.315918 965.018738 -256.048431
-586.057251 630.787415 -232.308731
-463.684814 798.025452 -285.868744
-535.351807 703.506165 -281.912537
-453.680573 853.604065 -406.788910
-522.201172 720.065002 -275.995026
-328.436371 922.014954 -152.040298
-455.760681 894.024292 -361.361267
-550.124390 679.828003 -235.709442
-445.826599 842.870972 -406.709839
-327.592834 953.346375 -218.043137
-565.068054 617.910583 -201.159927
-563.257446 666.884094 -274.963440
-327.250977 948.449646 -195.303391
-374.441650 942.340515 -320.812805
-301.776062 956.102478 -153.869797
-366.110962 914.776550 -228.821320
-301.738495 984.153442 -230.064896
-355.970551 956.945984 -269.965149
-374.940643 850.391968 -150.148331
-507.894043 802.832947 -339.341309
-450.352112 931.396606 -389.758698
-369.040253 824.187195 -62.995228
-388.370544 828.757996 -167.395126
-387.954193 919.298645 -284.491241
-483.856323 773.322632 -266.801392
-452.297119 764.242432 -211.720276
-356.701385 900.701660 -201.812042
-417.715485 788.887573 -142.526154
-577.810242 627.428589 -250.231979
-531.935547 595.674805 -46.214455
-505.848419 776.831055 -410.352814
-402.402679 801.967224 -159.310654
-390.552460 930.160217 -326.429626
-378.279480 818.621460 -104.963745
-490.084290 682.492004 -139.477432
-525.529785 687.157043 -222.242996
-363.712860 936.991455 -276.278351
-488.618469 849.281372 -366.345856
-497.329956 632.531982 -72.351982
-580.269165 646.392212 -294.069366
-368.170013 1016.223389 -363.191437
-403.778961 763.590454 -70.956978
-441.077606 716.049988 -65.021957
-314.117615 947.214600 -170.127792
-421.790710 766.540161 -81.044472
-366.047363 837.526123 -131.840698
-420.718140 915.262207 -416.737976
-536.805054 692.951782 -229.795013
-582.453674 603.275391 -216.997330
-322.391998 869.610229 -94.003006
-286.578979 978.958984 -159.671021
-444.031158 898.637756 -396.260010
-473.247131 684.377930 -152.261993
-499.971405 782.848572 -307.600891
-418.792023 878.760681 -310.884857
-612.327026 619.209167 -280.412354
-506.285645 730.920776 -252.123428
-352.337616 861.518677 -89.184090
-288.471100 932.538574 -86.296417
-437.001831 935.035095 -405.226318
-334.850555 910.516235 -222.247375
-540.488586 672.489929 -235.179626
-388.348450 860.518677 -192.086945
-355.083160 951.938171 -287.909241
-481.427734 691.286499 -133.958710
-339.806702 866.671265 -122.791405
-342.951233 918.967590 -180.364655
-431.784088 868.729614 -417.936066
-422.703125 822.460205 -206.772232
-333.730438 985.614197 -282.070496
-357.374542 935.822815 -273.261139
-455.303955 899.669006 -381.005585
-272.498016 931.269104 -91.491791
-478.602264 839.626099 -339.329163
-497.153931 696.104614 -177.158051
-442.315155 850.279785 -404.413605
-315.436127 926.526306 -144.491104
-466.026550 817.019287 -322.186432
-416.388519 860.715271 -290.025238
-501.970947 753.704285 -311.586090
-485.230469 772.186768 -409.516724
-512.395081 640.487793 -100.973061
-333.740234 838.429199 -90.483704
-499.701385 791.287720 -409.254242
-296.374420 919.158752 -170.976196
-338.335846 908.023926 -152.005295
-504.140533 723.242249 -205.591736
-594.255615 634.969360 -240.414413
-265.240753 949.277405 -80.599716
-256.098114 986.212341 -160.702744
-426.179474 894.913147 -316.918518
-394.841248 812.678284 -121.779243
-501.734741 635.513489 -90.702583
-490.847900 796.148682 -292.577911
-386.212311 820.643799 -103.928329
-409.904022 1055.581543 -383.152985
-295.246185 905.033447 -91.299858
-455.930176 691.223511 -60.406906
-583.005676 635.447205 -278.028290
-294.692566 934.123962 -137.289124
-325.621765 982.368591 -272.098206
-517.549500 665.786560 -169.084167
-390.593964 797.618103 -105.782204
-559.293640 721.977112 -332.263794
-507.837860 851.773987 -375.328461
-350.301575 949.175842 -291.606110
-432.363586 679.464905 -72.557243
-399.009521 799.166626 -174.058289
-441.570282 739.951904 -74.011185
-511.404266 820.835693 -354.631836
-476.537201 961.401733 -383.514648
-540.802917 775.247986 -356.055054
-526.003174 604.491333 -98.437744
-300.190857 923.475098 -168.703323
-435.271057 761.876221 -113.794724
-568.057190 611.830994 -186.265579
-404.872925 819.132446 -188.697556
-487.933289 670.870605 -65.945946
-458.581299 722.439392 -95.645004
-314.016174 881.599487 -96.361382
-407.152832 820.729004 -169.009872
-453.205750 809.973328 -282.294067
-411.821228 890.124023 -310.897797
-329.387299 954.611511 -214.193207
-474.503937 743.415649 -170.708252
-539.639709 653.932068 -161.548981
-326.071411 891.626831 -139.272491
-484.754395 756.405762 -247.318573
-408.557587 781.052795 -125.943214
-328.671570 993.182007 -286.941467
-364.711853 816.264343 -82.019272
-374.724579 875.465332 -171.761322
-403.195984 827.065369 -147.797882
-420.830505 833.913879 -238.063919
-373.998138 971.151672 -333.005249
-427.657959 853.633606 -275.788788
-333.490265 893.142395 -130.141174
-498.703369 767.684387 -311.604126
-400.139709 770.443481 -86.047318
-421.648743 757.146240 -88.904007
-582.010010 654.005615 -299.519226
-485.268036 870.815918 -390.181915
-340.591370 894.387878 -164.263550
-374.907715 904.086670 -241.504135
-288.750916 979.424927 -169.067291
-322.414612 1057.377563 -333.197174
-382.484344 879.120728 -224.955872
-272.072449 997.143433 -171.082535
-547.784851 656.788696 -259.458527
-276.653625 989.393433 -157.076965
-511.272491 627.103882 -125.089088
-525.773132 650.634155 -112.822052
-270.995300 985.413269 -150.184326
-365.618164 1028.226685 -370.774292
-505.565399 663.061646 -83.306534
-420.074432 803.858948 -192.448425
-341.062683 910.430481 -238.836136
-475.804657 848.826233 -384.462097
-441.938110 763.413635 -123.676712
-423.975098 740.761536 -68.519714
-386.675018 910.682007 -294.964752
-392.339661 792.078186 -145.534851
-374.833740 897.565430 -217.848557
-449.745636 915.972778 -409.524475
-435.946686 797.261108 -202.156143
-544.681396 703.137817 -252.877060
-303.900360 972.918030 -219.965942
-504.624207 743.986877 -238.327332
-322.297913 932.184937 -187.411453
-462.939423 711.655579 -115.259865
-290.330292 977.273376 -215.605927
-316.854401 948.275879 -168.862518
-598.017273 695.875305 -338.238983
-309.034821 926.866516 -151.312042
-504.947571 768.055298 -307.241150
-431.909973 944.265991 -377.387512
-518.328369 744.580200 -323.719116
-598.952454 744.089844 -369.577759
-514.601501 669.581909 -151.748764
-498.836365 636.294983 -91.650627
-534.653381 779.473877 -377.844116
-298.860962 950.022339 -165.659714
-434.329254 790.743774 -185.999634
-563.057983 744.765442 -334.640015
-425.322327 825.257690 -199.466339
-305.598602 945.633545 -144.155640
-431.131561 804.795776 -196.693558
-324.608368 1005.665588 -302.149902
-571.541077 637.166382 -208.367294
-434.667297 795.055176 -195.267853
-528.545593 731.732300 -281.616364
-430.049103 872.682556 -332.131622
-476.664612 738.320740 -157.499115
-382.398834 936.428101 -288.046204
-450.981720 896.342102 -364.163696
-437.666595 951.862488 -401.961639
-474.271576 707.734314 -141.217682
-448.653198 702.972229 -79.897560
-444.608307 787.946045 -215.548553
-560.247559 668.129761 -256.014923
-460.488403 832.706360 -329.702850
-432.572388 802.311096 -226.079514
-426.392456 875.935486 -297.379608
-443.598602 824.126892 -259.906555
-286.149597 981.152588 -170.693817
-450.049408 734.265808 -138.271088
-398.921661 851.127014 -212.330429
-338.533112 965.176514 -260.957581
-341.602753 999.357056 -314.497833
-481.115814 810.894409 -422.562500
-322.660553 882.848083 -149.333176
-393.804443 886.669495 -254.727371
-333.581055 890.007507 -101.654961
-511.851349 733.583130 -243.408539
-451.200989 879.423950 -402.305756
-308.813660 936.296570 -134.876846
-507.080994 745.722778 -249.458298
-332.931854 990.633179 -271.862213
-459.874268 684.077637 -68.754478
-443.015167 750.231628 -107.718948
-417.218079 807.980530 -193.001556
-445.233826 912.490051 -373.809601
-254.634399 971.218994 -98.717728
-521.055481 768.549011 -376.886902
-329.095184 969.970825 -315.724304
-531.592712 631.623169 -151.681091
-402.302490 899.162048 -283.984375
-469.629822 733.261536 -194.536880
-537.304504 690.378235 -226.381561
-390.209412 913.222168 -301.870789
-487.536346 690.965515 -146.305710
-368.582001 843.229919 -125.357635
-382.525116 892.710266 -251.284393
-561.904358 595.928833 -99.118500
-491.781891 797.705200 -311.253021
-462.915070 748.705627 -182.672684
-483.549347 737.635620 -219.414795
-531.343750 689.945923 -248.858994
-354.579620 883.015503 -175.842819
-298.876556 1004.408447 -236.061615
-390.773468 799.943115 -109.620239
-349.422974 853.473816 -85.987213
-340.262573 871.252625 -124.963142
-353.228638 841.261902 -136.037262
-544.868713 621.760193 -108.651649
-555.720581 726.221008 -332.047363
-389.807281 853.341125 -183.968567
-292.280029 907.617188 -88.974182
-479.232910 674.602661 -104.955101
-462.733398 866.066101 -399.642883
-522.543457 777.739258 -401.739075
-262.212006 1007.502197 -166.762802
-406.994843 922.552185 -330.127136
-313.574158 900.587097 -130.722488
-295.290710 937.929688 -184.337387
-266.588348 965.416260 -103.539734
-546.901367 664.673218 -275.167267
-448.526123 781.662598 -430.212341
-379.836548 796.846558 -71.788399
-506.681519 689.264893 -188.465271
-552.442078 767.587952 -371.341095
-345.467255 966.734619 -316.569550
-521.255493 606.931946 -86.461235
-358.596527 980.466736 -330.424347
-402.179047 801.727051 -125.155838
-542.447815 584.854065 -52.727352
-420.482727 892.316772 -328.588470
-318.079010 995.958435 -253.508820
-624.873840 625.686707 -282.498535
-459.611938 761.220215 -163.724884
-288.082764 1031.584595 -248.836517
-336.567078 929.031250 -180.364548
-416.665710 778.869751 -124.786644
-322.793030 906.717102 -131.361069
-562.973206 751.893250 -386.065247
-296.611755 1015.783691 -243.535187
-388.006470 895.989868 -236.405640
-379.345673 821.246582 -120.223511
-314.157410 970.999512 -234.071777
-546.099243 691.985901 -268.617981
-290.718628 946.191711 -143.051132
-546.588074 632.270874 -188.643753
-348.420532 936.937378 -223.681564
-567.460510 608.961365 -151.975967
-305.241577 944.761108 -173.491333
-500.096161 807.090759 -374.833740
-421.724396 829.985657 -231.063873
-528.417542 733.034607 -265.082245
-304.959076 934.900024 -151.848679
-356.647919 959.349243 -287.513397
-548.856628 701.390930 -292.646149
-378.746643 926.215698 -296.991730
-377.426483 831.313721 -134.958298
-484.950653 658.182495 -80.038795
-457.005096 853.833679 -400.040161
-423.708191 784.274170 -205.790390
-544.294739 662.756592 -224.382187
-317.274780 857.341736 -78.554634
-411.493073 876.333557 -288.841309
-498.316467 647.263062 -73.675415
-437.025574 908.648132 -402.125702
-444.320557 876.124146 -415.696259
-471.438263 771.691650 -259.330231
-539.346313 629.774231 -115.693947
-417.045380 843.610291 -241.850998
-376.923981 890.181763 -213.228806
-349.283295 860.424927 -99.749924
-361.511566 829.693848 -68.546989
-429.956696 760.449890 -76.128014
-478.107391 885.551086 -361.774048
-313.400726 951.755066 -167.442322
-363.094818 851.030884 -106.320206
-292.145660 968.279663 -155.507706
-305.577057 920.427734 -147.669830
-405.339020 887.270020 -270.752869
-320.032684 987.329529 -312.144226
-385.156555 893.296692 -225.697784
-339.011627 954.114685 -270.124390
-365.159241 1033.536377 -359.757233
-431.917786 758.802185 -125.064087
-464.663483 840.421936 -416.354828
-381.615601 861.386169 -161.954575
-515.603333 663.598511 -147.845444
-468.379974 861.997620 -395.445313
-321.051971 914.003601 -122.878952
-419.134155 814.052246 -163.410995
-359.262329 861.696899 -148.905762
-567.187378 635.175476 -240.160843
-420.862488 875.505981 -274.243378
-452.280426 799.646484 -420.885468
-464.746887 709.390320 -76.082039
-442.191040 761.508545 -152.537201
-429.639130 812.599426 -183.534836
-354.480865 914.145508 -187.672165
-504.222321 691.448425 -153.454483
-438.661682 897.586975 -412.025726
-481.502686 661.965881 -75.812988
-382.673889 946.729492 -307.878967
-478.667267 746.620361 -421.444122
-273.621277 1013.361877 -198.373718
-480.681671 808.989014 -300.483978
-320.600098 891.739929 -98.317787
-442.804352 1003.453125 -396.919281
-295.244659 983.687256 -194.104675
-405.219086 891.683716 -306.339539
-544.783691 653.160095 -158.138245
-374.944946 916.265686 -269.741425
-543.131958 641.753052 -153.024918
-304.026825 989.954956 -279.852844
-370.974792 937.840576 -263.879852
-505.424469 719.441406 -203.692123
-428.230011 896.351135 -342.522064
-416.949799 824.300781 -211.259155
-549.462708 625.957397 -140.726242
-525.851074 653.687256 -129.339661
-278.027710 980.527283 -140.084625
-404.960327 806.654968 -203.181091
-351.644348 1001.003540 -370.457245
-314.369568 993.052979 -304.323853
-340.846802 963.349487 -262.212677
-261.253479 998.818604 -125.213600
-480.950012 725.521057 -186.372940
-517.137085 675.039490 -185.075058
-462.932281 833.147156 -343.583191
-523.251587 692.940308 -182.851151
-340.476349 955.172302 -246.620056
-456.597900 725.961792 -124.307014
-358.940857 897.680420 -196.603561
-326.474335 978.595764 -329.729706
-300.283020 969.620422 -173.791260
-431.126343 786.566223 -152.622299
-273.586151 946.884277 -103.993744
-538.524719 729.047668 -329.535248
-586.280273 664.323364 -282.523407
-437.969604 868.972290 -311.173401
-502.126251 709.125183 -196.367294
-468.226685 810.912781 -288.208099
-467.235016 826.029846 -397.483978
-344.671600 901.443726 -167.309067
-496.933563 756.517395 -274.936676
-337.072601 964.488403 -261.783752
-545.863831 645.667358 -155.773254
-446.926270 757.375916 -171.344467
-273.796722 989.136536 -160.372574
-531.827515 648.847229 -181.669159
-366.328796 940.095154 -257.201538
-513.824524 732.663452 -286.470825
-527.530090 798.463440 -390.456482
-404.318604 871.948303 -280.824310
-539.218445 701.111145 -279.217834
-321.040741 854.716675 -86.855904
-392.418671 887.876587 -267.383453
-317.298035 976.893127 -229.238846
-472.955933 706.492065 -77.407158
-444.430695 880.719055 -350.743408
-425.744904 821.718384 -199.418884
-449.841064 930.574036 -376.766602
-588.503296 758.047791 -378.609680
-356.934052 957.864563 -291.988495
-521.093567 781.531921 -342.335388
-264.537598 964.635803 -89.814194
-326.463623 874.783569 -86.347206
-549.147034 758.382996 -391.882080
-393.123993 805.696716 -84.402168
-392.579895 866.095154 -223.091095
-527.205017 656.679199 -179.460144
-374.222565 860.838196 -173.973633
-285.710693 939.416443 -83.720940
-562.771606 612.767517 -133.759537
-417.011292 757.437805 -56.736931
-369.495056 964.042786 -306.853699
-507.269623 742.865112 -308.417633
-362.429749 905.612183 -214.189163
-464.261078 820.780090 -271.592682
-294.829193 924.714111 -177.143295
-459.702850 847.634033 -318.996033
-244.222916 965.081665 -146.939850
-277.286407 987.976318 -162.505539
-473.710846 693.821716 -71.564026
-533.697876 647.824890 -175.306198
-433.919281 929.904968 -370.117065
-496.361603 738.267334 -243.745132
-450.738098 708.066345 -100.204208
-372.149017 903.532166 -293.411041
-376.859070 852.058899 -170.278320
-337.679565 917.752136 -196.048935
-318.713928 1018.737793 -296.109192
-562.867981 688.729919 -285.120514
-408.308777 1001.411194 -385.850220
-442.101257 897.490479 -398.730652
-494.750580 783.025757 -324.671478
-429.967804 786.242615 -139.362473
-346.847931 922.430115 -197.715347
-450.674164 955.596191 -376.617645
-474.199158 672.585022 -111.055244
-277.267517 997.209106 -186.266678
-438.721161 835.562073 -412.668915
-444.261230 891.957886 -406.519714
-518.605042 642.548035 -74.209755
-356.638092 917.239990 -232.088638
-301.511475 870.128784 -94.265625
-470.074402 675.708374 -50.564896
-346.838226 939.331726 -245.814987
-333.858246 877.194153 -109.504524
-543.307617 593.757446 -106.726913
-560.917175 615.945190 -184.072800
-484.016754 726.704651 -202.116501
-347.177948 944.737732 -250.651901
-504.714081 798.765381 -406.117737
-291.998016 967.531982 -144.353302
-535.651123 800.613281 -358.444305
-525.626099 654.838440 -123.066933
-441.072266 755.318359 -112.216064
-347.617584 956.302917 -268.488342
-400.999207 886.005737 -256.754211
-358.169617 829.082031 -79.923637
-559.161194 632.136719 -163.737473
-455.363434 857.379272 -353.558838
-367.353546 1033.481201 -366.379944
-421.789337 946.718506 -367.029816
-459.590271 836.267151 -415.007629
-401.920258 775.248169 -63.298306
-501.454987 702.832825 -161.576111
-479.719360 853.948853 -404.102020
-545.431152 669.838135 -222.250519
-467.612427 740.452087 -188.939255
-457.673798 821.004150 -296.700592
-410.282043 977.282593 -368.502075
-477.538513 689.162842 -72.542740
-537.760315 666.583679 -177.773361
-452.455902 829.834412 -405.665588
-253.258865 979.592957 -115.407593
-375.084595 953.015503 -334.892517
-479.540466 726.458618 -190.834824
-304.803772 986.985596 -210.901810
-415.064026 900.854126 -323.034943
-342.351288 851.295776 -78.228447
-426.408844 826.263184 -237.010056
-562.209106 671.297668 -232.040329
-407.384552 774.954285 -91.096230
-594.359497 618.736511 -248.254547
-472.838898 812.925049 -315.713684
-364.442627 841.085876 -122.346550
-527.336914 689.368286 -284.450714
-360.770813 843.019348 -128.596893
-293.066528 939.759277 -142.828018
-456.787201 733.719910 -109.626564
-523.802368 649.072388 -155.889084
-529.985657 720.449829 -300.510284
-499.416687 803.678040 -321.874847
-534.398743 673.423218 -228.230240
-397.520020 1053.435059 -371.185425
-480.947510 635.185120 -97.465599
-445.545502 898.436768 -373.842529
-460.314545 769.741699 -187.020676
-515.504395 738.520081 -300.705902
-437.632843 812.911682 -420.419525
-342.116699 900.281311 -151.033981
-475.020386 749.566101 -220.249969
-453.485352 717.317810 -113.662697
-472.951935 866.532471 -370.912750
-319.459595 1033.217041 -320.471741
-426.099976 731.936584 -130.715134
-411.402191 782.907837 -172.541016
-345.268341 883.816711 -151.479279
-339.443451 909.706421 -161.202347
-364.254639 921.576050 -282.673462
-461.164429 822.128723 -279.703918
-554.997681 648.362427 -180.899094
-305.891632 955.217285 -153.293793
-444.053101 755.412964 -167.650635
-335.770020 949.579895 -225.489838
-372.822784 859.868042 -168.803833
-554.613098 624.014343 -189.866928
-533.000000 713.387329 -296.021088
-551.484436 647.380859 -170.791397
-343.869446 934.185486 -284.847656
-448.195007 862.061401 -415.662567
-501.460266 776.609497 -296.928192
-349.738922 994.411438 -337.088745
-493.152313 737.042114 -199.775223
-495.564728 770.242493 -302.724518
-356.333069 878.343323 -154.298676
-470.482910 695.143311 -112.801796
-530.639709 724.020203 -273.052185
-292.256592 921.710266 -91.266151
-508.502136 759.334045 -321.330078
-491.881927 666.611084 -105.515160
-364.403839 821.662598 -76.893852
-348.701508 836.526794 -74.508774
-539.531616 718.712158 -319.125122
-473.961761 795.635254 -250.075134
-336.508087 925.220337 -180.385193
-360.427979 956.751038 -307.679108
-486.299744 786.068237 -415.138031
-461.442352 761.900574 -426.844788
-436.718353 742.390686 -121.303246
-445.919250 746.402832 -150.419418
-492.836060 849.088196 -394.916656
-455.899109 863.921448 -409.601105
-422.392914 986.438599 -384.363739
-446.877258 706.794312 -84.900291
-600.870056 666.197021 -321.825897
-319.471100 1013.102661 -304.310272
-434.863922 929.723022 -397.251251
-340.962250 842.717285 -137.909149
-510.361420 695.556152 -167.016281
-443.328247 897.949463 -390.297516
-325.951447 879.863953 -109.067207
-346.895203 880.403442 -156.296051
-293.057922 993.251343 -218.073654
-342.269714 961.249695 -262.655640
-449.499054 790.500366 -236.718109
-566.619812 686.789001 -294.229004
-400.554871 809.710449 -128.055557
-479.736786 766.868042 -264.994171
-446.600128 901.413574 -384.405975
-369.190735 817.573914 -85.712227
-331.896820 863.486267 -97.806320
-291.901337 970.088989 -243.249817
-507.554443 818.547729 -375.751343
-487.525024 671.241455 -116.388977
-485.591248 843.680420 -382.722809
-431.428131 860.649719 -313.240234
-263.329010 1002.083008 -203.286179
-538.461060 614.452820 -165.678131
-526.153015 657.980652 -195.136520
-623.642761 696.277710 -342.486755
-425.263031 812.502014 -219.153290
-577.762512 594.528748 -115.243462
-426.838531 773.857605 -114.884499
-408.888184 803.252075 -121.789047
-320.603455 942.768921 -162.493927
-557.320679 673.200012 -310.990479
-416.698944 769.537476 -114.740814
-429.549103 848.269348 -270.756012
-454.875275 832.538269 -291.038696
-540.131104 700.841736 -293.320007
-375.779877 829.455078 -136.549652
-293.903076 934.340027 -105.455963
-580.526733 618.148254 -238.546021
-341.211334 912.207458 -160.384766
-523.213379 605.093933 -71.868736
-402.884491 824.809509 -174.831223
-519.377869 684.596375 -169.644623
-594.076965 594.727783 -180.833405
-295.933105 916.585571 -86.432983
-496.391876 838.546936 -387.163025
-310.236694 976.662781 -235.518356
-437.756287 839.880676 -284.329651
-480.624847 825.924438 -404.052032
-415.058594 877.492676 -430.504791
-504.493011 621.404053 -53.394501
-353.040985 972.533264 -284.537354
-513.328186 645.269043 -183.465012
-556.884766 667.191345 -266.754486
-312.128632 915.626282 -140.175247
-521.056091 621.223877 -55.788574
-474.060272 680.126648 -103.338463
-366.468475 818.181152 -91.552391
-491.287598 719.380737 -206.144669
-627.098938 621.609802 -327.425507
-543.344421 651.782898 -205.332489
-400.710297 890.805908 -289.096313
-361.819183 852.189392 -135.315948
-317.062195 926.871582 -153.383179
-486.399292 713.498474 -197.764786
-521.942200 629.152649 -74.472687
-407.651398 846.053711 -223.913651
-486.316162 725.276733 -169.880875
-337.438263 958.249329 -315.884583
-524.148560 799.782654 -373.978180
-472.560547 857.638123 -348.757629
-410.484131 765.860901 -105.391205
-446.882568 849.512207 -322.264130
-433.300049 812.671692 -186.619247
-345.304413 959.328308 -251.244446
-474.685059 713.025330 -106.275726
-494.678650 678.588562 -134.927658
-373.955292 883.950500 -218.999741
-492.641205 643.083374 -106.314201
-347.823608 857.216370 -106.420609
-515.481445 679.962708 -189.097336
-496.115967 842.759338 -384.151611
-453.571136 860.294739 -341.729340
-546.458191 657.674011 -204.304749
-398.870514 769.472351 -124.056068
-464.368469 838.738342 -399.645752
-356.797516 947.765686 -283.988434
-494.203949 686.027161 -154.574875
-328.588989 1042.556641 -338.171844
-304.972809 969.371826 -186.192261
-380.869293 838.139526 -144.383347
-468.264130 703.638428 -119.815483
-305.577087 911.655823 -146.511353
-335.973297 872.115845 -78.316444
-305.458191 943.072510 -202.194702
-426.829102 764.317017 -80.834137
-449.891083 851.558411 -328.375153
-529.008728 631.151123 -88.949936
-454.637390 788.805786 -206.109146
-605.029846 633.541443 -267.963196
-326.107330 917.688904 -142.969879
-248.224823 1003.311768 -132.347565
-562.297913 668.980164 -281.902283
-414.326904 878.266602 -420.758881
-518.610168 746.635742 -284.192169
-386.431763 812.571777 -95.502640
-548.055176 648.878784 -243.778732
-444.379303 877.396362 -411.640930
-408.610168 777.885986 -84.576492
-374.440613 871.385803 -158.026932
-522.675598 803.527649 -359.039795
-366.852997 836.636719 -105.586586
-457.503601 846.173462 -426.260132
-496.819061 831.894409 -399.384949
-603.253296 616.208679 -263.620605
-331.412628 848.991821 -109.125923
-404.730713 800.959839 -152.423843
-328.169189 991.537048 -282.247894
-478.948944 754.363464 -197.274139
-461.257568 800.196289 -238.051697
-584.945679 669.517090 -309.280884
-432.153168 737.175110 -64.342941
-283.114136 947.856262 -151.057709
-574.896423 630.258118 -186.861069
-271.504547 944.867126 -106.189804
-392.844818 783.525635 -75.826630
-400.465088 830.671265 -170.797592
-276.224365 933.742615 -96.954132
-523.586487 822.792419 -365.936188
-535.251892 633.134521 -162.016983
-565.661072 646.834839 -201.041367
-325.400024 990.161499 -265.025726
-528.310608 604.658142 -95.932755
-529.420044 703.600098 -252.893524
-446.773712 829.586975 -307.167908
-474.037842 903.530457 -368.614380
-467.438477 674.506592 -79.511139
-361.519318 830.897400 -114.809464
-369.332092 989.942139 -353.707703
-487.649567 834.155762 -395.967407
-495.221191 683.669739 -181.615051
-295.126495 904.435059 -97.968231
-379.946686 901.605408 -234.272354
-474.595551 814.570374 -285.981323
-332.588593 959.578308 -235.240784
-336.845032 923.867432 -203.289276
-294.834869 1005.884888 -229.478836
-399.992523 817.178223 -153.917267
-404.766266 875.955139 -234.131775
-434.295959 957.857849 -383.518829
-383.429901 901.572876 -230.855942
-540.404297 645.306519 -185.665436
-278.345856 969.085571 -161.047394
-445.147827 904.034119 -354.819458
-322.960327 864.605469 -79.388527
-421.515106 849.363220 -238.382172
-593.889709 783.670044 -372.877838
-526.127380 612.928589 -112.375427
-522.176453 652.078674 -117.821892
-310.652924 968.676697 -196.857040
-326.656158 849.828674 -98.956543
-519.577637 818.614685 -377.484650
-423.844147 828.195984 -193.032120
-408.178284 850.199829 -237.621216
-311.224457 999.363403 -247.242584
-434.094299 824.861389 -250.554672
-273.532532 956.200012 -165.737274
-588.640564 658.951172 -276.739899
-351.673401 833.894836 -70.187622
-509.878326 715.966797 -208.456329
-363.052521 871.080566 -131.535019
-535.883240 726.009277 -289.754456
-400.139557 829.013733 -157.780365
-346.598572 873.113220 -119.930092
-326.654541 868.770142 -87.140633
-381.606873 910.875549 -271.848175
-445.491943 890.802917 -346.885315
-519.758057 770.771545 -400.654480
-416.821167 865.129822 -426.549591
-409.217682 892.718384 -312.358368
-549.619141 703.697449 -334.126373
-457.632111 798.634583 -245.089035
-428.912903 921.099426 -356.609680
-439.005737 879.319946 -408.429626
-362.881500 941.130249 -279.693695
-524.586426 655.455444 -195.974319
-484.108948 770.519287 -228.566956
-288.969604 985.804199 -201.005585
-512.636475 668.762817 -164.612015
-480.527802 745.985535 -191.202866
-502.554016 668.922913 -105.278633
-330.526062 939.578674 -219.659348
-430.483154 738.774963 -97.480591
-427.733704 765.339966 -160.643280
-473.252106 667.801392 -53.195213
-455.470428 796.512207 -221.979797
-396.893799 896.455078 -267.433228
-525.054443 682.179199 -216.119278
-396.776276 919.850647 -304.163269
-436.926941 741.291565 -120.714104
-437.746704 791.777954 -165.012344
-374.708130 907.700073 -255.139557
-544.291626 763.122192 -390.058136
-285.202057 911.958496 -129.582596
-255.021057 1015.168091 -162.404343
-545.601501 659.542908 -182.061447
-451.550446 797.139587 -258.474976
-376.397522 954.713806 -340.076538
-516.846558 667.245300 -170.186386
-338.875580 890.882690 -155.816772
-340.255646 1021.186096 -354.336365
-503.483490 737.247131 -273.247955
-494.481598 822.597168 -372.936218
-421.504150 784.465942 -143.958221
-555.669739 752.704529 -379.804596
-320.016449 1004.450867 -296.035980
-541.617859 642.889404 -186.339523
-384.256256 801.947632 -105.866638
-395.011292 1029.882202 -387.509674
-531.244812 725.712952 -263.212433
-570.704590 773.362915 -368.554108
-412.454071 905.496826 -306.145508
-383.361847 927.178833 -294.346680
-268.733917 986.729736 -208.824112
-317.657013 936.143982 -163.806335
-328.364899 999.161133 -311.260590
-445.880188 800.269043 -427.214630
-523.385132 627.390503 -112.075783
-446.751434 804.766113 -230.890900
-392.942413 831.437012 -127.704865
-440.031616 912.642212 -357.461731
-377.917572 803.262573 -82.404678
-428.661621 806.731934 -207.745453
-430.677063 779.804871 -172.917892
-336.789154 935.950195 -205.540466
-346.004822 983.325378 -324.279572
-543.372498 728.401611 -291.821503
-411.305847 840.425537 -196.087799
-365.373749 910.318665 -219.222443
-309.163574 890.059570 -94.196823
-435.596008 691.995850 -98.379845
-521.743835 700.059448 -206.717087
-506.417358 671.554382 -137.429718
-415.797974 1004.675110 -389.105591
-459.283875 813.853821 -407.630981
-531.281311 729.629883 -284.710449
-337.944092 854.828003 -92.406319
-430.959686 874.879272 -428.334442
-568.205017 648.111023 -218.314438
-397.499329 770.520996 -82.447174
-403.079193 890.166931 -270.448181
-433.395996 740.809265 -111.755379
-438.504333 871.594116 -423.726196
-385.505127 864.287048 -212.680038
-445.643646 883.425110 -406.460602
-475.571869 673.592346 -116.038261
-303.784576 896.748108 -96.696007
-408.915222 776.052063 -110.712692
-533.253174 643.807556 -120.126900
-328.814758 893.812805 -149.290085
-600.114258 750.573059 -373.876282
-412.054810 834.157593 -227.375671
-423.729370 945.554688 -399.251770
-438.865814 810.962708 -239.594894
-309.065826 944.605347 -239.390961
-588.018250 644.542358 -265.371216
-373.397034 839.204468 -106.429619
-555.227051 655.620239 -283.459747
-361.724335 839.635071 -102.055885
-368.429962 855.807312 -120.511444
-380.914948 877.931824 -270.934357
-386.787506 941.422424 -325.390106
-439.189087 894.750854 -366.056915
-539.838196 647.879333 -151.450333
-405.808685 857.005066 -239.299286
-481.751068 723.457458 -185.153458
-382.757385 835.815369 -112.805885
-407.525391 833.617310 -208.590012
-404.121155 788.838501 -121.109390
-359.577240 943.979553 -252.237137
-338.071930 1014.709106 -350.352051
-529.496948 638.035828 -175.549911
-470.808685 655.432129 -105.019508
-533.459900 792.795105 -367.500458
-418.187866 866.395996 -262.981567
-348.832092 1022.441345 -362.446625
-546.460632 611.311035 -144.782700
-288.075623 952.377380 -135.101608
-354.654358 938.785095 -279.135712
-270.178070 986.257202 -190.956329
-430.441925 971.557434 -385.086975
-440.914551 710.259644 -72.783958
