ply
format ascii 1.0
element vertex 1416
property float x
property float y
property float z
end_header
708.024841 -693.206482 56.945629
654.160095 -594.953918 -27.644367
643.312378 -846.182373 129.569748
709.819214 -593.402100 7.959123
813.199585 -743.689209 211.081635
851.597473 -533.643311 134.702545
746.300964 -647.659790 69.908707
619.217041 -713.160400 -32.129658
643.237732 -809.497314 43.109055
601.376465 -794.076904 10.228399
755.108276 -602.305786 47.591331
642.916138 -702.138672 -12.473245
673.924438 -685.807251 24.350590
691.902161 -766.239624 78.888969
669.087708 -847.111816 130.371521
827.808777 -525.909119 101.622162
802.933472 -563.822388 104.245392
568.915405 -679.984924 -80.499535
696.297791 -797.959412 105.618431
705.864075 -634.467468 13.810367
656.471558 -851.171326 129.534866
704.780640 -608.790710 7.644322
773.693970 -642.683655 99.804893
662.736938 -571.320740 -30.786760
812.587219 -597.491455 115.028000
667.449036 -541.160645 -74.561462
845.372742 -644.712769 186.040512
682.108765 -842.949707 114.213387
798.986267 -673.735291 175.399796
528.830444 -706.869385 -139.114380
761.743652 -641.597717 111.707329
527.683472 -660.338745 -150.731430
638.928650 -600.782959 -89.536179
640.272888 -596.138000 -91.315910
573.959961 -798.443359 -20.819118
517.043884 -754.235352 -97.059975
779.305786 -637.548035 111.370529
693.732971 -535.285583 -49.678043
643.692444 -638.933533 -59.790802
685.845398 -554.111267 -45.931728
626.176025 -848.884583 123.327797
769.696777 -616.176331 81.270569
530.438660 -668.870361 -148.226654
610.551941 -846.050476 110.426376
705.053650 -568.382385 -18.235538
566.117798 -588.893921 -132.071182
642.805054 -841.475464 89.973358
663.346558 -715.032898 36.193592
622.666687 -717.578003 -4.994231
543.294739 -848.969543 -11.207103
494.491150 -753.006592 -101.040619
499.623444 -743.687012 -130.183762
744.169922 -660.382935 125.490105
542.250977 -852.938965 25.593790
768.793396 -683.052673 138.845703
790.499390 -804.140198 201.892685
828.087891 -564.008301 125.865273
745.324951 -550.713440 28.548252
588.820801 -667.175964 -97.105080
801.548889 -688.555908 163.496735
602.584412 -621.273193 -81.364677
547.667664 -857.774902 32.989159
516.605408 -716.354858 -116.335190
612.411743 -530.935120 -136.824112
552.101929 -813.523865 -60.394802
610.461487 -745.870239 -21.704735
664.262268 -611.924377 -31.430807
540.197510 -757.049927 -61.134567
707.882751 -846.498047 114.857910
689.927002 -690.826172 46.046272
785.538208 -648.237000 168.487961
507.164154 -751.577820 -97.789192
696.796570 -680.793152 56.946014
582.963989 -829.904846 89.763832
605.877502 -668.514404 -56.641617
839.472595 -575.889343 167.912247
773.667786 -577.025574 63.030003
786.937134 -779.980652 198.699463
549.467773 -539.927063 -203.361435
544.585938 -834.272339 -80.181587
593.301697 -646.723511 -112.215813
687.843750 -572.632690 -49.920235
838.856201 -537.168823 110.989609
466.489807 -748.964905 -155.931396
470.954926 -772.888550 -128.443375
614.749390 -839.970276 9.243281
600.957886 -578.007935 -141.957382
745.113586 -767.088684 157.342789
755.142578 -680.463989 109.560867
573.069031 -853.565308 47.100224
794.802795 -719.978149 168.872406
766.884827 -564.229980 62.449612
710.774048 -556.414978 8.439601
676.030945 -570.485779 -48.249462
720.062317 -647.649231 85.067162
754.898315 -746.539124 190.092361
657.826721 -655.590637 -0.526162
495.825500 -760.285645 -123.487427
563.738953 -835.148254 109.388359
798.324402 -733.844910 190.139328
727.247681 -704.876526 97.427803
637.766296 -768.438782 26.285942
817.419128 -631.562744 145.940277
782.178528 -569.599243 65.180977
551.885376 -616.776245 -155.084335
789.350342 -723.705505 167.280945
703.270264 -694.358765 93.152077
656.244873 -801.833069 65.040848
795.315918 -705.008728 167.043488
749.895813 -673.280273 133.342163
573.893738 -623.357910 -151.517136
819.071167 -582.576843 120.326500
519.552124 -672.788879 -175.156509
650.179382 -775.333801 53.590866
506.183319 -731.323914 -145.249359
561.650208 -660.149536 -115.024643
817.934204 -556.229858 103.143036
599.743408 -634.000000 -106.995300
598.174072 -699.497192 -65.661995
728.983459 -751.316711 112.048302
623.342590 -735.011841 7.399932
733.607483 -633.562134 57.671692
546.438538 -829.977478 78.064148
616.855103 -592.817627 -100.494682
666.620544 -612.551636 -24.677624
793.558472 -614.273193 133.933624
812.009644 -719.450195 188.823303
562.839355 -605.269531 -145.760864
765.535461 -647.968079 92.755318
622.121399 -793.856018 32.102757
542.707886 -556.055115 -194.776123
770.710510 -637.885437 101.987579
607.610229 -842.442871 59.686543
753.397339 -719.921692 155.685135
793.067139 -725.863831 178.370499
789.141479 -536.141174 92.882126
833.048462 -520.129517 104.464539
702.015015 -554.126404 -26.750376
802.016602 -581.514160 98.357666
818.446411 -681.101379 188.382187
553.363281 -727.105164 -78.142822
743.977478 -744.378357 143.878464
688.645081 -582.491516 -40.817268
762.928772 -598.662659 76.746765
648.212769 -812.617676 52.893997
602.993958 -594.456482 -131.595642
608.510132 -567.444153 -123.363342
602.671936 -843.113220 117.806778
530.168884 -704.064331 -150.191101
624.517090 -835.095642 55.245522
768.578064 -633.411438 139.438202
714.314819 -774.110840 126.627701
851.317505 -525.753540 100.445610
635.019836 -664.074463 -18.617422
836.577454 -655.936890 183.684372
640.088745 -569.849854 -102.292717
546.077637 -691.516602 -84.210609
610.204834 -841.456665 94.470482
516.291138 -710.129700 -163.204590
812.877197 -586.991516 119.346977
736.961121 -702.211121 96.547760
748.737610 -548.130371 3.598477
495.267761 -729.736877 -178.452240
662.799622 -570.634766 -19.459509
729.738647 -746.010925 109.725075
855.711731 -549.011047 137.975479
636.812073 -697.899170 19.614609
561.494995 -563.114258 -194.971573
712.121887 -636.265198 26.732162
764.105835 -592.961792 65.955536
574.141846 -600.110352 -136.042160
676.451172 -843.372253 120.613258
532.556396 -720.988831 -106.746300
575.529785 -830.693909 84.412033
794.336914 -559.268250 72.842995
844.548157 -622.770447 183.810257
619.047058 -828.292786 63.763088
637.002258 -758.567322 18.102535
766.677551 -527.493774 28.655140
819.830261 -597.181702 121.249725
640.236450 -774.326416 47.910637
500.182709 -827.536011 -82.477837
828.068909 -575.682312 125.358200
588.079956 -569.487122 -145.153732
774.715515 -559.768738 69.464851
666.194458 -845.975281 144.461807
710.610840 -846.098694 138.276352
633.243469 -643.501099 -50.816185
772.705688 -584.981262 63.045959
731.966248 -534.440491 -0.407828
631.185059 -824.061218 44.996983
727.598389 -613.414917 25.774637
649.812195 -540.244446 -109.370110
774.029053 -778.389465 202.162811
593.895447 -701.848450 -53.757633
790.656067 -620.262573 100.447380
749.699280 -751.297852 157.033554
713.148987 -639.162781 21.790430
663.271240 -607.515503 1.961041
742.956909 -750.759460 176.722687
650.419189 -556.766113 -98.024239
747.105591 -551.898804 20.817663
658.327454 -628.685181 -26.918285
606.329346 -709.282471 -25.838997
665.735474 -585.630798 -44.673199
661.816956 -703.696716 8.397218
548.138733 -638.191650 -139.989136
689.242981 -573.582153 -25.478243
723.240479 -809.113098 124.353767
572.773682 -842.291748 -0.244548
712.833252 -751.229126 112.867737
603.488403 -546.940308 -142.421600
671.164185 -841.124023 112.991692
787.457458 -724.511475 162.465027
682.635803 -695.312378 37.474979
786.934143 -643.824829 162.230957
658.872253 -832.475342 101.339500
710.473694 -711.977966 80.081718
729.773865 -643.911682 90.989471
751.529968 -537.851807 28.192583
621.722229 -738.199219 -5.944419
649.598633 -718.554871 23.014465
830.210083 -568.925781 136.278305
841.499146 -525.234375 128.519730
604.485046 -626.418274 -87.338516
834.393738 -519.379517 107.800629
655.677856 -831.452148 86.822044
558.447144 -848.777527 36.724159
752.507874 -558.174011 30.411734
742.181030 -601.720337 51.478695
643.747498 -592.584595 -29.605034
615.286804 -844.370605 55.327705
648.262878 -653.703308 -20.949245
591.582275 -629.757629 -119.433708
660.056763 -662.266785 -9.744267
388.220093 -1170.506104 -90.729691
606.505310 -746.132874 -28.876577
673.049438 -668.354126 22.649197
649.086304 -533.087769 -117.578125
562.854492 -778.086548 -37.672832
713.211731 -846.758057 140.446701
843.002380 -546.392883 122.247513
611.292114 -837.159790 138.177704
582.228821 -609.722961 -121.158676
667.275940 -777.792114 60.380169
614.191589 -590.173523 -95.409523
721.140320 -822.959900 131.869720
719.720398 -849.685669 109.219826
708.296448 -729.543579 82.185181
647.414917 -711.893127 13.940639
799.771912 -747.948181 203.886368
753.359680 -578.349548 59.464676
612.950867 -585.576233 -124.906555
590.957581 -734.410095 -59.293777
776.847656 -579.605286 65.101456
671.353699 -696.596008 27.986864
524.785156 -637.784607 -153.150986
735.614014 -845.107727 119.667366
573.929077 -622.615051 -123.347183
859.048950 -553.621094 141.260529
723.659363 -665.604675 51.137848
867.031372 -542.883911 144.444305
598.033875 -755.400818 -13.547186
601.764954 -568.483276 -130.333862
591.100830 -840.591919 49.286819
724.060974 -758.779297 111.102676
581.542603 -543.485229 -170.186401
707.548889 -637.016968 63.948116
790.069580 -587.334961 101.502625
573.158020 -833.187378 -21.142710
594.495422 -646.114380 -83.809395
595.558777 -679.899597 -66.553711
471.412628 -755.348877 -153.592926
650.888428 -546.454651 -77.041328
696.480652 -669.558289 71.598953
822.513611 -605.067871 142.353928
606.150146 -591.254456 -127.152107
700.465576 -737.220947 70.766785
566.556091 -665.196594 -104.137802
734.217651 -536.158508 -4.073791
611.620789 -556.332031 -147.935516
619.123291 -776.034241 22.328117
734.238892 -571.223450 6.581331
769.296997 -724.505249 179.180344
482.405273 -789.598755 -147.689056
769.505615 -592.782898 81.414902
651.953735 -611.160706 -46.294262
521.196533 -727.475403 -145.354202
774.673218 -694.414063 146.605331
784.329407 -640.987000 134.595062
542.936584 -592.197632 -188.512039
564.371277 -849.895020 20.646330
597.321838 -564.140564 -134.447571
785.573853 -629.285461 104.388359
684.980652 -636.349426 -9.731936
739.503052 -606.419006 43.507828
777.598267 -524.132935 29.024843
813.390259 -764.286255 216.213638
646.057861 -835.029114 79.433960
697.890747 -773.876892 104.776443
540.809204 -852.981812 34.446415
654.514343 -778.578796 40.068459
760.281006 -558.379211 39.358059
689.043518 -763.328003 110.258125
584.170715 -636.525208 -120.701538
511.776428 -666.297363 -166.888031
790.188416 -551.323242 75.356827
509.522827 -666.838074 -183.697449
682.344421 -616.547913 -9.589630
775.414246 -652.570557 115.673325
757.318542 -523.323853 8.374561
798.809692 -664.597290 160.604248
602.147095 -612.905579 -105.893707
648.928162 -842.313904 141.139175
678.779358 -842.460510 114.125603
742.133484 -740.094055 119.239166
755.430054 -727.966675 143.061462
634.199280 -556.066895 -131.027008
622.692871 -798.709412 11.193084
814.289978 -574.879639 105.516769
722.743652 -717.591064 98.975082
578.381958 -626.143860 -117.913109
650.174438 -760.423462 35.665417
582.861084 -603.112732 -153.905548
692.847656 -817.140747 95.662712
510.834473 -750.723145 -130.918579
573.602112 -627.038635 -120.169998
709.002136 -645.919373 41.996967
551.848083 -665.101440 -142.980911
799.399414 -685.355652 156.180893
661.892090 -664.842590 -2.167428
650.843201 -763.109497 50.159298
712.706604 -631.553467 18.622866
814.660645 -588.910339 130.536301
780.034851 -724.388977 191.960510
635.313171 -696.528687 -4.260359
496.561737 -798.218201 -120.190788
529.017212 -667.312561 -162.784210
809.398926 -602.160828 112.088470
723.397278 -599.016418 57.147221
614.197632 -718.441528 -34.200363
681.816345 -694.090576 22.359913
612.037231 -615.198914 -111.309883
697.743896 -530.288452 -43.030422
821.963623 -505.921204 106.825340
710.792725 -631.538208 13.784434
696.869141 -592.595886 -16.427450
766.998352 -615.623169 82.357666
561.390137 -606.564636 -132.683960
517.891724 -664.532471 -140.522354
799.210205 -643.319031 147.800079
616.748413 -830.151733 5.686604
674.364685 -538.044983 -65.653946
802.669067 -733.147705 191.473801
726.693176 -643.017456 95.878853
786.780273 -630.844299 109.799316
550.857178 -846.135681 60.388119
544.971313 -702.273071 -103.831085
611.257019 -853.156311 64.579559
600.424866 -547.353699 -132.151703
532.693848 -798.192566 -64.243065
769.716248 -680.719543 138.339691
807.947083 -593.511108 112.985367
584.563354 -668.250427 -58.806709
816.368958 -627.016541 157.702942
780.572937 -509.677155 61.274666
785.000610 -611.406494 96.150848
722.912842 -784.275146 125.628296
547.959473 -766.592346 -70.662308
703.503967 -684.221985 62.138920
595.267273 -696.584717 -55.631332
778.300415 -573.580994 71.779701
649.739197 -759.867676 51.461926
821.225220 -582.399841 120.177704
736.772583 -566.068787 26.626575
827.240051 -532.880066 103.934662
715.653381 -567.068787 26.302864
528.452087 -604.040833 -180.117584
695.280640 -595.948975 -22.716063
645.214539 -535.121216 -107.413811
598.453796 -555.367798 -149.567520
796.265198 -536.992310 68.902344
622.435913 -565.281799 -124.883820
500.969940 -710.404419 -171.677719
550.578979 -859.680115 34.026875
806.288879 -629.944397 124.783012
652.608459 -709.424561 21.593023
593.486328 -652.939331 -81.280441
591.693115 -777.384460 -12.518372
769.723511 -696.442078 135.337311
766.779175 -678.859558 123.191940
693.595764 -608.254089 27.781054
588.809753 -771.564636 -5.342566
833.261841 -537.358459 106.845848
798.596313 -705.436584 167.804749
543.802002 -764.352478 -64.414574
592.343689 -837.511108 127.962929
498.285919 -738.210815 -150.221237
680.540344 -619.190979 -10.076219
647.724121 -680.786560 -8.596871
523.337830 -688.419556 -138.958633
536.740601 -752.149597 -81.863464
587.155396 -600.852295 -125.941925
763.649658 -779.760986 189.892441
804.807556 -703.381897 175.222122
728.204285 -865.905518 141.782043
835.337646 -539.784058 113.766853
573.709229 -851.012695 62.383263
689.201233 -657.609070 28.476959
556.898926 -558.359802 -149.559998
646.457458 -621.051025 -40.117779
549.800659 -637.312683 -170.220673
641.377136 -567.530090 -84.824333
522.614929 -658.835327 -160.691849
605.892456 -616.548584 -68.916771
845.789001 -535.899719 140.183563
637.527527 -821.849060 52.256981
815.236450 -519.931396 104.230087
659.299561 -842.490234 79.145142
534.099731 -721.904846 -126.161377
485.451202 -744.263062 -172.308411
678.887512 -838.273926 104.844315
571.782288 -607.168945 -157.356750
662.615417 -675.194214 5.218475
573.063721 -654.359070 -103.936050
533.107605 -624.100464 -171.213928
836.277527 -560.645691 138.208313
756.785645 -508.020111 26.805187
578.021912 -854.852173 35.484577
569.488342 -677.403442 -68.805298
707.225769 -583.623657 -18.858768
598.123474 -835.101624 14.448300
578.727173 -782.402344 -34.318165
623.731262 -758.755737 19.749178
527.767212 -712.225586 -136.745041
605.540771 -829.701721 134.741928
806.041931 -694.134583 194.250427
800.848206 -859.794556 174.962799
643.006042 -824.606140 46.811279
621.014954 -678.398804 -57.236221
644.289124 -637.117798 -39.182869
594.786377 -593.828186 -125.521492
642.251099 -831.525757 86.624405
650.897705 -729.974854 14.223423
727.033386 -642.864990 44.829002
715.695374 -573.765869 -4.442226
736.509094 -627.741455 91.078217
599.609619 -734.591614 -12.325921
773.674805 -853.647339 166.473862
703.171021 -690.105225 90.653275
639.276001 -846.373718 110.778809
519.708130 -722.644348 -120.880379
797.201660 -620.835327 167.906784
783.214966 -763.532654 193.157242
655.239014 -754.223145 37.306496
486.710571 -755.104004 -170.187576
521.291077 -628.137939 -210.197311
858.761292 -514.455261 137.927856
569.968384 -846.626831 57.710762
815.317566 -535.187378 115.777260
691.141602 -841.474731 112.371971
539.768921 -861.610535 -97.606133
712.639038 -756.066040 115.220154
692.098022 -591.234375 13.321994
717.774353 -598.359131 1.505520
705.140625 -779.606445 115.646461
750.143250 -859.138611 156.099991
752.673950 -642.798340 70.308235
565.730713 -862.065308 -50.439243
616.021423 -583.589722 -100.737709
732.129211 -558.995605 1.777082
524.693237 -618.943726 -212.860031
754.620117 -594.240540 84.198517
582.358032 -638.076721 -113.433273
608.471619 -837.200806 33.396248
693.651917 -841.630249 154.401947
506.575592 -627.664429 -205.872513
797.378723 -675.380066 148.091660
647.024841 -847.897644 141.650955
746.743286 -607.762817 70.392166
782.884705 -621.013428 103.105377
652.789124 -616.812805 -59.122688
573.285034 -698.245728 -80.228828
770.484497 -697.949585 142.245300
656.434448 -591.942444 -46.453728
772.982727 -627.520630 87.811348
665.632507 -647.284973 -8.986204
714.838501 -627.599182 35.701965
735.320313 -525.360657 -10.060858
612.055542 -743.730896 -6.343045
677.704956 -536.417847 -78.266258
725.710999 -535.501404 -11.819063
640.720764 -744.977051 25.127571
653.987610 -605.848450 -46.715176
722.979492 -823.836365 128.024841
622.203064 -563.621399 -109.095367
671.173035 -573.579956 -41.551197
562.596863 -765.674683 -67.043419
558.651062 -839.213867 65.095924
657.032166 -599.020752 -31.737900
673.709961 -682.083069 5.420460
760.199097 -768.165100 201.884186
844.504211 -552.212708 132.825226
781.165894 -596.377014 89.828583
657.053833 -740.158081 31.183224
813.968079 -523.221802 91.948715
557.974426 -695.316772 -101.738083
660.636292 -535.240295 -85.380760
789.563904 -657.012878 142.917755
775.339294 -631.918579 89.919144
473.628143 -777.527161 -156.263901
737.913696 -866.328979 128.534348
511.531464 -600.307007 -201.067902
541.327515 -722.869263 -80.396057
740.064392 -558.383789 42.021976
537.244873 -658.769287 -167.968582
713.860718 -705.384644 84.091507
651.358521 -691.220093 -12.457317
512.028259 -569.500732 -203.492310
515.239868 -685.011963 -131.298599
496.676880 -750.944641 -126.879410
703.199158 -560.862366 -17.756433
744.813538 -535.906067 15.274119
656.558167 -565.745789 -72.037186
678.050537 -705.568115 71.563866
616.685242 -830.964661 25.435711
744.645691 -555.236755 30.423347
524.859558 -559.586365 -216.552673
617.230103 -702.906982 -41.447704
664.785889 -833.087708 99.620773
605.124878 -567.947083 -126.834877
782.204163 -608.048584 104.223579
786.834717 -525.578552 45.307777
673.467285 -641.851685 -3.809303
841.606934 -545.654297 134.620285
587.791870 -543.355408 -163.539337
722.392761 -592.891663 17.997318
687.159668 -753.777100 86.070320
559.547546 -729.601257 -88.023224
699.224976 -771.812561 118.943001
500.265350 -694.725891 -159.642059
682.080627 -620.143250 0.964376
620.157959 -758.617432 15.773512
551.520386 -870.203369 -42.858410
805.124573 -613.477783 134.704819
726.508240 -799.776917 159.223785
723.507568 -562.278503 2.200495
615.701721 -823.967468 52.316849
723.229309 -763.966003 113.572166
599.729919 -843.683228 99.714722
575.173096 -547.840332 -181.464417
578.544678 -609.434387 -136.192596
559.690125 -613.221863 -168.175522
692.373657 -682.976379 40.451172
633.875610 -721.507629 4.309364
634.017212 -679.245850 -40.498516
501.763123 -792.650208 -93.984406
619.654297 -798.828125 18.111626
481.547302 -735.032959 -135.898697
528.334778 -726.330566 -106.306175
569.657715 -739.964722 -51.595837
626.281921 -718.914429 -8.056912
781.358093 -596.122742 80.670319
685.478088 -686.363586 46.851471
619.485168 -841.654846 141.621506
851.921265 -553.504639 133.679382
682.195129 -543.176514 -59.509220
614.491577 -727.077759 -19.902065
537.976196 -802.839600 -54.225353
784.012085 -721.492065 168.684937
758.381470 -528.046509 11.677904
720.972900 -785.090271 143.746628
555.459106 -839.588623 60.867149
772.699768 -778.693970 197.922348
733.075684 -850.055420 139.106735
824.405945 -605.433960 136.349976
504.882507 -649.166138 -178.986740
557.617249 -589.966492 -188.369003
677.039734 -838.424438 105.214088
626.616821 -695.789551 -8.512558
589.529419 -501.878693 -145.066467
502.009796 -782.140442 -95.651863
641.924866 -715.282166 6.142249
721.458679 -690.700684 72.774353
720.990173 -599.301514 8.957210
678.044678 -823.078796 102.054047
578.076843 -848.887390 93.171928
779.872070 -664.544861 121.599724
764.501648 -549.444153 22.755726
785.666931 -528.857422 58.802608
711.354126 -540.183960 -20.715061
629.146301 -700.662964 -10.852675
528.677490 -681.468140 -137.807739
747.605103 -668.755554 86.813576
647.692322 -553.362671 -116.904327
831.221069 -644.270020 174.014282
558.065430 -704.414429 -107.549057
521.027161 -572.932983 -199.537384
578.449219 -768.864807 -23.108334
669.139160 -627.505066 -16.359114
749.813354 -622.286682 83.915855
723.980713 -544.088379 -5.484804
771.197388 -593.770569 83.453590
609.026611 -842.356018 106.656670
616.565491 -842.584290 139.661362
662.509277 -665.772827 10.511926
590.926025 -753.447327 -31.001677
576.237854 -559.665161 -154.296555
728.463806 -711.316528 132.427948
664.353210 -591.376587 -66.396652
802.773743 -589.353699 142.980835
592.231079 -849.775879 41.145325
754.746704 -596.957153 57.892502
687.658142 -616.285522 25.982162
547.373901 -743.207458 -80.104820
679.495178 -643.902649 0.324922
648.937744 -622.418518 -59.009773
602.447083 -622.188782 -92.700012
696.855652 -740.130737 76.682724
575.275391 -833.700195 56.761303
624.642334 -729.016846 -4.490886
706.445190 -664.612305 51.711254
793.797791 -701.177063 181.471176
752.306824 -669.845825 86.934669
725.319763 -597.510437 28.735720
584.199646 -555.927246 -183.532928
676.053833 -563.048889 -52.907063
598.816467 -834.411499 14.069781
791.302490 -696.059570 174.304367
835.951538 -515.947937 113.647514
597.777283 -832.952881 105.333717
742.458435 -638.625366 56.016891
519.325500 -628.932983 -175.841400
654.503845 -539.330627 -107.164848
515.482788 -714.431030 -128.113861
494.663391 -819.015198 -111.257729
542.834290 -834.337280 52.102207
557.663452 -844.683594 26.072598
749.432007 -763.734863 144.069901
694.137817 -677.657532 30.495647
776.328003 -650.728394 151.210449
838.512146 -540.620422 118.407249
536.483704 -571.287659 -176.728851
490.346130 -798.156982 -110.733093
797.657104 -598.777649 109.238548
623.633423 -570.467468 -98.937683
749.408081 -613.700439 51.025337
565.135254 -637.534302 -125.406158
747.021118 -681.715820 88.040489
743.884705 -750.056702 130.840714
540.303284 -740.119690 -84.551605
529.145020 -748.628906 -97.643112
749.414795 -645.908630 74.579514
835.843689 -636.084290 171.046036
853.504944 -528.060669 132.201813
736.145874 -852.057922 158.236435
521.153137 -811.881958 -85.178696
661.824646 -605.289001 -23.899418
631.896851 -829.880554 43.627609
552.032898 -685.479858 -129.020645
594.416443 -842.255188 18.549868
705.111938 -644.135925 36.043346
776.123596 -762.639587 194.814011
676.320496 -630.215820 0.492524
612.940857 -738.490906 -1.747925
791.983826 -753.400818 201.139465
541.573669 -552.368835 -184.007904
611.445557 -550.953918 -108.160652
767.885864 -743.839844 171.946701
794.844543 -786.290710 216.544434
541.112671 -701.797607 -138.885590
596.835083 -756.897888 -29.882309
699.456421 -714.515991 61.937313
521.148499 -841.895203 8.002519
368.764313 -1140.568848 -73.302704
656.272400 -837.196533 123.197395
722.327942 -533.749390 -30.494015
715.419128 -566.952759 -7.759475
699.430908 -816.711060 130.906891
830.879456 -568.021423 123.931091
614.280212 -792.192627 9.106937
704.619690 -554.626099 -26.936174
616.141663 -593.354675 -109.460091
615.721924 -843.489624 24.942986
798.980347 -668.173645 167.745239
528.442932 -599.746826 -203.087280
634.245850 -817.234192 43.252373
514.288391 -704.444214 -163.187927
617.526550 -841.086914 24.854986
752.727783 -851.727722 145.705704
810.257446 -576.582214 110.140152
699.859497 -528.417236 -44.112278
724.603210 -867.917969 137.271988
527.909973 -768.182312 -100.025375
682.332825 -580.975342 -35.830315
713.376160 -629.403625 33.038429
528.991150 -659.673767 -163.274673
593.349304 -532.812134 -180.655167
801.860840 -787.157532 208.681488
792.118103 -633.680481 112.658653
597.382690 -786.194824 6.478072
546.650635 -688.046570 -112.195015
816.882874 -595.690063 122.509338
685.324158 -722.720642 66.501732
641.097961 -843.569336 148.922745
807.053589 -728.071899 198.509247
841.662842 -531.098145 133.757065
735.676270 -555.942932 2.297757
764.540283 -715.533813 127.517914
697.429504 -777.631226 106.278358
603.526184 -736.948303 -24.820595
648.167358 -592.447815 -56.667210
592.885376 -545.517883 -121.376167
555.997559 -732.939392 -59.005489
757.249207 -589.796021 51.933949
733.356262 -619.322021 47.866344
715.564331 -717.393188 123.928993
690.397766 -678.504211 69.901855
737.864258 -808.794128 141.266800
573.656616 -791.355713 -31.132187
693.144714 -552.922241 -29.747768
769.270752 -734.772339 159.639221
855.305542 -514.586304 134.081451
820.459045 -612.285583 137.477905
625.479370 -652.833435 -64.127914
700.515320 -535.070129 -32.842327
547.615234 -673.226013 -120.868111
627.652954 -650.494690 -52.409756
550.824158 -651.779663 -122.519463
769.685852 -530.473694 32.280270
751.492859 -537.040955 25.137810
555.695374 -661.865112 -119.750397
724.661072 -690.504028 97.068413
720.527832 -570.136475 -8.533148
620.364807 -579.157532 -80.067810
788.804260 -582.669678 74.925934
624.561462 -837.452454 25.357952
494.149231 -858.241272 -149.226730
859.189148 -515.168884 130.403610
531.842468 -687.398804 -129.670898
614.325562 -804.950073 15.309501
782.617065 -663.546082 127.309669
592.409851 -824.334595 11.179371
668.331726 -752.866272 63.905220
791.846313 -565.682617 84.500359
682.308105 -688.628052 44.428055
512.190063 -734.337708 -138.764786
566.575317 -774.335693 -55.033680
767.256287 -682.104248 159.570755
806.443726 -677.150024 170.225113
844.694641 -558.243835 144.744125
687.392761 -618.250488 -6.681713
709.503906 -573.859192 -8.814232
720.689880 -829.643677 114.561615
726.991699 -709.735962 99.464310
804.987427 -585.634399 121.277245
766.102051 -557.197998 70.936638
668.262695 -579.915344 -63.855591
735.337463 -774.914368 151.701538
632.786194 -782.748047 30.600601
704.379456 -760.578369 95.892952
691.175964 -610.182129 5.135743
796.517273 -541.641663 58.107452
813.198120 -600.790039 139.205826
673.039246 -683.037170 24.422968
523.286682 -727.700256 -116.553329
682.587524 -724.152771 57.367729
596.254272 -819.666809 -4.678069
726.001038 -606.175476 31.095402
789.602478 -556.721313 86.353333
541.310974 -727.781616 -90.905472
603.404297 -640.469788 -100.183868
500.624573 -764.276367 -119.406075
622.537354 -574.990723 -67.801628
781.883057 -516.166748 66.218132
600.312805 -692.774170 -24.689381
600.658630 -831.961365 53.506802
572.193665 -840.618164 -33.431774
616.217285 -574.063477 -109.534233
514.852417 -660.855896 -150.448242
717.463623 -534.850891 -24.948286
809.694763 -663.798218 159.104736
475.273651 -748.052795 -166.299393
500.655548 -708.553406 -173.872543
667.727478 -558.297668 -55.418507
676.464600 -750.192932 68.861290
640.409363 -840.750854 98.844673
564.321716 -629.202148 -116.431618
585.235352 -848.113525 78.429276
705.502075 -596.760071 -14.855941
762.947449 -845.980042 170.602142
774.105530 -676.401062 128.694183
540.904358 -608.993225 -172.059052
708.156128 -670.102356 46.874077
690.789551 -836.599426 123.065323
789.267395 -574.486633 74.757294
589.028748 -830.231079 21.225813
654.890259 -769.498596 64.238838
528.177307 -572.067505 -206.922607
711.344849 -844.220215 156.401657
804.215820 -547.563843 115.802094
737.823608 -662.233459 81.310905
734.061768 -845.402405 123.616516
790.594543 -575.508179 78.321671
762.650513 -751.987122 171.770157
613.712952 -653.192078 -58.632469
532.784912 -711.714355 -116.036522
506.515015 -678.757080 -183.653412
736.928711 -727.016602 125.939766
705.516602 -753.856140 87.124832
768.274475 -726.793579 140.317184
613.217590 -657.056763 -63.900471
816.519653 -674.945251 168.408752
721.171631 -839.952332 125.316879
703.627808 -581.480042 -10.068164
536.570496 -850.849915 -7.020440
543.786072 -806.799133 -79.836487
666.062439 -814.056030 99.098587
703.527527 -690.142029 62.211090
533.677979 -610.621765 -187.815353
594.097656 -841.312195 84.155388
531.183350 -629.389343 -168.021378
525.160217 -670.262573 -176.865540
598.606140 -834.734009 -6.965860
569.207520 -679.279541 -91.637306
779.490540 -528.812012 53.291836
615.325439 -853.130737 76.557236
691.737305 -836.414978 110.260475
560.344788 -806.490112 -15.243862
683.606262 -659.166748 19.327898
768.035278 -527.509949 14.496610
855.784119 -590.485962 178.926971
671.007813 -727.809937 30.758352
664.520081 -554.844177 -62.189976
771.785156 -574.999329 64.474586
654.004028 -560.270447 -71.626900
512.338806 -706.468384 -159.886383
576.225281 -778.606750 -34.284824
756.376343 -590.357117 51.864315
557.664001 -662.094788 -116.951988
866.123779 -524.769714 118.829948
779.841614 -781.340149 204.121750
583.333923 -644.046204 -106.010323
620.519165 -794.381104 50.504181
703.200378 -529.116821 -52.283264
527.061218 -593.213684 -174.802597
642.151978 -821.109314 88.037834
756.840271 -778.926025 179.477402
782.066467 -542.631226 69.433723
603.340393 -712.318481 -26.319183
557.974609 -749.256042 -59.453541
565.545410 -626.893738 -147.892593
503.422638 -750.192200 -99.885696
723.086426 -739.926758 98.301735
673.953186 -619.508057 -17.668413
745.958252 -814.531250 172.797394
579.979736 -622.296753 -116.130371
707.053406 -643.651855 25.004108
647.404968 -581.071228 -70.393005
492.211823 -745.412842 -164.367279
638.616882 -815.289001 59.049892
631.817444 -658.011658 -61.278225
785.184204 -722.725769 167.432678
727.037537 -723.314575 112.226654
817.526123 -594.865112 137.424438
622.819336 -579.370667 -116.892860
582.803467 -625.806091 -138.765152
545.498047 -848.547363 1.260469
777.596497 -702.707031 182.667328
823.570618 -524.604858 75.580620
837.835266 -535.998596 144.144318
641.604736 -722.704712 20.717474
775.350647 -568.257385 74.309410
544.609314 -840.468384 79.562363
799.597473 -836.535339 199.465317
789.287659 -599.074829 114.931999
783.517883 -600.171509 111.938393
511.083740 -654.904846 -180.627701
612.130127 -534.049622 -112.894142
621.210022 -830.574707 98.504875
641.886536 -840.381409 80.610100
789.101318 -766.880859 203.397232
660.314575 -833.779053 153.353500
500.217621 -739.419495 -136.144363
735.864075 -525.331055 1.040705
816.530334 -678.461060 182.217697
712.885010 -781.840149 131.624146
556.880371 -594.238586 -157.503860
763.365601 -640.877686 88.463860
784.047974 -664.617676 144.165588
651.637085 -605.676636 -47.499645
525.127197 -771.203186 -68.366333
577.853149 -617.152954 -124.872749
545.648987 -859.186523 -5.713802
795.936829 -599.520508 115.544777
468.011078 -796.973022 -128.062531
556.255066 -854.385864 -23.706184
818.716492 -546.884094 96.175598
575.117188 -715.742493 -64.154976
727.976013 -690.735840 91.074272
684.416138 -719.608276 54.989433
748.748779 -676.071533 94.995827
591.265137 -666.134766 -101.807533
653.072876 -806.461487 54.409637
595.336121 -714.530029 -29.778992
703.971191 -568.487427 -13.133763
759.979187 -559.390686 73.744728
526.619202 -748.348450 -96.226768
728.432312 -551.085938 -2.514964
658.822327 -664.591064 -25.972944
553.470642 -853.779968 31.199966
603.185181 -757.425232 -21.377161
618.530823 -597.589294 -72.139000
621.415405 -608.647400 -77.345963
567.118835 -721.968994 -73.289253
625.037842 -831.720581 123.078629
620.001282 -845.565002 121.060684
698.894226 -536.154053 -56.342300
750.150269 -678.949402 95.251579
786.780762 -576.157166 85.369873
540.833008 -573.477478 -225.342819
585.711731 -794.926453 -14.410120
474.391846 -776.290894 -163.821548
749.581299 -544.922852 29.917404
703.833679 -593.071838 -16.217331
808.059021 -542.821472 128.532608
671.074585 -576.265808 -67.756828
549.533081 -865.076233 -45.830116
552.673523 -673.925415 -125.584473
694.925598 -575.422729 -7.066131
734.661865 -858.446716 150.934280
573.661438 -848.467712 58.531536
569.114990 -775.826172 -28.283548
574.080811 -541.121826 -192.615372
763.442078 -673.623779 114.123337
505.447845 -792.020020 -90.104820
731.231689 -744.989014 123.351929
661.856262 -529.547424 -88.594864
594.948730 -711.241455 -46.165207
722.140991 -675.625977 55.467487
655.003174 -546.989319 -79.823021
753.457703 -528.389282 24.891338
537.342224 -649.240234 -174.315598
533.166504 -573.657227 -198.661743
628.667969 -847.156372 114.633667
830.805603 -630.159424 169.224548
555.901611 -875.140503 -70.050285
682.792969 -593.800903 -25.440783
660.674561 -800.350830 53.817165
618.240234 -574.924438 -99.628906
652.341125 -713.350281 11.166914
653.758362 -690.471252 3.473093
576.038574 -686.931458 -101.028862
687.048523 -617.251343 7.967756
647.130920 -726.952759 0.528357
655.489441 -691.527039 6.460065
689.807190 -573.621460 -1.370804
548.792908 -779.209595 -34.877522
537.961975 -583.659607 -182.366150
722.305664 -685.058350 64.229485
735.390381 -576.499695 29.770603
808.904053 -663.124939 179.841156
747.723755 -584.520935 40.950222
643.254456 -764.370422 46.016937
749.929321 -543.539795 16.487570
825.888367 -557.284790 109.818367
813.277832 -690.819336 179.322052
561.160950 -556.930359 -205.743332
692.092590 -621.125000 -11.914362
631.971924 -691.985535 -31.396463
620.549927 -631.653198 -89.936356
539.094543 -587.149902 -194.391937
608.266663 -538.732727 -144.927063
828.870117 -653.491089 183.869888
713.691589 -589.851990 -7.925796
786.401489 -613.170837 111.687775
708.632629 -697.443542 63.017349
676.418518 -740.918762 67.469070
817.110840 -564.658752 108.355995
639.716309 -573.309448 -42.802929
585.581909 -848.475830 103.757439
850.423828 -612.637207 183.367477
665.887634 -717.265442 31.232880
721.788330 -587.369812 1.682177
798.746643 -589.530212 105.217255
812.883545 -570.407837 118.382645
761.711975 -585.218689 63.772747
684.771790 -572.163696 -26.256083
553.171631 -752.556213 -64.633354
817.113525 -572.569214 137.974869
684.402649 -674.790466 17.316273
557.400085 -697.177185 -95.245461
673.866333 -819.262268 92.400108
721.175049 -686.738220 81.108711
651.512939 -714.420959 23.954710
754.590759 -578.730652 42.703152
817.509094 -684.328552 179.505814
710.441833 -594.219421 4.978945
624.181335 -547.089478 -120.283020
798.881042 -628.109375 146.470306
696.172119 -569.988647 -25.792316
773.597839 -529.233398 70.006157
680.639954 -550.104004 -10.146266
529.547485 -685.089661 -133.634323
824.412659 -636.105713 153.066223
637.329895 -552.847595 -88.294754
620.272156 -820.961609 58.003654
578.162964 -723.197632 -60.430435
530.886230 -617.580078 -195.507874
546.645325 -758.108154 -53.973675
693.906067 -570.657043 -19.502340
754.813416 -656.920898 129.664764
554.497803 -757.400085 -58.832253
709.705627 -719.950867 77.465538
796.948608 -725.191223 181.620148
699.622742 -742.526123 73.067032
479.193604 -748.340454 -129.746918
600.057129 -558.340271 -105.813652
700.598694 -665.090027 51.391121
624.137573 -824.491028 89.298180
665.065430 -757.310059 49.519947
521.623840 -771.902771 -84.049812
595.740906 -676.717773 -71.351837
659.491089 -733.649963 27.030046
566.208374 -629.442261 -155.065109
816.337280 -616.830933 139.052002
580.383667 -626.677429 -113.323593
723.329712 -525.688416 -25.684591
771.590942 -610.863220 103.912437
653.505615 -620.562500 -40.438824
476.524780 -766.900391 -160.174728
778.893005 -623.665955 111.059525
688.807495 -824.606445 112.864212
730.593445 -554.978577 2.978979
743.523499 -564.805481 33.750111
753.913452 -615.160278 75.217415
504.128143 -663.687317 -181.031891
708.934998 -544.625793 5.036931
570.693176 -839.791382 49.600037
554.361023 -720.237915 -84.497650
737.807800 -680.012329 90.318909
728.754272 -727.408386 96.987350
805.610107 -723.964478 191.858536
759.782532 -717.018616 154.184616
831.005615 -571.859497 132.317032
659.936829 -708.136353 25.342030
615.196533 -568.444702 -110.833977
640.011353 -655.588745 -25.170174
726.753723 -613.349304 23.379972
528.149658 -586.539001 -209.625259
538.351990 -846.089722 14.228250
652.425537 -843.357361 145.384293
673.445740 -808.509705 93.126373
772.926086 -700.534790 132.909271
775.681213 -539.733887 63.997410
502.535889 -753.889221 -136.041779
794.351501 -658.522827 179.513962
623.452698 -755.365051 19.423672
544.539368 -769.580627 -61.977158
834.943298 -820.715515 236.500107
748.281250 -640.714111 84.950340
775.199768 -586.493958 68.623474
604.983154 -594.210388 -103.692932
759.299561 -666.273071 97.948898
559.831116 -602.938599 -180.428696
769.541077 -628.244446 84.229240
539.068176 -697.405762 -144.355225
700.656128 -601.850647 -16.298510
551.319763 -677.396912 -123.018089
785.138733 -531.332520 65.393501
634.806824 -532.013306 -137.174759
558.075562 -731.343811 -70.299568
502.557892 -707.627625 -146.530792
623.488647 -531.133484 -137.132904
556.945496 -711.286804 -85.020607
497.336365 -747.836853 -158.585159
601.555786 -834.865784 57.975475
727.086121 -800.445313 146.332840
593.574829 -716.583984 -44.269573
585.979370 -842.810852 55.221272
679.262024 -690.807068 21.519609
546.058655 -548.131714 -192.540543
539.645020 -747.157532 -101.276413
738.684021 -550.070068 -6.782355
639.900269 -839.359192 68.284477
852.472168 -525.399353 114.616203
649.624268 -620.905640 -62.577812
722.084839 -857.206787 122.668396
698.403992 -751.191528 120.327759
787.057434 -712.425537 162.774216
810.734131 -633.479370 143.887741
591.203857 -559.905273 -178.250626
598.085693 -820.181030 -9.152431
680.797302 -845.374084 118.256958
660.228333 -543.080322 -78.257286
789.528564 -642.499695 118.148476
654.457703 -631.314087 -26.654383
788.715515 -751.455261 192.974777
657.385681 -615.871460 -30.553860
657.584534 -686.526978 36.903156
776.301941 -569.673828 99.315063
728.556824 -635.411194 45.466072
702.572510 -710.837830 77.003601
796.259949 -676.856812 173.053879
590.243591 -555.321472 -176.530258
543.176086 -634.142700 -178.855499
689.801514 -734.248901 75.838913
745.787292 -600.123657 54.882454
706.374451 -608.317627 13.088436
792.498840 -573.205017 78.267242
555.051147 -857.855164 -7.816396
634.448303 -842.644714 117.651741
625.694031 -739.758789 -7.591375
720.300293 -730.683960 96.664459
632.496826 -846.079041 80.420189
621.161194 -661.289368 -45.221119
518.588745 -702.534729 -133.507843
728.469177 -703.218384 99.121826
805.557312 -538.823730 68.965927
565.116821 -695.404907 -74.104820
776.660706 -613.970764 86.373085
555.704224 -657.740845 -122.328125
757.093506 -698.655884 158.318329
791.823181 -576.882813 121.097214
582.160706 -854.435852 30.685009
503.989990 -729.502502 -139.202179
802.026062 -541.618713 76.087601
776.765015 -620.417419 91.818878
753.105408 -570.094299 47.124851
675.136169 -657.152771 -3.641356
569.604553 -548.578369 -173.485107
664.766418 -717.265198 22.341520
560.983398 -780.137146 -56.624283
777.206482 -602.959534 87.178299
610.362793 -772.873230 18.286366
572.136230 -679.719788 -92.864960
538.676758 -740.036072 -105.158577
782.475159 -749.587708 217.025818
792.102173 -769.058289 204.519394
832.545471 -517.581909 118.020103
564.646973 -684.239380 -113.811783
803.139282 -641.453064 134.631302
712.616882 -671.343018 62.685833
629.602844 -843.741028 97.960411
797.132813 -525.276367 69.957718
775.696228 -556.987183 60.155903
742.611633 -651.337341 84.870293
837.715149 -543.122253 167.443649
799.235291 -528.610352 53.546963
850.725647 -542.182678 127.533012
686.547546 -672.738647 34.679035
765.995361 -770.726807 191.647614
765.537170 -810.894836 177.345749
777.477234 -736.613525 160.254440
578.631165 -760.062439 -29.060617
764.913940 -573.031372 66.575066
717.077454 -607.514221 22.830654
736.071472 -603.834534 38.191406
812.190186 -696.338257 190.223770
559.825073 -677.320801 -126.007843
674.873474 -699.995544 36.321159
836.821899 -583.752686 134.823532
534.647827 -567.395508 -207.758057
515.061707 -647.763428 -205.545547
780.535645 -702.349121 137.945496
644.504028 -568.914734 -104.997948
758.124695 -541.225525 29.708088
591.422241 -647.092529 -66.018456
615.577881 -532.422852 -157.408356
526.277100 -845.770508 -106.868645
746.313599 -715.291138 111.542130
728.991211 -533.706177 -1.122481
660.512207 -529.737976 -95.942696
599.203796 -641.247742 -81.679779
780.235840 -688.878845 175.748703
623.445251 -799.089661 22.100342
838.158142 -563.602173 125.253349
783.578369 -769.778137 191.910599
595.338440 -596.719055 -97.525925
701.266907 -655.551025 25.734259
649.790039 -660.050354 -19.281651
536.608032 -622.059509 -145.138016
716.588257 -602.852966 18.410360
646.157715 -647.179443 -51.865189
526.742920 -555.110474 -228.820190
642.317749 -590.105286 -72.001114
637.756775 -664.380005 -42.630913
573.722778 -839.458008 -1.262656
727.000793 -714.091553 86.698463
686.322632 -593.295715 -35.565136
591.085449 -847.449829 90.029716
746.499023 -595.456299 52.877457
804.638794 -568.242249 100.769424
774.721191 -536.905457 51.367043
655.579468 -779.526855 56.053650
620.546021 -539.688171 -95.672295
770.432007 -630.770996 115.827232
552.313354 -703.742615 -105.254417
577.057373 -631.977356 -113.427483
640.829712 -799.217834 42.487446
542.514587 -576.675598 -206.956146
753.977783 -523.801880 12.154432
710.528625 -560.398804 -10.652122
744.856812 -725.228455 149.526764
764.236267 -678.094666 138.187393
774.193604 -699.217346 148.553558
492.188721 -750.197449 -124.616371
572.144409 -831.387878 105.217003
591.209717 -501.921967 -134.436142
683.774109 -734.400208 69.080727
741.243835 -712.445618 116.445953
559.614990 -848.446655 30.133778
796.854553 -570.435181 90.311882
725.645996 -625.965576 39.936123
822.669983 -609.924194 154.016479
489.625702 -674.248779 -168.651459
518.607849 -712.825073 -113.081192
724.013000 -857.019470 129.791626
718.837708 -607.010132 24.041517
798.415039 -516.940247 58.910480
725.437866 -803.242798 139.000183
617.276123 -627.405762 -46.033978
770.036804 -545.274048 84.152771
534.817505 -543.851746 -219.580978
546.187378 -695.608337 -136.613785
794.791382 -708.009460 162.632889
762.447876 -752.901245 150.612976
672.999695 -545.966492 -38.062820
543.666443 -701.161377 -108.105331
688.483887 -585.144348 -16.693705
579.117615 -671.605652 -75.041283
718.487000 -654.534485 92.522705
579.181885 -628.153381 -139.626617
526.895935 -681.101746 -125.445381
677.815430 -823.398315 100.561913
773.594055 -586.272339 90.404556
629.374878 -565.315796 -92.067902
833.538879 -548.831909 168.168961
662.971375 -778.912720 76.211960
729.859802 -585.255371 29.358604
737.384827 -596.536011 48.756813
533.923950 -628.788696 -189.495148
589.334717 -836.180786 75.651306
751.338379 -596.087463 63.578194
657.398682 -758.560486 43.408722
507.543915 -613.103760 -206.209229
472.958527 -758.342651 -151.773041
701.845581 -755.185730 100.418159
562.164734 -615.136230 -144.379654
675.453613 -825.367676 86.063866
569.037170 -614.750305 -132.046295
741.474854 -574.255005 42.429501
758.347290 -699.597595 132.786392
571.449829 -667.329041 -100.321701
747.887451 -714.883606 145.057022
793.254395 -522.960632 55.069820
817.065491 -618.245850 181.458954
544.362854 -626.536987 -139.286880
845.022034 -589.343994 154.553177
585.076904 -842.350464 69.027817
640.850037 -579.873047 -94.352768
650.214233 -565.796936 -74.162872
499.779877 -778.367615 -101.938225
537.231934 -848.475891 13.187989
820.890503 -562.614136 109.824257
732.584106 -666.755798 65.354599
828.820679 -649.565063 197.832321
735.726196 -623.626160 53.573128
660.208679 -840.928040 101.428223
580.605652 -661.214172 -90.461006
493.927704 -750.612366 -137.441635
601.645020 -617.388977 -122.220345
556.361572 -836.082520 -65.229187
609.252075 -582.533936 -75.453575
540.070496 -844.821533 53.105808
549.881287 -682.041565 -131.716858
774.832092 -729.466553 166.361893
765.411377 -583.132141 72.231247
522.277039 -547.235596 -217.586716
780.794373 -837.607117 175.434067
668.317566 -843.429871 120.715912
640.267456 -555.640259 -84.283295
517.301331 -641.685181 -189.569702
563.245422 -572.756165 -168.941208
621.277222 -848.543884 95.707977
666.305054 -706.320984 21.727003
582.846619 -748.628418 -29.468422
763.435669 -696.069519 139.723740
508.840271 -615.299072 -220.220352
797.575317 -558.886169 76.716194
641.737915 -536.054260 -111.009804
748.831543 -558.460815 37.408844
707.716797 -788.164978 100.387169
734.896362 -664.824219 63.514469
590.188660 -852.418274 4.219388
784.736450 -583.438660 72.818748
532.007935 -715.550476 -111.315071
574.875977 -716.470337 -80.720360
834.178528 -585.500671 136.770660
772.474609 -547.972107 47.607277
747.093384 -731.024231 139.613525
585.976440 -854.995728 92.555977
563.984619 -659.560730 -139.652039
748.467346 -722.927124 115.205986
594.468506 -834.185730 83.931427
721.273254 -737.749146 112.196259
570.182007 -750.936768 -62.396580
762.751465 -766.225525 174.935226
635.678284 -851.680847 103.269775
836.025024 -611.013672 163.612122
557.655518 -669.838440 -110.547760
537.727966 -554.477722 -220.791336
633.387634 -811.388916 55.261692
798.505615 -688.876953 163.113586
734.094604 -793.179810 144.091843
641.853821 -573.022095 -74.825241
561.556091 -748.149963 -83.916031
811.179260 -552.308533 90.407867
707.206848 -704.430603 77.560394
518.312134 -713.621826 -132.096283
548.765930 -573.034302 -164.587616
601.519104 -846.848938 41.605701
722.036011 -606.010071 12.783610
527.895142 -681.985779 -159.431763
665.370300 -771.808899 82.379524
674.879639 -561.867004 -44.024368
671.186584 -573.273071 -63.415939
697.241089 -697.370544 62.955830
789.098938 -746.492493 190.799393
638.393005 -627.971375 -51.720284
755.001892 -804.510986 162.855942
518.742859 -724.252075 -145.901169
717.308350 -583.085571 12.410954
768.121948 -770.084534 179.597717
487.168182 -681.481262 -182.121246
739.976501 -747.677429 125.627350
531.075867 -630.398926 -172.610519
840.186707 -518.015137 116.915199
713.202576 -539.707214 -33.834633
686.510437 -593.885498 9.372804
755.297424 -800.657837 203.770889
596.562500 -737.730591 -42.188442
723.293701 -584.972595 26.822903
526.819519 -560.377319 -193.036209
612.648071 -847.061523 114.541016
718.280518 -654.920227 55.160194
788.376221 -637.899475 116.570053
644.082886 -617.676331 -71.704193
721.994995 -759.218750 112.934288
665.472290 -662.609314 -11.574917
619.737610 -642.051208 -62.809299
600.728149 -847.065735 45.864899
790.002625 -573.765259 70.723610
707.084290 -683.248657 63.452572
705.756531 -760.614563 117.937622
806.380432 -708.709412 175.759140
750.859070 -795.031372 170.489044
610.542236 -561.080627 -119.348152
595.779785 -771.721069 2.603980
753.824829 -660.881042 105.147919
680.640198 -694.066162 30.207180
700.313354 -812.218018 116.132324
572.072754 -839.335815 41.790043
618.574402 -564.381836 -132.733765
538.957153 -856.793701 -11.219652
628.647827 -831.850403 127.290497
618.149475 -845.569458 48.627098
533.121338 -700.424438 -120.141769
649.981323 -662.531799 12.652989
622.395691 -768.049194 -0.448664
641.487976 -630.384705 -48.131912
743.395996 -617.252380 46.935001
517.149048 -717.847534 -110.657417
635.775757 -551.832947 -71.552322
852.023438 -535.686035 126.536324
538.459106 -576.932800 -205.863632
658.004578 -600.831665 -47.395576
759.717041 -572.133362 55.320576
755.385254 -795.880737 174.652039
797.619019 -779.246399 211.804504
612.382629 -837.195435 119.845482
660.922546 -618.900696 -33.533527
719.692627 -535.161194 9.835590
771.843750 -579.865356 100.966881
708.059631 -760.235535 126.036430
739.834595 -593.590515 44.397499
567.658203 -549.334351 -178.054214
563.595581 -868.869629 -49.933895
621.696716 -833.836365 128.462982
695.942139 -524.485840 -50.021530
514.569580 -591.749756 -187.468765
695.544678 -539.399841 -56.880463
639.281677 -794.680725 45.465797
637.447205 -636.063904 -31.939142
502.560516 -713.752625 -166.398270
555.155273 -848.667847 33.834881
776.175781 -745.257507 165.720749
543.836426 -628.999329 -150.929398
507.080414 -707.349976 -129.169937
766.734985 -596.894409 71.243553
591.782288 -832.676819 126.765541
771.048462 -548.001648 29.766783
517.401855 -774.878052 -113.106171
747.866516 -561.123230 69.849991
827.804749 -621.235107 165.268890
667.388428 -836.036194 129.002533
502.422150 -737.337769 -120.988029
656.624634 -728.063110 42.197796
715.100769 -574.045105 -1.539887
802.212891 -572.439514 107.439201
816.498962 -568.305054 121.456917
521.343079 -699.747498 -161.083862
727.352539 -699.289612 83.263336
609.255432 -842.888367 7.864400
736.107483 -687.708862 95.848801
592.607544 -631.580566 -95.408218
