ply
format ascii 1.0
element vertex 1368
property float x
property float y
property float z
end_header
-858.895752 -438.138489 466.815613
-850.676636 -455.523193 577.842163
-671.882996 -507.396179 558.257019
-769.989136 -481.383209 532.931152
-576.856140 -546.890381 313.794342
-665.692871 -523.380371 576.920837
-579.606995 -543.280151 392.398407
-612.997742 -524.807495 163.836258
-623.921814 -526.464050 134.963837
-643.993347 -511.962372 204.283188
-774.690308 -483.416626 547.921692
-691.351746 -508.654541 513.359009
-681.215332 -517.408447 531.565247
-733.516418 -493.889526 568.971619
-569.952637 -540.138245 136.182037
-676.885010 -509.305115 442.708801
-559.947754 -556.191345 136.369415
-574.900269 -542.215759 279.131836
-814.197266 -418.691895 180.598419
-830.634644 -435.238068 414.640289
-712.779724 -492.761200 279.374481
-878.857666 -379.190887 448.536591
-572.342285 -559.090820 573.639038
-614.434326 -527.023438 300.686462
-636.929138 -505.632935 314.996704
-623.624573 -543.735596 569.955811
-586.050842 -551.386658 312.806793
-753.734619 -475.852905 288.918488
-811.297791 -429.365906 364.668030
-785.734924 -440.488586 182.564957
-653.207275 -509.376709 407.212555
-761.592407 -450.452423 180.583557
-618.991943 -504.947083 281.763062
-780.669495 -455.814301 420.285492
-720.115417 -470.680023 481.320587
-782.512512 -456.438904 202.868454
-714.797241 -501.793640 391.784363
-762.769043 -449.017456 275.461761
-578.589905 -553.216309 240.254303
-895.461304 -424.104248 468.246887
-691.879089 -500.598907 452.377869
-657.229370 -528.770813 540.793213
-654.848267 -510.950195 148.306335
-888.426819 -387.517395 404.762939
-683.771973 -514.903076 447.106079
-599.321960 -538.848633 529.754150
-652.572266 -527.496826 575.611267
-888.078064 -436.278137 463.201935
-881.826355 -401.782837 361.318085
-716.371582 -470.142273 395.183075
-600.618652 -555.546204 603.809937
-566.937744 -555.295471 294.215973
-782.212708 -452.631409 432.326599
-798.062439 -444.451935 556.897705
-798.040039 -442.397125 358.776093
-705.263855 -480.262848 541.743164
-745.497375 -463.886322 271.843567
-752.851807 -485.868042 491.620728
-620.948059 -529.686279 173.396606
-871.328308 -376.885223 334.746124
-802.055298 -457.621613 297.678955
-698.818665 -506.508484 465.342285
-890.325867 -371.953217 432.459473
-867.525391 -351.973846 359.937592
-614.391296 -525.133911 219.561127
-617.776550 -541.151917 493.190979
-862.905273 -435.740814 292.876801
-709.179321 -509.465118 600.116577
-760.194580 -449.786774 391.872528
-882.504272 -401.331787 406.900238
-573.145813 -547.472473 340.305573
-577.773987 -553.059021 464.487366
-657.967590 -508.824554 164.594757
-829.968079 -446.279114 576.913147
-805.117676 -455.134583 388.733490
-842.027222 -458.754242 562.392151
-572.450195 -556.503784 508.918610
-681.407715 -512.873047 512.086304
-765.581543 -467.132355 243.557983
-594.042725 -539.684753 322.787628
-616.055847 -525.373291 567.084412
-693.571167 -509.184265 423.039886
-713.609253 -486.906830 508.067719
-803.268494 -462.239105 604.174316
-794.875732 -457.198456 368.530487
-606.468994 -535.705261 345.222992
-598.307251 -550.740112 538.066528
-759.567261 -481.079803 566.240051
-594.129028 -542.229858 147.712708
-877.509399 -367.863678 294.254364
-636.144897 -532.771057 302.864868
-727.140808 -486.140808 506.384857
-588.648560 -558.396118 555.045959
-883.679443 -416.732483 377.167969
-800.606812 -422.231384 148.922577
-653.491760 -524.841248 612.249512
-805.868042 -457.056213 509.905640
-671.546753 -503.081268 313.074890
-616.124512 -513.009094 386.384064
-873.850891 -384.747162 388.844757
-812.250427 -440.743225 401.570129
-828.270691 -428.024597 254.220016
-750.009705 -478.607086 248.108017
-827.489319 -430.738434 322.779175
-892.977661 -383.169525 444.807739
-884.379517 -438.078461 404.744995
-656.100525 -522.861389 350.877411
-891.592285 -409.522339 276.697571
-740.110229 -480.224518 366.861786
-765.291748 -467.758026 142.402237
-696.444763 -491.012115 383.801056
-702.228882 -488.086151 361.268829
-748.199646 -462.275085 206.623535
-733.857971 -469.491516 258.398193
-630.549622 -525.980286 163.239426
-643.763672 -524.950317 501.082520
-777.694824 -453.930969 358.095825
-683.377747 -502.623413 579.589050
-797.420227 -442.896423 342.972412
-824.438416 -430.554016 267.132202
-823.385498 -423.560944 127.311768
-714.768066 -472.945251 457.280243
-858.981323 -414.050140 328.535431
-894.126343 -377.092590 448.984985
-589.533630 -527.236023 548.579285
-701.190796 -496.086182 406.356903
-590.485535 -555.677612 627.472412
-888.467163 -388.867523 326.808167
-756.625671 -480.505554 473.822235
-652.683838 -518.525879 285.740356
-597.420715 -550.487488 470.027802
-650.866577 -522.919067 270.131836
-697.337341 -492.513153 362.807312
-672.518982 -526.364990 559.118042
-598.724243 -542.372681 585.475159
-706.112305 -487.039520 141.343765
-654.144775 -515.029236 580.218445
-580.264526 -542.493286 300.751038
-672.294922 -503.403259 306.779083
-775.317505 -451.854797 155.230774
-863.475159 -435.462341 384.791016
-640.940430 -492.378113 249.557556
-769.510315 -452.037354 266.877075
-578.995300 -550.394836 506.171051
-695.417542 -494.173798 142.597763
-581.457336 -557.032288 550.783875
-622.040710 -525.998779 358.174591
-774.595825 -472.997894 373.659332
-694.226074 -511.464111 583.266907
-789.549011 -457.106110 445.841919
-896.619690 -437.623688 264.485046
-671.212646 -489.453735 422.409912
-645.124451 -495.920166 130.918320
-827.198608 -433.099915 141.460861
-885.061401 -425.136688 404.739563
-611.708130 -545.320251 536.861755
-706.711548 -505.163757 576.442200
-880.140381 -380.178528 362.305817
-632.650757 -521.358215 304.736633
-633.837402 -521.113037 557.909302
-686.760498 -507.358551 233.798706
-706.349609 -479.200867 215.080841
-883.681274 -360.567566 349.757050
-857.799011 -436.170868 401.285309
-777.047913 -469.524628 411.524567
-671.244568 -512.328064 584.065186
-617.210938 -537.721619 535.971619
-755.110107 -473.685120 598.853333
-597.239197 -557.580750 477.615723
-883.244690 -384.186493 331.027710
-879.337708 -416.407623 384.100403
-843.633545 -443.091797 511.390991
-786.253296 -455.898102 244.646408
-770.236084 -471.025269 361.356476
-628.253662 -528.460876 512.047424
-581.029419 -546.605469 594.622864
-800.824341 -469.898041 603.248779
-873.676636 -414.372009 383.321014
-809.214539 -447.203033 436.070801
-896.922974 -441.823242 545.299011
-625.155212 -537.516296 364.276489
-688.650269 -511.577271 422.830841
-833.165039 -435.581848 143.796631
-757.538086 -476.940277 366.005829
-633.830139 -528.098938 415.598816
-702.269653 -506.592316 464.247681
-762.690613 -443.902924 234.212173
-835.788269 -447.065704 440.716431
-663.474487 -497.818878 622.366394
-732.823120 -466.613586 199.219543
-749.743103 -451.481812 245.319366
-638.853210 -530.517334 602.650024
-814.876038 -452.483002 580.219543
-694.798889 -480.258911 161.954971
-786.173035 -447.408081 583.710205
-872.301636 -382.308563 328.904846
-638.433533 -527.257080 572.986206
-607.412415 -552.009705 599.851624
-875.454529 -421.157440 312.953003
-815.513245 -438.008820 428.180664
-880.667175 -427.384247 397.900726
-895.946167 -459.064362 538.266357
-684.158325 -517.195679 529.437256
-785.273132 -478.147064 604.424866
-695.516785 -496.669434 378.075287
-698.076965 -493.557495 512.107056
-601.230347 -516.398132 137.928940
-727.789246 -481.890320 583.751038
-712.716248 -483.179230 338.029266
-760.798645 -471.630157 369.981262
-726.377075 -497.488892 602.569031
-652.854919 -498.659607 440.684509
-762.313477 -480.545227 561.890564
-723.140198 -479.970795 309.792999
-809.677673 -447.535126 428.170593
-884.512268 -367.492340 318.611847
-789.961121 -454.839752 256.411102
-785.708801 -437.367218 157.824173
-814.673767 -456.074921 574.757446
-734.203491 -463.406433 186.504120
-750.997009 -483.028503 457.455505
-912.427734 -463.446747 504.862305
-603.062988 -530.219482 329.337494
-568.885803 -541.678894 187.736023
-613.236389 -548.915039 611.785828
-699.720398 -514.068909 555.852722
-728.433899 -468.338287 318.872284
-594.715332 -561.755188 623.151062
-722.856934 -485.470062 435.230225
-570.178162 -556.317078 406.677002
-607.852173 -552.781311 550.913147
-802.920715 -444.703949 372.055267
-710.704407 -496.896179 587.476685
-898.543884 -450.107239 558.902588
-780.338379 -430.727875 198.675308
-639.499695 -524.445740 474.040985
-718.677551 -507.943970 573.563110
-589.651367 -532.916992 269.224976
-718.358887 -488.884766 536.222961
-658.428345 -524.713196 406.243774
-639.700195 -508.395172 171.190216
-885.268738 -408.594208 413.829712
-760.185059 -472.345612 470.865479
-871.386719 -374.369720 422.988556
-689.185974 -516.677795 629.602417
-593.361267 -527.151978 146.438812
-648.726196 -517.836609 444.024933
-745.384888 -487.672791 378.195679
-890.836243 -392.248474 453.994598
-646.794006 -534.168762 602.536377
-594.495239 -535.600952 598.689636
-636.844604 -534.344727 582.009094
-869.303345 -442.227203 427.740356
-801.970520 -453.597717 99.051758
-623.048767 -521.737122 548.527527
-693.410278 -503.684082 499.155945
-581.133850 -549.020325 456.263580
-758.234375 -475.727234 470.293854
-656.650208 -492.552307 314.059418
-686.562317 -520.616333 592.588562
-654.374878 -501.533844 165.706863
-787.875122 -470.380371 587.291992
-876.441895 -378.314819 358.475800
-695.226868 -502.688324 222.090530
-697.795227 -465.875061 226.252106
-732.504822 -462.333160 395.770905
-693.453491 -491.459656 293.057617
-657.057007 -529.983276 628.182556
-888.792542 -391.276154 418.209351
-704.507629 -476.175568 570.805176
-876.023804 -424.783966 333.591858
-718.804382 -494.212463 310.676300
-665.348022 -523.846497 576.714111
-780.616638 -467.721252 384.170258
-716.596375 -497.920563 516.595642
-640.735535 -530.825012 477.263184
-622.893433 -537.326904 343.237854
-722.773743 -500.099457 539.897400
-808.398743 -445.950989 276.246826
-698.519043 -509.637848 474.871246
-827.030579 -459.436035 608.657715
-866.608948 -400.615784 419.487091
-562.536011 -544.763672 515.703430
-791.691711 -451.037415 389.369751
-691.353394 -508.525879 604.265747
-879.637878 -379.521271 451.460785
-785.220520 -451.210541 350.001678
-614.487671 -532.259277 583.531860
-561.971252 -521.089050 267.357025
-589.881653 -542.049805 580.359680
-577.360779 -548.265747 353.691162
-673.606323 -524.212219 599.120361
-651.854614 -493.313812 132.822739
-708.629761 -491.971588 196.186905
-891.217163 -368.094940 400.098785
-771.941040 -458.481628 134.433624
-732.533020 -466.204346 495.463745
-774.426819 -436.182159 204.778809
-817.831909 -440.315125 167.392334
-804.730408 -467.121399 593.833252
-770.925781 -451.468842 246.803665
-785.546387 -453.258179 123.218346
-614.026672 -537.705383 142.730942
-887.374451 -359.747864 406.285767
-753.234436 -484.936035 562.241516
-664.017761 -518.840271 408.924469
-759.231079 -452.061218 432.011871
-747.323914 -476.633240 614.018372
-621.725586 -538.331787 598.715515
-765.213135 -451.501282 217.148361
-899.378784 -449.615692 478.127014
-640.401611 -522.356934 162.408264
-880.531677 -369.948273 394.083832
-675.789612 -493.718170 203.631989
-777.825378 -460.715546 409.929962
-876.484924 -385.667053 337.441895
-583.692261 -545.112183 458.001709
-681.835205 -509.481171 462.026642
-798.214478 -445.208038 157.473862
-910.736267 -469.497528 567.608521
-725.483154 -472.139648 250.928070
-768.719238 -487.180695 635.556885
-707.058228 -488.463409 421.303040
-580.235474 -558.642822 565.555664
-889.761475 -385.885925 406.828613
-603.185181 -553.239685 502.777954
-599.211365 -542.916931 257.496460
-575.752930 -544.475281 300.830231
-883.802307 -413.892181 312.836639
-810.066650 -437.630280 481.370026
-756.453003 -465.709015 431.600922
-652.674255 -522.356018 458.872009
-732.669006 -481.334625 385.554321
-883.133179 -397.777344 356.275818
-730.329407 -476.845795 328.546631
-749.418274 -459.109833 203.384842
-801.831238 -446.623871 215.513382
-753.129883 -489.858765 625.595886
-707.267883 -488.851898 318.695984
-720.464294 -468.740723 414.899078
-754.908752 -464.291473 361.495819
-681.748535 -490.532104 303.536346
-856.843750 -452.843781 626.093994
-589.674866 -555.459717 152.140762
-783.515625 -451.877411 164.820328
-608.486755 -496.842041 165.535355
-869.687866 -377.543304 351.094482
-630.322876 -539.283813 604.334045
-875.410950 -430.865753 337.315887
-867.606506 -406.547760 442.226074
-899.095520 -422.306366 481.130737
-846.219543 -438.849854 288.444122
-813.988525 -448.811218 547.489929
-899.080750 -464.118866 591.479736
-540.436646 -535.279053 250.893951
-884.554321 -417.694183 353.186401
-592.774292 -512.454590 187.671204
-669.116821 -510.058807 140.972580
-721.741943 -498.239441 530.022888
-799.594360 -439.904694 277.854980
-583.932922 -542.303101 614.668091
-759.385559 -472.759033 301.859802
-703.786011 -509.397980 615.923279
-600.571838 -526.374451 199.812469
-676.176147 -521.888733 616.739563
-764.553589 -436.362518 228.026566
-825.694275 -452.400269 579.216431
-577.461243 -558.562012 418.460052
-579.825195 -557.796997 531.230957
-756.298462 -479.363556 422.707733
-646.569885 -522.905029 538.694580
-614.961975 -534.134216 537.251160
-808.507080 -462.944366 603.264221
-633.755310 -507.055023 421.449402
-604.830872 -534.890198 129.904419
-691.742615 -502.572083 535.292542
-650.706726 -518.635681 214.066620
-639.893616 -537.517334 547.769226
-746.346191 -476.228394 460.468597
-783.359131 -437.518341 253.307220
-663.405518 -506.848480 413.244965
-590.844910 -559.395874 438.030731
-665.917297 -500.846954 261.074799
-884.938843 -374.313263 425.091553
-747.473450 -480.665161 547.472046
-585.611694 -546.242676 608.463013
-873.428711 -415.043640 284.331360
-625.464478 -538.901001 499.665955
-602.216614 -544.192139 306.744568
-890.358276 -380.505951 390.028992
-580.709595 -537.538147 472.038239
-606.461670 -530.516113 285.065613
-641.757263 -531.697571 598.143738
-763.735229 -476.972534 455.587952
-607.927490 -516.072754 383.358368
-746.606079 -484.098022 543.899353
-757.592346 -455.314117 219.805740
-715.971130 -503.095795 599.624756
-885.589478 -375.604034 360.267853
-695.978210 -496.464508 445.795227
-777.763550 -474.517181 590.595520
-892.034729 -414.066071 467.825897
-611.350708 -550.837708 594.822815
-859.884460 -438.819031 285.750519
-773.542664 -453.732117 279.437836
-741.291077 -481.147766 428.568726
-586.325195 -533.098877 206.957886
-618.745178 -526.940674 556.243164
-884.042847 -455.617401 258.393127
-668.491577 -514.312195 601.824829
-877.430664 -447.169128 564.613464
-707.271606 -478.034973 293.227844
-881.822937 -364.284637 368.813263
-619.606018 -536.958557 451.490906
-606.782471 -543.286926 242.796249
-625.484802 -526.102173 400.573517
-838.124084 -448.132568 493.812317
-620.465942 -532.829468 309.466400
-612.284424 -541.201843 597.039063
-747.610779 -492.624725 534.819214
-750.457092 -481.520294 575.892578
-873.445984 -455.246918 601.165588
-878.589233 -443.470642 323.426819
-775.347473 -450.514984 257.788910
-624.334900 -497.237213 306.932526
-710.131409 -465.547577 285.755371
-606.983582 -536.446350 486.329712
-892.877808 -407.031616 384.746460
-753.581360 -470.497406 413.104004
-780.661560 -471.758087 525.189880
-751.498840 -457.233551 451.855042
-703.233826 -506.822784 549.787292
-766.664490 -473.542755 365.331390
-660.763916 -525.897949 550.266541
-747.929688 -478.270721 427.272156
-695.593933 -502.216675 432.783417
-635.802673 -514.379517 388.840057
-646.317688 -533.334839 626.137634
-606.571533 -515.640686 611.488098
-760.114136 -477.248260 400.869843
-637.319031 -519.481567 290.132538
-589.205627 -550.953064 382.676910
-911.862976 -464.731842 484.141937
-752.226379 -469.800568 548.296936
-859.743713 -332.560303 354.609161
-719.962097 -489.554749 469.711365
-728.689575 -491.228363 378.846649
-814.919434 -447.248352 476.363190
-712.062500 -497.430389 261.912323
-871.287903 -416.867218 353.255981
-783.588013 -467.958038 475.596466
-879.596558 -356.682190 426.287445
-779.929871 -467.402893 392.794495
-568.482361 -546.246765 212.258377
-885.805969 -425.550812 405.574005
-809.957703 -435.234863 189.150131
-778.894653 -471.565338 482.726349
-754.400391 -458.594269 193.733475
-689.394409 -492.785095 348.663269
-619.648682 -518.688354 216.806854
-709.070313 -476.244324 314.166962
-837.026855 -449.272583 388.111694
-597.791870 -534.892944 499.167267
-641.986938 -539.517639 622.388306
-617.403687 -524.858459 596.069031
-596.758423 -554.896667 409.403015
-780.173279 -451.576691 328.748810
-823.456604 -438.494781 199.656021
-717.396973 -485.053619 471.788116
-884.087341 -447.403503 161.747803
-817.686218 -449.605438 358.160156
-785.292908 -456.311584 426.210083
-759.380066 -471.690948 600.023071
-671.168457 -501.446777 561.003662
-822.253052 -438.810242 158.400742
-577.889526 -551.557800 494.685974
-792.828857 -429.933777 217.441391
-637.391479 -510.798950 187.779510
-618.115051 -527.487976 185.704391
-745.130798 -484.131561 349.875549
-836.233215 -441.518585 392.424866
-603.713867 -547.434387 519.427795
-599.093811 -521.390747 173.840515
-674.553589 -515.500366 435.971405
-615.189819 -530.127014 381.062164
-668.265320 -491.812592 135.115891
-790.872253 -464.543854 335.044739
-675.265442 -495.260101 361.626373
-888.447144 -394.626892 308.141327
-607.208130 -518.329590 132.179077
-609.847290 -545.649231 465.743683
-583.296265 -516.632874 161.346817
-569.701294 -540.485657 188.680786
-659.871521 -527.235291 527.241455
-644.726685 -504.252502 288.580597
-850.764099 -448.424103 340.845612
-757.841858 -466.992981 559.522766
-825.129395 -429.463776 269.758301
-829.584473 -456.651764 599.139343
-575.415649 -557.027588 298.921722
-820.716370 -431.787994 261.657593
-891.858582 -451.770752 241.430283
-753.171692 -482.488647 602.260315
-582.573730 -556.288086 472.891571
-793.169006 -464.062164 494.980103
-900.790955 -471.263977 599.648987
-848.830994 -431.813812 333.957550
-648.938721 -512.001526 227.123352
-651.417786 -527.215210 595.894836
-881.468689 -378.898315 306.427612
-665.079712 -512.270142 208.456451
-596.614258 -541.457703 424.022491
-789.885498 -456.139313 458.635712
-800.479126 -452.462463 427.133331
-589.976379 -549.442505 488.278351
-625.969543 -544.819702 614.502502
-788.545166 -465.897247 438.095886
-856.302795 -420.996124 393.306732
-883.581909 -386.880951 435.516541
-705.944214 -460.170563 130.394897
-695.281250 -488.725433 272.105438
-634.499817 -509.127960 161.727371
-691.234131 -496.720245 616.640991
-887.164795 -394.621277 388.227539
-701.410645 -504.870117 323.820374
-689.305603 -503.428162 506.575592
-648.522766 -507.047028 240.976196
-864.741150 -411.697479 431.491119
-644.691040 -535.206360 517.903809
-750.518250 -444.262024 163.884872
-615.798584 -531.312988 439.849426
-794.910034 -439.438263 465.028809
-856.093201 -443.602295 359.295044
-739.472351 -483.334534 327.312866
-802.240417 -453.648224 347.980865
-794.245850 -462.681213 435.253082
-660.790161 -506.172516 368.425323
-762.749329 -484.084229 620.730408
-896.451416 -459.522797 538.971558
-594.645935 -535.335815 613.866699
-695.269714 -480.042938 461.934784
-660.309937 -525.098083 597.129272
-651.423889 -534.993652 609.773193
-621.295349 -541.144165 426.081787
-757.478638 -461.241516 221.475586
-822.677734 -434.246887 321.047363
-808.746033 -476.702332 642.688965
-604.271729 -529.030701 332.577332
-744.612610 -466.143463 303.023193
-786.998840 -474.362701 614.745911
-900.720337 -465.373810 519.921387
-868.024231 -353.038147 375.738647
-643.568115 -517.288818 360.736206
-573.843201 -536.750549 458.245972
-665.545227 -525.541382 619.080261
-810.251831 -443.194366 154.242401
-696.457520 -495.223145 192.939407
-885.947998 -366.536621 362.015289
-584.913757 -557.796692 487.678589
-673.216187 -485.036926 327.707733
-753.927979 -480.062286 538.660461
-666.658325 -523.802979 614.527710
-654.347717 -520.885742 444.035004
-835.758362 -447.497070 526.396973
-640.712097 -539.785645 552.436462
-845.856995 -451.741943 623.956604
-821.198975 -459.585968 570.092773
-665.946716 -510.441803 389.056915
-875.080688 -386.930237 439.923401
-614.080688 -541.257813 537.444458
-670.903625 -516.423767 351.066589
-890.357849 -415.529358 484.962402
-753.396729 -471.348358 423.589966
-677.052856 -512.608521 451.455750
-585.565063 -556.945190 608.162109
-598.771423 -537.345764 346.786316
-693.398438 -493.679016 414.125366
-884.784912 -406.923553 268.343628
-622.747192 -531.670105 135.687271
-727.099915 -487.276581 463.001892
-843.488647 -421.060608 316.374390
-803.803528 -443.179688 228.690506
-678.644348 -506.920410 224.862259
-810.700256 -441.586884 423.032166
-768.784302 -475.517914 471.138794
-840.483887 -452.716034 632.147583
-671.674438 -521.873230 481.201202
-762.742554 -493.201324 643.001099
-723.542114 -499.634491 528.200989
-855.535034 -449.492310 421.614624
-567.034790 -548.995056 273.017975
-618.462769 -547.059265 608.873779
-640.284485 -518.064453 163.018402
-601.347290 -550.681213 341.095184
-589.843384 -538.105713 362.558594
-589.063293 -560.127991 510.646118
-579.163940 -553.776306 543.231079
-595.987305 -530.819336 326.233093
-635.956055 -510.779175 360.445648
-713.956482 -503.967224 512.171509
-881.958923 -384.948578 402.547638
-881.904907 -393.440765 291.690094
-734.181458 -494.055634 452.101013
-764.934265 -451.557739 212.216919
-623.887451 -544.296326 488.159668
-812.289063 -448.983734 492.884369
-776.503723 -455.443451 421.623932
-771.322876 -447.342316 158.305099
-660.500427 -487.889008 216.936722
-833.008606 -421.031738 310.799774
-683.565247 -513.787048 422.591400
-615.538208 -505.178070 179.222198
-638.693298 -508.376556 206.019592
-685.595520 -508.577240 620.438416
-704.094482 -482.200104 266.216797
-601.848755 -542.477600 260.387177
-879.892639 -453.821686 572.269714
-680.000244 -503.443268 577.075745
-649.594971 -526.707825 313.383453
-871.328613 -347.660522 392.654724
-625.440369 -532.048645 436.448242
-864.267334 -446.710724 296.405548
-795.659363 -439.031525 209.346573
-564.134399 -533.243469 292.880371
-782.434448 -472.312469 501.584869
-650.682007 -510.972565 413.761871
-894.457458 -376.702179 394.204346
-750.785461 -456.431061 119.770996
-809.106201 -454.647888 579.209961
-735.424744 -468.015747 261.341339
-802.659180 -463.981934 497.664551
-791.977905 -455.422882 279.633850
-682.410522 -500.448486 500.620667
-726.439636 -491.122589 372.335236
-779.895325 -473.337799 489.547272
-886.919678 -410.477692 377.171265
-722.692444 -498.567566 562.352173
-625.480042 -539.720581 431.504028
-754.169739 -483.514008 552.233643
-744.015442 -458.885864 181.700668
-749.682556 -456.385712 157.389389
-875.767090 -429.521362 458.525696
-584.860535 -560.428528 512.015320
-745.633240 -462.685699 235.412460
-580.749817 -552.092468 472.918610
-583.615967 -535.333252 280.780396
-653.573608 -534.797241 590.075806
-775.425293 -467.444153 554.504272
-815.455322 -451.123596 543.737610
-737.244751 -472.903290 172.915222
-711.800781 -459.960388 231.848755
-880.978516 -450.503113 117.746536
-890.411194 -377.374115 448.741150
-690.060608 -512.274963 474.730347
-599.820618 -531.399719 350.718292
-603.634705 -544.322693 222.929947
-849.684448 -452.049927 618.235901
-638.239319 -490.477478 131.239227
-600.604797 -552.142334 500.497955
-675.729553 -515.200928 350.038086
-587.576111 -551.880371 524.182495
-750.001160 -475.182709 489.750458
-755.997986 -477.553925 306.489990
-660.656311 -498.418610 183.111252
-888.506470 -400.223358 428.131378
-771.991211 -462.317963 604.906311
-691.407776 -503.590149 459.428192
-669.792053 -510.249573 184.037750
-565.835083 -561.667236 273.254364
-654.851563 -528.902588 405.933929
-702.576111 -474.667938 334.431763
-906.931763 -464.971619 531.902100
-707.418335 -488.345459 368.492889
-646.233582 -531.702881 565.905396
-744.257019 -486.248596 447.759308
-636.432068 -514.472229 237.884583
-886.758362 -376.416443 320.798798
-882.383972 -393.419342 445.345215
-859.846008 -425.923706 339.317596
-622.750916 -509.393677 370.554108
-725.396057 -501.207947 631.015625
-697.695801 -484.851898 249.781876
-698.275269 -512.152710 591.495178
-877.400574 -418.557983 371.741119
-570.122375 -548.390320 551.410767
-611.617004 -527.000183 147.037292
-887.449402 -385.848785 462.682465
-682.698242 -491.683838 355.585297
-874.143555 -430.347504 427.985504
-813.748230 -421.736755 202.115570
-738.025085 -478.424500 417.100494
-805.726074 -454.494476 341.982605
-689.559509 -498.752686 364.186523
-695.409607 -516.097534 532.677551
-769.193909 -467.275787 471.804108
-838.210754 -454.989471 584.476440
-770.110474 -447.409851 172.427612
-811.195129 -425.954437 281.561951
-776.793274 -462.841095 167.799438
-593.932922 -532.041504 300.137970
-721.701355 -501.668152 575.205627
-754.239563 -471.137848 183.389603
-650.306702 -530.237061 556.594055
-618.577942 -519.770691 239.967789
-661.228394 -526.880920 490.051422
-679.120911 -510.907318 594.414978
-885.808960 -377.361511 325.683502
-887.625549 -371.776215 426.352844
-594.063354 -534.463806 377.337097
-630.547241 -505.809235 529.479553
-606.806458 -521.497559 204.227310
-598.612610 -537.145813 576.099060
-656.603027 -519.609436 571.919434
-697.208618 -471.518250 279.276947
-626.387817 -505.710999 479.644104
-617.645447 -530.225647 349.070831
-648.482971 -534.734802 590.115417
-766.401489 -483.972992 601.797302
-626.418152 -517.535217 286.749786
-709.161621 -479.865784 266.277130
-599.999756 -515.467651 152.671143
-710.211853 -489.562439 605.539673
-825.115662 -454.098389 597.138855
-759.500122 -470.540009 541.201355
-874.055115 -436.938293 350.280121
-718.799622 -482.436462 409.743713
-799.013062 -468.947815 503.807159
-656.227356 -528.093689 400.468109
-653.270996 -502.355164 532.828308
-750.281128 -486.156586 600.274170
-794.001526 -479.444946 619.987244
-735.059082 -464.524963 273.230927
-727.925171 -480.467957 472.379730
-648.334351 -489.799561 322.132355
-886.032043 -414.686188 442.320465
-808.507446 -445.685028 121.697350
-618.170105 -543.148010 361.789764
-815.466125 -426.262177 126.483665
-749.473083 -474.749420 138.771408
-781.974304 -471.236633 581.863892
-706.475098 -511.264465 529.573486
-804.594910 -447.203064 460.104156
-630.627930 -510.297272 210.417084
-596.640442 -516.815247 257.897125
-759.230225 -468.486298 188.109848
-816.156738 -452.442261 461.246674
-575.865417 -549.160706 383.949188
-646.694153 -525.561462 288.274323
-652.538635 -495.084656 233.123367
-867.911255 -345.982178 399.152924
-815.955750 -452.920197 535.127441
-673.098511 -515.571045 319.372986
-828.158386 -428.209900 334.057281
-784.905212 -441.832672 203.724548
-628.159790 -531.564087 256.044159
-656.949463 -519.967041 436.554321
-712.413025 -501.187408 614.885315
-643.089417 -529.940002 554.989380
-566.076050 -528.670898 297.045013
-637.568909 -511.935791 245.203949
-593.195007 -545.367432 462.871094
-637.493347 -486.313385 186.573395
-650.112976 -525.361389 510.668121
-742.331238 -475.529907 184.563034
-609.917969 -536.305298 496.502289
-583.552856 -561.219910 246.225266
-566.976563 -543.343750 158.785568
-734.995972 -489.879456 431.318939
-724.871155 -492.680267 362.997375
-757.544739 -461.211273 278.941803
-590.356750 -543.561462 510.234802
-640.276489 -528.491516 293.810303
-741.421570 -483.674744 362.230988
-644.588379 -530.895813 605.282288
-737.999329 -482.267181 498.379974
-673.198792 -519.658264 414.665222
-661.240234 -515.815308 548.056946
-668.506165 -506.991730 392.024353
-877.566833 -395.287262 343.432129
-640.370117 -510.926514 375.773560
-597.476807 -533.047974 274.934387
-797.501709 -459.208862 600.475647
-835.041321 -435.997559 473.239258
-618.731506 -542.092224 441.268616
-887.694336 -407.172211 309.338745
-590.038879 -557.661926 508.221130
-595.453552 -550.108459 438.145660
-918.444031 -457.810608 521.636841
-885.995972 -382.177277 292.186554
-718.131226 -479.345123 323.541748
-615.823975 -539.125183 518.555298
-608.857300 -542.330933 591.704346
-577.134705 -539.682617 252.690002
-774.255249 -455.426300 390.051178
-804.763428 -449.529938 578.600586
-868.523193 -433.729004 452.951569
-702.241089 -492.588409 388.645691
-628.022644 -538.702759 391.422974
-682.877686 -492.137878 230.392868
-594.561218 -543.758667 610.755676
-774.186707 -444.452698 396.935242
-828.875977 -443.078918 523.158020
-653.363403 -526.758728 400.999054
-613.863586 -533.446838 482.060577
-664.357910 -518.490540 485.130890
-883.881470 -369.560486 456.386383
-652.930237 -517.713745 429.096924
-799.086304 -461.993225 462.220886
-680.469238 -506.238586 146.181931
-798.169983 -454.544861 518.508240
-814.615234 -442.273071 446.621307
-725.735657 -485.473938 225.245346
-873.737976 -400.158691 423.258179
-655.566223 -519.921082 424.874298
-817.963501 -444.587891 423.201965
-798.108521 -424.277588 190.055435
-818.779236 -452.374908 399.920776
-880.574036 -389.117554 395.930939
-787.477600 -447.040558 309.495544
-609.126831 -529.078186 269.591034
-690.102295 -513.797546 597.809204
-669.109863 -489.110321 155.949051
-836.635315 -440.148254 339.200012
-688.973206 -493.165192 287.630371
-750.503113 -490.999939 599.238953
-654.787476 -530.784485 514.227112
-797.385376 -456.498169 308.078369
-757.481140 -451.048798 274.494293
-639.065308 -501.895599 250.235886
-617.840332 -539.752747 369.973389
-589.436462 -554.752686 588.241333
-651.224792 -517.040222 388.700073
-576.118469 -544.701172 314.965332
-588.612915 -537.285767 329.000732
-632.205200 -528.151611 171.251083
-858.817322 -429.364380 363.349335
-630.568481 -533.707703 542.835815
-667.305603 -517.835144 529.734619
-884.026917 -392.939117 357.825531
-628.513428 -526.783386 361.664001
-684.478699 -504.058594 163.651520
-741.262939 -479.659760 443.632355
-675.486206 -498.353516 341.639496
-883.872131 -415.348938 473.744659
-860.510925 -335.995758 407.107849
-735.509094 -487.907043 444.743713
-879.568848 -415.146088 276.249878
-692.664978 -492.620880 337.118530
-742.114746 -475.671722 351.077972
-879.976318 -427.402710 415.493835
-789.488831 -442.404724 482.118805
-627.232910 -493.621460 215.658142
-647.161072 -529.632874 353.429291
-693.758484 -501.971741 264.525665
-743.077515 -456.157654 369.842468
-760.329468 -459.243591 308.701263
-585.656067 -541.512817 418.080200
-643.671753 -518.981812 226.368958
-812.285034 -464.494080 573.409241
-818.423157 -439.107666 407.345306
-601.485474 -517.192139 352.793152
-848.583130 -445.758484 287.737518
-725.950256 -485.486725 388.797577
-616.925049 -521.986450 578.548340
-715.805237 -488.605286 459.359619
-720.253479 -471.525208 498.863159
-751.582397 -464.810852 176.867432
-865.732239 -360.061584 308.119751
-614.773621 -535.230286 563.537537
-567.049194 -553.250610 189.146774
-780.422058 -474.001068 425.293213
-702.418457 -494.889526 394.506958
-762.598999 -483.451172 615.347168
-878.781189 -414.567993 378.892456
-822.663025 -426.024933 366.582092
-612.016052 -530.692505 208.544266
-674.402344 -513.086304 586.039246
-804.648865 -449.493317 210.902939
-606.087402 -542.280640 495.252106
-721.973267 -488.162079 446.924561
-895.408325 -403.393860 446.466492
-742.818298 -473.397949 457.399475
-687.974548 -500.451965 347.056366
-619.238464 -544.291870 506.081665
-627.887634 -536.036438 556.630066
-652.431824 -504.056580 224.050369
-689.994080 -505.993744 604.760986
-770.278137 -478.929047 613.745300
-694.044861 -498.975983 197.054688
-611.836914 -529.834656 460.745728
-641.811401 -496.857880 288.324341
-830.838196 -424.738281 401.977936
-623.718079 -524.316711 577.012573
-667.666443 -509.017883 359.062622
-783.996765 -474.550079 524.664856
-776.993408 -456.470612 533.807556
-849.532349 -422.687256 322.335602
-880.487305 -426.573364 305.044891
-796.546753 -425.695190 130.209808
-601.619446 -517.227356 483.503326
-748.311890 -470.616241 304.493927
-636.977417 -505.162262 414.153931
-890.352722 -440.595245 397.377899
-799.545715 -444.409668 360.380554
-653.534485 -509.596893 344.763733
-753.373535 -478.044006 274.604645
-586.547058 -516.512390 173.084732
-891.593628 -418.706512 285.438568
-670.158081 -516.977295 513.196289
-718.721436 -501.181641 415.664856
-707.508789 -489.150391 378.443207
-789.869141 -451.197021 334.394257
-603.772827 -528.280640 496.090759
-764.711975 -458.779144 261.636963
-838.799866 -436.999939 269.869232
-881.605469 -427.533691 268.558044
-584.444031 -532.247314 417.897766
-783.077393 -444.504059 241.105103
-673.851746 -516.581970 545.633667
-742.726868 -472.737030 308.754120
-816.809692 -440.780884 179.402191
-763.790833 -486.611237 637.866638
-779.290649 -447.194733 256.395782
-616.301331 -538.910522 309.772308
-616.053345 -531.622925 512.540894
-764.094482 -470.857941 376.697632
-843.930908 -438.516144 324.549927
-783.954956 -479.900909 612.170105
-681.745056 -499.892639 132.660004
-811.209839 -457.692535 590.000183
-585.608582 -530.952148 499.127106
-746.674255 -438.231689 176.096848
-745.775024 -481.418396 238.590179
-643.860413 -527.720703 111.316864
-653.800903 -527.000549 389.079468
-629.702759 -514.605652 239.434525
-593.190552 -548.363220 297.296600
-696.640991 -504.846558 279.760101
-738.700073 -461.395050 181.060104
-874.875854 -368.382416 411.453735
-618.708252 -530.730286 260.609680
-621.485291 -518.517395 560.564880
-593.948242 -539.036194 433.988922
-742.279236 -453.485168 273.559967
-865.837219 -441.478333 431.794189
-601.599976 -541.024536 613.491394
-660.244873 -510.045532 318.275391
-708.104187 -505.912323 576.839233
-890.604065 -423.123291 365.757050
-583.684753 -560.700806 241.364395
-623.961426 -535.430359 298.406403
-683.088318 -480.445465 210.180176
-606.564514 -544.709961 372.949554
-593.864197 -558.137939 567.777344
-640.967041 -523.655029 576.928406
-747.849304 -485.962250 527.021362
-618.802307 -518.789124 189.259232
-720.523193 -489.571350 288.136932
-874.513306 -403.369781 464.750671
-672.234863 -504.897766 151.054657
-697.360962 -500.541779 300.825531
-888.862854 -444.892792 385.483521
-601.946228 -551.204407 558.984070
-830.892578 -433.348541 410.006653
-705.201782 -503.847931 423.564392
-645.218445 -524.542175 438.140533
-800.825806 -451.506927 291.712830
-601.919434 -553.762024 535.382874
-767.536743 -464.259094 397.745361
-685.489563 -514.799744 506.667114
-658.478333 -528.276611 531.994080
-697.883423 -500.123779 509.122375
-652.207703 -523.604248 595.319336
-591.488831 -527.733887 402.765594
-782.156067 -447.692322 368.165161
-790.034424 -460.389008 222.141922
-813.920105 -454.824249 562.392578
-628.344238 -543.685425 509.415314
-688.011902 -489.919891 230.944931
-872.699158 -442.059418 581.165161
-739.679993 -477.757782 451.947784
-778.751953 -465.967041 504.475037
-760.527649 -474.749939 317.357300
-882.271545 -405.791016 392.794586
-695.790039 -504.640320 584.623779
-791.209229 -436.516022 166.675964
-743.655823 -478.983887 141.227753
-755.699646 -462.840790 348.540680
-590.325806 -533.551208 244.171860
-912.176392 -475.573486 569.958435
-887.128662 -415.203125 448.084259
-625.173889 -535.356018 451.442780
-898.673523 -448.299438 540.316223
-635.840210 -524.422607 186.390213
-886.653320 -364.842407 436.211304
-876.595947 -372.239105 358.060059
-801.291443 -437.980347 144.951401
-684.832642 -518.264465 568.544678
-636.519592 -522.403381 417.890289
-661.093994 -519.010925 469.814270
-850.479431 -436.600006 214.090317
-730.296448 -458.953461 212.651001
-714.825134 -481.561676 175.409378
-870.702698 -444.992035 265.237000
-586.223328 -564.733765 514.971436
-678.151733 -515.306091 385.750732
-696.762695 -494.452332 316.743652
-619.607849 -513.836670 152.834808
-725.059021 -489.442566 232.312653
-594.693420 -515.479675 231.999283
-841.620972 -437.745300 592.634399
-709.166321 -492.413086 449.511475
-576.551636 -543.604248 596.969727
-870.936829 -442.082550 423.107300
-626.344177 -528.302063 205.944489
-830.432861 -463.527893 613.084351
-640.607727 -538.597412 516.970276
-692.959351 -509.609039 625.874207
-745.017212 -470.917236 343.392029
-876.992737 -442.751160 375.515747
-663.992126 -497.942139 586.445862
-677.364563 -491.730499 133.163574
-619.782349 -529.189575 544.943481
-667.299988 -523.091370 396.392700
-885.150146 -421.676910 250.415817
-639.421204 -521.092896 522.685974
-794.909363 -472.765625 591.108032
-767.657959 -478.213989 589.411133
-737.302856 -463.721863 208.346588
-684.602539 -514.036987 405.140228
-725.600037 -488.542969 221.885925
-599.021667 -549.684509 525.577454
-849.020386 -434.955231 281.724945
-815.779846 -431.466339 451.449890
-845.837646 -450.123749 621.193970
-874.118958 -427.022369 419.673676
-795.687561 -462.569397 375.433228
-621.596558 -522.841064 348.804657
-746.559814 -453.936554 366.078918
-799.176819 -457.139679 118.727982
-622.107849 -542.261963 376.829865
-791.721924 -443.445099 371.117310
-747.686523 -479.108887 190.761642
-581.453613 -549.553528 407.926971
-770.815002 -477.608459 455.886963
-885.361328 -398.830322 407.195465
-781.364685 -451.998169 341.040802
-869.006897 -361.069092 347.780121
-779.451538 -454.503479 323.187805
-696.309570 -509.975189 503.593048
-587.571350 -562.587830 275.381165
-671.929993 -521.735901 519.427490
-670.281372 -519.623413 344.180908
-897.546997 -425.038452 479.459259
-697.137573 -478.867554 382.136230
-835.164673 -450.828430 380.470428
-877.484253 -348.445953 395.545990
-673.836426 -507.894226 400.952942
-863.516235 -446.882996 509.727875
-572.742676 -547.822510 324.511139
-690.115112 -517.782959 580.054993
-702.189087 -484.412415 609.646729
-654.593506 -493.143158 140.919540
-602.600830 -519.772522 264.751007
-623.150208 -531.782104 402.324921
-778.266602 -468.601624 592.328064
-704.230652 -497.844177 174.974045
-836.727356 -445.791107 601.300293
-671.502686 -505.052734 390.307312
-774.839417 -461.088776 420.039673
-583.286438 -555.489441 516.899353
-745.512634 -480.280457 237.523163
-693.235291 -514.128784 590.721680
-719.936096 -492.721985 346.457062
-611.279663 -549.707764 464.597870
-570.558899 -534.291748 341.383179
-738.253906 -481.001770 528.659851
-809.152039 -450.956055 473.539948
-736.351807 -490.022583 334.027008
-721.972961 -488.666504 452.109650
-647.386353 -497.161591 232.961792
-593.983521 -531.872192 573.751038
-889.383057 -423.788727 480.627441
-686.442810 -480.574402 359.915619
-885.431885 -434.364777 254.482300
-623.465454 -511.159027 172.976212
-882.230225 -358.337250 398.233093
-728.848877 -471.016357 146.824570
-867.469788 -434.251404 191.565308
-856.616333 -451.918854 593.998596
-771.683105 -455.421814 353.643036
-572.606140 -547.627014 580.973145
-717.657532 -459.484772 142.548431
-742.190063 -479.944763 259.901825
-748.822571 -474.442871 385.936615
-689.273499 -502.270966 377.795746
-569.043152 -545.837036 266.228699
-611.183228 -528.399231 345.606689
-738.643494 -476.032501 198.812805
-791.096375 -456.209229 285.365997
-909.487061 -476.277466 590.835449
-826.576111 -459.802338 562.881958
-842.090332 -442.321869 358.071991
-698.969482 -491.425659 424.470764
-891.605896 -438.307892 447.791656
-862.407837 -447.810608 453.648987
-781.776550 -470.928223 581.331787
-891.372864 -389.711151 434.219818
-762.468018 -472.221375 498.305328
-867.805847 -351.479767 454.299072
-670.312927 -501.793518 363.545166
-732.287842 -495.801819 569.063416
-785.967773 -444.138062 520.006165
-873.232422 -401.219421 401.577728
-763.733521 -468.928223 492.876221
-722.452637 -496.452850 344.768707
-826.880920 -439.442810 317.311249
-693.995117 -510.278198 411.174286
-807.996216 -463.113403 605.849792
-582.966431 -541.968994 425.278290
-832.867310 -456.618225 610.916626
-611.322937 -537.653442 397.120605
-628.371338 -536.602112 395.027161
-576.525940 -551.178589 408.510193
-768.679321 -478.665924 466.530548
-767.537781 -474.576416 552.041138
-775.348206 -443.344513 156.678192
-710.223450 -484.163635 358.736267
-724.692383 -478.974731 263.026489
-569.685303 -546.378845 243.146881
-718.126892 -480.849518 394.930267
-777.252686 -468.151123 519.807739
-810.264587 -442.946533 257.922546
-892.002441 -463.083588 586.038513
-616.960388 -496.696411 201.295135
-658.458862 -520.816528 591.614441
-619.915466 -535.570068 578.737793
-711.800720 -499.402435 417.555542
-582.657410 -532.777771 496.694092
-706.241943 -509.881683 536.589478
-659.049561 -517.484009 192.584412
-558.055237 -538.357117 152.441452
-850.439575 -448.381012 399.057159
-904.816895 -449.706970 489.600525
-584.820557 -527.298950 168.895691
-625.647461 -526.541321 378.059845
-695.607300 -480.728210 479.798340
-836.060974 -440.101563 535.525330
-888.564026 -391.869171 444.260803
-878.426758 -431.974548 447.336029
-621.125916 -528.738342 421.304932
-585.748718 -557.446960 413.626007
-616.895813 -501.035614 290.912354
-775.121582 -451.492706 263.126648
-668.684875 -471.773834 174.081665
-720.912842 -493.998322 347.204834
-889.904053 -387.901703 352.251831
-581.487366 -548.482361 561.458008
-705.800354 -482.465302 273.421906
-675.717102 -505.007111 167.939178
-862.024170 -463.206909 600.231934
-716.340576 -492.781555 211.433746
-732.654419 -465.226776 454.910095
-653.967957 -487.765656 188.680237
-688.820251 -514.933777 597.886353
-691.581482 -518.953613 562.834412
-671.005432 -517.558533 612.522705
-699.787476 -469.729279 196.438889
-716.223633 -470.868011 163.721283
-734.455261 -472.836700 328.266632
-774.600281 -433.208618 175.355164
-701.468201 -507.961212 538.773926
-570.576843 -551.683533 391.419647
-606.673035 -541.417297 549.461670
-617.339783 -538.386353 311.187805
-630.458435 -511.150970 506.055664
-769.376160 -462.979584 207.754700
-562.857300 -552.172607 181.380737
-888.649841 -370.516327 433.499481
-798.346375 -465.143341 480.760284
-690.711426 -499.774048 616.089783
-607.434937 -536.338806 122.661774
-691.472778 -486.915100 231.257523
-699.782410 -502.917542 267.326477
-634.127563 -527.317566 185.013000
-807.720581 -448.223633 441.549500
-807.927917 -454.956116 591.041260
-783.726685 -472.585846 431.858490
-802.267151 -435.789612 194.770905
-592.034729 -537.299438 289.683197
-804.838562 -463.362091 576.118652
-773.886780 -446.497864 167.306503
-582.944885 -539.802124 309.817047
-884.013428 -379.882904 388.129181
-731.863953 -467.796844 219.937546
-776.440063 -465.989441 451.253784
-769.396790 -472.334351 383.844818
-644.094727 -525.165894 301.460968
-671.953491 -521.471436 476.204376
-814.695374 -434.955170 143.582001
-597.028137 -553.081238 563.428223
-601.981140 -530.925049 430.254547
-582.786621 -533.625427 223.781754
-836.717041 -451.374420 496.746765
-891.557190 -376.710358 340.937286
-697.722778 -482.876404 506.443512
-708.080383 -501.672699 418.436310
-873.601501 -406.810944 383.819946
-746.376465 -470.921661 431.328674
-614.795532 -534.822632 497.099274
-582.832703 -537.388550 357.811066
-869.538391 -342.837494 384.984894
-672.535217 -524.759521 507.370209
-635.120178 -522.880615 477.900909
-815.274780 -424.218262 260.427887
-687.010803 -495.728088 308.502899
-715.121887 -476.780792 250.896179
-721.163574 -481.853821 367.550934
-793.322815 -436.963806 160.526947
-770.493103 -464.969086 558.507141
-751.680420 -476.558533 307.941437
-680.013245 -520.811646 607.178528
-883.919983 -455.300232 483.923859
-882.849426 -455.467041 446.507385
-726.160217 -502.482452 592.861023
-587.889709 -556.720093 335.765656
-603.332275 -541.777710 153.497421
-802.306885 -442.135620 535.315430
-638.596558 -529.445679 596.186157
-743.693665 -493.096588 567.358215
-684.659241 -487.710571 214.053772
-682.248474 -492.068085 245.607101
-825.604126 -438.539246 251.753967
-704.990845 -493.795593 429.593384
-610.118286 -541.638672 326.983643
-641.200256 -502.306763 389.010559
-788.011292 -463.781555 420.071686
-770.619507 -455.419098 232.975784
-712.670105 -503.458740 481.706573
-882.913086 -408.735626 390.911652
-627.966553 -537.056885 380.084259
-713.188110 -503.763611 507.750488
-736.999512 -478.102966 184.547211
-881.771057 -371.858093 394.062653
-765.477844 -479.699432 428.004456
-711.435669 -489.874298 612.117371
-749.409607 -478.065155 518.911072
-658.612366 -510.729980 550.153625
-788.838867 -469.556854 474.192871
-653.320557 -515.795410 385.290009
-601.029968 -538.498535 376.311584
-566.672974 -543.744629 193.340759
-886.424133 -421.345459 455.730164
-660.782715 -526.034729 534.685608
-882.350403 -420.494812 484.778656
-806.623169 -461.160553 615.004272
-884.769165 -462.556335 609.953247
-816.852844 -439.952393 210.432861
-665.188477 -515.482361 464.469604
-645.500610 -528.604797 522.223328
-874.352478 -361.945587 410.772461
-765.837891 -482.192810 511.907684
-750.884827 -446.593323 280.708893
-596.756531 -544.279480 472.936707
-813.777710 -443.160797 487.989380
-888.684387 -396.283417 447.278534
-832.587952 -445.955292 542.628967
-635.626404 -504.728271 385.262238
-688.273865 -505.347748 185.837479
-604.893311 -553.409241 604.608032
-883.803406 -427.095276 364.136566
-878.409973 -418.081940 342.066589
-770.155396 -467.052185 608.344849
-755.351257 -443.022888 259.628265
-664.959961 -516.242004 573.788025
-630.333740 -502.532532 131.586243
-876.303589 -366.647186 323.112701
-780.492981 -447.793701 258.004913
-679.546509 -497.265106 353.657715
-817.854919 -446.145020 448.785309
-789.195129 -450.006348 578.296143
-822.411133 -428.041229 354.397125
-649.704407 -527.019104 527.693481
-591.664368 -549.434265 439.635895
-866.262817 -431.048828 446.181702
-679.946350 -495.822998 306.754456
-658.611694 -490.725739 464.547974
-905.729736 -444.223572 516.742493
-581.895142 -551.281250 424.164276
-760.631165 -461.716827 271.973419
-713.335022 -504.480377 555.140869
-582.942200 -535.836914 338.935486
-663.146301 -512.054199 478.741028
-667.636780 -523.243103 571.662476
-893.020264 -373.027222 448.743988
-608.129761 -518.735596 183.759399
-703.993408 -497.087891 497.433624
-608.149170 -510.901306 323.211853
-732.140991 -474.337402 197.984558
-702.547546 -508.315216 586.947632
-739.864746 -464.016510 208.910431
-684.101624 -503.235352 202.533981
-739.610474 -491.312775 495.913910
-672.870728 -503.824310 356.355164
-876.782654 -386.404388 326.750397
-724.594727 -487.669312 169.264969
-633.409973 -525.720276 381.120087
-600.877197 -534.192871 470.283295
-879.799316 -390.159119 364.462372
-627.092102 -515.720520 265.764526
-579.560120 -553.094604 234.637955
-645.192017 -532.239075 471.560577
-672.939636 -504.395660 361.387878
-693.171143 -504.195770 247.995438
-567.524353 -540.049805 226.646255
-691.204468 -493.444397 272.621765
-658.159851 -529.590210 584.384949
-688.794617 -506.070831 320.980682
-571.752991 -541.506653 185.512375
-898.555969 -440.034607 520.260864
-785.039429 -473.084717 602.924744
-809.628052 -441.308258 386.769379
-884.590271 -424.108643 372.535767
-870.374634 -379.324768 330.147186
-717.055603 -505.381287 614.265381
-670.426819 -509.453857 443.668243
-715.267090 -506.913727 628.471252
-580.754089 -545.046997 410.900970
-621.026917 -508.516266 489.512817
-618.786438 -527.271729 338.752686
-774.564209 -466.172852 596.532898
-602.468506 -521.767822 399.051727
-796.807312 -458.254211 546.282288
-602.446899 -547.644165 411.433289
-603.673279 -542.732727 524.455444
-891.194519 -374.921051 384.243713
-884.050110 -454.976196 161.468582
-604.038147 -553.350769 444.201477
-755.198608 -480.186768 431.039429
-615.302124 -537.125183 267.617859
-801.374451 -456.614471 556.045593
-582.880737 -556.686890 435.418152
-884.969604 -440.650208 465.946228
-593.323547 -534.649109 269.745819
-697.993835 -496.510040 196.436523
-881.488220 -423.761017 274.162262
-796.051208 -447.937317 365.303925
-662.244202 -513.168518 414.263885
-578.899353 -531.641541 244.546524
-903.970459 -431.463013 488.011597
-680.774353 -499.170532 141.718018
-654.650574 -507.154968 276.439850
-800.959778 -439.860657 327.462830
-763.784912 -469.036041 457.635986
-712.232117 -498.138519 452.128906
-599.404602 -537.560120 461.840240
-801.341248 -450.049622 331.263763
-622.754639 -494.088959 150.418167
-724.839233 -477.132294 178.424301
-681.295898 -504.054871 470.221130
-748.895569 -455.309113 281.602325
-768.804260 -456.053589 246.216873
-734.466125 -469.701874 287.230591
-670.832458 -515.589233 455.835297
-587.929260 -555.485352 592.733337
-670.546753 -504.375488 425.553894
-671.885193 -494.221680 209.552643
-829.435303 -444.040405 493.875305
