ply
format ascii 1.0
element vertex 1454
property float x
property float y
property float z
end_header
844.127869 -38.997540 159.650742
935.128357 151.852325 364.127075
883.437073 98.521240 254.070068
873.606689 66.903099 191.903381
898.577759 -119.322868 288.431244
835.803467 -41.814789 175.981247
923.843628 92.821106 347.485992
936.330200 -141.985870 348.755768
980.697083 27.564264 446.626923
875.882813 -172.975967 232.350815
825.234192 12.530933 113.552055
849.728638 -99.775223 134.379883
920.502991 -155.354584 438.181396
865.022400 125.820900 199.379776
941.138489 -175.883240 379.581390
938.930481 -116.856865 416.892853
842.217957 -99.412407 117.966118
947.748535 -159.567673 367.660065
867.420105 65.594261 188.534149
964.929565 -32.465977 423.561798
943.110352 -151.793320 396.807220
961.748657 25.386183 438.765778
944.135559 -86.782951 348.927307
909.322205 149.813416 285.552216
947.745178 58.573708 378.597321
967.573608 89.102264 428.909088
918.150635 237.192429 354.553650
929.526794 -204.014236 364.562683
848.279419 -24.691284 136.646439
929.237427 155.974564 340.875397
948.277649 4.697007 370.928314
868.450317 -246.320923 203.456879
884.049133 132.954208 297.179901
896.208862 -96.693672 294.564972
865.821594 -126.868622 206.719849
872.164673 -176.771805 251.143066
885.921875 50.525482 227.334106
833.655762 -128.284607 92.951309
880.770813 156.724762 266.704498
892.180908 185.836823 272.896118
854.846558 -75.783897 177.247086
847.397583 -106.847336 188.279816
880.104431 4.424201 211.813156
884.425598 64.400955 261.529510
977.124268 108.644096 439.966339
876.160400 65.100914 204.153229
1003.307983 27.999844 499.090851
970.163208 106.605492 437.011505
890.485474 -59.285545 279.469299
951.071960 -42.326836 400.318604
893.865051 118.217484 280.543732
884.815613 -98.957787 213.249725
848.826233 -198.418167 129.904236
862.205994 -6.434012 198.137009
903.621094 150.657104 279.951538
966.968872 22.712469 434.412262
1055.020020 -20.473810 488.448029
949.359558 -154.166153 350.017090
829.763916 -70.823441 121.567169
962.210693 -131.080917 363.643524
860.536743 -108.847092 179.694031
939.528992 33.483238 347.915497
935.021912 16.527161 359.199554
932.853577 201.850510 364.381958
841.410095 -75.180244 151.706177
885.783813 191.427460 275.018311
942.448059 149.062469 443.920807
1011.129700 -66.456726 467.377136
913.113220 209.731552 336.507477
879.729614 39.006989 220.958755
920.278748 -170.741898 427.448975
878.348022 4.232750 232.929977
946.918640 23.215513 378.771942
854.256775 63.715698 176.853714
839.135498 -8.729366 139.334259
927.774475 -176.002625 315.443512
988.428284 74.374649 493.968567
961.497375 77.674774 430.267395
1021.716492 -55.877121 459.222626
835.522522 -120.883911 117.478569
960.723877 60.202984 433.662231
931.927979 56.064354 362.175812
937.662537 -48.722580 354.004822
855.672852 -200.592743 214.595230
900.896301 -67.493599 294.087585
917.226135 205.734940 324.678192
918.338745 -93.593330 339.784698
907.909424 110.187477 280.251862
1004.409363 -67.158035 474.635406
966.558899 49.357506 486.065277
945.701721 -87.633034 486.119598
856.363892 -22.956736 182.433411
826.790649 -70.972626 119.480286
918.991760 116.458984 345.300262
910.034180 1.182068 317.381012
890.414490 -116.204468 222.094894
940.131531 -104.190857 483.363403
977.940796 142.677475 453.960480
933.177795 36.755959 361.422455
901.053955 45.955593 287.023834
949.706299 71.740479 394.909637
925.394043 -11.190617 345.284424
890.705017 33.572914 234.779007
835.681580 -166.691620 157.936462
858.266968 85.628250 183.790329
838.012451 -121.796539 146.349426
811.113159 -76.963051 75.518913
889.992310 116.813988 277.763641
992.226379 -56.124733 476.055298
936.589478 251.066803 361.541840
907.085938 -189.915298 405.332245
944.406860 -65.350105 351.804138
923.653442 155.973297 364.375061
1009.488037 80.050217 519.260742
931.787659 160.705551 354.496613
903.976135 20.720430 339.788025
917.909119 251.316772 315.726227
1004.286560 -54.904465 481.170868
962.654358 173.816025 429.985107
793.938354 -70.027054 32.830956
907.654846 137.046326 321.029999
927.442627 -131.612137 329.070770
946.027039 179.854523 423.211823
880.770691 -48.085503 274.647156
919.329651 179.214508 349.957642
891.733765 108.405807 246.782150
890.737244 71.773117 240.304947
856.102966 -210.976395 194.452621
886.516479 -164.931030 257.109955
1008.856995 74.168686 502.597595
984.911926 66.313278 487.316742
954.447754 -102.728851 393.053314
845.266846 -85.887352 196.915436
919.480713 139.197845 320.792236
930.351929 59.526131 360.749603
881.104248 -196.405502 245.091568
853.130249 6.802468 172.728027
887.174255 9.016330 246.873337
950.338318 134.495117 388.481140
972.662720 40.143219 453.419464
837.365906 -231.215744 168.469284
905.369019 78.989632 275.004303
957.762024 -161.608337 359.189240
942.400330 -60.251389 366.775482
869.726746 32.926079 197.901230
846.534668 -157.820969 115.074608
851.573425 -28.757702 171.770584
894.105286 140.901962 294.059326
902.208435 -282.953644 217.236847
872.864319 -54.186924 225.992477
885.367676 -200.593613 207.658981
871.299072 -72.454521 211.710419
943.706726 97.990257 394.218384
960.997620 -93.835304 455.520966
907.813110 114.094261 299.277466
822.569275 -52.196056 106.151352
924.010498 -86.826256 489.333527
828.323730 -152.193192 125.862518
989.931519 102.026649 481.933960
794.951172 -101.865967 6.526376
891.127808 198.265945 264.528534
909.054138 -171.107315 277.514984
888.951599 -181.573822 264.026398
969.737793 55.901112 432.181580
876.018494 -6.017230 201.957169
991.960144 -59.070862 478.756592
897.644104 167.753632 256.855804
942.303467 -148.351837 409.964966
943.063965 64.916946 372.001709
944.837524 -256.820831 264.782776
867.083801 93.127983 219.357437
865.097229 58.365074 206.711716
944.008484 -193.098145 324.902222
780.775269 -73.934631 25.281401
869.677368 93.587845 198.371231
841.554688 -85.804321 147.809311
866.675842 133.688065 211.465210
901.782227 195.271530 316.076202
963.315369 123.256012 447.333588
954.034180 108.250870 416.047974
943.442444 -134.587448 409.778442
924.030457 91.483070 361.807190
896.663757 208.080551 294.080353
889.323486 126.954483 280.520264
833.308960 -29.036463 123.452217
904.152832 -41.088596 309.324341
888.751892 -151.485809 438.708435
908.858337 197.167068 357.457916
813.420715 -53.003098 67.116249
845.193237 -141.736404 150.287018
877.052979 131.928131 246.328079
906.794922 195.753906 290.245789
832.513672 37.106770 127.431854
869.739685 -66.652809 186.819275
952.863098 87.247871 435.789215
980.912781 -76.577194 464.441467
946.760437 122.550240 447.960144
915.520203 -222.165405 329.700928
822.122131 -6.765198 124.518852
963.715393 -56.376175 407.347290
922.523010 41.661293 340.146454
862.912598 106.599220 205.599380
879.124756 -176.614548 240.378006
872.377686 -205.183807 256.195923
911.987427 185.655930 334.799377
892.027161 -59.556961 258.548889
852.321960 -181.569641 128.448914
859.633606 -40.110397 162.849640
883.792847 -162.643692 220.842880
936.042786 -151.949417 427.936707
849.973877 -110.515144 135.683853
914.229309 -129.254181 322.762939
787.405701 -58.232456 33.070862
907.236023 204.239258 315.292633
859.119446 -171.046860 216.902740
910.042847 103.957031 282.650940
854.359009 -5.413246 142.858109
1001.293335 51.727139 495.945038
795.818848 -89.628426 41.915077
939.333069 72.897278 370.253357
934.106323 39.089012 365.139343
941.580200 -207.561676 288.399841
794.141846 -112.823792 60.758732
981.748413 -4.145764 440.427368
843.377075 81.230904 160.768219
936.904724 -221.797729 317.576569
875.685608 -62.015682 268.336487
914.452942 236.231110 298.678467
968.211975 158.927063 432.933685
961.831665 125.632874 417.308136
906.956604 230.902466 304.503021
880.590637 -46.203579 213.492599
929.236084 36.365955 327.021576
831.982239 -139.758759 90.562363
840.949707 -4.115311 152.989151
841.771912 -23.303154 119.341560
888.976196 -126.340279 253.596359
883.495544 160.589233 223.624390
933.666687 -20.195156 360.774170
930.118408 80.992599 359.545410
872.231506 -149.282654 246.107956
883.417786 -31.747408 216.787445
881.859985 158.461014 235.699677
865.765442 -8.691814 178.635620
887.217529 -158.440552 285.404602
938.238220 175.040070 374.041077
881.076111 -256.856781 165.524292
862.730103 -153.343552 152.401917
890.877686 -73.383072 238.887222
906.602539 200.553467 337.804871
962.479248 178.778885 426.408417
917.211975 172.604797 338.009857
936.414246 211.810440 381.767181
920.368958 248.633789 333.205414
890.493652 -165.793579 236.588089
826.332397 -54.712475 118.769516
984.157410 84.100693 474.376190
848.169739 -32.453758 162.464005
876.809143 72.885284 249.616959
867.528748 109.833961 229.798645
922.340698 201.506470 329.750275
931.804382 32.803371 358.254639
830.372742 -52.900021 114.067665
927.570801 50.967251 400.033295
928.762634 32.581970 331.930756
863.629578 -76.654495 189.260315
866.377563 105.198204 213.749207
864.593079 -88.144783 199.003586
893.093811 -172.636612 226.595200
929.355225 -160.327225 389.341095
986.451355 22.285372 478.858093
972.138367 -69.362007 447.169861
868.749451 -120.139679 214.028671
878.862549 85.855087 239.828232
876.750488 -11.329863 239.403793
919.967041 0.912007 323.288086
818.260620 -9.351211 109.564255
804.318420 -92.504799 66.350876
932.632629 60.906265 344.923065
905.195374 207.646301 296.459106
942.063171 -173.650177 355.508148
940.067810 -96.160408 482.841156
862.094604 -1.287206 177.300125
925.713318 -66.812355 319.650391
932.203613 -53.716801 353.384705
906.558472 -53.643318 263.029022
903.360962 72.806137 284.586212
923.858276 -211.163055 343.424103
922.460571 198.529251 335.089142
854.668640 -224.679764 182.013733
840.699707 2.973842 178.469498
940.739136 -105.037186 457.449280
856.669556 -97.174530 142.232864
898.716309 142.356918 265.090698
1002.229065 -65.728195 465.620361
849.189880 85.890190 196.347916
926.406738 80.499268 366.162720
933.949219 -181.374878 342.808746
926.175781 258.869263 362.292145
870.469482 54.962387 208.940964
953.541931 61.880733 461.685455
923.583496 246.929871 348.087708
816.538513 -76.260391 56.180145
872.352417 114.045868 204.857727
914.165894 91.406731 363.891876
847.111755 -202.908554 162.347321
946.264954 152.955582 386.318268
886.687805 -189.883743 228.748322
918.433105 260.405090 374.833771
896.913818 163.387833 276.063263
958.588196 39.276455 467.488739
969.468811 192.676956 440.820007
891.690002 -69.734932 239.516922
899.166565 -118.697121 246.373367
875.001099 22.580471 201.125717
891.758667 -64.655540 275.974518
857.821289 -121.771469 153.688309
969.480957 -60.177509 493.546753
840.812988 -5.027717 196.575943
870.113281 -68.907715 229.973358
977.893677 -90.696205 431.501831
905.110291 -191.433609 272.662964
845.262573 -185.247162 143.749207
931.767334 25.149145 360.620209
861.275940 39.102921 158.574219
833.076111 -43.759102 132.450241
918.908142 -203.321304 276.568481
979.297852 125.779007 465.962067
962.107178 96.569740 431.077057
825.717773 18.477301 113.992622
923.208374 -189.024078 398.294159
835.885193 -34.414684 131.337341
941.066650 134.704117 377.420410
905.792297 216.767334 324.348663
895.857239 -107.234734 271.425446
844.466431 -215.029770 162.677368
889.924927 106.674606 303.002075
865.147705 -45.178661 197.580505
953.538818 117.180031 384.588409
980.055786 72.921257 467.268860
823.023987 -130.939514 105.246056
880.575317 -53.499817 213.740219
833.209839 22.817848 146.954544
968.983276 93.110939 431.944275
929.378601 -54.396099 346.304718
863.862427 -236.471069 229.216812
938.811096 140.491989 352.839355
868.539063 -43.119007 214.743408
945.527893 214.759125 389.896210
860.233337 -159.511673 218.978577
917.505432 -150.259735 298.896423
869.062866 -187.780594 245.796539
924.109985 227.338547 360.407288
899.258728 150.205872 278.761261
912.498413 153.141739 298.681244
901.594788 -157.545731 292.631256
969.403748 -73.593170 426.643433
889.576355 -51.285110 223.492569
871.507080 82.117088 196.083038
838.300354 -78.912323 99.187172
882.469299 -209.147186 242.572281
842.695007 -44.781898 117.806732
958.395081 103.722885 469.944824
947.786377 151.364288 416.396759
952.110718 -102.446274 477.159241
807.232971 -124.887466 68.200294
862.598999 -207.555771 168.455612
920.775208 -143.114716 326.892426
935.318481 -8.414209 337.737061
964.052002 103.024879 422.191895
941.067871 179.361801 372.876129
985.235413 126.400803 471.501648
891.484314 190.077118 255.421768
939.023499 -1.546520 376.970703
905.212341 -108.700111 302.063904
835.522217 -86.001732 134.170761
1008.379944 69.102066 540.957825
1015.731445 -63.325226 480.558319
902.861694 -187.729004 288.901154
826.626770 -48.594250 119.360863
937.854614 -122.698334 468.603638
900.339233 52.005085 328.729248
971.668396 -145.528503 376.947998
978.409363 59.391171 442.791656
902.213501 -170.645706 423.656799
836.414124 -39.833221 103.440712
944.236084 144.745972 378.790222
924.479492 -20.279831 311.551025
928.992676 133.038483 364.088898
932.316467 -213.615189 343.250671
821.336487 -89.650612 85.763329
936.167603 75.588326 350.871796
879.739502 149.350632 222.688309
864.539795 -178.114258 207.642166
941.562927 52.982868 381.486176
941.151306 63.768990 426.913086
945.401611 -103.962723 398.243927
882.668640 -104.267693 248.406555
913.092712 -72.796150 320.556976
886.806213 -20.188612 244.902100
826.552612 -85.406662 144.466843
958.714417 -42.796516 414.937958
957.649597 161.837357 426.234985
920.090210 29.049345 304.038086
932.165955 142.184738 389.360565
951.244263 -115.075897 453.380707
984.176208 -17.662035 435.573090
806.790649 -87.980141 49.243397
832.590881 30.613138 133.965866
966.844604 104.025627 426.346313
882.860046 133.658188 234.898361
889.842224 92.307564 259.690704
841.984741 -59.451569 153.343002
920.113464 239.214401 337.788239
857.402527 81.313293 196.381195
936.538940 107.687347 356.386505
860.868103 57.026577 173.204468
875.314941 41.639214 233.743973
882.114136 -241.901901 216.316345
920.828796 138.415192 314.178436
895.549316 -78.878426 278.409210
847.388000 -158.984940 207.852005
940.854797 82.843391 377.327454
903.165588 -11.769994 268.411621
890.917114 134.760605 244.712067
971.296265 -4.210012 420.104187
922.818115 240.271851 348.160400
923.878601 202.097046 326.145386
828.655579 -31.764107 114.158768
869.085876 -18.849033 224.081787
872.522949 -4.860385 228.784836
982.952209 74.987839 466.655548
929.704468 110.939377 351.597046
926.533142 -48.771370 350.267914
875.322449 -144.395416 185.973877
872.159668 -88.046890 181.620758
839.919556 -152.335464 145.097183
960.575012 27.397774 409.683411
930.599548 -102.557831 335.438202
784.564514 -62.725605 31.088648
905.962952 -4.604024 275.283661
939.390747 -28.632996 398.637329
906.725769 213.291824 333.076996
882.885681 25.712212 216.862061
839.613159 9.049452 117.426949
853.663452 43.036846 154.749695
901.671692 251.512283 327.506317
952.236450 -64.850578 369.772522
958.976257 -234.455765 285.691101
848.632813 -186.360504 211.206345
895.207764 -51.692760 279.083252
819.579102 -174.215683 123.667885
895.083069 -196.450150 250.840256
847.885925 -111.509743 204.977356
883.832825 -191.335129 249.049805
964.773804 54.234390 423.633606
975.606567 87.198120 450.134766
916.484436 -69.364098 316.693207
918.528748 7.597979 339.441406
991.731201 30.329046 518.265686
934.891479 -155.754272 424.203247
946.050903 -203.646576 342.543884
860.679688 -123.778839 161.209885
925.652283 -110.935043 340.983795
932.803284 79.013382 355.386871
986.915527 111.533974 473.857697
842.814880 -125.483459 156.457596
890.250000 165.130569 314.189117
961.331238 -168.861008 345.023010
956.303589 -24.073351 404.279297
897.959839 81.438759 273.257721
945.029846 208.822937 384.644135
975.211792 111.268829 426.095398
914.750488 15.716839 317.708588
932.208313 36.961060 362.089020
944.799194 77.174385 372.159973
827.517456 -94.587265 111.999771
841.582642 -51.332287 150.406799
841.055481 -147.429550 145.033524
995.662170 86.761620 497.535522
884.990417 141.717728 240.205643
858.379700 -135.016953 229.599197
806.825562 -79.324860 66.647270
881.286133 76.435760 248.628601
966.618469 -114.723457 418.437561
880.139160 16.449560 237.848663
906.027588 -1.810655 272.804108
956.871460 111.136009 456.815643
956.307373 161.862381 437.545929
899.011414 -141.795609 303.772522
927.933167 20.319210 348.926331
936.513123 -227.343353 325.718536
960.237854 -130.835648 403.700958
950.681274 226.724167 406.046814
961.524231 -235.562927 313.183685
856.752197 14.520823 191.599701
932.029724 -155.107544 326.782196
820.883545 -63.950027 43.544315
950.910461 23.979185 395.538910
1005.515747 57.485195 505.994659
908.438660 136.888535 296.476318
901.757690 67.732719 259.332123
872.597900 135.572876 232.557587
914.603271 136.706131 337.994171
950.225708 211.455063 384.690430
837.303955 -6.788689 101.198578
905.403564 -184.624176 292.551758
956.232788 187.390915 408.496613
910.814270 -19.807871 280.254333
861.037842 49.842400 136.462921
938.497742 -154.034805 401.792419
815.917053 -164.485718 104.933159
822.986816 -99.485161 112.084549
893.048096 -30.817640 237.834320
914.738403 134.513306 344.746124
887.535278 -103.154617 249.105255
969.995422 -106.593666 387.502808
857.495117 -65.760384 146.831818
883.390381 180.518387 251.526306
837.700195 43.341797 149.142380
859.077209 -54.835201 192.123123
820.575195 -132.033615 98.052162
830.912781 18.484484 138.139908
937.053589 -15.387586 373.298035
879.749084 11.625207 211.593491
920.500244 -136.351212 310.264221
863.010254 -240.812256 191.898270
826.966797 -156.851791 83.652596
870.303955 -161.864578 253.913513
903.950623 131.945099 293.545837
846.916748 -11.723122 199.897476
862.266602 -37.744110 212.730469
920.159973 265.962311 331.990234
916.085571 -179.434402 325.178558
851.718750 81.528877 189.385544
898.856506 -170.201004 416.572388
884.252563 25.338911 245.147415
888.114685 -168.846771 286.031403
991.637817 -62.141685 478.700317
906.932495 -168.795532 424.624268
880.093506 171.926743 247.322174
980.060059 -8.069724 429.151062
846.390015 -189.372681 123.884377
818.970947 -164.350647 122.980629
824.516174 -51.170010 115.242249
877.837524 -67.778976 207.321228
934.094543 104.998444 350.653900
979.542480 128.252396 495.216675
973.277710 116.587662 435.639038
962.908630 90.866241 463.723389
836.622192 -42.106319 139.241943
1011.835083 -37.765472 450.570618
957.393433 -13.743876 413.598724
895.294373 -142.328537 248.673828
899.345337 82.007278 285.554749
945.785645 -245.018661 271.763672
929.499146 52.120140 336.876007
924.789368 -170.788818 348.119934
940.838745 -162.885529 321.224457
854.819031 42.346752 166.674973
899.233093 118.275040 325.602051
828.944275 -105.523506 97.874840
824.475220 -62.836147 109.136879
961.771912 -151.947586 377.409302
858.966919 -5.693799 160.681458
870.767883 -167.074356 205.003433
885.213501 178.413284 264.592438
859.852112 -148.866837 208.135086
926.186890 244.763626 340.924408
1005.272156 14.822330 482.696747
976.159729 78.596817 457.567688
857.851746 -241.856277 163.764679
984.442871 66.202599 455.944672
893.438049 -146.634750 442.138977
878.409058 -13.682944 228.908386
888.486938 -43.022736 228.322708
928.414001 219.180786 342.364166
904.606628 -120.935333 299.705139
837.909180 -113.635818 145.605621
964.574158 135.793915 468.887146
883.070007 106.868927 252.940750
896.308167 237.172974 311.964508
930.942139 -73.221878 363.961121
867.380859 49.921787 216.519974
927.185059 -224.683319 315.031708
975.132996 123.065308 475.807404
890.503357 -63.010777 255.081421
822.919861 -76.244141 102.809792
937.980469 -14.568658 410.732880
905.978821 -176.836365 414.250397
916.526917 -40.425640 315.753418
866.555481 47.543015 183.868652
847.819824 61.908134 163.567337
936.676941 225.028809 367.278381
1022.308228 -13.278715 474.199860
947.975891 22.483358 438.758911
898.448120 -57.574490 250.728485
887.558228 62.046951 225.035767
889.837524 135.172867 326.967163
886.641235 221.288681 297.064148
811.615540 -105.659294 108.122520
958.243835 14.103204 407.768921
878.631042 -57.547516 231.362488
951.953735 -167.193604 359.805328
905.665344 -174.314774 296.448517
1000.935059 -67.661072 477.849792
867.045898 -57.310814 212.768402
856.234314 -24.066280 198.640717
903.196106 -4.424688 268.083496
873.078186 53.019321 223.820663
940.533264 -79.580368 353.928467
905.611572 -145.469925 447.751770
915.539368 -170.040024 306.814087
893.250183 148.363983 244.079056
1072.207642 28.014423 524.717712
857.530884 109.737175 188.999191
863.945679 97.583832 215.685501
992.145813 22.833780 466.974701
931.272339 -160.722931 407.490326
960.245544 30.135574 412.658997
876.993530 99.907906 239.424866
1005.281311 78.109154 498.592590
914.954834 -174.124969 406.367859
875.408875 -187.219864 182.611069
925.921265 201.958740 347.480835
970.896423 36.966167 426.688690
925.139099 -132.360413 335.761230
966.830444 -91.065514 474.944794
917.621521 -105.666397 326.380615
941.772705 -3.803222 363.869385
861.346802 -220.558090 184.333130
888.210205 -26.729620 252.904938
906.171326 179.713196 331.626190
914.114563 108.319412 313.396698
812.786560 -37.384159 90.736130
1066.736816 -2.648701 509.480438
870.387817 116.697708 222.227844
948.789734 -96.866119 475.587006
958.153198 142.984833 452.234314
849.158386 85.992874 166.733429
861.388306 105.604088 178.696594
895.136475 -105.044487 267.363464
954.092285 -139.935043 395.431824
866.410156 124.504799 209.852432
923.063965 182.666641 328.909424
931.787537 5.983391 339.136444
963.130005 -35.883961 405.981720
965.455261 -121.424461 383.026489
850.518372 -8.856683 167.971481
829.439514 37.414730 121.339409
882.786499 139.405197 233.360291
955.578491 99.950668 417.185486
887.439575 85.068291 230.590408
969.974121 148.435638 454.267181
914.140076 234.909073 308.220245
837.052063 -94.526649 141.128860
906.420105 221.265320 343.897797
924.670898 226.704300 384.286987
842.963196 49.205070 157.971222
883.804626 -169.981766 251.811554
859.965942 30.388248 167.940018
918.597778 -25.521975 304.207611
917.010315 -85.946167 355.829071
928.703613 227.604111 356.744751
982.896301 79.716339 471.619751
980.580017 52.506477 502.540771
886.992554 103.653648 247.775467
861.781494 5.935762 191.029327
928.670227 213.184097 392.604034
867.614807 4.976635 178.010345
826.601868 -67.852798 92.303604
1022.823303 59.310505 527.110779
941.209229 42.365120 365.825928
905.049194 105.158211 300.600372
850.165588 -232.014130 167.548019
973.415039 95.370003 477.129852
822.232117 -33.180206 48.979568
919.351379 -151.164551 291.598541
809.103882 -17.334496 145.923340
897.213562 -89.392700 253.761108
952.471191 -79.053520 470.794525
951.092163 121.737312 390.794861
997.381348 41.314606 506.303223
982.749023 167.694382 463.854584
859.420715 -50.198750 152.307175
925.897461 -92.317139 341.948914
970.570251 102.096375 483.548309
957.006226 64.501770 425.514801
882.382385 -36.354828 247.104614
910.253784 52.310703 279.086548
920.897827 -10.868539 317.993713
977.739563 42.634937 482.426880
882.786255 -46.555481 242.742676
912.562378 -111.295425 287.563263
992.979431 -58.781666 432.545319
891.874451 73.304321 271.192841
840.609375 26.601471 207.316574
928.205811 81.649208 344.656952
917.436829 257.316132 328.337097
915.769104 54.795853 328.877258
822.485779 -181.006485 119.050003
887.602844 97.792107 304.840668
818.891663 -128.433228 94.172493
866.448425 119.398468 213.944092
1024.130981 -43.023418 494.496307
957.908325 -143.997360 353.946289
946.746216 180.574020 386.907379
933.470459 129.768127 359.914673
953.164734 -21.158834 389.254486
930.864136 -80.552254 361.818481
949.555664 182.040894 391.554657
834.537537 -142.240067 160.103180
829.979126 -111.906303 93.184685
915.801025 86.509140 300.307922
969.293945 127.123299 459.518005
823.375610 -65.512169 60.533817
869.786987 35.728622 221.372910
933.335449 140.705002 347.031769
918.727600 -102.779129 335.827301
862.794861 -194.638626 206.928894
919.702087 96.799728 337.434540
904.569824 -104.239891 284.066254
926.359924 -190.460266 390.963928
932.824524 18.868855 402.275848
988.630310 -73.146492 486.482819
850.718567 -6.920894 164.876816
957.300598 -67.427139 398.908936
836.946167 -199.113174 186.195724
861.377136 13.025421 190.898849
803.250549 -121.428612 72.870506
862.942200 -80.491592 167.317688
918.151245 -85.273102 329.462280
815.763123 -173.387039 139.926758
859.818848 -129.409729 179.576599
925.645142 -11.540491 328.404266
970.185425 49.113792 494.517181
871.487549 -33.894810 194.621017
910.246765 9.296484 279.516205
857.386536 -112.942848 152.965836
967.788879 -81.771858 451.162720
922.038635 -125.477112 463.881165
966.225281 -83.552513 479.208740
887.356812 25.917881 270.996674
937.272644 -145.583694 330.139526
885.127563 -59.070095 216.568558
961.084290 -88.530731 385.128662
848.850830 28.080318 162.477905
871.152649 -99.812431 191.164017
874.420105 -239.071411 233.652603
897.234131 98.434944 340.489380
926.682556 88.735306 327.833527
882.522156 129.427475 257.832336
876.026123 106.892776 239.225235
876.742188 -154.283508 185.870834
977.645935 -25.279600 419.182526
979.816711 -71.819366 449.673157
904.169556 171.041260 311.867065
955.691040 -139.088165 347.879364
935.172668 6.407717 363.940948
871.348694 -97.960945 211.907562
884.161255 -40.724915 211.330338
848.279846 -56.380936 190.575150
943.102966 5.872914 387.329254
963.493713 163.077606 434.718903
938.263123 152.423798 371.286407
890.042175 64.334473 261.372864
826.671387 -53.470371 83.670601
960.518066 3.472570 415.757019
938.338623 74.303253 382.988983
911.928650 -131.367859 452.232056
901.655884 -0.642089 264.339569
952.429443 10.125614 407.004242
800.832275 -71.192558 55.124279
836.625793 16.329973 134.681259
890.192932 127.574478 312.568237
946.331909 -109.980911 466.419312
858.286865 47.657001 166.482086
955.062927 16.155308 390.280975
909.469299 -10.104239 283.541107
923.999756 7.516251 308.249115
958.911865 87.373413 406.988007
926.882813 77.300499 345.142212
964.855286 -199.667480 316.393158
930.202271 -100.265976 319.290894
954.754944 126.721100 426.863831
971.767944 101.792580 462.149811
914.339111 186.096115 312.268982
883.387634 73.914726 251.404785
843.894836 -112.861130 158.645752
883.035278 -100.681801 248.863358
887.297058 103.486877 254.162048
901.615051 -252.129257 240.849564
898.698120 222.200790 307.719849
961.238525 -107.548698 416.851532
825.169189 13.105273 157.203125
806.066711 -136.319473 82.462898
829.817505 -61.608143 126.039833
970.742920 111.149673 446.196930
898.046021 187.533691 281.239502
847.964111 -97.867500 131.344223
831.864624 -177.896835 131.500900
954.622925 150.174240 401.982208
919.639648 105.589241 327.192200
889.701233 7.355513 266.167145
912.878784 107.674095 322.801544
934.083008 43.067207 335.464630
875.221863 148.543701 239.980331
918.995239 218.909744 319.779358
970.256165 -31.412287 435.281738
941.790405 -141.546844 431.746063
922.297058 -201.252945 360.848145
958.700378 122.608871 416.358643
941.675903 31.602884 403.427002
850.014526 -243.387787 206.111267
822.671631 -1.336545 72.247566
833.090759 -92.988205 97.578575
909.533569 -110.733688 473.272278
845.550232 -238.710403 189.409302
906.752930 191.438843 283.715881
835.858154 -6.756431 187.141296
975.088074 62.770477 448.601410
944.278625 170.903854 387.814026
916.111938 178.940323 342.557831
837.464355 -85.992798 123.420700
893.407776 -279.617554 214.750168
949.453979 47.025482 381.304077
937.426514 61.480511 372.393707
951.532471 9.536333 422.373016
919.001648 211.048019 363.460876
906.260254 257.693481 334.350189
901.533630 -228.347504 247.562027
1016.029785 -36.201439 486.957184
856.191101 -150.604660 184.060455
902.414612 148.131973 315.098816
824.504028 -13.517713 111.763222
945.746643 -123.839493 339.952759
884.207336 10.763569 214.325836
806.453430 -77.518829 48.989956
948.562805 19.339035 382.945679
904.958618 114.070503 346.991241
873.993469 -206.443039 186.786606
899.156189 145.544357 285.247589
917.430969 7.781642 324.620697
938.010864 168.408737 358.206177
832.927063 -54.218403 131.023315
917.612671 264.319580 322.289398
856.972046 -225.005402 147.708740
944.474121 -5.707914 391.920959
972.788879 47.988712 429.758392
865.327454 -92.889198 206.569443
955.578247 177.933716 424.087158
939.289063 109.809715 373.698090
893.835938 74.520454 285.766937
869.893982 89.259850 230.199554
885.298096 123.444145 270.209778
930.508606 77.742279 340.995331
906.663940 71.712982 272.162201
945.157593 150.339996 378.384552
873.763977 95.602684 195.484146
959.296631 94.183990 425.708984
910.110657 -115.960243 270.365143
820.787903 -169.149307 100.866264
951.218811 109.863617 389.703003
919.591125 132.647079 341.542725
914.367310 -191.406830 396.290955
918.009583 -96.318230 297.793732
871.962769 -73.296555 224.277527
857.525085 55.460236 165.901917
855.935425 -7.596098 180.817535
909.535034 -100.067726 338.359955
970.316772 -92.270226 410.044220
856.076538 3.650325 180.611862
951.584595 -23.756413 379.916290
915.569092 123.938637 303.198090
916.730652 -7.221717 290.187744
921.927979 263.720764 335.245819
830.993774 -128.107544 93.197784
862.371826 17.151804 203.234711
858.404602 -86.400764 189.005661
892.278992 77.420906 236.723083
835.293884 33.782314 143.431641
822.102112 -111.170853 134.661942
841.990417 -104.995644 191.507645
809.132080 -25.436279 97.164223
892.961365 175.425507 294.237915
999.913330 9.277957 480.223907
927.910461 257.995117 386.700165
916.935852 133.887711 376.028320
968.846191 169.813965 449.075684
907.171692 237.884064 298.274078
916.127136 238.891525 315.275696
881.999939 163.483627 236.197556
964.517639 -80.242714 388.490479
846.980103 -77.991707 137.176239
894.445801 117.916588 270.241089
908.408630 -87.704697 313.229462
991.489685 49.418159 487.612427
893.447266 -40.450367 264.030579
916.267212 45.217766 323.747437
956.507874 -89.506897 448.490173
925.037842 -47.530624 325.749908
843.044861 -72.407593 190.797592
988.451721 38.465900 461.902710
862.087952 -57.609924 195.844940
847.366516 -204.479065 136.456161
876.784424 -30.582369 228.687225
883.823242 -107.753311 245.416855
888.013855 122.387802 252.763733
942.627380 111.608948 376.878937
884.054016 88.951736 237.921799
801.330566 -116.200470 28.472471
950.402222 12.543858 385.644989
901.826538 -59.266861 283.818756
855.130371 -46.728043 185.560272
898.058533 205.533234 297.727722
867.615540 80.106689 177.934326
972.311401 -133.828827 371.142700
847.725769 -50.485504 168.145767
883.780518 1.533764 241.807938
906.591492 33.427723 310.412415
844.411560 -43.988354 160.560089
957.264893 -97.214279 442.215668
945.148193 54.795334 369.034332
908.676880 -222.104919 336.694733
832.144897 -106.271057 95.027328
900.929871 240.360291 334.558716
934.123596 -46.229916 371.614716
978.115967 -81.947800 458.863037
961.815430 131.806671 415.043823
844.391724 11.253319 155.079651
915.902405 53.566284 374.935791
921.393433 229.949951 351.916962
887.702209 -56.143555 293.144623
796.048828 -106.879074 48.756313
879.974670 20.382250 205.874039
874.127319 8.437112 232.881210
908.110413 -159.512253 305.591736
887.054565 -38.077530 250.297867
939.845825 -164.542892 362.031738
911.939575 -32.265617 322.343964
963.777161 -98.413643 427.092621
903.390686 -178.935837 413.289673
907.214539 227.333298 339.444275
841.971069 -219.173325 197.055313
922.767517 88.116699 325.979614
943.488525 177.439896 390.533020
819.090637 -85.459335 61.027866
905.017639 43.029243 287.300446
929.718933 -147.839539 420.534058
920.173767 -88.892708 333.608307
900.997253 -35.609917 327.599365
833.293213 53.475227 176.270432
830.165466 -165.757477 123.484116
958.902161 -75.597961 489.939117
911.388000 -165.369629 290.125183
904.883667 153.324722 311.089630
860.465881 -22.272253 184.858856
886.814209 -108.744469 213.622314
842.187500 -55.587772 121.144913
899.780273 -119.138626 244.813568
841.141968 -218.192154 155.356857
858.834534 -57.852913 185.287582
929.562927 113.782356 329.873474
890.067200 -122.102043 237.170883
847.075928 -151.449097 128.537460
913.466125 234.289566 300.941010
924.895325 -153.530716 432.018097
888.892029 -197.569397 222.312317
956.703674 -55.987225 384.345947
919.642822 -4.003010 332.672882
997.686401 6.681021 482.432129
883.853760 -123.542549 208.393829
870.944031 -0.141434 211.274628
884.161865 103.199135 241.106995
978.353027 -76.948479 487.727234
880.261414 70.812302 246.233688
963.858704 -121.019180 405.312683
885.712402 159.325928 254.514389
926.328979 160.273102 325.877808
880.287720 109.667709 256.833405
967.757935 54.696903 442.841736
922.230652 -118.275429 462.341766
942.465210 -229.552277 324.416748
931.691650 -21.412258 339.279541
991.358826 -67.591003 481.318878
882.189392 32.871574 217.694870
970.888062 -120.919075 372.343109
932.638367 -46.746254 358.959930
937.953247 154.620010 401.623810
977.751465 -215.835266 324.835968
863.920959 -46.285606 200.963303
943.147400 178.995926 382.946625
928.526733 140.422073 334.642670
839.461975 -16.946133 152.454361
918.749390 102.394241 350.021027
883.492249 -128.213821 282.350220
975.059143 -90.745392 471.864502
969.313843 -106.155304 398.325500
841.040100 -195.589844 113.390602
852.432556 -51.496635 175.146835
885.491760 -233.097183 242.436691
922.466736 -197.052917 354.344818
889.219299 21.600626 269.752869
890.924072 -67.650658 261.821899
1007.214478 39.824631 506.337555
871.019348 99.747086 225.263443
903.704407 -183.062607 272.320435
911.784180 88.354691 285.688873
970.786194 139.041718 443.338867
905.613464 74.741341 300.293915
955.369507 133.871094 433.471069
841.758484 16.895655 147.392227
911.823486 216.931839 335.232239
961.916565 -35.328800 422.661743
881.506226 99.967064 222.668243
910.834045 -139.530792 329.689087
914.338806 -113.749626 472.700134
945.975464 70.467842 402.798279
955.190979 132.421005 405.958038
914.725647 -176.594040 380.875763
934.601196 146.462677 352.449341
820.178101 -35.400921 124.993752
909.738037 232.874390 301.075012
847.174805 -88.064507 151.529404
977.038391 -87.928757 444.028809
893.838013 -179.682785 416.866608
935.860229 66.861320 375.703064
861.605652 -158.311005 190.879242
923.361938 -147.782394 435.370483
893.880188 -103.192230 275.046356
862.395752 96.585770 209.275726
799.337219 -42.489464 50.970917
831.509766 26.253784 171.114563
812.489380 -148.724838 93.307480
933.227539 -52.129642 361.049164
917.718445 225.401337 347.020416
944.833984 -266.054352 251.664536
937.372070 -175.969421 306.263763
916.979980 15.564217 295.754089
928.955078 -155.149521 316.583527
897.003601 -233.069885 241.044403
867.978271 -118.793739 166.834518
922.187500 72.679199 347.149658
966.948303 139.377686 431.501160
933.845154 -105.002090 463.897095
907.074768 184.983276 291.039795
953.846680 -129.725082 363.975830
929.221985 -39.264198 334.213989
939.595520 -189.047867 355.668884
920.237549 -149.926712 405.134735
951.380249 191.493011 406.795410
927.083496 165.526215 334.637207
975.961548 145.961990 449.716522
896.768311 -77.809258 283.492676
933.201355 -176.787384 354.088776
898.899414 -153.556320 285.856598
903.923218 -297.428864 209.407349
924.995178 -114.657364 348.833160
929.381409 249.589554 349.566315
871.254211 140.774689 224.643524
969.094421 80.894989 433.976898
947.271545 92.483887 401.818817
922.928589 124.195251 347.582794
865.726929 -254.974335 209.892838
863.556030 2.210220 194.432526
889.660217 -98.533279 258.029785
853.257385 0.073492 174.657089
826.070190 -32.473881 137.851166
913.244324 194.226974 352.686279
941.020630 -185.765915 354.229706
872.409485 95.175529 203.717346
956.733215 -134.261734 414.215790
990.995117 -3.147874 459.334900
905.837341 -131.831223 460.357849
865.261719 124.944099 201.414642
903.179199 163.174149 310.407288
814.686218 -38.622696 111.904839
972.205200 -117.392235 379.791870
888.129883 194.700302 322.461884
917.824585 -175.159805 298.132050
940.855896 12.851928 400.521851
903.362305 131.856277 285.017334
915.827820 223.568298 336.934235
905.063110 163.495132 305.241180
885.759216 114.851303 268.309998
994.015076 -15.696457 452.498016
941.178528 -158.155685 368.395355
923.591003 -18.511448 317.230042
974.467102 -1.174323 452.802521
862.545166 56.996845 160.202820
896.147888 101.880051 271.823486
851.672668 32.238625 181.616898
830.710327 -175.991028 123.516922
882.398315 -74.858635 247.682709
814.973572 -96.593666 95.859344
876.828857 19.219849 225.283554
1037.170288 -53.638504 466.436035
894.564941 10.699864 246.155746
942.866577 -149.685349 385.994171
908.097839 32.857250 279.214874
892.996155 90.088593 275.538422
884.887146 -49.805889 212.641373
980.532043 -64.374901 425.074615
854.994263 7.049612 176.996887
953.596069 -84.193565 444.018097
884.749817 -7.704435 226.860672
860.917053 -194.519135 170.726898
929.067139 -161.775940 413.142578
888.722534 193.520325 283.804657
976.193237 80.609512 458.296722
958.706421 -43.791519 397.972382
945.419434 -20.344057 391.847961
972.787537 86.250854 443.328186
938.468323 -69.427238 338.265594
867.715332 129.063492 212.030060
948.060852 229.972626 401.844025
861.971252 -102.339226 197.334930
850.933350 -128.246552 136.938171
840.040100 -43.039730 143.452393
969.339722 161.561722 440.548401
972.744995 -99.725517 452.259399
944.671936 -43.903660 371.833588
946.725342 49.866932 380.776978
901.830383 76.361214 338.685089
790.733459 -91.697327 36.758400
934.013794 83.118645 358.091339
870.423157 -151.956085 185.616089
881.322266 130.303528 263.110504
867.184814 -257.084229 180.835892
930.991699 120.072128 351.605255
944.230347 151.544861 375.104950
940.049316 131.319550 367.481171
904.219482 228.142242 286.791962
915.542786 218.748856 362.389923
896.391846 226.384384 308.415375
956.386414 16.836027 424.611572
960.954041 48.899532 399.071198
883.148865 206.145020 297.756104
889.546570 -0.754541 262.099121
930.030640 -53.378448 331.983276
886.976746 144.720734 269.109192
849.108093 -77.942116 167.133545
991.054565 -44.390980 452.227661
935.319702 189.049011 379.819824
919.909241 162.925339 343.476624
934.388550 111.547226 363.601990
849.388977 -183.008362 153.608841
856.393860 51.389210 210.497589
1005.383789 -33.533466 501.095398
864.153625 -195.386612 184.685394
921.448425 125.110237 330.668335
881.977783 -47.363476 238.555725
896.304932 226.141479 303.833160
880.786682 -183.407455 412.742645
981.825500 66.308769 454.519531
858.534851 -170.275574 188.509827
880.482117 109.432678 236.423798
934.400574 91.570984 350.738159
883.689087 33.244339 251.613235
944.143677 -56.860588 366.208862
952.008362 153.800842 385.001648
974.249268 77.476273 451.999390
791.845215 -70.052757 37.513885
883.558350 125.408875 247.898087
930.797180 120.472702 382.978149
1033.413208 -57.329292 463.803253
932.975281 -111.812233 462.760315
862.097107 -69.787521 200.096390
952.683655 -36.293285 402.262238
954.407532 5.295444 444.871918
957.148254 193.178238 417.942017
976.126709 108.577278 456.629211
911.174988 101.798439 323.772827
859.740479 27.021482 186.575806
920.591492 -66.414108 307.715271
903.953796 68.830177 298.010376
918.630188 250.930908 329.818115
895.272095 83.859047 270.346161
1029.557129 -0.717138 492.548431
937.203125 -72.483452 375.922791
798.706238 -117.837311 63.346600
944.931091 -127.892136 413.778717
834.896667 -214.444046 138.917694
892.604248 -95.468445 273.167633
851.714050 6.422524 145.730881
936.188171 -167.235931 392.469086
905.246094 52.741974 270.067322
902.137878 -147.766418 267.152130
934.199646 -150.434860 316.445038
884.784241 112.730652 259.617859
859.994690 -164.744995 151.656097
839.291138 44.953743 121.905823
900.923645 -45.324245 293.370209
922.661133 -5.842974 339.962769
914.265930 121.162697 369.370331
909.892578 -136.035812 313.410156
932.173523 133.901901 344.651611
942.837219 148.771027 397.310944
882.409668 -96.755798 263.733978
896.629578 40.384090 275.026917
965.486938 84.756111 416.010315
961.406006 -97.167946 466.048950
938.540344 -82.403664 380.330261
935.819641 -29.929499 337.741852
813.536560 -63.633713 77.257660
952.883484 -140.200348 354.815063
878.542175 -75.958328 274.776184
876.114624 104.796104 215.844223
795.158325 -104.397362 38.488022
881.894043 0.384131 209.121948
921.043457 206.457657 365.578979
957.364868 11.569704 455.991669
834.534546 -58.381744 126.941971
875.023926 -172.985474 227.173279
924.846680 -183.165756 390.523346
863.400574 117.057076 201.161163
905.516602 -182.620560 384.518585
975.680847 -70.306595 463.925720
984.393555 132.609619 466.811768
957.199219 30.212349 398.369415
922.895386 13.877710 336.737427
913.827698 -262.518707 243.362564
924.236694 118.221283 358.759613
977.988342 -2.956688 437.954559
946.822815 -122.401581 413.816833
959.711182 -141.927689 376.218414
951.504395 -146.525742 418.374695
791.469055 -69.736084 66.099861
952.045471 -2.319713 405.752899
945.776978 83.918449 374.113312
846.220825 45.712215 167.743164
921.346680 165.055466 350.855347
936.479797 9.136161 341.869904
905.953125 134.338470 290.733521
904.210632 227.915497 287.165924
925.026184 147.249832 366.296173
814.423767 -49.988064 83.627563
934.904968 -10.495619 346.198151
938.349976 125.521011 367.502411
953.733215 6.093213 392.619019
873.842712 -266.712341 196.518921
918.283203 -127.844009 303.328552
878.865784 161.092606 242.515152
932.640381 91.084984 342.048157
843.803894 -125.508392 154.948929
841.338562 -129.769379 153.574097
892.257568 -209.702530 277.368866
945.484436 131.758026 413.093750
947.936584 -22.986200 407.363281
810.873840 -149.162598 90.483788
944.901123 94.766464 377.664429
860.240662 85.651939 168.705383
973.190430 41.229485 442.646912
905.441284 121.491867 348.668793
913.003479 118.683609 298.059357
843.641663 -181.049362 140.480301
861.954163 39.841007 190.569061
949.759338 -111.432770 462.755310
937.752808 72.148987 354.945801
989.893799 -113.334244 403.047302
982.516296 106.879242 463.322784
1048.166138 25.172182 524.748169
895.561096 38.993660 272.933411
904.552002 1.772022 268.913910
905.382996 95.817894 289.420929
932.804932 4.720120 358.686554
900.346130 -35.124722 279.065277
887.063477 -146.328232 260.176117
826.318176 -73.539848 112.157356
901.321777 -120.799431 292.418732
873.432739 -152.748978 211.647751
937.704346 78.569527 428.260284
947.946899 -96.268166 393.568787
888.243225 11.171129 260.797668
958.848083 145.895599 423.840027
917.429504 145.175797 337.255890
853.336792 -72.949745 195.521667
996.489990 55.962440 490.795990
873.303589 63.356995 197.872391
918.621216 228.225082 332.992065
822.278381 -128.022827 80.363297
912.733826 59.287933 329.755249
806.148438 -81.458702 1.679167
940.453247 51.054920 387.124573
909.377747 33.770493 275.712952
936.211670 76.578743 415.893311
918.840759 41.589439 335.710724
973.914246 173.611450 450.946106
994.362122 -80.482811 477.857941
902.020081 -158.018646 428.355103
865.961792 -62.556690 195.764557
833.504883 -197.392105 154.134720
859.039734 -157.404190 192.997559
942.000488 38.776115 367.433197
878.520569 -222.469345 210.578323
903.710876 -125.003937 285.922729
852.492737 105.477547 220.687607
810.176819 -134.056412 48.290073
846.349792 8.628341 105.027962
912.945557 -210.220917 273.348328
888.112976 164.914261 249.935730
895.531616 48.061390 286.981079
922.131287 46.343803 316.546753
914.800476 -133.492493 280.839325
957.012756 95.215866 408.817566
920.685852 -120.162697 308.149445
932.297485 -150.187637 429.892334
935.350708 -141.848877 416.511780
877.804321 93.467224 213.977249
930.163391 73.031639 374.189941
899.632019 148.990707 283.870026
882.857361 -228.399185 212.167389
852.885437 -100.701546 176.483826
788.254395 -71.015434 59.779449
846.896606 9.407794 177.820496
988.284363 -66.299667 464.725128
965.748657 34.399288 442.015991
936.483398 57.941845 371.699707
1043.429199 -72.929314 446.055420
942.392273 45.682209 428.724670
927.297119 -159.765137 419.696228
922.217224 22.147770 383.472687
938.016235 -176.052963 320.853821
868.271973 -132.706329 181.745102
946.113708 32.723461 392.931824
850.506714 -75.371338 171.448151
948.745056 164.078644 379.265350
950.359924 187.042343 389.733124
885.356140 142.663132 252.696106
920.744019 -206.610641 363.892090
812.399841 -98.799538 60.578266
884.621094 56.117939 254.453842
922.574829 222.198395 369.452759
1072.209351 20.583567 521.850586
934.202637 4.770390 345.260193
868.744812 105.907829 182.107986
967.529419 99.161964 453.252167
948.139099 82.314537 446.734924
923.105408 257.065857 348.972626
861.406677 64.261734 160.170135
957.597168 -203.039352 342.060394
929.108337 -296.252136 218.307022
860.315735 -137.982254 215.236359
853.688171 -238.012665 195.755722
812.325134 -70.908546 46.159428
881.429565 85.571991 220.333282
920.751404 -56.333691 325.195313
970.612610 37.951672 430.167389
846.445862 76.909973 206.824905
914.048462 -77.467651 323.457336
944.114136 185.011551 379.207581
959.713623 -17.048307 401.142181
916.333008 142.278946 343.868896
922.770447 -126.013580 302.309143
897.043945 198.205841 305.234161
859.334534 -104.496498 192.636444
897.522827 -114.690010 242.448654
897.462585 191.955246 303.422241
950.477783 182.300369 387.560120
850.093628 73.086998 214.298965
864.320801 26.682482 184.800385
923.589539 -93.602737 312.770142
890.663696 -4.708788 233.843079
952.699890 202.002579 400.081726
976.935364 -49.591362 434.264862
1050.913696 -24.865608 490.248047
897.933350 -226.499451 250.718002
902.255615 -41.855717 296.899261
892.803223 205.908005 302.109161
902.800537 80.271202 278.285248
891.140686 42.803211 276.173706
949.371765 -50.569317 379.948761
880.617188 118.301208 241.957718
907.980347 272.029419 345.333954
878.278015 -248.066620 158.351517
901.606445 -16.169149 294.300934
943.969482 -168.076431 369.382904
909.787170 95.257500 299.110962
974.038269 70.599052 450.532379
897.582336 -168.584656 285.738129
949.808899 -68.202904 382.832489
1010.907227 -57.618317 441.776306
905.239685 -23.127380 302.440796
984.708557 94.667923 461.416138
896.226685 -36.959530 251.629440
975.364563 -24.275452 426.228363
924.115356 250.964798 322.772766
967.045410 54.904221 425.299835
967.746887 177.272446 432.486511
868.876526 -91.386955 208.020889
979.817749 98.518066 469.174744
814.988342 16.437590 143.101334
953.483215 -85.173721 412.933868
836.600281 25.815920 142.381180
928.954407 -51.539143 316.500305
944.864197 -251.092377 267.446930
909.004150 -287.195465 211.500061
972.029358 -12.011665 449.213074
969.676636 -87.830460 456.839630
896.356750 5.993888 277.925537
1025.063843 4.455706 488.593414
924.342529 191.662048 378.815765
879.691284 -78.380859 198.650818
908.440002 89.965607 281.662567
928.308472 -174.012466 374.064575
885.220032 -72.563148 224.793137
937.694702 -291.851044 232.045853
867.085327 -75.043518 177.005447
936.902649 166.705338 369.290314
866.438782 43.418324 209.442093
912.257996 -66.655609 306.494324
815.944519 29.099831 141.602814
820.645569 -111.907326 83.447052
963.070801 -77.264229 437.750336
860.063171 -1.220182 163.605560
837.743103 -66.012390 109.179451
945.466797 -144.628632 346.734680
945.481506 12.495531 416.164612
969.335022 -41.258148 429.933777
950.421082 -71.476120 490.441650
900.637573 8.654730 252.458359
905.003479 -184.846405 290.127441
927.320374 102.340080 335.318970
879.342041 2.150702 237.716141
969.643982 -16.772766 437.711823
879.641052 -204.088974 204.339615
978.917969 117.532341 455.673492
923.888367 -56.837154 343.826996
991.644653 -9.366858 455.361755
854.010376 -249.160568 175.536377
944.998718 94.614449 363.910339
824.697205 -134.896271 108.601814
852.980896 74.392067 174.810928
860.316284 -38.119686 163.726929
910.445190 -84.793457 278.465820
936.436829 -3.284568 370.331543
884.094849 -120.894569 222.985565
845.925964 -3.650622 129.862122
806.682312 -32.500751 67.043961
865.202820 -173.637146 204.227310
928.998840 -90.551956 330.125671
915.135620 -139.182266 426.916473
935.740967 -65.101837 367.538757
889.314636 199.293701 268.557861
943.549255 -143.184265 416.705750
908.962341 -162.810196 276.548309
808.273804 -81.025452 52.753769
865.291260 -40.801601 195.307693
962.520752 149.236694 441.683716
825.036072 -177.340652 121.569046
877.948730 120.204468 271.838654
965.372803 -109.817612 392.906647
877.987793 -246.597504 194.824051
892.768921 -70.042946 266.236206
