ply
format ascii 1.0
element vertex 1395
property float x
property float y
property float z
end_header
-7.588794 879.786011 -363.539764
-206.395782 817.049438 -447.198029
-171.308640 824.568542 -584.186462
52.315689 956.969177 -407.985260
9.716910 952.796265 -531.218018
-188.983963 859.879395 -544.831604
12.869806 946.952942 -481.405457
16.415760 909.367004 -335.359863
-158.632629 800.163330 -284.412842
-24.349577 875.196838 -279.310455
-53.148346 874.294983 -265.045441
-318.963318 730.333923 -306.164673
36.757477 927.699951 -306.398804
-246.631607 766.985168 -339.532928
-3.070105 887.084229 -273.788208
-283.361908 740.151062 -414.907837
-264.922455 752.887451 -323.978790
-101.660027 959.766418 -592.023926
-159.029419 806.918091 -233.087906
-280.230072 757.878479 -393.284637
-166.069687 858.595520 -581.013428
24.501627 928.345459 -389.209808
-85.898026 858.532776 -615.439636
-141.708862 883.352478 -566.078491
-221.104828 792.210144 -333.506226
-194.616928 800.064514 -310.237366
-207.651535 781.518616 -276.209045
-159.767044 827.915588 -404.918213
41.037643 961.959900 -501.418396
-304.883881 712.717346 -277.486389
-139.526901 865.504761 -547.141602
-297.041351 707.906128 -255.100510
-172.859512 831.169067 -496.670288
3.953629 889.661987 -345.064789
-223.742508 764.006531 -206.152420
-193.672440 801.346252 -424.094635
-353.906250 713.141907 -427.422028
-113.536484 899.427856 -587.574402
34.830265 950.985779 -419.833252
-228.043259 783.580444 -305.906372
-168.789230 851.350281 -523.953613
-10.176428 906.045959 -360.855560
47.660965 952.034058 -367.712158
-199.139709 838.864868 -562.282654
-146.440063 823.067444 -334.562195
-272.215240 780.587219 -477.140686
-29.196007 913.710449 -481.809021
-17.347094 931.381042 -487.770233
-175.725296 831.537109 -457.978210
37.060818 964.759277 -507.680573
-216.695129 792.091980 -419.317505
-193.197449 775.375244 -259.504883
39.705997 948.314026 -399.071106
10.845483 943.452271 -462.834717
-19.388577 923.539490 -481.437531
-156.907730 831.753418 -588.129517
-60.364971 902.459412 -488.359711
90.174149 947.624329 -291.641571
-6.083945 918.704163 -438.222748
-284.910889 748.299744 -405.331085
-91.633194 871.254944 -436.391846
-52.247955 903.371155 -415.564575
-164.269882 829.308228 -427.340607
91.571815 957.310852 -312.953796
-50.740620 880.107971 -365.071808
64.689369 997.173767 -539.667175
-117.447182 834.271790 -408.777039
-236.622299 796.430664 -462.962555
-115.057510 911.463013 -566.570557
-206.059174 802.117493 -445.080444
30.305258 961.992981 -456.497864
-97.628082 957.581360 -585.876831
-257.561890 755.414734 -270.594543
-174.828278 854.342468 -522.299988
-134.725601 835.866760 -385.669373
85.963104 965.130310 -343.445374
-68.466248 890.222839 -407.120239
-143.333817 869.077698 -494.065216
-234.035263 775.715576 -369.005524
-144.235687 800.792664 -227.338547
-221.867035 835.252441 -567.878540
9.668157 982.867493 -577.161316
-223.096085 776.088684 -398.494049
68.627022 962.003601 -394.196930
-42.765545 912.183533 -551.816345
-137.518204 858.124512 -515.884460
-84.453728 885.285706 -616.731323
-46.613567 875.872009 -326.887726
-197.595795 803.740356 -420.411224
7.853596 934.591736 -491.563599
-72.230537 911.779968 -508.689880
-17.903328 888.309021 -262.256500
-174.284500 822.679260 -448.678406
29.164200 999.481262 -578.893188
-62.486431 887.440796 -436.350128
51.641167 986.569763 -548.695190
19.293913 980.023071 -561.916382
-48.663731 903.011963 -470.237976
-197.203415 807.514771 -497.670776
-195.846619 766.495056 -235.347794
-197.634323 815.109131 -391.401825
-201.230896 804.067383 -583.227722
-196.307098 812.725281 -478.367493
-336.206085 772.537292 -507.843964
-271.902161 751.186829 -448.332184
-101.489464 893.379089 -503.086975
-258.029144 777.457458 -470.743713
-103.976425 842.229553 -316.360779
-17.880718 936.287720 -498.828430
-149.367172 804.675293 -281.614929
-37.757408 911.110474 -462.011475
-243.980133 756.856079 -322.545898
-7.732247 940.600403 -492.697937
-17.452681 918.822998 -398.935089
44.758034 966.496094 -500.115662
54.722973 930.073669 -290.771881
2.117097 931.662354 -408.259521
-110.619942 875.899780 -469.630005
-237.200729 791.459106 -381.472198
78.325851 940.454468 -283.263794
101.166061 981.393555 -386.112061
-234.089630 808.366760 -498.036438
-156.827667 834.119934 -451.560669
-78.714798 849.327515 -257.472504
-166.095428 823.781006 -331.124237
10.819601 918.369995 -348.250549
-99.782990 864.889954 -359.429352
28.178116 925.453064 -320.461548
-138.126144 808.406311 -249.722672
-25.944616 862.306580 -326.429321
-302.251282 807.337585 -522.160645
-40.987419 921.704407 -516.825439
-312.033356 739.085266 -424.983643
70.761131 924.283936 -287.554993
-301.427063 743.728149 -426.728027
-238.731628 766.363281 -399.789642
55.210426 947.965027 -365.712738
-249.034393 788.775818 -395.430054
-116.360260 905.656311 -549.056702
-265.505768 749.146729 -264.879883
40.703144 938.312439 -350.769318
-110.948868 928.955322 -590.184692
-252.467270 738.442139 -265.422913
-54.450836 916.187317 -501.742584
27.418005 921.035583 -274.042389
42.390034 983.244385 -525.138000
-132.044586 849.731079 -429.728424
-179.356339 792.676514 -290.303589
2.415250 903.906128 -280.728149
-213.875610 796.180603 -357.518799
-63.907948 944.888794 -576.037842
7.229688 902.685547 -267.067047
-250.369476 737.207458 -233.987656
-335.117523 727.004395 -357.824219
-100.326271 910.063965 -559.907837
-163.872574 838.443115 -580.491760
-67.513336 899.220520 -456.994659
-89.431068 945.450562 -599.703064
-221.053696 828.059265 -548.636230
-81.002945 863.451111 -298.207489
0.129145 919.674011 -426.328735
-269.669067 806.043091 -509.749390
-107.984596 841.257385 -308.952026
62.625961 945.891174 -410.424683
-312.351105 752.039795 -419.227631
7.891443 906.610229 -356.155457
-34.549427 917.906555 -489.983917
-133.094269 823.463257 -235.649551
-9.808808 914.722534 -449.721100
-116.005577 832.581787 -255.951340
-248.227005 800.643250 -550.149048
-185.950485 794.394958 -319.641174
-109.383064 854.678589 -389.233887
-70.508484 882.743042 -361.314819
-92.695801 828.146423 -310.834442
-319.601196 737.088928 -369.192261
-81.153198 884.141663 -534.616577
-219.751633 798.628967 -366.584564
90.397438 954.082458 -324.314728
-60.098511 934.575195 -541.419861
39.658424 936.984741 -342.555176
-256.133240 750.505798 -235.351273
-310.110596 765.823303 -487.963593
3.768837 927.886047 -390.568146
-67.050354 900.589661 -505.444275
-180.724121 812.817383 -332.215088
73.581993 961.900879 -450.426880
-75.127495 867.774231 -287.887421
3.449192 954.988953 -508.292175
-25.454287 946.961487 -571.381897
-57.526737 935.560852 -608.212036
-240.153137 751.310242 -257.419281
-72.664078 859.612610 -297.699188
-288.706146 753.179504 -423.306213
-185.244690 801.762268 -599.751648
-96.109711 912.324768 -570.228149
52.505440 947.550781 -427.557373
-211.589966 835.355835 -553.484436
-3.356891 990.777405 -597.141113
-122.140205 826.463257 -240.725327
-265.925995 725.784180 -219.990585
-142.753693 848.485657 -398.964844
-217.099075 779.017883 -392.466614
-78.046089 959.312622 -582.152893
-164.919983 833.796326 -404.545746
-269.566132 731.685669 -241.543121
-332.664581 800.090576 -525.863953
-143.337769 865.405762 -576.395081
-135.347885 855.284180 -609.583801
-233.116577 786.850342 -445.490784
-250.965027 735.710510 -227.974274
-144.190720 825.302063 -615.517578
45.371033 933.792419 -306.278931
-15.300928 908.409241 -491.929504
-182.564270 780.337463 -592.615356
-352.560242 716.922485 -462.646332
86.457634 952.240784 -335.052887
-214.130325 763.827148 -266.806152
-254.306854 748.703918 -213.743454
-256.403870 813.708618 -526.965027
40.222260 981.988159 -577.393555
33.346249 922.486755 -318.994629
54.314606 935.669739 -278.911560
-286.481934 745.052734 -369.132904
-15.490940 943.488586 -503.299194
-246.528030 755.179504 -317.075562
-191.026154 806.532959 -335.839813
-55.976120 885.711487 -409.562958
82.094124 940.281860 -361.301575
-163.102020 819.320190 -391.838745
-31.778542 885.278076 -336.267853
-147.481262 845.841614 -455.840851
-220.949036 745.606079 -239.256027
-13.955817 884.385986 -285.103241
-157.765121 777.343750 -261.080872
-297.746643 737.625793 -286.408752
-188.131973 807.332703 -409.403503
-217.293457 773.993164 -364.998260
38.237309 970.301880 -486.235107
53.213924 948.419983 -494.066193
-190.855865 833.267395 -502.386047
-110.082924 847.397522 -364.314148
-242.430420 796.036621 -421.261749
-272.448883 741.993896 -311.951996
-152.616104 848.966858 -442.164063
-138.717468 829.311707 -375.870148
-126.193558 873.889160 -568.928040
35.069252 929.790222 -314.561371
-37.411907 884.833679 -351.652557
-133.335205 826.089600 -343.803833
-49.922829 896.402039 -398.529816
-182.670776 793.068909 -237.833832
-183.094772 827.169006 -593.698303
-156.465942 816.370728 -371.750458
-262.047791 760.051453 -346.736816
39.414993 942.963257 -414.131470
5.748310 880.376953 -322.406830
-288.821594 717.305847 -239.096039
-110.320526 835.944153 -303.822571
-183.072800 778.762878 -253.917236
-203.566666 838.902039 -561.955688
-15.910781 904.985229 -371.416840
-207.268921 796.346924 -448.018585
-225.219284 764.423279 -579.028076
-207.192215 810.214661 -488.915466
30.346350 932.375671 -331.316254
-77.764359 877.078125 -414.739014
-64.664780 876.572510 -299.540253
-30.111452 888.848389 -294.468170
-134.476089 897.912659 -564.624084
25.647879 949.148987 -490.441467
54.090847 969.537415 -448.139374
-86.432037 944.239197 -609.964050
-95.062790 837.816040 -370.719574
-115.509644 835.974854 -302.618683
-293.165894 723.973450 -295.372284
-217.638718 789.708130 -325.800507
-57.895489 928.780640 -540.220337
-170.696060 843.596130 -470.628662
-211.134644 784.369873 -277.842560
-205.961105 791.218262 -368.806641
-184.293243 755.776550 -233.967255
-138.163513 851.399292 -399.033752
71.550735 958.982483 -346.858490
-99.792496 846.747803 -310.293488
-245.471405 798.375305 -562.317017
-185.907196 760.592163 -589.285767
-329.695770 741.260010 -397.988098
-233.880188 785.334595 -352.991028
-190.364792 833.723755 -568.578613
-104.701355 831.446838 -252.545242
-63.145103 978.436829 -604.861816
-106.538338 874.756042 -415.091492
-299.591339 762.772644 -413.518250
-92.757477 864.744263 -423.540222
-291.051483 740.480896 -276.853973
-285.453339 721.596008 -284.430786
-104.772980 825.524658 -256.977875
-265.206665 725.656555 -286.673828
90.750679 926.408691 -307.785675
-164.943008 806.329956 -315.746063
-91.658028 864.742554 -403.990997
103.818642 946.523621 -307.519592
-189.906342 855.065125 -540.487854
-275.920227 751.743103 -298.453644
-164.721176 847.204895 -462.072571
-178.509903 796.410889 -602.510315
-70.674805 903.460938 -472.055115
-204.671494 824.823792 -500.829865
-188.054321 775.015198 -258.106018
-76.875420 921.408691 -558.881531
-153.368317 797.879028 -309.352203
-113.710960 845.581116 -295.392792
-164.299469 827.981628 -444.333710
-180.700882 833.213196 -420.322784
-132.989166 858.643127 -421.550232
-129.100113 823.566040 -317.738525
-117.926384 871.354126 -602.976746
-59.098713 841.388245 -281.427856
-123.062737 868.623718 -519.400696
-220.893677 795.185852 -453.111420
-60.857079 899.016785 -408.330109
-46.769833 893.505554 -410.286926
-340.191956 729.758667 -469.089752
-206.278778 832.518738 -568.400024
-231.038345 757.006348 -275.157166
-160.935501 834.300415 -483.438232
-7.758612 937.406494 -461.557770
-2.602280 888.718018 -278.463348
-21.952099 899.971191 -315.249847
-55.350910 918.428772 -539.643799
-295.396606 749.149231 -455.733459
-158.614243 825.662659 -377.840149
-115.259804 820.586060 -610.721069
20.177219 928.489685 -349.218018
10.812284 904.618286 -310.184509
-233.867874 746.215271 -233.280396
-171.200195 813.522095 -593.815308
-231.956573 761.905029 -306.417786
41.068077 931.087158 -324.913849
-43.157070 924.284241 -540.610474
-218.938019 815.091858 -481.052307
-77.150185 875.988464 -406.484741
41.321594 950.237915 -458.830231
-175.285538 846.345093 -569.395813
90.321663 943.675781 -308.745483
61.040943 940.950867 -392.470703
-340.409424 726.001038 -368.421631
38.113724 976.524414 -558.076233
-274.091736 723.448853 -232.693115
6.546240 928.576416 -375.944000
-234.924622 767.490479 -317.208618
-69.394669 970.082764 -606.456970
-16.655588 918.266785 -393.571991
-311.470337 733.055969 -400.408844
-127.063576 794.257751 -604.519775
-99.811043 854.077209 -462.643341
-100.425102 864.481506 -358.163055
-360.125244 728.834839 -457.251862
-180.103134 828.791321 -490.292603
-73.427734 873.510864 -317.094452
-222.660294 742.685547 -291.425201
-131.057617 823.122131 -229.275024
-162.135269 800.747314 -225.743637
-143.455154 871.773254 -573.361511
-285.153503 759.293030 -449.214447
81.315674 943.295105 -352.688934
-113.156487 852.233643 -401.272217
-167.513687 831.679993 -443.682495
-143.106094 819.873413 -311.815796
-133.474152 862.931824 -606.621277
-281.103973 707.698853 -231.981735
-11.652226 923.189087 -440.254547
-15.749307 932.280457 -474.463531
-111.734962 856.546448 -502.979279
-123.971153 817.750977 -346.238098
-75.873756 856.487366 -292.392090
-156.764404 811.502136 -318.638947
-185.351883 807.445557 -373.057404
-170.899139 798.351501 -290.950317
-253.628311 727.049988 -260.170990
-12.597303 941.692078 -475.214294
45.035110 934.387756 -361.113525
-182.567383 789.637085 -304.196960
-241.775620 787.008301 -476.793671
39.753162 944.873718 -423.048584
-163.594177 853.832092 -523.854248
-301.097290 776.740051 -498.895935
-24.979979 938.131775 -505.956268
-315.621155 724.975769 -447.927246
10.465731 950.504028 -470.914734
-104.571213 925.452087 -569.935120
3.856401 985.816101 -582.176453
-240.606079 782.676941 -440.862823
-181.336594 828.631287 -511.247681
-313.644379 742.739868 -444.233795
-3.118384 931.204468 -413.647644
-141.746460 789.557312 -271.175262
-198.858414 804.787842 -431.448090
-216.822250 809.452209 -408.312500
86.903404 966.020081 -383.402252
-4.172625 889.969238 -277.480957
89.120750 952.557861 -321.523468
-58.091740 869.758118 -283.294586
-306.760010 737.252075 -305.229614
28.837896 985.493713 -561.122986
-84.866531 870.163208 -399.621552
-145.534561 810.436768 -298.539642
81.860420 950.158569 -335.995544
-90.769142 866.267151 -376.133698
-37.973091 876.951782 -423.140625
-286.082489 774.444153 -487.403412
-117.187965 923.735107 -587.268982
-18.697058 914.748779 -366.426605
-39.152050 924.704346 -535.979553
-138.256073 834.916321 -402.768311
-18.802216 905.088867 -423.373688
-187.114655 756.950500 -300.615143
-267.431976 753.872070 -269.532867
-236.740555 778.395752 -304.864838
93.443039 936.439697 -300.462067
-254.836792 746.158386 -302.208038
-165.195480 872.305786 -570.172668
-229.922516 773.208435 -346.790009
78.332481 992.210083 -483.301819
-212.535248 786.508240 -343.000977
-145.871719 842.801514 -366.329315
78.428833 972.144043 -421.657593
-6.448569 932.077209 -452.358459
118.055237 975.838745 -338.251373
-271.839966 751.390320 -269.024017
-208.075012 815.803040 -568.446472
-135.215027 836.672119 -363.466095
-103.549866 884.706177 -467.194275
33.916634 929.157043 -340.702057
35.658718 929.535217 -363.194855
-326.028717 733.722778 -376.600708
-168.539047 837.606079 -515.591003
-142.094147 840.009216 -339.355652
-193.223862 804.105957 -310.025665
-72.897507 901.571716 -491.644745
-108.159058 850.855225 -619.417725
-138.617355 824.553711 -598.225037
-154.041809 797.756470 -227.003937
47.496941 936.991455 -322.525085
7.265377 939.173096 -466.628601
-121.316109 818.454529 -243.703781
-263.785065 758.837402 -301.352356
-80.944901 848.479492 -290.695862
-63.094067 856.158936 -306.219666
-199.649612 798.552185 -430.282135
-73.588844 910.125793 -524.410645
-198.159668 778.692810 -375.226715
-101.945518 856.426819 -376.579559
-173.553101 810.871948 -365.184387
-164.718811 820.549744 -402.537140
-4.480061 942.931213 -475.607513
-167.237244 826.243408 -373.236420
-70.361481 851.606689 -261.971588
-180.866653 808.119995 -390.379150
-203.445572 829.992065 -514.780273
-103.220535 867.988525 -454.398956
7.665123 976.964355 -590.461487
-142.046631 816.443970 -287.867188
-169.738983 813.600830 -418.649414
-247.013489 737.091309 -206.153778
-40.778988 907.230164 -458.562042
-71.218246 845.346252 -330.231476
-90.581444 890.521545 -617.320374
66.057472 961.283997 -477.514069
-203.712418 767.945984 -247.468933
-146.633362 809.743164 -229.446777
-104.690117 816.221252 -246.533630
-20.607094 958.841125 -559.023926
-56.828037 895.554382 -444.466949
-25.782433 900.988403 -382.406433
-89.140892 869.861816 -351.035034
-30.186152 925.461853 -465.432037
-92.035538 876.434998 -422.562012
-232.006989 792.880005 -582.601013
-0.735002 929.555542 -418.191071
-164.899948 849.477600 -557.452209
-280.729004 752.128845 -313.591064
-311.495087 737.021912 -427.488617
32.218807 917.208130 -297.994690
-204.685623 815.028503 -421.310059
-238.610611 817.222900 -512.963440
-204.286362 831.736450 -512.004089
-94.053566 846.221619 -252.215164
-147.044525 828.413879 -471.444885
-10.312544 881.060059 -312.836243
64.472443 972.552979 -437.653778
-152.685394 804.481873 -290.665436
-126.698555 842.552307 -373.499725
-60.696613 875.617798 -355.806061
-98.850189 832.923523 -270.346191
-154.229904 852.857727 -477.065216
-76.627510 877.255066 -404.255554
-34.685863 903.028748 -419.641052
-80.215607 870.772461 -330.980469
-168.981110 825.029663 -413.043823
-280.002411 740.537781 -260.028229
-283.088837 769.848999 -438.684448
-185.777359 798.088745 -293.667572
-282.375946 741.444519 -297.885986
-247.521164 804.719788 -516.571167
-141.485855 811.145996 -269.343079
26.510111 980.657593 -565.463562
-92.562531 880.662231 -620.995911
65.178513 971.720276 -432.045990
-127.601387 893.947327 -564.848633
-59.556335 913.374268 -544.663391
-205.443344 759.198608 -264.170898
41.413143 959.120178 -481.383453
-5.215175 926.878601 -417.070862
-1.923782 920.484009 -457.997894
-238.727676 829.547241 -555.881409
-160.434509 830.245422 -415.417389
-88.655685 846.849792 -301.622711
-49.620262 875.251648 -430.334869
-118.732895 877.047241 -491.154419
-101.274963 852.910217 -373.066254
-26.677887 882.797607 -284.633392
-198.919205 813.719360 -392.850006
-93.635902 868.125916 -510.192139
72.750755 948.068420 -285.630798
-86.500656 866.777405 -370.316681
-139.534912 834.262939 -321.549347
-51.205681 907.754150 -449.776398
-206.180008 788.488708 -393.684784
-65.927727 890.698425 -431.669037
-78.221573 902.658813 -532.518127
-188.053162 776.930908 -312.329132
82.063942 973.024170 -433.808441
-140.179626 860.523743 -579.543823
-308.510406 748.984863 -367.902649
-241.207916 733.732300 -273.713959
-258.643066 762.030090 -383.991760
-117.844910 852.121826 -422.708008
-93.606636 947.602539 -603.163452
-217.556976 780.191711 -576.427856
-241.868546 791.329712 -492.226746
-113.927612 888.885437 -589.514038
-341.776947 707.666504 -361.723053
-304.053345 758.019165 -402.906342
-233.510590 762.078125 -311.397430
-133.153915 898.338257 -556.296387
-267.101166 767.331787 -335.351501
-312.951721 705.672058 -295.964081
-69.926178 865.731750 -363.113800
42.985748 983.133606 -533.715759
53.991478 934.823364 -379.283264
-253.174515 747.502075 -305.820648
-266.699677 748.794739 -335.126434
-191.705063 813.983826 -364.188690
-308.812500 815.140686 -525.764526
-224.963150 777.448975 -277.647919
-309.637085 710.704407 -276.974304
-117.244957 833.596924 -327.407196
-235.669312 806.060730 -494.444092
-98.859184 868.134949 -376.521576
-19.285032 895.639160 -317.277740
-207.083710 810.507141 -417.068237
-59.532967 844.566711 -334.948486
48.630848 971.873962 -479.848053
-29.971998 895.081543 -346.697418
19.837088 934.302795 -377.371704
-103.131317 830.001038 -258.033295
-237.463806 759.763184 -310.338104
-276.009735 751.714050 -348.030518
20.796326 956.574402 -514.995789
32.433243 934.246399 -397.085541
-131.641006 878.549011 -588.143860
-341.515472 742.641174 -449.139771
79.000885 963.916931 -403.236694
-8.163484 927.633911 -418.273438
-223.248474 799.330200 -483.285217
-306.701874 726.155273 -296.403168
-58.250206 889.134460 -390.154938
-13.533108 931.032959 -457.398010
-77.169647 873.861267 -337.279602
-217.065155 757.710205 -221.815567
-285.969482 755.420410 -397.552063
-92.932175 846.201782 -329.075562
-182.855484 830.314758 -488.227112
-315.452942 711.826294 -244.701294
-100.231918 869.104919 -466.616608
14.784517 942.989319 -446.256317
-58.210381 844.746460 -294.351837
-161.326736 868.931946 -575.904358
-183.630890 833.962585 -456.518280
-103.824036 848.988464 -453.255737
-74.263664 910.648254 -525.178223
-274.045288 706.312317 -254.768356
98.304657 945.888489 -291.990814
-52.718311 861.126404 -285.677185
-233.294571 793.297546 -370.921814
-155.519180 801.092590 -254.762085
89.619164 960.673706 -330.128998
-115.581917 876.507019 -598.881165
-135.554947 831.833679 -316.250763
-60.090794 918.650696 -529.787048
-93.203079 912.715149 -608.404053
107.489624 971.252136 -351.759888
11.424899 949.798706 -486.330627
-305.596527 729.110901 -284.697266
-268.673859 741.930481 -243.519943
58.338348 964.877991 -414.628967
-62.701900 898.070923 -509.256622
-222.997269 814.901184 -498.443756
-282.050903 730.844421 -211.994934
43.366497 929.839722 -304.448944
-48.732986 890.128662 -411.750061
-55.464287 881.327393 -336.334778
-297.798615 756.204224 -438.282379
-76.091965 907.883667 -503.711426
-7.224973 912.219177 -350.328491
-308.166687 748.593628 -407.531158
-234.616211 749.740479 -261.295044
-261.471130 751.845703 -338.398254
-9.960091 911.624329 -325.720917
81.322876 982.169434 -438.491058
-38.875252 877.828857 -278.261414
-297.287109 736.784790 -372.049957
5.820722 948.983276 -528.390503
-80.297653 977.360840 -604.741516
-131.386383 892.255493 -594.636597
-7.337904 950.535156 -543.028503
-198.235046 808.371582 -352.467712
-17.539181 914.261658 -418.014740
18.680458 951.457703 -437.717712
-68.593025 876.679016 -405.477478
-141.426956 857.207642 -599.023560
-28.049164 935.877075 -494.458740
-270.340576 723.370361 -236.047195
-4.626559 890.931091 -379.410980
-246.364899 756.489746 -313.579315
-204.414001 796.777222 -404.391266
-298.787903 734.578613 -276.810120
-156.110428 834.566467 -368.161285
-19.293188 891.048645 -297.379913
31.343502 940.866455 -387.047516
-113.584030 891.218018 -594.137573
-155.613205 807.069092 -604.770691
-62.625313 900.171997 -449.912659
-3.953814 941.376465 -487.534454
-265.036194 742.380127 -223.201813
-276.775146 737.014038 -320.912811
99.012344 945.846252 -301.230225
-26.945818 905.121765 -427.506775
-48.888660 866.536621 -308.498932
-312.312012 720.756348 -289.237457
-263.946381 751.519653 -415.469391
25.098783 932.417847 -346.820953
-82.899231 933.219299 -561.817871
-198.758865 792.005432 -285.096649
-274.670990 723.610657 -303.051758
-186.340942 782.704163 -233.819946
-22.834934 905.151367 -392.462311
-109.765259 822.599243 -255.840195
-98.102386 910.818115 -566.400818
36.836918 957.758240 -519.721191
-220.848633 819.006775 -513.334290
-246.688278 761.055359 -265.791656
-152.157730 839.730530 -396.387329
-320.356842 722.466980 -309.608124
89.760010 945.104614 -301.012634
-192.519363 822.239014 -591.408386
-241.794449 767.825317 -368.839630
-196.641449 815.114197 -385.982910
-289.943085 771.389343 -485.853180
35.207542 945.596008 -376.760376
54.636677 946.846497 -390.862640
-208.156311 798.600769 -329.735626
-130.172699 888.636963 -547.404053
-168.878952 856.295288 -553.117249
-95.984055 895.740112 -513.438477
-205.070419 853.017822 -532.932983
-28.213636 887.805176 -330.532684
66.264099 930.011536 -337.897583
-87.334953 859.347778 -380.877319
-186.683319 822.313599 -577.634521
-251.324005 746.503235 -259.227051
-43.681683 853.021667 -294.655365
-24.324944 889.672546 -422.205078
-98.249756 934.346802 -582.330444
55.836567 947.460083 -357.096985
-138.617004 820.822632 -303.539948
67.497696 928.685242 -397.754578
39.140072 975.974304 -546.217529
-358.185425 723.286011 -460.229370
-90.882957 884.131287 -497.596649
-54.904926 880.525146 -331.457245
-175.220581 802.404663 -583.950439
-251.780533 744.983887 -342.116364
-72.864044 855.633545 -306.828857
-72.518272 891.648682 -472.073486
-317.906677 746.320068 -467.463257
-184.927856 826.454285 -530.209534
-307.936310 713.251892 -270.019135
-262.784515 731.401855 -257.928223
-148.856201 845.957947 -588.851563
24.071682 911.470520 -272.862335
-101.633820 862.042480 -613.123413
-296.893036 732.329651 -425.151703
-13.143133 907.522522 -316.265656
-283.695801 753.102234 -310.129730
-209.634903 815.410217 -572.199890
-265.426544 805.033813 -550.708191
-68.523766 872.951477 -397.675232
-299.706879 782.489807 -507.542786
-81.899216 882.867615 -454.255798
-152.798676 806.194580 -593.794800
-311.561401 709.988892 -254.136032
-238.018951 801.151733 -479.787506
25.104843 960.883301 -518.017456
52.942818 924.587769 -311.214264
-108.009964 839.138733 -326.689880
23.446487 963.536499 -520.597534
-64.898453 917.398438 -528.011658
-198.869278 822.062561 -473.574341
-102.754601 905.196411 -552.900574
-193.553894 807.840271 -433.640320
-210.735550 810.804932 -569.247253
57.067982 971.223816 -479.564056
-273.432251 808.565979 -560.482178
-39.840763 916.319214 -511.432068
-143.922577 847.044128 -477.781433
-169.544159 798.072998 -283.148407
-120.379814 857.935547 -489.511902
-185.406448 806.884460 -585.532898
-180.112411 842.447632 -497.443939
-100.428383 859.339417 -349.812256
-278.789337 714.773438 -224.544098
-104.292313 875.184143 -470.332153
13.985255 923.027771 -323.864960
6.790862 953.153931 -526.508850
-79.362778 925.889832 -614.802551
-73.559196 856.314331 -311.555634
-303.765839 821.835144 -538.618958
-6.468718 925.361450 -466.868347
-25.946747 901.013672 -390.968292
-128.994324 829.875122 -351.997070
37.315182 931.457397 -301.861023
104.264870 976.404114 -333.691772
-39.308964 933.416870 -524.318909
62.922127 965.463562 -394.899689
-115.375237 869.202393 -509.020416
-241.009048 757.253479 -355.653229
-134.673874 820.680176 -297.467072
-172.380875 808.013367 -367.642273
-58.223747 843.593872 -289.997894
-116.295242 898.831055 -547.298157
-65.234627 870.709045 -327.480835
-324.711914 721.695740 -289.879272
71.447884 951.212646 -317.529724
27.092722 915.607544 -350.108917
-74.257286 962.548523 -603.745117
-138.798828 867.378479 -596.772827
-80.336784 895.728577 -479.129639
-296.334686 732.939087 -245.399124
-47.469082 894.183228 -415.638916
-32.091457 893.107117 -362.542236
-40.713730 841.951233 -280.094055
110.356560 968.246338 -330.540680
-294.442596 739.612061 -378.184418
-277.644653 725.055298 -228.267822
-36.537014 870.268799 -274.203094
-170.988586 779.054871 -321.814148
-210.429520 804.315857 -467.062561
-146.812302 832.353088 -401.087585
-60.626259 896.369690 -467.954224
-220.393066 794.281738 -358.790955
37.320732 939.900146 -374.276276
-79.875885 845.561157 -258.293152
-66.031624 885.379822 -361.389557
8.373993 897.479858 -280.543243
31.423330 954.688904 -524.196655
-140.274521 842.162842 -447.062073
-51.767193 864.679688 -260.673035
24.983841 938.127441 -442.242401
-267.520386 778.960938 -438.581146
-265.591003 750.094055 -248.978485
-275.425720 761.471130 -423.848602
99.882294 983.258667 -396.900055
-176.798965 826.827454 -442.789886
15.571339 933.111145 -404.449615
-318.328064 705.652649 -317.033020
-98.507858 907.675720 -593.604797
-308.908569 764.586670 -490.335175
19.804525 910.173096 -324.198730
-19.215380 906.779541 -326.686646
-214.157883 794.210022 -424.761871
-119.085861 825.789307 -379.020691
-155.673370 821.781311 -593.139526
-222.252625 775.648438 -288.418732
-160.345688 805.909241 -295.283264
-138.190277 839.109009 -493.964142
-203.106354 798.544800 -332.633453
39.784328 929.524658 -300.648010
42.141998 948.955139 -402.997528
-146.589401 836.432922 -421.626068
-205.196243 794.591003 -315.248474
-155.658600 842.701965 -500.439545
0.792246 878.045410 -266.279053
22.291256 951.999084 -455.824097
-166.421875 831.406738 -487.711334
-80.308899 906.911011 -542.997925
-110.220573 843.245789 -336.994476
8.212857 963.934570 -565.774963
-280.244812 774.194397 -422.783722
-54.284393 854.824951 -333.495514
34.712841 946.216980 -443.273651
-110.958160 899.479431 -587.174194
6.361228 902.342651 -273.411926
41.029118 942.775208 -505.556152
-294.121124 757.517822 -364.171814
40.547977 924.487732 -280.684448
-301.216217 721.820374 -324.018433
22.855301 922.245544 -306.563690
-234.256912 783.602905 -413.063660
-183.880676 812.537781 -428.161438
-102.430305 861.257141 -614.022888
-263.595032 790.321289 -493.182373
-270.933044 765.063843 -454.557129
-301.637024 747.791809 -451.454651
-36.276234 1013.719421 -606.635315
-35.060673 1001.489929 -607.749817
-366.510925 733.291382 -471.567657
-1.566884 938.042603 -495.741394
-353.758301 726.874023 -400.216705
-78.055939 885.716675 -468.004517
-287.600098 743.419312 -308.009613
-293.868622 747.896973 -425.104919
-70.920403 892.001709 -477.531372
-50.007900 875.859741 -333.536224
-75.204552 858.248535 -320.033630
-83.204994 846.522095 -261.933777
-19.460281 896.300171 -445.707275
-104.908806 835.930969 -608.424683
-79.975182 906.193970 -539.680847
-143.111954 862.230164 -491.238312
-56.985134 859.910522 -255.963837
-159.468857 845.961731 -567.734192
-72.817436 870.411133 -396.487000
-279.203461 747.900269 -466.476440
-240.923538 752.511108 -384.266449
-338.306702 759.616638 -486.652252
-124.475029 800.616150 -265.436401
-82.259354 893.588745 -530.699768
-74.638550 854.701965 -401.987732
-187.064941 781.740417 -219.014618
46.072617 964.203674 -483.862915
50.899136 948.823364 -414.421631
-70.186737 833.648926 -311.471222
6.990541 933.330017 -408.455658
-40.242714 893.017761 -389.606598
-59.866459 894.585815 -519.408936
-82.534325 855.908936 -248.272293
-90.607231 860.685547 -303.564148
-113.601097 833.209412 -284.875702
22.389101 953.417847 -482.532501
63.650108 998.769409 -546.106567
1.630782 933.624268 -420.470276
-126.332893 893.086609 -552.118652
-180.002121 814.389038 -344.175140
26.630693 920.593140 -377.875305
-170.116013 814.328430 -601.973572
-20.500011 922.509033 -473.739960
-262.600708 767.133179 -434.898163
51.485569 948.156006 -449.094238
-263.542572 806.543030 -561.756592
-209.145767 792.908875 -402.159393
-95.430023 821.244812 -286.711792
-310.206512 740.061951 -356.118988
-83.159660 893.935791 -517.215698
14.257012 908.626953 -396.062195
-193.846146 807.007324 -452.506409
-131.906311 842.356445 -604.060486
-305.595978 759.663147 -479.895752
-243.465607 781.040955 -451.348389
-143.111221 852.523376 -455.073395
-38.342751 890.647583 -297.482605
49.556450 948.312866 -343.316284
-36.715473 900.228699 -401.677795
-306.050323 761.099915 -462.650146
79.711647 950.089600 -312.179626
22.158079 936.537292 -391.965759
-61.328396 862.258545 -299.221985
-319.950226 728.032410 -413.872467
-373.234955 734.885071 -428.145447
-133.411591 859.766968 -458.341949
77.910713 952.907959 -334.229492
-36.891777 903.941711 -363.642883
-147.587341 800.145020 -597.718506
-155.558060 799.228638 -293.219543
-184.502670 791.730835 -346.726593
37.201405 898.876953 -322.093658
-270.884735 780.881409 -471.513153
-162.235077 861.238098 -516.504517
-270.395172 755.500854 -344.672913
-22.264715 905.968079 -404.301422
5.888524 907.515747 -366.763245
-145.208633 829.781738 -398.698456
-169.550217 805.175354 -263.907654
-178.757294 777.000305 -240.999008
-156.768265 842.433167 -506.161530
-105.352066 865.769897 -605.207764
-298.517456 742.571655 -412.004211
-98.375748 822.104736 -269.662476
-6.366724 949.539551 -505.959259
-53.709301 865.916687 -283.315125
-163.027740 836.703674 -481.837524
-93.620789 895.198486 -606.670959
-208.735428 803.896240 -442.519348
-159.001190 810.749451 -316.046143
-181.190659 796.735168 -314.783752
-72.672630 869.031738 -365.652679
-90.993721 838.857788 -616.082458
-101.155731 865.528015 -437.413788
-157.295898 832.826111 -409.388641
14.727244 957.573853 -519.387817
-66.652260 881.578918 -405.929321
41.214249 957.918213 -514.761353
-174.097397 800.308044 -312.963593
53.420666 961.752563 -396.471252
-207.148224 774.915527 -351.938843
-140.215607 819.708740 -256.956482
71.269806 952.687500 -470.864471
0.293950 924.752075 -383.986145
-240.928558 816.513245 -520.402954
-58.103790 890.131958 -427.399506
72.187721 964.912842 -392.215271
-330.575073 785.960754 -523.872070
-276.762543 733.002686 -291.641235
-83.578949 918.066772 -583.972107
-58.191441 876.478516 -359.410004
35.140072 980.065674 -548.047607
-277.502686 751.854675 -303.471069
-192.280212 805.969177 -452.609375
37.551872 935.069641 -274.384888
-128.705200 922.831726 -576.228943
-65.244354 880.750366 -330.483978
-164.680603 875.109619 -550.169800
-177.090439 801.409363 -244.890945
23.657291 928.707642 -354.917938
-84.499763 885.975220 -541.094849
88.456734 969.623047 -353.930725
-29.572283 886.200745 -331.465637
-221.819687 844.546936 -535.152466
-187.396973 864.910461 -563.785828
-253.661697 744.128113 -289.919891
-291.518799 736.430115 -350.473969
-56.198769 877.154236 -275.171478
-286.218262 748.939392 -352.040283
-156.418564 781.910645 -605.525818
-134.428284 854.520630 -404.620667
-107.144821 867.611206 -612.610474
-132.379745 859.579712 -489.674408
-235.759659 760.448853 -355.309387
-72.796387 905.347107 -592.301819
28.834492 965.401123 -482.986725
71.469360 972.018250 -415.947510
-78.972046 858.172424 -307.548981
-56.123035 879.392212 -382.337830
-126.085052 845.380310 -328.514954
-109.431709 908.951782 -608.948914
-125.077698 904.638000 -556.988708
-6.259449 917.661926 -433.571472
35.191837 952.166748 -438.515961
-298.353363 775.143738 -498.833099
52.144279 953.681824 -473.822845
43.147736 934.504150 -321.531830
12.862551 914.276062 -351.983063
-202.225143 826.875610 -457.784027
1.455656 926.726379 -494.878204
-219.955444 829.960449 -565.664734
-43.785583 884.685791 -334.842468
-202.550232 801.870728 -581.379700
-329.439545 746.086670 -495.030823
-249.327560 763.604553 -360.503143
-208.484787 757.605286 -335.834442
101.174118 960.547180 -284.988739
38.352188 937.314880 -387.684845
6.254210 940.243042 -442.523071
-147.472977 822.160339 -592.807800
-298.717804 797.781189 -523.103455
-274.766846 718.601746 -241.365646
-185.023758 810.234009 -322.228516
-226.323563 790.604675 -584.271301
62.066147 990.312073 -537.458435
-110.157272 819.144470 -257.042084
-1.246535 917.916870 -355.279114
-109.069153 879.642395 -487.584900
-29.134182 877.085083 -296.841461
-125.040199 884.404297 -542.775391
-166.686096 808.808533 -277.101379
-193.619980 826.217651 -587.443665
-40.762276 909.466736 -526.521790
83.538322 951.047852 -334.797424
-160.306198 876.830017 -557.643494
-230.269135 786.225586 -433.954773
-295.844543 739.034424 -282.360596
47.218525 917.560486 -325.787781
-249.719482 771.141235 -399.153961
38.425362 926.527161 -339.945099
-109.819763 886.735107 -600.204895
-101.982933 863.285645 -340.411530
-104.478226 850.192200 -284.285248
10.944388 952.598511 -522.184814
-70.559669 894.649353 -441.949219
1.905595 931.439453 -555.739929
-213.248917 772.256470 -332.697723
-91.606613 886.334534 -465.861237
-260.135132 747.919067 -216.742050
-79.729706 877.754211 -366.008667
4.498679 913.375549 -302.158691
-63.254478 889.062866 -379.840332
18.782351 934.044128 -370.523346
-33.501358 890.559998 -322.806854
-227.376205 809.272583 -478.454285
74.784035 955.481873 -380.481659
-212.705490 809.777405 -582.276917
-249.710938 788.626038 -462.957947
-293.820953 712.246277 -201.046616
13.487815 925.537354 -421.089203
-158.470184 846.545776 -545.247925
-87.324974 887.444214 -455.664581
50.551075 955.662537 -416.035065
-194.183060 815.916382 -464.660034
-238.350113 725.658325 -219.060547
-125.441078 827.760559 -255.591522
52.045105 929.934021 -310.989349
-194.875885 771.993835 -261.895020
-159.141586 862.306580 -559.300049
6.107063 905.125854 -329.351288
-135.554688 821.273499 -298.050903
-270.717773 757.898804 -295.631287
-166.620422 854.257324 -579.907104
-43.528511 895.297607 -367.560760
-88.188011 903.540527 -549.538879
-115.556564 819.976563 -253.101135
-257.321167 775.422974 -445.597473
-242.505020 779.295532 -347.272064
-158.193878 793.342041 -605.787109
-89.549339 882.706848 -415.823669
-141.837357 802.881042 -233.475998
-234.787186 804.682007 -451.270355
-102.396935 902.932800 -597.834290
-183.305756 825.460205 -573.027527
-111.069206 843.388611 -368.384735
-321.149902 722.661987 -379.382141
-229.597977 745.580566 -222.939163
94.735970 945.570984 -331.019226
-98.165848 843.183472 -410.998138
-215.312927 800.905640 -437.301056
-77.447060 905.610718 -515.043091
57.249020 929.426880 -302.928833
-149.864853 866.906250 -501.127960
-256.815094 789.315552 -469.543549
-127.455742 870.566650 -519.527527
-262.950897 730.607788 -261.240936
-216.705307 794.949951 -446.869934
-265.048645 782.328735 -455.976563
-273.781677 718.510254 -281.628418
-70.984406 878.863159 -404.725891
-201.644592 847.367981 -555.682739
-91.663300 872.822266 -438.772552
-107.757378 845.197815 -352.684357
-215.810715 855.280090 -548.870544
-246.534302 722.901123 -234.764191
-295.497711 817.590149 -526.490967
-276.284912 721.212341 -227.149368
-273.522919 718.448364 -215.745300
-112.389977 880.917236 -598.875244
-203.995651 822.004578 -565.344971
-125.289993 829.703003 -236.239655
-172.347733 786.741821 -259.780884
-221.884262 817.691528 -511.705566
49.027809 963.850403 -450.489868
-48.334217 912.949951 -515.522095
-13.480629 924.389465 -504.173126
69.539047 990.193481 -491.580292
18.009384 966.157593 -538.871643
-42.070862 930.875305 -556.184448
67.156120 956.337646 -343.164185
-183.911362 804.235168 -460.013153
-72.044434 895.884033 -500.573944
6.120999 884.197998 -344.168518
-1.204384 915.868774 -394.468292
-146.168488 810.765381 -313.360229
-133.779816 847.324951 -607.548706
-263.016663 785.040222 -430.450867
-179.991257 819.604004 -375.802429
-47.328217 902.372009 -412.622437
-265.889709 756.744568 -302.555542
-224.241928 779.988708 -300.039856
-98.382545 853.756897 -351.327209
-5.447961 944.598450 -515.207886
69.198425 921.889099 -292.586914
-178.079697 823.626953 -478.119019
-111.035522 862.481323 -392.426636
40.585312 947.716370 -393.511902
110.504684 943.197937 -364.199463
-180.011261 809.654053 -597.927612
-54.210758 900.736816 -540.122253
-346.164398 734.504272 -453.088379
-111.708443 831.846802 -337.183777
-173.829941 849.128906 -487.874573
-19.370861 925.846924 -442.603516
-296.982269 759.458313 -434.310822
37.793259 948.204102 -412.443024
30.421839 938.702698 -362.364990
-284.967163 735.904480 -280.850281
-35.047966 912.080139 -427.233948
-179.632568 744.147827 -226.033142
-210.334656 823.597839 -574.425415
-73.930641 918.774902 -561.083862
-244.469467 786.063599 -406.621857
-40.865963 905.646301 -408.181488
46.996044 949.780518 -377.780579
-66.010223 970.393677 -598.979614
-281.469208 734.151855 -217.444946
-28.368475 893.332153 -304.792725
-10.619002 896.754456 -285.054230
53.400017 938.660156 -313.237396
-24.747307 885.670593 -314.772797
-200.360672 769.815247 -228.938202
-110.514778 841.033997 -342.464081
-86.714127 890.516235 -529.226074
-65.839287 925.486267 -545.235046
27.230755 922.095642 -438.037262
87.130791 962.963623 -434.461639
-236.045044 772.349854 -343.515656
-168.716568 809.551453 -301.339081
-87.963150 862.329773 -308.397705
38.277779 923.865845 -364.015533
-306.168488 721.562073 -440.157288
-278.962402 738.604431 -397.646301
-126.096863 865.621094 -509.061218
-19.679792 924.661438 -497.223328
23.685192 976.081421 -560.201233
-159.785477 872.709717 -544.496399
-110.769478 877.270386 -528.281616
40.368542 961.852112 -515.916077
-61.113735 861.245972 -294.722809
-121.024567 877.200684 -502.907379
-276.929169 743.998047 -347.009460
-19.273268 878.406250 -294.577972
-250.958923 775.882568 -419.845490
-319.377716 715.834839 -225.938644
-252.231857 726.616455 -254.968796
-93.479416 863.068909 -319.015930
-53.088585 880.338989 -280.670410
5.576743 951.562927 -539.573120
-25.647537 913.337708 -393.583130
-265.042694 716.009827 -249.999649
-117.370018 870.543091 -498.708405
54.640923 948.836243 -370.683228
-85.319168 891.149170 -468.586548
-103.354370 874.796875 -464.596039
-233.764465 746.350098 -220.351044
27.303612 913.303406 -422.529358
62.074768 946.314575 -308.817352
80.343155 994.157532 -481.049927
-197.448105 806.664734 -361.840607
-248.291000 798.803345 -473.177460
-238.919495 810.581970 -570.627136
-194.088516 849.868530 -551.362671
-19.256001 880.908569 -371.479340
-305.708130 731.310913 -259.904968
-122.005196 860.453125 -609.257263
-76.402824 906.584656 -611.602478
-199.906570 766.995544 -284.459473
-149.866638 844.263916 -601.616150
-23.705954 912.409668 -389.507294
-57.601555 929.864136 -572.665955
-167.384537 789.602295 -227.407379
9.422761 957.262756 -549.004883
-149.727493 846.497437 -410.186066
-252.151031 748.368591 -269.477814
21.588501 929.383118 -341.645508
-48.951775 876.717773 -352.291565
46.173512 970.597412 -503.272217
-98.674751 857.627991 -357.375000
-306.277069 762.724426 -454.941681
-92.675987 846.707214 -315.941895
-167.076477 768.365845 -244.436157
-95.200256 889.936157 -526.513977
-45.358013 892.140076 -399.645203
-275.044861 718.111877 -234.048538
-142.070389 839.431519 -405.881470
-250.151199 730.735474 -224.473587
91.420090 983.427979 -429.696411
17.601465 920.437866 -310.744843
-167.570435 792.348145 -271.524261
-31.497004 914.078674 -398.842987
-181.953766 853.630432 -563.942383
57.452858 986.414429 -525.368958
-200.991364 813.298279 -477.468536
-87.823952 855.711975 -363.702606
8.899351 958.169434 -503.217163
-150.254364 796.799316 -253.130722
-328.115356 718.531677 -390.286926
-35.668064 873.078003 -255.602325
-105.094696 920.518982 -591.358093
-94.141159 844.080322 -276.122559
-59.670517 897.674866 -397.631226
17.074766 911.259583 -343.856720
-124.484886 848.439331 -344.581299
48.259830 948.588074 -367.483002
38.867470 940.132568 -400.858154
-252.107574 791.174194 -464.367859
-326.999359 731.252563 -362.529724
-185.283615 797.929382 -337.329285
-305.232666 720.039917 -269.546295
-88.819351 854.765869 -338.825043
-149.159195 876.599487 -549.899841
-174.119461 805.529602 -297.073914
-317.318451 730.235840 -338.413940
-124.160286 852.221069 -366.275726
-114.880707 880.170532 -593.337585
-127.446442 913.958252 -579.439941
-314.466125 744.317993 -476.164276
-107.959198 830.434082 -283.537476
-227.711563 767.344238 -237.101151
-29.026102 905.462280 -420.371094
102.506516 989.037354 -403.470062
6.911548 945.370850 -502.925751
-318.461243 722.608093 -376.770142
-306.368561 788.076172 -521.456787
2.152889 905.401611 -281.268524
-238.762268 787.158630 -453.391571
-318.950867 766.681274 -494.326202
10.538111 928.138611 -367.345795
-202.159576 787.591370 -595.916077
-133.964203 847.503357 -354.326935
-95.964165 847.075623 -322.037109
79.988991 953.625183 -353.336700
-256.536499 776.381836 -463.031738
-169.103058 844.930237 -481.422150
-44.118862 995.380005 -601.953247
-125.099236 813.478333 -252.238876
-310.325714 749.677246 -368.168365
-3.716595 935.375732 -465.032837
-159.073547 863.677612 -592.802246
-244.680374 797.857788 -507.156372
-320.973907 739.517517 -354.423065
-72.895859 862.735535 -356.654236
-136.699051 805.740173 -252.867126
-264.092987 784.894775 -436.068939
-99.505707 855.168518 -394.671814
-247.877258 771.142029 -402.833801
65.295471 953.719421 -395.814789
-69.018204 863.095703 -248.866211
-276.586395 733.564026 -407.269958
102.300011 961.327026 -293.930786
-353.524567 724.540222 -450.758240
-207.988937 784.307129 -272.356323
-37.076984 929.504272 -550.174988
71.303787 975.214966 -447.822723
-20.050697 885.774719 -270.625549
-48.253536 872.272888 -316.542877
-222.013367 789.501587 -438.327332
34.253605 963.911133 -519.278564
-318.993500 759.530640 -489.597290
-197.780243 787.194946 -239.894745
-182.949295 804.672729 -355.392334
-195.154709 812.665466 -375.973846
56.975197 944.860962 -375.996796
-281.006073 816.935303 -559.613098
42.914280 970.746277 -487.545746
-137.816101 859.799438 -509.982330
-225.971954 787.119080 -579.829651
112.614204 952.873962 -327.504791
-134.993607 822.194214 -294.246704
-1.942652 912.411255 -382.274170
67.079376 966.328491 -502.607269
-1.313839 910.870117 -404.741760
-335.630920 719.652710 -417.417725
95.197830 958.880615 -372.159149
-142.410660 858.656982 -589.810303
3.624615 912.533813 -349.910675
-70.305710 844.122986 -324.857849
-276.464417 776.429749 -495.707214
39.035149 958.635193 -452.211395
-327.035187 736.032532 -376.061737
-62.214428 888.246704 -366.706757
-263.253540 749.771301 -404.260315
-126.431862 823.234314 -274.732697
-263.546051 771.958923 -463.589294
-6.652925 918.708313 -370.991333
-117.626450 841.984314 -290.635040
16.834049 908.794617 -427.982452
-154.768326 843.362122 -494.917511
-103.574158 860.387024 -339.587555
-201.984009 798.460571 -405.365051
-249.884171 812.020386 -548.274658
-15.827404 919.539307 -381.259033
29.436974 926.716370 -455.394287
13.223392 923.631714 -328.979126
-40.977131 896.610657 -441.043243
-112.847328 823.733521 -244.686096
34.862930 914.927124 -317.172852
-208.749649 774.150452 -584.009583
-17.879021 891.833618 -349.444122
-289.811157 811.658447 -547.460999
-151.880615 827.267700 -308.830231
-59.065002 994.552185 -603.433960
-134.574020 817.942505 -273.444000
-128.693756 900.263245 -551.602417
-224.716721 766.630127 -295.708405
-254.268860 759.393738 -355.799133
35.563557 922.577087 -292.724854
-52.217194 909.377869 -460.410919
56.207611 932.435730 -311.606598
-11.077259 916.819031 -524.467529
-30.032288 877.572388 -297.805328
-226.747925 836.480103 -544.638916
-5.849408 951.556580 -511.818298
-176.129105 857.831116 -529.757813
14.095460 912.627258 -341.095184
-59.670433 866.304443 -336.986938
-295.546143 696.049927 -250.535873
-26.396088 890.903381 -369.429474
95.216492 947.714966 -304.553802
-122.887764 902.939636 -550.267517
-172.459778 847.292542 -585.543457
-8.193348 1004.024780 -605.403687
-127.453781 824.307434 -613.446838
54.076797 958.834229 -399.248077
-10.597600 905.768860 -345.150513
-96.445915 945.222107 -598.240723
-147.139877 824.890381 -313.104584
-91.464050 841.573303 -261.691223
-315.699402 757.237854 -453.952942
-196.250916 799.431335 -364.271057
-167.921463 802.387451 -599.521240
-130.916565 848.761719 -417.694580
-77.512947 850.335510 -261.918457
-222.327286 810.365906 -585.786621
-285.978394 705.496399 -282.362457
-209.690964 803.979309 -375.776825
-95.376480 847.012451 -313.319031
4.671276 922.114746 -447.757202
26.608545 942.949951 -403.345154
-241.067062 797.297668 -461.801758
-190.308273 777.174683 -238.852951
-276.716248 765.987366 -392.558685
-286.136383 715.958862 -355.515930
-148.292465 823.993896 -350.443665
-150.410324 878.537170 -564.662598
-106.558716 850.393127 -360.466675
-236.701813 801.953369 -584.397278
54.965298 947.078430 -343.658539
-134.432083 814.119141 -243.029648
-109.521881 825.355530 -275.255615
-75.069778 858.125000 -316.397797
-189.104340 774.801697 -226.277008
-140.742416 808.150024 -346.615082
-230.423523 768.277893 -299.809479
-257.991974 773.243835 -453.562561
-265.063232 743.511719 -300.162201
-44.370171 871.794312 -304.175995
-279.965332 749.395630 -297.492615
63.547840 927.767944 -335.163849
-279.149231 774.441772 -459.429382
-281.019623 768.094238 -388.042725
1.672282 919.036621 -350.475555
-48.582188 926.790649 -521.037292
-300.027008 701.868774 -282.458771
-113.328674 880.158569 -566.495056
-184.966873 842.507019 -510.942352
-150.478973 795.622253 -315.618774
77.524223 973.672729 -426.500641
-161.888870 802.041260 -302.735962
-258.143341 757.405151 -424.074615
13.189412 878.141724 -290.025696
-46.302395 900.828979 -407.829926
-235.296738 776.480286 -299.700592
111.308273 961.101624 -310.591278
121.792305 958.337708 -324.797821
-237.041702 798.047424 -569.776794
-125.433250 857.208313 -492.126160
-194.393555 784.786804 -295.129486
-257.344666 762.836304 -393.791656
-133.557114 821.287415 -236.852402
41.311138 917.609741 -315.359467
-151.840759 829.559509 -388.554321
-172.067322 847.893433 -475.941040
-287.453857 759.873718 -479.325165
-292.405731 750.848816 -325.364471
-184.277115 816.005554 -343.635376
-121.534355 836.354858 -353.572784
-133.343796 888.004272 -587.440857
