ply
format ascii 1.0
element vertex 1395
property float x
property float y
property float z
end_header
1005.675842 -186.820297 -263.225403
765.717896 87.812111 -371.872467
963.894897 -153.751495 -384.490662
943.749451 -96.347763 -240.671402
1065.892944 -228.706772 -142.839783
1022.181702 -212.658890 -305.358948
1046.023682 -246.115005 -183.461700
1019.876770 -132.623962 -82.455399
1049.302002 -245.088470 -179.665924
801.089905 -17.424826 -435.760071
845.263367 -37.754700 -400.680328
954.452576 -89.614456 -199.825394
870.739685 -25.934685 -253.716187
969.673279 -57.531887 -25.130186
804.581787 70.964577 -219.309311
864.665771 -19.087725 -267.735291
958.314209 -258.696564 -346.584900
921.897461 -133.782166 -388.216766
1021.776001 -150.229385 -78.053307
879.842407 17.818285 -164.727554
1040.862549 -160.907928 -78.412224
927.450684 -55.097347 -105.066795
785.897705 28.456299 -387.376740
932.743286 -59.547363 -161.973602
1052.824585 -191.288925 -139.742126
930.277893 -157.685013 -385.900238
818.817749 75.485893 -223.549530
992.914429 -128.984955 -162.217209
892.094360 -60.217434 -286.206543
858.277832 -4.975400 -255.913086
863.732666 -86.908073 -384.269531
790.511841 81.326706 -308.413635
995.142273 -169.961609 -246.924500
1060.200684 -202.102783 -136.202713
763.648743 51.129234 -394.724121
838.248535 -50.878288 -350.893768
897.623352 -79.127617 -342.735840
908.700500 -29.066404 -143.219482
1008.552124 -189.431244 -243.522522
822.970459 36.375629 -203.481140
1067.736938 -235.909241 -190.475708
1023.332397 -216.642349 -347.654968
935.009460 -113.803658 -312.682434
776.756409 68.554749 -210.307785
752.512695 56.858795 -412.168152
848.802551 -42.777355 -400.112640
982.770447 -114.771599 -145.683945
840.604309 -42.856918 -353.531250
772.510681 -10.132807 -488.303162
895.739136 -161.084076 -436.704681
899.691711 -23.574331 -178.949051
966.746704 -155.319305 -361.349243
1077.608398 -232.512344 -170.395752
896.718933 -97.692772 -382.306000
937.755676 -153.366089 -402.413239
910.543396 -104.981705 -360.370270
882.511475 -86.634659 -458.815247
1021.493225 -168.548523 -134.737595
732.832275 137.095779 -297.259216
1152.903320 -259.426727 -238.901764
831.227173 -45.453449 -357.874420
994.893066 -138.861862 -140.304367
908.326965 -129.512802 -372.790497
1037.894531 -152.024506 -68.774117
982.202454 -85.852943 -90.913788
979.186646 -140.723114 -215.981888
1069.283081 -244.218353 -191.017761
921.324646 -40.764084 -117.028030
942.994873 -139.775940 -246.579788
1024.062500 -159.501190 -69.435448
1037.709839 -196.108398 -142.588593
965.199158 -195.970642 -382.008148
917.937622 -17.074318 -132.527206
1014.735596 -133.046509 -93.974213
1016.778137 -221.777924 -344.647095
891.750610 -25.504204 -238.196167
895.920288 -115.271576 -461.023926
922.645752 -105.871071 -326.808350
780.482788 -8.130438 -481.361603
875.300293 -39.294338 -283.729797
905.031616 -11.500724 -124.495026
801.841187 49.734192 -338.458679
832.052368 19.369282 -267.581543
1044.688599 -195.164429 -149.228714
772.675293 91.831337 -295.532990
1045.851685 -192.490875 -113.770508
994.993225 -111.720261 -118.775879
849.670898 -73.873856 -389.899567
850.076599 11.597240 -292.364594
947.830261 -134.946289 -315.592133
859.512146 -47.847721 -357.032074
1000.663086 -135.587555 -80.760918
862.727234 -11.832335 -248.984589
903.878723 -113.364891 -476.971924
968.958740 -166.198883 -333.647522
1085.821655 -234.814789 -303.929108
1001.072937 -119.694443 -76.146423
973.538574 -242.509369 -342.068573
964.301758 -169.320679 -297.955780
1046.796509 -201.616669 -182.548431
777.596924 58.814857 -339.173065
773.319519 65.855576 -418.861237
938.988892 -91.666473 -243.196808
780.207275 9.224674 -439.432190
1027.459351 -143.998260 -82.782639
843.077881 -39.826096 -409.040710
973.542542 -110.882889 -116.661118
881.000732 -7.693884 -242.017746
811.538391 -50.244541 -446.734619
750.708069 98.380798 -363.589172
940.093933 -137.610168 -346.859772
1122.747803 -260.821625 -249.955460
991.368164 -134.667969 -176.286865
861.877441 -35.773621 -226.412491
1034.154419 -197.529953 -335.553284
838.774292 18.056604 -299.757477
912.147156 -116.627251 -412.863617
799.069214 -18.807518 -474.865814
1032.538086 -221.838425 -235.865509
799.702454 29.500792 -334.730652
860.908386 -2.978319 -274.216400
1022.540894 -108.564926 -16.933315
1092.530029 -259.852966 -236.979095
978.002380 -79.601738 -79.264618
880.700439 -53.726521 -267.582367
851.491394 -64.748924 -399.273590
903.373596 -24.980007 -159.563843
987.754456 -96.001381 -99.508720
803.660706 79.545074 -210.433899
794.251465 84.052391 -274.832031
1054.204468 -242.070053 -249.696899
1047.057983 -221.865463 -207.102142
969.899963 -176.133667 -311.059692
948.612915 -151.100418 -405.321777
846.257019 -48.013020 -348.240448
982.124817 -92.223862 -121.641510
937.190979 -57.066540 -156.309311
797.036804 -28.778004 -412.650299
951.794617 -80.466530 -156.790192
1034.210205 -180.554184 -158.714493
824.796631 12.137321 -277.209747
839.025269 43.217484 -250.201279
916.138794 -92.699188 -292.569885
1039.185913 -210.329178 -229.566864
1063.151733 -228.618256 -174.439774
979.647339 -133.122040 -197.033951
805.544495 48.785965 -243.625122
966.939636 -112.014946 -202.758499
989.795593 -96.744583 -44.105976
889.229797 -75.079132 -328.054413
968.580078 -164.771805 -368.859009
891.733521 -96.734970 -431.875092
925.786438 -50.156937 -193.143524
917.923584 -138.261047 -433.980896
983.659607 -105.789749 -135.279114
997.863464 -157.323639 -219.451965
987.107483 -89.688644 -56.567543
846.569336 38.633335 -173.715729
1026.495850 -203.129700 -219.110245
798.022888 52.822998 -306.337860
801.523865 59.871689 -302.603058
968.357239 -154.246170 -339.716278
992.845276 -164.656845 -249.212433
951.141541 -83.563629 -163.107178
822.924072 17.895075 -360.332977
1021.364441 -200.523193 -140.794357
845.369324 -27.484999 -374.993500
1000.997986 -148.327148 -154.319946
877.857971 -45.201405 -341.670624
764.453552 90.824310 -367.576111
1053.959473 -231.148544 -190.214325
879.520203 -58.348557 -321.678864
914.102234 -117.806870 -356.568451
885.772705 -49.730301 -308.126465
813.078613 50.606750 -238.502991
911.057556 -100.035233 -308.225952
913.888733 -97.656509 -338.931702
810.481567 72.809479 -214.533966
787.271118 91.736099 -228.540573
797.781006 73.037750 -239.495483
1024.198486 -194.945099 -238.864868
901.432068 -104.405952 -383.713776
888.756958 -186.309509 -434.825897
1012.203491 -102.315498 -11.025810
1019.616272 -208.304642 -316.508728
921.391602 -65.118828 -194.988892
1038.110229 -214.699509 -138.411270
894.799194 -93.543137 -480.665741
996.144897 -119.114296 -117.188019
919.594666 -16.859840 -85.764412
834.874390 37.402985 -224.553909
943.514038 -83.017151 -164.873749
1031.911011 -205.956421 -310.827881
1151.152588 -274.089203 -222.536209
844.552124 -20.655838 -320.778564
839.111938 27.658770 -220.007690
855.677795 30.028698 -222.851028
1072.106079 -222.993393 -308.839539
760.028748 99.660301 -301.899719
979.362793 -239.762222 -332.515778
829.012329 21.958277 -206.421875
926.727478 -119.872253 -397.840454
786.069580 72.678497 -193.654861
947.106018 -83.425385 -215.350998
803.196777 27.027166 -385.485199
738.136414 125.937988 -286.442291
969.684998 -121.033943 -181.507019
887.527466 -20.021999 -180.865463
972.568237 -150.143814 -175.094055
823.035828 -59.826553 -447.137085
872.760376 -87.446541 -366.582947
951.904114 -143.280823 -285.870270
1032.590820 -141.609924 -61.020130
1008.681641 -243.010559 -320.872345
885.427002 -3.657490 -127.463310
818.168823 -46.208458 -436.583466
949.564453 -70.960907 -116.310951
771.412842 71.941261 -355.359100
909.024719 -102.030724 -315.569946
856.290771 4.091534 -170.328964
972.761719 -220.259781 -362.832581
812.463867 -40.409737 -438.602142
842.873596 -49.810688 -416.995972
952.169800 -83.919289 -171.134659
1040.727173 -191.007736 -162.522766
799.852539 83.524376 -276.617157
927.087585 -84.979507 -242.846725
858.835999 -16.841204 -312.863586
1101.855103 -252.052429 -266.052063
794.355530 86.425949 -222.988419
858.188049 -65.270416 -447.114594
851.523926 -42.455811 -354.767059
911.701599 -30.757318 -194.974380
1002.798584 -105.947372 -25.564499
830.443909 -1.317800 -334.725586
825.955627 46.766766 -282.721466
727.688232 130.540405 -318.229645
786.301880 -32.102531 -453.654266
1015.334778 -234.047134 -335.483856
957.824768 -111.423569 -199.772797
944.134705 -124.358963 -270.842102
978.850708 -106.208519 -157.462021
1012.510498 -119.413826 -52.326466
769.811523 90.284714 -272.844177
859.197205 -23.922373 -344.308533
848.245728 43.910656 -158.641449
877.118042 -32.512630 -225.822372
905.287048 -105.660103 -329.679779
901.628845 -119.666458 -452.222595
1060.941406 -220.240219 -288.556122
907.297852 -39.354969 -179.022690
893.114014 -106.233574 -369.299194
980.570984 -173.491791 -243.547897
910.065735 -68.348915 -280.334351
1014.708252 -113.393356 -33.550251
938.352722 -246.636810 -355.917053
974.036194 -107.788101 -187.955154
908.558289 -115.660202 -420.350891
868.020508 44.274364 -147.161484
783.105286 32.672428 -385.091888
867.525146 -29.483097 -273.053284
990.841187 -238.133423 -336.589691
1025.770630 -155.755081 -122.672661
894.838562 -105.748390 -376.046753
880.319214 -17.353441 -222.924179
944.235657 -39.269638 -103.223953
780.770264 50.165993 -424.671661
1024.109741 -156.115784 -117.235603
789.821411 66.280167 -279.371399
1063.876709 -250.492035 -197.182892
964.545471 -145.247894 -188.205383
791.022461 108.564674 -220.639359
900.126892 -71.962959 -288.835266
816.452637 53.214062 -218.444656
822.475098 26.318197 -282.904205
769.339722 53.941650 -426.613007
978.113220 -137.805481 -241.960983
893.876038 -84.774979 -332.570587
980.130005 -98.486366 -144.246246
896.932739 -22.387024 -163.922836
924.861023 -51.875938 -159.563354
808.820435 -13.567634 -450.667847
962.740784 -107.891525 -189.834915
892.057861 -199.430191 -413.442596
843.172180 46.280300 -214.241638
1015.458679 -99.571152 -7.157627
821.095642 -19.733295 -385.672241
951.324219 -103.043663 -198.705765
1032.535156 -187.609329 -166.378479
869.425476 -45.009956 -361.711426
847.064941 -14.246613 -340.311676
1007.316711 -166.632126 -143.005936
890.294250 -56.070244 -309.247131
1033.179565 -182.325714 -186.534439
953.920410 -148.429245 -408.223328
1006.346436 -173.755081 -222.767456
885.999390 -80.475708 -464.490631
887.782166 -57.032642 -338.664856
1067.028809 -219.524811 -148.408142
883.056885 -102.853951 -379.467682
1011.407349 -187.510651 -251.384506
816.126099 44.896358 -245.251572
848.602966 59.434349 -185.203705
819.621216 -26.313936 -405.531677
918.221191 -25.035036 -118.740158
1056.100464 -230.773605 -308.728210
923.025574 -148.449432 -417.091309
792.451050 46.694595 -285.517548
1019.653564 -94.543091 20.114704
921.627502 -28.360884 -113.706238
876.247742 -28.288261 -298.052124
803.202881 90.980232 -238.466324
1080.780273 -263.233154 -207.323242
1068.722778 -199.601181 -92.733444
967.410583 -174.746979 -259.839203
946.146912 -141.896317 -400.752228
805.336365 -14.152969 -483.075256
1073.400146 -222.342117 -133.585251
936.168762 -96.560097 -212.199219
890.664429 -45.074474 -291.383514
739.080322 129.898453 -316.537048
901.561951 -43.149464 -142.752716
818.625305 17.032188 -312.216797
923.964539 -25.978580 -106.130951
805.611206 20.350527 -339.180878
925.920654 -214.664536 -389.327454
921.175842 -32.655071 -107.522278
1075.288452 -218.024353 -323.509247
826.185913 76.681808 -193.954849
826.804688 -52.575386 -442.292816
942.365295 -130.282990 -284.769806
926.756287 -97.684929 -197.829758
784.215820 28.095758 -434.749969
892.785767 -16.713003 -183.298706
966.403870 -126.877525 -114.251060
969.282166 -155.894653 -346.017914
1046.281250 -240.801880 -216.586563
804.453918 65.293228 -292.592224
785.703064 66.758507 -354.765656
995.603394 -116.126266 -125.175049
888.325867 8.307920 -132.188644
1017.579102 -142.642517 -70.440552
948.620667 -119.842827 -244.842285
1000.206787 -195.015305 -250.561966
1036.495728 -178.896912 -143.759460
1048.216553 -233.954651 -213.238464
939.560181 -249.593048 -365.188568
987.297363 -241.660263 -353.811066
931.614685 -47.867020 -176.230835
952.094116 -97.948814 -218.491302
863.479858 -93.676422 -397.115692
1062.196777 -210.981476 -155.317947
946.080261 -77.501488 -140.705627
960.615601 -151.151382 -388.251465
988.310547 -189.708740 -339.238495
753.116272 101.136955 -348.678772
920.164795 -94.868683 -310.323425
1012.023376 -152.280579 -116.806709
942.614197 -111.241493 -228.556396
973.226624 -98.667793 -110.349968
968.922791 -72.293617 -90.159180
1016.477173 -88.817314 19.328661
855.746277 20.081913 -196.734329
919.542480 -43.810459 -135.034805
1032.251831 -206.452438 -157.849503
852.250183 12.482663 -216.578796
823.363464 43.807724 -294.509735
1024.152100 -134.435776 3.245083
885.568909 10.312066 -137.539658
862.903137 -86.023659 -420.583588
832.697266 58.400242 -219.341919
826.026123 61.576130 -192.318802
838.751160 39.104725 -196.427521
1028.465698 -227.141602 -322.460968
882.574341 14.616614 -168.401108
906.281860 -12.578211 -133.458450
919.807190 -40.973946 -98.510468
793.895813 5.168836 -481.925049
843.009216 64.365593 -191.221100
776.867065 36.086037 -388.642456
888.531128 -73.560707 -252.944122
1013.023682 -206.320892 -252.700165
927.691101 -220.644516 -385.215576
1003.150208 -168.442123 -182.311264
800.635315 12.271973 -438.431152
799.078918 48.838394 -321.981140
927.518677 -164.039612 -397.470947
887.641113 -157.820526 -447.209808
1031.691284 -178.559662 -121.806244
1028.725464 -133.780350 -28.170258
1031.322754 -167.170059 -133.315475
999.938904 -87.798309 -20.939472
1003.367249 -121.878983 -113.784798
825.037964 -53.427292 -449.895569
936.182495 -99.375671 -285.470276
853.295349 -34.028870 -324.997375
858.305542 22.724447 -224.250412
806.939636 -20.765711 -444.317657
902.893860 -150.860397 -433.396332
914.908813 -104.483917 -338.341125
932.399048 -86.960487 -255.401398
1029.151001 -152.799500 -96.127563
943.601013 -62.054935 -72.044479
766.725830 86.757004 -342.774658
975.562744 -107.498436 -146.642410
787.440369 25.602190 -344.540253
977.372620 -107.814224 -164.471100
955.139954 -141.999863 -283.048889
942.149109 -76.158318 -182.163101
779.772827 47.512211 -283.761719
965.942200 -195.305740 -377.384094
885.407898 11.623063 -167.045883
920.386230 -63.746078 -106.265862
1060.537109 -249.979874 -161.623306
853.187683 37.083275 -158.239502
1019.798096 -183.537994 -195.633820
955.458374 -255.397690 -342.031281
928.697815 -49.817940 -71.311394
862.502197 0.072471 -232.957687
771.058289 79.221001 -377.567108
955.853760 -164.055344 -384.258240
932.600952 -229.345688 -364.630707
901.010010 -121.465416 -472.233093
812.494446 -37.664158 -444.588715
1058.873535 -201.235306 -135.625015
910.228821 -181.196671 -431.186584
984.234436 -169.104553 -254.498795
1016.865356 -206.088867 -169.465714
983.251221 -128.074219 -166.530380
952.344177 -188.052460 -358.999268
898.581909 -116.381340 -474.538849
792.693665 86.950668 -223.002441
969.485168 -131.207214 -207.347336
972.430298 -181.959503 -380.368713
1107.815674 -276.267426 -208.937332
883.060486 -85.737900 -340.171417
964.337036 -81.216896 -152.085648
779.122986 23.430693 -501.135925
1022.393555 -211.845947 -193.620941
912.671387 -23.954874 -109.770004
918.282654 -90.779045 -306.957550
1072.279419 -241.833954 -298.647156
941.955200 -111.412300 -242.737930
896.254761 -224.361679 -388.797302
1007.601257 -90.174370 -4.460784
840.209656 14.414835 -303.795624
906.094543 -216.425201 -404.322815
1061.208618 -216.530670 -170.509888
840.582764 -14.247989 -337.643616
981.727844 -87.216080 -97.545753
797.569946 -39.589520 -464.942535
1042.491089 -141.747726 -28.139910
798.793823 76.857407 -233.494308
869.380188 -79.285698 -358.493042
802.609741 39.190414 -334.337799
977.353027 -245.008560 -358.041718
838.526001 29.189941 -270.873383
1065.410156 -248.493607 -297.526764
915.628357 -105.289169 -434.846588
1042.873169 -246.280197 -310.765442
794.251648 92.032921 -272.191162
809.348755 -35.401539 -448.885406
1072.753540 -232.161911 -159.636002
783.249817 69.441742 -358.004486
809.695618 17.094070 -278.912689
1006.227173 -197.021866 -274.811401
1019.636719 -128.312988 -42.763912
902.202820 -99.400299 -371.853088
917.209656 -215.940674 -383.610138
1019.806824 -197.171539 -225.808075
951.003540 -109.181511 -215.411392
1025.414673 -212.651703 -242.357391
978.401428 -90.494377 -16.727797
771.915222 58.261429 -394.538208
966.786560 -215.108551 -378.399536
827.522705 -22.561668 -441.604553
878.877869 32.206104 -136.099091
836.823608 26.956860 -250.579651
899.835876 -57.512367 -285.469543
1025.846436 -187.351379 -214.130707
847.179810 17.474941 -179.893494
1004.893921 -139.485382 -113.757294
792.307983 -20.036375 -466.128052
922.734009 -198.817657 -403.681824
864.043823 -27.821932 -279.005402
892.127258 -9.793970 -210.571045
763.285278 46.376781 -371.711029
864.613037 29.870180 -187.414810
825.229736 -29.774403 -352.144379
971.920410 -109.173012 -176.590714
1007.294678 -196.037628 -257.852264
936.395325 -216.433350 -386.836884
794.040527 5.446698 -508.814484
870.022522 -146.580109 -449.204834
806.894104 26.637241 -327.892670
974.647644 -88.318810 -129.049042
908.750244 -52.778919 -204.881424
955.851257 -93.454926 -196.392593
858.788269 25.311337 -163.054642
1047.827637 -175.775604 -106.868538
810.758179 -10.315592 -428.316315
847.875916 -9.452860 -350.755524
932.268311 -105.075630 -263.906158
802.216736 11.539655 -374.528961
1006.090759 -203.319382 -335.732300
975.145691 -140.584427 -227.462021
847.549988 -46.544098 -410.956573
782.120605 94.215897 -301.594025
871.635498 -15.614842 -221.650833
804.929016 26.633781 -331.870209
944.445129 -140.853714 -359.014191
990.790222 -85.425255 -65.076950
1021.346252 -121.111465 -11.228427
1020.252441 -142.590607 -126.934532
952.987427 -236.539230 -366.257324
937.513489 -52.085026 -158.691574
1007.485779 -115.602043 -90.255234
899.884460 -30.650124 -158.891006
906.316162 -91.989151 -440.665771
718.860107 137.132813 -294.493561
1034.318359 -205.370071 -320.136688
900.157043 -10.981090 -147.422073
971.330200 -126.241646 -192.433029
817.501953 -58.535305 -433.635193
1049.868286 -220.292938 -176.109146
755.146057 143.498825 -298.186432
951.568237 -80.855568 -141.869568
1030.459351 -143.169800 -51.783958
894.262817 -67.205605 -324.368500
1068.743774 -236.321396 -303.882813
898.269531 7.132031 -104.845604
757.193481 73.469467 -351.768280
873.569031 -55.478413 -491.143127
910.064453 -60.998795 -205.297760
793.515991 70.461021 -251.697861
915.176331 -132.561310 -363.506500
943.642334 -48.398289 -136.106796
925.238342 -15.897592 -74.912003
915.845947 -31.233025 -183.525497
909.675964 -12.699845 -154.414902
960.237183 -254.425766 -341.014160
887.505432 -65.060234 -344.233337
902.462830 -2.815779 -106.282791
785.514160 67.338188 -365.552460
874.267700 37.187271 -158.058105
874.296753 -81.459862 -369.752625
968.649963 -255.073746 -352.316986
884.096252 -28.722363 -282.751434
842.162781 -4.220004 -202.622452
1005.860291 -196.164505 -248.251816
915.357178 -104.060646 -242.121307
780.606140 109.240097 -261.575500
961.918030 -47.687454 -44.503593
1019.680603 -242.766449 -333.759247
1063.940552 -209.439087 -112.966141
924.773865 -82.882050 -236.674774
1063.248169 -245.666321 -191.321426
1057.908203 -238.965057 -216.761627
969.066833 -229.096527 -352.146301
879.967957 14.359607 -148.366943
842.001831 -52.211208 -396.525482
762.677795 120.252693 -245.332611
815.548279 72.441071 -240.115524
871.483948 -82.916908 -358.643860
743.335754 76.332405 -314.066803
891.442261 -42.455692 -275.161774
883.559570 -38.004627 -288.519165
902.504944 -82.519127 -274.695160
1015.298889 -108.915466 -36.202015
902.518066 -98.907692 -379.695831
973.960815 -160.371628 -264.615753
867.102966 29.555403 -176.444077
915.865356 -42.937145 -215.979019
896.140808 -19.992527 -150.881592
974.918945 -129.948334 -218.864914
965.606201 -98.622406 -176.716583
929.777039 -38.664845 -80.876266
894.708984 14.841959 -120.312881
792.217285 34.057396 -350.711151
745.059509 145.433838 -286.990204
1035.607788 -244.895416 -228.375626
1048.683472 -210.316650 -111.619827
890.130310 -2.637549 -132.361267
760.552307 101.144592 -338.434296
963.169739 -138.799133 -278.498871
898.391663 -160.492523 -446.245270
1010.988037 -187.078445 -311.540588
932.707642 -51.076141 -147.498276
877.106506 -56.150864 -511.157288
904.395691 -12.098355 -168.467819
726.483398 142.853058 -289.158142
1020.868347 -136.167725 -52.638973
1020.237976 -198.470825 -174.609787
968.030762 -81.286743 -62.733128
762.292358 101.304779 -273.860321
946.599854 -256.120850 -355.611542
1035.733521 -166.108353 -38.464798
864.749146 5.712798 -211.316513
898.742676 -22.274984 -212.789200
988.393860 -141.793671 -202.096115
1020.435486 -146.435440 -133.496582
738.167664 91.399292 -356.772156
812.085266 54.157444 -306.814850
839.775879 -39.423244 -442.444977
936.040222 -84.270081 -236.100830
927.716553 -38.127388 -160.115448
793.164856 49.090839 -311.252716
890.418396 -1.707347 -187.913300
943.266113 -49.308613 -106.780724
935.271667 -247.397202 -370.741913
999.783813 -122.835846 -143.212662
1001.717468 -196.554810 -268.065643
996.302856 -210.395859 -360.678589
881.359619 -89.554184 -345.532074
1045.744019 -224.908188 -233.235001
820.069702 -27.370159 -442.917633
1014.901123 -185.486282 -238.197556
989.152405 -138.526184 -176.291809
764.958130 68.293373 -356.391876
934.981018 -49.002529 -86.568558
893.638062 -85.134926 -489.147491
937.750793 -42.154552 -140.490433
1001.624146 -211.574570 -333.531067
932.838196 -182.667160 -389.136292
802.531006 -1.350714 -397.248840
892.565857 -22.320280 -177.660431
760.880188 68.263298 -323.167175
726.966187 127.049339 -309.355896
985.829712 -94.858086 -77.549858
959.910095 -229.110886 -370.783905
914.509216 -211.501175 -404.177521
768.259644 93.160355 -334.140350
924.120056 -97.449135 -278.961761
900.103577 -191.700943 -427.344452
947.636658 -91.826668 -218.295547
932.928650 -99.302048 -258.434113
870.695435 23.265944 -184.335434
1029.618896 -137.312836 -62.330608
756.867310 112.124519 -260.842468
862.028198 -4.485045 -245.321182
822.320862 -61.485870 -434.628326
868.272522 -12.737856 -241.589478
1033.326294 -209.505676 -332.225006
1009.155029 -201.361877 -346.975952
850.551697 -9.704561 -294.560577
802.206848 20.160645 -384.523743
744.176636 95.071419 -369.982635
947.291260 -86.571121 -207.120575
977.660645 -137.838943 -104.899178
869.914795 -77.724380 -442.576447
878.339661 -41.372753 -279.926483
809.758606 -29.061628 -440.963257
912.171936 -155.265274 -417.337433
953.369019 -179.877579 -379.463409
1006.981995 -98.186279 -36.935200
945.687500 -52.548489 -114.322777
1015.522766 -174.417236 -198.679138
819.537109 9.704242 -325.001648
1056.525146 -196.973938 -350.577087
909.244202 -130.595413 -385.509369
919.368286 -79.496696 -239.541061
954.552124 -181.061295 -385.767639
897.404602 -28.450991 -231.053528
893.969543 -150.119629 -453.864380
904.916199 -94.310539 -472.759979
942.354919 -135.210022 -239.052765
908.322266 -16.014614 -133.471237
914.916809 -100.518517 -467.520355
777.363220 5.138939 -389.304230
829.225952 42.966450 -212.079330
1068.509644 -224.575409 -324.468445
890.512756 -174.940842 -432.821136
965.822937 -110.549446 -214.774673
899.858704 -165.634598 -435.063232
1043.984497 -208.801437 -126.272972
887.654114 -45.320843 -270.035004
910.627502 -220.589951 -389.388428
1001.876282 -117.554703 -113.203529
1047.652466 -175.313248 -87.412209
977.765991 -92.886444 -23.454126
748.050720 59.860207 -413.361755
819.304749 -47.751865 -456.128021
789.873047 31.057899 -435.340363
762.528137 53.379143 -406.885254
784.096191 114.826492 -252.790100
735.152466 107.590744 -295.754120
977.617737 -134.717896 -193.143204
853.282898 -7.263265 -307.672821
916.756042 -105.584198 -348.026123
1001.034668 -134.926529 -88.947807
848.560913 -30.136122 -372.038086
910.310059 -133.028687 -453.175964
816.144775 26.396046 -363.887299
964.201111 -243.897537 -356.522430
961.295715 -127.280479 -221.711060
903.726440 -12.568507 -77.363861
961.366333 -128.019409 -229.641968
956.410583 -42.512104 -70.019531
904.337585 -93.095314 -304.328827
1038.119385 -176.474701 -156.405106
934.617798 -108.976791 -300.542664
968.667847 -100.049164 -105.454124
1029.873169 -159.173050 -61.812756
938.058105 -221.298233 -387.116943
784.559692 67.879326 -303.012146
994.512512 -102.123962 -82.585838
952.621155 -87.344002 -166.706314
990.396301 -188.930527 -295.794922
998.214905 -142.570969 -141.646378
1061.028687 -234.657684 -221.695602
1079.224243 -253.357300 -178.863312
807.167786 19.500195 -339.702911
875.656860 -34.426807 -235.934280
926.749146 -224.101913 -385.860291
753.710022 49.388050 -413.277191
1020.779480 -211.859879 -278.316650
732.615417 170.526337 -301.697998
743.660950 103.515701 -259.299011
838.232422 -61.816692 -449.070465
854.891541 9.312431 -226.642868
932.458069 -128.750107 -420.778595
851.277954 20.577904 -243.369476
975.300720 -76.090813 -46.371620
985.170471 -168.482971 -290.465271
953.618713 -65.245911 -139.535721
1057.737427 -242.307068 -328.023224
955.069397 -121.790123 -158.471985
931.019531 -54.954491 -163.115601
1022.004639 -165.592392 -162.153305
846.329956 -35.493618 -391.320801
1006.106201 -157.067108 -120.823524
792.342163 -4.354019 -437.432281
989.499207 -246.737686 -342.012482
882.464905 -26.203920 -211.782730
1053.024902 -224.396362 -148.812057
812.226196 -23.074007 -383.171478
856.460327 -30.720247 -321.179443
927.184875 -71.179428 -214.669144
840.129761 -22.678413 -381.555023
932.936340 -69.607094 -183.329697
948.109314 -89.405815 -227.292389
952.345520 -222.605820 -379.071930
1050.220825 -225.812622 -145.401611
916.294128 -12.573522 -127.837959
786.235596 108.304199 -219.924240
965.834167 -212.960541 -358.998138
746.906860 85.766861 -363.971039
765.066284 68.706955 -391.612610
771.750366 64.601967 -392.134918
957.904297 -94.623451 -180.772400
787.947327 -3.813794 -483.207275
818.344971 -20.957846 -463.844299
917.107849 -253.350098 -355.748383
1046.496704 -163.157059 -68.689682
834.355957 -52.358101 -439.731476
1052.077026 -210.872467 -182.536850
959.621399 -166.362473 -399.411133
1013.100281 -137.892990 -113.693787
759.046692 96.096375 -382.006866
911.004395 -165.691910 -415.472504
1025.941040 -183.861572 -179.579865
948.510071 -92.789268 -227.636810
1012.645874 -186.630280 -212.715439
995.985840 -125.920746 -162.975555
864.518311 -26.503677 -318.154419
1078.817749 -243.041611 -309.686066
837.193604 31.531975 -228.801285
811.960815 -26.454693 -487.826904
987.062439 -116.060867 -79.431999
977.986816 -127.468018 -182.787903
929.903625 -27.361832 -132.840836
865.057373 -50.320396 -326.276062
1005.344055 -191.089447 -337.510681
971.732727 -69.177620 -2.726924
1048.139771 -179.380035 -116.976173
944.046204 -69.420006 -139.670044
868.263000 8.179917 -172.761490
943.541992 -56.724720 -71.216431
979.077698 -79.475334 -77.987450
1002.853088 -181.139618 -220.996994
752.396667 75.683960 -328.259827
759.926331 112.052391 -263.975128
933.812927 -172.459137 -402.890594
887.730225 1.966430 -162.329300
1010.139465 -121.685478 -82.294029
887.935913 -84.138573 -382.738312
812.237183 16.455963 -248.561462
866.808960 -0.017786 -219.080994
1012.860474 -181.177673 -113.841011
844.490051 7.271643 -274.449371
1057.896606 -209.523041 -134.406860
786.408875 80.685104 -256.660583
799.448914 93.952095 -210.557175
961.933533 -146.405304 -266.283417
789.860352 80.628532 -260.081757
902.235779 -29.136631 -155.487076
712.716858 137.393021 -302.408264
954.604614 -66.998604 -76.119774
902.774963 -16.318548 -123.711807
930.603210 -103.116631 -272.775269
1027.282715 -109.905762 -24.073858
837.462830 50.745972 -153.372772
872.124634 11.772516 -157.180939
952.813538 -130.717255 -291.805511
920.334473 -214.884644 -378.755371
956.244995 -78.584106 -51.534199
932.221252 -128.844833 -376.746368
974.643005 -186.245514 -267.560791
792.402527 2.025289 -438.830597
1018.138123 -187.717941 -105.859665
1006.175171 -222.062668 -335.753571
971.739807 -185.516129 -277.564178
916.141052 -119.526169 -435.452576
1032.598145 -204.895905 -227.391022
912.405945 -122.145851 -339.917603
1015.177124 -225.433929 -349.290497
825.107666 17.258062 -217.775726
1005.944092 -124.319771 -68.994957
934.314087 -138.148300 -405.844299
885.235596 -1.669043 -151.208420
908.923096 -63.245235 -288.774567
937.298950 -135.330719 -252.461212
878.599426 -36.266270 -298.710846
990.591431 -103.221550 -61.282207
817.856567 -17.613144 -389.602844
903.305786 -173.940140 -431.420593
1028.244507 -218.793625 -243.042145
959.746826 -131.897491 -274.418213
1046.004395 -194.745438 -143.291901
1067.994141 -232.574203 -162.300278
865.438171 -83.789345 -401.957397
914.089600 -94.881516 -278.592957
1005.031921 -236.445435 -338.401794
791.076843 -26.461763 -490.231140
912.334106 -63.919067 -261.085083
851.744324 -56.127495 -376.178650
1004.386414 -139.480759 -142.185577
890.433777 -44.335941 -253.285828
877.026733 -48.215618 -299.776123
1034.292236 -197.188980 -185.552750
1010.710999 -198.368973 -245.930756
882.629761 4.541990 -115.195381
937.209167 -18.706413 -69.642670
1026.225952 -178.403946 -167.351517
841.066895 -13.231612 -313.237518
937.037231 -83.222649 -192.111725
853.154480 -25.192476 -321.275024
992.158752 -120.648659 -143.260208
1001.184814 -104.610703 -87.732079
870.327698 -0.487032 -188.026733
1004.945374 -107.403717 -47.351696
865.487793 23.063303 -203.805618
857.748596 -53.472576 -300.981812
965.533081 -55.762077 -52.321682
1061.872314 -255.176773 -216.220871
892.989685 -185.458328 -434.019989
1039.140137 -148.048019 -16.137772
843.635742 6.480614 -305.426056
1041.407349 -224.945114 -221.362579
932.218811 -54.575489 -122.320030
822.536194 -2.305992 -367.166351
752.328979 114.855202 -300.218109
796.218079 3.054545 -405.384674
779.187622 17.957882 -421.681427
737.916382 98.237579 -345.679474
778.460144 40.940681 -433.577393
737.984009 121.739853 -290.824646
832.839966 14.578631 -342.091888
1037.715942 -212.374969 -190.851974
1003.742920 -157.694687 -177.246140
843.652588 -81.577232 -416.299866
904.919617 -112.525291 -449.257721
858.891602 -32.819962 -305.500641
818.071838 43.226925 -242.411102
861.182556 25.946344 -157.087769
862.136475 -70.139748 -382.069214
881.319031 4.776429 -208.991592
728.851929 128.505371 -306.668976
1100.815186 -270.377380 -194.263474
923.440125 -49.485092 -201.669617
880.289673 3.340392 -158.199326
948.628601 -66.131714 -105.435684
926.346863 -36.946236 -166.267456
810.084656 53.056934 -273.134338
857.695313 -53.575172 -354.831238
1056.258911 -207.645721 -156.405365
979.326782 -128.107544 -213.967880
1004.146790 -247.564117 -322.071564
928.123230 -100.190941 -260.109741
777.719177 91.947960 -314.740051
906.915405 -25.989256 -139.931458
1012.709351 -122.664047 -66.908600
967.255798 -131.629913 -248.499191
863.963501 26.454746 -145.794067
809.768921 -26.389614 -397.451904
798.815002 37.673206 -288.675201
947.904724 -33.601437 -88.463257
1041.224121 -204.080338 -180.285675
913.737793 -76.358887 -286.853912
886.637878 -93.745514 -348.369293
802.239319 20.882973 -356.000061
848.162720 17.179564 -262.228485
986.447021 -88.384033 -25.463900
1012.454346 -202.116333 -255.702438
840.935486 22.032658 -240.250229
981.311646 -104.315910 -155.198746
789.722900 41.642250 -348.165192
793.761536 98.161774 -251.349442
1004.362427 -177.617966 -197.556534
932.933167 -63.375870 -139.428284
911.969299 -52.336712 -195.963562
1066.550659 -213.583115 -146.203629
963.259827 -120.631271 -202.511856
972.901367 -168.478607 -257.442566
878.756592 3.011629 -151.297791
805.210938 76.609093 -241.424744
921.696045 -52.553478 -185.176498
790.320313 87.160561 -237.829727
842.635620 33.274387 -204.610153
900.082581 -211.725159 -409.398956
736.442444 125.876564 -344.274689
798.644531 45.553669 -236.929321
931.770508 -53.950642 -166.816711
977.494507 -71.063675 -54.510529
817.223938 17.365892 -333.182831
937.838074 -52.392941 -128.046570
1016.382874 -161.641632 -189.232681
880.508057 -45.107765 -263.219421
896.752258 -215.055740 -407.662872
986.891418 -179.946182 -269.970886
968.867859 -133.088303 -219.174561
796.969727 -1.331029 -441.588440
908.271118 -68.475929 -179.089783
982.541565 -181.852875 -352.125092
844.470276 -42.542591 -314.973938
764.488403 79.037346 -273.838135
1054.556763 -240.624451 -206.146347
915.296509 -92.322372 -473.612152
940.050171 -24.808668 -68.339081
924.753967 -31.096386 -52.322174
902.438232 -6.368145 -126.851395
989.592712 -166.206757 -263.352478
1001.755066 -138.445038 -158.160156
999.006287 -152.141708 -134.487854
990.954346 -199.340195 -350.995728
1064.751465 -207.633881 -126.210884
857.142700 -53.284012 -482.150604
879.323303 -27.620247 -225.511490
956.868286 -40.852673 -47.296761
819.082520 -9.372722 -334.618164
1042.048584 -221.586166 -217.938385
991.807434 -202.921097 -282.247742
936.536865 -147.966339 -418.439178
780.992065 50.748001 -401.510498
1059.698608 -199.200058 -128.331665
811.308960 18.219856 -400.352905
816.266541 -1.003396 -380.557648
976.638916 -138.505798 -234.698746
928.911804 -127.438911 -349.057190
958.188721 -97.689873 -156.666138
971.665527 -71.943245 -24.049034
942.403992 -96.051628 -256.157013
832.936707 -16.227631 -347.040619
860.455444 -68.100945 -440.976563
1016.599670 -179.412277 -222.358353
881.213806 19.961390 -131.590149
976.023743 -118.166245 -168.119186
1011.463501 -104.763664 -35.111103
946.520935 -156.995209 -388.777344
1010.726257 -158.227997 -134.932083
770.314209 63.046288 -364.493683
1055.172852 -225.449097 -316.286194
943.193909 -89.846687 -132.158813
945.418396 -127.585831 -286.426147
863.946777 33.227463 -151.481979
986.299255 -149.707230 -194.935410
926.310913 -55.395565 -163.355148
933.194824 -69.738403 -214.185486
858.563232 -39.394951 -380.702576
792.346436 23.221945 -425.677582
946.817627 -233.590958 -364.269379
774.632568 -15.689335 -472.113129
914.394043 -79.458702 -302.252106
805.191956 56.751308 -259.276825
897.876038 -74.410896 -330.892670
805.755249 11.078904 -368.710175
815.382690 20.738560 -314.254456
850.941528 -10.511089 -285.396698
1086.476807 -229.347153 -293.453857
940.778625 -98.945412 -275.660309
814.068848 -38.902191 -409.203735
800.441345 75.699837 -280.740814
999.183411 -112.732834 -33.145882
1004.704651 -189.271301 -319.418396
1050.531860 -204.110535 -171.837296
999.076233 -184.431305 -160.799377
831.012756 22.935640 -263.952576
800.423889 -10.129455 -470.559631
1006.020874 -93.131264 -27.105003
1024.336182 -116.978096 -0.986148
915.541443 -15.952664 -112.715286
751.251770 91.483658 -385.134888
960.034119 -169.109894 -354.613617
747.958191 93.103699 -368.079102
756.696106 103.440201 -324.037872
900.099487 -138.448090 -451.363800
860.890503 -17.827686 -253.826309
949.267517 -45.633831 -107.795372
1066.269409 -213.905197 -137.333817
940.277649 -100.126801 -214.286163
884.227295 -22.992481 -147.242874
1071.161255 -211.197021 -103.019852
1017.745422 -213.938782 -184.416641
916.696899 -190.874512 -413.977325
924.811218 -200.908401 -403.852264
991.313171 -167.067993 -370.158386
994.130493 -122.599297 -131.363754
952.751404 -243.310455 -351.438599
885.700562 -21.385822 -147.548157
881.419312 33.217049 -134.331741
891.136108 -29.949606 -249.050232
1025.034546 -131.360107 -62.381329
783.424561 90.775986 -278.737579
975.893677 -168.751587 -287.132935
811.853821 44.658615 -199.577499
935.983521 -53.707310 -115.125267
940.224365 -72.317619 -136.985107
730.923950 119.051338 -334.539551
1006.835938 -95.033211 -15.291180
804.599121 42.503380 -346.834900
932.422302 -101.973083 -266.333710
815.045776 -31.732080 -508.104156
997.273743 -113.191826 -71.723320
981.758179 -174.734116 -347.555389
905.144043 -118.520111 -372.873138
1020.943176 -202.010315 -337.859467
889.039490 -21.500271 -241.827560
899.502747 -101.143997 -410.590424
1049.290649 -167.949020 -67.037445
907.791016 -79.928093 -285.124084
1077.298706 -235.785217 -161.143463
787.454407 6.031478 -394.289307
974.530945 -162.934296 -266.258667
1014.959473 -253.812256 -317.590515
824.880798 6.346481 -326.656586
1015.051270 -128.907471 -78.772278
927.159363 -32.754025 -89.314369
861.314453 20.226486 -221.274078
909.927917 -104.886986 -316.425598
936.426819 -66.606331 -171.642441
981.999084 -127.187767 -193.210861
967.759338 -76.084045 -105.333664
790.773010 -33.076584 -462.204865
1008.551514 -198.131332 -236.139252
824.347290 -31.460684 -401.965302
814.972900 -3.852291 -341.632660
798.998779 68.265221 -301.748047
774.815735 45.087002 -377.841095
964.569275 -79.900436 -86.974594
921.656128 -35.945072 -116.837494
879.229431 -44.718365 -280.564667
1039.984619 -160.551926 -92.822319
889.108948 -147.059341 -454.821777
941.086243 -28.474236 -71.186424
844.667480 -20.462770 -338.783173
815.050293 60.553642 -202.160507
858.598206 -58.669556 -339.188507
1038.204102 -217.667709 -257.566071
799.976990 -0.015226 -466.718323
1011.981140 -128.815384 -65.027924
859.573853 -68.196587 -429.021637
773.379150 -19.225355 -477.781799
771.410339 107.506645 -288.573151
903.463135 -35.042885 -229.761826
867.762024 -31.268158 -328.322876
826.128906 59.174873 -240.191788
1088.365601 -238.184433 -308.690521
810.518738 -24.109627 -491.930573
1086.145386 -267.511658 -258.917664
977.104065 -172.538895 -295.028778
977.974365 -68.861954 -52.252525
1034.409546 -160.502640 -100.650032
856.249451 -48.360958 -391.330566
1029.793945 -205.609451 -119.457802
752.315430 123.339256 -314.686737
830.082642 34.399574 -297.206726
907.743103 -77.825066 -478.709595
1038.920044 -192.142624 -163.839355
974.424805 -225.615479 -363.018890
958.777466 -167.451569 -380.667389
993.248962 -97.834305 -86.938812
1006.179199 -183.565002 -217.545319
1030.876831 -198.337585 -105.420494
953.260010 -77.448997 -113.689796
1021.684875 -158.600815 -138.777863
949.508484 -100.999313 -233.387222
997.621765 -167.477142 -139.931183
943.362488 -62.405521 -134.463165
968.185425 -126.556030 -193.146576
917.480896 -32.143822 -140.710785
992.714172 -170.264374 -281.446411
799.656982 53.356388 -232.205780
1027.700562 -213.241455 -340.197937
964.672974 -172.864594 -374.829773
1071.688354 -259.713013 -233.229858
1039.178589 -184.075134 -139.349777
929.028503 -22.434166 -80.349724
806.193298 62.961536 -307.664307
956.792297 -111.071381 -194.825729
996.861267 -193.230225 -278.241028
794.513611 13.513083 -456.900574
896.338196 -97.749557 -341.468079
742.086121 146.642212 -279.197021
911.720581 -10.836505 -137.615616
1007.947083 -91.500435 -11.542635
850.588928 -33.072006 -338.689545
935.221985 -31.943607 -71.643623
988.836853 -131.555466 -167.478958
1004.208374 -108.741028 -58.471260
939.275635 -160.600571 -394.563660
1051.159058 -203.618759 -135.305908
886.422058 -7.199873 -159.667587
940.436951 -73.481476 -191.391434
899.765808 -53.657322 -171.949875
819.963745 1.801774 -341.659180
941.655334 -214.604523 -366.780731
968.010193 -70.021317 -50.163006
961.301208 -151.575958 -258.976196
889.811340 -181.601685 -436.527496
978.157471 -135.975082 -182.855545
968.239624 -81.261543 -103.857460
811.889343 18.351646 -328.916321
972.291870 -171.592377 -349.051575
1002.125854 -198.227982 -295.571564
1066.620728 -237.032303 -181.661865
1002.905518 -182.614212 -328.004608
1009.006409 -245.930740 -343.729584
927.804443 -111.013603 -218.611877
894.742554 -34.386536 -219.495224
969.749390 -210.929321 -341.869293
1005.890320 -143.010925 -157.915909
790.416687 31.098364 -375.286438
1024.609131 -241.123016 -336.174530
1023.844299 -208.943878 -317.253693
1057.481934 -208.488220 -164.210693
905.376282 -126.264511 -340.743378
883.855591 -33.584385 -277.218719
751.563538 124.639526 -322.842010
1050.801514 -217.114182 -276.547577
1000.361450 -229.536774 -344.589142
980.343628 -93.215691 -56.210724
1037.648560 -211.901245 -318.989136
773.259888 75.181396 -352.585480
785.782837 78.736305 -317.674377
837.678589 -23.656519 -367.872864
816.924316 66.291870 -185.039337
820.340759 -51.068031 -470.572235
779.688660 93.258568 -285.229034
862.724915 3.681238 -223.695999
982.775574 -77.708931 -65.760590
766.715576 84.658150 -375.979767
817.778259 37.885040 -256.822479
890.717590 8.975398 -118.769447
778.972717 95.708176 -297.166595
992.917236 -128.913483 -165.970718
1025.231201 -214.320129 -162.611725
976.244446 -189.587463 -364.092041
837.684021 -45.279510 -436.227448
931.133911 -101.362129 -291.759125
903.284973 -32.194191 -174.291107
1055.048706 -195.054535 -136.266083
750.774963 70.641670 -308.252045
957.235901 -141.737625 -272.248230
798.866211 -18.104382 -446.818604
977.736816 -151.674118 -209.118851
896.828491 -101.346741 -327.727386
1029.593262 -190.598297 -101.598320
896.493713 -166.109222 -448.875641
983.282410 -139.253433 -194.290863
993.035400 -235.484589 -346.896881
852.470398 53.474674 -162.305603
1029.034912 -156.351013 -76.037292
1018.064575 -201.133224 -239.284653
952.042480 -151.340912 -350.222321
986.943787 -160.880554 -234.412704
904.889282 -67.106018 -187.119232
975.220276 -217.282547 -343.126312
998.322144 -177.752014 -291.155151
894.431763 -199.799103 -416.918762
1034.141479 -242.754425 -327.689697
1053.159912 -154.055588 -53.351303
985.762451 -83.609322 -73.100235
932.084961 -178.826035 -406.408844
1056.920410 -242.344131 -241.140213
877.688538 -14.613915 -214.785889
949.272095 -134.742310 -347.851135
1071.266357 -229.299835 -162.861557
1023.951904 -214.552109 -236.438507
1037.660034 -193.482834 -199.123901
1045.843628 -240.089905 -329.072113
905.763794 -38.825150 -192.037888
985.825562 -135.051849 -161.185150
906.196716 -39.529514 -238.952225
814.644409 62.305149 -226.599014
952.630615 -94.171722 -115.278931
856.667236 36.550865 -164.056183
839.667847 -1.176809 -341.450897
835.153320 -39.705261 -474.941467
988.947571 -153.819885 -131.659119
928.464844 -186.006180 -407.001740
1094.194946 -266.544708 -175.933380
828.374756 38.098629 -242.433563
949.838074 -95.928902 -201.210739
1028.364746 -157.352371 -98.100670
1028.873291 -255.597427 -310.944702
998.591309 -102.359329 -78.681702
840.425171 -6.692692 -309.143005
924.744690 -32.033443 -125.009621
974.648682 -106.977104 -166.875076
1027.781616 -208.452255 -211.778534
1068.455933 -228.022461 -164.194351
1032.192749 -207.527954 -313.954163
909.686218 -59.904331 -224.671677
1007.490356 -170.379288 -171.553207
974.836365 -67.787926 -62.484154
811.115417 -4.328333 -409.745605
886.744385 -57.957779 -323.869965
756.341858 81.252434 -335.438965
1021.710327 -158.025253 -145.470200
1086.148315 -228.648651 -301.819672
979.614258 -135.657669 -160.917374
737.344238 101.658607 -360.829285
802.132446 58.096821 -264.924164
942.587952 -68.186935 -140.673691
809.895935 -29.780495 -435.873444
884.590088 -43.633152 -275.566040
937.974670 -100.480225 -246.906219
980.019958 -123.511650 -189.941254
1027.840454 -125.052460 -35.114151
911.803589 -140.038467 -392.702667
806.748352 -3.772524 -434.017731
1022.702820 -114.431931 -25.694233
887.987854 -109.990585 -367.140747
1070.817749 -245.364929 -189.413910
889.774353 -94.680191 -360.329376
1104.750366 -276.869598 -195.311127
970.713684 -209.579391 -352.434021
861.972778 -21.389610 -328.424438
959.732361 -112.072639 -188.481796
917.080505 -69.190605 -227.563416
960.939453 -52.465176 -36.864891
918.531677 -35.503010 -128.562241
1067.791870 -252.669128 -208.307159
800.064209 6.847331 -397.823639
1053.599976 -201.957336 -127.574493
937.860352 -67.866653 -155.363266
1019.768677 -153.519638 -97.042168
797.804382 -6.255966 -470.173187
1038.316528 -179.266495 -160.911880
840.338989 -73.266777 -407.834503
898.429871 -69.714287 -275.541290
1004.390747 -161.226700 -170.102066
993.663208 -242.419373 -348.902222
967.321472 -126.740372 -219.987122
1008.815063 -143.940079 -167.430206
772.636169 32.197433 -409.307251
807.428711 -12.775449 -492.496674
852.922424 -23.410507 -299.882843
819.727600 42.345345 -312.665405
886.203003 -11.350288 -176.330963
1019.002136 -150.306778 -124.239410
896.365967 -92.350052 -329.499451
974.557434 -133.905334 -247.549454
787.354858 42.194508 -311.346313
830.922791 -44.760807 -412.358032
856.186401 -11.749059 -323.863281
893.803406 -46.796692 -215.658264
919.877197 -142.787399 -422.389923
1020.417480 -223.040787 -336.684082
912.329285 -146.511322 -428.858887
743.378967 99.183716 -282.072083
959.797424 -52.059143 -56.791210
997.018433 -138.916855 -181.573929
804.517578 41.670609 -369.833984
993.788025 -88.206474 2.259163
919.693848 -85.931091 -478.230621
798.395325 30.863232 -401.524994
841.506104 -59.709148 -382.753143
810.722412 22.898323 -320.436951
776.113281 76.307709 -201.571442
953.951721 -79.424492 -155.862137
917.330261 -201.270493 -388.532959
939.014771 -33.826260 -76.466652
822.085632 20.340374 -293.710602
973.374146 -72.131584 -48.270267
958.695374 -102.631134 -219.261642
950.615234 -158.742004 -334.034760
986.718994 -138.064316 -205.227783
1014.745239 -203.216095 -290.628998
815.189758 10.192622 -299.956360
902.405640 -41.903557 -249.537292
917.004456 -52.211094 -229.229752
811.262390 35.208458 -314.115662
1016.217957 -138.758514 -112.694748
900.377441 -64.151054 -317.354370
897.560364 9.143952 -105.841507
872.009338 -61.084667 -342.160156
926.337463 -68.722801 -190.406326
912.230042 -33.511940 -164.448807
942.846558 -60.194645 -134.469177
945.903687 -190.603622 -389.001312
878.490845 -16.874119 -223.339935
822.345459 5.743429 -251.878677
850.248169 -52.773769 -452.855774
1037.182129 -171.437271 -87.046364
996.897339 -141.357574 -149.227066
827.532166 18.018959 -333.245239
1062.039185 -232.375763 -290.756927
945.865906 -137.800156 -409.955597
963.403381 -130.816147 -221.412430
716.764160 153.943649 -306.930389
923.454773 -63.882042 -208.049896
937.453308 -91.321205 -216.238525
955.610474 -40.354034 -78.173935
938.965088 -79.282410 -122.675491
923.026062 -90.208839 -266.010712
934.828491 -68.914009 -113.209656
781.986206 34.060883 -374.621826
737.192810 143.188950 -274.375153
1001.967651 -159.396820 -184.333984
850.369507 51.017769 -179.407181
927.035828 -109.257973 -287.972015
838.485840 -65.484993 -438.505676
898.077454 -114.612717 -382.276703
809.698486 11.977289 -348.834045
922.184021 -123.637070 -330.047638
1001.367065 -119.823921 -120.499191
832.656006 51.093430 -188.452713
777.722656 119.118095 -226.044403
751.325989 51.780407 -377.570435
838.100159 -31.859528 -406.729675
760.964111 67.604576 -418.120148
846.149841 -44.708504 -424.030304
1064.385498 -212.283188 -150.753891
950.123718 -255.781998 -343.730652
917.803223 -39.944588 -198.550354
872.267700 -32.258217 -256.366425
976.348022 -221.997360 -358.988678
946.568420 -140.809708 -278.610565
1081.064941 -253.878693 -285.096619
825.397705 10.254366 -351.944550
891.749207 -38.006058 -263.937042
1050.573242 -244.310959 -234.330856
983.881287 -162.943558 -245.480804
814.955566 27.992891 -266.083191
884.195679 -38.054482 -243.171158
945.962585 -59.681427 -132.936783
790.864075 61.536526 -364.499969
1010.119934 -131.002365 -105.268394
829.649658 37.732868 -206.815353
855.700989 1.047067 -240.986786
984.259155 -89.811882 -67.271133
763.794434 69.472305 -344.577179
836.669983 -39.496170 -453.928894
1046.610474 -212.377441 -126.302986
776.137146 62.045094 -222.818481
917.276550 -92.329704 -329.600494
765.489502 79.205284 -326.645599
992.219299 -58.139828 -17.158487
1004.734009 -244.071671 -335.073059
895.267212 -77.525261 -351.547180
1028.404297 -217.681717 -204.720734
974.998962 -109.794853 -170.460632
878.299377 10.377378 -134.335083
1014.561890 -190.376511 -215.904312
1004.868225 -183.400253 -191.059280
1062.880859 -246.646317 -244.091324
788.770020 92.734489 -290.708252
766.460632 39.091690 -380.366302
832.142700 39.963982 -227.552139
753.241150 62.414577 -358.906708
984.604797 -120.929825 -133.702148
836.202271 -21.101433 -349.724518
1023.036194 -143.467148 -64.127304
1078.579956 -248.435898 -291.278107
795.931702 36.971981 -333.442108
884.618713 -50.759457 -284.228333
1012.857788 -116.228188 -41.375629
1063.526245 -234.592163 -200.316040
912.560913 -161.958313 -418.710602
713.683594 162.471695 -296.571136
902.449951 -2.147767 -105.469566
907.106018 -231.012634 -375.797791
928.532715 -132.160889 -416.361145
963.764160 -84.480927 -153.536926
