ply
format ascii 1.0
element vertex 1408
property float x
property float y
property float z
end_header
-561.434326 536.329956 366.412140
-564.341675 725.401978 311.463226
-455.205780 719.593628 370.064667
-461.916718 755.367554 367.590179
-689.825745 706.294495 150.813309
-642.507324 652.616638 291.410767
-452.437988 750.666077 363.615845
-528.714111 760.503113 331.546204
-402.914612 821.061951 369.995819
-680.013489 758.245728 186.828964
-461.285309 809.275574 348.410126
-612.855896 463.464508 363.322540
-510.429016 630.409851 366.881622
-445.946289 824.097778 355.374878
-385.025116 780.448486 403.034363
-462.715820 713.775269 388.753174
-486.071411 547.546997 414.533081
-348.057312 876.741943 380.258331
-497.184845 760.635559 339.511749
-499.662781 592.559448 401.067535
-429.265106 795.327820 347.144928
-479.920319 670.361755 388.059082
-514.764343 899.600220 280.947083
-596.103394 751.901123 300.203461
-591.767578 812.653137 269.465088
-545.605896 878.782776 280.943329
-671.255737 945.873169 265.619354
-649.931030 746.422607 254.632553
-472.016876 800.507385 340.210388
-727.385620 686.327209 201.490402
-454.677185 774.062866 369.783539
-684.583496 806.444885 213.983658
-585.074219 755.628235 298.830170
-510.055969 757.369141 342.183441
-620.435242 854.429138 236.959793
-630.193909 620.381042 304.415283
-599.133423 864.259155 246.262848
-552.527954 782.447021 311.034851
-501.481201 697.233276 355.506714
-641.625977 597.953247 297.820648
-673.792358 569.213257 304.468079
-561.890930 588.845398 365.681244
-738.455811 661.479919 222.601013
-762.412903 530.835449 278.946686
-445.007904 878.428345 343.250397
-615.318481 468.686615 359.751770
-443.553375 774.711853 338.337891
-505.481232 844.018799 289.894073
-725.866089 705.822144 248.470581
-496.422241 907.257324 301.010803
-671.496643 476.662445 326.203918
-584.697937 536.111145 354.158295
-511.501648 704.085022 361.194702
-565.022583 784.973389 286.090118
-530.595703 609.449524 362.283112
-578.693604 633.117249 328.187531
-476.656067 634.281372 405.181305
-510.879333 781.439941 335.191528
-605.133667 936.297668 242.411285
-494.442719 856.664185 317.749176
-710.912842 690.816467 269.040558
-576.896545 428.154572 397.361450
-572.302856 655.861938 325.460205
-419.809937 824.426575 373.690338
-441.220245 654.489990 419.600952
-412.647491 776.546753 362.755188
-477.223114 891.960266 313.233521
-685.575500 804.982300 213.219757
-596.387695 892.026733 229.871292
-659.208740 449.886322 339.708832
-709.855286 701.520691 189.869751
-613.027039 820.480469 269.189087
-473.126190 660.515381 386.332031
-394.260406 878.970032 362.812653
-623.003906 658.746155 293.952637
-665.580688 553.935425 299.052338
-424.218536 895.581665 346.942719
-453.145630 809.346985 354.094971
-605.815002 570.976685 343.917786
-492.203033 677.556702 371.043762
-528.529907 556.190552 377.562164
-660.675964 902.421875 254.074326
-453.778290 743.400391 364.976868
-597.013123 510.207214 360.982025
-642.974487 609.685425 316.828857
-442.742523 692.549194 391.503174
-502.552368 653.415283 364.491028
-507.266022 648.034241 357.338226
-532.429688 910.966858 284.285828
-518.996948 685.385376 354.305542
-487.185120 845.639709 318.032227
-633.494019 699.452026 262.029297
-603.222046 494.597137 356.005066
-468.047546 658.743469 383.335175
-547.510437 647.222778 340.534698
-481.653473 558.577576 401.713165
-510.197754 865.678528 290.195862
-443.363037 673.003174 389.705627
-426.279877 850.207703 350.655792
-485.686035 906.876160 309.149597
-515.023499 891.882507 297.970276
-718.224243 700.550232 195.843872
-643.838806 835.473145 258.971405
-700.939453 599.356812 286.166840
-580.140076 609.885681 334.128082
-471.000122 753.072021 370.891205
-512.160461 881.366089 304.328339
-716.120056 698.221863 260.084778
-553.135681 826.164063 290.660095
-477.150024 872.488892 313.689362
-616.261047 737.598633 260.446747
-566.032471 818.571777 282.353729
-634.451294 777.099670 255.594803
-711.588318 726.798523 199.050583
-602.648132 895.934265 241.310928
-470.892273 777.494080 348.575073
-676.555054 735.711304 235.697311
-581.961792 641.886108 306.039368
-598.238770 434.278656 387.511505
-625.076721 664.648376 288.597809
-439.620758 772.426208 363.914185
-578.500977 612.162354 329.222198
-679.782593 540.005310 310.422180
-512.007813 442.623047 436.062317
-562.954590 450.018188 411.083862
-604.056335 447.483307 372.869598
-691.318481 859.933228 228.224686
-577.364014 730.883118 312.559540
-543.637817 856.672302 272.614563
-553.648987 686.974915 325.001129
-536.633667 445.450012 429.370361
-590.332886 730.135254 298.747162
-547.203735 845.705444 264.626343
-715.355774 536.432922 264.704865
-597.979553 849.473694 267.753479
-680.628174 831.010559 222.803436
-479.497986 805.830505 344.655090
-520.917358 440.450256 438.266968
-630.274048 615.173706 315.941406
-524.056274 898.906677 287.738953
-669.644653 711.537354 264.200958
-587.378845 492.179016 363.455841
-512.486511 688.176575 365.490692
-463.803497 572.386963 429.949890
-586.050110 560.167419 359.620728
-723.668701 703.342041 228.481689
-416.937866 873.416016 349.633575
-480.110321 746.547913 361.180664
-669.457214 804.806885 256.735474
-782.423645 488.786865 285.312469
-596.986816 838.914307 253.080338
-435.166748 733.887207 379.732635
-563.015503 868.136475 271.997925
-520.171204 523.734131 398.456360
-534.866516 761.803406 294.237396
-546.748169 667.455566 321.945923
-408.430511 791.637024 378.172577
-654.241699 678.252625 268.063110
-666.385193 809.847595 247.060150
-600.892883 710.426147 309.259186
-609.759094 719.372986 268.867584
-593.157898 807.079529 277.404541
-537.967224 616.005920 358.542542
-695.030762 550.152710 295.436462
-751.262634 645.542908 218.289856
-640.398193 712.829712 282.209869
-777.234497 531.315796 278.304657
-557.175659 930.466248 256.738129
-344.789001 889.709106 376.037720
-525.161377 893.783081 289.286011
-515.272095 777.503052 335.867920
-505.499054 712.666260 348.910004
-528.121460 669.975769 341.097137
-739.815796 659.791321 227.373138
-449.898865 678.413452 387.157074
-534.791565 698.074036 338.106995
-402.441101 804.923584 379.150391
-689.375732 549.638306 295.867493
-592.399048 725.072510 303.251923
-566.561768 611.892334 344.281647
-628.258728 616.513123 309.069183
-632.451477 685.187134 295.057251
-491.087219 601.740540 398.242950
-712.809937 747.162781 205.166275
-427.151184 904.489075 343.231293
-538.982910 626.319946 365.802399
-567.616882 721.479614 312.669983
-504.575592 695.939453 367.365601
-451.979004 644.941101 394.257080
-434.999634 885.537048 342.628632
-483.522461 529.712769 422.210907
-632.953308 551.842041 320.167725
-494.939758 520.933594 410.297119
-656.586060 510.417297 310.322357
-669.317749 682.416260 270.258301
-520.784912 466.829498 419.611633
-408.236389 767.423035 381.706116
-688.335815 800.394775 197.579971
-581.678101 751.884216 287.416748
-415.890289 820.158813 363.975647
-472.376343 705.141968 383.981934
-696.484497 710.137817 231.193512
-590.555786 573.322449 330.897705
-442.440552 743.901062 370.306122
-671.530029 808.487061 177.621964
-444.379089 774.372253 358.261688
-624.320435 469.631256 346.379730
-511.456909 497.631958 402.758942
-533.575317 500.981293 408.313751
-397.931610 892.139587 370.449219
-646.955933 574.531311 310.502350
-689.409729 572.027161 301.159882
-690.609131 830.953491 228.628860
-521.427002 649.949463 356.221344
-724.125916 693.661072 230.635880
-605.620605 791.582581 250.650558
-522.293030 753.301636 334.007660
-425.623718 805.744080 376.309814
-683.400208 725.151428 236.270966
-737.692200 649.383484 269.562683
-612.418213 734.418152 289.535065
-685.907043 534.298035 313.639374
-591.353027 415.608002 387.702667
-510.564514 518.973938 418.192047
-485.071320 734.712646 367.277466
-523.203613 830.796753 295.132874
-511.216187 827.025024 323.990997
-516.894165 456.644531 435.167572
-616.241516 487.988953 350.509308
-643.646545 475.628754 337.094879
-383.608063 796.261597 383.301117
-529.370422 497.411407 400.779480
-511.657440 550.801941 401.516907
-407.236938 773.452271 380.070587
-721.723694 518.137939 297.298340
-492.845612 683.894165 372.923035
-475.211212 661.083862 372.234619
-701.077209 705.226013 225.239700
-682.767944 800.188171 226.240036
-692.900513 773.375671 233.220474
-547.731689 697.593994 328.374573
-453.247009 663.863098 397.223724
-528.207153 558.599670 390.698639
-724.638489 549.426697 277.810455
-424.995361 698.457886 410.902802
-615.354431 873.679749 233.872269
-652.051270 580.515320 289.429993
-460.600555 579.214539 416.580078
-513.670593 783.758667 303.695496
-468.447205 841.571289 330.413483
-423.554596 817.841614 368.728973
-657.446350 467.868042 327.722717
-430.902069 682.137878 403.198822
-696.987122 717.560974 186.460220
-605.098389 453.765228 365.466553
-600.702332 439.775208 372.827850
-430.570679 714.608398 386.698975
-494.989349 775.008911 344.225922
-541.937256 691.402405 339.452301
-433.011078 681.823120 390.485596
-471.873383 546.362122 424.885376
-543.149536 628.224670 365.921417
-594.482117 604.066101 340.957001
-573.639404 936.382324 225.844269
-515.023193 754.679321 328.773560
-643.728333 517.681274 333.084076
-456.296112 719.817505 385.859314
-709.062683 506.527191 285.783569
-493.474365 693.272034 361.081329
-610.576904 881.528748 255.497879
-466.122009 727.341370 350.069214
-421.021393 784.130249 383.076721
-570.858826 716.690979 309.274078
-478.373322 776.811951 356.472748
-489.285004 853.661255 330.487915
-615.046997 878.625244 254.200943
-429.865906 720.880371 393.990784
-405.144958 888.759766 363.626678
-683.684143 563.204041 276.209259
-673.256653 667.753845 259.527557
-753.434082 631.786072 273.231995
-527.666443 788.858459 316.029144
-651.912903 773.047241 265.619263
-509.609100 726.819580 343.396729
-408.748474 857.898926 351.413910
-626.362732 770.189758 273.760010
-684.720093 813.898865 228.545013
-743.670227 638.107056 215.767303
-602.686218 725.047852 299.212738
-556.978149 580.690857 368.889771
-628.288940 701.524231 274.763397
-684.187378 461.889709 341.283722
-624.732849 970.840820 254.759323
-687.125610 639.858032 277.771942
-555.627686 742.073181 308.092987
-685.298340 745.337646 167.997696
-673.015259 589.318726 276.072510
-648.066833 488.539520 340.042786
-583.236572 805.805725 283.084930
-577.818542 909.980774 253.660934
-653.638306 655.249084 274.418915
-685.078064 884.016541 253.047455
-477.483978 630.537476 376.380829
-732.430847 676.961243 244.462708
-472.947449 765.377380 362.740662
-478.783783 907.928650 312.768829
-558.291077 850.371826 278.234924
-584.831543 789.091370 288.599884
-763.483887 616.479248 269.898193
-494.117310 548.710266 420.804169
-551.551636 577.408142 379.214844
-619.649048 512.526733 347.628906
-593.886719 619.716370 336.521606
-474.649109 597.824585 369.663940
-570.843689 725.721558 311.300354
-495.578888 881.314819 318.293488
-490.929321 520.393494 410.761566
-556.739685 670.412659 331.923920
-431.915375 752.187317 381.046356
-610.779846 465.612122 371.011902
-685.321533 796.767517 204.423813
-365.276642 852.893066 396.216919
-540.455261 945.194519 274.750763
-428.531586 801.048767 374.159882
-650.048828 665.437134 285.895172
-581.969055 708.031250 286.944061
-545.529907 534.853149 387.996674
-498.968109 514.131042 417.591034
-526.213989 720.179382 336.464539
-623.869080 542.351990 347.953918
-583.841125 546.730957 357.573273
-420.370087 672.572632 394.926422
-375.352570 825.694885 363.356110
-740.304688 663.822266 210.924728
-667.131287 549.275513 299.650116
-540.327942 894.782471 279.463867
-512.221191 539.478882 391.597290
-561.670227 896.360840 267.005249
-510.632599 935.381104 287.539978
-643.732117 592.584045 292.099243
-527.568604 558.689941 395.968781
-575.246399 624.049255 332.287018
-654.222595 695.050354 262.972992
-472.454498 619.430115 392.072144
-483.382355 805.057312 333.057465
-601.775330 463.476349 376.428864
-609.287170 911.661621 245.594101
-402.589478 788.338501 377.152893
-644.145203 768.502930 250.933167
-526.814575 637.626343 355.199188
-720.021057 685.509644 223.213730
-695.286133 770.283630 205.787018
-660.595276 593.221619 304.881165
-488.713501 740.146484 356.342072
-743.596985 641.591431 239.347946
-690.000305 755.799622 230.104019
-596.877258 691.076477 295.257416
-685.608643 781.438232 199.185883
-679.526062 732.154663 162.410202
-473.161499 768.626587 362.369385
-415.644806 745.977478 384.595062
-456.243591 748.704773 339.011322
-593.560364 774.265015 288.750702
-692.076111 727.621399 245.630600
-410.982544 777.590393 375.734741
-587.381348 927.056702 250.340271
-774.083313 489.918793 281.051270
-643.471985 515.730347 314.584167
-490.344666 800.527527 345.605530
-686.211182 881.563293 258.461182
-428.980713 835.058899 361.898468
-504.915863 513.699402 407.013885
-743.821350 644.643066 251.878799
-710.786682 596.001892 263.305237
-646.961060 479.932953 348.892700
-405.906738 863.064514 362.575745
-565.418823 598.751343 350.720367
-360.310791 856.637695 380.006775
-398.119507 900.032715 343.310394
-681.424927 529.669556 306.584869
-700.668396 706.447083 238.712418
-464.124512 642.670776 391.029205
-559.139343 897.334961 263.075470
-427.239441 753.295959 386.342651
-696.415588 895.653870 255.482086
-471.262604 597.511230 398.129822
-599.933044 504.167694 374.875702
-470.905518 815.007202 343.693481
-472.395905 526.512451 389.751770
-616.913330 573.127136 339.089355
-486.170441 581.942139 400.047668
-399.390381 888.202637 369.193878
-656.899170 546.277222 313.947876
-689.248779 811.394653 196.541611
-659.956482 702.679932 278.958374
-701.931580 712.117859 207.148483
-581.982788 773.774353 295.405945
-502.833679 799.954407 328.173431
-759.247986 584.121277 274.262329
-679.013123 784.567261 210.929260
-664.241760 748.780457 265.109924
-605.125000 614.342407 318.009491
-671.616333 925.271790 254.839020
-465.660278 737.982483 347.161163
-540.763000 880.621948 282.151764
-522.211670 904.279175 295.293976
-540.947144 456.183167 404.068604
-608.348511 642.223511 314.394043
-684.249146 823.443726 210.896561
-509.435883 660.660461 378.114227
-780.793396 530.864502 288.037598
-494.699463 880.914917 313.378448
-514.207764 858.987915 315.079071
-557.113464 566.936401 359.503265
-527.525146 635.894348 362.315979
-442.381012 759.429016 381.636932
-653.193726 753.642944 252.981598
-613.194702 711.772888 297.048309
-618.912354 819.612305 248.165543
-456.194458 900.104431 325.898590
-637.982849 784.232971 263.506653
-644.016663 521.225281 322.980743
-376.540039 821.133667 388.884216
-524.027527 622.650513 380.612671
-601.512939 544.263245 355.577484
-726.465454 685.202271 226.526138
-452.776001 884.762878 304.329742
-511.527344 615.671570 362.085419
-483.747986 856.151367 323.760712
-455.986664 698.694885 384.451660
-545.412659 836.748169 295.225555
-644.832275 637.403992 290.263641
-613.011475 813.277344 269.634949
-582.762146 512.510132 359.987427
-460.124969 598.417908 411.855377
-565.794495 908.717041 260.560059
-630.576843 553.084473 342.560089
-599.924377 800.391663 282.506561
-619.856201 903.930908 239.214325
-659.057678 481.184723 314.061401
-599.006104 883.740112 250.439987
-513.908264 798.318054 329.233582
-527.377502 494.583801 397.463806
-554.803650 470.972412 397.431763
-432.746765 752.946533 370.791473
-478.534882 670.217285 389.920441
-474.895630 828.097229 338.419220
-496.622253 805.736023 331.803314
-552.124695 503.769531 379.136871
-439.283691 693.024963 410.742004
-506.249664 526.137451 400.985687
-457.296722 807.547607 346.121979
-392.751556 807.522827 390.317322
-390.158722 785.976624 384.692017
-615.818604 639.445190 309.731598
-659.741272 674.305603 264.775757
-528.813599 913.185974 277.918518
-416.139862 812.535522 342.686035
-538.071533 437.377014 410.333252
-539.521240 702.702515 342.494263
-417.334961 819.967651 371.340271
-617.135864 732.768860 289.392578
-505.920135 838.508240 317.537903
-577.708252 544.068726 355.059296
-702.049377 759.385742 194.450974
-633.409973 705.547241 276.516510
-663.464294 807.168152 177.477432
-536.125488 675.187073 355.148651
-523.174011 715.744202 316.982697
-646.648499 483.227509 321.419647
-619.144226 737.007568 278.627014
-384.079010 885.273071 366.538971
-449.139984 897.364014 334.112671
-441.796692 840.421082 356.277649
-490.359161 658.294006 387.060089
-417.347137 816.082520 340.805786
-437.484192 865.167847 338.020508
-735.407288 666.232300 215.980545
-705.756104 565.213074 261.934662
-572.046692 752.130554 313.934448
-437.059540 687.224426 395.414429
-513.979614 546.222473 406.802368
-464.919098 893.619324 306.623657
-615.400818 718.415771 293.605347
-512.456726 445.413788 426.458405
-762.873779 574.063599 282.279297
-644.177185 576.544983 325.220734
-616.375122 595.360046 307.764709
-620.336670 805.123596 259.209808
-743.953796 539.168152 283.650208
-484.388092 747.199524 329.601929
-732.506226 666.709839 203.492874
-605.928772 555.463257 349.005493
-535.118896 818.391907 302.343475
-475.031555 659.836121 382.158722
-707.515503 710.798706 264.501160
-539.346802 772.085571 311.033081
-601.099792 454.545654 354.104462
-579.364258 863.742432 274.946564
-459.023346 622.000793 405.637482
-611.627991 432.516663 363.624664
-664.217163 785.013489 251.630722
-517.732544 755.013062 338.676300
-655.002136 593.144897 309.389282
-563.578674 603.287170 363.551025
-556.793823 726.995483 328.753113
-384.884827 874.815247 370.019226
-508.338501 644.899231 370.012604
-701.531250 691.382202 176.726471
-520.824402 698.719238 360.010345
-676.575500 556.725281 297.588257
-713.274902 489.799530 289.211792
-470.042877 847.754272 336.036377
-614.667908 805.716736 259.972260
-580.879395 581.307556 347.972504
-533.571960 774.618591 326.757080
-645.813782 624.741760 297.624878
-695.323975 765.634521 213.196686
-652.862732 664.490479 288.776428
-684.203735 750.912109 172.953476
-580.322815 524.162231 360.602173
-637.533997 533.689697 312.917389
-608.422058 816.318787 268.651398
-652.054016 835.382141 244.866333
-574.434082 581.607849 361.677124
-460.592285 778.634827 353.906616
-547.884155 762.544739 319.238678
-487.507904 570.081970 423.853760
-442.995270 623.538208 410.452209
-676.622009 631.470947 269.285797
-474.714111 689.937134 372.320313
-686.740173 485.204529 293.954224
-424.897186 839.266113 336.848236
-635.584045 541.999817 327.144714
-680.207275 700.272217 253.285065
-616.304260 543.281921 347.029388
-598.843811 803.403381 268.562500
-657.676636 618.112793 287.011688
-521.909729 598.838806 376.137268
-607.066101 791.291992 281.018219
-544.693604 712.749573 327.949402
-478.474915 763.545349 328.077484
-528.059143 881.196838 299.471985
-370.285126 884.737610 380.512848
-682.919250 550.212891 309.537384
-553.678833 667.580872 334.752441
-604.784302 651.774475 306.848358
-572.473328 838.169800 279.774200
-531.761047 618.445862 377.653778
-422.266205 744.554016 381.800964
-557.052734 701.052979 320.779205
-488.423767 611.184448 401.486176
-727.805237 531.600098 285.222473
-555.280151 525.115417 372.837860
-415.007721 881.364258 356.204437
-614.329651 818.386719 269.747955
-595.279968 477.496063 362.274261
-535.543213 550.607056 397.351746
-556.376709 698.013123 305.964539
-530.499512 448.647614 429.754547
-613.106323 811.492432 270.909332
-397.918457 828.457886 366.363495
-733.487610 480.793976 291.886871
-473.030762 821.598572 341.159668
-507.115234 727.593933 352.527191
-574.380798 859.219055 273.503571
-456.247406 727.042114 388.169281
-502.192291 707.654236 354.105621
-712.080322 664.229858 182.648407
-582.851318 604.850952 351.504181
-515.836609 881.015808 298.297699
-689.305725 792.023376 225.565369
-488.318787 718.528198 358.289337
-400.132935 884.271606 369.081146
-581.671387 780.979126 293.557678
-775.593689 612.152893 277.911285
-434.580750 786.391602 359.042267
-423.187164 864.931641 337.612366
-603.496399 462.942963 383.872101
-712.783875 583.418457 265.222076
-709.707275 682.099243 248.310501
-801.403503 488.887512 297.196136
-722.700867 504.419312 298.313202
-431.576874 860.474365 324.261017
-466.604980 905.510925 313.096436
-584.446167 657.837097 299.955353
-366.006195 854.964294 377.207214
-529.420654 661.913086 342.289337
-671.512146 793.441956 176.693298
-591.586609 617.903992 319.997284
-542.577881 884.606506 269.194000
-480.331879 802.390747 346.552826
-716.128418 709.730042 212.200516
-749.448120 572.282776 269.996796
-670.381470 716.438232 259.847107
-501.807404 804.337402 315.832642
-679.462952 501.446167 317.452332
-628.917847 601.823608 321.408386
-545.842346 815.091553 272.956146
-562.953308 837.510559 282.300781
-719.208496 697.604858 249.525726
-703.502930 638.296692 267.689941
-729.907837 665.134338 242.239532
-684.068237 470.313293 338.434784
-689.992859 731.615173 189.467682
-585.308105 443.089325 365.135345
-577.128784 824.972900 275.446442
-666.927917 607.369934 283.012238
-447.968994 668.716431 393.510773
-494.682129 575.580933 408.145447
-598.101624 534.643005 359.432434
-591.714722 496.626434 374.642853
-556.179871 664.629883 350.182556
-503.927185 760.712219 347.598389
-490.387726 632.791626 361.037018
-585.911987 567.493042 349.585510
-689.834167 493.201172 319.036774
-719.231750 568.576904 265.793427
-599.697388 552.817139 341.619232
-449.793304 729.458618 390.442200
-458.447144 764.617371 370.852234
-601.877075 481.921997 379.495300
-508.589630 490.053345 400.604004
-364.437195 817.077087 380.865021
-462.434601 595.311584 405.665619
-529.848022 688.432861 343.526184
-470.968201 605.832458 403.788055
-404.968842 851.739136 333.936584
-410.910706 886.374023 320.592834
-677.490601 798.897827 237.298950
-569.371826 530.149963 383.844604
-797.431641 475.088928 294.809265
-618.041687 543.791321 319.862213
-607.071106 530.798523 342.989929
-706.763184 495.574493 312.523621
-710.055969 712.723633 195.688187
-657.099365 640.711853 273.878479
-391.235138 883.339111 348.206299
-656.875122 689.075867 277.771576
-439.323700 728.862732 383.796906
-698.852234 819.381287 235.004379
-590.989197 842.106445 256.777252
-488.250214 883.040344 316.641602
-720.524963 502.207794 302.851654
-600.586975 643.945618 325.803558
-475.952759 725.141418 376.768158
-611.487122 779.471985 257.525635
-452.261719 706.272400 354.637756
-624.692627 577.129089 318.998657
-530.956970 414.291656 420.543610
-391.545685 795.598877 393.869873
-565.514648 920.505310 262.497620
-553.201050 574.148682 362.238800
-551.250183 495.948090 396.211884
-773.451355 637.687378 265.197296
-497.274231 667.625305 370.688354
-407.330841 782.354553 394.317047
-658.781494 847.714172 254.097275
-575.139954 564.652344 349.758270
-607.386230 642.124817 327.820465
-660.815613 610.619812 306.210785
-629.603577 935.621338 236.929474
-627.054443 623.465393 322.168304
-397.180389 817.267029 359.893951
-608.377197 603.494324 322.227173
-682.976868 458.228973 339.278961
-565.325073 692.036255 332.756287
-612.561157 612.682434 317.289856
-686.311401 611.938293 280.387665
-515.440002 730.864258 342.522125
-552.556213 623.505188 330.223755
-571.060120 652.217163 324.606628
-672.727112 693.682922 250.492386
-604.597656 442.876862 372.687408
-499.201355 606.468018 384.987915
-615.940918 717.240662 284.342377
-707.592346 714.675903 245.455933
-670.377258 518.015869 323.668793
-696.206299 681.218140 159.199524
-433.783813 737.279358 375.111969
-636.218567 443.868134 345.548523
-779.108521 487.694550 290.759949
-668.027344 775.963440 168.223099
-719.004333 699.129822 241.322403
-410.317261 714.160828 403.600891
-422.836456 769.197205 380.923950
-508.118530 900.377380 270.897095
-718.166687 590.930420 264.678619
-576.482605 839.491699 250.800583
-560.447693 659.786743 337.738953
-502.005707 695.006165 351.688385
-588.820557 836.810913 272.635712
-478.319519 571.678345 399.527832
-624.813171 827.757019 239.438431
-721.470581 608.412842 267.696289
-417.196899 737.545837 394.123840
-643.627502 692.588135 286.995667
-661.920288 510.237488 314.117065
-505.824219 661.157593 365.092072
-433.680847 685.725098 383.512207
-521.189575 675.204346 325.680664
-515.413818 920.995789 284.572693
-691.035278 768.588745 195.154678
-551.678772 476.973969 405.425201
-363.510620 852.868530 402.804352
-473.344086 907.202271 316.015686
-503.970306 768.873413 329.914703
-700.023071 506.102570 300.061798
-548.630676 941.687622 268.568542
-587.501160 621.840881 326.071930
-454.997284 892.559753 312.819824
-694.396912 771.059692 228.890015
-374.509979 793.127625 390.256226
-565.410217 755.574036 283.010345
-506.490387 903.234436 297.939545
-663.861633 808.248657 254.211136
-539.208069 699.711792 335.092163
-597.369324 543.726257 343.552612
-597.596313 532.217346 367.061249
-636.958618 580.032593 322.192017
-652.238098 597.617126 286.149933
-609.230286 603.324829 332.022583
-752.329163 565.021362 280.747070
-593.332458 780.943237 286.503998
-738.703308 473.214508 316.313507
-594.431885 873.715454 262.769073
-396.051300 881.409668 368.286835
-562.345520 649.299988 315.567993
-358.493683 851.067627 394.807648
-583.948364 504.731873 379.760406
-628.883972 615.123657 286.766754
-554.535400 457.905731 413.562744
-425.066040 841.138611 327.627686
-517.595581 704.860413 343.653656
-545.750061 673.918701 320.448242
-465.127899 792.549500 346.682556
-480.650574 803.222412 338.722839
-459.527679 776.635559 370.123779
-412.317291 894.396423 333.999329
-734.223511 668.095642 235.488022
-666.388672 595.999084 286.669983
-619.681458 767.596436 266.924866
-593.561279 525.948242 351.896210
-441.633484 698.995667 405.761261
-507.843414 537.919556 394.052795
-498.473114 634.861389 375.872223
-587.262756 822.984497 279.649872
-628.588745 459.828186 345.711853
-469.997437 590.369507 398.459625
-655.037964 495.521790 322.631042
-572.409302 427.615540 386.005157
-527.870667 704.716370 337.388947
-551.543701 592.788513 354.909454
-690.434998 756.279419 171.148560
-601.637878 736.685913 279.826447
-400.456421 736.841248 404.051300
-728.098999 668.745789 189.055069
-609.796753 716.029846 285.841980
-571.359802 633.509033 332.070404
-448.564606 636.113281 398.693329
-601.544617 530.978210 345.315338
-482.667175 803.415039 344.433990
-537.994141 889.582947 278.422516
-574.543884 796.723083 293.509918
-702.408020 712.373596 164.558090
-461.384155 881.804077 312.153015
-537.102417 621.396179 340.036591
-476.963715 800.194458 337.832489
-711.162231 727.658997 208.599197
-450.701996 697.644714 393.836975
-670.164795 558.061646 309.452271
-611.388184 937.930847 253.800903
-555.940857 900.643250 268.403809
-347.317932 870.300842 386.928192
-601.010803 729.663696 297.381012
-516.757874 539.466492 358.907654
-657.915894 531.325378 319.187988
-604.463013 797.114380 268.718597
-677.006714 807.562012 184.373840
-657.081604 572.041992 304.271942
-366.155792 880.331726 396.262970
-615.736328 764.283447 278.920380
-607.681152 437.141479 387.225464
-669.977600 534.875732 323.530426
-526.425537 504.957062 394.280701
-766.759827 541.815613 272.025543
-601.990601 764.825195 269.640076
-488.233917 644.618347 368.422577
-553.126282 865.908142 283.820953
-444.701843 835.375488 336.378326
-366.178833 841.192566 384.784210
-650.240234 937.720703 256.567902
-610.849182 434.116608 369.271881
-433.919861 732.509399 396.078888
-605.993774 767.405884 283.997742
-514.970337 807.850281 313.595673
-498.394165 475.396729 425.844788
-543.253052 748.862122 314.893066
-750.016663 647.981140 255.305511
-708.765747 715.632996 176.144241
-631.133850 741.895142 277.604736
-548.445496 591.963257 363.628204
-607.911377 837.444031 254.636841
-611.008057 790.552795 275.028717
-475.814972 921.474426 306.029114
-506.877411 486.850616 417.095581
-449.365845 750.924255 384.348999
-451.044250 775.620544 361.986694
-586.588257 487.862549 374.541962
-663.522705 639.987793 275.130157
-711.329346 708.652466 224.697891
-685.390381 553.685425 277.174713
-502.060303 528.702148 400.467407
-407.632721 872.334351 359.452637
-516.151855 536.831665 382.989990
-535.667664 540.145996 400.459930
-665.466064 462.607452 315.898682
-593.557251 833.666077 266.492493
-371.787109 859.116333 384.084991
-625.473022 714.838806 287.269806
-574.226624 701.291382 312.032532
-365.523285 823.870789 402.303680
-764.785461 587.243225 282.802643
-606.926147 884.281555 242.549408
-687.092957 541.050781 312.094971
-466.637482 753.588684 372.547668
-491.672943 843.995056 327.637909
-507.009186 541.359863 405.929138
-517.520203 822.823425 319.236633
-524.277405 763.015625 327.837463
-685.508911 826.185547 197.885666
-555.240173 743.889343 321.489807
-636.598145 672.909973 295.304077
-450.776367 759.639465 380.245117
-414.811188 763.004211 399.912811
-534.293701 524.223511 384.756195
-667.516418 789.169617 252.903671
-655.055969 460.398285 346.908875
-625.211609 511.840302 337.207001
-437.607635 722.703369 386.432434
-599.323669 667.163757 319.768372
-635.645081 786.374329 260.697266
-412.692749 801.757202 348.370880
-579.702637 604.695251 349.640411
-440.792145 780.701782 369.067596
-539.073547 795.720703 305.106567
-500.467773 553.807800 382.592651
-470.382355 559.547607 413.044495
-579.686890 472.864807 362.296692
-643.693909 690.372498 273.788116
-705.087341 730.526062 227.156570
-491.698761 583.240051 374.732056
-516.239197 561.012207 385.966125
-550.679077 834.526917 282.202087
-730.043457 506.278870 295.534637
-670.538086 477.321075 319.885803
-701.553040 765.057983 207.244690
-383.713745 880.192017 368.053680
-691.083679 770.720215 177.445862
-675.164795 789.697083 243.107178
-640.538574 577.044434 309.007935
-431.370026 689.567017 399.560791
-621.341125 624.580444 304.444244
-466.040009 702.016663 374.485626
-670.871460 661.315186 276.902863
-548.008240 702.945923 328.950439
-652.846680 520.006409 326.988617
-487.822876 493.197083 406.289795
-582.898376 884.748657 258.472046
-570.098083 799.675537 286.467102
-650.907166 633.057678 283.602448
-562.961182 533.365295 386.597778
-447.989624 756.126221 341.671509
-393.417969 877.701477 364.959839
-667.453247 942.614502 262.678070
-513.559998 621.692749 373.704773
-528.900757 781.718079 291.338898
-467.156616 893.747070 325.724091
-383.066681 801.875549 394.858704
-573.773560 939.205933 249.568283
-640.981750 765.264160 266.161743
-689.931519 535.201538 300.290100
-685.280029 720.452759 267.926514
-615.919250 528.933105 335.842407
-461.592896 698.981201 382.709534
-476.097198 876.484924 325.515594
-685.729126 776.076172 210.107452
-505.111877 663.908020 354.984924
-685.229004 597.454590 266.568848
-503.927155 571.281372 393.731445
-695.595398 552.966492 288.829163
-600.485901 848.127563 267.504608
-527.487793 772.018677 317.581604
-554.927368 887.162537 248.157135
-600.379089 975.435852 246.468216
-505.248444 772.510803 345.425385
-456.776886 721.002075 372.535706
-490.177246 703.894287 340.703827
-630.173523 610.821411 324.107269
-707.467102 774.644531 238.109070
-580.055176 430.987457 378.821014
-607.614868 908.536011 244.546921
-508.909241 577.677979 372.240601
-372.451416 832.644958 382.497437
-694.145264 503.225708 282.284424
-582.454895 872.561157 261.792114
-657.086731 900.927917 243.413712
-703.489441 515.175354 306.476532
-544.439575 457.111420 395.894714
-682.472595 819.388672 212.462875
-654.643250 693.974548 277.709503
-745.650757 633.412170 227.814728
-692.453491 553.682190 297.690460
-404.426270 734.926636 409.453125
-740.661011 648.560303 219.984436
-443.950348 697.601074 398.595215
-440.966217 716.672058 387.021973
-504.153839 879.498352 295.797852
-551.701294 792.702271 306.570587
-430.699982 806.750732 370.369965
-594.221313 823.068359 279.120270
-526.982666 401.428802 429.930054
-465.222748 702.851257 377.413330
-718.942749 718.954895 206.986237
-392.029053 749.298645 376.542267
-533.845337 672.922607 360.807312
-433.841339 859.213562 354.014465
-778.969666 612.767883 270.698730
-401.513916 877.262756 364.968353
-486.544312 829.987122 336.865051
-577.475464 931.742493 241.799423
-668.298096 741.299377 262.274872
-713.600891 529.840393 299.087280
-683.447327 547.221680 276.846130
-605.385864 952.312866 249.379105
-709.252197 722.787292 209.356476
-530.104919 579.765991 388.633636
-470.103821 745.863037 359.470032
-680.025574 500.373199 285.365570
-680.909241 499.575745 327.362671
-704.450745 757.989624 226.961349
-526.461548 557.768494 395.675079
-634.283630 697.309998 276.806122
-701.658020 644.464050 265.651184
-662.830811 743.947998 261.445709
-703.239746 743.652100 232.555389
-447.013916 808.617798 351.676544
-586.381836 821.765869 269.573456
-494.867767 762.017761 349.011353
-538.407654 924.691589 269.777374
-377.338684 833.177307 394.188690
-383.080505 852.075684 380.889923
-602.255859 648.577209 311.915527
-624.162964 593.911377 312.796539
-543.330139 501.998657 390.676025
-537.406311 669.512695 343.807343
-466.051575 868.911804 338.161743
-486.484802 881.652954 286.239227
-410.052490 873.962646 354.962219
-459.672089 596.725159 397.988464
-516.655640 548.189331 388.885803
-628.412109 692.879517 284.991699
-571.500122 873.700439 246.507874
-517.669617 466.149292 415.663635
-456.480743 840.332214 342.653076
-621.148376 686.417969 301.601044
-516.408020 650.188416 376.415833
-661.987427 880.639587 250.597565
-599.112427 596.400818 329.294434
-659.683716 690.200867 268.224121
-615.306335 671.265198 299.899750
-742.212708 657.898865 240.219086
-466.739105 775.745483 351.609863
-489.534393 704.241394 364.037323
-661.254395 934.015747 253.380142
-542.758362 644.466187 364.424744
-569.872192 576.241821 344.748474
-436.246277 700.343262 388.444763
-714.584778 484.457306 300.770721
-701.048706 784.068176 212.829315
-460.427521 643.639404 400.707886
-459.763123 851.061157 342.697754
-564.296021 900.928589 251.367249
-551.479553 520.667053 381.193604
-689.951843 884.309265 249.874985
-482.186859 581.881409 394.040161
-565.106750 881.776489 278.386505
-749.133423 485.152039 293.143036
-432.570251 818.967041 368.332489
-619.641235 516.502502 347.539154
-431.100677 871.853149 349.023163
-685.913391 534.458923 278.931519
-508.018951 876.333618 304.166260
-779.542847 505.689392 260.792145
-696.538330 804.487854 234.352219
-448.000793 885.959656 328.176971
-410.470245 858.266174 341.029907
-680.740967 797.528809 171.203491
-443.097015 664.918091 399.394836
-505.986908 656.088928 356.071777
-530.497498 650.404175 367.410156
-469.009460 709.766663 375.360535
-542.705994 483.959015 403.977020
-609.531250 715.188354 291.826111
-504.474579 799.203125 325.946564
-597.806946 745.550171 285.158447
-575.638855 629.619324 347.426819
-642.565186 447.002899 330.135132
-422.476166 870.752136 349.216187
-422.177917 765.844604 382.577362
-555.692383 830.029724 293.488098
-610.326904 559.734802 350.400269
-465.449188 748.321045 344.279938
-392.241638 838.647400 378.949554
-457.837219 922.982544 321.572845
-715.189270 719.934692 192.104462
-716.869507 502.472626 297.159027
-445.426422 673.107422 405.167358
-678.328064 844.228394 232.384613
-533.433105 716.501831 336.280273
-387.086487 827.044067 391.468719
-470.568573 795.367676 342.567841
-485.357391 821.786804 336.500885
-536.642456 779.858826 311.681671
-501.595764 787.460632 328.339661
-385.956299 785.970032 398.373718
-400.177216 867.565125 363.184814
-620.996948 859.550232 262.579498
-386.479828 834.921265 370.437683
-608.671326 833.814758 256.067963
-600.685791 687.122925 312.075012
-693.412598 546.121094 283.380890
-532.782776 739.902100 326.625092
-692.992737 767.488831 181.968262
-608.620789 725.599365 288.378601
-693.732544 709.003479 262.643250
-582.358643 443.049103 391.193634
-435.995087 813.492126 363.353333
-579.624939 473.503906 388.279144
-655.814697 769.803162 256.040314
-384.209442 849.183533 380.750000
-486.931702 790.786377 344.946045
-699.434265 735.012207 167.713074
-686.483704 531.848755 290.469971
-645.364685 817.734314 247.257050
-659.366394 660.790344 290.546234
-495.026459 860.957642 318.633850
-520.423767 777.823120 330.124939
-607.550049 903.782227 243.367996
-603.294861 557.138977 341.530609
-681.330383 475.064606 313.386139
-420.807800 749.514771 393.405518
-629.616150 713.017578 270.119354
-540.254333 668.173645 339.856537
-418.173248 704.805176 398.134277
-481.116730 825.757813 335.316742
-420.775909 898.754028 328.100647
-430.116913 762.594604 382.906342
-476.902985 888.055786 324.313202
-620.286682 635.168701 319.749542
-552.765869 719.146179 315.523346
-699.894470 693.403809 163.241211
-665.550720 586.918335 274.442963
-694.365662 761.492737 188.605209
-607.175171 708.437073 294.716431
-388.178711 783.419312 397.692993
-475.579773 513.856750 405.003540
-682.216858 494.787354 328.053345
-515.332336 536.901123 397.116455
-465.349976 692.603271 389.630066
-604.886414 702.574219 292.786255
-418.665070 802.105347 379.453644
-430.026245 859.047607 358.321289
-545.256042 576.878784 379.648315
-683.065613 495.861725 321.007538
-689.459534 787.192383 182.027390
-547.067749 815.451660 295.918793
-546.839722 417.540588 393.114868
-390.732056 859.249329 374.568420
-405.861725 773.399841 391.673370
-655.083801 750.730896 263.469727
-594.315979 723.917969 310.633453
-658.974854 639.217224 283.899414
-510.663849 486.851685 411.164001
-740.237610 480.462128 290.828918
-588.933167 669.840698 311.579346
-608.476318 850.809021 262.079681
-410.066864 851.764587 358.900513
-551.925110 730.430603 323.809204
-409.999786 876.668152 355.463165
-506.681641 729.566040 355.697449
-400.484772 873.255493 368.014526
-570.908875 750.797302 313.875519
-517.182617 533.823669 409.373108
-736.167664 684.969910 215.715500
-418.440735 851.132202 344.626312
-560.974854 680.346680 328.574249
-570.182251 420.538269 416.604828
-656.800354 510.723602 319.072754
-456.057434 589.739319 420.505463
-578.729309 560.505310 349.146484
-500.338654 681.609802 376.872772
-494.475159 928.952271 299.884521
-555.639954 537.052612 371.853424
-643.377502 806.703857 252.765564
-665.522949 832.654724 241.764450
-459.819275 613.706970 406.705963
-524.023132 645.164185 354.493408
-665.972595 640.765015 286.630157
-621.843445 437.784027 360.280304
-515.948303 921.606140 279.522034
-532.579712 864.567749 303.293030
-566.040588 726.523621 312.205261
-654.254822 684.304321 266.612274
-432.070190 866.351685 342.281799
-554.193848 683.403198 345.774841
-718.041504 539.503479 268.560608
-584.019714 513.365845 361.457550
-528.101685 560.548523 366.098633
-591.941040 610.741211 329.791565
-603.966125 475.574036 364.577820
-693.420288 780.162231 173.765717
-595.705078 958.129700 241.589142
-542.682129 488.843353 393.087128
-401.927643 824.289246 369.155090
-686.303528 780.466797 171.474121
-718.350586 629.411072 263.035706
-418.927063 879.064819 349.104340
-673.691101 592.174072 301.880554
-540.369751 614.978088 346.683136
-442.323700 803.311584 368.138306
-506.939850 673.418213 361.719391
-382.376068 810.926453 397.087158
-608.184204 492.684296 374.286743
-685.187073 620.411377 268.419922
-472.637451 855.661865 323.002411
-513.088379 502.058105 399.857086
-585.999573 500.416260 352.926025
-679.461731 454.077545 337.964874
-778.653320 546.616394 287.337982
-725.331909 691.467590 202.997421
-561.917297 594.608521 365.113922
-548.663574 936.971802 264.767029
-569.529480 759.855835 307.479950
-574.137817 857.858948 279.609100
-430.714996 700.264648 392.372803
-575.639160 863.054199 264.502319
-680.353333 812.744507 196.230377
-617.589355 763.443787 284.205231
-585.568542 644.184937 314.099670
-658.571106 538.812683 324.511597
-521.821594 458.139343 422.373077
-424.406403 710.624207 391.858246
-413.204803 827.548889 368.458923
-436.441498 848.101257 354.278168
-564.837036 751.000549 311.313263
-651.101013 739.119202 256.016632
-579.602600 867.898682 266.763397
-441.156738 671.729248 408.104828
-597.507935 632.375977 316.879639
-700.393555 664.396240 272.347443
-391.520477 840.232056 385.156250
-618.717957 752.939575 254.642105
-614.726563 543.367004 333.283173
-438.503296 796.211426 365.424316
-616.908813 918.626892 249.837814
-605.107361 840.921387 265.428497
-489.632568 895.265503 309.861389
-486.317352 899.167053 309.507263
-501.235779 885.191650 298.787994
-492.653320 761.546204 335.453888
-506.360626 624.749268 383.421021
-486.141876 712.634338 374.017517
-702.104126 537.985168 283.474243
-686.089966 816.385315 221.962067
-668.370789 559.059570 297.234253
-450.641388 772.152405 358.233643
-469.788788 580.567505 407.255524
-610.203979 718.767212 302.934387
-417.995300 763.734009 385.088837
-526.859314 610.382019 380.343353
-451.372253 697.986206 400.336761
-567.282288 892.056396 265.530518
-611.772217 566.764099 331.240112
-641.744202 493.347290 332.579071
-623.600464 900.381958 243.734009
-690.279602 574.191223 292.202179
-413.549347 838.820557 369.327881
-612.117859 587.755859 340.207764
-572.413757 576.883057 338.140167
-455.642517 814.318176 358.049347
-420.398712 894.567810 347.638580
-578.485168 593.490784 333.324646
-482.530701 803.017334 334.041473
-539.624573 768.807922 321.797272
-610.306641 790.823364 274.690887
-661.187378 785.357239 157.795822
-455.004974 777.457092 366.078705
-675.116028 624.186890 270.191376
-451.160461 728.053650 378.911865
-406.587830 726.623291 415.658508
-778.994812 621.804626 260.809692
-570.828064 554.978760 368.697510
-686.039307 841.047729 219.814758
-470.132141 595.103638 406.151215
-666.091614 671.460754 273.716003
-530.177429 914.850281 285.749084
-509.422150 807.461670 328.893372
-648.163940 434.037811 362.576874
-382.806763 863.255859 382.043121
-627.436157 780.400208 260.840057
-674.025696 824.451721 257.731110
-550.093262 769.127136 314.741547
-572.806458 680.979675 333.702362
-616.463989 584.542053 311.683685
-685.810303 804.096558 223.697052
-519.653625 811.589844 316.590424
-597.940430 601.929504 331.264954
-449.002747 729.380188 374.587250
-430.873291 715.249329 398.902161
-676.255310 845.902344 242.079361
-420.357147 840.469849 370.167328
-730.554321 692.790283 199.586685
-717.319031 723.141113 200.458710
-376.215393 876.491211 374.196869
-379.649750 833.974976 377.853638
-592.556213 572.584167 357.422241
-518.699646 795.036621 326.565155
-586.836182 695.188843 305.722809
-690.145935 699.465515 269.916077
-603.536377 646.017090 325.758331
-656.882385 641.240112 281.121155
-503.687317 714.427002 354.202972
-615.296631 485.806793 370.789490
-433.028015 665.688660 418.231781
-610.589722 774.314697 266.644226
-603.711731 630.206604 319.670288
-627.568237 635.681885 301.598541
-369.934387 851.145325 377.299347
-557.352661 416.622803 423.217133
-448.756500 787.065063 351.023193
-505.603546 694.117004 354.221466
-685.763489 837.363953 216.163528
-577.981079 790.967407 265.458710
-438.623901 877.948242 346.380890
-719.653503 573.434753 277.783844
-486.805145 607.931335 384.485779
-761.653381 661.712524 259.086243
-526.147034 650.727783 337.259460
-512.471680 764.681763 341.824524
-371.808319 867.514954 388.057922
-582.888611 768.101563 301.400970
-485.710144 770.896362 353.929016
-390.589539 798.970093 376.967712
-416.678986 747.663208 384.245026
-427.326782 671.364136 420.976166
-674.501099 816.926392 252.801086
-518.919556 495.848114 380.183502
-369.754120 904.150818 374.761932
-446.612274 639.903809 417.744171
-539.978271 746.190613 317.518890
-663.142029 802.260742 170.198837
-632.578613 536.089722 341.248535
-475.507965 751.075439 361.130920
-590.909668 688.671570 323.169891
-609.432007 833.924011 252.260712
-539.990234 441.387787 425.195374
-565.775391 643.442261 330.252441
-661.399292 850.439392 250.202026
-691.158569 745.965881 244.192871
-421.613403 851.067322 349.731262
-617.884155 445.529327 375.487244
-495.283539 550.233582 402.189636
-403.007172 815.893005 383.116760
-363.216431 830.359314 395.668793
-723.988647 662.840088 180.416748
-476.337189 604.596008 382.292328
-585.974243 440.240692 374.234863
-546.209045 539.366577 391.878571
-423.206909 676.519897 408.703613
-410.181274 725.447266 404.216217
-698.711975 764.557190 219.042862
-494.540863 506.742645 416.973663
-630.432251 730.455688 270.355621
-545.563660 506.659027 390.584595
-566.823242 629.370789 339.697021
-558.702881 835.164063 285.313812
-648.830994 494.044067 351.000244
-573.625366 886.232971 261.127960
-516.374451 919.026428 287.545135
-719.055908 513.835327 297.077515
-519.150391 696.072998 359.052643
-716.468933 665.766968 242.475403
-487.143036 584.892761 404.892242
-421.944061 752.231873 388.777466
-676.213379 862.117432 246.006134
-583.038208 758.968323 290.128632
-527.573730 570.343506 381.759399
-437.003540 733.149963 383.737457
-698.446960 759.170349 233.017166
-691.751160 877.623657 253.946167
-473.989410 905.715271 314.534180
-432.197357 879.968933 348.877045
-717.840088 555.200134 281.647186
-471.376648 844.056946 327.994995
-398.923920 812.266663 370.923004
-463.761719 753.136292 365.329590
-760.371094 501.992493 268.130829
-635.404358 599.261536 296.015747
-539.497681 520.135193 383.998352
-497.642914 764.192505 345.300964
-639.601135 729.635742 277.007874
-590.429443 757.305481 285.056488
-505.676880 739.399170 335.505005
-559.687866 769.207825 314.411469
-778.044861 609.283813 269.111450
-531.625793 767.804260 319.887329
-648.191162 766.849426 257.965057
-753.905945 635.208191 223.853577
-689.686218 768.021790 179.733368
-661.127686 807.479553 250.330872
-683.930420 712.935120 269.146698
-496.301910 766.574463 342.875580
-515.204285 676.267456 370.559052
-707.518860 744.524841 213.450272
-687.447754 485.006683 312.984833
-462.566467 764.614929 356.447174
-527.704102 569.329590 379.471802
-646.087891 748.417480 269.350311
-711.301514 750.276123 229.357666
-372.503723 853.416870 376.647797
-475.420074 887.207153 305.647552
-713.677612 672.877991 194.474030
-497.232117 616.036011 379.088654
-441.326080 818.410095 361.654510
-566.630859 854.418030 271.109894
-592.607239 655.474731 320.397064
-535.971375 740.965332 333.855133
-593.469116 714.137207 301.605103
-579.246277 567.128906 360.807404
-572.794067 762.114868 294.533844
-364.787903 857.062927 372.633240
-635.272949 530.975830 340.963745
-687.222534 600.614014 293.877960
-532.953491 677.478577 342.687347
-643.332520 484.477234 349.493195
-481.846924 888.259094 316.886322
-651.390320 555.063049 296.605988
-603.952515 696.442505 289.452972
-438.261810 784.759460 376.541473
-448.584686 693.306580 378.658142
-622.067810 711.257690 298.362061
-582.214661 702.673889 321.610596
-437.211334 778.960449 364.089294
-548.679077 491.033447 384.903534
-665.342651 825.677246 256.412170
-565.951721 682.811890 339.125610
-355.851349 824.974548 384.162842
-577.209717 775.809509 288.365936
-656.780029 595.614136 299.349243
-706.756775 741.241455 252.481598
-718.155090 503.340332 301.689911
-698.021240 538.940735 279.269470
-647.288391 807.488037 249.476990
-560.960693 775.734436 311.226990
-437.253937 849.121887 355.734375
-650.700928 546.724915 310.965820
-623.946838 681.749390 286.755493
-712.113525 692.295227 231.794342
-685.773621 795.406738 179.857040
-615.943542 893.102844 239.804504
-484.568115 706.310608 376.778564
-593.270325 444.350647 394.279877
-524.734314 421.381653 427.893829
-414.368469 752.432373 362.695984
-533.856018 550.001099 393.681671
-488.887878 850.990051 325.896271
-482.461426 828.369934 327.091644
-590.038696 582.036743 339.140381
-533.811707 745.606079 333.750458
-572.936157 429.662537 391.971436
-734.718506 589.330933 270.061493
-483.215332 840.639832 317.426575
-663.335510 634.027466 293.559845
-484.403076 863.361023 314.530945
-512.978455 789.215637 302.377869
-616.398193 669.307678 302.002930
-495.123413 708.572998 368.948944
-685.171692 556.548950 306.027954
-614.312744 495.612274 347.836517
-643.191711 507.631775 337.663757
-549.794556 538.679260 344.919891
-523.684326 774.011108 324.980988
-571.130188 621.348938 336.044189
-698.214783 890.073120 255.224792
-402.361725 780.240051 388.665619
-449.408905 636.006531 372.577942
-372.780853 823.100891 395.949463
-531.056152 401.179291 417.588684
-532.185486 842.990112 310.190155
-472.144958 871.529907 309.875336
-533.997070 611.492004 365.074524
-516.206238 749.266418 344.507263
-454.789886 784.197388 348.795471
-663.820862 521.190613 313.685974
-502.498688 563.899475 391.985840
-684.164612 815.262329 209.243561
-468.919617 876.007935 325.260864
