ply
format ascii 1.0
element vertex 1408
property float x
property float y
property float z
end_header
-429.246887 428.289063 584.796265
-484.040985 541.152283 535.956848
-229.923477 664.208740 648.428528
-311.793793 850.423279 594.198120
-123.762848 764.909790 683.153809
-370.472687 561.295776 599.784241
-283.676056 810.906799 587.931580
-459.381104 808.240723 507.737579
-418.240143 589.026611 561.458374
-409.299133 791.629639 574.436157
-163.583298 786.444031 658.280823
-359.179291 484.060577 594.236572
-286.592346 618.484314 621.149841
-359.343536 536.587402 591.161682
-102.663994 742.113953 675.813538
-525.386963 494.821808 541.772583
-219.216507 583.290527 645.328674
-547.109009 685.784119 482.272339
-466.304016 449.135162 538.418762
-357.786194 651.079773 584.806580
-164.528702 660.167969 678.733765
-217.692383 803.802002 641.676941
-482.730042 524.558655 556.626770
-212.557907 716.636292 648.692810
-282.827972 822.253723 595.543396
-243.833633 600.249390 651.306763
-178.914429 800.603210 655.989014
-227.058548 795.328857 628.834351
-395.861298 425.413574 581.231384
-339.124847 766.728455 594.004150
-563.099060 524.244019 520.264282
-429.071411 446.572144 563.684937
-349.122559 805.205139 581.088684
-472.697784 673.622559 543.863708
-549.650879 680.088989 505.546326
-468.746857 782.852905 529.459290
-477.860565 485.523163 540.662476
-513.205811 738.360046 526.887878
-371.210602 829.035339 582.934998
-499.265381 768.441711 478.501831
-232.407776 689.453491 631.528687
-438.361359 770.775269 562.094299
-554.996643 581.315430 516.692566
-194.817368 769.522095 653.221069
-163.784225 703.385986 668.570496
-352.705414 446.621613 589.034790
-231.873840 579.185791 643.487976
-567.093567 675.875977 516.396484
-427.197937 742.662048 537.870911
-438.558075 660.049194 565.179810
-421.261871 689.659302 556.593079
-553.403259 512.387329 506.913269
-320.448395 552.871887 618.407654
-302.657257 910.664368 607.328186
-272.493408 879.968506 614.389954
-440.557770 862.654480 574.294128
-276.022705 772.010742 621.118958
-507.882477 643.661133 516.490173
-452.402069 819.262878 511.697632
-419.869049 434.786163 572.473206
-469.786194 764.628174 542.053345
-330.255920 544.954102 603.380493
-403.284485 364.119354 583.396729
-303.415558 820.673096 586.442566
-266.752228 825.910767 620.776367
-594.925842 584.631958 517.195313
-366.377014 799.294434 572.560669
-431.547516 388.755157 579.591675
-337.348907 422.351105 610.664917
-150.073196 724.179382 673.702637
-143.162781 699.555115 672.596191
-347.923462 697.671631 587.444458
-146.173553 685.902832 656.013550
-404.459930 634.297913 548.852722
-224.625580 685.044067 650.998413
-414.946655 493.459564 557.542053
-379.930542 415.953430 591.481018
-415.339294 527.786072 567.085510
-456.633636 598.699829 543.499390
-507.413818 732.653076 461.244080
-144.135483 681.574768 649.926514
-426.709991 864.204529 581.151123
-429.814636 481.161346 578.122070
-418.181671 594.607910 556.846252
-503.674408 742.368469 530.893494
-436.013184 832.035278 565.595093
-111.657639 771.895630 665.988159
-376.370026 734.484070 581.193909
-439.198059 822.247375 527.051636
-178.928848 768.574951 660.466370
-399.147461 712.609192 573.895264
-345.120544 501.574249 597.999634
-456.837097 814.977295 506.235840
-459.644531 567.709106 535.558899
-480.575531 755.558594 555.821533
-477.094818 601.982605 536.808838
-260.308350 699.224976 630.125000
-453.273346 798.622375 498.851135
-377.006073 436.333008 604.358093
-420.072662 472.925873 569.783508
-256.792938 602.054749 628.048157
-288.533264 615.959229 619.631714
-455.332306 563.531921 547.798889
-206.087418 656.259155 652.763977
-388.639404 717.153564 577.477722
-284.951172 606.307434 631.326538
-484.981750 696.861206 541.358582
-477.018616 780.851685 485.940125
-499.947754 736.800415 466.080841
-322.955963 778.239319 598.092590
-340.074097 556.251099 587.533325
-384.103577 564.635620 594.885254
-215.157196 761.195190 641.751526
-487.132141 731.626709 557.555359
-207.368988 718.467468 652.995911
-389.422211 556.155518 566.834656
-304.754547 896.311157 594.024780
-436.566406 850.690125 558.099426
-269.079651 586.938965 630.126831
-431.625427 881.257751 597.950378
-123.952019 721.699707 673.450928
-323.283966 745.109375 594.646545
-292.933502 632.344543 615.346741
-456.956848 815.868164 499.298218
-440.488495 514.136841 548.373596
-460.584412 728.606873 550.031494
-365.773956 713.475220 573.064453
-385.402924 804.338562 555.901794
-264.240540 610.453125 639.562073
-311.489044 860.229126 601.285217
-398.791748 906.044250 602.079041
-447.889343 613.454407 552.544128
-257.404938 806.920837 613.689758
-444.683228 438.856323 547.301270
-413.930603 374.020599 591.367676
-291.664124 594.632202 619.828247
-199.701172 834.749573 647.330017
-186.830582 671.623169 648.056641
-177.586243 773.226379 660.732361
-231.680008 704.727539 633.036377
-431.901947 811.346497 565.503723
-520.769165 715.345093 502.087128
-180.423172 707.930054 663.022400
-420.412323 374.046021 575.862244
-371.643341 864.637207 583.205444
-360.196808 877.020325 582.899902
-152.861374 672.951050 673.664856
-164.055679 687.437561 650.347717
-375.247528 730.304810 573.362061
-326.681458 531.569275 580.218872
-473.791718 482.077271 542.671387
-318.538971 481.680725 630.077515
-287.124359 679.684448 596.468262
-366.059937 473.912109 604.439026
-224.569992 783.548645 623.061340
-341.532806 758.004517 586.486877
-294.825623 835.616272 599.182434
-259.777161 819.411255 621.469482
-485.517120 590.120117 531.453125
-448.762054 460.356506 567.489502
-584.984131 608.108826 517.166809
-446.876953 804.309387 534.800293
-503.536469 697.172913 549.203796
-155.850266 670.273865 671.696777
-501.587677 504.416473 534.990112
-279.227509 818.520203 597.937378
-289.526123 647.630554 613.888428
-285.654388 831.978516 617.797302
-419.306152 517.630493 566.586487
-439.584076 792.446594 565.957275
-262.190491 827.919617 619.135620
-317.703094 914.203979 593.906494
-271.732422 702.521301 618.675842
-150.076340 736.255798 669.807251
-280.834137 873.662231 589.772400
-129.860733 742.453369 666.102173
-371.678406 528.295105 584.440613
-377.265320 674.990967 578.510498
-334.595856 539.334045 604.523621
-511.899139 546.420227 534.911133
-217.752930 649.233459 656.762695
-321.768646 835.834900 579.817017
-354.538971 479.759644 595.454346
-312.138336 682.742615 599.532654
-266.924561 654.845764 618.596558
-350.601563 804.943237 588.729614
-362.370087 662.451904 595.557129
-413.451935 709.819275 558.999084
-564.798950 527.011292 508.101257
-373.402740 384.302979 592.444153
-171.452789 664.307068 672.534363
-271.446533 554.953186 622.810913
-424.285400 786.301086 570.831970
-392.992584 743.731812 565.996338
-293.243927 507.362061 607.689575
-418.433624 380.289154 572.527344
-194.166885 752.641296 655.248657
-363.498901 711.859192 575.275330
-558.082336 540.814392 493.394440
-420.195770 685.423462 555.314026
-165.572510 784.322632 660.680542
-364.657654 794.973022 566.417358
-523.716980 723.624207 477.904785
-318.059418 600.487610 614.146912
-299.204224 541.806274 603.592834
-244.572495 661.055725 636.312378
-272.265411 578.329773 624.340942
-162.697464 680.316345 666.577637
-450.787140 810.281555 518.227905
-363.119690 548.245483 578.022339
-341.938873 836.505310 582.552307
-533.545593 694.853027 510.089172
-455.235413 644.335205 536.510193
-334.017090 423.501587 609.381042
-437.212097 814.083435 507.324585
-453.537842 450.437500 569.363953
-459.362946 726.046448 546.147583
-453.383545 663.389099 554.075256
-395.618866 403.532379 598.291992
-511.037445 732.202942 465.535431
-368.498077 572.046875 584.094238
-426.566132 854.327271 548.363892
-489.492126 491.093109 548.405579
-451.944885 428.360229 566.988220
-432.928558 809.165710 540.591248
-216.864716 852.564636 621.710388
-484.408386 757.366699 475.290588
-231.985626 641.377380 636.693237
-417.806824 861.693481 540.754578
-263.708984 540.401672 625.930481
-348.067871 833.393127 579.337097
-177.695068 743.643494 648.998169
-428.331055 573.202881 557.326538
-436.302185 562.660339 567.299011
-529.409058 683.255737 498.304779
-400.728790 419.043457 594.069580
-258.717865 819.930481 606.735779
-339.331360 519.307983 614.191284
-250.340897 599.589417 644.593201
-293.795746 652.707703 623.946045
-395.040222 866.407898 589.256714
-172.040695 694.227112 667.544800
-449.838348 454.918152 555.727478
-445.772583 788.896729 545.698303
-158.401382 679.249268 662.533203
-522.967957 703.014099 545.775635
-367.597534 388.875397 614.245789
-458.418762 541.264587 560.062866
-155.475250 742.065796 672.585876
-443.800415 524.773926 567.311829
-462.547882 650.244141 555.073242
-251.288345 753.730286 632.596680
-153.686096 673.667969 673.539612
-321.198151 769.838623 601.272644
-320.796600 574.779602 614.047913
-257.637848 763.650024 633.485718
-464.161163 776.666260 558.719055
-492.888123 759.500183 513.149841
-221.576996 659.911804 640.168823
-292.937317 587.649109 619.415710
-180.259842 798.833008 650.131775
-476.686371 680.675110 546.968689
-436.010010 733.509277 556.624146
-295.411743 896.338318 593.782104
-540.384460 494.071259 514.349426
-211.648834 788.425537 634.612915
-272.881470 906.409668 591.462769
-488.377441 756.309570 457.919159
-121.572754 711.683716 673.656067
-215.167267 646.840454 655.608459
-441.737488 811.468506 495.024048
-433.869263 680.468323 552.139404
-370.847595 501.875122 601.533386
-188.671829 680.295898 659.883179
-237.361496 772.717773 639.855103
-397.235901 600.806519 581.958801
-280.988586 770.359009 614.960999
-411.489685 683.118530 552.496887
-397.426971 369.372284 582.849487
-270.434967 611.341431 625.180359
-475.716492 452.922729 543.544983
-381.369965 360.397980 597.077454
-437.231323 681.445435 545.480652
-345.251465 687.387695 584.589172
-276.671753 843.645691 614.169312
-529.450867 610.937012 522.290649
-212.546051 673.694153 650.698669
-337.295410 427.728455 612.333801
-496.148285 692.528503 549.559509
-396.707092 782.022217 575.071777
-331.516876 813.699036 585.252258
-586.203064 518.459290 510.991913
-315.877106 777.002502 605.298340
-195.985764 667.791443 648.688354
-501.232697 749.877441 495.193146
-311.904388 791.154114 598.343018
-315.411865 471.259979 632.285278
-341.851654 769.735657 597.186584
-477.374268 525.282532 540.046631
-424.391754 835.062805 568.725525
-460.870392 801.567444 520.414490
-303.038635 543.879456 626.151367
-193.286972 809.994385 649.602905
-515.641785 494.132141 514.381348
-309.867096 624.092896 611.717651
-377.388763 674.499146 575.467896
-346.412811 696.641174 601.566956
-473.340118 754.302002 548.829468
-547.134827 616.172302 517.880737
-389.381744 765.757080 577.990662
-503.776337 465.057037 537.681274
-407.210907 464.534454 581.512878
-198.265091 711.601807 622.972778
-202.061264 728.220520 652.155884
-485.147766 603.381592 520.401794
-361.720642 906.568115 578.137268
-329.418213 533.894653 617.685425
-505.499969 713.463989 551.680054
-392.279938 771.567322 574.582092
-175.554947 712.550354 663.321106
-159.712189 735.244690 669.711548
-323.880096 725.028137 595.611694
-485.136902 569.148560 537.890808
-362.469330 533.330444 606.114014
-493.121552 627.007446 518.419983
-500.941284 665.835876 536.981567
-171.964401 704.830688 661.525940
-409.534729 611.334473 578.499939
-473.374908 437.631561 551.636902
-358.449707 748.560242 578.831421
-527.371887 561.330627 527.352661
-207.747223 753.555115 650.458862
-248.506516 552.891785 640.204529
-452.015076 480.802582 563.737793
-250.522980 851.423950 619.846680
-507.541321 514.110229 528.370972
-373.382202 450.839691 586.057251
-416.547699 864.506775 544.902588
-344.236664 607.782166 608.797974
-266.586487 875.295776 597.108337
-415.095764 460.080261 569.058899
-315.220520 759.313538 605.880493
-213.694046 744.856506 632.948364
-272.841644 810.097412 616.335999
-405.733551 461.633026 553.627197
-371.201447 712.488892 579.637329
-259.751190 889.925842 620.783020
-144.046722 742.416504 665.091064
-452.823578 459.937958 555.457458
-208.494858 636.925110 651.097656
-326.616058 635.223633 598.729004
-586.610229 532.417114 492.065460
-225.957397 582.733948 645.477600
-315.580475 681.891052 582.021667
-423.194122 667.978088 567.442139
-207.513687 779.273132 651.858887
-402.649445 408.983124 594.372314
-211.226517 758.756470 646.181458
-260.201355 559.355286 630.144287
-195.905899 675.429810 638.615234
-496.586487 646.474182 534.061707
-506.300446 748.838379 524.137573
-341.711914 573.400940 596.669434
-320.278229 812.666748 602.652161
-509.400360 563.884949 526.107971
-454.113861 551.736755 542.311768
-369.783936 744.450317 557.888428
-211.965622 642.902039 639.788513
-281.520782 720.247437 623.600342
-427.217651 537.657898 560.987610
-385.561890 514.534119 563.772766
-536.585022 586.309937 508.315369
-466.183716 695.613953 546.584900
-421.052185 505.085693 571.135620
-517.469543 716.831482 492.583679
-430.421936 514.684509 561.298096
-434.123932 574.042969 555.809204
-353.031158 499.124207 593.259338
-539.756653 509.808014 500.726440
-284.925049 849.844116 607.203430
-472.809540 632.708069 542.716431
-365.405396 619.164917 594.604431
-456.759674 817.249451 513.292053
-348.929443 443.849579 601.733154
-130.947647 745.335449 671.251343
-370.579193 401.353546 593.040039
-180.437775 747.915588 651.931702
-362.731018 442.898773 596.731079
-414.671173 570.353394 557.422607
-204.788437 611.399902 657.339783
-182.888062 655.379822 655.694824
-427.973389 501.167603 563.887451
-307.126404 496.535187 633.295593
-203.885086 615.253845 625.588745
-225.246521 683.320984 651.460083
-342.519501 727.425171 585.408142
-235.766251 672.583252 629.445374
-286.383301 848.443542 607.097351
-187.232376 688.041870 649.193848
-472.543457 786.851257 489.161316
-160.609650 745.495789 634.708618
-355.643372 641.624512 584.361755
-273.682190 516.313904 634.052673
-118.174194 720.448853 688.109314
-228.002151 808.738892 616.947754
-478.368744 782.555176 506.671112
-148.329681 752.779297 672.653442
-348.663544 860.850647 579.758118
-397.259491 474.000946 567.924377
-382.219604 586.163513 592.401001
-547.159973 697.637695 487.552521
-226.331848 674.503601 649.350647
-362.548340 732.139099 586.121582
-206.311310 715.260193 641.818542
-462.809143 804.922180 511.207916
-576.843872 643.843445 543.287720
-424.654022 838.056091 583.203369
-471.718536 784.431824 476.625610
-222.176300 589.169495 649.475342
-398.360931 621.108276 561.537415
-445.913971 607.277161 552.330078
-405.768158 780.249146 574.113342
-469.568024 792.541199 510.063812
-526.993835 670.499817 544.814636
-286.528564 795.579224 619.440796
-353.844940 837.769531 578.116211
-177.542572 766.046448 660.948059
-404.562073 720.984680 572.976563
-338.079193 614.406250 607.586243
-464.124542 679.188293 546.583557
-290.050842 503.694794 617.053467
-183.629868 686.951599 661.180969
-290.029053 634.657837 627.281555
-329.252380 466.101044 604.316040
-384.400391 435.925354 590.331665
-391.447937 428.254059 584.700073
-212.049744 629.560913 643.617920
-233.434158 875.461426 631.478943
-321.534088 674.371582 580.199219
-300.810608 707.639526 606.199402
-249.649384 645.110901 626.463684
-291.488708 696.410095 610.498962
-313.094330 489.355652 619.718567
-240.792053 631.747864 649.511658
-476.760620 782.390076 480.020172
-482.664886 444.918976 557.530579
-300.386841 890.098755 588.197327
-397.492981 529.207825 566.522217
-400.943359 685.870911 570.192444
-285.434174 598.989868 619.879578
-429.202606 660.939392 566.467651
-317.156860 849.067261 602.106750
-352.031006 576.548096 591.690918
-345.341736 640.078491 587.705200
-506.633301 459.029419 521.450623
-336.235199 691.112793 591.266296
-502.887634 740.624756 514.456909
-361.091309 710.788147 562.679688
-465.047424 687.666626 530.710632
-417.964447 816.121521 574.092712
-409.680176 638.541992 573.926819
-159.423080 780.593018 666.513062
-313.884308 655.986450 605.098999
-245.655609 567.995422 646.622925
-296.550690 557.010620 617.080505
-211.281006 640.790527 650.360046
-190.248962 843.992981 644.702026
-482.891052 451.104523 527.879639
-475.152008 581.905151 537.173828
-481.149994 639.106567 527.666321
-426.113556 516.320862 576.202393
-391.585724 609.077515 583.995300
-419.154541 530.799683 582.033020
-150.198364 733.266602 670.596375
-485.308228 747.074585 492.751434
-421.502899 664.492615 567.316528
-392.038116 562.423950 559.943970
-238.755096 649.783752 638.549133
-438.185181 734.592468 554.465881
-311.980774 792.259155 604.309937
-275.423248 684.008179 629.028076
-290.564240 857.991394 603.107178
-284.504608 502.693359 627.103394
-417.330139 435.495941 568.585815
-143.149124 681.458923 674.175537
-581.913391 500.203705 515.691528
-288.702545 717.359253 592.710938
-392.476563 877.783813 598.434265
-444.980896 840.787415 524.837341
-475.935822 690.177673 535.276367
-604.749695 614.228333 538.738953
-308.329926 631.120911 612.007324
-317.027649 696.866699 600.343323
-528.594666 593.634338 527.509705
-384.635773 494.031952 582.405518
-485.179504 779.190491 536.768188
-441.858795 785.130432 565.215820
-339.640167 805.735046 588.899048
-342.882751 429.970551 611.126221
-536.266113 608.433228 520.868469
-161.364670 704.713806 657.160339
-314.185150 570.963928 621.069275
-417.431732 571.209290 568.144226
-293.269623 595.722656 630.763428
-440.320343 804.477905 565.590210
-398.637207 792.847107 564.967041
-344.625946 516.789612 601.833740
-419.382050 785.658630 570.671021
-377.372711 486.602997 585.569458
-458.415741 522.621704 555.765015
-421.279633 653.085022 570.586548
-348.233612 762.291992 593.147644
-116.202301 701.581116 670.393005
-288.894775 773.081177 603.697388
-478.360992 570.567200 536.115234
-222.584549 736.377930 634.987122
-493.615997 734.830078 478.028229
-394.431824 450.751526 583.388000
-179.897247 726.732178 656.436951
-260.934479 767.668762 632.054993
-415.205505 427.469421 584.427124
-387.080505 705.665222 578.133362
-463.653198 594.803284 559.448486
-254.970581 623.764465 624.550842
-545.060364 674.552246 515.648560
-379.775940 700.309021 587.820618
-288.592041 679.612793 625.747009
-146.714264 726.742676 651.343445
-400.185669 751.696594 561.452881
-228.766953 664.137878 634.205078
-484.406372 433.617371 549.995972
-365.837708 403.059875 612.063232
-559.580627 603.134521 513.563782
-174.950745 666.307251 662.606812
-212.343735 709.276733 650.863403
-257.931000 562.818909 634.801697
-252.104645 704.881470 633.732971
-336.997528 868.064453 579.708740
-322.144836 493.882751 621.723511
-258.534821 844.634888 594.890076
-447.456970 808.605164 503.202759
-488.129028 743.899353 554.680237
-162.501633 690.885803 641.335815
-160.639954 754.166748 652.175171
-343.766663 630.677429 592.568909
-389.363708 593.794312 572.872498
-256.374298 794.584229 609.812195
-296.712616 714.560120 615.989075
-587.055603 655.447632 547.133667
-501.502869 737.274170 453.928741
-201.337234 790.721558 650.042236
-209.022675 691.093140 640.175354
-119.983002 732.210266 688.080933
-368.769653 694.091492 587.775879
-190.242508 754.466064 636.826355
-505.127136 509.929047 518.346436
-429.263733 797.086792 561.287292
-407.231995 771.800232 556.421875
-378.430634 368.753662 587.131592
-498.281830 601.343933 525.290161
-247.370911 642.766479 636.706543
-352.532776 449.621307 612.653625
-521.000916 558.499512 516.534790
-294.708740 890.196289 602.749817
-196.074890 817.217468 646.700378
-256.930328 540.521851 635.876953
-392.663422 447.488739 579.690308
-266.843506 569.684875 623.794556
-233.941269 766.675659 627.573608
-159.168488 710.359802 663.135559
-479.917603 744.583435 541.603333
-368.883545 391.399292 604.311157
-397.546753 448.788177 557.342041
-461.692780 545.241943 558.071289
-324.796356 639.272034 612.918640
-399.372314 412.166168 557.589294
-303.807129 548.250549 595.213501
-405.632996 667.814636 576.927063
-552.751770 636.424622 528.541626
-367.009491 646.050598 579.078308
-191.897369 807.689270 625.019592
-361.488464 693.970459 590.846313
-439.196411 832.103088 578.859924
-388.195129 503.708557 579.877075
-196.896683 637.450745 648.992798
-405.291138 418.964722 574.462830
-240.139542 836.740295 614.973328
-210.064056 775.205627 644.980713
-425.534698 669.034119 551.204773
-545.781860 584.833069 510.461426
-317.553711 518.438293 602.867798
-171.764557 695.926331 659.190674
-458.530945 558.569580 563.593506
-394.268250 416.362244 579.432007
-160.499939 673.009705 676.528503
-188.413177 702.424194 655.524292
-326.351288 594.893677 602.753540
-473.917786 425.336365 570.895386
-129.007050 706.972412 677.469116
-473.741333 784.412659 480.666351
-435.549500 830.788391 573.155151
-371.025330 508.255707 600.325500
-433.929504 847.583679 563.610046
-293.201263 726.509705 620.866760
-454.068878 810.337952 530.243896
-195.489777 763.788696 657.337524
-247.001617 775.284119 630.361389
-493.721252 522.797668 534.887024
-295.715515 675.391296 605.151855
-431.981323 671.165955 566.997253
-457.117859 632.698486 548.570923
-265.058777 840.784546 621.595093
-292.979858 833.433838 614.420410
-449.812073 468.843353 553.804077
-422.441162 473.215820 557.449036
-124.620903 739.577759 679.207092
-391.238678 647.563293 568.321594
-118.372505 739.040649 681.539490
-382.483704 399.892517 589.140442
-219.846481 599.815186 629.556213
-235.060410 666.463928 610.839722
-306.085999 541.714600 615.593506
-390.793152 901.539246 588.216919
-473.211700 761.678955 544.188232
-431.980499 633.692444 564.955139
-446.777740 831.735474 509.293457
-365.175262 408.863983 595.821289
-185.722748 818.437744 650.993774
-284.397430 641.735107 629.405212
-492.942566 592.539368 540.179565
-528.879761 692.728638 457.109619
-212.411499 712.251404 634.204468
-246.563583 636.622925 642.872437
-227.660004 642.948059 644.753540
-238.420151 629.693542 647.544250
-227.919235 641.536682 642.553345
-456.077393 664.887329 539.762146
-202.301346 812.487671 629.474243
-216.917892 661.050842 640.624146
-431.929901 494.749969 560.346252
-368.719452 808.148743 574.346497
-389.279663 566.719238 580.508484
-246.158783 780.875610 605.343933
-191.546906 758.301086 636.763184
-286.938019 784.336060 603.683472
-252.289719 857.300781 617.521851
-461.725281 555.033752 563.652954
-434.855408 529.721985 570.994629
-313.053650 705.796387 596.034790
-437.480713 479.912689 562.338379
-190.015305 657.295715 636.852905
-449.570557 676.725464 541.114624
-511.650452 717.374695 543.985107
-247.648911 835.025574 615.049561
-270.963715 808.829895 615.571350
-442.241119 846.760864 537.836121
-266.398987 818.177246 614.065491
-373.762970 404.510010 590.620422
-278.736206 774.081604 624.150024
-229.324005 712.978699 616.097290
-131.045364 737.297791 677.552185
-394.076569 523.343201 575.345337
-409.479553 600.557373 564.474304
-280.565704 589.531555 621.099487
-203.415573 810.811523 633.740479
-185.670578 670.480957 659.796387
-186.725327 721.407410 642.843506
-489.159729 626.549316 534.872986
-284.658630 738.368408 588.458252
-200.396774 707.503601 659.499817
-243.682785 581.777588 646.544128
-357.079285 400.501831 612.780640
-534.848755 719.358459 480.806793
-317.990845 905.426086 595.150696
-431.896820 518.408508 542.526367
-366.501190 600.113770 595.745361
-221.596695 758.686035 620.703186
-279.386566 921.946960 614.458740
-586.028870 523.902161 482.881317
-509.456543 467.259857 516.229248
-266.720886 557.002136 616.918518
-390.123749 752.628906 562.936951
-501.786865 577.092773 537.753479
-361.969452 440.325287 602.706299
-411.504944 404.485474 575.253967
-437.062897 810.766968 494.190948
-313.651947 673.994995 612.763794
-172.168320 730.456726 654.275818
-233.224533 807.434021 607.404175
-323.772461 803.044983 602.182068
-215.666885 677.384216 652.941162
-464.305206 577.127136 546.254639
-287.565521 847.633179 609.771851
-315.709778 542.415161 620.584778
-205.589615 601.990784 663.830078
-308.226532 654.640808 610.214417
-287.887878 798.328552 603.105713
-447.615784 535.477478 553.086975
-334.802063 566.267517 597.189758
-547.160217 609.146545 519.565369
-549.529236 470.471954 528.018372
-497.712402 600.607422 524.638672
-376.330475 502.277588 567.108765
-496.961731 737.198120 516.580750
-465.840698 634.601929 555.378540
-111.564194 740.980286 691.276001
-455.282227 814.691711 497.009003
-176.584991 678.310181 664.872375
-132.606110 722.293579 676.739197
-147.781082 786.825073 664.436646
-220.649933 666.532654 638.568298
-237.312073 688.598938 608.320740
-313.117279 891.054565 586.643860
-332.963196 443.587738 607.052063
-213.328140 600.734741 650.673401
-277.117249 687.695068 622.829651
-484.605408 771.216370 536.681824
-339.578400 724.066528 583.766846
-330.254181 669.258667 610.042969
-408.699921 683.089172 571.721130
-468.273712 736.675476 547.770264
-227.105118 813.423279 641.248474
-277.076752 883.846924 608.001831
-370.392914 407.191376 589.442139
-333.041565 628.861572 599.185974
-532.193237 520.513794 528.020569
-324.928375 672.070129 581.241150
-408.993988 528.249939 571.602905
-351.472687 556.288635 608.430542
-495.619293 674.872314 539.045044
-200.356262 624.167053 663.697327
-265.938293 587.944641 623.403442
-393.741760 886.802734 571.841858
-420.325134 856.066772 532.458618
-177.904556 785.248169 659.234680
-354.378876 751.747437 580.674377
-192.453552 790.674988 651.045837
-288.642334 509.499756 625.046997
-304.019196 681.201416 619.463501
-438.122528 834.850037 522.107727
-452.674652 557.737549 561.240112
-379.854279 628.475647 559.538635
-292.979736 576.439148 620.696106
-395.488800 596.411926 576.287598
-523.574768 707.463806 535.403931
-431.435333 458.048767 553.432190
-292.757935 841.996094 602.433777
-373.218353 626.595886 592.353027
-241.944870 621.546509 611.328674
-300.578186 784.826599 614.677429
-273.413818 605.972595 606.593872
-211.930374 771.005127 643.474426
-501.772156 696.723389 539.090820
-326.380127 649.605591 594.918335
-367.449371 448.654572 606.308472
-400.438599 623.615601 578.861389
-431.184387 826.537781 532.107239
-272.607269 899.270874 613.123047
-274.876038 789.087769 617.714355
-101.561058 752.848694 671.544434
-217.707901 798.125000 625.603821
-505.531281 735.504578 465.540283
-434.323975 380.036591 579.038452
-462.376984 794.983398 474.043243
-213.519852 640.971863 628.522949
-306.687225 628.049561 621.434326
-500.840637 600.254333 535.487976
-305.536652 549.073486 601.363770
-347.649872 476.602539 613.425903
-159.179184 766.247131 632.171326
-338.567627 568.087524 601.119385
-266.507050 689.608765 628.927795
-458.423065 468.651154 566.969299
-193.539536 717.440796 647.240051
-399.832916 569.262451 575.667297
-529.230591 501.161133 523.954224
-364.966370 886.311035 594.638794
-250.230408 838.523865 611.971130
-268.473236 884.620789 614.166077
-362.381104 468.564087 592.964355
-384.611664 557.306824 591.161682
-480.118011 746.463684 544.433655
-433.433411 697.062012 547.679626
-378.564453 418.993683 604.472229
-340.637573 459.484528 624.774719
-212.142075 746.742798 638.846497
-537.509827 574.627319 520.661987
-459.606598 738.092346 543.296936
-398.702118 753.629272 560.989807
-400.338623 738.708008 561.272766
-318.525146 871.206543 573.056458
-322.915283 849.807739 590.841553
-421.865509 580.912109 559.636292
-242.284119 720.126282 631.169067
-427.791718 865.059631 600.894531
-402.882416 651.563599 548.653381
-253.857391 625.897156 606.109985
-282.886993 677.974121 620.730530
-426.709320 864.013000 593.937927
-231.195679 750.966675 641.371094
-411.618713 656.585388 573.804871
-168.890839 698.084290 668.198242
-466.747070 480.466644 564.574036
-411.308868 719.151917 573.090698
-162.910995 692.861877 645.475159
-389.668121 620.759399 583.855225
-562.053833 535.058167 489.756348
-342.221344 834.776367 581.331726
-325.217682 600.155945 600.181885
-224.693970 690.970825 637.219116
-148.170212 773.238953 665.185486
-228.905533 833.294373 632.388794
-283.755524 811.206970 614.242371
-470.630371 648.442444 547.832764
-268.977905 797.325806 618.136108
-438.656403 819.420227 531.815247
-519.460327 563.767090 535.825500
-232.383514 779.589600 634.438782
-316.925171 749.592285 603.660950
-432.019318 713.916931 541.847778
-464.073212 720.870667 549.440857
-233.637268 816.140869 624.847900
-385.685242 571.727905 575.862915
-173.274582 831.913269 661.269287
-267.325958 802.215881 621.739624
-280.549133 507.221161 626.920410
-288.229919 800.908325 609.946838
-290.174957 852.573364 604.888611
-360.134125 813.790222 576.530396
-385.398499 567.630371 576.760620
-191.440109 642.869080 637.561951
-366.501984 739.420105 577.495483
-288.773773 893.060730 602.064148
-345.069031 498.953156 602.274902
-253.204193 648.514954 624.685486
-286.068085 812.641418 616.493774
-285.946777 726.920837 610.760132
-370.448242 417.671112 611.071899
-221.910965 697.429810 643.039917
-342.259766 528.720093 596.521362
-455.567444 812.033203 490.366425
-190.798157 726.309387 662.061218
-215.657745 639.228577 642.289307
-260.070190 746.724609 625.481201
-232.126495 702.720215 644.614624
-468.295227 723.309021 538.604248
-288.766541 595.902039 625.020752
-373.063721 474.727051 578.304443
-276.017792 871.999634 609.371277
-339.889465 732.708435 600.939087
-436.914490 847.796814 553.602539
-403.472229 572.677673 572.290283
-569.668335 673.435730 516.348938
-235.719727 551.936890 631.692566
-261.923279 598.619141 626.356873
-511.341675 608.352539 516.878845
-449.360687 599.544861 559.030334
-302.866791 506.313538 615.633850
-365.909149 790.383972 572.762573
-139.392593 769.857239 676.761902
-333.390015 795.705994 587.564270
-394.640747 662.996460 563.674866
-318.688873 868.082153 569.873962
-143.998032 706.178711 676.294250
-340.020416 625.093872 607.528259
-332.252106 782.012390 595.280457
-301.625092 813.909485 603.121460
-414.939636 827.733826 541.750732
-412.477173 776.595337 565.157471
-339.763885 898.915588 590.724854
-217.650269 644.690430 641.115540
-491.897064 566.328918 526.082764
-519.846252 727.889099 477.279449
-522.437073 482.113800 513.003052
-293.024597 861.639526 603.310059
-417.062866 556.161316 580.712036
-290.138153 662.013184 612.875244
-471.664917 668.731201 532.388733
-564.397400 531.312012 505.408478
-193.028305 769.853333 645.387939
-236.114655 778.164246 634.526978
-349.980652 515.776978 597.446594
-258.350189 612.233154 627.384338
-332.610107 560.103638 613.876953
-195.610352 751.598877 650.168335
-287.986023 826.394409 608.031982
-274.438263 608.628662 622.672363
-279.428558 539.342163 596.158020
-387.820435 580.091125 587.624390
-339.585480 831.788574 583.075806
-344.099121 862.737915 565.800842
-382.536377 545.699890 596.476257
-235.117722 604.855835 633.120850
-281.004608 651.292297 616.656128
-414.450989 530.885315 572.789490
-231.571152 574.960083 643.625549
-470.763641 570.700928 539.856750
-411.958405 607.036621 574.987122
-415.553619 661.719177 556.184570
-524.906433 518.838684 533.576294
-307.722504 885.019287 587.035767
-387.227600 450.123871 582.606140
-224.685440 653.863586 645.141663
-330.032074 444.524414 610.212585
-411.006561 554.243958 579.220032
-228.381149 810.627258 627.435669
-399.056335 433.222717 577.140015
-300.816864 606.578979 608.397766
-158.547455 687.364929 670.188477
-365.568176 901.583069 591.947693
-341.566284 748.383789 589.541870
-283.448547 888.075134 613.453735
-265.183075 683.207214 625.661377
-317.365509 677.586426 610.770386
-148.507614 771.336853 666.728638
-335.724915 678.447449 593.590942
-374.289124 751.970703 579.126587
-461.827728 526.551086 535.631897
-98.819084 742.615417 675.604065
-450.107056 421.540131 567.411011
-294.417969 764.807922 614.153870
-411.599976 568.376221 568.975159
-480.363464 426.471710 561.833191
-174.408386 783.517578 633.709106
-342.936371 475.764282 619.680969
-360.983795 843.298706 585.953247
-248.026550 747.915039 634.688416
-192.860901 802.338318 640.073181
-493.405609 741.095398 518.383484
-414.993835 406.270416 555.016479
-181.777420 676.449585 644.278625
-167.522675 782.892273 663.936096
-218.556641 851.362976 641.885132
-411.722961 635.362244 560.982483
-498.655090 473.979401 554.001831
-400.553101 898.832642 581.923340
-378.311829 795.305481 577.165527
-486.949677 753.334351 536.849792
-331.146515 804.554443 598.448914
-235.402908 616.780212 635.893311
-521.294067 452.549683 554.321594
-390.568115 492.482910 581.273804
-474.965546 786.010620 513.788879
-283.537872 795.630066 615.925659
-298.923492 749.067017 606.487854
-218.754990 601.617371 643.363464
-389.788147 556.465637 575.040588
-382.894196 539.479309 581.441040
-524.097961 711.729370 465.143768
-293.120575 481.860291 631.051147
-305.114471 820.997314 599.653931
-506.934631 506.845886 529.514893
-395.657898 790.315552 565.315063
-441.989349 423.194489 557.317566
-502.265991 750.474731 482.345551
-343.395111 502.846252 616.110718
-471.353516 458.699219 551.375244
-458.761871 459.744812 561.006531
-409.621399 410.390411 583.513794
-201.382950 660.223999 645.400391
-245.596619 548.513245 648.140625
-235.623062 702.093201 632.181335
-299.943542 521.926270 611.721680
-448.761719 831.842285 501.873138
-397.661224 422.934784 582.204773
-325.010681 624.799194 613.780701
-426.994659 469.340973 555.667175
-516.248840 717.463135 531.206116
-323.254730 660.741089 600.776123
-219.090271 595.608826 630.857971
-289.236359 685.650940 617.948242
-227.961105 624.931274 655.909546
-328.585785 533.604370 613.374023
-477.380066 758.551636 541.174927
-530.741272 508.232635 522.612610
-484.033264 650.097046 521.800537
-491.860931 768.659546 539.404419
-461.486725 432.407501 548.270996
-478.729614 643.026001 531.451477
-238.021057 755.945374 632.968750
-374.138947 490.825562 604.513733
-603.523438 583.479370 528.180542
-366.472076 599.861450 581.779175
-396.962494 375.719757 581.051453
-479.569885 777.018799 481.341400
-432.910675 863.034058 561.410522
-135.050110 704.782288 666.208801
-301.346588 863.626709 606.001587
-508.522308 699.536682 528.174316
-311.056183 583.215088 621.032104
-245.124130 634.085571 628.668457
-527.778442 621.544678 508.065552
-208.534836 690.854126 654.933655
-256.479156 659.327942 623.473450
-436.999268 638.190796 564.118225
-163.644913 636.445313 653.476990
-377.677063 733.957642 585.433899
-398.754425 885.472778 583.751465
-358.256256 703.266052 594.839478
-286.607574 889.405579 607.310791
-521.790100 498.704956 509.527985
-408.310425 492.339142 589.436646
-322.622070 890.901245 589.439636
-457.802582 434.458466 541.632263
-122.959633 764.079834 674.316406
-510.480621 488.524078 526.767029
-445.944885 557.882202 563.386292
-313.925201 766.121094 606.321472
-174.923401 798.089905 655.750183
-439.368805 664.729797 560.512024
-354.854980 895.941833 598.099426
-457.227692 600.932739 545.210815
-129.079132 735.354187 681.993408
-146.968719 734.307861 670.998901
-503.674896 605.116089 520.591370
-376.863098 599.156677 590.709290
-589.941589 540.658325 492.634491
-206.453232 731.142212 650.698547
-463.502045 398.345551 565.885193
-440.319885 837.880920 568.178955
-513.141113 532.303833 524.136475
-234.481842 693.282288 630.377563
-537.305542 556.966614 530.479492
-387.938080 621.654419 589.553162
-370.081329 865.998718 580.787048
-342.285095 548.222595 613.352539
-328.512604 750.954468 599.823914
-412.945374 488.328796 561.075317
-232.257538 835.243469 630.288879
-363.518311 545.119019 588.165405
-296.776001 825.311951 593.595703
-206.562393 751.702942 648.874390
-320.211212 583.148926 607.613770
-515.431152 557.672607 533.994385
-408.327148 541.463196 573.438538
-352.438354 464.954376 577.513672
-302.502411 561.587524 617.658936
-485.617645 490.664459 529.074768
-497.342377 728.978760 512.985840
-298.380066 733.856445 605.902344
-516.207947 702.451721 536.503540
-141.461777 724.096680 664.899292
-465.688812 419.436523 574.336914
-455.685486 816.479797 487.508636
-266.988708 759.499207 597.654968
-167.705917 773.123413 663.344482
-548.120483 581.339600 504.149353
-456.011902 580.403198 548.198425
-367.416840 766.236328 586.706604
-452.850861 543.880127 539.045227
-185.940216 656.229858 669.546814
-491.296417 732.663147 548.130981
-432.215332 515.300964 579.072571
-299.271393 504.323547 614.520264
-442.194580 795.778442 520.261292
-478.497864 749.459229 531.429443
-377.910919 463.689331 576.585571
-543.201050 712.500122 485.397247
-438.845306 855.956848 553.773071
-224.129349 603.590515 645.395386
-309.427551 577.585449 625.167725
-407.229950 514.146851 554.011414
-199.827591 625.333557 661.963440
-152.136597 740.165833 639.086365
-450.314758 542.906128 569.639648
-187.226746 641.550537 659.773438
-228.080460 660.180969 652.442688
-422.279633 762.894226 561.002625
-467.783112 776.828186 467.223480
-446.585907 825.532532 525.805237
-324.407990 461.618042 604.588074
-152.384232 680.046753 665.589050
-479.208160 447.327942 549.065308
-378.694641 712.851318 576.298828
-319.784027 805.496033 594.926758
-313.229858 556.109314 618.005615
-328.748962 611.011169 604.294128
-268.138336 744.238708 624.899353
-265.566833 756.501221 624.707458
-488.059235 766.153931 558.041809
-171.793854 783.109436 661.577942
-346.118652 615.418213 595.037781
-629.710876 539.787231 518.683716
-294.364319 817.563293 606.186707
-258.261322 561.408142 646.483704
-503.040894 482.857758 545.046143
-509.946564 619.083679 511.512024
-333.447662 724.520935 604.628845
-354.325500 460.579285 599.585327
-457.505127 703.355591 540.662415
-525.322571 487.460419 535.295593
-398.591553 451.979095 567.646729
-536.741943 530.067871 526.246948
-468.120514 771.275757 480.733002
-370.875397 704.878906 580.032288
-439.992065 410.563721 583.418335
-389.192871 365.266235 614.313171
-464.188812 671.610046 548.034058
-295.530457 540.873474 629.427429
-515.898926 696.837585 445.584076
-274.632690 704.367371 614.064087
-277.946594 800.704346 623.109802
-295.704163 725.414490 604.332703
-362.153168 692.244934 593.809448
-396.828552 589.898193 573.898926
-301.819244 839.856567 600.137207
-225.578705 690.630188 641.859436
-407.882721 507.679565 584.842651
-516.978638 535.959778 541.282288
-487.018250 591.259644 547.706970
-366.229431 658.870667 594.111450
-477.553467 771.737183 512.981384
-327.466095 874.687317 583.912048
-167.576263 657.220093 676.851135
-435.930084 850.359253 526.808167
-336.660065 939.183899 619.415955
-445.691895 464.048462 567.943481
-388.561829 746.724182 580.050293
-381.922028 882.118286 597.968262
-177.992798 710.791626 665.055786
-412.924988 553.223633 567.289673
-433.557251 862.660034 552.589355
-227.935394 843.627930 633.409973
-332.682343 613.836731 596.893860
-472.786743 561.715393 539.265991
-347.071899 625.775757 584.388489
-273.397888 776.377502 611.859375
-468.459351 487.577026 546.753113
-291.925415 557.032349 630.179199
-514.894165 565.393433 533.093506
-427.304169 556.090698 559.819763
-459.358856 795.830872 544.686890
-455.861572 818.242371 486.161835
-373.037537 747.506775 574.201233
-108.960190 731.564209 684.631592
-437.750336 454.858551 539.610291
-215.995285 614.326721 621.297363
-477.002563 703.118774 539.474121
-220.548279 591.665100 655.453491
-370.421234 509.050568 600.804077
-250.172363 686.755798 622.442139
-292.247650 871.134644 602.753479
-333.750763 534.363037 600.342285
-319.749573 469.063721 625.848389
-387.780212 443.935486 597.105469
-455.161377 824.523254 506.390717
-220.285873 622.962524 641.974060
-467.867554 733.097107 549.780762
-290.371277 640.562256 609.144714
-393.657715 843.482971 569.022827
-382.427185 399.403076 612.795044
-221.716568 842.546936 625.817017
-461.321259 534.884583 546.398193
-488.822479 537.247192 523.996826
-282.423431 559.228271 626.003662
-344.889526 707.365479 591.060608
-273.126282 546.809570 636.885742
-552.007996 494.675964 524.379761
-489.528229 727.577698 553.865112
-258.371796 667.098694 621.226135
-473.768311 479.747375 561.954895
-475.723083 477.857056 557.878784
-261.111023 784.252136 598.723389
-579.382507 528.039001 486.007111
-388.313782 742.831299 578.345581
-350.180847 853.387695 563.976257
-178.155502 728.725220 641.664978
-388.829132 640.294006 582.744812
-314.394745 864.416382 599.640808
-216.032028 659.960327 647.721924
-506.179504 736.512085 460.429474
-489.145233 767.898071 494.140106
-353.945038 539.898499 586.358215
-255.345108 821.209656 626.213928
-581.590759 500.874359 524.149475
-330.881378 534.944092 604.773254
-242.981445 679.681641 626.032288
-493.610016 756.898499 496.699860
-338.958221 752.187012 580.276733
-286.229187 743.797852 603.239868
-417.430328 425.851501 580.534729
-121.272423 752.204407 684.278320
-314.036499 718.424927 612.784546
-423.318176 451.129791 553.594543
-246.604416 610.388672 648.154724
-420.331268 682.449707 567.360596
-453.733307 795.593018 495.912720
-304.610046 556.069458 621.287781
-296.294800 516.462769 639.406555
-306.622894 632.555664 620.053894
-137.311905 729.442261 676.080017
-497.642212 759.823303 535.555969
-282.473694 505.337616 637.768433
-330.353149 761.934021 598.702820
-509.515686 729.521362 457.225983
-285.875397 707.699402 606.620544
-323.466064 612.635437 614.884766
-341.669403 591.201477 592.584351
-310.302002 828.317261 607.042236
-339.237366 487.819214 615.969666
-168.758133 802.836853 650.657043
-523.865356 721.257019 524.128784
-282.194855 808.417969 585.337219
-355.371979 533.594116 608.874023
-417.942535 451.755768 582.428345
-361.060211 505.568817 592.279297
-275.766174 573.091980 628.083801
-305.875763 540.039124 625.247742
-207.061050 798.880005 645.628235
-441.605835 810.070801 554.179443
-444.909912 537.050049 566.205017
-325.386810 723.492004 607.898193
-449.847687 820.387207 514.856323
-493.017914 490.975006 556.545349
-247.698654 650.454163 634.557495
-522.691467 724.929626 483.424957
-346.130493 850.425964 590.210876
-425.512451 400.591583 562.548340
-290.895752 760.845459 615.983154
-280.743042 572.947510 625.362244
-469.065613 790.694031 531.000916
-266.263367 646.356445 628.287903
-243.901123 842.945801 611.939758
-483.918457 745.865723 515.092957
-228.521194 767.581177 636.639893
-391.033630 722.928284 560.143555
-301.570496 454.192688 592.933411
-501.986328 733.570984 547.216858
-171.019684 665.025757 656.906677
-482.324768 595.663940 551.532959
-232.985886 650.628418 636.174500
-198.555878 714.449646 645.262512
-175.454895 708.619873 660.453735
-461.783478 814.529175 530.297058
-256.662048 582.230347 630.468872
-355.558624 760.747681 591.912476
-184.128708 778.808777 656.344055
-471.792816 762.914307 472.137177
-322.713104 642.520203 602.576355
-263.616364 632.135071 625.242615
-411.136993 586.261780 567.291626
-351.792297 590.432251 587.689575
-302.431366 935.590088 597.560669
-491.837921 740.607544 518.719421
-354.185913 567.479919 606.930725
-254.463715 549.390564 638.284729
-276.470062 578.358765 614.195984
-308.456177 514.604065 593.653320
-477.799225 771.985840 537.104004
-214.562347 604.608887 635.099670
-407.804688 429.591614 563.635193
-337.184814 435.275024 586.006287
-464.991150 597.541443 540.425659
-349.501801 598.122253 603.595093
-540.633301 531.578613 509.939728
-437.420380 760.325500 545.919006
-335.770172 453.889069 612.364380
-172.454758 697.434875 666.233154
-157.473755 768.397644 666.584717
-512.099854 714.595215 542.044617
-314.000153 775.509338 597.849670
-433.158661 694.055298 561.398010
-328.062103 683.660950 610.027222
-414.694366 582.550537 565.805725
-360.501312 755.912537 585.350586
-201.563675 770.936279 648.345459
-250.397705 640.347290 641.624634
-311.988525 643.127563 601.081848
-576.137634 548.833679 506.738586
-219.480194 771.172302 647.783997
-311.318848 840.687683 606.026794
-300.263580 487.345184 631.203796
-257.595947 617.959839 628.195313
-541.083618 499.629272 525.857849
-388.804260 473.703583 597.799377
-443.822876 841.317749 563.448853
-287.482941 636.767151 610.280945
-173.061295 646.654114 665.485901
-138.153793 776.781677 680.769409
-368.761292 739.308777 576.907715
-445.315826 813.097107 552.181396
-376.178131 553.940247 583.834167
-328.893341 570.863098 614.910461
-450.508728 458.054199 574.681824
-485.471924 500.293335 546.722839
-455.557404 786.822571 533.669434
-188.689743 636.416626 658.965088
-397.623016 385.063354 610.754333
-432.166565 487.987946 580.917480
-476.813751 769.336975 541.545959
-173.395920 738.477234 659.522095
-191.270462 632.744202 658.320007
-291.807159 738.919922 615.586670
-130.638229 713.198547 672.678528
-324.096558 524.560181 622.786682
-240.764633 574.818176 635.534180
-252.739014 712.680664 606.307678
-397.619446 599.749573 574.252258
-512.413818 592.825439 511.054749
-336.331879 634.370239 595.456848
-234.071777 632.835999 648.742004
-478.841309 757.771179 481.607880
-268.246765 588.928406 618.014587
-135.857712 752.304749 675.509949
-368.642456 626.001831 580.707458
-301.609467 520.332397 617.290100
-497.814270 580.221741 529.144653
-308.277863 561.316772 622.933044
-510.322754 737.321167 463.934296
-521.765991 716.873230 495.915649
-213.239471 598.931152 633.453491
-468.819122 558.525757 541.445129
-278.573242 747.605103 619.990723
-278.969727 510.177612 628.765320
-276.412476 759.590515 622.151184
-525.436157 597.484070 507.718781
-294.397583 889.847168 598.973145
-427.831390 639.649841 552.580750
-275.267670 801.722534 624.533691
-386.610260 448.854340 572.811157
-342.738007 536.220947 591.466675
-185.426361 670.159119 652.326416
-434.472229 861.998657 555.931030
-533.197266 714.401245 483.922852
-310.543396 765.586243 606.427856
-281.020447 643.739563 617.862610
-460.072693 638.509521 552.208984
-548.892517 523.802368 507.148987
-502.975739 554.015686 540.168091
-466.010254 755.195313 524.435242
-483.814484 574.916138 533.266418
-268.381958 886.451538 615.450256
-551.553894 680.833191 535.996094
-230.438507 843.771973 628.634521
-383.585266 368.121918 598.395874
-548.601379 698.151733 492.949738
-460.672882 734.887085 552.974121
-449.865265 824.014160 523.276428
-262.688232 758.223877 618.682495
-394.535370 705.828430 575.010071
-353.395081 427.788269 595.420654
-341.185211 849.395264 581.423645
-537.564880 507.354767 519.683594
-440.169861 830.557556 543.620361
-202.364319 719.375732 652.991638
-257.194733 638.137024 623.428223
-430.109741 698.369446 562.305664
-216.660583 660.499512 649.282654
-348.151062 433.500641 602.918945
-226.211349 782.725586 638.231323
-291.259094 590.879700 618.191467
-387.386353 820.645996 570.453552
-411.686127 452.167938 551.150391
-517.188171 570.279602 521.148376
-416.460907 796.628113 574.563232
-433.517120 820.821716 550.725952
-321.382813 859.168762 579.530212
-452.240631 655.471008 555.361572
-188.301727 685.657837 654.708801
-397.744324 405.692505 580.736938
-552.157532 520.939575 495.324493
-286.168793 775.971191 604.772827
-301.771851 668.536072 616.316162
-613.392029 522.474365 514.677063
-174.794754 640.560425 667.687805
-407.491577 645.681458 567.918579
-443.070496 582.073975 569.260193
-173.757721 652.703979 662.052246
-304.671021 894.892029 593.193054
-486.139038 768.542297 471.645691
-577.485352 573.480652 514.719421
-137.230911 699.353210 687.975830
-227.784012 686.981506 636.522034
-212.099503 687.610474 653.851563
-240.998962 559.652466 627.262817
-388.214203 633.976807 585.585449
-448.290222 552.471252 540.698181
-393.155121 454.408234 579.432129
-405.755035 606.728394 570.466125
-198.267334 635.120728 665.626404
-305.544189 747.196289 610.259033
-284.666626 732.476135 624.079407
-510.354645 717.010376 537.929199
-267.767303 812.859741 616.888855
-370.729279 459.409027 569.427124
-309.206818 474.348450 622.450745
-428.719543 401.291046 582.307007
-333.996246 857.531555 595.769287
-377.753052 504.236755 583.701599
-340.350830 894.062439 583.307312
-374.158783 679.179138 586.555481
-477.496338 707.344788 547.024597
-345.544403 800.925781 578.247559
-309.874268 470.090363 613.781616
-300.060211 850.502808 598.245911
-357.871521 911.690125 586.759827
-425.988068 757.158630 551.257080
-274.165466 534.572632 630.362305
-307.030090 871.990540 602.057556
-392.376312 623.116943 570.391541
-389.661957 641.416321 572.045349
-269.514038 631.172668 626.347351
-172.375031 710.530457 670.025879
-320.064606 692.687866 599.533020
-469.681366 784.562805 466.829803
-267.009369 726.051514 599.427795
-366.259521 537.978760 603.035156
-192.131409 697.034546 653.173157
