ply
format ascii 1.0
element vertex 1408
property float x
property float y
property float z
end_header
-317.532928 519.499390 718.042297
-480.047424 255.149902 655.122864
-455.085785 536.899170 679.734375
-613.175476 502.136566 646.067383
-401.647614 437.093903 682.629333
-390.648773 634.026611 719.149170
-550.548584 436.506805 633.030457
-398.759308 569.039429 698.097412
-469.337677 562.142822 670.253662
-386.921448 707.132751 715.092529
-269.290253 537.315857 732.288513
-448.588226 333.088776 647.392883
-274.499176 429.066864 717.420898
-561.039795 603.860474 602.528809
-305.100952 560.792053 733.886658
-474.524658 324.356232 645.596680
-239.098740 591.864075 740.335144
-352.941315 677.332703 727.241577
-561.526672 299.954559 618.541260
-411.786224 315.668488 661.445923
-293.126556 605.537781 739.035461
-305.352814 483.963348 720.145752
-411.513245 287.107666 661.853027
-483.332916 502.679962 661.845581
-359.038025 644.559631 728.539063
-310.583435 380.019501 713.263000
-353.640137 633.839172 713.638550
-373.651978 435.557831 673.568176
-590.313721 520.153015 658.392883
-265.661713 580.034485 733.167358
-287.211121 609.481506 741.806152
-418.976593 334.111115 662.312439
-524.711792 430.733002 643.705261
-234.630737 629.259277 738.821350
-515.200500 436.032440 662.669983
-528.695984 648.335083 665.414673
-278.336823 628.183105 736.822327
-322.131653 617.608704 723.265442
-194.582626 657.413025 775.299744
-436.394379 255.100311 647.910950
-382.756775 422.586700 682.185791
-536.287720 666.217102 668.993591
-495.175140 474.812775 669.918701
-575.426208 599.739014 615.574707
-430.523926 754.480652 704.677551
-561.947449 314.812897 635.446167
-609.713318 541.685730 607.898987
-280.897980 718.919067 754.435181
-350.998199 425.843597 705.676941
-554.676392 625.572754 630.658081
-557.941162 369.676514 628.863464
-262.064880 534.963989 728.666687
-504.657776 657.150085 693.501038
-188.961304 672.811646 756.753479
-578.814758 579.624817 593.999512
-549.997070 577.126160 667.125793
-371.511871 319.730469 688.804443
-344.401642 697.996155 726.760742
-540.967224 505.179352 646.500488
-567.911499 396.118683 610.198303
-457.890076 601.906677 684.674011
-308.176208 479.162506 723.100525
-375.328094 734.302429 725.247925
-546.968811 422.210602 632.274841
-464.065002 527.547180 666.097351
-584.189270 509.168945 655.926575
-601.339355 340.399109 625.141602
-398.389435 326.135010 668.105164
-408.362762 425.302490 679.651184
-331.264404 550.256470 698.384155
-446.610992 318.656433 654.763916
-466.230682 522.010559 670.020142
-382.233276 433.936707 681.908997
-444.549683 262.736908 650.645874
-393.663177 248.984680 645.624695
-622.995911 490.408295 648.057312
-565.200623 569.789368 649.803406
-355.632080 563.894958 714.784851
-341.023376 737.018494 743.818909
-383.953278 710.916321 718.288879
-398.400940 481.132050 698.836731
-445.456726 460.751068 664.896851
-322.756500 727.639954 736.951782
-452.652161 343.348389 659.567322
-571.938110 583.549255 654.037598
-558.591309 548.840942 665.723816
-373.393372 638.573303 711.427795
-573.883911 601.555237 612.207092
-576.537476 534.048767 656.380249
-359.477509 631.859802 721.855347
-406.413605 248.025055 651.989807
-205.251419 635.586914 745.809082
-354.013855 580.479553 692.669800
-572.425781 568.743835 650.665405
-502.330322 381.661896 656.908386
-331.328064 687.463257 726.253357
-419.998169 328.199585 675.372803
-398.318451 536.208313 707.213501
-374.572510 622.384338 718.385742
-527.608887 408.082520 628.565735
-305.991638 617.224670 721.049011
-519.257141 722.777649 741.934021
-431.270660 602.868713 699.007935
-293.009766 539.762268 723.636780
-500.087708 413.045502 660.717590
-363.462799 681.138611 732.775024
-299.430573 440.190125 722.004395
-401.454651 386.487946 687.319519
-389.115021 253.290039 682.501709
-352.229065 399.904083 690.305725
-256.608459 606.133728 739.694519
-252.539230 617.504761 734.495239
-549.710327 462.239746 647.543213
-408.020813 224.400040 674.773865
-628.674194 402.743530 618.960083
-305.711731 379.208099 702.530640
-545.224182 664.814880 636.630859
-226.142685 663.945618 757.751953
-332.356262 359.310944 693.993713
-305.656464 422.237976 704.797424
-356.823669 732.914246 732.200867
-271.444244 697.306763 751.094055
-433.009338 259.756409 650.579468
-420.016571 297.730438 676.482056
-327.220642 379.403351 681.895691
-540.915039 651.929260 666.454102
-394.159546 301.602112 669.046082
-588.312195 522.717285 618.039307
-298.512177 487.087708 710.208130
-595.211670 536.824463 657.647278
-430.982452 349.809357 661.932739
-630.440857 488.392548 651.779358
-316.390991 389.474121 686.501831
-369.324951 426.379456 689.562012
-388.974518 444.347931 684.984375
-383.224823 768.154541 740.027283
-240.215179 660.097351 751.180176
-454.392273 649.423340 698.104797
-397.407867 482.418915 691.741760
-466.934296 509.587952 679.817871
-561.935669 288.887024 629.919800
-595.270020 364.803040 611.634766
-524.271301 438.589233 634.866150
-457.874115 484.414764 667.893372
-282.364380 508.982239 733.367798
-347.907593 351.992004 688.430481
-540.447571 433.686584 637.061035
-502.315765 291.842590 618.895569
-526.207642 708.583130 695.303955
-257.982056 700.262817 755.385132
-417.051605 250.762146 656.179382
-299.404175 548.468811 723.217590
-414.357758 529.865906 697.584534
-575.165161 435.049103 637.848206
-244.429977 515.418823 740.789612
-298.691254 671.968445 744.567871
-493.446472 420.698151 661.209778
-229.467453 615.652466 743.164673
-408.893982 594.001343 709.247620
-401.657501 581.613831 692.807617
-328.595856 520.073730 694.280518
-323.018768 684.565552 738.900208
-467.166473 404.721039 655.747620
-376.928406 600.388489 717.112976
-547.072754 400.589722 621.587524
-186.954041 617.966248 747.726135
-280.971313 657.512695 748.312378
-519.782898 442.474274 645.324341
-348.872955 492.237457 714.425171
-395.422485 277.912231 672.431213
-602.136536 526.738953 657.579041
-260.954315 552.051086 727.271973
-519.066101 647.084167 690.255981
-503.486237 409.077881 636.623108
-292.087006 661.156921 735.910828
-189.753113 593.933899 767.002319
-256.866547 675.414734 756.324829
-363.828705 718.878540 728.868469
-366.030853 385.407410 700.821716
-432.843811 727.586914 709.306091
-271.691315 544.852173 739.864929
-513.876343 332.332794 634.085327
-360.011993 596.189026 723.677185
-185.692581 593.784973 766.261230
-457.125977 397.079559 658.372681
-532.290588 411.649811 627.861633
-348.486206 388.224701 688.589355
-494.643646 337.538818 647.752136
-503.685455 337.332458 653.133972
-228.605835 662.888245 767.083679
-458.963623 686.979248 692.816040
-198.919617 588.271362 758.096680
-438.334045 520.515442 683.363831
-397.515442 785.019897 738.739136
-529.657654 601.988159 683.880371
-346.249512 300.711182 680.286133
-317.898376 456.666504 718.933350
-523.787476 622.658081 684.811646
-327.046783 329.810638 689.359009
-595.696594 319.280640 625.257202
-430.151062 493.307404 677.921204
-397.571594 495.828247 688.088074
-520.242981 509.295166 663.281860
-374.942535 295.119080 690.476318
-515.404358 445.446625 657.996826
-563.726990 614.391907 596.142029
-550.134399 636.069519 641.990540
-565.875244 552.396545 645.472961
-294.671356 573.603577 725.823242
-648.043640 327.632904 623.962280
-516.279785 352.104218 626.389526
-372.837067 542.912964 700.634277
-330.772125 360.453613 689.157104
-538.762390 644.258545 688.475769
-238.397934 553.699219 733.564270
-204.697678 671.797058 736.019653
-433.056091 241.716217 662.339600
-576.478271 357.520721 635.507813
-272.401855 610.996582 735.594971
-441.319794 526.765198 689.659607
-293.734375 532.405396 718.351196
-400.538544 692.834961 690.835205
-465.093811 325.973145 628.357239
-209.386017 630.497192 753.701965
-511.927094 664.502563 687.602051
-527.527954 326.986847 646.561279
-491.683380 345.654572 642.591797
-264.304199 671.936829 743.125427
-334.963928 314.773773 685.700562
-530.536377 475.314026 637.706360
-444.602875 578.264709 685.738586
-423.337738 393.712433 673.300720
-582.420959 577.371216 632.016541
-280.523346 479.158661 731.573242
-384.543915 739.189209 723.681213
-496.253540 703.443359 720.663086
-333.833374 346.625305 664.351074
-267.987305 618.957764 745.969727
-593.388245 547.291992 603.154236
-374.001129 643.098755 692.102417
-427.974121 631.281982 696.431396
-569.826721 432.849854 644.612305
-304.076538 466.479797 726.513428
-284.474365 583.775818 739.045837
-413.650116 499.483978 697.247742
-654.251953 413.714203 652.577026
-520.238953 591.792053 685.966370
-318.415161 577.046326 724.994812
-582.305237 582.747681 600.166321
-481.117462 619.330017 683.134827
-545.399902 663.709290 619.334778
-390.041290 482.185303 688.587280
-488.584869 497.521851 653.877747
-565.521484 618.927246 624.637573
-447.264008 649.648193 684.553589
-428.470428 537.528992 698.868469
-324.361908 483.683105 702.459045
-467.721405 392.790375 657.388123
-380.768036 575.393555 684.462524
-524.030518 588.627380 682.978455
-487.637054 571.450317 679.713440
-389.978241 647.823914 700.012695
-494.770203 359.729401 634.660217
-522.953247 675.519836 664.617371
-434.190186 657.554077 684.913391
-447.577942 341.675964 662.028809
-493.211823 317.951050 653.163391
-332.054382 544.628723 697.575745
-280.998871 439.960388 688.296570
-441.463531 566.791382 683.557007
-394.514221 456.222656 696.445190
-338.752380 723.378113 739.468079
-551.812988 467.990540 639.238037
-498.980438 650.777527 675.867004
-502.538849 497.309814 643.771667
-320.563324 699.443298 731.756348
-441.075928 344.027710 670.949524
-460.995880 683.099121 700.317017
-545.707458 664.765381 639.247375
-642.212036 452.877563 658.104004
-534.341370 453.556274 639.522400
-348.866119 582.949036 715.239624
-205.721588 611.255676 747.672302
-453.872162 362.761169 655.813660
-594.938721 529.980042 639.379211
-326.964661 420.437317 698.942932
-434.262115 585.473206 701.217468
-432.803375 560.960083 687.168762
-303.790070 709.701599 744.292419
-230.240143 572.115173 753.039917
-347.340271 496.409210 705.374939
-306.816132 530.320740 729.375610
-350.611938 419.284393 695.605347
-204.485489 642.907104 765.392822
-504.644104 583.519470 681.283936
-215.664444 602.497131 757.304993
-537.022339 508.694519 657.978699
-386.436096 340.552612 672.965393
-479.314819 682.199158 697.057983
-534.806519 652.968994 625.416199
-344.186859 427.293335 697.975220
-398.121857 768.707031 721.236267
-404.844208 354.356964 669.615173
-248.264572 666.648132 746.178467
-308.269226 467.036652 694.857788
-553.292908 584.811707 671.152954
-309.569794 675.429016 724.917480
-480.897858 564.245911 673.745544
-580.564941 563.977234 569.784119
-329.581482 725.996338 741.628174
-487.510620 403.151398 652.453247
-559.409119 585.299988 677.852051
-296.899048 666.968323 734.248352
-236.940140 577.095459 734.231628
-306.453796 556.778687 703.723511
-422.024963 614.448181 694.731079
-329.834198 430.470612 698.883606
-534.290283 682.855957 650.305237
-523.114197 504.847870 662.082153
-498.097626 425.007629 662.404541
-453.055786 403.887421 664.264648
-390.646881 443.199493 681.987183
-351.257782 388.646698 683.303223
-315.475555 455.543488 707.389954
-410.136963 718.811768 720.733765
-200.240494 642.591553 758.092285
-416.218384 275.284210 664.053467
-497.491425 358.599121 643.430359
-402.883545 337.179413 655.336365
-397.257416 525.913147 697.911743
-358.641449 463.863739 693.173645
-228.319199 520.083740 748.962280
-519.046753 650.698608 700.077087
-479.752502 639.155884 688.891174
-210.385498 630.256531 753.328491
-403.247772 708.921814 716.583557
-303.676697 465.121613 722.854675
-239.304611 637.477173 753.970154
-391.202240 568.126587 699.734070
-533.238770 679.737976 670.487793
-355.478302 527.426880 706.953308
-559.397644 542.144104 666.022949
-489.841309 377.031830 646.437500
-334.059570 713.463440 741.166931
-476.820435 417.257782 672.242004
-454.466431 516.833679 685.056458
-394.115601 410.761017 682.221191
-408.049561 750.354492 719.763794
-298.852875 442.546753 715.833130
-501.955872 363.986115 654.231628
-384.935883 275.094635 679.984619
-409.083466 635.154846 700.490356
-560.404846 629.122559 602.000793
-363.095551 680.425720 710.386047
-520.973328 480.837280 649.031250
-491.398407 325.949890 655.981995
-276.066223 693.771545 747.291321
-380.170898 586.826660 686.262024
-421.867462 690.921509 694.616455
-283.317352 434.822693 725.336914
-425.211792 293.231201 654.006165
-264.544708 520.453613 726.084534
-404.814331 695.559998 696.332825
-367.767853 530.492371 685.814636
-557.019043 599.871643 593.400024
-418.148560 441.453278 677.846558
-307.994141 536.466736 723.098450
-309.634918 559.469116 697.510803
-510.612183 471.964569 664.894165
-560.857483 603.348022 662.393066
-320.672882 562.165222 725.804993
-261.075714 678.711853 755.488159
-317.971313 404.658295 711.834351
-413.384186 665.740906 711.335999
-315.768341 633.498779 735.027710
-272.659302 455.267487 712.094543
-398.560394 692.400574 722.987671
-355.049744 409.303314 686.472900
-519.884644 612.440735 679.588379
-380.288544 536.054871 702.548157
-267.285034 481.841827 725.089966
-349.946381 292.693939 678.375061
-306.427704 642.031128 722.763855
-422.329712 333.755737 663.183228
-427.343628 758.176941 724.867188
-570.310852 379.138275 619.842590
-346.798004 338.330444 680.809692
-302.856873 632.660461 725.642639
-293.460266 643.609070 728.521057
-394.348785 251.849182 656.439514
-511.038666 453.552032 647.730347
-318.466827 672.835815 743.815674
-427.732422 708.413025 704.505554
-566.484558 578.264282 669.921997
-441.752777 563.510132 683.755676
-275.475372 491.889740 724.883118
-530.966125 434.764526 651.716492
-359.235168 388.671509 685.658691
-625.398132 429.988007 647.108032
-308.773193 363.458313 700.712341
-587.401367 584.384705 614.133667
-317.345215 394.247925 694.929932
-577.441284 541.747925 672.612793
-601.100220 332.403351 607.548340
-352.774841 460.481628 712.169373
-395.692017 644.538635 719.229858
-370.366882 480.268982 709.398376
-539.391541 381.249420 631.480957
-472.849182 748.917786 692.337830
-369.879059 687.112366 700.013367
-551.171753 648.644165 630.471375
-346.605927 614.643127 725.880310
-434.846924 603.314880 690.546143
-533.330627 663.837952 636.173157
-307.151276 676.207092 746.901733
-583.480591 426.901550 625.982422
-390.103088 458.154144 683.793335
-513.665405 420.531982 644.250916
-317.702118 485.812347 717.454102
-234.504730 643.792969 749.666748
-428.360992 239.222916 663.524658
-355.339478 301.164063 669.191162
-450.367401 299.235809 638.897583
-582.614380 354.472229 619.458130
-371.968201 502.229828 696.969177
-301.252258 540.065430 727.049438
-511.021576 289.610748 650.166626
-389.660248 435.631927 686.039795
-601.650085 349.315979 626.425232
-371.606812 320.201569 678.299683
-229.395828 562.021851 755.548340
-495.174774 460.882751 652.946045
-549.986938 650.720581 613.990356
-227.707428 652.871033 740.507385
-436.095764 650.248962 679.977600
-248.586365 485.607910 732.232788
-298.676483 462.013428 712.191833
-209.624344 548.711792 759.457275
-403.539368 294.782837 680.387024
-271.821167 485.718048 723.068054
-367.504089 433.350525 702.809814
-265.128387 653.532288 724.847290
-563.863342 591.238220 634.181213
-375.727203 258.434753 671.349854
-383.172028 354.536804 676.104309
-268.085541 622.362793 745.356384
-295.839386 520.159546 723.909180
-501.856567 313.248657 640.853394
-406.405914 456.555054 684.176758
-354.806122 280.351196 672.317444
-249.768417 563.435791 734.456238
-400.867310 318.890381 671.936035
-536.502075 641.365601 612.892822
-651.437866 333.189636 630.765076
-365.993286 565.600220 701.175232
-268.443817 447.599823 706.944031
-517.448242 404.551239 640.610107
-323.977844 425.846313 705.839722
-454.447876 727.997864 705.706482
-640.328796 462.346375 665.291870
-619.116455 360.372620 610.492126
-442.302246 517.944946 690.910156
-548.325439 611.956726 648.292603
-245.779175 587.254089 743.024048
-376.004547 391.326782 680.935303
-527.540283 489.408173 647.062317
-555.018677 639.007080 610.764648
-392.283264 319.705750 678.694397
-602.653625 482.526367 660.280884
-563.636780 599.949524 586.622681
-464.843933 386.557098 657.629456
-324.992706 553.826050 726.770935
-385.045685 307.462036 672.491943
-408.791656 770.674316 735.974304
-305.021606 716.239014 745.678162
-557.157532 626.108765 597.567749
-421.954346 723.013000 708.721191
-519.739014 694.476379 723.169250
-200.778305 647.161072 775.101257
-209.790298 590.243896 753.887573
-559.866516 601.858765 653.019287
-442.977264 507.436005 660.734802
-376.991913 352.102539 680.079346
-444.032532 273.395081 656.061157
-525.304382 276.363495 643.975586
-540.840271 609.077148 674.045715
-393.726654 740.304565 722.333984
-599.762756 313.014343 633.041077
-252.679474 501.407532 729.636414
-232.140945 524.517090 742.943665
-409.921631 663.616272 698.446045
-286.425171 595.016052 730.067810
-389.106537 242.914581 657.036316
-251.421722 547.779419 741.193359
-273.217712 591.460388 745.061523
-390.138153 338.881927 686.542908
-560.556641 585.538147 639.419312
-473.523468 773.820923 742.922058
-203.294724 597.776428 756.423645
-530.786621 295.817413 639.296936
-343.280884 295.947632 687.905518
-344.136078 327.460358 664.641602
-311.762451 430.419800 702.396729
-379.140350 263.385315 679.601929
-349.115417 256.731842 688.376221
-380.681854 389.502106 679.296936
-545.493896 663.571350 624.165161
-547.960693 394.891571 641.955017
-249.298706 507.232452 738.728088
-596.764526 493.406036 653.945190
-561.704834 563.261963 665.637634
-272.211456 554.569397 729.325623
-460.182159 367.661163 656.079041
-272.453003 426.908264 703.905823
-350.454468 614.529724 719.024780
-569.997742 592.852539 642.882874
-401.546661 620.941711 710.524109
-277.375885 685.428040 742.819031
-316.303680 660.850220 742.254578
-245.665451 486.939301 740.880066
-430.658142 528.122253 682.701599
-452.315887 631.472656 678.171082
-311.378479 339.611084 673.375061
-347.720306 372.993958 697.175293
-346.175537 533.028442 710.540894
-590.136047 366.058167 629.731018
-401.920319 605.283325 699.005310
-459.823792 255.945938 641.433594
-489.134705 467.206665 661.940613
-266.922699 524.294189 726.563477
-575.159912 389.010101 621.124084
-316.782043 396.404510 702.928101
-459.126343 626.136414 690.845337
-547.244263 641.252441 685.670593
-200.015656 639.725769 765.143372
-321.973236 436.915527 687.032349
-550.199097 508.241241 648.792053
-532.058960 703.350342 706.479980
-511.355957 371.812103 639.656250
-235.078537 539.964844 752.781799
-461.268280 285.509857 632.975220
-563.925232 600.052979 595.546387
-278.920410 507.160004 737.590698
-394.210754 611.721680 711.019958
-395.578369 566.634094 679.462585
-600.577820 535.213440 615.884094
-309.335815 684.922180 726.704468
-350.031250 668.310608 729.666199
-350.715332 464.434418 683.110474
-224.130386 542.714844 730.781738
-535.129333 690.005310 662.602356
-568.584045 548.341309 655.891235
-595.744751 534.204773 645.703674
-292.143097 498.479431 713.941406
-418.161652 601.461060 702.413208
-387.255920 291.586975 680.196045
-470.598297 423.826141 660.287170
-271.455719 683.554443 742.937134
-267.093781 441.001678 730.070313
-353.923370 689.844116 704.918152
-553.089478 429.365662 630.639526
-371.752655 272.220947 677.205261
-524.033875 470.150757 650.174011
-555.604126 448.093048 643.934509
-551.837708 616.226135 582.483154
-482.380920 454.614990 661.919617
-418.269409 250.813248 667.861511
-516.313293 367.922729 637.750122
-228.047897 628.333313 761.915955
-286.349640 680.062561 736.581177
-451.352142 322.316223 660.065369
-513.418335 342.090149 650.632141
-598.844116 547.475037 611.367615
-653.815002 417.871063 657.008484
-462.785583 753.049744 716.516663
-312.227631 507.402649 713.813232
-494.386902 723.436218 714.460754
-529.291199 296.287140 625.067078
-543.318054 363.670776 616.883484
-530.745056 369.598297 622.507568
-456.771881 653.627258 701.675110
-447.328583 573.599548 696.771545
-356.940491 410.339478 688.823486
-557.755981 634.486145 633.791260
-544.857849 669.431641 647.502441
-332.827911 540.036743 713.398743
-444.730835 355.158691 671.296509
-545.608459 346.787567 633.321228
-553.939636 499.276276 650.821533
-213.399658 599.404236 735.900024
-522.751892 610.031372 688.188782
-584.023560 433.417877 637.013428
-532.249084 594.927185 656.682251
-199.460617 622.436646 753.735779
-512.192383 648.451843 687.567017
-414.522461 678.118225 704.719421
-413.561279 644.297241 702.276489
-270.602386 462.188416 733.547119
-343.887299 612.545044 714.025146
-516.822510 544.370789 669.741943
-325.041718 704.511292 736.164673
-362.237640 316.730286 679.853577
-274.222107 593.806152 743.778381
-521.446655 280.436707 641.362244
-255.227234 594.286682 742.657715
-470.502441 725.030029 708.867554
-246.694122 589.764404 748.364624
-397.168060 374.817993 684.334900
-585.579834 597.345825 607.459412
-320.452911 562.902283 728.636292
-366.360168 429.293182 680.403198
-400.997040 734.540894 715.137329
-266.150787 701.604126 737.299011
-545.938049 644.053711 652.610596
-441.790802 300.090637 653.852783
-606.866821 342.543121 607.454651
-506.009552 738.650757 735.206360
-435.283997 490.195618 674.690796
-275.033936 625.777405 748.204956
-587.153320 339.704956 629.928955
-281.127380 587.110718 740.715149
-311.347778 359.507019 697.069397
-519.997620 378.561188 626.291565
-551.828674 609.938049 580.627258
-254.276703 554.251526 746.704102
-372.099731 541.847412 711.304199
-419.556976 411.412262 671.180725
-354.921814 339.667175 684.849854
-566.994263 590.368530 646.658875
-557.608521 299.608765 632.134949
-318.680511 595.954346 718.930786
-516.393250 456.564301 646.688965
-533.873474 666.604858 667.357666
-533.974915 705.584167 719.732239
-573.187256 578.409485 643.630005
-595.891846 525.427673 632.685486
-402.829559 523.282471 687.072510
-635.119141 379.185242 628.051392
-320.313080 599.327087 731.115051
-515.282471 720.668640 708.164185
-274.322815 514.685669 724.043396
-340.363647 399.118774 691.692505
-245.964355 485.819977 735.416565
-317.029236 408.207672 698.386597
-438.567902 345.178131 672.257690
-384.324188 645.232605 710.945190
-417.285461 457.629333 688.653259
-516.966980 623.163025 667.739075
-344.641571 495.947998 703.980042
-268.308167 514.009338 735.849670
-385.576416 309.063507 683.862793
-290.771759 464.001770 714.843872
-363.388641 382.748474 683.297302
-238.002838 585.871826 751.530029
-354.341675 388.736511 701.549622
-346.510437 490.211731 717.148254
-496.286438 507.193085 646.201965
-455.748230 386.918823 671.469360
-306.993164 501.820862 728.140686
-496.022430 513.133179 660.806641
-440.813812 484.008026 677.508179
-301.525635 450.987946 711.083862
-286.490631 381.072235 702.745239
-435.077515 668.537781 696.143250
-256.413818 535.965088 710.661804
-308.309387 605.022217 736.676697
-389.795532 331.235352 685.905396
-524.016418 659.796265 708.723572
-253.002975 666.617432 748.126587
-360.095245 253.931168 682.153015
-559.272583 599.266785 577.396240
-571.162170 502.273285 652.450195
-210.496078 645.281677 756.221069
-471.075226 443.328796 662.085876
-379.612427 576.834229 711.698181
-574.404663 594.140259 653.014832
-218.666168 663.934998 762.001770
-413.071899 287.778992 672.600708
-501.579071 430.872711 647.991211
-387.863373 586.772400 701.168335
-498.477814 369.341736 643.034912
-570.136108 575.455017 645.382507
-634.427673 501.620239 644.292480
-215.368637 654.817688 748.750183
-371.874420 395.793243 685.882813
-418.313873 347.941925 664.837524
-193.319687 640.310181 766.486877
-371.050018 726.218750 730.405945
-337.052948 346.549164 669.570496
-492.968933 483.136536 653.011597
-422.675323 591.900513 700.352905
-535.885376 689.098938 685.478943
-581.145508 541.439514 640.085754
-334.070801 586.821228 694.503357
-547.468262 388.750549 642.382751
-370.682922 342.947723 681.115112
-238.846344 571.506592 740.588196
-342.660187 455.759979 691.776489
-531.962891 453.550812 641.987427
-610.766418 491.873962 651.540833
-555.169189 424.774261 629.734619
-532.699158 675.706177 717.766479
-288.396820 486.514465 723.889771
-380.455292 256.714661 683.985962
-489.719055 287.632385 641.251038
-552.201538 603.993774 655.163208
-556.264099 621.927429 634.385254
-330.567108 535.894775 712.651978
-357.258270 512.554321 698.262695
-372.014587 385.063538 671.424805
-248.292953 660.972351 756.555725
-550.135559 607.319214 624.961975
-226.980896 694.070984 767.067688
-313.007690 463.631622 709.269043
-337.494446 349.916931 710.286377
-451.832520 369.800812 674.747559
-284.048676 599.335815 740.660339
-459.926483 314.657898 636.221191
-248.891800 655.107666 752.225281
-264.937897 608.470032 744.238159
-475.201141 675.714844 691.862061
-326.335541 699.749390 732.557922
-578.831787 361.033356 599.760071
-595.936279 563.792725 616.847351
-290.887451 523.888367 728.515686
-525.077820 342.087158 645.879395
-357.305756 423.210815 688.327393
-545.819946 527.518372 670.865295
-397.436981 392.831970 691.641174
-508.417450 345.192810 649.448608
-490.721375 323.749451 643.960022
-422.332611 618.722534 695.827271
-569.565552 397.723358 625.269592
-538.473999 522.507996 652.899475
-491.020813 417.905823 666.743347
-520.762024 540.968079 665.159668
-557.354309 598.891479 603.250732
-357.835602 703.462524 731.925598
-546.405518 632.704956 655.250488
-375.123444 365.655914 678.798462
-309.981323 381.544922 701.607361
-232.387344 650.783752 762.124329
-389.257355 278.212616 666.046692
-422.726074 761.166016 723.926819
-405.928345 496.195679 691.196106
-252.759842 627.840332 742.530823
-303.936646 476.260223 713.510010
-558.942871 492.190338 654.186768
-350.120483 556.574097 717.594666
-512.266357 542.138672 667.050781
-393.495575 620.987244 713.164185
-444.658051 287.338074 653.345154
-353.087799 639.480957 700.214111
-399.752838 700.594543 710.700378
-376.375519 539.019470 699.142273
-588.230957 344.509705 610.967590
-512.774719 371.249390 638.055969
-339.223846 315.746674 682.478760
-485.159912 676.127075 707.585144
-294.968384 628.142456 724.862427
-501.786224 499.357117 658.873352
-492.085236 530.058716 671.445435
-243.744553 588.510437 725.549133
-552.191284 627.905884 658.351868
-398.377319 761.686768 730.248169
-604.140137 489.237732 659.127075
-420.988831 568.667236 698.653137
-419.166779 465.454926 675.248413
-385.768768 346.488434 674.646790
-310.842499 705.717224 729.207397
-371.526459 615.424988 710.774048
-532.376770 683.629211 640.000305
-536.869934 686.493286 658.233521
-564.761963 348.477478 620.130493
-535.355530 666.163147 702.286743
-317.440033 712.909363 725.986511
-251.605682 483.310669 729.710205
-328.404816 298.509094 695.090759
-389.384277 272.048248 651.406677
-592.408752 367.630798 631.805969
-354.287109 506.438568 710.742859
-379.690796 339.494995 679.169861
-240.214752 680.690918 760.069824
-402.988586 246.306885 669.485107
-313.682922 552.511841 729.654114
-457.968109 723.655273 706.315674
-538.662842 560.923462 658.050781
-524.259705 691.181702 662.353699
-412.500214 406.103149 656.486145
-333.864380 351.114319 706.288086
-511.151855 596.235901 681.351624
-581.556763 537.473206 634.853638
-420.620514 482.019104 677.731262
-328.548584 485.728577 719.175598
-281.666656 655.994568 730.079651
-235.748596 524.374756 732.234253
-329.071381 354.155304 687.068848
-355.582916 270.811188 675.654968
-330.219391 404.170380 700.945435
-355.830109 374.216339 688.725952
-375.314514 379.682343 695.094421
-468.447021 502.838440 681.258850
-341.146606 658.898682 729.411560
-329.214325 466.165131 704.232544
-452.232971 761.691040 710.198242
-287.663422 407.314331 710.428101
-288.764771 688.627686 740.724487
-356.064545 704.523804 734.203674
-332.783905 372.107147 694.920959
-411.246307 745.441895 702.391174
-278.835663 575.375183 725.188660
-448.862671 509.545502 689.761230
-492.241058 501.441132 653.007202
-323.323242 359.240662 692.111694
-387.576996 260.179657 647.450256
-392.046997 472.431396 685.340637
-362.308899 384.906525 685.889587
-274.414307 585.268005 732.230835
-530.136780 663.074280 695.243896
-414.558807 653.885010 696.670959
-534.821594 629.230530 639.822632
-459.898804 483.463013 674.005615
-482.736542 271.143402 632.687439
-302.863861 561.416565 717.889526
-362.476593 408.612183 697.418457
-433.412140 553.686707 685.892639
-356.742035 481.411499 700.733643
-266.541748 559.359985 739.658752
-531.407837 591.379639 656.556641
-290.501617 573.922668 729.567139
-530.458984 664.032166 609.437439
-272.894165 480.100677 718.886108
-577.662354 396.328430 620.952393
-333.665100 334.298004 704.815125
-409.008362 612.520325 697.974976
-598.920532 313.451996 636.954529
-381.846558 624.416260 717.768372
-589.398682 523.586609 629.951660
-392.157776 602.208862 702.920166
-411.731445 446.954681 677.625671
-536.312439 621.060852 694.286377
-493.758118 330.834320 659.017761
-283.777039 594.233398 739.662659
-362.721649 390.467773 684.447571
-416.033691 697.681458 705.567322
-564.038269 589.560120 629.241150
-222.074478 617.602173 751.648926
-329.687927 702.049438 738.240662
-442.309692 591.817871 695.063660
-476.970978 497.604340 666.564941
-535.190857 658.370850 625.491089
-611.100708 517.588135 604.570068
-482.333008 343.231506 658.863708
-529.724243 705.609253 710.678772
-577.672913 562.944946 650.145630
-392.741974 295.603088 681.865784
-460.359009 579.901428 680.069214
-289.138794 521.059692 734.892029
-579.223633 542.285828 635.614197
-359.913635 541.699951 713.355286
-355.599365 450.010925 708.544983
-271.015656 548.235718 743.324341
-512.793640 339.351685 638.708679
-332.832886 333.906281 715.384521
-243.367966 634.203918 752.984558
-263.076996 556.421143 743.277161
-401.295898 527.190491 701.124329
-583.091248 329.500305 600.741943
-343.361023 645.182129 730.166260
-367.749603 522.981750 699.619263
-349.300781 515.794617 716.482788
-448.888489 665.143555 706.807068
-278.548920 456.997101 727.619385
-577.000549 485.979889 648.293518
-485.607758 340.486694 644.074951
-434.967346 344.002106 650.548523
-428.511810 396.796997 678.882935
-266.635101 545.245850 743.806396
-465.188599 304.541534 664.345520
-411.067963 214.841370 653.778564
-421.411560 677.650635 693.955994
-313.076416 355.298004 679.476685
-466.712799 275.575470 641.755432
-411.843597 698.000854 709.284668
-482.670380 473.253784 673.684326
-596.611145 335.695801 609.964905
-395.970367 295.888611 677.970947
-402.092224 428.682709 689.943176
-576.026123 567.668091 574.726196
-339.267090 609.932556 718.001587
-640.877625 465.930237 659.215637
-595.857056 510.264313 659.042419
-433.209961 748.211365 714.535950
-381.620636 476.907288 688.115601
-199.604538 584.391663 767.388306
-479.589172 497.639740 666.898499
-228.188507 530.919678 736.629211
-510.459656 733.209045 724.305420
-571.369141 576.264832 653.284058
-534.016235 609.027649 650.763794
-226.772186 689.367249 755.964539
-403.032440 473.454285 685.190002
-229.843750 668.535889 761.808472
-458.472992 606.028137 683.219543
-590.535522 354.285400 628.497559
-578.893799 524.440918 667.085022
-532.160034 660.244324 678.237122
-318.029144 532.813110 698.432983
-334.985565 531.343262 713.981079
-427.937866 446.899841 684.779297
-341.592072 692.030579 709.880981
-182.348755 612.948730 756.393250
-460.100555 465.913727 679.112976
-479.982086 727.486694 727.928101
-447.394897 371.910645 650.893555
-282.176270 453.625488 716.683716
-501.460144 329.054565 656.737915
-458.194977 781.122437 740.758423
-354.745575 429.595276 695.848328
-581.511963 506.698517 664.372498
-528.076843 290.282104 622.572205
-449.811829 442.129669 665.485168
-561.033142 575.066589 663.369080
-384.821869 597.275513 684.202087
-261.309021 546.212158 739.278015
-489.510254 748.716309 731.556335
-295.016357 443.415649 727.157410
-257.649323 678.985474 748.669128
-344.556244 459.464966 700.871460
-587.131531 536.193665 612.636414
-571.713745 574.442261 662.777283
-299.016754 408.289551 704.936523
-332.866760 702.281860 724.927612
-421.096222 320.738159 677.079529
-493.657288 533.178101 662.831299
-576.437439 589.557922 623.535583
-498.964294 758.139221 762.014709
-537.510315 644.384277 663.210205
-476.468353 482.477570 676.056763
-419.116425 250.496445 646.162964
-335.585754 396.050781 698.245605
-410.852997 252.791626 658.182617
-505.761261 727.464478 710.872375
-358.258606 682.770874 703.290283
-372.470917 518.818726 702.890686
-512.122375 626.323059 673.289917
-267.444000 551.709106 715.077881
-454.089600 520.672058 670.675049
-484.187683 579.072205 687.373108
-314.092682 464.685822 714.346558
-588.918335 536.878174 601.723816
-413.763916 233.425964 651.574829
-386.435303 731.599609 706.131409
-392.764618 500.211975 692.627441
-431.813751 492.067474 672.775696
-286.051727 563.602844 727.678345
-518.015503 701.640381 682.148010
-239.706741 559.351685 750.593506
-326.998718 609.991760 729.689880
-538.946106 601.769775 650.692932
-442.410583 326.755920 653.435669
-293.050446 467.190002 706.985596
-264.980774 631.536560 745.592712
-232.598755 661.927124 755.480774
-638.223511 470.586700 661.472961
-289.275299 452.073517 723.840027
-460.555359 325.263153 651.411072
-378.260101 762.216431 733.763062
-369.775330 486.452515 707.717468
-582.574585 560.602661 620.247803
-429.417755 464.082703 670.142395
-281.353363 456.937531 733.204590
-198.630356 611.535034 749.809753
-248.599487 501.891815 715.800415
-629.136963 361.895874 626.106812
-294.802887 460.783234 723.574829
-451.024994 561.286987 689.305908
-433.291168 282.339355 670.125183
-551.013123 305.919983 620.771484
-496.194885 592.795410 670.147888
-566.249451 477.184082 658.003906
-466.705719 611.293152 678.861633
-395.240662 619.738159 706.793579
-411.309937 336.293549 678.854431
-530.706116 449.092590 647.925537
-329.486633 716.844849 739.279175
-360.325989 319.744324 698.014954
-324.486450 629.527039 717.228271
-253.932953 619.764954 753.356628
-367.413391 520.424316 711.463684
-297.760742 613.303101 738.092590
-214.593216 565.127380 762.446106
-408.377747 241.737335 653.013794
-245.256088 536.976196 732.625000
-369.466858 356.720490 671.496338
-566.775024 396.664093 636.983582
-580.623779 535.725220 670.782227
-382.356750 215.903564 664.636719
-281.975647 646.092651 747.150818
-376.378998 432.829376 685.733582
-508.319183 713.635681 731.278381
-384.745514 493.819153 691.791443
-271.490021 623.660156 737.314087
-276.626434 489.455505 719.579224
-541.044495 311.303467 636.683044
-497.680206 477.748260 672.029175
-242.150085 700.130554 764.000671
-343.351654 432.418976 694.391968
-587.408630 514.843140 642.310974
-558.724976 385.227905 624.177551
-570.356018 582.394653 652.736877
-496.078094 626.563538 680.591125
-568.903870 324.576416 633.630066
-319.101318 682.073730 723.225098
-419.404541 530.819641 700.688660
-488.299469 308.074554 650.411133
-488.148468 684.592224 705.871216
-414.837585 376.458618 684.539673
-287.060883 578.870056 715.659302
-385.824646 579.051819 702.696594
-514.389343 443.113739 644.959290
-436.489655 575.758850 686.253601
-238.805756 643.541016 756.633362
-496.887482 485.359955 668.569458
-446.515930 543.632324 694.531067
-368.662445 722.334900 727.655457
-313.318665 705.558411 743.179504
-536.491577 653.453125 618.210999
-360.002838 364.736420 681.455566
-450.813141 322.561829 664.104736
-423.557648 494.485657 686.016663
-391.915771 498.136627 685.189392
-327.933899 575.305725 725.561340
-393.069214 753.718628 725.806519
-306.547028 724.675415 730.840027
-375.037842 212.151871 668.295776
-190.447540 599.823059 768.286316
-561.199219 518.209961 652.705322
-351.479889 605.693848 714.527771
-388.000214 765.521545 728.516052
-245.869995 483.760101 724.992065
-554.290039 605.414185 580.227478
-325.649719 437.455750 710.207581
-524.466919 418.675995 658.368042
-322.104645 577.286072 716.627502
-464.629791 599.544739 688.994934
-677.509705 337.556183 632.501221
-282.200195 614.013977 711.139954
-360.580353 587.857971 709.255493
-301.333740 407.791443 722.589294
-589.466370 561.399841 600.864929
-324.332947 432.611420 703.161194
-593.643982 495.699524 663.642639
-556.029785 613.206848 603.580933
-554.096130 370.874359 608.058655
-436.786896 335.271667 656.441956
-385.717529 297.016510 665.242249
-497.225586 378.796387 658.063171
-542.346436 645.151733 646.502075
-556.939758 643.157959 623.487549
-477.795959 364.686920 648.717896
-526.633545 556.188477 659.448975
-578.195251 426.991821 636.086182
-369.613617 410.365417 701.090332
-403.972870 412.958252 662.325562
-497.514984 546.786804 675.215820
-352.848694 270.702606 679.198181
-464.493103 647.836914 683.339233
-364.119537 745.012939 732.075378
-596.485596 533.195190 616.362915
-486.027405 462.539734 656.297913
-245.434998 634.272278 745.466492
-328.975983 424.159119 713.145508
-325.357117 683.176697 735.989502
-409.058716 510.568756 685.401917
-360.532837 665.486389 721.804626
-493.415741 712.543213 724.501709
-305.784424 579.609009 725.986938
-450.675598 529.089172 683.716431
-395.553680 504.271118 693.799988
-461.731689 492.346436 681.834229
-622.281250 466.014496 656.807312
-225.507568 574.840210 738.813416
-193.148041 602.224915 761.980042
-416.053436 384.464386 674.576721
-359.586273 702.880188 726.842896
-394.888458 591.058350 700.960876
-557.449463 607.471375 595.855408
-315.587616 456.156952 711.445740
-288.539551 488.177704 723.969238
-398.553070 697.103516 714.842224
-531.994446 502.039795 664.367981
-571.582703 408.062286 634.082397
-464.373566 317.959320 635.546509
-437.186859 492.424225 686.565491
-298.643005 484.463745 711.765442
-532.358093 333.446075 618.468933
-442.983124 378.346008 665.170349
-300.983551 611.600281 734.484863
-546.332275 505.333191 662.595581
-343.567108 575.369751 708.127319
-382.285126 436.978241 688.389954
-406.914490 715.389771 690.753784
-229.843582 628.252197 756.049500
-594.617737 528.321716 607.137085
-391.399872 530.440247 693.640747
-501.653290 428.629028 640.160583
-310.316620 356.426666 717.770386
-550.165100 613.112366 619.380188
-552.264771 344.351593 637.063232
-197.210312 613.127441 756.928528
-452.668610 554.449280 678.675415
-563.840759 476.572968 639.097961
-373.267029 495.181183 678.963867
-385.175720 723.118591 723.110168
-570.164307 418.010651 622.253113
-540.657532 361.043427 643.498413
-416.169952 375.220856 668.820679
-351.082428 693.672119 731.914429
-278.097656 564.812500 731.176208
-435.017975 313.750458 673.167664
-446.278625 450.836182 673.063477
-215.446030 565.742615 752.524109
-309.121765 588.248108 737.230408
-271.965302 681.509521 735.751953
-303.892456 433.823059 711.490967
-454.706909 569.136230 680.289001
-511.371338 488.289703 657.006775
-423.133728 581.642456 698.753662
-251.773071 534.616882 727.020508
-524.698181 524.796265 664.486633
-347.432922 529.828247 712.314758
-357.688782 525.845764 714.791138
-347.620148 419.619812 692.642334
-396.634155 319.922668 666.601624
-444.470001 669.711426 705.470825
-195.194626 681.637817 757.882019
-397.426605 408.347260 681.049805
-590.093811 542.231445 633.206299
-288.411346 633.062134 742.346619
-247.118652 604.693237 731.136353
-270.188965 481.171204 715.601074
-227.654846 644.039795 751.587036
-240.242737 514.022095 734.817688
-439.007507 433.266174 663.144653
-482.114594 366.949707 648.592041
-616.975281 358.500000 620.880615
-352.537689 564.256042 719.602783
-417.760925 296.108826 666.078125
-334.381378 698.118408 738.397217
-219.684296 536.825439 738.993591
-400.341736 553.450684 706.833191
-497.105164 361.548462 655.490906
-282.825470 520.442200 723.231812
-253.278198 637.310425 756.588928
-251.580170 503.097168 737.415894
-344.579315 437.918976 697.800171
-509.671783 726.621399 716.631897
-419.649475 444.313782 667.932312
-536.751343 633.252014 653.095093
-299.935303 705.475464 745.979492
-176.949875 654.347961 771.783203
-508.489014 310.582825 632.424561
-437.829651 756.371643 699.762573
-540.605286 655.033142 647.694031
-234.411865 568.669006 740.438721
-238.346405 634.612305 747.356262
-382.695190 254.905136 664.726990
-492.375214 554.468811 677.662415
-299.664551 413.779327 710.816162
-457.221283 377.892914 656.269714
-367.808075 328.510010 680.401245
-443.812042 506.365265 688.906372
-568.917236 493.704865 650.842224
-359.335419 403.101379 690.776428
-556.357605 343.926605 640.873474
-402.567505 254.310303 643.477173
-587.350098 555.840698 629.479431
-420.235901 388.981995 668.717163
-534.175476 707.597412 712.595093
-367.699280 645.648804 718.025574
-406.477875 361.145355 668.858521
-460.007172 304.056824 645.999634
-513.000549 289.192627 627.060730
-364.079468 418.212708 678.918396
-250.101868 462.147339 728.021423
-412.380615 356.059723 680.348877
-352.638641 372.751099 689.430969
-529.425964 657.914612 636.127808
-561.709778 586.300964 671.324097
-371.205719 242.449722 675.597900
-483.491821 343.880554 644.887939
-592.099243 539.288818 637.438782
-366.114777 585.074768 707.925415
-313.988586 680.798523 739.457214
-461.460449 428.551117 664.095276
-414.691406 495.851349 677.841431
-221.397171 544.591003 743.432861
-303.815338 512.656372 730.106201
-488.640656 542.230286 665.545837
-512.497803 692.762085 671.912476
-359.197601 352.855774 685.644592
-596.893311 504.359467 662.939758
-330.357269 686.237000 738.412720
-264.161102 559.209351 716.723206
-403.425079 261.051331 654.417358
-512.903198 563.011353 675.965759
-388.006287 373.606995 691.167603
-237.744797 631.903259 732.700562
-298.195740 390.811584 690.066528
-531.531006 518.287415 651.047852
-433.257751 699.753540 706.389587
-396.270569 260.818115 662.526917
-481.260071 382.439301 650.305847
-260.776367 443.800537 735.543396
-296.280975 553.584045 723.101440
-570.327576 605.245117 601.800415
-385.874054 425.912323 674.502625
-638.815979 374.255035 616.412048
-434.369171 547.700256 679.726929
-394.439819 246.727112 662.563049
-362.921204 580.573608 710.696838
-376.289001 574.771606 715.332275
-268.558655 524.714722 716.801453
-316.074646 376.240417 695.872253
-457.222412 591.247925 682.259644
-417.566406 275.450195 670.987915
-565.688843 416.361115 613.769470
-518.069214 603.453735 669.620667
-354.591431 725.539917 732.626770
-385.451324 581.100586 713.375977
-375.579224 666.786865 718.428467
-220.889771 578.778992 741.736755
-567.986755 430.323120 633.789124
-445.200439 277.849335 664.929016
-321.738495 700.593201 732.692871
-434.858795 623.322998 676.722534
-340.883911 325.436859 701.345398
-375.635468 213.262222 667.767944
-386.976532 287.273834 670.411804
-287.533295 567.332703 735.532227
-369.118439 476.842072 707.919678
-420.304657 662.092651 703.209534
-292.644409 495.294098 722.054504
-416.843140 421.728119 688.557495
-411.627350 694.485046 713.952087
-496.223022 576.846069 681.401611
-172.880539 649.043640 791.605652
-365.277008 681.024963 721.123413
-327.041443 504.374084 693.307312
-219.628479 661.026611 750.068970
-433.333496 621.005737 702.981567
-365.303467 747.951050 743.385620
-446.134796 448.656708 684.322754
-454.723877 341.685760 667.013367
-388.975372 403.694244 692.988342
-544.526611 488.895782 642.537964
-548.876343 657.171936 626.637512
-442.497314 667.779053 708.067749
-275.957153 532.769348 722.089844
-345.437592 346.699219 678.635315
-264.972260 462.087555 723.021423
-381.577728 559.836182 709.750610
-383.386139 716.624451 725.020935
-321.321869 684.752319 737.553711
-652.277588 370.166656 639.460083
-489.378021 614.451721 681.904114
-553.513794 399.515198 640.694580
-499.706909 601.599731 680.751282
-451.535980 500.852844 671.801025
-402.403534 721.575989 712.660706
-341.608704 336.051758 686.768982
-510.381836 522.539734 668.332703
-435.242401 375.497192 674.315857
-358.819214 708.454346 727.368835
-526.338928 425.915222 646.313110
-416.916046 654.976257 714.077393
-260.853973 669.909485 755.619629
-603.300720 511.144928 606.863220
-576.345154 501.836182 655.630310
-540.307983 638.309021 703.358887
-439.466766 401.607574 663.889832
-593.291626 561.999695 618.881531
-460.129120 457.930298 669.078430
-388.957611 334.313263 652.328491
-393.519287 546.565308 692.723145
-247.719711 500.008545 730.483154
-417.172028 359.003052 654.929810
-331.692322 674.002625 739.964905
-291.376617 587.241638 725.101257
-409.795074 672.210938 709.082214
-374.269989 482.008087 703.160706
-483.156525 568.365784 672.286499
-465.410217 374.978424 653.335632
-501.034088 297.012390 647.557495
-375.590576 734.825745 732.660034
-620.109192 501.759918 621.027893
-497.208130 661.178589 692.279236
-314.224548 404.178558 719.431458
-423.204437 222.923386 658.246338
-261.962341 619.957947 717.239624
-604.782166 553.555542 612.078186
-482.790802 575.395203 681.602966
-303.186859 667.730713 732.567200
-513.597717 379.682983 657.862427
-376.210663 551.362671 705.535583
-502.074615 275.262604 627.174927
-208.877304 559.925049 753.320923
-454.334473 591.262634 691.447571
-350.541595 354.235229 687.172119
-415.051910 323.151093 661.787842
-446.875122 432.236267 659.949341
-467.093475 328.600555 645.888611
-499.282898 666.791992 694.287170
-422.903503 424.854340 688.682800
-443.885193 465.550812 654.907654
-327.010864 665.375305 710.505859
-542.469910 343.953278 607.037354
-450.258881 699.991516 685.504822
-410.288818 689.666382 699.141357
-197.984024 605.326233 768.387451
-608.373291 516.726257 624.692871
-381.157104 299.565674 673.242126
-298.422363 456.768219 718.103516
-396.789673 212.971313 662.200684
-240.025513 471.465240 722.226196
-296.964813 636.209167 745.263123
-389.285339 277.192902 678.926880
-541.305908 500.640869 646.451355
-245.765335 596.500916 751.847839
-633.837952 343.147095 606.199768
-513.776611 431.349792 656.693726
-216.907562 612.279724 748.150757
-554.113647 610.814575 586.399780
-379.198212 375.255676 693.409058
-440.599792 254.859543 655.274719
-437.090332 423.239471 669.447632
-227.763824 550.585632 745.743591
-564.549805 401.218628 637.846313
-545.329712 672.114319 629.906555
-334.218994 726.878418 741.711914
-495.350616 268.168701 632.312378
-294.883575 432.627167 715.098694
-431.572052 584.750610 689.026733
-380.125732 314.138000 675.670227
-365.947052 284.232605 672.166748
-287.083252 479.650146 727.153076
-513.441040 731.693604 742.586792
-354.581665 711.873657 727.948425
-371.040314 305.220581 663.944641
-362.833557 620.132446 721.728516
-390.462891 485.785675 689.784668
-519.814697 300.434418 642.354004
-252.318146 607.271484 738.697510
-326.275421 656.465576 726.350525
-349.930603 600.547729 722.416626
-366.587097 420.456940 688.246216
-555.797791 592.034180 670.416870
-440.654694 333.149078 670.273804
-325.311523 585.460632 727.438110
-488.301819 291.841217 637.583557
-639.180969 462.484833 671.682007
-409.015869 339.002655 664.597595
-398.706696 334.033630 655.917053
-464.874481 397.646820 655.698853
-379.310608 264.247375 660.237305
-390.695190 553.468323 706.484802
-277.417145 668.320251 733.266541
-258.583466 544.734070 726.897583
-345.706940 300.991150 682.835693
-489.053040 588.700684 684.194458
-449.761414 237.783707 647.768311
-309.779999 531.597351 714.601074
-494.588867 289.772278 640.247742
-249.021439 578.890564 748.489380
-561.104492 617.614990 600.525208
-322.936829 525.620178 690.106079
-371.808777 685.067627 721.856934
-399.959229 308.313843 670.610352
-466.007751 716.914429 708.097839
-516.781250 299.091125 644.422729
-444.310272 277.645264 658.757690
-176.576248 638.558105 755.869812
-259.074860 602.818054 742.830872
-399.456573 565.393250 709.484680
-226.289047 673.834961 766.308655
-241.423676 580.114563 733.813721
-558.097900 624.713013 619.433228
-587.312927 552.008423 642.170593
-577.073242 526.205017 664.399597
-398.315704 757.528503 725.476196
-448.155273 402.131134 673.493774
-548.596924 616.047424 666.515808
-468.360046 317.279846 644.306763
-534.403381 298.679047 620.938416
-580.463379 566.498474 625.421326
-308.267242 364.597626 701.955322
-387.674194 592.650330 702.824341
-544.879700 657.025879 614.871033
-300.934753 533.431335 725.950867
-572.395630 597.624756 615.464111
-330.452209 464.281189 701.417969
-599.752502 538.712891 635.124329
-565.295044 629.299194 632.649414
-220.136078 682.841553 765.313416
-248.457794 506.708679 728.427368
-530.931763 699.910706 688.662292
-422.978363 694.733337 689.008057
