ply
format ascii 1.0
element vertex 1453
property float x
property float y
property float z
end_header
173.168594 -20.185471 871.914551
168.252228 1.723271 889.232361
-134.546188 336.329163 928.734985
185.491104 82.179863 836.942566
-120.636414 296.623077 953.344604
-102.251152 237.168442 951.987915
-17.004152 39.476234 1019.016907
136.263031 108.977943 850.600525
32.845474 -46.261066 1016.995850
56.877205 98.581055 907.862976
-97.058632 -10.887577 1052.527832
-22.305872 124.081139 965.342651
-133.324570 193.642563 990.573364
-23.279860 149.423111 964.022827
36.765858 48.665909 976.530334
95.032158 154.951508 850.451721
107.690964 -0.361749 943.417603
-24.692883 -12.959396 1034.573730
-75.933861 280.424683 930.328003
159.969925 30.890810 880.463013
-78.032005 202.036484 959.988892
136.809052 113.344086 839.313782
45.035324 33.213520 977.720398
34.265278 106.002464 943.160828
22.502115 132.478165 929.974121
-8.555702 246.757187 878.281677
-42.341801 268.801147 858.732117
129.008362 132.504166 851.768982
-82.295853 283.103455 911.828125
-100.501282 305.054718 928.186218
67.210670 -5.104181 1000.485168
-143.160324 265.224213 988.189758
-20.844130 -7.311857 1050.633057
-71.809975 65.157310 1091.783325
117.936920 160.497986 848.791016
91.054283 117.709404 892.497559
-50.870663 267.222260 898.200317
-121.196327 300.893799 914.462769
72.091438 197.775299 817.572266
1.023964 61.712555 997.939514
-46.765091 245.836639 918.522339
75.604637 222.360580 827.629822
61.453049 92.857536 912.335022
-108.412186 132.770248 1032.963989
-99.339386 322.586487 920.334473
126.233109 71.716530 880.866882
209.636078 63.373859 833.906555
-167.953094 240.273392 1011.141418
119.468712 -11.002474 927.226929
175.903259 132.484283 797.351624
112.293739 205.761063 771.718079
-15.318381 176.530594 942.012817
64.878975 168.022247 844.506958
-31.854988 287.293579 868.766479
113.476486 212.873856 797.950928
-73.104996 154.725281 961.102478
-148.574524 296.505310 947.717590
168.338898 131.899719 815.817627
76.211105 139.330856 891.880066
-135.503830 82.386253 1139.925537
154.483337 85.980911 851.022095
-52.941711 129.906418 1003.502930
116.539940 132.994522 866.200073
153.975922 93.951172 838.189514
201.591095 135.368668 768.313293
51.981247 253.578522 830.426025
-165.046158 140.500809 1045.442261
17.678938 183.335449 902.226074
89.093811 124.331528 843.246826
-24.536137 215.981934 917.041077
64.355263 186.138885 876.482666
-103.398453 124.696655 1048.641479
63.105503 25.675806 952.838379
14.774964 231.270355 865.986145
52.822281 10.364515 967.221802
-136.932648 318.787872 938.605469
-131.476334 343.751068 922.882751
58.017906 -14.880139 1005.963623
188.195358 152.145294 761.700684
-72.767258 263.394287 938.385681
-132.153778 158.429214 1038.514404
179.198807 118.055481 778.350952
243.445953 101.389893 774.087769
-112.151443 274.290314 944.278503
222.759705 139.466858 781.220886
-74.421913 114.524673 1023.425659
-48.211693 15.062730 1075.210327
-115.600159 193.456924 996.838379
-114.899490 258.127869 966.825806
23.742025 23.062550 971.835022
73.800690 123.376663 890.867859
-100.506744 341.575653 904.981140
215.605453 35.255573 848.698120
175.620117 147.326126 758.790710
48.436710 15.819740 983.930969
-68.984314 174.869675 942.651184
-71.123894 75.712822 1028.702026
89.177780 173.542282 844.371887
127.898300 196.536469 801.068237
-164.343048 235.437454 1002.372803
-27.973728 23.006973 1049.669067
-103.749039 297.916626 917.531311
-158.850815 159.352417 1063.197632
-139.886368 323.639465 949.055725
116.447861 43.172619 901.637024
233.145798 125.064903 766.217041
-1.306349 197.525146 906.394348
-59.641331 276.654266 906.880249
92.786423 83.685432 899.716187
231.941803 138.253601 752.936340
124.863602 107.289543 853.165344
-104.124931 116.426208 1037.872681
-28.887659 108.145164 982.344727
-103.950539 141.857376 999.479980
115.280342 143.571548 826.879944
3.625853 206.266281 911.058167
158.145584 -3.601840 898.476318
-160.142746 197.285385 1010.157593
-130.045166 105.186569 1089.662598
172.789001 123.810753 787.018188
43.126610 221.162399 847.439453
28.063234 201.698471 874.478394
6.955739 137.933533 940.528564
31.718231 111.952888 948.679260
76.847145 161.165741 881.048767
-5.088101 207.370544 878.402954
-114.082802 289.898407 929.558594
221.344849 125.003609 767.243042
-124.775826 311.016479 927.618958
190.550644 113.505730 819.760315
-104.189514 304.622772 924.903503
140.578705 27.403307 874.785889
-65.252510 13.037374 1062.305176
74.259216 -17.739902 987.696594
199.504974 144.808823 768.059204
108.951057 165.885513 847.758118
64.057518 220.241547 836.611328
-167.164734 254.836716 1009.581848
105.628555 -40.419151 1028.498169
-139.527054 319.606079 947.070129
-55.049511 253.189880 912.594910
-108.878563 209.576340 996.747253
190.008423 158.423233 768.659790
-116.678291 253.607529 973.808411
-3.659737 114.501823 932.295410
65.291100 237.865082 838.366272
-174.553329 205.771103 1029.017578
189.788467 157.332565 767.682800
52.879017 136.219604 872.776123
-179.176956 121.156303 1110.880737
-19.282803 168.442947 935.011780
169.527634 131.599457 785.537109
-172.624969 343.817139 934.205750
-124.241486 195.207001 995.690735
33.740475 0.148682 1028.578735
179.134247 33.235786 852.502136
-54.290585 218.213699 927.762512
169.802246 105.693680 827.176086
-28.775225 -16.421173 1038.055786
102.997398 105.287361 888.168518
25.151136 200.105988 883.788574
8.118198 155.751709 898.787109
-76.036804 196.474869 969.446350
-9.255329 128.524887 971.770142
32.914570 102.697006 949.122009
-52.589603 171.697723 939.261047
132.140213 -16.286871 896.166931
175.975403 163.057236 771.948059
-169.542450 152.820053 1043.584106
-93.257706 296.662994 920.424316
54.563049 168.279999 893.302124
199.610443 140.698654 774.983398
138.315796 193.157516 810.541748
-168.697632 193.859558 1054.739502
-123.766212 279.332214 951.771362
-55.752415 -17.924372 1043.235352
-46.874805 15.250401 1039.415894
94.600945 213.111755 838.313293
-72.396675 -36.076710 1037.003906
130.761490 117.684319 858.898254
192.729248 96.595757 784.810913
88.350624 -15.300662 987.550293
-154.066467 108.563545 1145.808105
143.842728 24.092890 860.805359
62.412048 83.461273 937.855774
-37.055370 283.709930 878.061279
-26.662182 47.093376 1027.775635
-172.391068 215.938934 1022.626282
130.173889 25.675970 896.821960
118.099541 102.284218 879.806580
142.453262 83.315460 869.762329
156.063889 139.134613 826.546936
-67.028465 205.839310 945.297363
-83.196693 90.061691 1062.790649
-124.150482 295.285217 947.886230
-60.012379 266.677399 905.385376
-108.514343 2.735033 1066.660889
-33.135216 -51.227036 1008.061707
-143.422607 269.451630 982.977661
181.033356 3.122980 884.714905
-54.381493 172.845001 963.346863
147.944931 173.776794 793.501526
-162.304733 286.368835 986.304016
80.464355 19.212280 951.608337
-18.297665 164.391922 939.154663
-85.907890 231.454315 969.419495
42.196682 144.717865 870.623413
-136.710114 342.635162 927.997803
122.833725 194.026672 821.047668
-189.686737 187.698120 1074.644409
-73.139450 -27.452415 1029.156982
33.567013 -42.751415 1026.426636
-204.461700 225.440720 1060.494385
-95.844772 242.297546 947.422852
-190.672134 215.286545 1069.002563
-55.819016 297.670441 890.021729
16.825336 51.201366 965.306946
78.265099 186.424576 865.235840
-92.641197 -19.016737 1037.229126
-162.790329 362.858032 932.002808
-125.351036 201.592636 1010.679443
-15.564100 277.094482 876.487854
-70.649750 105.649063 1028.191528
42.529610 42.648415 959.021301
-67.394249 198.252716 971.757507
-160.771790 348.584259 952.450439
-89.493324 102.080574 1039.829590
46.983784 -17.419647 1021.212463
215.482880 137.302765 753.870422
-115.982010 333.847626 910.110413
12.261862 174.312042 918.930176
-77.501091 287.045593 922.769409
-41.720795 -59.592598 993.736755
124.482544 -31.785284 969.704224
-105.217110 319.458191 920.829407
208.455460 138.523911 784.808411
-16.615803 133.644455 954.488464
81.563568 12.570089 944.052490
-63.845379 257.919769 922.012207
-105.169777 275.305511 953.031006
55.277294 200.502945 859.393372
112.177414 154.901489 856.784302
-157.546310 266.249390 998.304321
63.256577 32.128559 946.405518
40.779297 128.028915 913.829407
-138.822800 144.271179 1065.034912
-128.442184 148.250153 1054.816284
-129.935638 95.665794 1106.749023
-184.543381 305.589050 946.611572
165.663452 79.430405 833.163147
-80.101097 245.799942 955.387512
34.985367 188.198914 899.242676
-120.550957 -6.995167 1041.527954
107.479935 7.568213 934.632690
-127.418114 213.688690 1008.711182
-109.802979 145.005630 1025.887085
-57.583157 -16.775671 1043.756714
-33.482704 291.668060 874.717407
-175.715790 332.822693 964.950378
-0.453338 11.045950 1026.558105
-181.668121 175.566605 1078.056519
158.971939 1.091039 895.549927
180.656464 64.875160 832.561523
-76.042442 -38.948265 1011.486877
76.761963 78.087143 908.440369
-93.428200 213.207413 987.135193
51.153763 232.244141 846.132507
38.300571 14.114972 981.062622
-156.867905 179.165070 1059.063721
-15.975092 -37.020386 1037.543579
196.334702 -50.105984 903.353455
-110.546906 137.664612 1018.027710
140.234848 -26.150608 932.871582
-69.699860 124.770142 1004.145081
-98.991135 -16.286938 1039.875366
-101.030296 318.744049 920.084229
-38.022610 236.039612 924.421631
2.813654 107.774765 972.695618
38.656754 87.762085 951.046936
164.023834 3.743650 890.929382
6.846669 78.716736 946.793945
19.923386 102.563988 947.314331
-7.182517 179.189865 896.853760
102.436836 113.045517 860.687988
-182.158356 353.642334 953.252502
-102.786530 236.733429 975.793518
124.154480 -33.213348 961.608459
-191.455536 149.185684 1073.687134
119.608109 170.757629 823.451355
-28.651047 243.976318 896.661560
205.470886 130.634674 795.043945
-139.943466 190.352707 1040.680542
-59.165710 292.988190 907.954163
106.490669 -26.817732 986.128540
21.296259 153.868134 911.934570
7.384397 54.360687 992.959045
60.001892 28.256599 933.980896
-113.627907 84.771309 1076.244629
54.466774 73.371651 924.280029
129.428070 200.319046 815.929749
60.395325 223.717575 839.279968
114.998642 32.805161 910.849548
-48.276932 -22.857563 1036.839478
215.047485 129.124649 785.995667
118.269341 -27.372129 919.240417
160.275909 160.184982 810.313904
-187.755707 232.665665 1036.223877
-131.791214 264.862488 974.441772
-141.110977 362.704315 921.876587
167.769455 -24.859734 910.335876
-73.354424 39.998093 1079.469849
131.574661 149.110229 839.287415
-58.760883 35.083698 1039.296265
49.382992 0.927385 1004.916382
186.723221 78.144379 821.210632
-29.740580 125.698425 970.608521
150.298904 -2.574206 894.573242
56.896252 75.066093 934.789734
12.420828 -24.478090 1029.101440
-143.889252 347.002960 920.167664
167.448929 -4.642175 884.270203
-69.736786 286.438812 898.083435
-104.523834 290.278656 939.473999
-10.635198 -10.354520 1032.482788
-61.545826 154.917679 980.629883
129.381607 -2.633848 914.492981
87.011795 119.336403 875.211365
-33.539421 267.559875 889.054260
-99.400284 281.198273 920.991943
33.673176 165.094040 910.214600
149.190262 135.063705 819.272217
-50.919304 255.468506 913.083313
-53.069519 287.130981 887.616272
-171.277328 180.953613 1057.895508
176.498642 88.914337 840.165833
-46.801807 98.532875 1002.544922
149.874268 181.868454 805.426086
178.059174 -38.935429 915.380493
52.815590 179.107590 888.678955
-168.198975 312.348236 973.360168
161.166046 23.601587 871.291443
96.480591 50.786705 914.136108
-43.175030 153.240250 940.101807
64.383896 -3.171973 1003.661133
146.604813 116.074028 852.426453
50.766888 193.659119 864.946594
-65.310120 308.733398 891.879150
94.692566 -17.996964 968.641296
182.735992 120.607025 800.007385
-127.629700 99.545753 1076.567017
157.598389 180.371689 785.988464
155.318146 134.859390 829.935120
216.657852 0.071715 866.839600
30.804405 125.493317 924.416077
-110.276428 15.068218 1061.305054
-4.768038 254.746765 863.063416
64.942909 -0.235027 979.485901
-52.645119 252.910904 925.097168
43.551598 234.482132 838.710327
-8.448002 -54.370083 1024.692993
70.975937 101.422592 889.529053
116.789650 -35.237896 1015.795654
-80.613274 280.488281 906.557373
31.358257 122.248985 920.696289
-94.672363 140.198944 992.774109
135.952332 88.308876 839.945984
75.138504 182.190308 852.725891
-140.263962 174.484741 1049.429199
7.071215 272.047943 864.211853
66.672150 141.494720 898.316345
33.591393 205.239227 865.778870
-110.481636 86.460121 1069.072388
14.965788 6.597708 1030.556763
-66.934723 73.007477 1026.561890
157.499176 -11.802531 880.145874
-79.463692 259.803772 946.102966
-77.294540 205.483749 962.639038
-178.160233 194.332184 1056.284546
-58.154427 273.021454 916.601013
133.976379 175.154846 777.321960
72.095131 156.377899 881.210388
43.067219 117.921188 912.035889
32.606979 222.974976 854.627319
-177.823700 288.437347 998.617126
59.706928 259.415710 833.431702
-114.557899 111.067696 1068.108765
-100.734085 -19.018768 1039.330933
72.357750 10.517051 964.892700
162.127640 79.440628 863.629028
-140.926834 277.658630 974.042053
29.175142 145.852142 908.499084
55.021923 -40.364922 1012.399109
-25.990250 58.726154 1027.221558
-6.746878 98.541061 978.427002
-38.505577 203.421600 931.665039
-46.490368 197.519547 944.260132
-27.352753 150.001099 954.967896
-70.818848 220.685898 952.201538
-126.910469 115.471809 1059.349609
-108.199585 316.322662 904.985291
7.726902 101.228073 950.274597
20.303699 244.561554 843.318115
-86.514313 57.848839 1057.571655
-53.751434 264.351135 911.282532
-154.101425 162.308487 1052.276611
36.335777 144.370728 883.779480
-73.216652 63.032799 1087.606934
147.876068 -43.759724 937.567810
18.962252 242.930542 877.510315
28.629242 81.398071 953.499451
-21.682087 94.177376 984.141235
-59.998184 140.762253 1002.195251
-19.335466 -31.095137 1015.609924
48.793064 -28.748230 1034.033447
8.410335 273.485016 851.580688
-164.228958 265.525391 959.703186
150.356674 -20.368895 906.486328
-161.860840 301.462555 969.858154
171.967636 143.105148 794.783325
13.711432 60.576653 994.033264
-163.232910 309.767548 965.397034
174.486359 -36.098900 893.870667
-113.604485 303.749664 939.419556
-151.406204 299.471710 967.518555
75.098061 214.516922 827.467163
-190.266876 129.001434 1109.298340
-111.183235 92.086731 1083.503906
-202.136215 252.226288 1046.138428
-170.122864 367.472321 955.636108
-175.303299 249.104004 1019.232483
235.763184 120.799316 764.366516
-64.288467 214.646103 942.015320
88.894432 -2.021003 945.264343
124.832039 88.007477 840.292297
50.329498 -43.253735 1017.265503
-17.521351 -16.832796 1031.778076
-95.503311 170.747147 999.956116
-143.396347 174.320221 1037.164063
-40.817581 16.557512 1059.192871
-52.571686 280.906891 895.960999
-135.591049 129.608215 1043.923096
-104.835320 276.377930 952.510254
-35.620239 64.384094 1037.149170
69.047424 -37.471691 1014.506165
-30.033663 42.009399 1053.006104
-172.403046 184.354553 1056.200562
-135.753693 241.778976 1002.569763
4.203603 29.144623 1023.069824
-76.199173 165.514786 985.656250
-34.593746 301.274200 871.596130
-8.117719 73.263130 977.685242
201.225922 -4.511771 875.783630
-207.443726 185.898621 1099.759766
111.881393 18.421320 902.229248
-4.889657 172.477814 940.741455
136.540604 6.161805 911.945313
-116.771545 310.783234 935.325745
-89.029327 171.988739 1008.764954
16.671953 173.988495 893.206848
217.758621 -376.672333 1155.596680
-52.726532 11.917347 1061.142944
179.556122 -67.601295 893.218994
177.656128 79.566055 823.560120
18.660095 17.516558 993.636108
-184.981628 162.545975 1093.036255
-61.975040 200.424911 951.658813
-30.676859 59.764351 1036.954346
139.811951 172.286743 790.322754
-106.540085 227.681839 978.594116
-184.299225 207.541351 1065.081909
-118.627014 96.264244 1102.433350
-181.816681 212.266602 1031.166504
-161.643921 327.457611 944.355652
-140.006668 260.698334 986.335083
-67.025116 267.883850 919.369202
126.837502 40.362751 890.532593
159.133255 104.744698 807.454163
-16.273836 39.002419 1042.274414
41.598953 -55.098026 1001.141785
194.939148 110.546913 804.262329
-140.412903 340.490967 938.846313
86.895607 123.631073 876.524780
7.787551 -67.555542 1007.757080
110.009262 14.605228 906.077026
70.546181 230.730850 824.209351
-29.836237 133.577484 975.621948
16.712818 87.169739 951.361633
-122.357437 263.653870 969.834229
98.714928 -33.125408 975.206360
-156.190857 175.043198 1030.630005
-131.541138 308.422577 952.109741
52.375504 209.709381 848.967712
-151.063782 104.397209 1153.421509
63.578091 179.837189 861.235779
-20.248013 273.341034 875.262512
214.202713 51.778294 828.346252
-135.982208 122.892265 1066.994263
51.841721 129.545868 906.595703
-17.617933 177.770432 927.929626
68.447815 222.691620 828.914734
-29.856325 272.059692 876.766846
149.953522 1.161155 894.957092
0.244667 -17.404903 1036.212402
186.937164 120.869148 811.478577
13.685087 230.267471 879.492126
-88.470657 273.934387 922.842773
17.884790 110.278252 917.564575
195.866150 130.848221 787.423706
73.810242 126.879250 888.879883
-110.777588 77.051582 1109.484497
-59.386795 299.861328 891.794006
-63.036846 244.143997 893.502869
104.188522 -49.687790 1030.200439
-63.466148 48.235062 1066.709229
59.599976 90.541634 909.782410
154.420303 64.413437 878.184631
128.991287 35.232845 891.338745
214.611984 42.715717 811.555298
-89.112709 48.755138 1088.201904
166.755127 161.898819 784.153992
23.297102 103.755867 955.762512
213.674332 139.118561 776.476990
46.130505 191.760376 870.493958
-124.801567 258.334778 942.904846
89.591957 37.819180 900.900574
-125.483406 294.001617 953.191101
-20.873682 11.185356 1054.866333
-138.250244 198.723648 984.864563
-105.201035 98.464043 1068.758301
-148.278732 208.021362 986.646423
-173.524902 121.464821 1069.846924
-88.070648 -20.521454 1047.896851
131.523071 163.525803 812.614441
102.398430 200.355148 815.284912
-90.916969 214.056686 979.869934
178.988770 -65.846390 914.737305
-127.195984 352.659851 914.350464
80.495071 73.076797 927.838867
-188.175430 169.624298 1063.882690
-175.891373 207.217499 1033.199829
-186.634781 132.201859 1101.148804
162.699982 46.466534 845.383484
-41.405823 301.715973 874.403259
22.856644 -46.876671 999.934814
-65.674942 221.779633 947.264282
-71.570755 279.011719 905.909973
196.897064 -20.986137 867.643982
81.084923 110.848892 902.499390
-63.675758 46.929436 1096.884399
-2.416944 236.138382 888.990173
-151.665924 281.181000 984.652710
-51.957405 283.287842 882.250366
130.283096 -53.138073 1022.969727
112.777550 204.880264 812.564453
73.314629 14.409376 937.879700
159.816879 -34.707706 908.867188
-197.472092 261.443329 1026.679443
-51.955280 220.024582 945.473206
200.181366 101.598579 787.503052
207.412033 145.035751 762.239746
-120.455856 60.974102 1114.186401
25.340927 144.859329 933.409668
-172.395401 248.408463 1021.566101
7.501642 74.528404 974.453186
-30.111095 301.404572 874.106934
-119.386955 78.313484 1110.740601
-113.191338 342.146454 887.310120
-49.039822 201.807327 940.404541
50.307652 93.922661 916.671448
4.855258 41.507256 988.821106
13.543028 211.997803 892.522095
75.666695 206.416458 844.702698
-74.779312 275.856903 908.556702
-31.639938 132.526871 967.453430
-149.129288 312.503510 960.764221
85.833778 -33.599506 1031.590942
225.069672 94.804039 789.623352
-47.599358 203.876648 938.000305
37.641712 208.235977 884.645386
88.051392 103.830238 901.314209
52.743927 74.249214 930.155151
-75.575294 204.359177 974.014404
17.888557 40.074863 975.975830
-160.028732 154.585220 1059.719971
-139.746872 337.409119 935.959045
-31.503107 -61.418591 1005.901489
184.242355 -66.024841 938.342834
117.838501 197.986664 800.177185
142.040924 183.429443 794.887329
168.740036 84.140106 811.645142
-98.866272 65.632248 1121.532104
-45.258919 279.133789 880.697815
-62.894566 272.170624 921.691040
49.951817 -4.703742 1000.432861
-66.567360 214.262848 921.962097
-193.696991 152.352875 1091.157104
81.778725 228.737335 816.586914
-80.122070 77.542130 1045.343018
223.988586 50.363300 824.818665
-138.973053 331.649963 938.158997
-102.890808 166.913040 1003.293884
85.795425 200.295609 829.847656
8.806362 263.371063 850.722900
74.738869 -42.048260 1012.949280
120.459572 143.969589 821.853149
225.220062 107.714500 788.879944
32.505352 -36.838223 1025.815063
-68.301361 137.241379 996.182068
-36.387623 257.737427 861.573608
-15.669028 229.705811 901.206238
-6.742567 -50.569553 1013.841187
98.088745 76.682259 882.884460
-128.601669 189.039154 1017.508606
-59.539043 -1.521209 1048.289917
92.444633 109.495613 898.763977
-29.015257 91.112289 1010.374634
-72.614616 48.553246 1078.801147
65.747963 241.127441 826.649475
131.757065 193.202026 814.761658
-60.808971 -17.334785 1042.263306
70.831535 171.267044 862.133789
123.811935 -27.998966 950.322327
107.872856 184.195114 837.397400
2.137356 193.107162 902.318542
49.163143 92.277237 942.176392
145.979492 -54.719776 934.184631
-44.299030 -18.919947 1039.982544
122.104851 15.542810 907.812317
-99.739868 132.669952 1041.444214
-106.225983 322.702606 913.056885
-175.148636 363.563324 952.136230
-6.683910 99.201324 968.468384
-44.095371 239.703156 880.594910
-42.846367 238.865738 917.832336
-36.374641 230.360336 913.416809
-68.461311 180.355652 980.227173
-92.218353 46.342842 1103.888794
-7.880837 74.672523 961.962219
204.205078 49.820610 841.051758
-46.409813 285.523987 888.149902
-67.630386 260.649719 923.463745
-129.798050 68.619423 1127.562012
-32.601616 125.827744 983.259521
75.137383 -36.209984 1021.440918
29.068628 115.285179 925.039063
25.940693 230.759445 856.078125
-31.393475 192.944687 942.464172
-48.501415 -10.293950 1030.976563
126.672058 -43.930309 1020.533997
16.674793 184.189499 916.633911
213.639038 54.272331 803.465515
136.461227 -19.306561 937.667725
-111.781807 329.842865 924.405823
-47.177898 108.976303 998.115417
-135.820755 161.998016 1028.404297
-63.635044 256.027100 918.499573
50.765110 3.145043 991.975281
148.724121 91.978455 814.627319
-26.332935 97.825699 1001.538818
20.528694 184.960800 888.501099
-112.031403 143.233154 1038.894531
-108.031174 132.350510 1037.177368
90.812935 150.586563 820.597534
199.937485 -32.700901 901.392273
-90.561577 40.928268 1093.778931
-52.586281 272.280945 894.903198
105.587357 59.818710 874.197327
31.004393 53.268341 961.350769
-21.439039 101.852432 971.286621
-74.378067 126.924896 1017.520020
-93.726646 14.073602 1073.580566
47.098923 -27.528166 1009.801697
-79.266792 42.820309 1099.262451
170.962845 -17.140982 893.165771
-120.501343 51.825275 1112.638428
156.104401 -43.459145 935.829834
-40.656670 47.491474 1033.191406
182.275208 -48.446087 895.815430
228.125244 102.141441 776.701904
82.366104 166.993118 850.096497
-200.253082 238.016083 1045.458374
106.895683 190.205338 819.971008
64.262695 63.657429 927.050354
-51.523624 150.202911 975.560425
-117.832413 290.024689 938.988770
23.231527 208.487762 876.997375
-174.026321 201.457581 1057.856201
30.352022 -25.904060 1013.669922
-170.781036 241.642029 1027.161133
223.810730 107.518135 794.236389
-134.542206 261.242493 971.199890
-23.179190 168.446548 958.247803
-127.572235 166.620712 1015.208496
167.377197 26.749662 891.977661
205.574188 23.618410 850.964478
-171.603226 152.026276 1083.369019
-29.970352 248.103470 902.044617
-187.557663 324.657593 987.346008
172.440384 111.357460 836.117920
-128.381363 350.416809 926.362793
-195.359299 189.686035 1075.958008
22.785742 240.768280 851.513306
52.234669 77.352806 925.200867
164.424301 67.398010 847.322021
-71.827568 252.969315 944.245972
44.948418 116.117279 935.375183
199.747772 11.537967 873.974304
-175.420166 287.405731 992.809204
10.571236 130.250717 937.609314
-176.817322 119.777466 1141.566772
-66.365486 81.102814 1031.651001
-46.534000 -40.027031 1030.113281
-159.765091 171.239792 1055.442627
-34.407295 18.867325 1045.828369
128.252213 128.280365 854.726440
10.958327 -28.929108 1014.640930
8.946579 178.307114 922.436340
84.841393 34.049061 944.310303
-164.314606 127.317184 1182.277100
168.778534 167.044983 774.968811
-112.206917 118.678093 1020.828674
174.456039 51.448784 862.398193
-143.957870 356.472717 926.322571
-194.718414 298.997406 1000.057922
-53.013634 -41.521667 1008.580505
59.316803 -55.399086 1018.760803
-68.271599 194.146454 973.192383
-21.265972 276.955719 864.971436
-63.727261 267.218323 920.334839
190.851151 80.021133 812.301147
-48.397110 -21.392776 1052.263184
-135.163544 121.093391 1063.197632
134.089035 -44.676083 921.730469
173.610474 73.516167 818.583374
-167.100677 225.871094 1027.873657
75.787239 53.079384 923.993896
-124.919525 332.110565 914.619995
-42.696167 25.169619 1056.604370
-104.719498 47.112682 1118.578125
-15.943205 263.670319 869.627014
-161.888260 345.402649 946.447815
-78.303673 224.363632 967.517944
28.111797 8.294394 997.578674
214.676086 110.942429 769.161560
72.551506 220.859283 824.041626
29.066189 118.142578 917.167908
-119.498512 196.102158 1014.710938
-159.876419 205.628189 1043.512817
111.843208 131.445923 836.825195
-166.576248 287.333649 968.077576
193.666428 115.909340 784.847778
-7.260450 -77.550323 973.777222
-99.957161 -3.013965 1055.380615
28.960674 136.988678 918.981506
-94.450974 227.598358 972.757385
-63.708179 178.033661 935.768250
-62.013268 246.889313 931.646362
-19.609955 252.331284 891.546570
137.812958 125.488129 829.668945
-76.189850 75.830673 1085.423218
-62.092705 12.763860 1051.855469
105.769913 11.438704 926.929749
-94.119263 41.137722 1087.753784
17.313421 156.429413 913.824829
103.170044 71.462738 890.650452
51.644215 -28.591042 1007.365967
209.236588 54.613857 829.048950
-56.087185 22.633200 1058.371582
81.682968 210.069336 812.331177
-192.644806 228.004822 1056.373047
222.656921 168.880981 767.720825
174.074677 181.321289 770.160278
30.318390 250.647293 841.862732
189.566513 4.796122 883.162109
-105.621239 259.314880 967.656311
219.820938 -85.824570 961.499634
-191.077805 317.801086 947.327332
88.182762 65.850182 906.608398
3.564474 116.982224 961.306458
60.478195 -8.331910 1016.151245
-180.591354 291.602570 1000.213318
171.092255 -23.700071 889.607056
-115.391502 261.251648 954.452148
-49.434570 43.896511 1062.631226
9.624853 24.752638 1040.589233
-148.696854 154.737610 1054.021362
-28.091333 78.568634 998.511597
28.845942 171.907913 898.406250
160.261337 133.066986 787.227966
154.223389 13.949881 902.454041
19.346039 163.156525 922.831909
-173.818344 289.085968 994.329285
194.346085 118.852303 802.984741
4.376458 98.731827 955.447754
55.088692 199.989471 874.302307
54.362682 220.149017 863.495300
-66.506042 110.170105 1010.207336
153.093689 155.235184 812.574951
-32.161076 100.840530 986.659729
81.576210 40.914417 943.158508
135.939423 181.018112 822.399780
-99.719154 80.419411 1048.865845
188.208252 62.612335 828.490356
-7.399042 -2.880905 1021.162964
-74.083305 8.919588 1063.832153
-113.105881 32.686562 1087.276489
-25.342037 50.164063 1028.590576
-5.305577 -36.261417 1026.371460
112.461647 -33.170116 1018.400024
60.221176 141.212875 901.981445
-82.759766 271.506805 929.144409
222.919220 113.575195 767.167175
-155.410599 133.988174 1057.020508
-92.055374 283.837830 900.775635
-163.249207 128.286850 1172.576782
-124.702438 227.672714 992.348755
19.950855 -40.902096 1025.424072
183.753311 -25.368729 906.744324
234.379181 29.379507 829.548889
-130.301025 96.269493 1099.659302
105.927315 105.757172 890.710693
60.216545 136.166489 906.642395
-156.824692 343.353119 944.094299
193.957748 75.528297 819.466553
-123.360970 83.996132 1130.017334
-30.304609 201.537460 919.147278
-90.591438 245.614792 964.184326
-106.983902 171.664886 1011.457581
180.772766 47.008747 842.761841
-122.631165 302.626038 952.931274
123.488052 164.001434 820.722778
-50.508259 198.402496 943.661804
2.487201 142.358154 941.364014
-19.754040 94.592339 992.524658
51.927723 -48.256420 1014.010803
111.455048 159.060898 833.470093
101.717598 176.336700 831.275879
82.433281 -1.621223 965.401367
114.083267 139.554932 830.135925
-15.381991 -50.714928 999.963684
66.601891 226.703094 843.805542
-87.680939 3.945594 1061.798462
186.347855 116.813942 778.163818
70.109764 53.578789 947.034790
-60.460999 58.572666 1133.994019
17.061392 6.548150 1030.870239
-11.778246 290.940887 876.601013
25.923386 271.521393 847.850220
199.176361 6.906676 877.162842
88.948219 208.257263 831.903076
127.783676 169.651459 831.071411
-89.334229 106.875778 1037.996948
-40.290413 73.742149 1031.813232
-83.202171 279.956940 915.182068
-59.776211 123.924454 997.064514
37.588249 51.167976 938.739502
91.200035 144.634430 879.114563
-190.920563 152.242538 1102.854980
-110.923058 220.962509 972.979553
-60.257477 -57.293560 988.283997
40.423477 -72.824722 1004.377258
101.189041 68.416100 884.873352
-94.436668 112.948204 1028.695190
-129.569138 195.408142 1028.692993
-9.653748 269.044830 874.327209
175.979813 41.282776 850.908264
-23.467934 -37.307709 1032.833008
-19.478575 184.198486 928.484924
-147.569733 273.343262 982.885620
-81.829819 297.703430 920.466858
9.105846 -53.729465 1017.183105
26.353382 218.715988 874.099060
-67.199455 254.387863 890.639099
119.606964 165.387848 821.143738
216.581268 40.957619 831.633545
172.546707 139.066818 818.532104
-132.955688 164.120621 1038.711914
103.046379 -34.227314 1027.671509
111.036758 82.833359 856.837158
-102.529648 228.804657 971.444275
135.688065 -42.363220 926.588623
-84.741119 282.595520 908.480103
120.435532 93.391838 880.979004
-97.929718 328.948120 899.843994
-125.816879 217.674652 961.936279
71.766708 81.997246 917.483398
-12.725348 22.709558 1022.417664
-5.645177 162.778259 930.645020
-103.797424 292.818176 940.652344
-155.059677 194.068787 1049.269653
36.013489 221.517334 863.734192
-51.607037 134.650314 994.110474
118.353859 193.909836 782.921509
32.653046 56.471581 963.425293
29.867067 -33.656845 1030.397949
-165.161987 295.754761 975.116760
-183.607742 156.222275 1058.797363
-87.770920 276.786499 942.204895
-162.564316 149.985733 1071.157349
181.024933 -29.921392 896.627258
53.432686 160.687973 884.331421
-43.913532 151.500961 968.301208
-59.675713 239.854187 934.081604
-1.513224 117.359993 928.696350
-64.926208 -23.197502 1039.559326
-160.056976 254.976379 1012.339233
108.464096 99.946335 887.121216
-138.662186 234.957718 989.917236
-59.217941 -29.518833 1036.203369
112.492638 14.820077 894.587402
-17.358421 239.695160 888.447083
-132.453766 227.588120 1003.684753
-161.724503 289.979492 984.079529
156.007584 85.798660 858.277161
152.749710 109.152725 829.607544
-59.176544 8.160500 1051.106201
52.031063 23.840046 958.644104
124.866280 -19.890902 940.849792
23.499052 190.052185 890.361389
11.395190 53.612747 973.786316
196.173279 -47.505524 910.014648
-108.982338 329.948303 904.685181
-31.810440 279.151428 874.277954
-23.179382 37.654087 1064.775391
-46.546234 193.670135 939.674377
-14.928616 126.575302 957.636230
-92.756798 216.824890 977.361755
130.563980 132.548248 834.903748
-146.847382 310.222717 963.061584
-16.087839 207.131561 909.372498
92.978462 49.680393 912.436401
136.562653 23.508718 892.724976
-44.836288 295.033173 897.150574
45.423958 203.635788 880.385010
-133.020142 143.585175 1061.258911
207.762955 122.647820 754.302795
39.633720 42.170151 955.472107
-158.616135 134.251114 1089.594116
-163.020233 316.975281 962.141846
106.906036 138.249802 863.670166
-193.178589 217.007126 1052.456665
169.077377 178.258194 777.448669
-152.300842 166.306595 1045.630371
122.268021 5.680475 921.244080
65.242577 233.531998 829.982361
43.458611 131.102066 905.196899
125.541344 67.250107 884.088745
-152.938980 343.206390 921.589111
24.394384 80.918449 966.933777
-68.323463 3.076048 1044.157715
107.785294 132.903503 841.992310
-83.578636 299.691467 917.302124
90.184319 -19.594118 958.486511
6.061065 213.776886 892.623962
-127.958054 111.576546 1064.170898
165.032562 66.846855 855.481934
-189.630875 216.998077 1035.901001
-50.750626 302.221344 883.291931
-83.833076 298.432526 910.213928
166.666626 -11.673118 889.790771
-128.915695 233.665955 960.924438
139.590103 161.781036 827.176758
-139.567886 309.604828 936.541992
141.025375 21.461422 913.273865
135.382126 104.235107 845.733826
-90.677628 299.922791 903.486755
-4.763680 181.026962 928.188721
11.135589 246.634232 855.808899
7.599936 -24.644609 1010.810669
-40.929852 -14.779035 1047.878052
179.207199 4.785817 869.623596
205.660126 100.422432 801.417908
180.921310 121.410522 797.461609
-23.638281 223.799698 883.370850
-3.081123 -53.494049 1017.358276
-156.054626 332.435516 942.505432
-16.518789 246.918304 902.163147
-147.417923 152.470612 1051.664795
191.462784 90.885361 829.817139
-56.567627 165.914581 968.378296
-26.469488 95.026772 991.162537
-42.079891 87.650589 1013.698120
-82.240746 114.644150 1021.946411
190.427414 -50.173851 913.635803
-82.289551 151.243835 999.450928
88.970123 -4.962623 963.892944
-44.328114 121.094254 996.763123
43.928349 132.530045 894.508728
205.347382 134.919495 762.593140
12.234591 203.620865 892.410828
-95.386230 204.355453 983.143738
-173.160065 248.049240 1004.551514
-16.299942 54.026955 1013.028687
96.872253 106.098068 878.029663
47.782063 191.441864 870.064941
53.953705 -5.528539 991.940796
47.381023 79.080101 948.683838
132.485992 -37.085617 956.531677
45.695663 69.889114 956.156738
-163.927567 268.900330 965.733032
-136.468048 91.117859 1155.914185
57.693508 229.184814 848.813965
-143.271484 107.463417 1124.946777
-126.726540 289.667053 943.116516
81.135628 49.791302 911.408447
-104.158867 299.889709 916.478210
-34.492634 -14.255919 1028.219116
-112.824646 218.259079 976.217529
112.890564 217.271271 783.741333
-120.734604 149.414841 1033.209717
15.722718 2.736774 1037.944580
-157.394806 270.344299 995.042419
126.322678 127.796310 846.905457
20.629709 131.029358 941.254517
-125.552902 66.226563 1101.815796
182.940048 152.134598 774.108093
-82.221008 263.036133 905.671021
-100.337875 82.869049 1079.939575
-80.334717 227.416138 961.180054
110.214127 151.067429 836.343872
16.149652 -68.464905 1001.810120
44.588902 185.846359 850.788635
192.262924 48.898159 854.924072
-40.885281 193.888611 943.953125
-25.076683 65.134613 996.133606
-56.094376 243.033493 916.002686
111.422356 165.309357 827.931580
77.143402 96.442879 904.467224
16.917747 200.093903 888.913574
89.940117 28.141878 952.120361
-114.947464 167.936096 991.407043
44.077454 192.094772 885.443420
-30.946804 209.717133 915.089966
68.525688 238.212921 842.831116
159.875626 158.376068 789.457092
-25.471510 39.301205 1047.513550
76.632103 46.593349 951.438965
-111.190941 36.192940 1085.666748
-0.740284 225.032578 891.445313
-8.274654 197.556595 912.732788
-172.990906 226.910812 1030.782349
52.182652 194.818558 872.125854
70.583870 -16.087034 991.391907
-143.304504 337.037537 943.404541
54.911285 122.204857 906.630005
-157.903275 372.535583 927.728149
-29.641045 104.204468 977.325867
48.492748 -22.207922 1016.573059
140.244690 196.941422 807.748352
-53.840332 41.100376 1073.908936
-11.570369 119.105278 936.198975
153.121689 23.755426 862.975403
110.233192 -59.049606 978.624695
73.496834 -28.109667 1021.469910
100.132927 11.401999 928.952576
104.988983 164.202148 856.741699
-187.228699 233.172638 1055.327881
-88.697449 13.834799 1058.113037
-21.482676 243.787598 889.542480
104.143211 166.184158 834.457214
123.935059 78.485184 886.493713
-114.052216 233.351517 981.760376
-129.700562 238.422974 964.121094
122.669777 49.173229 896.978455
83.682449 69.655388 929.934814
172.750870 149.618805 808.912659
-42.914982 214.014328 923.378784
221.275787 155.100540 771.766052
133.604126 125.891098 836.219788
-123.835312 103.608833 1056.146484
149.996292 63.027390 846.609314
119.240829 159.567566 813.389282
75.487236 222.534836 821.943665
118.148010 169.807938 837.873779
24.035673 223.169342 861.813721
-47.278332 91.392448 1023.841736
165.603867 85.681664 818.475830
81.425125 191.326752 833.761292
-100.021111 26.528730 1087.939087
-162.420578 277.742249 960.682861
20.305382 -9.541514 1016.723938
31.526239 228.026260 834.167664
143.870087 135.585037 819.976135
-137.966278 235.410645 1000.969543
-22.668669 107.891647 995.226685
1.683694 90.239563 962.936157
-172.491928 362.006165 930.199341
214.450592 151.169724 745.031006
190.471664 146.406509 770.346375
-25.881561 99.550835 1002.712769
90.125290 94.627609 894.912476
110.927155 55.028011 881.760437
-26.065248 266.311676 884.018311
51.438534 141.837692 895.657471
-54.842400 215.173920 912.222717
65.698868 17.662785 952.984985
49.713509 -14.587055 1018.769226
43.600552 232.371811 860.173584
57.335072 208.341904 853.028809
-0.999811 149.396072 937.566589
50.434429 165.543259 883.324341
151.872299 -31.096924 930.109253
131.595032 78.546364 872.452942
-90.177399 101.650978 1022.147217
-57.835236 308.441772 881.358643
-50.586620 78.172554 1029.683594
-170.572403 200.264816 1047.024780
-155.297836 326.315338 964.122681
144.365204 108.803574 836.074463
-135.239807 129.918808 1058.892090
170.126358 105.319962 813.417847
-7.959851 42.536404 1002.792114
-135.548035 195.321854 1015.262146
139.624054 -58.078522 1008.483948
155.072815 -14.751612 883.654541
-142.300583 304.102142 962.451477
111.840889 4.483291 922.029114
-120.906433 272.588562 966.423462
-48.012600 -27.362503 1040.531738
-11.569927 182.119827 928.303833
140.970062 49.392136 862.303284
71.276733 147.975204 865.668579
247.046692 87.719475 797.941162
94.852013 184.323914 843.587036
77.622307 114.278755 903.360107
-39.678349 59.311794 1000.746582
100.673561 103.362045 897.873840
154.398041 186.266556 784.903625
-157.778961 252.035965 1008.375244
98.937050 204.634186 831.590637
-137.887650 351.420532 931.311340
-90.893463 102.772812 1027.561279
8.698273 -25.716599 1029.790771
-120.422073 173.411346 1006.240295
150.996353 32.200802 884.423096
-81.569908 49.743961 1075.001099
-171.200394 167.047638 1034.935425
-100.047386 158.995010 1011.012390
101.426880 43.887615 925.372559
-123.910042 149.505356 1038.560303
221.288864 97.581306 766.412598
87.623795 182.372055 820.074402
-137.251541 273.448303 934.762329
111.522919 109.977531 862.527039
188.766922 26.136776 871.811401
173.200119 159.102249 769.375977
-57.366512 210.011780 959.239380
44.987881 -56.728470 1006.161194
-140.986069 238.076462 999.903381
199.746292 136.970978 761.414673
-176.045151 210.600174 1026.964355
-169.089859 251.704208 1012.560486
161.595718 -40.801346 899.638184
-185.760040 320.180634 963.000122
-120.019150 331.506561 910.985413
-163.706924 289.705353 978.444458
42.846313 54.749264 950.427307
-106.261917 215.961823 978.324707
211.711609 67.477554 805.088135
-146.770523 228.673218 1014.668518
199.260956 99.271980 788.731567
142.543900 173.333984 793.758728
47.751972 122.962906 897.215637
2.020019 -31.235529 1013.937439
-41.698750 86.967850 1004.119812
-54.656597 -60.903988 1000.199646
65.219048 12.819860 960.300781
20.622942 126.026161 920.934875
26.834433 134.929031 921.348022
44.339188 136.963211 916.333984
-44.055981 8.544273 1044.225220
-77.927719 272.464264 924.052856
-91.929131 89.180603 1075.948975
-4.158290 55.752625 1014.456787
-107.536140 54.023247 1123.066650
-158.671738 327.419464 948.781921
120.883011 132.365570 840.987488
-121.357735 253.670578 980.105042
-52.375412 224.047485 928.642883
-142.833221 301.107086 959.538452
-152.532455 239.417297 1007.801636
-87.286842 63.353230 1113.496338
-70.901985 71.935783 1054.757324
55.551743 57.344006 946.788940
-197.845657 314.332184 983.040710
-81.786636 59.488579 1047.078491
-82.666084 85.142029 1047.744141
127.952080 77.476280 867.161865
88.508614 64.328964 931.284058
212.859070 29.083334 821.757507
-70.073296 -10.092616 1050.385620
-59.256950 160.480698 974.383850
-101.380226 93.359451 1057.498047
-180.640259 217.705017 1047.723145
63.022797 154.056808 892.716553
44.453358 160.672943 891.522095
66.002724 200.159821 864.703369
-97.258812 280.709045 932.744446
-16.387770 151.965225 938.231995
-10.062991 92.885468 966.311829
110.848068 201.579453 802.672180
-44.002411 -9.808666 1048.352661
105.019501 79.535835 886.336731
-84.702583 15.622006 1073.162720
92.078964 219.624054 837.496094
166.120468 -27.760782 917.866455
-74.384407 24.073627 1074.663086
-39.061897 179.738312 941.912415
113.888817 -28.199551 942.587952
166.694000 -54.647194 916.127563
58.814079 251.624435 828.705444
-115.495316 231.392105 987.201477
-203.097137 229.596390 1055.086670
41.965664 -59.356319 1014.862854
61.537788 133.130447 894.747498
-137.159180 264.723053 949.240051
-155.256119 96.528770 1144.585693
-31.482624 259.822479 893.858826
-92.457161 269.585815 939.406860
-102.115074 293.567566 927.766174
-2.304841 -22.243814 1038.812744
-67.371666 113.408646 1020.655945
-163.928665 178.148102 1056.449219
142.863693 36.649281 880.243958
123.397873 -14.019113 924.806213
9.080930 241.889313 848.611755
-175.858688 174.025406 1036.222900
12.873857 216.845764 884.785828
-158.512283 243.083817 993.038208
-27.889380 4.650048 1052.001221
-173.703094 271.590576 1004.935852
-15.750459 -34.930031 1019.108337
-154.689331 233.269714 1003.750793
-108.636658 167.583252 1021.685486
-77.512131 -28.916916 1043.293457
-56.404327 289.790344 895.727356
-66.154869 144.153152 966.956543
-75.514214 74.243706 1056.935913
-106.774887 212.994400 987.947144
164.328217 106.660378 805.943787
174.272964 189.306427 786.506409
-175.711258 263.913300 1002.488098
-25.445246 221.411926 926.754761
-13.027073 268.000183 870.272583
-81.370399 242.218384 959.067200
25.026649 171.307434 903.664429
-152.675797 326.698486 927.895447
198.841751 106.943504 791.407349
30.806150 247.665054 845.914246
-134.347244 127.238304 1063.317505
-183.432846 267.526917 993.920349
-50.582066 52.273853 1037.187622
-84.263321 204.139679 966.796143
196.506348 99.249130 772.563049
-8.116203 88.811226 992.163208
-100.704475 337.455780 903.256409
-72.754776 10.287114 1076.028442
-63.388405 122.809219 1004.522217
127.221184 82.884064 854.209045
116.002388 28.906691 906.569092
-158.041229 208.988434 1040.187622
5.795712 -62.276161 1008.144958
-105.000793 296.483948 943.124451
-160.756790 108.105507 1153.834229
180.368088 164.278946 790.824707
-131.166138 190.465698 1025.006592
85.463585 52.459972 935.033203
211.094009 75.331871 812.689941
-171.453400 294.905701 988.192688
-82.365013 -20.447487 1046.848145
-42.856876 226.266464 913.853088
155.315628 -54.534691 961.901733
-169.567017 271.869965 968.827942
-63.093830 16.032686 1070.387695
93.426819 18.841566 954.892578
-20.299616 223.957687 897.655518
18.134426 121.564400 937.107178
-170.877045 248.535812 1015.715515
110.569252 84.331154 885.175720
-121.942398 141.912247 1041.013306
-44.551731 -6.920250 1045.810425
-198.323029 201.018799 1069.854858
2.838905 67.817131 976.454468
-97.756668 -3.306168 1045.642822
-151.396362 303.359955 939.342834
-22.436821 272.966827 867.365845
-143.130630 325.482849 934.693420
-39.198517 248.308640 911.714966
-44.661285 305.575073 857.995728
94.053101 51.245346 912.529602
148.253510 58.181221 886.168152
24.490772 103.718475 946.549377
30.967163 212.721939 884.279236
-205.758698 226.187057 1075.393188
-66.457253 176.540039 939.171265
-24.947519 164.377869 946.681458
-80.152527 307.046753 904.054199
-44.319553 150.975800 972.888489
41.947651 68.131393 952.109619
170.898621 163.905701 779.563110
-4.129598 -3.605195 1047.145874
-146.153900 240.403778 1007.856750
14.721325 -53.041126 1001.108704
-104.093903 286.537170 949.091187
-119.071815 278.136444 959.092651
-83.825554 300.314087 922.245544
46.006420 -40.863087 1020.032593
79.339668 172.995712 852.221191
-50.227100 276.704346 871.560303
17.739981 248.325089 858.394531
-34.313324 69.246109 988.641541
-14.256282 186.278595 923.095703
-3.444643 111.979530 977.415894
-11.359779 249.288315 898.900696
105.246056 73.583359 903.904175
71.518570 154.518127 866.033203
-118.377960 302.022034 940.515686
180.511658 54.792885 857.546753
-170.948761 279.608368 990.438416
-36.928253 147.947617 962.436401
-142.638901 310.611664 917.614807
-44.607430 6.484977 1056.744995
-35.335087 197.057693 933.087524
107.216263 89.927681 867.274231
-137.339432 293.489349 923.168640
-10.226017 176.233734 938.789978
209.562759 78.931870 817.898315
-146.328674 290.529480 953.911743
-12.364605 147.566223 919.172363
162.371719 -49.819782 928.366089
-82.592735 44.272419 1096.028809
-35.005657 218.168655 886.273560
35.635620 252.809708 838.537476
-20.742773 71.967545 993.362915
-26.540594 130.878540 982.511658
58.343014 175.134186 883.758118
27.378853 167.788696 895.467468
-161.351501 284.729309 977.854553
118.127350 119.749619 867.758057
-66.933456 12.561229 1043.104248
104.187088 137.014740 873.305481
-14.779401 176.301056 946.320557
84.324684 50.247829 908.890320
-85.095268 273.047607 940.256165
118.411880 59.540878 910.361816
75.877380 120.251228 905.184937
159.940887 2.671781 888.171509
-39.371506 155.529068 960.150574
95.851143 188.075684 839.991882
-14.340499 113.566315 966.113220
-27.774359 189.274536 936.136902
56.913651 24.750008 955.217224
-130.568283 269.107727 977.362427
120.701744 -43.190617 989.544739
-25.469322 144.998581 964.526855
-108.061668 267.808624 959.482849
-89.026787 277.961334 926.782776
-132.534561 122.627243 1044.824463
-146.474350 193.161270 1032.722290
-84.404449 257.846802 928.801514
-75.189064 198.345459 964.735168
79.874123 130.809982 875.625305
-112.043991 154.279144 1024.617310
41.484459 160.345673 890.992737
-185.357529 168.957550 1048.033691
-20.466358 140.494797 954.681030
-27.834061 32.319263 1044.462646
147.958572 165.226044 786.789673
-137.704788 344.635925 910.694153
-149.766968 99.528473 1141.505493
196.336456 -25.854679 871.382507
-71.085991 198.806580 956.496216
200.680420 133.713150 767.334961
111.712509 50.812222 913.019531
63.873669 -16.496777 1008.185120
-64.669106 191.222672 977.212280
-169.934143 274.613342 999.627563
12.095595 -8.519973 1037.516602
-39.569244 242.026108 884.929260
98.555168 175.938004 845.765320
1.131448 222.255203 852.489319
-65.713928 140.997635 1001.944214
109.122452 161.616928 855.303284
-141.044403 112.409027 1086.797241
-222.925491 162.570221 1178.758423
-10.253901 203.008896 926.290466
-180.712692 200.832581 1021.282104
-75.326508 -12.829520 1049.162720
190.915695 -56.659946 924.661133
-54.752728 160.544556 987.982056
31.660954 191.001114 882.961365
14.825755 113.525490 955.419800
-63.608440 12.551527 1055.101929
-174.002640 253.384354 1008.373169
-186.013504 151.815598 1090.667725
120.365417 144.397858 841.301575
64.842766 78.404121 913.598999
-118.847527 148.479630 1036.167603
-114.124458 183.196594 1021.708496
198.608063 -8.864429 861.271667
-54.980621 2.193091 1054.559937
-45.285679 131.891052 981.666260
89.983604 90.604774 907.421570
-160.657883 182.923660 1059.599487
-61.739975 9.070469 1060.345947
-36.747181 47.166672 1040.751343
-120.284866 244.977280 969.240723
62.782810 -39.667358 1010.025330
-115.017860 241.178955 975.581055
175.268021 179.560318 773.548950
186.773544 106.221046 814.598389
-190.178085 173.930634 1068.936401
194.278625 48.771130 830.662354
-84.339722 165.179764 996.911743
44.135006 60.749912 929.886414
-169.057358 304.811035 983.138794
28.442612 69.349014 976.186035
117.577194 -33.996628 966.354126
-178.191254 278.596893 987.177734
-97.271637 288.825195 913.840942
158.492844 161.261261 774.198120
43.137352 -57.704933 997.021667
177.992767 13.050487 889.788696
130.604538 151.541382 825.033264
155.398315 140.691681 825.010376
139.372574 63.174370 883.481384
158.121674 19.008667 887.912964
184.476776 98.104164 813.247253
41.650944 74.389290 943.881714
111.794197 7.951046 917.130737
96.191223 139.285522 875.443176
-12.764368 15.519815 1047.940918
-70.760368 187.158081 977.625854
9.377496 212.309265 851.709351
-153.378281 301.285950 942.209045
-43.805389 105.909897 987.153625
-48.428833 -41.402626 1036.413086
44.186775 11.909232 975.682800
-18.819160 239.687668 909.327209
-179.064621 284.706451 990.980835
152.314255 73.149521 852.244202
86.789238 126.200890 877.479675
75.638405 42.098164 935.620361
209.654449 26.954268 838.093994
133.083145 133.783813 844.112122
-1.163003 107.287910 956.699890
-74.202179 96.736229 1045.032349
-45.779484 162.322678 967.142639
21.615078 -24.913298 1019.562927
128.396408 155.330032 838.211914
-172.199814 227.469940 1022.767700
31.988783 71.862312 966.246277
25.565765 -4.770595 1031.726685
