ply
format ascii 1.0
element vertex 1408
property float x
property float y
property float z
end_header
-611.198303 379.649597 459.837952
-750.651611 336.594604 430.614166
-925.047119 533.268738 261.653656
-754.085632 545.597412 314.501648
-788.283203 508.249298 317.745636
-671.199036 493.829041 360.938354
-704.535217 674.194824 254.589767
-832.623840 659.054810 197.253281
-788.779663 636.232666 238.702896
-663.290283 644.086731 289.766327
-555.171265 419.387390 432.459442
-733.472229 619.516052 278.682922
-859.992981 538.224976 292.391388
-610.334106 665.892395 277.463898
-550.671570 488.557129 394.026031
-748.521606 693.209412 230.353699
-898.034851 434.627655 298.793030
-607.147522 625.636292 308.732727
-764.886597 367.930450 410.287018
-775.982117 381.966522 377.935699
-558.326721 485.041016 387.038666
-785.451721 643.501404 243.617523
-743.860229 501.208679 346.246368
-775.947815 545.777344 306.663666
-651.190002 445.302704 410.265869
-882.140564 444.573486 317.087769
-727.993347 582.054626 306.525024
-824.853333 442.314789 349.637390
-870.467712 494.967102 323.376434
-692.472351 580.144775 298.674011
-861.768433 446.423767 355.030701
-726.504395 673.978394 247.326660
-837.191040 600.545593 250.429245
-649.247498 731.464966 233.418213
-547.909729 501.033264 395.604797
-661.879089 639.477844 275.478485
-729.382690 478.664734 354.680542
-924.157227 688.746216 205.660507
-764.025574 569.978271 296.772430
-614.542603 390.899384 451.578400
-557.353821 530.305542 374.775909
-666.695190 602.278320 304.798889
-535.517212 370.887848 473.218353
-801.156982 429.660675 347.079193
-675.532898 610.769958 288.793671
-895.741150 702.872437 186.906143
-943.547119 615.575195 255.228775
-912.103577 572.961487 258.022583
-803.450989 524.059631 316.781738
-579.453552 367.510834 469.987000
-906.188538 502.085388 230.555969
-776.367615 418.231049 367.258331
-797.284058 450.645050 342.341797
-781.361877 647.262085 227.525665
-704.933655 342.989716 441.512482
-800.851563 584.294922 274.432220
-638.240662 647.669495 276.126648
-628.114136 418.686981 415.376648
-763.280884 496.754364 324.076202
-888.464111 424.174744 255.672592
-624.086243 352.137085 464.737000
-642.549805 699.806274 223.704559
-664.765015 710.431946 242.200592
-892.428223 462.993164 306.836334
-721.884155 718.478882 204.051697
-583.065491 395.248260 458.012726
-684.359558 725.854675 225.048050
-886.080322 552.046448 278.524536
-654.568542 429.192657 412.973816
-683.080566 521.764648 343.223938
-668.140259 665.302734 265.873718
-824.721375 638.375244 232.987991
-845.810059 526.079590 293.339996
-680.874512 426.570465 396.464752
-694.049011 590.916443 306.258179
-674.036987 464.815704 388.699677
-678.090759 665.105896 257.082916
-602.113892 473.023987 406.135498
-849.449280 481.091156 321.548645
-651.733582 366.166809 447.776489
-626.223633 610.165833 287.933411
-751.559875 431.312012 360.541962
-759.629517 303.954468 454.959045
-822.403015 542.239807 279.799347
-601.539917 449.027924 425.088776
-921.195190 541.930603 262.890808
-669.203918 628.013123 282.123749
-858.185120 640.004089 222.827957
-653.774841 392.885406 441.951569
-753.257996 721.944763 209.098648
-914.383118 559.890442 294.792511
-792.290466 655.198608 231.292694
-669.307068 665.893799 258.968933
-703.970581 734.386780 218.850372
-655.091736 759.245972 196.150970
-809.458069 618.199341 247.225311
-653.727539 353.745422 440.275665
-651.310669 584.727295 313.391968
-710.518066 625.872314 250.495789
-920.602417 665.498413 211.985596
-562.299927 514.840515 382.427734
-932.614624 550.746704 271.182404
-822.838196 548.637268 282.249817
-937.212952 684.880615 202.896469
-624.340820 540.283142 349.080200
-896.867432 432.607605 267.826080
-936.546692 624.491760 237.259872
-781.868530 576.174255 290.713043
-777.688782 536.585083 311.331726
-840.935974 539.776367 282.373016
-751.581665 414.213013 375.977539
-693.190186 699.245728 232.355087
-905.111877 498.858246 300.901428
-649.920410 537.323059 342.999817
-687.936279 636.847351 284.699524
-679.747681 467.815186 385.114166
-897.605286 543.877197 301.778320
-897.014648 568.553589 282.089722
-768.821472 682.182922 229.968353
-610.312195 663.213318 283.541473
-897.845642 446.810791 260.003967
-690.003723 614.261597 299.289764
-684.349243 546.765442 327.450012
-685.922852 497.657440 349.129852
-899.485840 468.212769 289.454437
-693.110046 459.390747 372.906982
-706.569763 634.027588 267.081177
-856.512390 355.919952 437.315033
-651.252686 430.502930 419.156097
-680.898926 499.585266 349.748322
-803.909058 534.330994 302.698700
-820.710571 677.194580 212.674744
-583.357361 600.863586 310.008606
-635.551880 455.524048 389.926941
-878.478088 496.293213 279.907623
-889.309937 449.964417 311.360565
-820.142761 388.447479 383.252319
-684.916382 342.548584 458.171570
-851.934265 587.434753 234.902237
-648.491028 682.919189 231.420059
-685.868652 386.052582 412.807068
-610.684387 717.802612 255.882355
-502.967438 373.101685 495.769043
-593.365784 647.005005 298.755768
-709.371704 407.187347 407.080780
-617.006958 500.823029 382.063141
-605.805054 511.641785 367.488800
-610.642944 517.388062 377.362823
-765.679810 337.990875 426.435486
-835.003052 417.966095 362.209503
-628.907349 393.635986 449.443604
-710.433594 715.944946 224.374222
-894.712341 441.930695 274.878937
-625.607178 764.229004 205.556580
-582.826233 457.246033 422.419067
-911.229004 478.506104 268.186920
-814.646729 477.630005 320.314941
-788.600403 273.331238 477.959381
-850.810303 538.161682 297.172760
-778.254761 648.004150 247.443878
-750.896912 685.982117 199.716644
-622.284363 738.583496 235.348618
-725.239380 550.807251 314.610077
-755.291138 575.888977 295.781036
-745.950500 735.096619 202.007431
-810.205505 641.114075 229.859695
-845.716736 454.474396 332.080902
-706.075134 719.913330 219.971970
-687.391296 566.429504 315.433624
-663.743103 475.833984 384.768982
-637.861633 580.719360 328.003357
-878.666382 422.690887 315.989532
-627.305481 752.518188 233.326950
-746.128479 290.983307 461.644226
-667.573914 374.902039 426.253632
-591.219849 455.668488 419.514984
-546.847107 431.391815 433.385590
-610.770813 693.856628 270.948578
-582.714355 504.117981 365.781281
-688.046875 414.230255 411.107941
-884.442200 393.609680 292.192993
-583.695251 638.314697 307.040710
-608.878479 523.408569 364.614227
-764.977905 555.454834 293.820251
-599.726318 605.140320 290.164246
-912.773499 540.184998 294.871490
-815.503906 462.817139 342.203491
-802.849548 647.940369 227.899124
-689.727295 588.986450 311.745239
-539.668274 431.400513 435.873505
-615.738770 466.897034 392.447662
-784.529724 689.048950 202.216415
-766.106750 319.054871 431.139984
-785.694214 327.198273 418.474487
-718.901001 465.554230 362.887512
-596.898621 583.047485 333.827362
-598.599976 491.762512 375.738342
-879.815552 375.150787 332.779358
-567.450500 480.126831 420.735779
-672.660278 450.330505 400.988831
-702.422668 575.469788 314.994843
-845.305359 668.123352 205.182159
-603.794495 549.054016 344.995941
-570.469116 529.884155 365.861176
-695.180603 591.134766 309.606537
-813.693542 533.382263 304.170563
-593.686462 394.604675 447.942505
-595.825623 613.234924 316.268005
-751.655029 441.005371 354.396576
-616.387024 506.933258 378.420715
-634.260193 722.969727 246.358032
-623.264526 576.957092 325.929596
-733.360291 496.839539 337.950073
-547.706787 512.437439 390.997803
-606.696045 560.186340 348.994354
-830.366455 592.252014 244.222000
-697.715698 705.256531 236.326553
-808.098694 521.921997 299.261078
-778.687134 481.979858 330.659424
-782.371277 353.440643 412.396820
-552.001709 419.137177 452.548157
-653.082458 434.334686 388.843658
-940.121765 600.842590 268.633148
-685.388916 529.180664 349.370483
-555.575684 437.738464 425.660553
-649.883423 380.060303 446.127625
-747.223267 645.768738 228.408569
-782.789734 697.478882 211.400467
-685.844910 663.820618 236.811371
-516.536560 377.329590 498.545563
-867.911804 416.149475 357.829803
-618.194397 573.563660 329.180573
-729.444153 326.425385 453.671082
-737.946411 613.950500 279.137909
-622.050293 454.246887 387.402527
-586.138977 519.623169 379.653015
-709.093628 664.581970 260.705902
-628.940857 469.613037 390.587738
-590.311401 444.300201 431.626923
-638.541077 433.155365 396.465118
-539.649658 393.946808 472.339325
-694.457886 579.449829 304.553070
-838.978760 554.845886 274.092468
-579.020020 383.708832 458.390137
-829.882996 533.381470 302.594513
-697.293213 519.635254 338.862518
-778.803955 372.478088 386.536682
-674.684082 686.495605 255.156296
-890.838440 602.015137 246.574432
-629.746765 713.875793 232.596405
-759.591492 669.386475 230.761276
-913.620178 507.085510 259.795776
-862.127991 388.861938 355.178345
-729.479553 464.827087 340.545074
-707.148743 546.350891 319.139252
-629.873657 487.581024 377.150665
-543.978760 505.784790 401.020172
-913.651428 499.494720 242.263077
-685.657593 366.731232 424.987030
-679.009094 706.017090 240.513580
-652.855652 710.225891 236.388519
-699.459167 692.740723 249.845917
-900.272217 519.267761 278.439697
-753.542847 395.555359 388.482971
-598.823730 598.608093 338.703644
-749.542297 716.924133 203.603287
-748.253906 692.259338 226.443634
-763.758728 475.132660 357.205780
-770.888672 574.720398 295.646942
-587.028564 608.485596 319.488678
-817.609741 522.597656 298.064789
-794.401855 677.362610 234.694550
-691.321594 467.790771 368.893585
-586.250122 545.199890 367.977203
-868.373108 366.884430 338.624847
-673.244385 543.506409 332.204224
-869.115784 464.615356 308.609528
-553.424194 410.089264 437.495392
-750.208557 401.985260 386.790863
-598.365784 410.045380 444.280762
-727.633911 606.330933 277.537262
-678.833130 662.870605 262.694733
-634.802063 472.298553 393.915649
-719.657288 720.276001 220.381271
-651.876831 718.984802 231.907501
-820.161926 463.867981 329.332886
-743.417847 582.322998 299.748199
-844.648804 440.341187 356.260468
-616.986877 563.989319 350.545319
-743.122864 696.035828 193.909195
-793.304138 528.968262 303.413055
-869.879761 365.793335 350.097107
-857.820251 607.406860 237.236786
-726.743774 661.554688 260.548462
-571.100586 452.284210 412.776093
-702.945068 552.292908 317.380859
-676.293640 439.106873 389.539093
-674.376831 682.784973 260.742767
-761.192932 299.926208 435.164124
-708.833862 496.154388 342.581055
-874.492920 645.560242 207.245148
-843.160339 477.092712 340.576263
-623.135681 548.096130 341.643677
-627.106995 343.216248 439.942902
-650.713013 448.050873 405.642487
-721.519714 729.010986 212.435318
-700.815308 563.786072 311.796204
-796.153931 668.608521 235.014893
-633.631958 409.228943 418.024994
-852.622803 608.371399 238.348511
-892.879944 445.847595 285.689026
-706.308044 580.062866 300.216400
-805.809998 551.154175 284.216553
-778.839783 516.851868 323.142120
-580.183960 573.260925 346.971527
-691.939514 546.860352 327.155151
-773.687073 354.682739 418.828857
-767.073914 318.102386 441.856201
-643.139709 453.113281 382.241791
-755.597412 302.362732 440.566864
-714.164063 311.501160 466.761292
-816.514526 553.414307 279.287262
-627.380676 485.362762 391.573975
-709.571594 429.364288 385.821045
-608.136658 594.038330 318.632324
-598.227661 486.842255 378.124969
-679.821106 731.635620 217.901627
-764.179260 423.826447 368.819946
-675.432373 514.207642 363.546204
-677.858459 551.661316 337.830780
-726.916321 423.100922 392.297882
-531.637207 464.919312 422.990967
-577.462158 484.481171 412.633728
-715.922119 608.455322 276.947571
-597.185303 481.679596 407.295532
-794.537842 367.492798 402.912415
-607.088745 714.933594 256.020111
-597.978516 382.046753 432.234039
-706.482544 598.091431 289.260681
-551.415405 388.424377 451.073456
-522.847290 414.911133 451.866699
-724.301331 351.654663 428.786194
-792.236511 717.075134 195.535019
-937.859863 598.051086 249.875061
-696.480164 630.446106 278.282837
-598.793213 495.121216 380.095337
-757.323914 526.515442 328.489868
-629.008057 693.007996 267.365143
-609.335144 382.932953 428.719086
-866.995911 372.775909 308.922211
-719.518799 525.216980 337.745239
-809.242432 459.684052 345.729919
-634.583923 635.109619 302.830048
-592.942810 459.086823 399.157410
-860.338562 401.187653 382.233978
-735.678955 725.194885 208.310226
-674.641235 630.523315 276.681885
-678.891296 528.715942 330.040833
-585.341064 542.408447 353.863129
-875.611084 571.844910 281.493256
-848.015259 552.545715 276.085907
-786.144592 458.971558 337.731934
-791.750305 457.349548 338.837494
-632.833679 544.980164 324.063080
-875.972717 375.319580 337.219360
-782.496887 344.386475 397.076141
-739.343994 725.859436 201.510742
-646.721191 446.205353 396.994904
-731.699707 556.929749 305.410950
-632.926636 731.385498 238.240845
-647.489136 562.562683 340.950653
-642.792542 507.869507 360.723907
-639.044128 762.459534 212.276093
-852.268127 381.702789 365.037231
-929.447205 651.139954 224.439804
-901.560730 502.646454 293.178619
-657.017639 337.498199 465.646088
-792.671082 602.312195 260.923889
-798.594849 665.336304 230.530823
-623.764893 447.338104 399.932129
-862.549072 405.284058 362.615875
-528.540161 416.771057 447.455719
-607.365234 713.799683 250.281769
-715.559387 504.044006 342.060303
-925.273682 660.231445 213.054535
-590.626038 448.300507 399.186096
-587.502258 392.810608 450.543335
-680.179260 697.426758 231.129822
-548.055115 479.497162 409.424988
-578.722839 557.210754 349.813385
-642.343689 353.135620 443.622955
-525.058289 380.879211 488.204895
-772.097534 578.615601 279.920990
-946.832581 628.142822 265.314636
-787.856689 322.036316 411.691589
-827.243347 536.838440 274.889557
-599.047424 487.319702 371.370697
-903.577820 582.005554 279.304718
-787.181396 569.968567 292.540070
-753.094238 551.659180 315.186981
-592.910889 617.959900 307.562103
-817.322083 551.362305 263.104584
-557.498535 406.408875 430.663177
-894.786011 437.266876 259.461060
-658.923584 666.729248 265.413818
-871.078186 455.072174 337.449951
-869.995300 651.498657 217.058090
-679.980652 546.155334 329.185577
-915.706848 590.765320 278.838867
-671.653748 326.134888 458.756714
-631.702026 393.540344 428.455566
-702.131531 620.458313 289.288208
-593.458984 628.737549 320.277222
-650.085693 697.547424 244.124329
-859.288330 604.600952 251.431259
-863.743591 415.946533 353.495178
-722.522522 648.844421 268.812408
-776.686218 456.354614 358.913330
-566.901123 474.869110 417.186432
-663.420715 745.086060 209.120331
-733.104858 527.575806 331.370148
-615.068909 702.082214 249.681580
-640.511047 589.726685 308.890289
-567.624451 347.617828 477.890472
-875.897095 441.506531 303.368256
-605.681519 583.304871 301.347839
-845.008667 502.699005 308.693237
-882.399414 547.997498 293.551025
-761.892517 540.997009 313.984131
-920.088013 507.572357 249.802444
-618.856384 710.009583 252.537766
-903.263367 465.124115 252.230911
-733.030518 704.028809 225.664444
-627.399536 436.509766 404.361206
-713.608276 662.032593 249.030518
-757.295776 731.292358 204.664276
-676.297363 412.067749 416.094513
-889.460266 409.441803 319.207794
-628.594849 710.647095 238.359665
-613.232544 528.886536 354.449738
-716.156677 681.073853 235.105438
-871.932739 658.004517 200.560318
-532.450378 441.373749 451.595520
-883.096680 452.346893 266.225800
-729.817688 668.393311 238.715775
-694.765930 561.852234 318.993317
-704.227783 704.586060 239.671967
-698.497131 524.409424 338.528381
-588.427612 631.401062 312.402283
-678.163391 582.668518 319.755890
-806.203308 405.309540 365.558228
-688.735474 707.550171 235.515106
-676.024597 488.643555 374.409393
-703.877869 346.041351 446.430145
-862.694824 537.010742 278.045746
-508.931763 376.783478 482.771057
-581.543335 513.822327 372.450287
-793.261719 712.741272 197.649231
-642.579651 445.140442 407.481415
-742.743408 704.421143 222.807617
-637.250732 689.302673 265.633636
-611.576294 516.579224 362.926422
-593.460938 549.116455 350.394409
-717.500061 376.128815 397.351624
-680.605957 461.851257 356.480896
-769.476074 629.116272 250.504669
-587.407410 612.684326 322.450012
-899.443481 513.579834 277.341858
-847.711548 621.671143 228.858521
-582.102478 531.362854 363.478699
-805.074463 464.796600 344.495361
-838.222656 613.927612 228.669174
-841.338379 529.511719 295.421051
-702.064392 488.155365 364.349487
-712.695679 453.222290 371.739777
-864.701050 403.026855 379.664276
-614.259277 406.018005 441.314850
-641.684204 721.240295 209.233582
-872.887207 419.231659 308.991791
-860.112671 573.978943 260.864655
-875.792053 697.138977 186.496231
-909.701843 483.287476 259.765686
-855.188416 397.109833 341.044861
-885.417786 448.064362 226.166718
-663.409607 667.811584 259.584778
-755.921082 687.894958 196.044510
-700.460388 571.729309 310.771973
-615.205688 616.909241 299.242706
-808.963867 613.731812 249.795959
-654.335327 358.456757 437.495728
-711.464966 308.767059 434.868195
-854.314819 505.324249 283.899567
-540.174866 471.794769 436.390472
-656.052795 662.919067 280.558411
-709.012085 730.706726 209.895660
-839.571350 411.931732 371.259033
-595.675415 466.796295 399.064972
-738.960388 593.089478 279.422638
-794.276733 696.970703 216.374725
-752.596741 629.397400 254.571259
-747.073792 612.757202 266.754669
-936.317017 599.863220 254.519058
-785.950989 363.208954 405.972198
-661.099060 395.455750 417.716797
-691.988770 442.236633 383.355377
-901.535400 459.755219 250.950180
-649.028748 310.911560 466.931061
-596.191467 535.487549 363.004761
-730.032043 718.295410 201.427872
-604.113220 538.430298 363.587402
-638.931335 606.707397 317.648651
-618.055420 720.966614 250.277252
-742.324463 426.821594 371.627930
-867.267029 583.651001 252.445587
-930.516113 584.267151 265.259979
-579.688965 400.171570 446.116241
-581.603577 564.781250 331.048859
-831.440491 469.963959 330.646301
-698.481262 614.195435 282.933502
-888.105835 443.522491 252.135254
-573.842407 398.060638 418.996826
-940.470764 605.616760 263.425751
-910.836426 516.504089 234.259064
-708.358704 477.995270 361.202972
-752.608765 500.359070 325.799530
-741.684509 289.057922 469.959930
-729.894958 289.600250 453.651825
-705.713013 456.188202 367.819366
-734.408813 557.328430 304.864899
-660.630554 703.973022 254.770935
-809.296021 597.928406 264.428223
-577.254822 560.264526 332.619324
-710.899536 473.895477 361.231659
-692.990417 320.652802 454.624603
-557.271790 420.006134 438.998932
-584.376221 595.767700 331.763367
-799.201843 636.605103 243.327896
-897.518005 450.389832 269.762512
-587.924744 431.762878 439.623749
-639.071472 382.123474 433.374054
-690.002136 292.405396 452.104187
-925.377808 563.688904 296.621277
-851.214050 588.381470 232.059250
-874.161560 409.071686 349.251099
-579.861511 593.381287 336.305359
-829.924072 657.813538 217.413071
-644.276123 646.706360 294.061035
-824.424377 453.155212 342.186127
-571.756226 489.421143 406.382019
-730.675964 645.423462 258.353241
-709.319336 705.534851 223.891937
-558.728516 550.426392 362.071259
-806.801758 709.016296 202.265671
-601.572815 681.785095 284.621063
-627.266968 736.039917 225.397919
-614.956848 383.274567 439.937592
-675.349609 686.154114 239.856918
-767.266479 301.189667 416.576752
-617.090088 680.077881 249.120712
-871.631104 385.927429 364.050171
-760.387634 340.706909 429.772339
-616.991333 513.803040 346.876587
-743.106567 636.986633 255.587479
-708.671875 393.945435 422.531830
-868.504822 397.648926 306.576172
-693.078796 708.188110 220.184998
-865.974365 548.511841 274.551910
-654.030518 729.483337 240.072342
-602.965454 457.971680 405.400879
-620.957642 384.858582 412.965759
-689.491028 439.956543 401.858612
-728.549194 664.333618 252.762894
-816.973572 455.523529 352.095764
-848.365234 513.397705 296.960144
-605.045288 645.269348 286.972473
-766.028076 503.809479 305.196655
-635.281555 577.265747 318.904816
-735.970825 505.014496 313.019958
-837.667847 628.826721 206.929932
-793.969788 577.836182 281.839630
-856.163269 618.758545 232.608353
-646.937561 560.256104 310.541962
-698.838257 406.351013 404.644379
-686.478760 372.994507 408.735199
-717.875488 643.085938 268.871704
-748.568726 675.740356 229.878723
-799.901672 463.154785 329.534912
-689.421082 502.087158 360.857635
-634.431213 518.475830 359.420715
-584.397278 479.901093 396.893494
-849.906372 411.628235 351.552246
-908.524719 592.551025 261.087646
-798.862244 327.967865 432.009521
-746.268066 444.248932 360.595215
-675.797913 570.052124 327.761322
-875.558289 649.816162 211.192902
-719.969727 537.022400 319.668976
-648.300049 477.330627 373.594421
-678.207336 379.806580 428.112518
-675.636108 581.221619 303.421783
-718.693787 417.075287 398.231964
-625.834473 373.097809 452.204712
-801.930481 681.105835 216.966019
-784.296387 277.055115 475.090210
-689.252625 754.941467 193.470749
-611.098999 329.028198 478.288727
-880.646973 666.489014 199.187332
-618.998230 480.771545 365.010529
-834.279663 478.065277 317.808228
-760.259033 531.791138 304.672852
-694.782715 646.042480 273.531494
-681.640503 703.769409 246.694687
-745.041016 489.193604 352.040527
-661.046631 744.458313 220.207352
-575.704590 457.367889 408.764282
-811.637390 616.389099 256.977264
-806.593079 591.315796 262.840576
-783.026001 673.881470 231.161057
-910.140564 511.227020 265.570129
-765.546448 466.747284 346.469940
-734.284790 623.790955 276.012756
-913.269714 642.012085 206.950302
-835.717529 452.869751 344.397369
-739.866638 676.540649 241.973099
-737.130981 659.816406 234.226944
-754.549805 327.074127 411.519867
-872.874023 440.875336 321.237823
-541.804871 378.601013 473.482147
-731.936829 728.894531 209.692398
-674.976746 701.413025 252.097046
-535.940613 401.151978 436.261627
-690.200073 362.716309 442.726654
-644.320374 605.486145 311.236206
-813.956116 616.525879 259.731354
-885.938416 426.625427 289.803558
-643.515442 668.908081 281.253082
-760.542114 408.666382 394.348785
-605.537170 546.020081 338.824402
-939.274963 586.205688 276.135803
-727.781006 326.595947 418.780029
-877.614502 455.351349 325.253571
-755.384460 570.706299 287.825409
-756.593079 555.698059 313.019989
-813.571838 422.812103 359.858856
-886.120361 568.217712 269.257385
-745.940002 596.842651 285.823730
-890.722961 459.016205 291.146576
-591.240540 488.023773 401.800659
-851.699646 612.773315 236.674484
-818.478149 615.522095 231.223068
-722.368713 620.928772 245.095032
-889.191040 518.788940 273.153076
-636.107056 636.306702 294.894012
-577.304565 511.637238 363.280090
-665.876404 573.257751 329.624481
-822.534363 698.131470 194.694595
-612.922913 378.380737 427.016479
-727.248230 444.517761 372.773407
-621.029663 680.129883 247.958893
-809.302551 518.589600 298.187500
-783.530396 477.318848 339.974182
-704.094482 369.026581 430.791626
-879.258545 409.196777 311.948608
-737.198181 427.086029 375.898987
-734.083984 570.860107 311.128723
-819.691833 465.398071 328.705627
-826.291626 599.405334 264.784790
-929.325806 548.156860 267.597961
-690.706787 641.911560 276.939850
-749.140686 451.369629 375.709198
-792.578308 709.446960 207.354202
-558.280334 416.776031 425.295044
-701.204163 403.202789 390.075165
-831.578613 534.767090 286.381958
-599.643494 362.231262 459.466675
-748.464172 714.022705 212.424850
-683.379333 563.156189 321.072266
-716.412292 540.360168 320.614929
-769.565063 705.513000 206.517868
-674.091919 389.922150 406.386078
-856.910706 390.005402 338.994202
-549.625000 526.040771 375.458282
-716.587158 657.225098 260.937103
-729.134521 336.708435 444.554352
-578.004333 606.444824 337.410187
-880.658813 378.890625 324.084229
-550.880737 375.691864 479.996948
-795.384460 572.239075 284.677887
-709.524170 310.774536 443.901337
-901.962036 471.527344 234.188721
-620.665527 457.044617 406.480377
-769.169006 406.759857 374.831207
-711.282837 369.776611 430.319214
-844.068604 549.593384 276.797424
-624.341125 523.107849 359.673645
-578.727905 656.526184 281.572357
-687.238953 598.776550 294.524628
-689.674988 421.186951 392.662048
-571.638550 446.129120 412.422668
-581.728149 517.830811 386.277771
-584.590881 537.258972 368.652740
-860.731079 431.442932 335.269836
-853.054565 541.232544 286.271332
-625.770996 749.219177 238.508667
-714.323181 524.832703 326.116089
-851.530945 477.471527 333.265747
-647.302002 693.913086 265.357971
-872.014221 401.941071 320.712677
-867.041687 444.844299 336.936676
-670.648315 731.811768 228.200104
-611.975647 427.204468 414.459320
-758.744019 391.713745 399.404633
-748.187195 552.901794 297.266968
-599.283386 676.020691 285.043762
-641.313538 711.433655 255.354904
-709.460388 388.319305 404.874176
-727.573608 454.343903 366.961731
-869.522522 445.594757 304.989655
-800.519287 545.387512 304.530945
-739.330444 663.906860 245.389923
-667.015808 566.124756 321.459595
-720.912964 364.855347 426.979126
-697.411072 532.667053 323.221893
-628.176331 721.024719 248.737930
-798.946899 609.165100 251.863876
-643.760193 570.002502 320.431122
-912.845398 498.421143 243.353745
-735.489624 501.430450 347.701233
-698.063721 741.443970 213.058228
-842.626892 603.675171 254.958023
-650.769348 742.821838 224.929886
-766.180481 572.257996 294.067566
-805.684326 512.162476 298.212555
-729.517273 370.224426 407.458496
-809.141052 401.166199 357.603973
-570.884216 396.607361 441.008484
-776.883301 634.741699 258.878448
-756.526001 334.397949 420.375793
-703.357300 340.849091 449.297424
-731.842407 366.316467 423.875854
-706.530151 495.292603 352.112701
-649.236938 432.355164 414.106995
-728.928833 332.898102 449.929871
-874.383301 653.841614 204.474701
-932.564453 553.113037 255.654831
-615.246704 407.941589 445.127136
-540.473694 417.986298 443.788025
-567.807129 391.786652 445.392029
-623.635559 447.245117 400.589478
-578.285217 392.516479 441.803284
-759.546753 719.007507 208.998474
-769.833435 472.906616 351.475647
-752.389832 304.554688 450.958282
-709.594910 355.128479 424.495453
-878.894531 433.176849 288.261108
-683.776489 553.718994 316.117676
-751.183960 655.990173 249.301682
-661.778076 448.439789 388.211456
-597.745728 455.177338 419.734192
-888.846313 411.882751 302.726318
-866.662659 395.765686 369.234650
-884.793945 385.163422 324.953491
-682.495178 444.046631 387.623657
-570.922546 587.903381 335.755981
-853.940674 631.947144 237.025024
-678.911926 582.257080 320.554962
-751.427002 549.809998 301.638885
-630.011719 622.413452 311.444000
-643.367798 768.103333 219.914963
-808.401733 641.071899 237.702789
-890.840698 518.316467 296.775848
-903.636353 499.020905 257.387024
-602.129578 563.063171 358.054932
-758.382385 498.290497 322.162445
-632.295837 554.359680 328.911255
-753.833679 575.320557 295.171143
-777.013611 285.384003 447.060791
-779.336060 389.847656 372.382843
-543.187622 362.522705 454.945618
-755.184204 664.696899 242.444717
-752.800293 532.783508 307.318787
-823.803650 381.521179 391.636658
-726.066833 468.756287 373.640778
-747.986755 476.723969 342.399994
-697.894104 671.073425 247.608337
-782.219788 494.071106 322.180817
-850.871216 505.271240 295.631683
-568.243652 461.590210 429.415680
-886.459045 513.650269 285.584503
-611.479553 624.724487 299.356781
-721.650391 659.366760 255.026962
-591.005432 444.612213 411.027130
-664.691162 565.453064 303.116821
-812.243774 411.973785 370.502289
-933.166199 574.340027 292.706879
-619.588379 404.024109 426.737885
-715.087585 358.777344 399.115936
-801.646179 386.767944 387.513641
-824.457886 516.500916 297.187317
-771.293457 616.513489 260.594421
-895.137024 440.840942 309.049469
-655.718811 635.744202 282.411682
-716.954102 658.983032 264.969086
-766.427551 584.658691 278.184967
-914.158752 506.991608 260.935760
-814.707031 653.741211 238.316910
-608.891846 485.489685 385.187683
-542.406433 501.948181 378.541840
-648.380615 541.636902 343.032196
-624.256287 697.572021 249.692062
-600.879028 582.085815 342.100708
-732.278931 745.802856 204.648621
-743.480042 506.610046 328.077515
-801.442200 686.747192 198.222076
-690.406311 395.677216 397.893158
-633.414246 415.332703 414.992065
-577.656189 498.152069 394.510529
-650.813660 735.338562 223.947922
-635.498474 458.287323 404.684570
-539.986267 450.570526 388.662689
-711.600708 561.337463 308.779022
-907.358582 511.837463 276.558807
-901.039734 486.705383 234.157043
-794.144409 453.137177 341.024506
-792.200928 465.338654 348.680481
-727.069031 452.758392 345.670929
-716.379395 435.353119 392.018677
-627.301392 633.135681 290.286713
-622.056519 567.033630 333.644135
-779.536987 410.837250 367.028351
-664.324768 354.874603 443.206451
-900.368225 459.613556 282.922699
-691.552917 447.066956 377.253448
-724.052368 569.832031 294.726776
-675.556763 610.076111 304.665253
-887.069824 459.895416 266.960632
-605.158081 580.239441 341.901550
-598.005676 500.358154 375.866913
-763.421936 625.920776 252.676041
-823.817688 649.226807 235.501328
-705.128906 405.995117 396.747375
-859.677979 569.760132 261.552216
-741.005676 654.347656 256.085083
-671.840271 367.034149 416.653442
-936.488831 631.560974 243.906372
-519.856079 416.708344 479.702942
-896.765564 433.716187 273.939117
-619.853577 408.973267 437.638519
-633.228394 434.315430 419.145111
-753.491333 636.567261 262.385986
-604.099731 340.364441 479.600616
-777.101257 500.370453 317.020355
-543.873169 418.158020 440.917725
-697.200378 705.677368 199.057999
-627.270020 674.211426 280.546906
-926.040161 559.466736 290.890076
-879.697693 423.042236 329.475281
-693.810303 364.488068 437.098114
-685.785034 472.598816 382.003632
-647.847290 731.240479 234.504288
-895.022705 484.046204 312.222046
-649.939453 717.287842 241.416504
-858.719788 519.918945 296.155090
-758.360901 322.903534 422.396576
-920.078430 646.502258 225.468948
-639.899353 334.693298 432.821655
-626.355957 502.640259 367.196869
-649.824036 419.368378 407.300690
-678.999268 675.773804 255.803909
-893.494934 491.367371 263.264374
-667.299744 486.396973 347.062836
-892.763367 606.156006 237.642609
-868.169312 375.579346 374.855560
-651.577698 353.829285 458.088287
-756.772705 486.950745 317.610352
-657.690918 479.820465 370.396942
-932.995483 564.390442 261.670471
-915.172729 511.002533 264.711029
-642.312561 694.729309 265.773987
-613.702515 617.252075 310.621948
-775.028503 594.160156 262.697113
-663.201477 557.918213 341.836304
-631.036133 610.455750 303.463348
-901.073364 473.948975 267.883087
-740.772522 690.103271 232.087936
-598.604675 407.174988 435.675232
-808.318604 664.080139 234.567673
-821.273010 519.238892 307.664276
-690.940674 403.531799 405.318298
-651.357117 594.593140 323.236847
-702.402527 717.044434 224.777954
-765.447083 603.016113 277.343262
-738.520203 742.639099 194.848663
-692.332764 370.372955 436.692841
-893.373108 566.533752 270.486572
-800.178894 377.648010 393.467926
-740.441284 696.207703 217.863068
-668.346252 452.785919 366.031189
-609.132751 459.933075 402.463440
-684.340332 616.214539 290.393158
-747.788757 359.500732 422.259399
-635.641235 330.718445 460.861633
-665.566956 542.339966 347.740936
-599.140625 539.544495 364.129883
-869.469421 380.434082 341.564301
-817.671143 616.570557 251.123505
-715.911682 608.730103 279.696777
-887.865662 499.604156 293.022705
-727.454834 506.400024 348.708252
-903.757996 502.452271 288.796539
-644.830322 614.010071 311.801483
-851.250488 421.772186 368.604187
-814.581055 645.681824 229.988434
-712.613708 662.946838 258.864319
-622.078369 526.406006 336.544250
-641.228210 393.771393 424.061798
-894.008911 468.020111 285.613708
-582.505920 379.276611 470.136078
-630.240417 535.827820 338.469727
-873.754150 371.522858 356.785828
-885.876831 389.688873 408.839325
-836.624207 602.051453 259.781067
-622.853333 701.703430 246.996170
-644.495850 332.199860 453.207550
-648.362854 381.331207 450.032776
-855.355103 655.109497 216.073929
-556.612671 447.940887 420.024536
-570.314331 444.462494 427.436340
-912.621887 634.628418 217.800308
-868.599365 362.763428 376.979645
-686.618286 679.833679 244.956665
-759.649597 599.898804 279.891479
-586.579407 513.691833 383.168030
-626.439087 496.609863 359.636932
-756.505188 588.436096 278.525391
-596.276123 592.340759 322.098419
-688.186523 722.857483 216.014374
-639.650635 423.125488 408.417633
-676.100159 677.210510 260.260956
-726.238281 559.695007 309.277557
-600.581726 682.695190 266.382080
-787.219421 708.302551 207.776031
-514.620178 416.464600 454.895020
-752.408691 542.281738 320.592194
-623.307617 539.910889 357.284088
-710.591187 301.187012 452.795532
-692.963867 507.492737 347.156433
-821.713135 703.116272 199.759247
-694.586060 553.713013 317.079407
-890.428467 418.085571 279.012207
-648.366150 629.687500 288.235901
-752.595459 641.699402 257.431793
-782.649536 417.436218 364.041931
-867.839539 393.964478 335.537781
-932.660278 569.615234 293.510162
-513.440308 400.711853 487.653717
-726.992676 658.149475 254.284119
-751.951233 524.997864 314.694550
-677.397095 719.248962 225.523132
-518.870239 422.612732 466.674164
-597.897095 596.844910 316.664276
-791.087219 648.783691 239.398438
-757.173706 657.805359 248.610764
-808.782104 713.822388 199.511536
-649.147705 765.833923 221.939865
-883.718872 443.190643 329.871948
-788.373535 514.510376 304.210602
-756.168762 645.661987 226.117889
-675.547729 362.468964 430.764648
-900.454041 504.093689 280.899933
-635.529846 421.288696 409.813507
-827.307922 574.307312 247.195313
-822.515625 480.684296 313.771851
-685.614258 333.961334 454.770203
-616.369324 616.323303 308.764740
-571.944397 390.820221 434.519501
-670.460266 540.168335 334.034393
-674.148254 714.039246 244.648087
-877.117310 407.539459 249.965881
-892.745178 473.908478 308.750214
-907.703735 501.587952 255.227753
-659.047058 727.799805 233.499924
-651.924805 729.511108 234.693619
-859.450195 653.620667 219.909302
-719.416077 642.258728 264.912079
-542.059753 468.351227 414.518036
-895.819946 455.947144 292.689514
-765.896240 695.431580 219.404968
-545.293274 400.330688 432.580322
-663.579529 344.875580 441.799530
-931.044800 677.037292 218.709412
-921.894348 520.493225 262.371460
-656.537170 725.288513 221.689224
-684.112793 629.396118 292.160645
-837.337280 548.267517 286.618500
-870.972107 424.805481 348.908508
-773.420715 508.261230 329.818146
-673.074463 340.678253 465.114807
-870.355164 612.393494 232.338303
-754.800049 706.984680 220.854584
-647.345520 669.497253 259.910400
-626.939331 701.013367 255.368637
-580.960876 419.263000 429.435791
-656.521729 378.045807 427.787445
-602.608398 642.320984 297.871918
-730.985229 322.685059 453.138580
-668.140991 576.367798 327.896210
-909.119385 469.167511 273.507477
-668.634338 546.588135 346.444885
-913.001160 637.378174 244.614594
-706.412292 342.099884 432.410767
-863.153259 445.568695 332.585388
-597.995483 438.497437 429.797394
-741.024902 300.284943 456.338196
-619.750000 752.017212 218.335297
-918.283752 504.273651 249.579926
-758.828613 369.570953 411.004181
-785.653687 316.548706 438.747284
-748.440125 543.939270 309.085785
-681.642456 457.924713 380.051178
-627.581055 445.876160 397.821503
-799.702454 394.825653 363.373383
-816.184875 461.328156 348.804962
-598.211792 652.128357 294.829865
-666.464539 433.998596 406.859802
-606.850830 499.921478 362.519989
-628.301941 650.961365 279.694702
-525.337219 413.542389 458.960602
-698.564209 671.836792 252.098801
-887.799500 439.213531 304.919250
-645.446655 711.088562 227.328232
-786.204956 528.372498 299.433380
-871.562866 496.555389 310.521912
-659.753479 617.067139 286.869141
-718.390686 341.549316 425.450623
-667.327881 576.558533 329.370270
-615.346008 356.549866 428.861725
-604.372681 630.409729 299.000397
-644.668945 628.570557 295.790192
-627.150696 755.749573 217.436539
-618.172974 582.708130 323.474945
-828.716980 690.943604 209.645950
-880.507935 434.413055 272.024170
-811.543823 679.691467 214.556244
-765.708313 593.611511 281.446350
-858.893066 663.185425 204.860825
-612.546021 695.084229 255.461441
-813.104492 524.177368 307.448761
-600.200378 397.276123 441.579254
-742.773010 457.303986 348.441711
-933.857483 574.768738 273.953308
-728.083252 666.677917 249.336563
-611.302185 650.812744 291.627686
-770.639099 302.053589 450.412689
-820.487183 654.356445 223.410675
-817.957825 710.053894 197.865189
-827.809753 555.498047 263.470032
-682.630615 578.770508 308.743164
-654.579956 614.317322 296.259216
-605.515442 360.924957 473.364075
-806.798096 485.522400 312.984009
-917.427307 490.463989 247.023224
-749.390198 520.106079 323.536163
-892.250427 579.780579 252.299789
-702.078186 651.791870 238.352188
-786.765564 555.995667 301.188080
-532.032043 430.359680 457.918793
-883.007202 402.283447 325.364136
-790.385620 541.953247 303.716339
-674.420654 469.607025 385.799652
-767.452454 701.301819 217.474762
-837.753174 569.580811 274.601013
-909.312378 496.621918 225.846725
-593.238342 627.042603 310.153473
-639.909485 472.650726 380.592316
-669.971130 680.374329 263.002014
-849.656128 351.573517 438.593201
-660.582642 680.986267 235.493759
-621.490784 505.747498 377.775513
-758.324768 703.988647 199.839706
-768.936157 450.688477 353.105774
-817.116760 449.218689 333.780945
-758.843262 690.691650 233.436905
-584.180786 624.910156 299.962402
-757.073303 690.500977 225.110916
-732.990295 287.090454 454.262756
-736.058533 422.247070 376.622223
-865.713562 685.430054 210.063980
-660.496216 686.766418 248.567993
-779.009888 412.134338 381.760529
-929.394958 691.701904 223.055206
-881.152527 391.960846 342.985565
-601.252502 538.270081 368.438843
-711.215210 367.184540 418.978027
-898.686951 447.502289 260.386688
-656.838135 401.888641 421.932037
-544.180542 432.270813 449.696136
-801.423035 365.823730 401.741486
-875.473267 486.033813 331.873993
-535.005859 426.571167 438.049225
-707.346375 732.716370 216.338043
-763.677917 539.048645 319.204987
-606.148682 572.155273 338.838348
-734.093811 560.829712 312.455811
-881.028748 396.289490 272.244690
-765.840942 361.243622 397.991089
-597.007324 658.321045 287.885681
-896.083984 508.519989 267.851318
-624.319519 431.756012 412.035217
-526.008423 417.183624 451.462952
-645.168701 398.402435 420.687622
-639.165588 662.878845 279.932495
-736.851990 546.006104 288.565155
-741.614685 414.663361 393.036072
-799.369873 483.173340 323.711609
-948.822449 616.247742 273.504272
-830.095154 613.121765 256.038147
-823.924072 590.094910 268.082733
-682.824524 715.829285 227.039337
-666.062683 559.413818 326.050354
-725.600647 349.234955 427.403931
-879.611084 413.422150 246.981277
-669.502380 341.487488 459.808380
-600.840698 491.063812 379.958588
-619.501221 707.058105 246.284897
-820.678223 557.779297 273.223907
-620.809204 700.401123 245.672836
-726.196167 718.465576 211.938324
-728.214966 389.084961 387.478882
-626.694153 634.994873 284.968109
-743.886169 632.956604 266.304901
-658.742676 619.378540 305.691406
-708.546631 731.955627 219.578812
-636.991760 746.095093 236.022385
-816.741455 666.057068 220.180176
-701.140686 358.645111 413.713470
-834.271912 417.824280 364.412567
-711.046509 531.073425 342.130646
-729.368042 285.286469 457.013855
-899.124390 457.450897 241.757385
-873.675964 498.241211 308.247650
-678.367004 548.878235 328.017761
-690.108276 495.951996 354.349060
-730.032349 603.857788 271.914001
-594.056030 465.060577 417.965546
-669.220032 387.291779 417.212799
-639.065308 415.544098 412.060913
-934.532471 571.669556 253.905609
-864.786804 384.106934 299.045959
-901.364197 462.462921 242.545456
-702.183411 704.689514 227.653992
-777.167236 475.207489 348.204651
-698.802612 650.167419 270.065399
-794.754395 514.114746 303.607178
-898.478882 437.692902 268.634186
-770.832031 306.809540 448.703674
-685.449524 439.715637 396.932800
-665.590942 426.259155 397.218018
-753.106873 323.181396 429.728210
-610.116089 412.703278 430.816406
-638.968079 743.029785 220.384979
-624.205322 717.859009 246.328430
-714.123291 412.886871 393.359589
-915.959900 525.015869 282.013123
-675.116394 619.148865 259.065521
-684.789246 620.135559 295.280548
-757.009949 664.036316 234.991776
-853.107117 562.836060 259.810028
-599.716980 607.037781 312.845306
-887.262817 418.158020 275.735382
-638.364868 730.534973 241.693634
-856.316345 451.654510 345.209290
-670.935547 303.732147 465.874115
-827.947021 461.550781 336.446228
-911.123840 618.961975 253.917755
-578.680725 554.167053 357.632355
-639.623901 581.741089 324.030823
-901.598938 482.671295 249.865509
-585.056458 610.420715 329.110107
-670.012512 411.205414 399.340851
-795.514954 455.629974 350.143280
-772.286438 374.357239 382.962830
-698.979187 670.707642 260.138031
-742.697083 609.480774 275.827118
-639.133850 679.049988 272.905060
-904.397461 488.785309 275.813690
-614.719543 690.118713 265.814758
-727.173828 657.018921 263.173798
-858.447571 433.052582 366.590942
-942.753601 587.972961 269.025757
-868.390869 513.977051 302.242981
-775.504028 718.128296 185.707245
-571.454712 531.102356 365.702820
-642.641296 339.748932 466.450592
-601.211243 385.425507 456.833801
-677.084106 491.504883 357.905762
-903.510437 618.778564 229.755325
-653.443298 475.942535 373.029144
-624.190247 488.713318 380.658447
-744.788269 602.513611 283.422241
-587.203979 400.526276 457.898468
-652.318604 358.545593 431.892395
-946.326599 615.313232 287.376770
-634.315369 373.903473 424.005676
-654.711853 509.134338 372.794525
-658.311035 437.833649 392.662598
-719.544983 656.098694 250.644577
-925.819702 530.354309 250.919876
-582.497131 611.860168 307.781647
-653.439819 704.004211 236.939224
-701.241699 589.575928 307.199799
-697.052002 675.878418 244.940552
-558.281494 487.962250 415.362000
-914.288696 533.065002 280.628937
-638.166260 676.219360 272.650330
-575.706238 422.823090 424.675812
-613.125244 553.144470 324.879852
-650.369324 746.221436 229.244843
-699.202881 530.751953 341.697052
-623.684814 366.390228 434.763275
-594.388672 457.555542 383.452728
-870.147339 436.259430 341.332092
-756.449524 419.335480 375.856750
-882.057129 426.204834 333.810364
-662.833679 659.426941 264.510101
-814.716553 696.657410 205.893097
-715.122192 613.524292 291.720886
-664.529114 324.449463 460.763947
-640.953613 431.425720 421.697510
-809.100647 432.196381 358.041931
-746.377625 448.991608 354.069153
-652.848694 662.340393 271.745392
-570.740906 366.655792 483.666931
-678.647583 380.292419 399.329559
-753.311279 498.878235 323.525482
-668.237183 531.025146 342.906250
-793.594666 622.765076 250.984558
-737.810669 656.853577 242.946426
-891.760620 509.194885 275.446564
-931.424927 647.711121 230.910965
-594.838379 526.866211 367.931488
-736.078369 486.051300 355.107635
-770.982971 681.059875 229.408310
-618.163818 384.583832 446.979767
-764.485291 588.366821 277.120728
-793.568970 604.213806 267.674377
-639.827698 681.936035 263.572754
-832.099792 517.256226 279.949829
-653.896790 644.265381 251.710159
-611.683228 686.789429 258.405731
-757.727539 563.305359 291.496613
-905.033997 514.200745 270.417786
-594.915283 566.436462 344.618225
-746.397644 470.229889 352.430725
-653.329102 436.056519 396.298523
-834.667542 575.958191 247.322525
-860.469666 495.055237 328.284210
-760.795776 356.153503 402.280212
-599.239990 376.246674 465.708160
-751.206238 720.454529 213.329819
-753.110352 569.698669 291.893921
-766.983704 696.681824 216.069763
-659.133118 529.276978 324.745117
-758.917725 617.598633 253.889160
-678.411133 314.274139 468.457153
-758.599365 414.568542 375.353851
-676.349792 623.988464 280.143951
-696.701599 385.757965 424.702942
-748.345459 365.354736 407.334595
-702.016907 676.735657 223.808517
-754.563538 674.091980 235.681198
-881.366455 455.991577 278.079407
-900.693176 465.000824 263.476624
-616.943726 735.536316 236.549881
-729.927551 722.207520 208.803650
-602.817322 686.127258 282.473724
-704.517395 753.695374 212.390182
-582.529968 351.691772 484.427307
-803.208191 395.893921 381.676453
-915.303650 516.487732 265.244781
-721.665527 613.140808 256.334259
-547.482300 384.460388 454.009369
-887.791565 637.645203 210.990860
-652.133789 638.797607 297.136078
-545.052979 401.856384 448.787994
-845.079834 483.900116 321.908997
-772.876282 518.762695 321.782867
-626.055054 688.481079 253.279861
-583.742188 453.745544 411.846832
-699.676331 509.686676 343.837402
-570.286865 397.186310 459.298431
-654.130005 527.548218 356.006073
-792.557495 661.380554 222.045609
-627.988953 638.906494 282.181763
-546.778503 358.702972 481.284973
-609.054443 418.220428 439.062683
-634.984924 345.348633 453.986145
-643.726440 449.303741 392.218719
-652.139893 618.471436 292.122192
-654.589539 671.446045 269.887482
-741.503784 698.902954 231.169266
-601.466064 559.038269 360.841064
-771.627197 615.342712 269.445251
-607.394958 541.639343 366.620880
-665.650024 549.796692 322.832489
-724.796692 623.283325 261.419006
-699.896973 356.195251 447.341583
-771.321289 366.066345 394.481049
-633.843506 656.286438 284.075409
-591.224609 593.140137 329.181732
-892.085876 418.194305 284.781677
-595.342468 553.683655 329.508026
-718.043457 468.687073 352.205597
-836.988098 594.303101 239.632965
-782.858826 546.184021 294.366516
-886.819336 409.193451 320.359833
-764.154236 669.029663 229.637894
-547.004639 360.985229 492.095520
-642.868225 681.916443 273.379364
-738.442383 295.753052 454.587311
-684.765503 551.048035 324.427277
-834.272522 590.196411 263.970917
-908.999146 475.012207 252.461136
-768.015259 658.063232 245.953888
-659.544434 508.679169 369.636414
-642.815002 313.135620 465.807190
-666.333679 700.764526 250.868240
-705.956848 634.442322 276.978699
-610.737549 458.833984 371.825073
-719.541992 505.713837 340.707947
-528.445740 424.566040 422.091309
-555.958618 422.246368 444.252899
-650.858032 609.101196 304.512970
-896.106689 445.917603 255.577774
-688.391357 681.934998 225.897507
-769.609436 733.194641 198.738113
-544.291138 486.636475 423.052185
-849.046082 626.322998 226.275635
-612.237915 608.698975 321.158447
-591.700073 448.447235 406.803833
-731.505798 414.539673 397.949921
-731.632690 487.265259 342.180145
-802.852478 718.077271 207.205185
-881.898376 553.632019 292.100311
-745.853210 560.893250 297.417542
-623.440979 615.392700 309.853455
-777.932190 406.841675 369.824005
-639.851685 335.556305 462.009308
-756.658081 310.480713 449.680756
-529.376038 381.202332 502.905396
-596.585632 586.491394 346.615936
-587.290405 603.759888 293.081268
-691.953125 526.303467 333.579559
-736.903625 538.540161 309.583252
-677.619141 355.339233 456.543732
-908.086914 501.269623 262.898407
-613.242981 579.343018 326.927338
-606.794983 428.599457 415.230164
-593.310730 645.279114 297.937408
-864.640625 444.517181 348.013092
-689.261597 472.449310 356.144653
-741.524048 484.845795 354.134979
-659.360229 749.382324 210.056564
-659.779358 668.968323 256.206390
-758.166504 674.438660 211.098801
-742.746033 454.849670 355.819672
-575.666443 522.321838 368.786621
-783.976685 673.722961 226.347900
-843.799133 723.122925 194.585815
-832.931824 419.113525 351.726471
-868.669861 603.368408 237.908127
-620.840332 356.590210 448.094604
-830.110046 425.813721 356.822601
-698.171204 395.488586 393.305054
-839.210754 552.295105 288.084991
-758.807922 299.140717 443.170776
-652.534546 725.457458 222.708847
-914.745422 504.285370 251.462799
-606.105408 457.514954 373.121216
-870.759216 365.078888 383.356812
-657.602844 612.515747 308.092072
-791.016174 642.481262 234.317886
-638.253723 396.787079 431.464325
-668.616638 380.648834 413.248749
-644.967712 638.271851 283.216583
-878.611206 491.297638 311.614044
-843.335205 426.615875 371.319305
-739.555603 402.131470 377.485107
-734.582947 587.336487 286.244354
-832.416748 553.322144 289.573578
-733.420959 502.556000 337.667236
-591.076294 555.412231 360.191925
-603.393372 515.113586 371.902771
-805.252014 622.541138 255.448883
-541.762878 482.071655 433.437531
-867.714417 363.470245 424.833008
-897.788269 430.888611 266.030304
-713.106445 400.145416 396.686401
-574.439148 548.842346 361.830078
-636.943115 598.356689 305.695801
-784.348755 502.943634 316.728210
-779.313416 555.518250 284.126068
-793.117615 428.309692 343.112549
-565.303162 397.533447 442.064270
-750.922180 504.428406 309.102722
-811.407898 263.545685 495.158905
-535.862854 428.736603 469.393372
-610.544250 474.334564 387.248199
