ply
format ascii 1.0
element vertex 1368
property float x
property float y
property float z
end_header
-629.170288 545.714355 -221.967453
-473.552643 774.326477 -207.380905
-620.839539 704.344666 -432.471100
-538.033264 834.455444 -386.925690
-546.983887 647.046204 -162.063446
-463.910461 869.759094 -264.420135
-632.665283 534.816772 -221.933670
-588.651428 873.271545 -451.037109
-661.373901 524.062195 -294.210602
-570.288269 849.967957 -447.618927
-382.636353 954.666199 -170.628799
-677.497192 562.784363 -365.384033
-575.273499 847.871155 -451.960541
-449.375885 812.551270 -222.230713
-614.554565 523.819336 -111.251892
-477.464783 849.944275 -284.772491
-630.931824 600.359802 -260.157654
-608.521729 633.841919 -265.212341
-652.599731 509.485382 -268.309052
-677.237671 513.524963 -256.677826
-553.842590 609.007996 -127.716286
-427.821625 899.976624 -233.673431
-513.450256 844.931396 -391.452454
-555.134033 704.585815 -236.143967
-565.243042 648.319946 -212.587082
-619.030212 706.729614 -439.066010
-607.990540 652.589966 -336.571960
-415.388489 913.244751 -281.198029
-534.342590 674.858459 -129.048660
-416.538269 891.456421 -139.232361
-602.494141 604.995850 -264.900513
-653.561340 554.347107 -260.021912
-449.634399 884.849182 -331.200165
-446.780304 922.450195 -344.683533
-615.029907 545.290955 -192.258072
-493.976624 754.870056 -147.276703
-649.413147 585.627014 -347.202179
-512.025085 815.120605 -294.200409
-627.232788 736.098999 -412.692078
-668.146362 548.937256 -342.858673
-562.389587 796.157349 -463.579315
-576.992126 624.052673 -207.171249
-484.997833 757.565674 -146.280609
-671.019409 501.345886 -316.874573
-540.075989 822.194214 -393.424957
-583.279053 690.893433 -316.097107
-542.362305 733.759033 -282.913361
-612.834412 642.545715 -280.433563
-630.417419 519.613220 -197.114899
-548.159363 714.602600 -263.484161
-547.081970 673.586304 -154.487061
-674.951721 532.641113 -295.195374
-634.669983 583.373047 -349.070953
-489.655426 777.931030 -159.182419
-558.629944 589.511108 -119.747360
-458.854401 895.318115 -305.250244
-528.545593 664.777588 -121.474258
-601.534546 633.770813 -291.596924
-617.104309 581.820007 -251.592392
-525.639587 745.785278 -305.917419
-437.010345 870.005981 -176.965897
-613.822021 733.081543 -397.392853
-520.417114 792.593079 -283.456573
-668.739929 600.267761 -384.208313
-444.831604 893.867371 -268.433777
-494.073547 727.182251 -124.423790
-595.272949 580.001221 -154.203781
-463.573975 852.731628 -216.746094
-599.375916 687.913696 -329.329071
-663.812012 584.341919 -343.084930
-430.586334 864.198425 -144.644531
-599.770264 739.870239 -383.467896
-542.988464 710.138855 -195.355347
-621.153198 669.872070 -374.264221
-527.978516 709.303711 -159.276733
-515.531982 771.765869 -258.456360
-534.415405 662.080200 -98.722267
-617.916382 568.583923 -175.521439
-509.391815 742.839966 -189.432175
-680.491943 527.876465 -352.292542
-562.562012 769.337952 -450.785797
-526.736267 681.712952 -159.467728
-630.582092 597.336121 -317.256409
-595.632446 538.105408 -84.535645
-565.358398 643.722595 -193.981613
-689.446167 495.328125 -338.569733
-459.972351 929.662292 -344.858948
-523.395386 795.147583 -324.308746
-545.444031 690.371643 -209.913452
-584.534729 520.534302 -132.088608
-588.836121 694.833862 -329.720093
-486.350006 754.470886 -122.739388
-420.857361 913.162048 -197.348846
-572.212646 732.262207 -369.060730
-621.846802 552.774414 -244.867371
-637.099915 599.745483 -363.867737
-480.724091 731.263916 -157.439148
-610.599915 731.339844 -439.155365
-528.515564 816.888733 -349.830872
-615.377930 602.283936 -233.988693
-497.766357 801.478516 -277.063568
-524.055054 803.406860 -337.441467
-520.774231 856.659058 -403.701477
-446.480835 921.593933 -295.213715
-601.910400 677.170105 -318.674805
-554.818237 693.948547 -252.950928
-568.876770 848.588928 -461.853302
-571.825378 612.234558 -157.142609
-512.201233 853.233765 -373.503082
-633.110352 509.646484 -114.174873
-585.211060 582.988464 -160.789017
-485.848907 842.101685 -262.960175
-674.073120 507.517029 -225.015335
-509.061829 903.346863 -427.913544
-642.095764 683.735107 -409.834625
-544.433716 633.774658 -103.307190
-471.723053 837.027649 -249.173737
-485.446259 802.855591 -189.714661
-618.631287 608.727539 -258.090424
-471.357269 836.238464 -218.973679
-613.496704 646.732971 -356.843353
-658.777039 594.840515 -346.931488
-585.541748 870.914429 -455.976013
-473.668213 805.325439 -182.344147
-582.395874 733.567322 -448.921844
-461.840332 886.742126 -282.318329
-441.630371 912.535583 -261.081665
-464.780701 862.929932 -281.704132
-523.956848 823.618774 -351.043732
-608.172852 741.300232 -408.740814
-633.346130 669.674683 -392.162933
-548.831604 708.038940 -307.395874
-572.522583 863.331665 -445.922363
-597.747253 751.194336 -454.540131
-664.835754 578.190552 -346.151642
-558.437622 667.831482 -476.800537
-473.574707 903.839233 -343.481476
-414.530426 928.591187 -274.665588
-624.310730 571.367981 -229.615021
-526.519836 699.891296 -169.747574
-557.386475 699.853088 -269.390594
-639.128174 699.061584 -400.945160
-458.131104 814.604980 -192.464935
-584.860779 516.084412 -122.731361
-466.300079 881.196472 -363.506622
-473.249512 796.646606 -152.066254
-673.450134 532.544861 -289.419952
-584.130493 820.176880 -430.679596
-617.676941 682.233582 -453.415588
-595.147339 614.043579 -197.766479
-564.472717 655.690002 -221.163010
-507.142761 732.509583 -198.697693
-584.650879 632.687744 -266.992340
-533.661743 736.521790 -259.264526
-739.323669 564.209473 -386.895599
-563.311157 730.148071 -296.898651
-609.066284 658.239441 -353.407471
-656.413818 558.195557 -276.635468
-585.230835 553.327148 -120.362961
-550.131836 657.719360 -174.739426
-545.893372 768.810852 -349.734100
-521.027649 692.805542 -116.805817
-599.569336 557.282410 -132.186646
-602.739746 584.048828 -191.432877
-492.797516 904.318420 -412.293060
-520.050659 712.851868 -161.385040
-420.912964 919.750793 -269.686493
-502.992889 822.481262 -284.041504
-439.548615 897.148560 -230.979401
-528.143921 744.802979 -259.311371
-541.777283 744.516479 -259.452148
-583.479492 555.075745 -114.173637
-435.688538 844.297913 -178.568283
-529.168457 751.139526 -267.131256
-441.331909 904.721191 -331.599945
-648.531006 571.893494 -327.297852
-610.203674 686.300720 -398.476166
-530.950562 777.434998 -480.285980
-510.053864 916.015686 -430.901886
-603.747192 508.254791 -142.864655
-425.657928 959.208374 -285.157196
-670.839600 527.710571 -323.601990
-509.623077 697.162476 -133.051666
-480.688416 912.559082 -378.579010
-438.260620 883.165222 -268.284088
-457.293182 791.465515 -154.856339
-429.090302 838.157715 -136.310394
-558.952087 769.374390 -472.366943
-562.608948 766.991211 -359.160217
-481.064178 820.791016 -248.233917
-488.432037 768.444336 -184.663818
-613.924377 698.866882 -450.192413
-526.339661 726.148926 -209.577621
-559.741272 718.452271 -479.088379
-456.920715 903.063599 -340.749603
-578.324646 648.907959 -272.004547
-508.572235 834.433289 -313.355621
-566.754883 651.426147 -218.683151
-691.152588 642.638672 -420.137939
-462.148254 793.702576 -161.952454
-545.373413 722.031982 -226.940369
-628.475769 609.849854 -283.847076
-475.313904 912.218811 -337.847382
-582.025024 547.810364 -106.057076
-626.767761 576.924011 -224.515198
-599.042664 515.737305 -98.075089
-645.911438 638.037598 -386.388397
-591.144226 774.775818 -405.256683
-589.715210 708.566040 -369.068481
-613.656982 578.387512 -270.111908
-471.066010 879.434570 -308.848541
-586.353088 598.639587 -216.428680
-637.172485 602.909119 -283.053253
-587.880188 617.616638 -207.297455
-483.403046 786.028503 -182.135818
-493.250580 891.878479 -353.965485
-702.009583 514.984802 -320.450348
-575.060852 599.600220 -160.297653
-657.752869 678.042847 -414.355927
-496.990448 789.706848 -247.390335
-443.090393 879.917175 -287.334625
-629.463196 561.230103 -283.161255
-511.786865 689.665466 -117.683952
-497.868744 864.425964 -389.396576
-555.156799 774.413635 -351.991150
-523.394348 699.291504 -177.541397
-504.564819 863.862915 -362.543335
-596.771423 557.840271 -100.370605
-577.001404 563.578247 -106.519539
-659.856689 543.572388 -317.889465
-540.611816 701.569275 -228.819107
-551.261353 617.194275 -146.793701
-520.677612 634.870361 -118.343315
-457.352142 957.901733 -374.730774
-630.924438 541.573914 -226.117386
-583.939087 547.903381 -93.145683
-393.673584 920.514526 -176.561020
-473.981293 918.523743 -346.924408
-515.759644 819.503845 -312.674835
-494.366547 773.864075 -199.273941
-559.825562 752.617615 -455.764618
-439.345551 820.101440 -186.725052
-676.917419 530.116577 -274.147461
-560.546875 644.228210 -134.039505
-608.722473 494.543854 -121.294319
-582.012512 669.569275 -294.400299
-565.124939 816.202881 -402.542145
-448.498138 947.890747 -324.614807
-598.726135 691.497192 -372.138855
-463.976624 877.117065 -347.428680
-540.128174 804.590210 -366.501678
-581.130371 849.249878 -437.164581
-425.861298 895.656128 -281.553619
-581.109619 612.258179 -213.843826
-413.183746 921.953125 -224.281845
-612.188293 719.469971 -435.817810
-421.373749 908.887207 -289.882111
-484.273041 758.491577 -162.008469
-579.114929 701.260010 -339.889740
-435.658417 860.860046 -182.385406
-549.553650 804.683105 -474.479828
-636.202087 521.983032 -218.871902
-532.639771 688.839355 -229.828552
-612.278442 668.704895 -334.262177
-494.185394 725.648804 -114.788979
-566.663086 587.428406 -113.104004
-555.640564 717.473022 -242.235291
-444.578796 856.636902 -209.383682
-596.746887 597.132629 -182.692581
-626.221436 706.683411 -419.430115
-468.356201 877.606812 -260.736389
-477.905670 848.442932 -250.902420
-527.234192 667.809875 -142.740875
-483.109619 860.230042 -325.889130
-610.404541 574.465149 -254.290955
-545.961426 805.419678 -473.654785
-626.693481 633.241882 -341.889069
-584.267639 529.250977 -122.099541
-529.895264 789.784058 -378.702148
-491.610168 870.562622 -311.009949
-502.040985 833.882690 -354.632172
-628.123657 515.086304 -101.010277
-566.817871 742.105408 -468.881531
-494.199585 853.768250 -329.755341
-530.118958 749.103210 -280.493164
-572.580750 935.720459 -449.912964
-678.038757 565.758057 -370.703308
-418.213867 910.613220 -189.972122
-674.396667 669.122314 -406.082092
-568.108643 610.207458 -109.124527
-481.017822 919.907532 -375.264313
-490.485718 952.306519 -413.256378
-381.895569 915.878174 -166.427368
-693.538635 546.962341 -373.990601
-657.455383 671.861877 -396.622620
-477.625580 775.213196 -178.910461
-535.964294 708.467957 -182.735336
-481.886078 812.137451 -252.781876
-645.731079 600.946106 -327.810913
-541.139343 738.425964 -275.919769
-507.620270 815.598694 -269.837616
-585.535278 607.222778 -204.010391
-571.613647 663.627625 -255.411377
-604.717468 566.635254 -186.655304
-611.877625 674.223145 -353.436737
-456.120056 878.611755 -242.606018
-521.003967 769.196411 -239.317307
-507.666809 895.368958 -420.586639
-668.340149 554.640137 -339.623535
-402.314301 928.055115 -238.068817
-531.138489 806.072327 -371.635925
-597.386108 707.015320 -367.701782
-472.486115 779.440613 -165.409622
-595.333862 598.969421 -217.383652
-634.238647 605.267517 -295.543121
-466.909363 806.097473 -168.051041
-685.830811 517.793335 -276.682922
-507.139191 849.510132 -322.039459
-614.830688 515.640381 -178.676773
-538.402039 775.777832 -305.977692
-587.788818 624.813416 -182.474564
-492.608521 767.040039 -193.785889
-523.742615 797.431152 -303.207855
-519.609985 795.239563 -284.893677
-613.206177 605.785278 -276.391937
-568.047058 772.333740 -467.590424
-428.083252 919.133057 -239.136749
-646.227295 635.158203 -360.720032
-505.580505 780.176453 -256.581329
-597.214050 573.314331 -215.491928
-392.737244 933.275635 -184.920654
-408.761078 904.505188 -158.361923
-675.964111 565.276123 -344.533875
-628.451721 561.113892 -203.608780
-613.181213 731.540771 -406.871857
-396.202728 939.218384 -150.947769
-626.491516 640.088135 -435.845367
-468.259064 873.217285 -258.991180
-542.598816 719.922668 -226.382538
-608.968689 505.039703 -101.125870
-608.031921 851.736145 -442.855408
-440.458954 893.419800 -218.311661
-599.797180 568.471436 -135.242126
-631.377441 614.410034 -308.037659
-549.969543 669.662476 -212.189331
-600.964355 580.378418 -198.562286
-604.235046 567.101318 -156.811996
-469.493378 810.234497 -206.816650
-651.502197 494.650818 -137.485016
-512.863281 824.542297 -337.851563
-524.724426 787.483582 -276.186737
-588.186951 685.640137 -466.706116
-534.894287 762.966919 -296.815033
-583.382996 683.483215 -272.922119
-578.971313 716.490417 -359.872437
-536.208862 754.222656 -476.112091
-559.989746 584.681763 -105.403130
-612.311890 640.168152 -287.271271
-448.038177 874.630127 -246.200241
-427.607269 932.754822 -259.269531
-621.226440 708.838257 -439.100830
-604.697815 682.210388 -368.882965
-475.453125 798.692810 -166.672745
-395.384827 910.755310 -159.962677
-435.073364 884.368225 -202.439514
-463.376099 821.646790 -218.669601
-638.573364 535.945068 -183.878326
-461.413452 805.403015 -185.919296
-615.773132 502.364441 -135.856430
-595.466309 733.878113 -434.112488
-429.389587 876.162415 -161.371826
-587.385864 648.334106 -291.637665
-678.582397 555.865051 -336.483093
-516.239014 748.853760 -221.955948
-617.773010 651.087219 -366.926117
-596.769287 724.566162 -380.001526
-496.451508 721.504211 -114.100487
-512.673889 798.999329 -257.404083
-560.270569 732.920898 -476.299530
-460.339508 926.611694 -340.865997
-562.425903 858.058044 -420.707062
-554.451050 740.000671 -472.008423
-490.029633 804.907043 -209.841705
-396.876038 913.532349 -181.430786
-566.318115 710.478088 -290.621643
-605.134888 592.314819 -212.936310
-607.956360 527.599365 -152.348526
-498.590485 939.433167 -417.334625
-530.474548 793.708801 -336.082153
-454.637177 883.637390 -251.183716
-503.718567 783.760986 -214.084534
-559.089844 779.208130 -372.136414
-503.495300 790.783691 -258.742615
-447.160980 855.075317 -265.896698
-547.720337 686.002258 -209.152740
-531.141113 708.175415 -202.160629
-547.901245 641.974304 -153.432556
-582.786743 896.108398 -447.047058
-555.084839 814.187805 -384.827026
-543.509583 767.143799 -475.933655
-451.126862 919.141663 -287.867523
-459.121368 880.482971 -308.560516
-486.388428 718.207458 -142.876282
-576.477783 737.760803 -463.501221
-510.825623 686.873962 -117.802361
-450.807495 805.412109 -136.572098
-639.667603 553.982910 -308.916565
-523.558350 792.720337 -281.247681
-443.315796 873.421082 -253.853577
-597.784180 702.448486 -387.940125
-576.461426 814.726013 -435.231079
-510.382202 843.631714 -374.151733
-708.241089 614.029236 -405.068481
-481.879242 790.740173 -200.467865
-499.279541 853.652832 -312.657166
-504.998810 756.997620 -202.524597
-552.669128 709.013977 -270.035797
-634.422546 579.670898 -253.655594
-422.766846 862.479309 -135.584183
-622.010010 644.859924 -348.706055
-548.426758 762.230896 -339.639618
-393.307373 930.684875 -162.252304
-487.405060 870.056213 -301.973846
-613.344177 543.237305 -133.423294
-597.183411 524.748535 -117.396980
-568.030151 689.964783 -231.274170
-534.306702 791.167847 -321.934448
-486.482758 895.233032 -370.664978
-646.062683 673.390564 -390.348602
-483.236115 871.340759 -314.220764
-629.981873 514.425110 -136.907242
-455.366852 854.008789 -207.028809
-655.419922 620.555847 -430.154205
-427.842010 842.424805 -156.808060
-445.940063 849.351135 -169.701172
-560.494629 697.902893 -236.851059
-609.017822 544.904907 -161.137665
-574.138916 872.943726 -433.382874
-481.201599 806.714172 -241.411163
-414.663544 951.014526 -251.526138
-471.716705 794.807678 -237.522522
-510.062744 838.320435 -313.683075
-583.467346 677.976440 -320.885773
-644.301758 542.807739 -229.708710
-607.557251 639.048340 -453.761749
-459.828461 804.044189 -171.250778
-468.753387 837.639587 -306.219116
-655.944275 497.470947 -258.619232
-454.598389 838.713745 -182.794510
-463.354401 892.817139 -326.386444
-511.503021 830.070984 -342.337555
-519.883484 771.207153 -287.168884
-503.002350 876.380188 -389.232117
-435.292908 869.794495 -177.572708
-508.377655 704.276367 -147.204788
-530.486206 695.528748 -177.108841
-604.460571 745.901794 -397.695190
-660.745850 581.126465 -367.038696
-714.086853 616.147949 -398.780731
-509.411560 689.229187 -168.158157
-555.695740 783.453186 -468.477020
-502.463165 802.647583 -329.369049
-470.260712 914.674927 -382.302368
-613.558716 687.276978 -451.273773
-548.478943 662.846130 -188.498245
-618.085815 659.325989 -323.864014
-508.251038 867.358948 -391.306885
-639.935059 500.317108 -125.242867
-571.426514 657.308716 -199.653168
-477.561981 951.381409 -384.779144
-440.339386 854.475708 -166.614441
-601.007690 698.797729 -457.425598
-486.905701 774.685425 -178.475250
-630.635559 608.409363 -338.158020
-527.081116 824.054932 -393.561401
-558.484375 796.382324 -377.748169
-486.875092 891.368835 -332.373047
-625.228455 577.469666 -207.304642
-460.099915 903.857727 -280.606720
-439.825623 821.964355 -150.972763
-411.217194 904.543823 -178.106781
-544.766541 924.977417 -442.769470
-602.652466 590.789185 -172.144440
-430.096558 894.585388 -234.954620
-482.891327 830.495300 -235.626404
-580.757385 856.270081 -439.110870
-423.226593 864.625977 -143.878418
-416.514587 862.962341 -138.602310
-565.580627 701.906677 -462.417511
-566.253601 772.313110 -371.182312
-522.043457 746.625610 -244.147400
-502.229584 801.640686 -253.674362
-430.781494 887.248291 -196.830505
-611.585876 519.386475 -146.468414
-620.971252 516.800476 -107.546921
-582.796448 553.509338 -92.523193
-526.863953 712.986755 -206.335312
-477.101501 781.444336 -221.920868
-599.732605 592.272705 -197.840332
-578.521057 692.393799 -273.853363
-541.967957 702.269348 -234.000824
-608.982178 541.715881 -171.069809
-469.288300 805.895935 -178.702560
-628.567444 713.844299 -407.358124
-558.227905 678.749939 -289.677917
-699.091248 565.798401 -370.076202
-557.734985 805.057495 -467.545074
-602.258728 538.146301 -126.071495
-555.576538 684.161438 -247.394821
-604.940674 579.856262 -190.703262
-637.920410 526.845276 -168.336197
-541.320740 790.819580 -339.688904
-706.287781 612.203430 -410.454803
-541.196533 793.710205 -478.797760
-435.370239 838.659668 -187.276306
-635.339172 566.641846 -332.158936
-471.550049 769.224915 -149.374207
-458.600830 818.999329 -165.206741
-418.110901 942.613647 -234.992661
-627.235474 649.075134 -332.416229
-467.426025 863.721069 -237.856400
-496.989319 778.392700 -188.551315
-539.706909 762.594238 -271.098450
-459.373291 904.395081 -305.181427
-563.680115 679.244202 -238.342224
-510.843079 784.140808 -228.639313
-417.487366 860.323486 -136.915253
-642.595703 541.494812 -196.389999
-568.520935 741.619263 -376.653809
-494.053986 855.731628 -301.191833
-595.016418 737.198547 -398.622650
-409.852570 896.471619 -174.950256
-408.538574 895.679199 -165.172592
-648.411255 657.023682 -437.830963
-568.564270 581.863281 -106.006447
-480.387970 750.662781 -152.347519
-562.653870 772.542664 -471.568481
-640.353821 710.670837 -423.268188
-535.992432 664.235596 -158.382019
-515.132080 691.498779 -147.806168
-613.984131 740.448730 -409.576447
-595.161011 614.906494 -189.989746
-545.430603 729.926025 -243.106140
-518.014160 753.426514 -236.360794
-573.040833 588.215698 -87.387642
-638.091980 560.979858 -271.513031
-644.126465 667.044739 -434.649353
-588.615295 707.689270 -327.758057
-428.125275 888.842834 -241.166397
-449.025146 860.740051 -226.913361
-512.292419 679.163269 -161.995117
-540.230408 765.525085 -292.496216
-513.257935 762.791077 -206.232452
-650.749329 505.119324 -224.289764
-482.474335 920.532471 -394.268066
-569.895935 805.466736 -415.597809
-563.144165 590.714722 -115.694458
-427.683655 909.750671 -226.080063
-486.464600 853.049866 -271.790222
-538.077148 708.653931 -185.920654
-562.627441 680.111755 -473.516754
-577.133850 788.086487 -397.099152
-645.250793 558.733154 -286.645111
-537.131958 699.636780 -206.652618
-483.330078 892.412109 -367.858093
-620.136047 627.164246 -335.647827
-485.445801 808.201172 -215.911255
-554.391663 754.919189 -480.286346
-502.038696 828.808411 -342.429901
-546.411011 717.726685 -265.288788
-628.594910 592.085632 -280.679565
-452.198517 836.533813 -173.961929
-549.292603 672.503662 -199.710281
-432.454407 899.185547 -222.495728
-584.549805 592.737915 -131.405869
-553.321533 783.117798 -359.239075
-495.997803 726.713867 -147.309250
-454.957550 913.210632 -336.896637
-573.401733 665.949524 -252.910721
-667.858093 632.147278 -391.203278
-419.879150 833.138855 -167.354675
-485.800842 829.567200 -258.628143
-594.518127 838.916565 -438.273132
-443.715973 829.346008 -171.122009
-514.750122 749.375366 -226.965836
-510.504333 883.048157 -397.711182
-451.425415 953.387329 -337.990845
-594.443787 684.360107 -359.058380
-541.679138 687.935242 -194.045166
-600.005676 682.637573 -464.203918
-616.140442 523.619507 -145.436569
-492.772797 824.168823 -251.794846
-627.046265 578.029602 -212.829712
-444.007019 887.132324 -223.072433
-615.315552 505.216705 -123.257179
-572.623718 694.647766 -267.885132
-542.519470 759.144348 -289.639862
-472.797974 887.646240 -302.149597
-522.498291 813.432251 -308.843872
-585.166626 860.412720 -457.291107
-654.733459 563.853516 -339.968048
-590.645935 587.979614 -139.702744
-547.840210 647.580383 -118.036354
-487.414307 803.708374 -244.575241
-543.086609 730.525146 -228.775864
-430.045349 913.367310 -229.124985
-511.498138 939.679565 -439.091309
-521.558350 701.200745 -174.508499
-457.045013 805.500244 -130.164902
-568.091431 646.961182 -173.248352
-437.576508 910.642029 -252.208145
-589.842773 619.637939 -183.811356
-487.592957 797.066956 -227.403854
-467.558807 735.157837 -154.124512
-493.923187 736.471924 -120.511627
-451.779327 932.446045 -314.842377
-428.987152 819.741211 -136.904221
-436.905640 912.214966 -244.506531
-623.747925 670.534912 -380.372253
-518.761230 822.596497 -339.821320
-575.878052 658.405518 -279.499390
-574.228760 586.982300 -138.008469
-564.455017 704.989563 -316.539825
-594.931885 655.311279 -256.421448
-545.552063 741.777527 -303.686035
-693.340820 507.936981 -308.403595
-526.178894 797.882019 -331.223816
-513.482422 764.402527 -259.345215
-508.537109 666.804749 -108.836731
-655.491638 506.999725 -175.834183
-665.693787 572.270935 -365.255371
-560.257813 793.303772 -465.164001
-535.220764 777.169189 -304.085938
-625.401123 642.235413 -335.460602
-539.941223 744.314575 -269.880341
-473.065308 858.092224 -271.770691
-562.913025 740.824280 -474.679626
-602.412354 671.752014 -465.758087
-576.584717 667.170471 -219.125763
-527.924194 616.157898 -99.082825
-592.179077 689.064758 -360.030701
-511.619354 823.599609 -332.455475
-418.225952 881.964966 -183.699753
-479.043335 799.224365 -196.473679
-476.676514 912.865601 -364.534424
-604.397644 672.150574 -319.021759
-533.708069 660.032104 -146.060760
-634.289124 499.580963 -184.420944
-652.822815 497.770111 -235.323593
-646.394958 558.168518 -269.037720
-549.935486 734.513672 -288.833038
-590.738892 749.806152 -448.689148
-554.815979 647.807068 -150.570709
-438.902527 859.545654 -199.108932
-521.621765 793.708069 -288.481323
-570.274414 787.909241 -403.261810
-498.188721 768.317322 -177.102127
-648.091736 619.473328 -365.443237
-635.127380 601.062622 -339.223267
-469.401367 814.620789 -193.483719
-546.902893 616.157898 -101.659721
-685.348267 512.982178 -282.503937
-570.267761 617.777832 -130.396820
-507.344055 720.661804 -160.629639
-509.156494 768.743103 -244.949341
-401.307770 881.584961 -176.406143
-596.317993 538.582275 -93.779282
-539.246216 772.768311 -377.767059
-598.060425 592.316345 -192.866592
-598.476135 662.886902 -466.955811
-509.098450 758.315308 -237.468872
-638.081116 645.945007 -373.925934
-484.654419 814.341309 -224.657181
-487.968109 765.585205 -142.705795
-626.814697 613.156128 -332.303711
-650.620850 511.425873 -197.823364
-624.009216 510.517120 -135.494888
-558.561218 683.195862 -236.510208
-636.958496 569.080444 -287.596710
-691.222473 517.053650 -319.932617
-569.185730 753.363037 -346.789917
-416.150787 860.169128 -166.515640
-531.933411 717.389587 -178.477768
-563.500793 700.362427 -294.247833
-657.354614 517.521973 -225.080109
-502.613678 822.019165 -278.217834
-533.225952 778.585327 -316.390503
-415.338226 891.013794 -186.443863
-613.666809 531.636047 -155.320145
-561.005249 606.157898 -127.843903
-476.224365 917.658325 -374.230621
-538.784851 735.324524 -323.198883
-584.932434 587.843323 -222.275177
-500.904510 746.154053 -133.750992
-597.869629 689.783752 -377.505371
-493.382935 808.776978 -228.871277
-493.710907 902.100098 -374.725677
-435.007233 882.366577 -192.058929
-490.375763 853.915405 -324.993896
-543.266174 622.979492 -118.163719
-660.528503 518.934143 -211.403915
-557.517883 717.842773 -258.532715
-414.770142 898.470093 -175.089172
-621.366150 639.876770 -305.325500
-558.557556 820.936157 -469.446442
-444.770203 865.505188 -275.074005
-556.039917 925.289612 -450.918060
-568.255737 925.751526 -450.107330
-489.139893 789.984619 -225.375198
-426.879242 908.305359 -227.412537
-645.038452 512.304016 -152.360672
-597.633728 694.552246 -341.596039
-547.598022 771.919189 -482.523987
-527.939087 834.613464 -403.484680
-468.082336 787.513977 -153.951996
-471.400177 893.807800 -293.939270
-584.157043 603.955383 -190.918640
-586.701599 759.296570 -389.130432
-632.578857 506.255371 -242.201401
-638.644592 499.156555 -147.731339
-653.382996 643.687622 -427.741791
-656.427063 665.541382 -411.555511
-565.932007 788.295166 -464.841492
-572.966064 863.515320 -434.241821
-661.989807 521.211426 -234.837418
-431.023254 913.646240 -274.805023
-533.346741 794.211609 -347.474915
-454.821106 855.901123 -255.782272
-541.333862 631.933960 -104.022514
-648.117737 517.546570 -188.139587
-517.095703 756.119019 -236.343170
-449.442139 908.713440 -300.761658
-571.253357 722.969299 -347.442108
-502.111389 785.926208 -305.674774
-475.759460 756.629639 -131.925491
-720.096985 511.682281 -347.395508
-539.539307 852.333923 -410.780212
-612.472961 523.692810 -96.181519
-620.524780 670.888062 -386.548920
-560.936035 656.115845 -224.619293
-670.754211 519.243713 -266.448944
-612.351013 694.816650 -448.000122
-613.136169 704.353027 -394.137695
-622.371521 569.882874 -242.172287
-386.420197 921.311035 -153.011826
-602.236572 603.036560 -186.654266
-601.842468 553.639832 -87.594437
-536.777222 760.752502 -260.481689
-469.165222 907.665833 -326.067627
-484.364563 832.205383 -327.633087
-495.632599 847.306580 -300.763916
-569.756287 627.946228 -186.611221
-449.515472 918.022949 -282.537628
-533.047424 830.790588 -391.726563
-517.342896 858.174316 -365.265076
-447.149323 861.670837 -221.824997
-638.398315 607.203003 -298.674194
-572.159790 619.619812 -186.677551
-599.709595 556.384949 -112.030319
-492.639221 837.853333 -264.668274
-427.259979 888.947510 -210.170654
-607.997681 640.425293 -263.527679
-561.207275 592.228882 -118.706535
-563.015503 626.122314 -122.230804
-619.868530 740.375122 -416.046478
-440.339630 822.117737 -130.886612
-512.080627 729.407043 -188.837799
-490.821503 811.478210 -266.713043
-603.030701 609.337891 -236.451187
-508.124420 725.691650 -140.129410
-545.147644 744.502319 -270.980316
-634.580933 562.787354 -243.576080
-664.175049 543.330566 -303.658569
-597.352905 720.140991 -362.885651
-509.142609 807.074158 -278.537109
-436.468231 869.384766 -167.333023
-534.018738 661.561035 -177.239090
-666.181824 520.349854 -312.994568
-584.320984 591.995117 -201.281784
-487.240906 863.297241 -293.417297
-521.082397 845.228882 -371.510712
-541.895325 753.962463 -277.944733
-628.280334 702.556641 -401.354980
-481.986237 808.574707 -287.278229
-494.321228 824.955688 -262.956360
-552.307861 764.250732 -475.335022
-455.233124 868.005859 -220.399582
-571.820618 891.368713 -445.343536
-454.106201 828.135864 -155.125702
-544.462158 669.906677 -125.557678
-575.512878 599.860962 -161.022476
-494.239410 881.456726 -365.587769
-552.973022 732.281250 -269.768555
-675.276978 565.517334 -342.619080
-580.142395 649.659607 -209.751450
-512.686279 884.474426 -402.983795
-454.033569 887.287354 -257.146454
-601.092712 618.563110 -253.310318
-542.495728 762.552979 -471.438293
-578.555359 735.511780 -461.102631
-520.529419 757.821472 -266.044647
-429.353394 851.844971 -139.846085
-459.772736 837.815552 -202.047165
-584.215454 674.383545 -267.255127
-621.451233 684.105774 -424.438965
-554.069458 607.187988 -113.874504
-602.715820 748.158569 -427.087158
-501.017975 703.858582 -118.552711
-510.177094 772.233154 -212.805130
-461.678162 916.870361 -359.509735
-523.830994 707.659119 -149.414063
-433.650269 941.750671 -304.566193
-664.243896 514.071655 -278.294373
-528.810669 668.876770 -103.030869
-472.348938 870.200562 -265.046082
-599.326111 553.268372 -147.006378
-569.168640 765.227783 -368.911835
-558.313599 763.772217 -342.742737
-442.964935 810.039795 -138.705017
-415.830780 899.616516 -179.287369
-595.013428 602.966064 -220.578918
-564.792419 837.384705 -466.160461
-667.462097 554.049316 -311.045105
-589.212952 593.153564 -184.279678
-421.574646 879.523315 -137.673492
-598.795227 568.353027 -181.606888
-694.865112 646.680725 -413.814697
-415.266907 929.363098 -217.783020
-497.221619 870.554260 -356.733795
-612.544861 576.256531 -181.839691
-470.314972 783.357666 -149.752335
-658.655701 524.583313 -259.177795
-605.955627 719.939575 -437.762604
-386.589752 923.583923 -163.282822
-537.359192 788.620911 -346.162415
-446.864807 890.730286 -243.630341
-665.198914 520.409180 -285.893921
-462.134888 934.471497 -340.058228
-523.312561 721.361084 -198.021729
-590.308716 614.781921 -256.806549
-595.921448 651.351379 -288.854950
-588.178406 698.794678 -346.110229
-675.161804 522.384460 -306.380920
-521.850586 641.806946 -136.224915
-472.322052 939.174927 -358.680756
-571.648621 665.027832 -276.864990
-662.437134 675.611938 -406.006104
-390.865570 898.914368 -153.828583
-618.472900 531.353027 -126.937897
-413.280792 933.341370 -217.004944
-515.935974 736.028503 -162.274719
-657.971497 537.826355 -260.095612
-477.913483 763.581055 -143.816132
-607.694580 694.266174 -400.799377
-427.008362 917.503601 -259.976318
-476.332336 849.208984 -333.256348
-506.136749 733.444397 -187.786667
-558.404419 778.622681 -462.216248
-518.396973 838.025513 -336.356720
-592.570984 691.341187 -447.355103
-579.695862 615.576355 -196.239761
-465.703857 930.790039 -358.793335
-621.826111 707.992981 -421.606720
-637.622192 671.099060 -425.127502
-527.685364 800.539490 -318.789124
-519.106689 799.769165 -291.706451
-509.587463 823.073669 -326.768250
-571.434387 678.951538 -286.658783
-566.070618 901.102112 -444.373688
-409.038269 890.332275 -196.079041
-552.576660 800.791687 -447.930267
-600.896057 515.571655 -112.586647
-571.331848 716.879150 -357.439758
-574.379944 671.501526 -263.552338
-510.463226 767.564453 -217.806351
-486.875916 825.599426 -236.233200
-617.500549 745.371277 -415.743225
-652.582886 574.678528 -347.819519
-437.723389 841.884277 -158.065048
-441.746185 898.569153 -304.712952
-415.469604 897.807373 -167.085144
-477.739471 874.994385 -284.408905
-459.590363 791.541870 -152.743332
-572.363647 580.892517 -130.520737
-629.177368 622.133667 -353.246490
-599.424622 642.979492 -253.503113
-445.167419 865.603455 -198.733719
-663.325073 584.724792 -359.593719
-584.446289 625.386963 -229.076172
-470.852753 910.015320 -350.943237
-468.149445 805.253845 -189.315628
-440.753326 899.350281 -224.916931
-569.129578 656.833862 -234.616180
-503.072479 861.027893 -394.783020
-540.374023 665.365112 -170.747162
-543.180725 692.923767 -212.312851
-592.133972 557.904541 -146.535767
-544.964172 713.543030 -222.883789
-559.855225 806.125610 -393.858887
-406.986664 885.939819 -165.037247
-554.244446 607.536987 -100.224739
-449.546021 941.219055 -326.434631
-638.335693 547.109924 -202.096466
-610.750000 648.197510 -288.890625
-482.632935 810.352905 -291.618134
-622.692932 719.617249 -420.872742
-617.574402 547.100647 -194.165604
-543.162292 857.415710 -421.576294
-574.649292 645.072571 -256.740570
-519.911804 873.096375 -395.983490
-545.565918 855.381348 -463.059692
-573.593689 757.389587 -426.958008
-664.971863 634.346313 -422.566895
-580.283142 714.488220 -360.927704
-595.333069 654.002930 -460.912933
-522.323425 685.211304 -155.157547
-416.027588 886.121338 -192.856140
-552.445801 681.184631 -174.780731
-521.824524 811.541260 -320.091736
-520.503296 672.913940 -115.069664
-548.853027 862.891235 -460.021118
-435.267181 954.661194 -309.717285
-457.022736 800.106873 -126.236885
-618.369934 536.144104 -184.416565
-659.109619 550.066772 -280.736664
-412.268921 955.921021 -252.312408
-521.042358 699.487732 -214.745926
-571.370117 761.932739 -357.549011
-573.159302 636.290955 -215.632156
-614.847412 666.714600 -458.130219
-577.523621 672.952942 -267.385406
-545.420715 755.259583 -322.742950
-622.209290 679.612183 -439.279449
-667.043945 529.288452 -269.166016
-601.850647 625.701965 -278.450806
-448.184967 894.465271 -325.419312
-617.958008 605.274475 -285.116730
-572.042419 600.870667 -219.682785
-456.406464 829.651184 -172.265213
-554.432983 668.646362 -209.609177
-449.903107 909.218323 -282.174866
-523.478210 752.975769 -251.846588
-520.239380 935.481506 -424.792816
-596.325195 563.057434 -157.206909
-480.611359 923.870117 -393.167236
-594.504211 730.951599 -455.421234
-610.379883 747.141968 -405.171997
-549.367065 663.473694 -202.548981
-411.238556 931.497437 -205.153748
-525.003784 954.182922 -438.548950
-502.473083 741.408508 -184.198929
-601.345337 714.818970 -378.115692
-535.820496 772.369690 -469.087189
-683.540405 576.767700 -382.958679
-601.110535 682.040405 -323.346863
-478.413422 754.328430 -122.238953
-434.855225 876.871094 -190.638184
-495.322418 888.123657 -350.826721
-642.292908 693.692810 -405.525940
-688.296814 568.050659 -368.703247
-406.911346 862.888184 -155.147598
-621.603882 757.645935 -426.205017
-580.622070 616.931458 -233.859970
-640.811157 517.270752 -224.312881
-573.039673 734.512146 -317.502167
-664.857056 629.153442 -420.536438
-670.915283 520.407227 -298.421600
-690.502441 513.302002 -320.081970
-424.926819 921.766907 -229.429764
-447.702179 927.519836 -315.847748
-584.381714 783.138977 -428.007813
-596.231018 687.889404 -457.898651
-569.608276 760.957153 -351.789886
-491.142883 782.953674 -193.289810
-579.623108 663.754211 -264.979126
-860.078308 497.301422 -679.339111
-582.963745 684.248840 -358.173279
-412.759644 915.478455 -214.069153
-526.792053 750.298767 -263.770660
-605.608887 625.468445 -232.387054
-497.614655 780.211243 -235.995087
-487.052856 775.534729 -158.800461
-533.499451 645.394226 -102.565216
-549.544006 916.640076 -452.041138
-430.893860 927.400818 -293.986328
-471.550781 887.792480 -322.035126
-600.172791 535.709961 -124.452614
-507.982880 843.226990 -396.197388
-484.063171 885.948120 -342.153046
-427.164154 922.537842 -264.923370
-498.596588 756.538391 -178.965332
-405.690430 936.127075 -260.299011
-453.405426 926.994080 -308.958099
-456.715485 867.747925 -216.616714
-662.546265 587.154968 -375.346130
-455.424255 941.789490 -334.391449
-531.855957 778.485352 -319.208923
-507.267700 688.651794 -184.565109
-493.177734 887.743225 -375.289856
-601.498779 747.795654 -442.618195
-488.869263 782.928284 -164.261490
-405.052002 894.697449 -205.820007
-460.269348 790.203491 -195.397018
-595.856140 772.405090 -411.213593
-578.739075 624.108948 -212.157776
-673.960510 489.078979 -210.147171
-498.910950 914.685913 -407.017059
-552.777466 793.751770 -380.584137
-514.374695 701.178223 -140.407990
-630.717651 676.249207 -440.979950
-511.252869 713.940735 -128.696213
-645.381287 644.716675 -367.957489
-475.318176 808.230347 -209.915390
-462.854584 928.472961 -332.842194
-575.733459 696.845764 -273.985382
-588.593323 569.610779 -124.771988
-470.095642 785.239563 -143.213837
-532.118652 746.569641 -233.253387
-564.171265 681.920837 -269.532013
-625.803894 653.619873 -379.795166
-548.115479 753.079712 -466.042053
-524.134094 819.298401 -361.800018
-452.662781 921.351990 -307.035461
-575.091980 693.634583 -289.812653
-594.117371 709.749756 -460.364227
-437.018311 835.415710 -143.182220
-499.258911 749.230896 -153.956375
-594.242859 572.388428 -158.097244
-497.957275 784.061401 -217.300461
-584.481201 691.933716 -295.839203
-614.029602 534.886902 -144.239822
-619.076538 665.685974 -356.865784
-446.002441 933.961853 -303.029388
-656.410950 652.169250 -424.605225
-599.980774 570.522400 -125.984818
-557.562744 742.648438 -350.883759
-756.650574 524.014465 -381.875946
-658.483337 569.733521 -309.840973
-518.719604 822.344910 -349.107605
-503.753998 796.142395 -237.230103
-455.109497 826.757080 -175.183990
-580.876587 840.247498 -455.316132
-563.878113 906.329956 -450.318146
-571.096497 848.377625 -453.259705
-471.448212 923.889404 -359.135498
-478.304230 855.327209 -263.438812
-566.731323 676.967590 -263.255493
-441.479095 821.178589 -155.278534
-439.410706 800.452820 -135.514053
-536.510254 803.155212 -349.433044
-514.758606 675.043762 -118.130035
-519.792236 827.867065 -346.082977
-561.234497 922.585083 -450.502380
-641.597717 565.783020 -340.459625
-521.753845 739.242432 -223.540390
-593.929016 612.959167 -232.856445
-574.812500 801.919800 -446.827209
-541.394836 876.303406 -434.699524
-705.488892 621.628906 -410.650665
-529.376709 881.861023 -421.143494
-530.997864 703.991211 -173.509964
-595.141907 693.174133 -327.977905
-598.428345 586.826843 -238.708908
-546.377808 834.905823 -465.763000
-565.374756 622.089722 -140.526749
-622.830688 540.908569 -195.913193
-615.955383 611.748535 -297.738708
-447.679840 911.520935 -278.999054
-496.077576 764.346558 -178.489990
-442.627838 847.869019 -182.621048
-544.001160 639.752197 -100.130341
-420.515717 866.838440 -132.378571
-508.021423 793.991516 -282.092682
-579.091064 710.658569 -362.731201
-535.778931 757.684265 -309.544464
-408.829895 907.317200 -163.450104
-531.141724 783.556274 -324.812469
-516.324951 743.709595 -279.235565
-624.083740 665.219666 -374.178223
-591.685669 543.364624 -116.691254
-657.295898 579.326294 -308.889160
-571.793701 666.456116 -216.296585
-535.719849 774.220398 -342.457184
-620.451721 610.278809 -246.686249
-433.560486 863.255432 -226.012283
-442.223785 845.446716 -202.926971
-625.572449 539.929321 -183.730286
-450.254395 837.990662 -198.289810
-638.579163 543.098999 -214.415588
-564.619080 776.460510 -469.250946
-629.469727 597.789307 -272.858368
-595.365845 626.492371 -244.743881
-625.458740 630.520447 -299.499298
-561.919983 620.908936 -181.941513
-444.247986 821.543640 -131.760803
-469.009644 894.608398 -312.641907
-518.371582 861.764832 -404.688416
-534.419983 810.613647 -470.902435
-508.443207 771.669312 -207.627090
-511.205353 797.918640 -287.190582
-547.981384 783.145996 -476.791565
-566.812622 709.902161 -459.792267
-529.395752 690.703674 -224.412842
-505.806458 708.868469 -146.695648
-427.088196 906.070923 -265.201660
-634.321289 530.104797 -172.899765
-603.452820 773.157776 -441.985779
-452.297394 888.975159 -254.210922
-632.865723 588.572021 -307.013824
-528.746277 744.038025 -479.931854
-628.037720 541.864685 -246.438370
-503.334076 833.554993 -337.720856
-524.702271 702.056396 -145.216476
-396.590820 897.228699 -223.181046
-497.325348 808.624878 -278.708466
-659.844482 524.704407 -246.318848
-494.274261 818.170410 -338.004913
-647.537170 555.374878 -231.615311
-432.619415 864.059448 -180.384964
-694.300659 541.735779 -359.396973
-469.648865 814.404114 -212.366791
-616.477722 686.378967 -429.979523
-438.695374 938.234131 -292.878021
-568.454895 753.585083 -455.225159
-481.372803 777.524902 -164.715973
-493.826721 823.929688 -345.425446
-480.228119 866.993958 -300.062042
-595.598022 534.599121 -102.535858
-593.976746 594.829651 -206.636810
-405.406128 899.458496 -160.588806
-534.372498 724.270996 -251.612854
-442.121735 904.713318 -333.327942
-500.142731 844.841797 -334.678741
-525.997192 817.103638 -385.926697
-481.358612 763.419312 -129.265182
-544.915344 620.227600 -102.325020
-537.958130 684.968384 -162.758102
-505.475830 748.092102 -185.763718
-455.115967 838.007019 -174.696243
-411.092926 928.815857 -241.380920
-566.507385 589.302551 -117.726357
-416.594330 880.944702 -179.528687
-387.925171 905.428711 -152.323242
-434.926208 860.134216 -163.910629
-503.635834 856.901550 -362.084381
-551.395386 718.481812 -237.829681
-505.856995 759.221863 -218.123749
-524.963989 715.072449 -189.476425
-407.998199 895.543030 -219.122238
-640.922546 627.022766 -350.119202
-591.359436 556.996094 -132.770752
-635.211548 621.073181 -331.288239
-484.615692 966.031433 -426.879761
-611.908997 673.644226 -345.683746
-638.793579 518.601990 -209.694382
-401.495941 934.172119 -207.582352
-659.014771 541.777893 -325.453308
-567.995361 804.119385 -452.056793
-454.240204 787.215271 -172.994156
-432.439941 940.805481 -299.349060
-609.042908 507.789886 -134.725266
-553.661072 619.075623 -134.303558
-577.531982 684.153503 -311.549591
-582.963867 826.515320 -422.396362
-477.987671 776.657776 -172.683517
-490.638855 734.755859 -129.545197
-574.606445 634.745667 -205.718948
-469.162903 867.559143 -258.583374
-432.172363 841.211304 -130.542450
-482.240540 790.977234 -211.762939
-581.455200 804.479736 -421.789612
-398.375671 894.279785 -162.613571
-569.494568 623.295715 -176.317902
-448.517548 920.456299 -287.053680
-563.087463 714.968811 -259.292755
-454.374176 879.997803 -323.649414
-423.821136 858.661499 -180.699707
-464.679718 875.626282 -290.397156
-581.186340 695.784790 -295.073669
-517.731506 721.372375 -200.381378
-538.809509 653.814392 -151.784409
-465.588287 793.584290 -152.011353
-541.337891 652.242554 -156.043182
-605.280029 703.414246 -361.049133
-453.711761 882.465454 -246.639694
-572.490234 807.508911 -452.613617
-447.061676 898.698364 -240.204788
-449.115265 915.052185 -288.594818
-508.962830 758.447632 -200.023895
-518.373657 728.789978 -196.390503
-529.983704 875.223694 -426.278046
-500.873810 753.647461 -195.634979
-425.359894 827.667725 -160.609833
-582.923279 636.745850 -228.897278
-459.540070 894.451111 -288.563995
-496.445343 929.140198 -408.421387
-505.907898 880.149963 -370.827271
-580.421143 646.196106 -251.984772
-467.627930 890.453552 -291.410858
-601.309204 719.748596 -391.958954
-478.750153 767.410461 -172.107880
-579.467224 733.949219 -457.297180
-419.840363 854.158020 -156.771103
-609.816467 578.456238 -224.806168
-511.575134 825.020935 -347.414154
-441.268311 848.102966 -191.492325
-431.355225 893.884827 -214.733551
-533.902832 731.463379 -212.053894
-660.235535 501.765656 -243.914383
-489.312775 889.189880 -370.021362
-640.484192 520.641296 -189.437912
-420.797913 926.973633 -275.696655
-580.496277 783.343567 -433.530518
-585.785400 720.336670 -475.007721
-556.607361 726.044312 -286.174561
-439.531860 941.488220 -301.218750
-571.595154 616.615967 -162.690689
-525.535950 755.809937 -268.240387
-556.709167 594.494141 -119.255295
-579.049683 628.265259 -162.642273
-625.488159 536.593811 -195.633972
-408.601959 854.171631 -153.706192
-603.527344 649.394409 -275.365692
-572.829346 783.953247 -392.269623
-606.532410 660.521179 -359.667053
-620.751709 711.370239 -436.194000
-673.982544 575.074707 -372.758148
-511.896973 790.493591 -287.871399
-591.334534 597.951355 -199.745743
-426.279419 853.268982 -170.430695
-491.869781 859.626709 -307.154388
-513.344299 850.518433 -367.769226
-604.188293 641.865356 -301.260162
-639.779846 542.196045 -256.234070
-628.118652 548.144226 -256.763824
-606.104309 631.809509 -262.465210
-659.128479 565.614441 -349.258942
-470.267334 845.117615 -221.562225
-599.260193 583.975159 -229.321503
-515.786194 794.423828 -258.428162
-452.252686 830.713318 -152.297989
-410.796021 887.251770 -174.524124
-535.438049 728.131897 -304.192352
-589.740906 600.957275 -161.275818
-626.117126 571.497253 -213.902542
-520.929321 808.998474 -301.855316
-478.113708 868.789612 -375.892487
-572.294556 927.892883 -448.114044
-595.509216 571.024475 -155.057449
-527.284668 836.295959 -372.628540
-488.621460 707.220215 -117.207085
-626.044067 625.083313 -350.013428
-565.057739 743.361084 -453.700653
-535.495667 790.839722 -353.542603
-558.864197 828.531555 -438.248413
-433.685089 854.490662 -155.398895
-455.185455 825.573975 -195.578400
-644.844543 634.418823 -374.421844
-520.937012 688.686218 -178.648712
-400.970032 891.816040 -155.001572
-532.365601 740.895020 -265.343109
-460.177216 841.145081 -225.717926
-531.365112 655.986755 -121.759506
-590.304199 732.811218 -382.541107
-623.383362 718.294861 -415.587006
-504.031372 834.285706 -305.881958
-579.155396 802.133972 -438.449188
-586.768799 862.296875 -446.213806
-568.189392 817.878906 -466.124481
-605.092590 622.511597 -228.703598
-501.772095 697.145447 -112.028854
-578.335999 646.112488 -237.400955
-557.028442 756.634460 -477.538483
-588.410950 534.290344 -135.157303
-490.017578 846.012268 -312.208160
-524.317261 807.018860 -377.337921
-639.050049 493.933411 -191.033707
-515.465942 665.129700 -137.041382
-537.133179 729.975342 -245.888626
-428.086792 891.583801 -204.430054
-444.533813 898.298096 -316.253571
-459.094116 895.831177 -285.387695
-674.919373 515.087219 -288.878296
-558.422424 787.088013 -462.742859
-647.495483 497.534180 -199.586380
-558.004272 746.290527 -339.184723
-654.137573 581.614258 -338.289764
-579.851379 701.275085 -472.638794
-613.920166 594.850220 -206.806259
-434.104126 918.483521 -256.855408
-488.025482 845.219482 -311.980164
-606.046509 618.421753 -239.234421
-474.068146 870.376831 -366.973633
-634.997742 519.054810 -148.656754
-535.078857 784.172485 -313.055847
-552.973511 686.844299 -474.093109
-401.215454 913.314575 -157.499756
-496.755585 744.054077 -139.100159
-637.505493 588.400452 -350.083649
-645.363647 523.177917 -236.055145
-435.693726 943.117920 -309.951752
-606.500671 576.194214 -208.485519
-477.087341 864.819702 -333.002319
-501.221497 805.373230 -242.637161
-569.980591 657.664795 -188.358017
-403.307404 906.635254 -145.933929
-592.098145 640.234375 -218.544189
-543.158264 642.453003 -128.913651
-614.007629 530.800598 -138.840897
-529.157043 738.893860 -245.604294
-667.514160 537.574097 -359.261627
-642.984985 656.538330 -388.699524
-554.419678 802.148071 -474.848999
-492.492401 734.694397 -130.601654
-475.017853 866.699280 -311.433899
-658.300049 543.188171 -299.721283
-619.179504 666.572083 -441.420349
-475.830627 865.600403 -274.399231
-482.329071 872.445190 -323.601959
-456.290253 916.761597 -298.691040
-597.010864 607.824280 -236.496033
-535.351807 652.517944 -109.809479
-609.677734 639.390564 -283.734650
-551.790771 787.583557 -473.515686
-542.672302 746.570190 -302.798615
-481.838623 861.670105 -307.801697
-638.574646 494.333527 -167.345078
-546.449219 666.536499 -156.724838
-634.280579 571.522400 -282.970978
-615.995483 624.615723 -322.065765
-586.172302 661.998657 -246.765976
-608.602844 671.625366 -449.608093
-470.829193 885.027893 -327.637085
-620.055359 621.076904 -348.118225
-554.316589 800.715759 -383.069122
-623.578979 630.220581 -293.898895
-450.465027 835.694702 -194.409958
-521.057617 687.028442 -102.571594
-455.259827 853.586609 -196.663223
-639.336670 589.525208 -355.856049
-436.004150 872.936462 -198.140289
-638.203552 506.797607 -113.616409
-540.201965 734.659912 -243.352066
-648.943848 508.014526 -156.514984
-457.461426 914.171021 -371.089630
-627.921570 696.892090 -434.204865
-607.242432 645.575806 -460.526428
-519.888428 777.750244 -286.048096
-536.303101 705.896118 -205.488434
-566.931519 770.566162 -446.912415
-558.417847 629.125549 -118.526031
-593.219543 693.834045 -445.989105
-470.861816 875.149231 -289.823822
-441.702454 912.584167 -256.301941
-512.768372 792.041504 -292.535980
-647.510498 557.644714 -253.410583
-521.945984 749.830994 -209.266006
-504.964142 852.203308 -339.647278
-492.805176 965.667053 -433.806458
-635.002747 673.440491 -386.148529
-598.890503 603.528809 -233.069733
-611.077759 606.991882 -228.275375
-674.618347 496.505066 -289.166840
-592.878601 562.823547 -156.433624
-558.008423 702.396973 -479.315796
-411.251282 913.108826 -201.732864
-506.101288 835.881531 -339.616974
-488.692871 909.963501 -425.263428
