ply
format ascii 1.0
element vertex 1370
property float x
property float y
property float z
end_header
225.644226 -978.689209 -318.418671
256.046021 -932.153564 -283.816620
328.241638 -739.785950 -333.013519
297.589691 -959.704041 -191.313477
338.105621 -709.410950 -341.847382
380.777893 -850.352722 -146.809647
431.024811 -904.218567 -14.011932
277.004913 -867.948975 -319.346741
420.043060 -901.955872 0.996206
283.017944 -889.963379 -273.550323
377.495605 -633.272095 -358.339478
363.167847 -847.147156 -170.138977
269.521912 -1129.511475 -173.149811
365.169800 -787.509949 -249.128235
268.688477 -964.264160 -228.538223
395.300934 -829.839355 -160.015976
252.814972 -725.303101 -456.472717
388.085846 -725.622131 -243.931122
285.998627 -951.409424 -232.116913
357.989838 -726.632935 -319.647644
338.801300 -799.426575 -254.792709
318.718262 -929.741943 -135.303879
389.307831 -644.701782 -347.879669
411.163635 -905.509521 -32.161400
317.836517 -770.749695 -320.954071
401.772156 -691.689941 -249.106873
295.679962 -941.522827 -207.460983
360.908173 -911.738525 -118.895088
383.124054 -924.600098 -55.606598
369.697784 -856.985107 -159.874771
256.429474 -1065.887207 -222.277161
346.729340 -757.531433 -251.573364
410.116516 -900.935608 -46.600796
310.587250 -784.232483 -348.241699
409.779694 -831.261597 -117.881096
345.390869 -909.072144 -169.246674
389.603058 -701.457031 -263.381287
186.388412 -1001.190369 -298.186676
260.068420 -1037.726196 -215.185883
284.751404 -961.084595 -207.543686
367.867676 -969.021240 -21.421299
273.470001 -744.830994 -431.201782
346.829346 -894.497009 -151.397430
248.003586 -895.276123 -383.906494
372.674561 -694.977417 -322.992615
199.783173 -1025.764526 -275.005127
309.496002 -1050.811890 -94.795380
376.697052 -764.306885 -218.747284
395.081665 -770.939026 -174.669983
337.250397 -953.045471 -142.684494
381.635773 -842.400330 -148.993439
192.267670 -951.371704 -349.670868
172.761536 -979.302917 -289.646301
169.094742 -916.533936 -386.158875
185.400055 -1010.507935 -284.504974
413.624176 -806.651978 -110.745071
356.773712 -927.274109 -52.257130
314.666443 -891.916382 -211.458740
157.040390 -991.843323 -263.195557
416.822083 -663.023193 -293.838562
286.025635 -924.218628 -204.927261
337.799500 -955.678528 -130.952713
281.120331 -943.109497 -191.100723
397.665100 -643.796448 -323.855469
394.015625 -738.203186 -205.237976
304.466156 -1039.517212 -76.437370
406.547211 -908.733337 -30.653120
294.668152 -714.781494 -416.073486
344.307953 -921.136719 -83.614906
345.744965 -893.303284 -178.673950
277.293793 -999.697998 -161.089996
287.380646 -1035.642090 -140.027954
243.117386 -847.232239 -465.761749
367.710266 -766.857300 -230.035431
316.619781 -836.706116 -253.187027
286.414429 -926.495850 -200.195923
381.838074 -959.566833 -30.207754
247.435165 -909.492371 -312.346283
276.695282 -1020.146118 -169.712250
365.111694 -949.173523 -85.027122
161.290848 -945.044006 -330.289337
268.844940 -1112.638794 -220.226120
253.014557 -1061.043335 -276.482300
393.061615 -877.909302 -101.345451
361.830139 -710.646606 -297.924591
402.331024 -640.507507 -288.216492
369.627869 -838.268799 -159.133469
350.971497 -793.486572 -249.970734
401.933411 -739.290344 -184.935471
419.507507 -882.876465 -35.950714
340.049622 -866.724854 -198.413483
396.805603 -959.989319 -17.943213
380.422943 -906.750061 -102.113029
227.864487 -899.323730 -408.059235
297.647522 -763.508911 -330.458893
414.622620 -856.969788 -61.332558
382.388550 -923.471924 -75.476311
357.311371 -770.235840 -279.880280
406.775970 -815.293335 -145.151657
265.565552 -1108.549072 -236.094345
409.154510 -863.142273 -86.264214
229.086700 -886.683716 -366.502716
288.930664 -969.772400 -209.723526
327.631622 -722.181763 -382.271210
361.121124 -773.514221 -206.204666
263.219421 -1087.236572 -178.545349
200.328384 -1035.364746 -264.429749
299.750275 -972.503601 -186.137207
249.259247 -909.517273 -301.300110
153.286453 -942.177795 -335.903992
360.894379 -924.818848 -72.988434
318.313721 -1017.552185 -75.177437
273.061005 -813.213440 -367.193054
348.790771 -721.067749 -261.689728
398.582916 -828.118347 -88.433464
405.652588 -740.961365 -190.255951
306.669373 -1068.910156 -80.861206
359.110992 -717.155945 -301.416626
272.417664 -855.924377 -315.232819
372.056824 -735.260071 -232.247101
375.630157 -839.968872 -118.642769
389.122284 -619.499329 -335.978943
392.133087 -700.929138 -249.494522
334.659485 -934.001221 -161.916107
337.529724 -796.135498 -288.890747
367.542206 -779.890686 -206.629501
323.596802 -984.545044 -114.694351
400.182373 -790.470215 -156.982895
405.641144 -921.178101 -38.632637
288.868805 -776.625610 -333.253906
275.311493 -752.008484 -437.786224
330.105591 -926.572937 -174.794662
376.229004 -773.598877 -235.435135
174.364944 -990.388611 -305.600800
368.486511 -836.258179 -198.250580
401.826141 -834.539673 -115.366455
272.274597 -1097.184692 -155.842056
301.982574 -677.533875 -406.313049
335.820526 -738.295410 -297.563568
384.057098 -949.126526 -18.393475
307.744690 -904.569153 -234.054306
378.100647 -715.584839 -264.256226
323.978546 -732.896118 -311.494873
207.034531 -998.786743 -304.137085
287.317627 -1014.585266 -178.838730
295.283569 -724.047180 -390.097107
405.904968 -786.285095 -142.902298
260.131348 -1092.349976 -141.913361
232.481934 -855.842957 -391.359375
212.095688 -996.407898 -287.677734
341.043945 -928.411804 -134.577179
340.002411 -1009.552979 -80.895935
285.079437 -842.372070 -349.883423
234.503998 -938.200073 -359.139984
269.747711 -1151.198242 -136.452728
347.961914 -729.290344 -335.280945
334.828156 -877.281250 -216.614426
317.505829 -718.036682 -377.189148
185.462646 -944.268799 -364.911194
342.130249 -827.707275 -237.590591
383.530975 -775.765381 -207.104065
281.604889 -863.506470 -299.910645
360.537567 -759.608154 -223.244812
407.871796 -781.687134 -146.433075
188.045105 -1004.366211 -271.458008
287.606506 -795.515381 -334.536591
291.278625 -801.921692 -346.036469
408.821808 -959.027710 -5.652046
229.557724 -922.713745 -394.462891
298.589203 -777.499329 -361.987976
269.914673 -711.190308 -454.531647
230.749771 -927.109131 -404.222168
287.364197 -849.716980 -314.214325
333.009216 -885.155396 -196.123688
337.350922 -891.723206 -178.420700
421.406342 -653.191772 -306.628876
405.445648 -749.107361 -193.313324
272.017944 -980.675537 -240.759583
314.270630 -853.071167 -253.357864
293.283997 -878.413025 -231.752838
411.335663 -941.648438 -16.249781
172.051498 -955.291260 -324.015167
393.823059 -935.497498 -46.672722
415.191254 -914.570190 11.835728
337.760101 -986.732239 -103.883354
403.150177 -704.418213 -260.995361
359.000732 -947.480835 -100.374153
285.800049 -860.242371 -291.193390
331.051941 -781.129028 -278.888947
281.929596 -1065.994263 -126.887802
391.988190 -771.752563 -197.586655
352.048218 -901.750671 -164.672699
292.579071 -901.328064 -239.803146
277.804230 -767.338257 -375.369019
390.222168 -748.968079 -220.394547
261.868011 -1049.375000 -242.501526
229.618683 -1005.275513 -295.621246
321.112030 -772.058899 -285.068207
280.431763 -702.306458 -407.441132
386.376617 -616.264771 -387.791199
380.796234 -793.631592 -216.755997
331.818939 -961.280151 -65.816803
343.162292 -886.799011 -166.329330
282.627289 -762.475769 -415.308563
276.773499 -753.140137 -412.053864
344.677124 -915.463867 -147.851257
384.104553 -927.736206 -75.389519
318.906555 -739.719727 -327.392487
379.240845 -692.260742 -282.457794
329.667664 -945.612915 -161.776810
408.152283 -843.553467 -108.396263
239.804977 -1086.531860 -247.754288
345.767517 -781.733704 -267.242950
373.487762 -919.270386 -90.108826
327.778473 -744.423584 -355.955048
244.040817 -855.986938 -491.407074
206.005341 -985.922974 -311.117157
254.985901 -923.830750 -319.712158
316.977997 -979.827576 -134.212067
240.275330 -834.921387 -430.773560
284.294800 -1003.607666 -175.116318
300.227112 -1008.367798 -114.518448
400.862701 -720.496887 -220.192047
312.191223 -731.584778 -386.661957
249.693588 -796.275452 -446.418732
317.228546 -947.212219 -169.880768
425.350006 -919.983826 21.767349
364.366119 -937.063416 -106.275993
297.181671 -1085.565308 -90.117950
409.185089 -622.241028 -358.667175
309.939575 -1000.443970 -140.645386
184.417252 -951.374512 -347.618866
303.754730 -696.032410 -446.947113
397.416534 -712.562927 -269.305878
214.552490 -1012.943176 -279.929352
374.071167 -890.482361 -133.345367
396.127472 -628.391785 -361.734497
379.875275 -946.421265 -55.450241
359.411865 -787.314636 -234.860229
385.806213 -874.547363 -87.272430
265.925995 -915.185364 -305.978455
329.167358 -706.863464 -382.906219
331.628174 -926.733765 -118.702141
205.648911 -1033.749878 -265.693756
370.862457 -954.483521 -30.681929
273.996063 -744.279846 -465.779785
258.445038 -933.545288 -310.688904
231.921906 -1019.801147 -295.823578
285.127838 -992.881653 -156.199890
365.285767 -977.544922 -67.398369
393.183777 -706.406128 -275.450409
368.782471 -974.032837 -58.046768
285.913696 -1017.375061 -164.745804
409.298157 -799.970703 -131.690414
336.999115 -1015.632385 -73.953476
416.957916 -819.001953 -102.255173
415.534485 -839.709717 -87.854378
394.384247 -734.558594 -211.764954
333.005646 -790.980286 -301.847473
318.455017 -741.281494 -314.864136
264.890167 -961.590149 -236.710449
409.048096 -619.684875 -309.237671
273.588623 -743.763489 -467.904419
289.610870 -1052.988525 -113.799622
345.455170 -873.822266 -201.082031
315.793030 -789.293335 -314.123749
408.106873 -891.345703 -27.889097
337.717529 -698.898499 -351.013885
412.935577 -895.941101 -21.288069
241.443542 -894.777771 -353.430664
382.188965 -810.697815 -180.496780
412.137817 -920.648560 -30.107147
378.333893 -913.976379 -102.672379
361.035431 -891.429565 -135.688461
402.960052 -806.890869 -155.681854
378.336853 -837.546692 -152.083252
234.265091 -831.782959 -436.286926
297.230438 -740.871887 -387.617493
283.127380 -1085.094604 -104.185440
390.336853 -862.633118 -100.585732
338.693726 -882.766113 -195.149857
188.079697 -904.166687 -388.676880
236.436981 -855.889832 -395.799072
238.900024 -1084.685425 -245.867294
412.393341 -880.432556 -16.053608
372.134186 -706.434082 -285.037506
244.666031 -894.237305 -448.069824
369.336517 -759.761414 -237.941025
421.375061 -847.952820 -61.025215
259.249725 -745.032349 -437.846252
301.253571 -751.898621 -370.108185
326.812592 -929.576172 -120.410873
383.598877 -803.050171 -183.348953
435.648895 -910.655579 10.824552
348.312866 -688.392334 -364.659729
287.051056 -705.109741 -415.605499
269.247803 -957.554993 -242.037384
390.171692 -951.944580 -44.637146
425.087280 -854.542664 -61.315544
211.960083 -911.156128 -412.661255
277.874298 -1001.101929 -206.979477
245.318893 -1089.626465 -228.582794
268.401886 -1067.841187 -147.141769
424.380188 -903.428101 -23.788338
375.694122 -924.201111 -82.043381
342.309418 -867.879883 -217.578903
252.222229 -893.998718 -297.686157
352.832672 -723.243164 -333.537354
414.170929 -816.125183 -110.332611
378.193420 -920.882690 -93.851402
353.112488 -739.289551 -285.795044
368.062836 -853.904907 -167.045059
293.611908 -960.823608 -190.546280
348.242279 -956.975403 -74.880318
276.102020 -730.780090 -462.730286
379.795746 -713.984985 -225.958878
421.256165 -693.235962 -227.986954
344.278656 -849.210022 -227.523743
277.038086 -714.573364 -447.149170
207.786255 -987.421326 -314.400604
358.128357 -830.666016 -195.704926
374.164703 -739.202209 -254.193420
390.195099 -854.582153 -108.986671
399.231049 -808.253479 -152.129715
292.946716 -795.805237 -316.486877
314.872528 -988.594604 -150.065109
222.318970 -897.086243 -414.356018
276.531464 -970.448059 -177.492035
189.802979 -991.744507 -309.265778
420.961334 -801.688171 -119.886826
208.770447 -967.379333 -322.035400
385.769562 -888.602051 -115.995079
295.973572 -916.011597 -235.616776
352.443268 -948.090698 -115.841064
389.980408 -634.534729 -323.842529
381.331512 -824.571289 -188.053650
324.904266 -940.543274 -103.617004
282.525726 -772.952332 -410.100128
369.643005 -884.356567 -148.231506
325.101654 -703.663696 -388.965240
356.637390 -869.050354 -110.811028
381.858063 -956.913147 -39.301895
298.354034 -741.991821 -365.682739
199.926453 -919.544678 -371.197754
329.658630 -837.223633 -234.488602
221.482468 -1004.857544 -274.994354
301.171936 -730.416077 -396.242920
329.817474 -901.007813 -207.904922
240.385635 -840.549927 -371.604675
341.193176 -1023.210510 -59.577175
389.899445 -865.170776 -118.921051
331.748840 -785.377502 -281.574829
253.547180 -831.241272 -360.489532
392.042847 -851.758606 -101.904114
315.570099 -895.037109 -234.503555
260.221985 -982.064270 -271.828339
348.503418 -819.483582 -210.354965
221.493683 -921.964600 -395.658386
297.277130 -818.567017 -303.927063
403.944977 -933.786316 -35.960323
261.186646 -899.579224 -327.821533
265.409912 -1094.888184 -166.883575
276.382385 -972.562439 -204.456650
319.072510 -793.859070 -302.703247
417.776276 -730.729004 -203.459244
397.957031 -619.972046 -353.962189
346.030426 -876.854004 -169.133774
388.861053 -845.845886 -148.920364
321.154083 -845.815674 -248.112885
296.173157 -989.407288 -188.357651
282.332031 -860.836121 -313.968689
296.659607 -882.830505 -259.636536
176.724365 -992.009827 -283.737854
305.010010 -681.643372 -397.382813
404.388367 -618.052246 -343.423004
301.786011 -790.085510 -331.728027
144.382919 -937.942261 -333.764069
298.251160 -906.095093 -233.870392
246.119995 -881.472046 -337.410156
308.713867 -974.926697 -163.212433
345.975677 -797.414124 -215.527161
347.999695 -905.492676 -143.636215
292.703674 -1021.715149 -143.687683
348.460907 -702.869080 -329.279846
315.070251 -736.312500 -360.328949
384.801025 -700.837952 -304.838196
257.808044 -857.392273 -344.342529
386.877808 -784.253723 -203.737045
343.500336 -724.155945 -358.082458
421.781525 -885.628052 -24.131159
403.300049 -832.778320 -119.165390
348.434174 -869.935852 -186.423355
358.706696 -932.812927 -70.974831
345.335754 -870.364807 -204.924744
243.780731 -791.960205 -450.627502
262.219208 -906.926025 -330.714996
368.098358 -781.986328 -253.874786
375.245911 -720.968506 -249.776062
320.034760 -763.513977 -330.632660
285.927704 -852.793030 -301.397583
366.668335 -742.438049 -264.643097
326.324554 -851.321289 -241.662170
324.208313 -925.800598 -168.409668
395.898987 -698.379883 -277.531708
391.592651 -826.791077 -100.885216
289.567413 -947.336609 -229.164368
372.030731 -737.379333 -283.715363
411.127563 -748.012329 -183.434677
205.764801 -1026.289795 -281.576202
306.578918 -869.334534 -247.315887
432.809143 -913.368591 -3.094023
335.936554 -874.087585 -226.662216
420.474823 -765.710144 -151.344833
315.458527 -746.435669 -390.315826
356.847260 -860.533508 -170.698837
326.130127 -1027.315186 -90.646553
371.497009 -862.718750 -142.412613
281.560913 -763.659302 -373.006348
264.970215 -809.215454 -359.761688
371.227509 -742.866028 -256.593079
380.160095 -975.830444 -0.372492
286.628693 -806.636719 -346.318298
273.910431 -970.222656 -199.412262
259.223969 -874.455750 -327.597534
409.484802 -802.090454 -119.604919
388.491425 -882.113159 -117.742348
170.064438 -977.573303 -316.880920
412.030487 -751.925537 -171.146820
423.633301 -813.653442 -108.014381
244.663040 -943.252319 -299.217377
350.788605 -637.897888 -338.442993
362.491028 -764.688416 -250.513657
377.806274 -692.460876 -293.975067
434.615967 -921.038208 24.395674
253.529343 -1050.512939 -276.386047
390.634308 -750.443115 -219.004547
323.580750 -825.833069 -267.906738
239.331604 -918.516907 -370.709442
248.519775 -1090.343140 -180.163223
391.685394 -914.826538 -64.818192
244.327438 -929.312073 -342.257965
300.400116 -1036.305786 -128.847397
371.655182 -865.997803 -145.963806
334.353912 -892.920532 -194.320633
254.075928 -871.589172 -335.881531
294.639587 -1052.668213 -98.891670
390.806274 -814.071228 -148.206802
285.419373 -714.710876 -404.700653
292.032898 -704.805725 -445.484650
380.635651 -711.213196 -271.399536
370.273346 -904.531372 -120.487213
269.189453 -1033.059814 -138.011322
259.970367 -1033.401123 -220.857742
219.107025 -1026.113403 -283.937866
416.269257 -856.115845 -70.284729
348.122925 -710.258484 -304.044830
416.815460 -730.993591 -189.129471
254.937500 -841.114502 -383.333130
337.360138 -949.549377 -141.757950
337.555328 -898.885376 -170.790161
412.999084 -777.780212 -143.085892
346.843048 -733.295288 -334.372681
296.749817 -969.563721 -195.518036
399.667664 -837.592773 -134.570679
406.635223 -834.190857 -133.496552
305.658813 -917.594910 -164.571411
188.568451 -962.857239 -315.251160
309.158997 -917.422791 -203.945129
362.951813 -853.192871 -166.375214
319.571167 -703.690796 -407.046448
389.788635 -919.813965 -71.956848
416.119324 -604.985657 -348.109680
198.887772 -1019.636902 -286.537048
309.371216 -889.210327 -235.113937
310.395874 -990.401733 -124.743904
293.224670 -1033.608521 -128.774887
258.399567 -1019.296936 -199.841614
409.068542 -849.655945 -91.780243
362.389709 -786.601990 -224.066193
379.453339 -896.890503 -104.051071
368.449890 -848.653076 -166.815643
269.394867 -725.080261 -474.104156
390.980072 -906.118469 -79.883781
191.918640 -944.968201 -337.483521
396.966827 -643.386536 -291.489319
272.266998 -1024.226318 -154.086136
336.829254 -953.822510 -116.583778
355.127869 -633.357666 -393.026978
250.571472 -1083.977417 -254.642975
324.558014 -951.728699 -164.851318
273.743683 -848.358765 -357.638153
367.688690 -740.669556 -225.983932
324.994446 -929.565613 -188.888306
292.231171 -862.219910 -279.078644
273.957367 -974.517822 -178.419373
282.944916 -923.540283 -247.055923
259.712219 -925.960449 -302.477722
272.762421 -918.143616 -271.062592
261.791107 -903.536926 -299.545135
324.615295 -826.861450 -287.762573
311.826538 -987.677734 -137.561630
389.918488 -925.548157 -60.842712
316.364960 -736.769348 -339.251251
302.223328 -828.530884 -302.764893
265.573914 -1080.066040 -257.210754
309.203735 -1004.727600 -125.374840
410.273743 -764.072327 -163.278488
349.526855 -938.943970 -137.808945
414.236053 -765.174805 -157.916306
359.593109 -791.080505 -211.860382
233.897324 -983.634644 -309.153137
354.556580 -887.380188 -150.696243
241.639023 -976.542175 -272.012299
336.658264 -743.889771 -343.128540
412.518127 -851.099487 -82.148064
322.971619 -1009.896729 -71.838341
275.277527 -841.354858 -305.131592
349.036926 -899.422363 -176.604050
218.879456 -923.915833 -389.272552
401.692139 -774.843750 -159.386154
372.355713 -950.899902 -51.707829
289.383392 -863.294678 -315.292511
268.111206 -1118.363892 -231.332779
180.974091 -993.807800 -297.414764
372.102936 -976.251770 -41.737030
355.800690 -958.033691 -38.504219
299.878571 -737.685608 -425.882813
251.394775 -829.521362 -401.277771
416.469971 -912.691711 -15.199566
424.470825 -924.184753 -0.228815
378.611328 -685.503174 -331.267029
369.531433 -615.232117 -352.806641
399.530914 -768.966980 -174.629639
297.445679 -697.419495 -382.092651
372.797638 -831.671021 -160.311493
249.441849 -823.082458 -414.776245
334.484283 -841.824341 -238.656387
384.527740 -877.483398 -112.160751
356.764557 -688.963684 -368.064392
390.946381 -737.682190 -257.820953
321.125641 -919.639954 -168.873199
249.693497 -1031.504639 -273.915070
401.278015 -889.018677 -80.234299
243.903244 -1016.830322 -303.520233
390.686218 -770.613586 -219.197510
285.471008 -959.469971 -206.566452
367.648102 -699.661621 -328.382568
339.263947 -882.092224 -186.626801
274.402588 -1125.220215 -222.389832
299.126434 -877.681091 -290.571198
408.199371 -783.763062 -147.955307
359.841217 -874.178772 -175.729187
366.378143 -961.303528 -49.381496
394.379211 -865.790222 -101.323845
248.680450 -879.645569 -466.756592
345.177551 -833.035950 -245.135742
243.024689 -939.108154 -344.009644
264.272644 -1082.344116 -133.382004
357.031647 -904.072144 -75.867989
226.710724 -964.920898 -331.398590
348.100403 -703.747986 -346.299530
387.624298 -667.051025 -297.676605
386.362305 -919.756470 -42.318638
300.167480 -846.930054 -281.954468
275.580536 -742.003601 -425.014008
389.669800 -862.772583 -130.061417
328.864166 -735.249023 -349.620789
375.598877 -850.751038 -137.436417
337.340942 -912.993042 -175.001892
272.386658 -1082.352051 -137.965820
227.093613 -851.785706 -406.591949
390.953857 -955.659302 -25.219500
281.288879 -803.856934 -338.257263
396.232391 -905.602844 -68.491051
390.321960 -697.448975 -262.641449
357.450500 -882.945374 -136.087860
374.468109 -740.836670 -276.702576
202.384109 -971.179016 -311.957733
292.092316 -745.462402 -430.721954
229.132370 -953.769836 -366.188660
405.989594 -855.827454 -106.820740
290.829102 -967.772949 -194.366089
382.283966 -835.073975 -96.939133
352.514954 -800.518250 -242.552948
388.964417 -829.727539 -151.781372
196.829941 -958.963318 -348.455780
230.500214 -914.584656 -405.817688
380.419098 -900.390808 -84.456970
315.549835 -1046.554688 -80.389763
268.627380 -858.242004 -331.217682
274.551270 -1046.566528 -150.637024
270.802429 -866.557190 -314.994781
341.581451 -673.686646 -416.287842
243.044632 -1064.664551 -177.072479
394.699188 -838.423462 -143.616959
340.254608 -650.660278 -408.434448
397.745819 -741.268188 -223.658890
269.604736 -764.158630 -409.950195
264.249573 -819.807617 -384.913239
415.920868 -672.173279 -275.151306
418.947327 -743.323486 -192.837631
382.128571 -641.958496 -366.068695
357.414581 -809.267517 -224.300156
399.351715 -677.363220 -256.249695
373.153778 -870.339355 -146.822418
281.084106 -736.869324 -440.256500
243.094299 -886.547424 -341.627411
193.296326 -924.702026 -362.022919
203.676544 -962.607361 -328.661743
326.083221 -697.448059 -400.749542
193.181976 -991.507141 -282.079651
421.019073 -634.633972 -292.783386
223.442719 -961.710510 -334.575195
270.162720 -751.118835 -401.983673
333.321594 -774.983948 -289.945282
353.444794 -952.048279 -103.492455
399.187592 -679.620850 -265.350372
279.046661 -773.090271 -417.230042
350.398468 -736.844177 -319.659363
397.244934 -907.180603 -60.238644
234.638428 -1024.485229 -266.163422
288.809662 -981.584961 -161.410004
221.823456 -978.100464 -326.877136
276.905487 -708.961304 -456.700684
349.932312 -991.176208 -71.823746
394.913300 -744.894592 -225.901016
341.647949 -817.325928 -243.695374
376.161163 -625.087402 -375.578094
206.651978 -1036.859009 -260.703461
311.567474 -908.497498 -203.613403
242.007584 -855.604431 -370.447632
346.413452 -950.962585 -102.969002
240.510025 -872.117493 -448.112885
225.058090 -923.873901 -390.295013
336.317352 -960.819214 -67.721718
223.463226 -979.401733 -310.406311
397.302338 -866.027222 -119.283173
347.988495 -991.773376 -78.455330
409.242889 -816.980286 -118.236755
193.594025 -939.702148 -342.958252
416.974701 -956.797974 20.783964
286.765106 -847.714905 -276.127350
255.103912 -818.110535 -386.938782
424.195862 -901.253296 -7.792657
380.389587 -914.440125 -82.261139
339.780548 -643.465332 -371.732788
403.997192 -905.738159 -12.674224
289.111542 -1045.714111 -121.755478
404.266510 -877.951538 -66.452103
360.288361 -763.577026 -280.652527
283.461884 -799.603882 -359.576813
337.489166 -1000.869385 -101.312248
342.043243 -830.084473 -232.905136
401.660431 -740.596191 -214.627762
291.861450 -1003.647949 -168.966644
284.921722 -853.734924 -297.705414
297.046326 -858.534668 -285.343903
351.577301 -747.741943 -290.101044
299.880219 -991.520569 -112.069702
322.073151 -805.222412 -318.184692
302.209259 -867.709534 -262.976898
240.527191 -896.288452 -342.781616
361.526917 -965.078308 -80.110687
393.064026 -945.107117 -36.327938
280.562439 -1028.971680 -137.190643
265.574524 -1098.489624 -136.263947
158.763977 -976.178711 -293.813019
307.530823 -925.719543 -202.201126
230.202805 -927.952576 -390.394989
262.492462 -851.550842 -352.616302
345.337463 -842.306030 -216.592529
239.630157 -835.910522 -467.044617
324.893158 -838.913330 -253.781540
234.721786 -1006.581482 -286.763000
250.000656 -837.760010 -400.012085
345.524933 -939.749084 -123.349617
235.404007 -861.411438 -441.073120
335.751190 -918.583923 -163.919144
379.997345 -692.201050 -255.736465
346.088440 -690.894958 -350.278229
334.450409 -695.169739 -402.971252
355.870422 -774.580444 -218.935486
220.654678 -931.111450 -371.281311
417.651855 -603.935547 -331.467163
311.563507 -894.338074 -229.193680
242.676514 -985.032959 -335.987244
414.953278 -888.175171 -18.465509
242.358047 -853.311401 -374.579956
276.111450 -1023.742310 -188.523697
300.883575 -953.840210 -200.797745
301.656219 -990.153625 -160.456406
398.847565 -814.532227 -130.089020
416.123322 -787.382568 -160.903580
251.569717 -894.696289 -337.935516
393.930237 -755.940857 -234.345261
390.264404 -936.674377 -52.812996
240.165436 -813.149292 -447.506958
336.133240 -981.830383 -80.237114
259.426666 -758.765442 -482.415131
299.933655 -916.627075 -229.947784
406.665771 -657.818542 -274.302734
345.055969 -633.144043 -371.167084
295.984344 -882.812378 -287.569244
332.201447 -716.210938 -365.012695
320.324066 -789.657959 -325.849365
300.572632 -945.682068 -154.945801
239.021011 -1010.486694 -280.268188
380.831360 -982.167236 -23.687042
318.992737 -796.693115 -321.315674
386.933441 -803.474609 -169.240067
316.032776 -967.391357 -158.082077
267.346527 -961.863403 -264.841492
255.540680 -866.506592 -327.966309
299.474121 -1044.100098 -110.628357
332.642273 -999.031616 -102.936150
219.334045 -955.803894 -335.819824
399.078064 -764.854614 -151.809311
164.308609 -966.406006 -322.538849
397.612915 -858.804932 -119.040352
399.922058 -841.791077 -99.456017
260.737793 -948.148743 -264.269348
389.533844 -842.267090 -90.315170
221.307770 -896.978516 -425.387177
340.141174 -845.932556 -214.336288
271.654175 -880.082458 -325.018280
392.110809 -763.379578 -226.036880
286.439697 -968.734985 -201.064621
317.035431 -1044.615479 -85.665115
228.108475 -903.026672 -450.123047
409.167816 -793.850342 -142.704422
393.676392 -958.181763 -18.546703
257.273712 -1023.505981 -206.513931
360.733856 -760.570801 -260.317780
392.241852 -901.896790 -69.849899
277.840790 -944.756409 -237.186279
223.780594 -1034.750610 -264.019012
260.675323 -1124.525146 -194.502655
315.165497 -764.550476 -333.156830
328.209503 -947.449768 -142.246460
238.356659 -884.972595 -378.692322
266.388031 -933.669006 -286.271362
406.656250 -719.376770 -250.070251
395.158386 -617.349487 -327.411285
237.831772 -933.352173 -352.832550
339.998932 -999.935303 -51.514885
391.893066 -853.006531 -124.828796
261.375122 -1103.199097 -144.777878
237.476273 -995.196167 -287.852631
292.813049 -979.455872 -175.736404
343.886597 -768.199646 -278.293030
258.454620 -815.213196 -382.097717
259.059753 -934.729309 -300.743744
335.823059 -776.192627 -289.053772
275.204712 -782.179565 -421.718597
325.673920 -945.527832 -157.040161
403.687866 -618.303284 -338.948700
273.699951 -982.807007 -231.981750
361.381714 -792.372009 -246.525879
215.052551 -1045.012207 -271.280365
307.638611 -1053.026489 -99.272797
334.093628 -875.526428 -200.535843
276.857025 -985.649414 -198.967545
272.337402 -721.147034 -469.839203
366.501892 -758.205933 -279.318268
327.902924 -679.983337 -410.040955
375.884155 -882.632385 -123.682388
253.499802 -931.516052 -332.840607
342.774170 -698.517395 -342.527252
406.588196 -883.926819 -38.071125
242.665390 -822.237244 -398.995361
374.661285 -938.437439 -81.437462
321.110382 -903.734375 -215.381500
322.465729 -1026.116211 -73.635696
356.701630 -729.123352 -314.555176
192.218002 -1026.344604 -271.275360
305.698486 -824.864258 -300.010071
372.847992 -879.530090 -71.821472
246.490448 -902.960083 -301.651306
267.447113 -1005.007874 -202.776505
252.478882 -918.560303 -274.815430
318.959503 -1028.496704 -94.440292
404.951172 -651.490967 -281.950562
365.019745 -647.103699 -369.480499
408.183350 -935.724731 -0.065159
384.299591 -594.008850 -347.727081
354.484100 -1002.531860 -52.311348
400.949493 -600.624634 -335.445374
412.290497 -853.344543 -79.859146
281.774048 -1077.998291 -118.208870
395.774994 -616.002319 -318.137817
306.945038 -674.781860 -416.981201
331.666534 -1009.075317 -94.852234
296.719971 -797.764954 -317.316650
256.488525 -887.571838 -345.583832
397.350830 -902.154358 -28.244139
287.140015 -900.489197 -286.445831
212.042419 -953.549683 -349.366028
370.707977 -892.919556 -104.639275
366.541199 -908.846985 -117.072571
324.355988 -744.331177 -362.608673
379.301910 -849.330750 -166.913727
318.915405 -968.931213 -147.810440
371.685364 -955.722351 -61.479588
368.787354 -681.959778 -306.722565
224.747559 -915.530762 -388.207458
334.245239 -883.535217 -180.657578
289.964417 -906.822510 -247.036453
241.736130 -905.267029 -354.308411
197.781052 -981.143372 -321.749756
266.695496 -1019.380066 -218.084961
360.615967 -713.720886 -298.757141
402.519684 -595.467102 -356.986115
399.555511 -870.395508 -78.034561
357.513153 -716.427002 -308.032928
331.646820 -956.508972 -121.416176
267.045837 -867.113525 -316.064362
269.121643 -758.712708 -456.642792
404.400757 -887.282410 -39.093021
253.489365 -948.719910 -274.047699
310.463928 -933.059998 -203.328857
392.346802 -894.562195 -36.104843
241.691772 -808.972656 -461.406677
254.721710 -890.200439 -335.539551
386.275574 -876.259277 -93.395920
367.130798 -783.660950 -228.987839
358.745514 -716.747498 -335.385834
273.162964 -738.357300 -433.016388
377.066803 -877.100525 -140.093842
363.337463 -714.579773 -266.209534
274.936523 -720.114563 -461.575348
292.854309 -772.177917 -373.986206
373.351715 -805.652954 -140.344254
385.153717 -665.303162 -299.323151
222.571213 -915.669922 -360.745300
268.521942 -842.506531 -328.343201
375.578064 -738.707092 -253.922623
258.147827 -981.383972 -246.009781
345.836212 -880.964783 -193.519379
277.941925 -772.351013 -427.603943
247.961685 -958.579712 -325.735596
363.073090 -841.867310 -125.001801
250.845551 -1020.323608 -300.168365
292.051819 -904.940002 -253.854660
346.066345 -893.002014 -107.529305
294.034485 -811.290710 -331.981110
362.953278 -902.116211 -80.254707
291.859711 -844.051697 -335.505829
337.240936 -832.441650 -253.524338
291.944763 -827.484009 -348.283325
386.445190 -607.450439 -368.913177
301.725250 -887.261230 -267.247070
328.103821 -671.484497 -349.536896
403.526215 -863.624512 -68.720451
368.167480 -843.454041 -172.810715
394.135895 -915.304932 -61.707317
354.683197 -622.821411 -362.349976
322.050690 -778.513123 -305.551178
301.379578 -855.579895 -301.768341
239.885880 -888.877991 -363.315948
285.683380 -747.575317 -418.319550
374.015320 -966.352905 -62.121799
297.960327 -910.885742 -249.762665
393.494354 -590.834351 -340.355469
281.245636 -1027.290527 -111.348038
409.906311 -799.916931 -143.537613
324.413544 -780.719360 -299.810120
349.197449 -918.333069 -90.245491
334.068359 -727.770630 -358.629944
288.646210 -718.556824 -396.379089
283.889252 -1083.266235 -116.089439
360.800354 -993.722168 -49.392544
413.247620 -913.005798 -1.233027
322.679321 -823.208252 -261.855164
304.611542 -802.604004 -341.547363
365.139496 -745.479431 -265.416901
386.752899 -895.733582 -88.634758
359.556976 -877.431824 -150.933319
237.999863 -932.532471 -377.375458
357.342529 -748.994080 -238.635254
326.016266 -841.499207 -266.485840
242.854874 -919.614929 -383.435577
358.000366 -803.820435 -226.270447
389.813782 -903.056396 -96.265038
425.160950 -834.967163 -86.146530
256.380005 -1099.880981 -213.441391
359.838165 -887.197510 -147.799850
323.024811 -894.546204 -220.607361
247.836288 -1075.399902 -227.245163
391.723053 -867.268127 -82.318237
381.680725 -659.996460 -319.709534
189.990692 -915.674072 -387.563873
359.311005 -913.841492 -133.522247
273.801788 -735.212524 -442.240417
364.780975 -912.196777 -126.891342
420.173767 -782.353882 -163.082184
208.505035 -922.178589 -379.809662
375.411224 -935.045776 -80.140945
273.711700 -1082.095947 -116.342888
280.124115 -738.513733 -454.550781
165.736542 -949.702881 -345.678497
412.720459 -734.522644 -211.715469
415.075745 -858.363342 -77.360191
330.023590 -854.497986 -222.419434
233.536209 -816.042236 -399.808990
377.826019 -889.470825 -126.735909
323.699738 -808.630676 -244.905273
323.225647 -915.271606 -182.591156
267.209229 -982.927002 -249.191620
391.728271 -941.689697 -2.720384
399.950928 -931.161011 -36.692596
177.964035 -1005.058350 -289.164825
386.117737 -636.902527 -343.963470
302.792694 -961.150024 -176.626785
245.362015 -912.338196 -330.378174
336.081696 -843.540771 -255.877594
340.112244 -766.593567 -266.555878
281.055664 -1022.538513 -130.732758
307.678802 -760.196411 -351.020630
242.093948 -873.803040 -383.981049
311.894958 -850.648926 -272.060822
254.215759 -1006.270630 -244.297119
379.577728 -759.392883 -250.406769
395.811890 -676.167603 -273.672150
356.525208 -806.132935 -228.222824
235.867188 -1022.312683 -275.547974
318.987610 -1043.550171 -72.987389
283.989563 -918.233704 -268.276184
241.028305 -920.705688 -352.868134
163.651077 -948.587219 -317.711639
272.537262 -1075.563965 -119.421661
277.677399 -800.408386 -367.470093
330.228912 -884.793762 -199.092499
287.453369 -1057.209839 -132.314362
354.822693 -785.159485 -224.804260
262.205902 -806.050781 -385.622223
398.300659 -832.067261 -142.937958
215.259857 -884.505859 -436.534576
391.518341 -754.657104 -198.268173
167.713394 -1004.090149 -281.079407
312.011353 -870.309570 -243.140106
308.038361 -816.271484 -296.641998
197.885132 -1039.331787 -262.697632
202.285049 -973.132874 -331.486938
359.253418 -700.002991 -343.302490
265.954834 -1071.754395 -164.230820
224.924591 -930.458923 -388.515015
252.242493 -883.389832 -355.967224
312.561768 -778.122864 -331.875549
337.392761 -740.864319 -298.212982
364.535706 -797.341675 -221.004456
379.513855 -727.998047 -280.686340
333.609131 -927.813354 -170.035019
392.713013 -900.125793 -87.143021
410.664246 -926.013977 -27.403582
243.370880 -816.876099 -441.281097
169.444824 -900.432068 -394.507538
390.183807 -874.811768 -85.461563
262.676788 -886.096680 -337.754089
201.980698 -970.853821 -318.441833
330.547211 -799.205261 -298.100647
321.700195 -779.549561 -277.321411
330.590332 -643.701721 -388.212921
348.515869 -850.305725 -195.408646
245.183609 -906.484314 -368.331024
379.532623 -845.237427 -133.360565
311.744293 -987.140747 -133.602585
311.537170 -994.426819 -79.698486
263.821808 -1074.321777 -261.990234
240.875214 -790.136658 -471.550934
302.701294 -912.456238 -223.612610
330.248383 -1002.632446 -96.376419
304.661499 -679.095398 -422.928375
245.798370 -893.177551 -319.639557
389.728363 -779.322266 -215.926727
328.799896 -941.277527 -152.026016
374.169861 -630.601929 -306.025299
359.521912 -928.774292 -112.137161
402.246460 -828.772095 -147.453217
394.667053 -631.117310 -345.556091
418.293213 -854.362427 -67.089806
315.410156 -802.013184 -296.124969
358.899292 -690.341309 -320.475372
320.601318 -1013.654236 -73.223244
378.646851 -916.751770 -98.578224
401.663177 -972.149353 -13.130857
414.951477 -751.939880 -165.081467
403.195892 -781.694885 -182.592056
388.965668 -884.324951 -69.831917
262.187195 -1121.202148 -162.548340
234.551102 -1012.319031 -278.505035
396.269104 -700.479858 -241.507065
331.943695 -991.513550 -71.906868
248.135178 -1061.487427 -272.180542
219.314911 -976.208374 -326.227142
347.601105 -876.622253 -201.777023
280.463562 -1026.914063 -113.503853
354.309448 -736.309265 -290.508972
343.035004 -785.998230 -255.631134
240.724350 -975.029968 -317.568390
322.166412 -1024.516724 -90.672699
300.076477 -777.665588 -382.960968
201.876968 -934.142273 -373.017883
243.701309 -1045.842529 -272.058167
366.962402 -650.784729 -347.883789
301.626648 -693.899048 -393.213287
301.250427 -780.427917 -343.128815
366.551086 -846.413452 -165.178589
362.341064 -720.070129 -290.744629
273.762787 -741.899963 -435.193054
339.140442 -841.860596 -224.438278
375.919373 -794.836304 -223.098846
357.053711 -893.882141 -136.995270
256.000244 -730.402649 -477.429535
269.009888 -1080.648315 -150.225189
336.070160 -657.333191 -367.739807
328.686920 -728.223572 -382.406952
247.824692 -837.390991 -482.376556
425.416779 -932.702026 18.582745
244.726852 -837.022583 -388.246765
284.921814 -1053.422485 -129.410812
340.444641 -817.957275 -240.431137
414.799530 -647.784851 -289.603119
418.392334 -879.736206 -6.613776
385.227264 -842.975708 -163.693130
172.631241 -920.510498 -381.165009
410.763977 -723.008850 -202.127197
388.593445 -807.724243 -188.466507
261.453796 -1024.444702 -190.862442
331.989441 -824.832703 -254.350632
355.514740 -910.315918 -129.225601
409.441956 -686.780090 -281.270599
406.210083 -864.574524 -93.249504
248.370163 -1017.683838 -198.481918
322.485779 -995.359619 -135.807419
349.599701 -950.554382 -118.863510
410.717468 -871.279663 -72.058189
429.485107 -802.785034 -107.383102
269.563385 -797.994202 -381.124573
202.597900 -993.703674 -295.533783
260.853882 -753.245239 -463.706696
343.183655 -1020.186401 -59.312199
331.158539 -745.025208 -332.840698
228.424255 -985.594849 -315.188232
365.476105 -673.137390 -305.354401
353.485718 -727.498718 -335.166290
323.175049 -904.689697 -187.198196
379.948273 -908.768677 -61.939514
191.788116 -943.237183 -334.898468
309.611206 -948.006653 -192.525818
156.336853 -985.588257 -274.329193
275.884186 -806.983337 -386.148590
383.940002 -957.747742 -42.936962
266.161987 -1071.762573 -147.342758
360.359650 -661.412354 -385.178680
266.314728 -754.808105 -404.379364
339.291016 -719.552734 -306.573456
406.202789 -850.041565 -106.945717
387.213409 -760.829529 -200.138794
277.405060 -752.763306 -394.962250
380.283630 -793.622742 -192.761765
426.052460 -874.412598 -27.884974
308.467316 -906.102539 -243.916183
195.571823 -969.833130 -327.110535
313.114441 -995.661743 -134.672501
309.632782 -887.533936 -238.554794
272.056061 -885.109192 -304.586884
271.776611 -1042.906006 -179.964111
331.111176 -974.081848 -55.312557
375.989532 -831.678162 -154.113556
304.131927 -943.761169 -190.475784
171.983368 -937.828491 -345.287598
231.970001 -781.197083 -490.860321
400.077087 -727.910706 -250.068405
323.937347 -858.221863 -240.299362
391.688080 -793.283325 -168.094055
262.798370 -1002.335754 -215.239197
349.631348 -893.380920 -177.697708
307.571320 -985.294006 -103.809029
318.648895 -852.096375 -258.709381
320.577179 -904.449707 -197.456802
393.468719 -664.277710 -277.770660
250.633560 -1061.956421 -242.065598
307.196045 -847.199463 -241.008011
366.354126 -875.797363 -148.508987
314.535889 -856.287109 -257.957397
390.740875 -816.294128 -159.411591
296.654663 -826.515625 -335.856171
331.629791 -880.940369 -198.399261
254.075195 -810.370789 -374.558014
197.965332 -895.310913 -420.319336
163.079620 -891.070618 -389.638367
340.891357 -913.475220 -178.125916
215.736465 -892.422241 -432.896271
404.609772 -763.661743 -179.132889
192.517334 -934.830994 -372.660339
365.324738 -649.869812 -323.766785
338.360107 -974.462585 -111.025703
295.563293 -896.176514 -263.831268
258.084015 -909.771729 -271.527191
362.622284 -794.919128 -250.985260
345.273193 -734.657043 -305.254425
316.794891 -779.635193 -350.250793
312.483948 -808.730225 -269.397644
400.521820 -759.638428 -174.557556
235.560715 -848.754883 -430.777924
409.879486 -697.906494 -229.494873
389.835541 -639.182495 -313.169861
226.570709 -973.144531 -311.371735
342.337311 -967.292236 -93.327507
262.126617 -956.988953 -254.607300
287.688477 -707.332275 -433.109863
402.507324 -837.385986 -111.518166
230.883270 -941.936462 -360.119110
231.145004 -1016.194214 -277.827118
385.362122 -896.522705 -98.567612
344.481598 -683.933655 -311.703186
252.726135 -1074.048096 -119.237137
400.835083 -828.434143 -142.511993
315.884247 -922.213379 -139.287659
337.706543 -691.996033 -360.902100
413.968964 -704.138916 -219.709457
278.036499 -1006.637634 -192.630463
379.599030 -848.496155 -140.610626
400.055634 -850.760010 -110.826126
297.552704 -749.189941 -375.961090
343.647217 -908.858826 -155.669678
284.108368 -896.820740 -265.570740
256.316376 -1018.602417 -233.311142
243.894974 -939.056763 -294.104980
231.232834 -925.618591 -411.013092
340.011169 -656.548828 -401.257111
417.679352 -599.721069 -327.804077
291.656921 -839.548889 -302.130219
320.704102 -750.551636 -335.312622
360.712067 -700.955322 -323.850677
375.337463 -753.512878 -242.001144
326.079254 -826.699646 -251.760681
247.850739 -803.734070 -415.954193
419.638184 -613.021301 -315.949951
354.316711 -849.673645 -203.825012
355.167938 -825.991516 -169.585190
409.533142 -868.748352 -88.658714
325.330902 -952.901489 -168.748657
356.466370 -719.354614 -282.498627
399.090393 -948.103821 -12.617082
422.670563 -725.354065 -199.094711
199.338852 -964.487305 -336.888306
356.160736 -761.342529 -268.288452
387.581879 -827.057373 -119.209312
299.984589 -865.760376 -295.629944
407.186859 -712.668396 -215.818085
179.245895 -961.346558 -343.940918
199.859131 -973.318115 -327.550018
389.429901 -925.241333 -56.343159
309.920074 -1054.765991 -99.582397
320.980347 -858.197876 -227.464645
328.272400 -718.856873 -333.052063
360.534027 -760.024902 -253.005188
374.462524 -758.455750 -237.716797
236.841888 -960.051270 -348.681366
365.303589 -925.506775 -88.349808
352.376282 -986.653198 -72.396400
203.651077 -1002.709595 -287.681702
322.349518 -787.635620 -327.450562
277.523468 -878.750549 -316.729980
381.633789 -759.829102 -222.002167
289.254364 -799.745361 -347.737701
234.940765 -893.149780 -458.657532
406.943359 -781.094360 -165.882828
299.482697 -876.705688 -255.397552
282.747284 -982.896118 -189.244263
237.962677 -1051.636353 -277.838135
246.458664 -818.068726 -379.569916
395.577606 -771.235413 -191.014969
198.625259 -941.171997 -361.508087
247.488449 -863.199585 -357.805695
241.341339 -804.809875 -421.822937
253.090576 -778.890503 -458.105743
170.910934 -975.585571 -299.048065
281.504364 -1045.332153 -156.132858
292.584259 -809.150757 -317.949249
282.794647 -917.211121 -277.699188
225.756134 -976.946289 -289.434723
351.420868 -970.513855 -52.781387
272.619995 -725.760193 -436.574860
379.643372 -897.777466 -88.865402
398.087646 -879.024170 -64.415482
217.144165 -1006.298767 -296.031860
231.772415 -764.323364 -478.456604
387.064117 -612.590759 -337.577362
278.162018 -1108.716797 -239.579391
246.252762 -998.027588 -263.465210
257.664978 -1059.469116 -278.135529
359.520172 -995.987061 -46.780338
424.832458 -933.674377 6.079940
339.534882 -967.676453 -110.822060
326.612640 -781.515137 -333.238647
365.091522 -776.813782 -238.050278
400.331116 -947.732117 -17.993382
274.572479 -937.604492 -271.208252
425.475433 -923.446167 25.555273
321.519318 -759.963074 -361.079437
333.931305 -1002.234436 -104.198692
257.987305 -836.965881 -365.747559
312.451416 -705.038208 -441.628326
360.447662 -945.225830 -104.080620
401.663086 -787.370422 -127.132622
341.343689 -737.825867 -288.251831
231.239304 -792.218445 -434.144104
300.596191 -911.073303 -254.001999
331.545074 -802.860413 -297.029480
321.139191 -851.604553 -232.210510
386.007385 -602.086365 -380.702087
374.031281 -850.509644 -147.160904
367.280914 -927.034790 -99.814209
378.045563 -682.412964 -277.078949
408.383728 -745.891357 -194.411163
428.624725 -846.925293 -65.203369
398.176239 -885.620422 -56.760841
431.441376 -862.660583 -39.917923
312.670441 -982.765015 -95.429710
250.431610 -816.460510 -396.821808
284.572937 -723.191101 -436.873779
358.435181 -685.357239 -331.758392
361.524170 -788.665833 -258.895355
397.560486 -662.499573 -310.793610
412.497101 -881.490356 -50.067917
409.170715 -753.331299 -197.480148
376.926514 -943.059937 -29.728474
321.122955 -754.044678 -358.133148
295.393005 -796.843262 -374.677979
241.839005 -859.327698 -486.278046
318.191986 -786.002502 -295.633759
365.246399 -922.837402 -105.057747
328.131653 -827.421387 -258.484833
382.291748 -773.182922 -207.802124
232.589203 -931.438416 -385.967133
362.044250 -875.325623 -175.619614
351.513672 -864.863647 -137.035507
330.913696 -676.715149 -406.640900
324.968750 -879.637146 -212.080322
328.850311 -892.262573 -201.332642
377.107758 -659.829773 -354.726746
337.519684 -715.998047 -369.541962
278.840424 -1054.010498 -130.507645
371.522400 -730.651367 -290.678528
248.191452 -806.342224 -441.949310
171.370209 -932.654114 -357.097870
357.528046 -780.997742 -244.181366
242.539581 -1047.246460 -192.555618
393.866974 -928.386292 -59.553978
274.809570 -942.455200 -241.175522
322.664764 -788.182617 -321.788239
356.802551 -723.716797 -332.450043
352.141663 -895.562927 -174.442474
347.983490 -682.529724 -377.669281
372.922424 -753.822449 -240.855408
236.123367 -814.287048 -444.993134
355.101715 -778.362366 -229.512970
416.175995 -781.696533 -157.044922
301.636200 -797.915894 -325.636597
320.117004 -791.711304 -296.522491
328.095551 -1041.552612 -70.071800
419.711578 -801.114746 -120.915764
295.163208 -836.076782 -268.605530
376.790955 -950.191772 -60.182793
238.773743 -911.573120 -341.394653
427.089935 -828.624878 -87.640785
309.717773 -873.396606 -257.528015
315.067017 -1018.580200 -127.006142
412.294586 -745.245483 -186.194077
284.881073 -1043.877563 -139.249313
351.457062 -914.683716 -89.466187
262.747437 -895.622375 -303.788818
327.290375 -812.173523 -278.400116
248.884872 -861.804565 -434.260864
241.177643 -841.341675 -391.324310
207.992294 -992.443665 -309.357300
363.365417 -987.782043 -54.444798
393.081390 -812.665955 -145.387512
236.060287 -932.713013 -330.650604
307.324493 -860.395935 -258.652161
388.124329 -734.739990 -255.769348
263.061401 -1103.509155 -159.240509
263.672668 -1019.570007 -253.172073
408.300568 -945.466919 6.815732
411.604126 -778.445435 -146.813370
298.057983 -844.099182 -288.418365
263.728149 -1015.205688 -174.842026
330.349487 -678.457458 -386.195740
242.403244 -801.261292 -449.484833
263.810455 -716.237366 -424.914703
314.934937 -773.387817 -305.866486
303.567413 -1038.841553 -117.588974
251.445755 -911.941833 -282.798737
377.837097 -900.808960 -113.017921
370.099243 -826.435120 -187.309479
423.723175 -688.848938 -253.362350
338.634552 -1002.828796 -96.615089
313.468506 -863.439148 -273.500214
176.271530 -972.632080 -319.290222
277.591003 -1014.197571 -172.908096
416.122620 -771.995239 -151.609512
349.591431 -759.412842 -303.138000
396.705811 -943.231323 -24.318945
347.075165 -626.309143 -373.538849
411.185822 -952.100891 -4.042774
306.770386 -997.944153 -123.262024
241.235901 -805.042480 -414.758728
370.571991 -938.462280 -6.056311
309.545929 -1062.831421 -99.794319
175.288208 -918.323425 -388.122253
205.340851 -946.965088 -356.621857
368.406647 -759.639221 -220.032944
345.111450 -792.190125 -278.210022
261.920471 -906.129333 -284.051575
286.634399 -957.141663 -208.510468
357.657288 -886.590515 -161.877258
259.977509 -992.981506 -267.614655
205.061600 -928.271545 -390.854980
320.141449 -989.362732 -116.902382
401.730377 -948.702026 -21.938219
266.177826 -911.674622 -289.803284
415.878662 -857.851685 -68.964607
289.974091 -868.210388 -274.154510
422.695099 -857.322693 -65.967896
344.819336 -966.687073 -106.492653
372.010986 -747.322021 -274.824158
409.040924 -914.766541 -11.055833
272.453369 -1064.156250 -143.780441
280.915619 -906.879333 -285.371857
420.975586 -591.155518 -345.310486
405.234161 -819.015076 -141.740433
305.026886 -715.400146 -424.733429
390.296417 -756.147583 -240.719971
328.024048 -1010.465393 -101.494186
306.901947 -887.069336 -238.358994
256.061340 -1004.299561 -200.666885
345.986847 -926.386536 -149.711121
350.246887 -697.299622 -358.080627
278.770844 -1068.474609 -94.413284
268.596405 -1099.660400 -209.309708
352.113464 -951.514099 -109.238625
177.153366 -988.273376 -288.834717
276.765930 -917.371155 -261.614105
241.344666 -1052.349731 -274.053772
275.597717 -1081.728760 -126.595993
346.163757 -663.279114 -325.221130
280.420319 -881.245728 -274.929504
292.714081 -958.246521 -196.893158
275.327026 -1034.088013 -174.708923
310.920380 -703.191040 -397.620514
200.536636 -909.263855 -383.316315
248.310135 -770.053528 -420.836670
400.518158 -885.719910 -41.200935
296.286316 -1029.100464 -89.614326
317.017212 -761.073486 -301.019257
307.596924 -780.594299 -301.927826
420.485748 -686.986938 -240.682358
379.825806 -683.015076 -321.601196
369.873535 -896.437744 -128.588303
314.342285 -926.499573 -188.604492
413.747772 -615.048035 -336.293091
323.230225 -847.858276 -236.594955
379.654144 -691.702209 -323.372314
392.228088 -861.784180 -100.977478
355.635468 -798.670837 -194.536316
326.944580 -895.522217 -194.136932
286.005157 -739.966309 -403.977844
285.066742 -756.235535 -394.153076
