ply
format ascii 1.0
element vertex 1368
property float x
property float y
property float z
end_header
668.655029 -303.531555 -478.463684
758.805115 -291.681793 -364.666840
668.696960 -438.462006 -536.770386
823.375549 -412.156158 -333.362274
822.442322 -370.515381 -282.238251
589.492065 -215.164810 -533.922058
787.182861 -516.023438 -435.779999
645.463257 -464.172791 -659.376160
741.398926 -549.873413 -528.677002
848.895203 -492.746582 -313.362366
581.420593 -297.629333 -612.773987
599.553345 -558.281921 -552.433289
641.258606 -206.295670 -497.633881
752.325500 -338.709320 -393.904480
746.980408 -396.254181 -440.001617
615.540466 -295.869080 -572.878174
679.626648 -286.601532 -454.799744
737.366394 -494.752228 -498.942627
657.444031 -440.474213 -550.147400
716.977661 -301.368164 -397.225098
864.296204 -489.057037 -308.318634
850.496277 -382.790497 -293.601654
858.013245 -626.310730 -401.630066
672.309082 -272.869232 -456.269684
684.319519 -573.385193 -531.122498
841.718140 -550.636780 -360.957214
675.891174 -587.069031 -538.461670
760.131836 -292.258026 -363.303223
640.787231 -551.928650 -554.099792
647.140503 -517.531738 -600.077881
659.935303 -176.776520 -472.446533
585.887634 -311.539001 -593.228210
614.013489 -413.732025 -611.679993
631.054260 -310.967133 -516.925598
599.410400 -377.064148 -617.289978
768.901428 -541.988647 -456.187897
846.380005 -577.265320 -378.578766
748.548462 -478.997284 -454.793884
588.447205 -198.101990 -553.060181
855.114746 -516.020813 -339.202850
636.172668 -273.072510 -494.692566
662.801636 -302.722351 -474.090332
837.006653 -408.128662 -309.015381
603.643799 -312.297089 -551.329102
757.609985 -358.312927 -395.415680
801.919922 -377.678894 -311.193970
848.135437 -483.080536 -336.391327
704.576843 -509.977875 -532.669739
648.939026 -551.214294 -568.356873
605.209961 -236.796692 -535.252686
857.892151 -594.261963 -375.377563
640.961182 -444.155151 -622.699280
647.171509 -439.420074 -577.746399
844.727417 -406.242218 -309.795746
849.103027 -379.720642 -271.445251
649.783508 -493.140747 -602.101624
606.697754 -363.672150 -583.354553
617.106079 -192.164246 -517.260010
730.910034 -335.572083 -434.431244
586.640808 -185.197647 -571.831543
701.975952 -300.391632 -416.494141
838.793579 -562.976624 -349.869843
895.486938 -441.120178 -256.796509
876.040771 -449.527863 -255.766281
636.684692 -557.020569 -571.105896
852.618591 -514.646423 -324.629333
772.161255 -398.029480 -406.050751
638.899292 -186.366791 -487.263123
820.956482 -555.797913 -392.493530
636.037109 -225.783493 -511.874329
626.782288 -380.907196 -564.433105
695.311890 -424.442230 -522.555786
825.357422 -359.455170 -294.599274
661.560852 -265.551910 -491.907074
684.424927 -607.982422 -521.291809
700.663391 -286.265472 -455.384857
635.446106 -190.393921 -469.083954
582.399902 -244.035583 -577.980164
615.830139 -270.483490 -531.770935
821.057861 -456.512207 -340.850708
847.242798 -504.164642 -332.324402
680.967346 -433.130829 -514.245239
804.447876 -380.879852 -334.214630
555.254700 -307.009949 -624.956726
814.692200 -520.480713 -391.270966
861.210327 -441.160004 -266.327728
781.119751 -463.157562 -404.797394
731.330505 -293.213226 -396.787903
800.926514 -595.427551 -435.044128
699.119202 -480.078491 -521.041138
895.860718 -428.668579 -250.582764
691.623535 -301.238495 -430.307892
773.365173 -510.455841 -435.866913
895.179382 -429.223022 -236.173630
788.573242 -398.342133 -372.233246
663.129517 -462.960785 -568.848145
698.335754 -291.288971 -438.450439
655.479187 -387.039307 -556.155884
550.600647 -380.738922 -673.744446
711.071106 -289.385284 -443.493744
863.760498 -587.431091 -366.737183
786.590759 -332.034668 -350.320801
784.333435 -436.008575 -358.858368
692.568359 -267.473785 -410.122467
641.167908 -346.329834 -540.145142
815.219299 -545.861328 -418.149170
610.489380 -254.699295 -498.852661
624.299927 -351.809509 -564.449829
865.793335 -483.339691 -313.851715
653.890259 -209.136093 -453.489288
812.255188 -342.777740 -309.767090
628.895020 -210.920410 -516.167114
706.032043 -273.204468 -421.614441
769.804993 -468.057098 -424.637878
685.298584 -469.420685 -534.886047
619.003723 -437.769806 -605.533142
622.736450 -274.261230 -543.406372
665.240540 -373.605835 -512.441772
695.716614 -353.673157 -462.845856
673.136108 -367.486908 -503.373871
840.052673 -439.367706 -332.437653
656.365845 -251.303940 -467.742737
793.193054 -410.586212 -372.917023
579.268677 -230.593094 -576.395447
784.521484 -579.088196 -458.135803
847.927429 -638.139038 -414.044830
753.772095 -473.161652 -447.723907
551.218018 -332.288605 -637.890625
731.473572 -439.684723 -482.584839
742.557190 -328.689697 -413.970917
658.975769 -593.285767 -531.591858
624.810730 -488.294647 -639.064636
715.253418 -387.703735 -421.404633
711.752869 -466.077881 -507.972351
578.052917 -293.215607 -585.572815
794.907349 -477.069305 -397.787079
748.201416 -412.375885 -445.764221
612.661255 -255.015518 -525.144836
797.594543 -615.836548 -505.531799
878.641235 -492.726501 -295.093536
858.868774 -486.923859 -319.134064
751.441528 -559.099365 -501.013458
784.695068 -478.747314 -419.612244
584.617126 -312.736511 -586.944336
679.255127 -545.516968 -550.849609
757.547424 -373.920929 -395.506805
603.472961 -379.982880 -592.229919
669.418396 -511.863800 -595.154968
616.053711 -545.696716 -581.237732
893.725342 -450.705811 -229.306412
724.711304 -512.574158 -493.205078
863.386780 -505.424194 -314.114258
669.789063 -476.370697 -547.917542
624.424866 -203.858459 -512.631226
840.387329 -529.535400 -364.824310
708.389038 -443.377289 -484.383148
607.143616 -356.707397 -551.608459
809.100952 -536.374634 -408.890686
782.086548 -465.717651 -375.005005
725.189758 -516.855225 -528.330383
693.378784 -521.396179 -591.760132
599.866699 -309.527191 -582.666443
833.050842 -504.116028 -351.079773
656.611084 -224.947662 -460.920197
848.754944 -600.463074 -386.909912
732.743896 -433.899475 -425.715515
644.945496 -265.231049 -501.059357
825.574829 -350.358398 -301.785156
593.889282 -321.565765 -580.077148
790.853027 -454.669128 -403.362152
682.736877 -324.966095 -469.992615
803.718506 -619.560730 -492.132172
687.521484 -246.060959 -414.107605
706.914917 -429.363464 -483.988159
770.387146 -376.051971 -372.985718
814.269287 -434.772705 -356.453064
789.129578 -479.839783 -419.100891
719.239929 -345.941895 -428.050629
796.395081 -468.906555 -402.166626
876.160706 -545.432800 -331.839355
617.719604 -346.768768 -589.099915
769.544922 -310.561066 -365.439209
859.727905 -499.259064 -302.257355
727.442627 -601.126831 -524.820801
754.219299 -514.483337 -476.392609
579.416626 -244.546005 -568.295654
748.195190 -361.336823 -376.007751
699.735535 -290.484833 -458.308167
759.676697 -325.371429 -376.623474
839.338501 -397.052246 -280.464447
597.896484 -500.276001 -613.586914
659.506836 -449.505188 -533.542725
563.329895 -255.388519 -573.804077
664.401123 -300.751251 -458.301544
878.218872 -476.484924 -287.313293
781.589722 -551.141663 -456.322479
658.556396 -573.539490 -562.278687
669.026184 -347.723572 -499.832062
695.639465 -283.265289 -431.361694
808.810181 -602.491333 -435.667267
856.177551 -525.411682 -344.558624
658.859558 -317.614655 -474.001099
666.483643 -233.113480 -438.982574
855.528687 -599.474915 -391.898468
643.999817 -297.152802 -505.860809
584.261169 -321.228973 -574.343384
633.345337 -331.627686 -562.259155
753.815308 -373.048187 -400.221802
563.612976 -371.869873 -627.398804
685.194885 -308.443665 -463.336731
764.885071 -624.447266 -515.738647
805.220764 -382.637299 -335.820099
744.923645 -388.091003 -436.624115
653.604919 -388.057617 -538.520386
676.451965 -544.298828 -572.142578
670.032776 -284.773376 -441.600372
835.800354 -634.094055 -466.783112
635.789795 -510.406372 -593.708679
710.466248 -492.389038 -527.869385
740.537476 -350.258423 -396.824402
576.566284 -295.010132 -592.789551
840.053223 -609.963989 -395.832428
580.817383 -209.828323 -568.512817
811.410645 -348.935394 -324.644531
772.187073 -340.224152 -358.457275
583.275513 -304.210388 -609.239136
696.275146 -367.078491 -470.426025
608.652649 -380.970917 -604.080750
853.829346 -477.579742 -330.035767
598.713928 -220.011124 -511.541748
687.192017 -502.839722 -585.023621
573.984985 -220.855270 -569.584167
708.590332 -526.956543 -546.084595
654.169495 -571.790283 -557.787781
615.431030 -398.597595 -563.642212
776.060852 -357.853363 -325.782715
719.407837 -493.077332 -491.886749
806.011292 -340.515015 -328.643799
665.934509 -535.186340 -565.841980
860.227051 -564.796814 -348.911072
734.463806 -499.786896 -493.324219
859.815613 -600.377563 -390.243439
604.481262 -331.817291 -573.127014
739.348450 -292.960693 -399.754059
679.483215 -375.266418 -499.745056
595.027832 -219.408936 -535.605408
675.776367 -281.714874 -485.833618
760.013550 -605.274170 -517.032593
866.168213 -482.326141 -302.681183
636.087097 -478.537811 -645.669861
651.575806 -594.289307 -515.420044
847.380188 -463.536316 -316.669556
744.516907 -543.910828 -526.388855
656.425293 -326.013641 -522.193848
579.985168 -268.293121 -609.433594
856.982727 -447.122498 -284.943909
540.622986 -362.488159 -670.749573
734.734131 -597.296814 -527.228516
670.656616 -192.891037 -452.426636
680.253052 -275.505432 -454.019196
698.995361 -219.400543 -416.268860
877.284424 -452.345215 -282.760132
701.409912 -489.314819 -519.311768
718.048584 -303.084045 -371.259094
842.690735 -566.650269 -375.977386
827.664795 -498.817780 -374.814148
634.853271 -449.925690 -616.145752
620.268494 -232.447968 -511.722687
672.924622 -465.307220 -560.341919
809.424622 -423.589386 -362.444275
677.522644 -322.829163 -482.704529
588.767517 -157.110825 -500.959808
800.056091 -544.735657 -400.948669
578.571350 -302.475403 -623.015991
871.804626 -461.910309 -288.248352
786.023376 -372.869110 -355.957092
695.735840 -595.585938 -533.217407
595.629456 -230.531906 -564.567993
777.286865 -410.118500 -407.708466
872.983765 -464.002106 -297.631287
679.679993 -595.804077 -529.982300
730.137207 -276.095184 -385.160187
593.327637 -420.862122 -669.785645
812.483398 -372.539673 -331.693695
612.573608 -316.138855 -564.882446
653.860779 -512.929443 -601.595703
611.062073 -401.211639 -609.001648
562.840698 -268.776550 -598.450806
776.499390 -401.166473 -354.108826
888.984436 -420.067200 -225.685684
824.839905 -467.409912 -347.845673
761.423523 -403.532104 -396.898285
773.811096 -461.522522 -425.951477
799.665710 -596.320251 -525.677979
638.934387 -563.548401 -558.973694
814.389221 -394.870941 -342.283844
701.766296 -390.921326 -492.071808
870.397827 -418.817871 -283.779694
832.650696 -629.950928 -411.290802
691.325317 -422.035004 -497.659546
755.244873 -490.254211 -463.777863
705.318542 -237.497925 -430.094879
847.770813 -438.077087 -314.972137
768.717163 -479.136261 -440.837555
576.267395 -261.011353 -611.088806
835.955994 -432.975708 -335.608612
668.892212 -224.922775 -446.305695
586.226990 -267.637451 -569.099548
730.814270 -433.341187 -458.297943
828.246582 -392.028168 -323.402130
801.116760 -341.250793 -327.634369
837.593994 -458.077972 -340.706726
604.003723 -303.113525 -561.146118
761.736877 -619.608032 -515.876831
633.530212 -173.756104 -502.015625
628.553894 -361.506226 -546.139771
596.878662 -207.945221 -541.675354
607.509766 -252.084518 -534.605408
644.535034 -371.482330 -537.853271
874.406555 -520.069885 -308.584076
673.057068 -317.274780 -478.667603
744.695007 -273.694244 -377.117157
673.320740 -497.136749 -603.874390
690.206604 -576.243408 -539.908936
724.338867 -260.128082 -389.482452
640.018738 -581.075195 -547.148376
862.272034 -395.557098 -270.792847
682.247803 -341.146423 -480.688263
599.342346 -372.131958 -594.859619
588.858887 -173.198868 -557.928406
591.280212 -211.238617 -515.769287
718.221680 -562.530579 -544.306946
731.029114 -365.999542 -446.530945
850.890747 -585.392273 -372.023285
676.538208 -351.449219 -487.869507
856.570679 -516.172241 -345.173615
601.988281 -313.197571 -570.410217
597.656860 -218.310959 -546.113586
810.923645 -330.083710 -317.889008
865.188538 -610.046387 -376.503601
599.779602 -231.319733 -540.332092
780.692261 -536.864746 -453.457794
650.038330 -406.095947 -555.532410
735.819763 -336.749420 -402.382660
752.757202 -385.667694 -407.529144
785.127991 -513.740479 -426.138367
632.392883 -306.982971 -500.352905
736.208130 -531.355164 -529.491699
760.652222 -557.140564 -484.547638
829.909668 -354.489746 -296.939545
619.866638 -353.982910 -589.170349
789.904114 -464.721344 -384.601105
647.688782 -220.689285 -472.248596
784.157959 -332.096710 -344.336761
802.111023 -342.649506 -334.124084
638.790344 -489.931671 -636.031921
688.101990 -551.824951 -552.376404
774.751709 -300.343750 -344.741119
607.481079 -395.872742 -594.997253
773.393799 -473.422150 -433.825348
832.222839 -470.052460 -310.689270
751.665466 -371.853577 -421.966125
625.929688 -310.186798 -536.075439
629.689636 -299.263184 -509.475220
831.430664 -348.816406 -298.430756
563.225525 -309.918884 -610.543152
737.417175 -597.148926 -516.023254
789.018921 -330.338501 -326.910248
829.904724 -541.725342 -368.971161
731.382080 -306.270660 -381.419067
851.584534 -560.127075 -367.361694
719.676025 -277.788483 -395.622375
738.391541 -305.159149 -394.321045
589.585449 -343.243195 -577.884033
820.770752 -634.578857 -467.514221
773.706177 -433.229553 -401.959717
502.543884 -623.270691 -942.345337
748.284668 -289.626709 -375.872437
710.288818 -409.706573 -497.426270
874.739441 -437.793549 -273.060638
598.427917 -383.582977 -629.786621
597.216919 -198.089386 -543.920776
851.408752 -473.293243 -311.811432
603.873108 -373.993866 -607.029236
666.710022 -384.814240 -508.146790
783.443970 -493.381714 -429.491364
588.376587 -176.999634 -563.275635
626.071106 -299.120178 -559.107178
552.244995 -286.222076 -597.890259
722.709595 -504.896545 -493.665161
789.311340 -426.390137 -368.626801
709.971069 -344.223572 -465.866302
690.932129 -297.432831 -450.067963
690.765320 -419.692200 -505.800079
712.644409 -343.695343 -438.436310
771.821594 -522.770874 -453.832001
661.411133 -257.042358 -482.685669
679.198181 -383.308167 -498.959900
728.334961 -476.231781 -492.795319
662.076294 -295.781006 -501.266602
686.945557 -450.611664 -514.362122
619.394104 -441.624603 -679.158936
704.058716 -331.615417 -446.831757
656.525574 -428.170227 -567.588074
622.250549 -450.440491 -662.614807
657.076599 -395.942993 -531.939392
672.284607 -269.681213 -446.409058
826.267212 -447.336700 -354.388916
811.341125 -631.191589 -492.991150
831.056091 -496.589661 -375.844482
622.889954 -567.835571 -538.203796
606.818604 -238.157120 -540.068298
828.473572 -440.193787 -318.973572
825.923401 -484.939056 -363.164978
607.470276 -373.296478 -570.018066
727.327515 -596.847534 -527.366089
607.830322 -225.108414 -542.937927
670.909119 -526.629883 -591.354736
700.088074 -575.382629 -546.040466
620.303650 -320.759460 -534.692261
874.689209 -436.280121 -284.110626
783.234009 -478.760559 -412.615051
821.534973 -369.044464 -316.636810
777.852722 -463.494446 -408.982788
616.281128 -340.798889 -590.419495
584.317688 -347.279510 -604.335022
852.116821 -550.416260 -365.756683
782.226624 -481.245056 -412.523285
693.987854 -226.765167 -440.900909
718.266296 -583.284302 -526.057556
627.766785 -260.147278 -509.231079
841.977539 -467.819733 -337.664856
598.723755 -294.680115 -545.868286
717.819824 -321.026550 -427.685913
796.315918 -396.498627 -364.918976
719.470764 -353.194733 -438.351624
588.669434 -196.407059 -538.060303
699.955261 -614.354004 -507.977753
838.770508 -364.193176 -281.063568
712.174438 -267.163971 -417.736816
729.028748 -271.357697 -394.726471
655.012390 -297.077576 -491.492798
848.954834 -491.202972 -336.609741
822.491333 -547.791565 -410.150146
703.879028 -231.776596 -420.613434
689.717346 -310.220123 -455.122925
821.396484 -568.795288 -369.795654
646.461975 -309.920990 -536.178406
848.034912 -447.290985 -266.597351
764.261963 -437.707825 -413.256317
849.928833 -487.734467 -321.013855
804.239380 -341.877014 -328.201294
584.775452 -320.932709 -622.129517
695.261047 -334.685394 -461.946442
692.024292 -385.971375 -510.722137
649.702087 -564.060791 -572.104858
761.387817 -359.066376 -404.669617
646.140381 -492.472534 -609.525940
784.504272 -340.589050 -340.377258
759.014893 -432.236694 -418.085785
576.797302 -231.378067 -556.673462
656.715027 -301.218079 -495.580322
864.334900 -591.732849 -383.643036
700.826111 -429.333832 -509.982880
689.633667 -553.280090 -548.622375
679.040283 -365.275696 -480.215454
751.921143 -444.452179 -436.717255
620.046570 -300.389923 -539.029968
679.953918 -343.164368 -479.211151
861.927307 -535.911194 -319.200623
575.103699 -369.835785 -616.066589
872.732788 -510.672058 -315.352722
872.379639 -543.212585 -334.301331
783.327881 -522.982483 -439.359314
865.072632 -538.290344 -342.987976
722.569946 -302.218811 -413.560303
842.337097 -561.066162 -360.710846
820.802368 -341.912994 -301.384979
711.156860 -489.023438 -526.134705
671.104431 -188.418320 -461.762360
764.123291 -619.715698 -523.816101
780.907349 -349.995850 -344.798615
817.782349 -500.535736 -380.781219
750.269226 -591.883667 -512.282532
603.362000 -192.779129 -538.233521
651.065918 -506.387177 -599.627686
814.725098 -386.472870 -337.450562
826.005066 -464.525452 -353.543365
842.581299 -475.163879 -348.441010
802.376831 -450.924469 -377.204346
863.070557 -546.952881 -350.782074
783.999878 -404.866638 -380.906189
594.150330 -144.219498 -504.938507
670.210449 -281.397797 -487.166656
811.246887 -625.584961 -482.222748
679.192932 -471.477478 -535.711121
612.795349 -187.990280 -492.908813
734.972046 -564.766052 -538.522583
815.606018 -382.467712 -309.292572
789.531799 -397.414368 -369.318878
755.313538 -547.365784 -457.534210
689.085510 -210.998459 -429.735870
674.335510 -308.683990 -477.588684
749.454712 -448.201141 -405.356445
840.602417 -510.880249 -332.407440
705.990417 -246.481308 -405.131012
591.345886 -336.223267 -591.056091
739.259521 -547.544006 -558.945801
752.653687 -512.429138 -463.971069
722.449158 -518.298950 -523.690063
856.615906 -466.605164 -300.694885
621.207092 -439.374786 -585.319153
636.228333 -528.071655 -600.545349
696.362305 -516.980408 -568.802185
733.629211 -288.750183 -383.965698
708.232300 -406.384613 -492.950073
675.201294 -569.278137 -536.025757
779.009094 -471.079315 -412.794769
741.718933 -296.399261 -388.231750
826.194092 -586.018066 -391.001404
610.365356 -368.185760 -578.475403
731.973450 -301.036774 -402.354156
774.625977 -560.127075 -431.000885
685.378174 -454.186737 -527.286804
736.327881 -330.910248 -402.504608
647.441162 -521.846191 -592.013611
604.408813 -245.566650 -556.022949
568.156921 -213.118011 -591.649048
786.276672 -423.337128 -371.434631
713.187378 -471.926544 -510.326385
824.694214 -386.872406 -297.799469
888.697754 -503.132782 -290.045746
712.335449 -571.391052 -543.566895
791.483459 -307.891418 -331.239532
671.699890 -545.937012 -562.761108
673.883240 -505.799561 -553.376587
838.866638 -566.885681 -363.337708
646.158386 -393.852203 -563.961670
818.402893 -337.365051 -317.417542
853.659485 -494.026062 -333.211273
833.622864 -608.414917 -408.150055
832.595398 -477.322968 -342.926025
793.281311 -483.778625 -368.845276
599.649902 -230.396454 -546.895447
777.883911 -481.838074 -429.872833
729.317261 -267.259064 -391.842682
708.553528 -504.517487 -514.625854
663.459045 -237.083160 -449.917633
626.277710 -237.795288 -532.886047
681.359253 -257.213745 -445.064789
714.184570 -539.029968 -518.810730
722.768982 -500.947784 -499.498657
719.820435 -334.058319 -441.673370
673.568237 -275.527954 -461.298462
794.381714 -448.895630 -394.484711
832.919006 -388.891846 -312.950623
852.934692 -426.780579 -307.776611
862.109131 -480.825409 -315.127014
757.427246 -621.082642 -501.450226
678.562927 -529.285828 -555.677795
695.371826 -518.932617 -557.998352
648.949097 -521.031311 -602.068237
847.149048 -434.702423 -315.717133
674.056641 -436.697937 -527.654846
835.492676 -444.893768 -323.439301
761.586304 -492.974792 -412.701813
853.239136 -512.589783 -338.414825
837.704712 -521.852478 -365.005402
781.894409 -547.987732 -449.103790
752.779297 -525.984436 -470.691132
827.530212 -602.172119 -391.455322
592.811646 -156.316162 -508.170441
776.577026 -318.959198 -346.429901
577.866821 -282.264008 -584.705017
695.106689 -613.978271 -499.091187
765.357483 -619.289246 -520.939331
747.489136 -616.870422 -506.717285
733.389893 -380.794891 -424.491913
801.751892 -473.781219 -386.487183
777.814575 -386.145721 -394.263245
847.233398 -394.170380 -286.034119
702.124390 -254.053940 -413.242279
775.116882 -584.950623 -499.264832
706.723938 -586.354675 -538.189941
857.955566 -568.393127 -335.763153
689.258423 -345.732147 -474.431854
828.370789 -473.802429 -317.173645
751.075684 -607.973938 -518.815002
759.274353 -522.339172 -456.966522
721.179871 -289.545441 -422.778595
774.980408 -372.135468 -378.642883
668.700134 -540.811035 -564.311401
681.909058 -270.813049 -469.151489
850.529480 -527.631042 -362.122681
571.492615 -231.303879 -591.992126
792.098511 -379.840576 -352.545807
606.093018 -310.125366 -561.435791
815.702332 -386.181213 -335.306061
601.386780 -254.218887 -543.881165
709.566833 -497.978912 -507.659119
618.191650 -386.067352 -576.727905
618.132263 -291.371674 -537.251038
680.524963 -297.457977 -450.820984
750.343811 -329.150330 -404.912079
615.146362 -524.637268 -607.043274
630.574097 -156.985123 -495.146088
649.964355 -282.592651 -513.649231
561.370178 -264.603149 -581.065247
797.449280 -521.609802 -427.264038
670.628662 -344.896393 -512.075623
790.785156 -417.405060 -362.498596
785.772705 -348.496735 -344.120300
797.543091 -444.047089 -391.962830
575.904663 -330.726868 -590.978516
727.224609 -411.827850 -447.174927
582.510315 -351.893188 -600.042908
726.794922 -287.664825 -379.266357
736.314941 -607.096558 -521.102234
833.434204 -482.404480 -313.224213
689.422668 -318.899628 -464.991516
683.730896 -394.848358 -488.842712
808.401123 -591.572388 -431.409760
675.892334 -236.105515 -459.767365
577.473389 -306.134216 -626.658081
818.699463 -595.873413 -390.962036
676.668274 -391.627197 -525.078613
729.935974 -478.731445 -492.389740
763.838562 -446.132843 -419.768433
683.509338 -290.909943 -477.504852
749.550232 -523.343567 -487.118896
776.924500 -440.923309 -419.494751
679.679504 -406.857697 -516.253174
762.716187 -416.090698 -408.401886
803.613403 -593.128296 -439.354980
850.420715 -420.398102 -308.397766
765.932068 -360.986603 -378.223999
849.460571 -570.443298 -349.517670
566.431580 -324.942749 -624.518494
855.631226 -389.010071 -271.037964
715.832520 -285.724579 -413.713196
747.038635 -362.320770 -404.935913
760.195801 -447.054352 -426.653168
660.444397 -523.816650 -575.624207
812.332886 -494.687439 -375.063812
634.407471 -264.856140 -515.686523
789.572144 -594.381592 -537.052368
725.043152 -290.691650 -398.049194
651.647644 -476.392334 -637.660095
662.741089 -207.300690 -466.251678
566.514099 -223.991806 -567.689880
592.980408 -272.791962 -563.723694
802.060669 -416.224091 -372.716309
828.514954 -375.655304 -320.542633
635.712708 -380.755646 -551.970825
870.060486 -398.209412 -239.989273
812.371216 -455.382141 -376.361389
791.182251 -405.468689 -372.216003
769.725830 -431.911041 -406.679169
633.530579 -361.200745 -549.145569
789.285706 -546.753601 -428.281677
622.012939 -480.446960 -634.067139
738.334656 -479.964264 -459.872101
631.992615 -383.715515 -545.637085
831.067688 -477.311188 -357.489380
747.421387 -393.827789 -417.192505
748.844543 -349.303253 -416.877716
646.110535 -437.174927 -562.758301
710.442566 -588.140564 -526.181274
838.524292 -471.886475 -321.822937
796.820068 -596.643494 -548.062378
811.427002 -430.771942 -371.170593
653.722229 -255.501328 -500.769745
645.419922 -314.337708 -539.458435
660.764526 -587.600098 -538.379150
692.125977 -353.232056 -475.968445
687.076416 -338.864807 -469.964752
736.181702 -341.724335 -410.265625
718.438782 -539.784912 -564.627502
685.700745 -277.688049 -444.798553
748.323364 -484.334045 -457.504181
801.340820 -492.770691 -407.309845
657.309631 -481.130371 -605.992981
856.962891 -497.163910 -330.275970
729.436157 -529.906433 -536.101501
695.474792 -409.232941 -489.681671
834.493042 -599.607422 -373.359924
864.319153 -431.302032 -285.410095
596.742432 -501.726471 -604.173767
867.997742 -403.891174 -248.592499
582.479187 -323.019714 -580.699951
749.867493 -390.956238 -420.488312
846.812805 -545.209961 -341.790863
804.374207 -328.526031 -327.818604
828.110840 -537.370056 -384.375458
774.651978 -325.141357 -373.991669
892.144836 -503.962555 -285.655579
759.456238 -424.170380 -431.570374
634.827698 -264.550537 -533.169006
822.281067 -473.604370 -376.894440
706.440125 -478.192993 -483.598267
850.911011 -565.023865 -369.990906
777.726929 -553.448547 -447.995392
765.055176 -362.053711 -387.570221
807.581238 -445.574341 -378.391571
643.416504 -501.516479 -605.356079
671.925049 -326.701569 -475.518677
587.663452 -197.400406 -528.316650
685.331787 -223.772202 -406.329681
734.824219 -307.700073 -390.862152
835.244263 -365.513123 -298.929993
777.423401 -600.603333 -537.249939
845.449280 -479.320770 -295.443756
618.120544 -226.916428 -527.851501
895.410339 -402.203064 -235.953033
813.343384 -373.157257 -325.234070
586.200745 -151.202530 -516.935730
667.476379 -300.270630 -467.502136
812.654846 -478.070129 -371.103210
817.467712 -518.252075 -395.164276
746.886658 -464.568512 -423.538422
860.625122 -515.539307 -308.358765
857.026794 -414.304047 -274.812866
685.316406 -229.626114 -455.141296
745.635864 -607.871155 -526.766663
647.192505 -504.006256 -603.066956
773.223816 -413.115601 -414.316833
853.727661 -545.810303 -360.918701
668.918579 -327.558563 -513.501709
603.792969 -172.571823 -532.593628
597.406250 -182.523102 -539.237244
824.721436 -432.157623 -341.494232
604.915161 -340.336517 -584.793945
742.074829 -612.920593 -509.586334
699.418396 -240.900528 -416.992981
886.693726 -444.417908 -234.531540
863.973450 -612.688599 -371.009430
706.721558 -314.591278 -419.129974
721.778320 -307.615753 -437.052582
690.621155 -279.912720 -460.417267
662.154236 -247.512970 -432.076233
843.968872 -565.383240 -354.290497
702.916992 -370.065521 -481.940338
666.767639 -252.646362 -444.923645
821.104553 -533.215210 -355.604248
737.977539 -437.824219 -448.739014
636.814026 -241.980286 -489.837067
703.086060 -288.170959 -426.302582
735.959351 -480.123840 -444.323212
862.152649 -592.195251 -377.109039
706.360718 -465.515289 -500.371765
754.677795 -290.168945 -360.688599
892.871887 -476.236420 -277.018341
830.578552 -626.734009 -428.834045
804.428833 -474.837006 -392.837799
857.759338 -435.479828 -300.516998
781.470642 -390.822510 -366.926605
668.618103 -480.780212 -572.430786
614.851624 -537.084839 -571.838928
715.788635 -502.733032 -511.521057
683.527832 -527.027100 -576.364319
692.682678 -302.783539 -450.533936
831.540466 -439.926483 -326.543457
773.526062 -589.442078 -501.285217
648.814331 -193.971603 -456.100464
736.098877 -615.323914 -511.438904
697.197510 -301.467743 -460.789185
620.397827 -314.252533 -555.432373
601.367676 -156.690659 -526.676697
789.550964 -350.900970 -362.139587
865.621704 -395.184998 -255.829727
768.847656 -583.213379 -539.174500
841.048340 -532.927368 -369.844666
754.823303 -441.071655 -399.676025
660.312012 -310.130341 -497.969299
743.005127 -266.104492 -376.906342
609.632019 -304.444672 -556.882385
847.868469 -498.776550 -354.565582
788.252380 -486.350037 -417.661102
646.973999 -404.324615 -552.685303
612.661377 -358.751373 -571.743774
635.652588 -355.043701 -569.412476
610.442932 -281.581787 -542.945007
849.228149 -576.119568 -372.781586
765.632446 -348.773499 -394.181885
822.982239 -403.909210 -314.482391
665.526611 -534.330383 -578.816956
774.254944 -447.027435 -422.276733
861.630554 -396.860016 -275.492645
811.295044 -463.602203 -378.367371
567.670898 -368.228546 -658.749390
874.881348 -385.970642 -255.420929
850.019470 -598.384155 -390.573456
822.660583 -522.527954 -400.232361
788.030273 -416.035217 -370.782745
693.535828 -283.080383 -441.798950
705.213745 -546.323792 -547.613708
823.631592 -425.121979 -303.106842
621.787720 -401.200562 -577.456970
789.491821 -547.991882 -439.648132
805.534546 -592.698425 -442.509674
708.161438 -409.580322 -484.111023
780.828247 -419.869507 -346.784088
615.900635 -201.153198 -527.729736
628.290710 -231.843567 -515.887756
717.377197 -290.834290 -428.545013
702.451843 -293.130676 -434.274017
794.085571 -612.166931 -508.524811
627.284119 -211.593201 -487.368744
593.143433 -405.629120 -595.993408
686.044739 -450.046783 -519.099182
696.242676 -599.386597 -528.170532
711.275879 -342.142151 -427.990540
618.887817 -436.970642 -672.650024
650.217712 -298.639435 -521.578247
761.290833 -433.667358 -418.804321
647.364563 -259.400024 -513.984192
602.552185 -334.543213 -605.453003
666.123108 -285.661194 -474.893860
873.105286 -416.173309 -277.354858
703.682983 -382.106598 -467.539612
773.455750 -426.325348 -398.852722
642.474915 -219.952179 -478.289215
606.408875 -153.795807 -505.605988
845.151367 -634.206055 -492.183105
765.320923 -396.956787 -370.943481
777.190979 -464.792206 -410.960144
794.857971 -359.505188 -357.011139
698.182678 -404.397186 -510.885590
748.730835 -525.915771 -493.004395
632.883728 -535.996643 -583.186768
779.045715 -444.092682 -412.869629
735.729370 -328.993164 -424.816742
790.334045 -409.767120 -365.382019
684.211853 -544.376038 -568.182922
707.884033 -567.953491 -551.247437
753.732056 -532.987305 -495.245605
740.855713 -355.248077 -415.350494
805.201355 -505.809479 -388.181366
744.955139 -449.002594 -441.222778
686.418823 -400.849823 -502.745544
675.503357 -492.976013 -545.136719
573.672729 -206.430817 -534.776550
804.496521 -377.533539 -351.639801
667.185547 -485.352051 -545.789246
661.950745 -453.499329 -567.034790
861.228394 -468.306610 -315.454681
693.415344 -323.008850 -448.919647
766.476135 -482.147614 -445.242065
864.709473 -376.309448 -275.931824
727.483398 -291.375793 -400.918152
849.702881 -502.441315 -346.206299
692.582886 -595.682068 -529.591492
752.466309 -544.176208 -460.768158
780.552917 -412.798035 -392.703186
655.180481 -450.284668 -556.810242
788.671265 -471.108307 -412.513428
681.981262 -564.579468 -556.593750
598.373169 -281.058105 -580.889221
563.174316 -319.845032 -655.599182
607.954895 -408.730072 -620.434265
774.008728 -327.556274 -367.219330
563.814514 -320.906342 -599.460022
555.119873 -356.284119 -691.310669
862.192627 -562.257080 -347.506226
639.763184 -487.148132 -618.453979
687.429565 -448.275391 -541.922668
680.587036 -503.294434 -550.815002
654.422302 -381.994476 -528.705017
692.729187 -568.747864 -549.884277
602.771423 -318.468994 -571.857056
824.647278 -350.532257 -318.105927
591.587585 -307.330536 -575.645325
770.712280 -583.771484 -512.909912
659.382080 -213.540314 -453.082458
832.296753 -613.090271 -422.445190
824.692749 -625.394470 -513.398254
838.481567 -410.438568 -321.914948
634.025146 -456.269806 -652.402710
856.663269 -515.280762 -312.911835
607.362427 -349.464325 -574.994202
568.535339 -328.888000 -585.651306
802.514526 -508.588959 -402.506866
800.734375 -519.255249 -425.707581
678.637512 -517.491455 -580.799194
822.241150 -614.357117 -477.543640
695.737061 -248.782745 -411.539124
762.812378 -427.660645 -428.767822
761.426147 -545.412537 -456.663269
772.412537 -357.784515 -375.195923
677.664001 -223.684677 -454.297485
873.059998 -382.903473 -261.165436
632.659058 -444.732819 -605.466003
836.170288 -416.259613 -318.384125
877.400269 -435.152374 -264.515137
666.915161 -352.530518 -526.054382
739.583374 -549.059021 -499.660339
657.404236 -218.499069 -448.821045
692.213074 -293.895996 -441.582703
721.559448 -588.767578 -531.702881
706.631531 -541.679443 -556.618530
801.020081 -460.439240 -383.017212
786.069153 -487.313934 -415.753357
731.207031 -370.937622 -427.441498
746.870544 -334.312866 -393.765564
660.596191 -385.036987 -544.595947
683.742310 -346.224182 -484.673950
746.476563 -493.000214 -476.730133
761.513916 -398.429169 -372.978271
774.974243 -500.413422 -401.633881
588.435913 -198.935867 -565.918030
753.086426 -618.478943 -507.194519
745.879150 -480.086975 -471.273010
801.981812 -546.272827 -412.950867
605.723083 -504.353302 -614.122498
668.735474 -209.248825 -463.407410
850.711853 -463.722839 -321.252258
601.616516 -163.146835 -502.764008
715.092712 -621.098816 -501.830017
754.133240 -617.546570 -504.466095
646.036865 -491.466339 -606.828613
663.564026 -478.006958 -579.675720
716.789673 -568.405945 -549.548035
684.689636 -419.640717 -507.339386
662.179932 -505.053894 -593.969910
666.327087 -194.553574 -458.957794
776.897766 -411.384399 -396.789246
677.266907 -237.903671 -460.385010
829.300415 -508.693420 -378.479645
813.973816 -528.099854 -408.883636
731.911438 -585.131042 -543.419373
845.546204 -526.610596 -361.355988
685.352905 -250.586060 -436.208069
712.960449 -285.059082 -433.672455
569.902893 -359.036102 -650.402771
663.516296 -272.832886 -468.772766
789.648682 -326.836761 -331.089142
825.812988 -345.088104 -304.278839
741.671204 -440.487885 -445.213379
700.063171 -545.730103 -552.639954
755.135986 -309.742615 -377.738373
808.218872 -451.862915 -362.225220
844.698486 -474.573975 -337.360321
812.141602 -585.825195 -426.713531
815.637878 -430.513977 -337.382690
722.453674 -542.826599 -561.944702
807.603699 -380.446472 -348.826569
653.388672 -236.462952 -463.845703
818.369385 -348.867065 -316.135590
784.855164 -335.861298 -347.041962
871.777466 -395.719910 -247.674820
601.836121 -267.358917 -570.544983
677.951233 -258.420349 -451.199432
868.745300 -519.937683 -330.657776
728.796143 -433.444336 -475.988220
827.598633 -408.857086 -313.977722
709.666382 -472.261597 -499.698120
815.026062 -512.840332 -382.190887
678.733459 -264.803467 -451.359741
694.627258 -522.299133 -573.702637
736.894287 -539.634888 -533.659607
841.538330 -472.452301 -340.470367
691.382629 -518.052795 -569.247620
768.235840 -343.020508 -385.662415
785.305359 -367.061951 -318.508606
547.435730 -303.732178 -627.140747
614.081665 -548.804321 -573.176697
742.193237 -529.836243 -489.864105
806.780579 -378.118561 -321.000336
795.758972 -318.020538 -328.150391
696.977905 -328.757751 -474.669067
800.573914 -487.899689 -394.777863
633.800476 -207.914368 -480.936066
743.325867 -364.627960 -383.361084
650.348999 -432.650757 -557.347229
770.849609 -357.524750 -371.763184
842.727844 -581.269409 -385.155609
652.686768 -194.419144 -454.582642
747.758057 -446.171875 -444.014557
603.553406 -429.302582 -659.403809
644.201904 -287.440063 -529.632507
808.077393 -566.803711 -425.967590
788.512878 -314.413910 -354.803772
684.468140 -222.458832 -432.335846
728.991455 -300.839020 -394.539459
839.355652 -507.076019 -331.095093
656.215576 -533.062683 -580.384033
666.749817 -351.102539 -505.493835
732.078247 -400.164856 -456.517853
665.539246 -445.972778 -532.064270
756.408936 -337.868256 -401.334808
828.208191 -355.126495 -295.952728
682.135498 -217.029144 -448.983215
608.433350 -222.563171 -514.744324
745.082764 -476.272919 -457.737274
689.340393 -343.433807 -495.646393
852.128540 -433.427673 -303.734589
666.103394 -537.308533 -584.940491
784.603149 -317.742981 -339.726929
627.945190 -187.225800 -473.381622
652.433289 -448.727173 -543.437927
640.972534 -378.156250 -533.463562
719.324402 -305.828064 -413.315216
798.054932 -534.201843 -431.163300
677.827698 -267.703217 -419.130554
772.114685 -566.654785 -468.921997
624.165344 -269.551666 -550.453979
609.540710 -166.377213 -496.492584
847.508789 -497.446960 -341.364990
819.433167 -520.166016 -375.770630
720.757935 -277.133575 -397.231049
681.601440 -410.780762 -526.583740
668.529968 -471.746002 -553.885376
864.179382 -432.248505 -259.894165
708.338867 -318.822540 -439.141632
646.113098 -191.354141 -458.568756
778.884521 -395.726318 -379.201874
566.531860 -377.577240 -700.857239
767.680786 -458.513062 -422.345947
734.056458 -271.791595 -396.716980
689.795349 -459.365479 -531.163025
697.114807 -363.534180 -473.736755
803.459961 -520.707336 -396.341766
748.326782 -314.718628 -398.649384
754.190369 -385.749268 -399.027557
727.433594 -421.467072 -473.126251
855.931458 -465.132904 -326.709106
709.768677 -553.836731 -547.021851
837.858215 -395.219299 -290.362976
698.834534 -269.760132 -425.580963
629.200317 -174.933685 -494.668243
657.415955 -313.791290 -504.959137
605.936157 -332.202698 -570.597290
751.939758 -385.073517 -410.943024
692.922913 -566.007751 -553.995850
617.065674 -197.482559 -474.418365
692.340088 -261.255280 -401.494354
588.604126 -258.007813 -590.877014
757.855957 -614.546448 -510.415192
705.712891 -596.030334 -533.417969
784.118774 -335.462219 -350.556396
811.091064 -326.340698 -311.867706
604.276306 -428.366364 -675.220825
805.007202 -365.556396 -338.187134
728.688416 -319.548584 -383.728851
742.654724 -597.859802 -523.647095
645.587097 -180.439713 -459.043427
767.653809 -407.894470 -401.833496
763.570251 -509.180237 -450.579254
634.379333 -293.243958 -516.683716
684.901245 -229.351044 -425.124847
573.877686 -374.348816 -653.384155
863.699890 -589.150757 -379.028748
855.385742 -398.214142 -285.241364
778.150818 -400.207947 -382.310120
721.042725 -342.815338 -450.196777
810.097046 -531.375305 -405.832031
891.892517 -420.304718 -247.246582
854.931091 -643.123962 -405.402344
879.451172 -416.007660 -259.314178
757.378174 -340.837372 -392.404602
646.423279 -555.167053 -575.485046
736.476318 -334.499786 -407.379883
636.353882 -325.987732 -529.201416
717.990723 -231.489990 -405.706451
684.638062 -267.665344 -456.619171
593.941040 -212.906921 -560.896484
887.316772 -463.923157 -251.234879
749.521545 -540.944702 -463.900665
565.739258 -327.492767 -613.210999
749.237061 -316.521240 -388.536835
584.172546 -251.788055 -564.833740
849.333435 -410.013062 -291.373657
608.359863 -250.025452 -536.705872
768.405273 -367.396454 -385.770294
567.481445 -329.875732 -648.966553
794.958618 -373.265106 -363.389893
756.622742 -455.239563 -447.382416
640.827087 -316.934570 -504.193115
674.836731 -398.638245 -515.963135
720.529541 -501.633514 -515.342407
758.136597 -299.509491 -357.026398
788.527954 -538.907898 -445.421478
800.064331 -565.603638 -445.409607
756.787292 -442.689148 -427.406036
587.112793 -191.680817 -503.629242
835.931519 -458.413940 -315.970825
800.888672 -393.291077 -358.916016
637.572266 -420.916534 -566.589966
814.560425 -601.611328 -424.603088
772.109436 -464.854919 -387.805817
768.494568 -496.580872 -456.628235
798.613892 -415.330597 -381.413574
754.962097 -274.440918 -384.622162
647.285278 -311.112030 -515.812378
699.471252 -619.825623 -504.350403
760.180115 -398.536469 -405.569580
861.199585 -425.483093 -285.687225
851.154541 -608.410034 -383.292999
653.373474 -572.464050 -553.498657
851.376648 -569.266113 -365.950775
827.151672 -470.565399 -344.746033
784.999512 -336.375366 -338.017029
782.568115 -578.774475 -481.402466
672.664307 -352.202393 -512.726074
775.708496 -437.596710 -416.274078
876.161133 -458.233917 -257.597595
728.412170 -575.361816 -550.544250
700.343567 -328.173187 -452.673737
807.176697 -417.981140 -347.537018
665.847412 -559.539551 -563.009338
876.800354 -423.376709 -259.120209
813.234497 -596.259399 -444.724823
704.125427 -395.500366 -494.656982
590.905212 -164.915833 -550.531555
850.804504 -456.173431 -308.517242
769.263855 -566.537537 -496.738129
603.645752 -166.334351 -494.962036
627.521851 -408.482208 -592.607849
732.969849 -457.846710 -466.899719
705.149048 -413.043304 -477.081970
783.193787 -436.169342 -405.042786
618.061584 -411.049683 -601.138062
852.036682 -426.827423 -282.228638
720.553833 -571.354919 -546.577698
760.543945 -510.662201 -453.171936
670.158081 -539.781189 -579.211060
866.820068 -586.247437 -364.979523
673.048950 -325.640259 -507.012268
792.572998 -329.666779 -328.311127
616.786011 -411.191559 -606.476135
785.863281 -364.588989 -371.940002
641.875732 -298.429169 -532.337891
696.558472 -321.872894 -476.162445
740.589966 -586.296265 -516.968140
609.603333 -391.103424 -591.434326
791.039063 -425.774078 -386.154877
630.197876 -383.522980 -580.028809
719.793335 -337.480469 -402.549286
777.817871 -492.607605 -424.194122
756.389771 -281.406647 -361.431976
665.300781 -209.769089 -441.407318
664.038330 -435.720734 -549.678406
694.427307 -226.281143 -444.937988
822.165771 -481.829956 -351.412109
628.027222 -412.177795 -597.524414
805.628479 -453.540558 -374.198853
620.822510 -288.841797 -552.472839
669.050049 -514.674011 -592.073914
667.378601 -577.202637 -548.155151
630.849487 -577.062927 -528.635010
658.022278 -466.300201 -555.349182
850.926941 -505.536194 -316.528351
616.791321 -275.852661 -562.757690
584.225525 -292.315125 -601.188416
856.902588 -445.065399 -310.662872
848.947815 -518.605225 -351.757080
702.870239 -314.065826 -441.693115
711.236267 -610.429016 -513.847717
750.356750 -294.325500 -369.007202
867.342102 -556.354309 -343.828217
711.294739 -481.885925 -516.930298
711.442078 -578.571655 -540.609619
696.602478 -330.855286 -455.453796
708.360657 -541.656494 -548.320313
785.337402 -362.144104 -374.529236
759.670593 -542.797180 -474.538574
806.839050 -524.389160 -398.953857
868.496216 -395.972473 -272.118195
790.994446 -626.014038 -519.943420
602.719910 -298.735474 -560.433472
842.590027 -472.195160 -339.503235
808.084839 -594.812927 -395.630737
776.578857 -420.118530 -405.489960
741.264832 -352.278351 -406.358002
643.107788 -402.618164 -570.911377
780.457092 -563.506775 -481.648529
860.711853 -441.539734 -303.006897
880.136230 -523.782898 -301.799377
739.998535 -462.234131 -452.977692
775.341309 -546.259827 -448.755127
715.021118 -429.714996 -467.580414
818.109192 -509.834900 -387.624878
808.424805 -447.287964 -332.255585
857.569092 -377.409302 -267.656403
687.277283 -242.355392 -430.815552
639.623169 -488.107849 -631.000244
850.527710 -645.714905 -484.513855
843.026611 -377.051147 -291.958069
605.905579 -157.594910 -499.251801
690.960571 -502.231476 -581.073364
642.422852 -448.746429 -563.698364
620.935669 -363.399933 -550.244812
777.080505 -424.557739 -399.908661
738.066650 -358.022095 -412.852631
684.830261 -340.101135 -497.285156
856.877502 -526.992554 -332.869690
831.395752 -511.448883 -367.941742
786.578491 -373.232758 -355.048096
657.812744 -553.016296 -551.991577
563.345520 -345.790039 -656.775269
868.837646 -440.749176 -289.282440
691.166565 -422.701263 -527.092651
681.221863 -261.724213 -463.808014
833.889893 -353.012390 -292.887299
743.377075 -334.232910 -391.005737
593.383118 -266.984161 -555.356018
820.222961 -350.741425 -294.565857
746.001770 -383.662354 -433.652405
593.157837 -242.378769 -549.592651
577.784119 -212.176758 -546.810181
558.399841 -320.607452 -653.915527
700.476624 -348.123810 -461.818542
707.557495 -429.615082 -508.945709
726.336121 -450.286865 -469.313965
877.490662 -447.788361 -272.414795
773.248169 -620.669678 -505.430115
860.875427 -438.734009 -286.301086
659.226379 -204.916122 -469.683655
554.839478 -348.662445 -639.196045
573.573059 -315.306488 -611.686340
753.821716 -555.090332 -488.965271
661.095947 -256.460388 -474.074341
819.146240 -503.084381 -334.922394
754.698486 -350.988037 -410.788910
784.988220 -328.103241 -362.849243
747.506714 -322.835632 -409.814178
759.871643 -587.317017 -513.790466
619.417786 -161.109161 -519.557007
584.078857 -245.640274 -561.189514
774.351807 -392.225555 -390.598206
767.723816 -371.458496 -387.153900
714.605286 -383.201385 -450.632080
803.525940 -605.600525 -411.445526
679.349487 -483.914764 -550.885681
749.176575 -336.180573 -396.812042
807.173706 -417.364594 -362.242096
834.958679 -441.695129 -310.157043
667.149780 -335.501678 -515.772827
755.340332 -536.954041 -481.348175
860.856812 -423.444031 -288.735687
672.250854 -406.970276 -508.510651
597.242737 -309.812317 -602.999634
734.270874 -451.230133 -484.276459
796.482849 -349.123260 -314.355042
638.890564 -232.882996 -514.034119
785.738098 -546.199585 -454.468353
743.861877 -548.552734 -514.847107
799.049072 -424.362732 -361.721436
773.537231 -466.191956 -428.715576
646.105774 -272.674988 -493.906494
687.216675 -612.242615 -526.320251
682.784119 -319.602936 -488.955017
652.245605 -438.699921 -537.349487
827.171021 -514.643066 -375.633453
736.526794 -396.051453 -456.306213
718.834717 -345.370056 -430.506500
718.093994 -304.852417 -419.900848
707.021729 -411.165955 -483.061188
609.274048 -185.641769 -531.786011
809.856750 -486.630829 -374.835083
637.522522 -249.713821 -490.335144
866.664124 -432.832214 -274.253357
792.571228 -321.401489 -340.613098
770.044189 -465.757782 -418.309357
826.095520 -592.929382 -420.230469
749.283752 -281.071655 -369.971832
720.592041 -393.770660 -476.563049
863.059204 -563.981018 -352.880432
781.569458 -490.282532 -417.545746
790.464783 -317.891785 -352.264374
672.834717 -480.128723 -557.009094
841.870789 -476.948853 -342.442657
804.827515 -586.750488 -432.857971
617.719543 -362.474548 -567.298889
795.079651 -376.062225 -368.885345
801.353699 -383.548737 -349.386749
674.350891 -326.021454 -507.351196
753.956604 -521.451782 -469.053101
837.517578 -400.448486 -274.594055
732.679077 -439.386017 -452.083252
746.327393 -373.811737 -410.431885
774.270874 -531.270508 -460.477966
702.087830 -273.241394 -415.638672
570.560852 -350.680573 -648.056458
743.720886 -360.217743 -427.101227
718.425049 -422.664642 -472.600189
587.097412 -171.737381 -536.139160
788.342651 -331.974365 -354.594849
700.666016 -287.556274 -427.117371
738.304077 -543.480408 -516.289734
595.756836 -370.950195 -628.648743
643.614258 -310.617157 -522.410706
740.766296 -584.043884 -542.796204
616.566040 -491.089996 -628.101563
739.421265 -389.867279 -426.574127
783.022888 -302.107880 -339.777252
707.868896 -479.294861 -520.157593
840.046387 -519.579895 -375.241974
779.355530 -333.236847 -343.419952
799.833252 -487.133514 -354.947906
845.761230 -567.295593 -374.502930
580.978577 -257.935638 -578.304688
704.813904 -558.452576 -567.472534
728.053406 -461.328186 -474.462952
896.669556 -428.301453 -255.290497
846.227966 -644.307251 -486.423340
600.854065 -227.511093 -536.949341
830.577515 -355.252686 -312.155151
760.373291 -485.072266 -433.382263
799.949951 -537.857727 -419.300171
807.577271 -519.005432 -390.224670
703.596252 -496.074280 -538.820068
780.841248 -494.390656 -417.157867
622.243896 -374.555695 -568.577759
850.375244 -396.665619 -283.201508
850.647705 -398.066681 -272.459229
640.228760 -331.224640 -511.589264
695.791565 -412.963318 -512.687744
694.678467 -342.939636 -457.274628
782.626038 -394.247223 -373.246918
716.107056 -565.600037 -544.424622
894.363831 -438.915070 -266.041870
624.832520 -252.156784 -513.324219
692.327209 -306.402222 -455.435425
773.305176 -320.373962 -347.611176
743.945801 -618.755188 -520.734131
626.626587 -553.883423 -552.790161
741.255066 -401.374481 -432.220093
685.497009 -247.306168 -452.633820
662.428284 -298.435852 -484.481506
818.431519 -530.936707 -409.435242
754.013245 -345.871368 -410.853577
649.890503 -344.388245 -546.154358
604.219360 -230.934860 -531.497925
693.475769 -418.664063 -495.955536
759.827820 -292.183624 -362.688019
620.359558 -533.470581 -574.928223
725.190002 -490.045898 -490.708252
786.028870 -318.329529 -356.232452
743.660156 -296.097412 -372.143982
626.622192 -289.995361 -526.613220
822.349060 -549.827759 -374.133209
710.562622 -289.339874 -436.991882
792.321350 -331.967987 -340.074585
735.368469 -409.209534 -444.502808
686.380859 -286.356445 -438.609558
564.931580 -320.822845 -638.808105
831.399841 -563.785400 -390.471008
710.392456 -278.498444 -434.159515
678.394531 -411.642517 -490.876892
735.487549 -527.336975 -495.017120
825.618530 -569.317871 -414.798126
847.308899 -410.388031 -281.192169
850.980042 -405.230835 -264.796204
859.787964 -449.993927 -292.340271
807.641602 -438.867462 -357.706604
772.381897 -521.966003 -444.604523
641.255188 -456.372406 -651.910339
805.130981 -556.435547 -417.476563
834.762024 -534.504456 -377.059326
624.927490 -534.705200 -590.456787
862.082031 -474.812866 -309.633942
632.975281 -211.056839 -488.452515
862.136475 -456.372284 -311.586639
729.377808 -423.521454 -460.490845
623.690613 -452.500214 -668.294983
692.675659 -366.528625 -472.516846
802.280945 -473.574036 -381.379303
