ply
format ascii 1.0
element vertex 1408
property float x
property float y
property float z
end_header
528.793518 376.937714 -660.391785
601.103333 319.307953 -781.009888
567.531860 363.893768 -632.681824
463.708649 468.647095 -533.032471
419.732330 441.965240 -595.017456
672.894226 458.811615 -477.798981
596.818665 400.267151 -616.187622
841.464539 399.108307 -524.660583
553.885803 287.585480 -789.497864
724.381958 429.799194 -504.494507
596.452515 461.539032 -478.741638
795.293274 438.823486 -450.849426
568.068970 438.409485 -524.854126
661.239624 381.104828 -569.169495
575.567444 425.606506 -576.324829
436.878601 327.833679 -735.852112
409.905731 343.529724 -742.932434
587.670044 400.296936 -598.780334
711.067810 472.482513 -431.413513
399.391724 442.679901 -563.637634
606.319214 294.362976 -772.106201
785.287170 323.256195 -733.647217
540.214233 308.643921 -796.146240
482.953583 421.343079 -607.568237
783.972656 423.895538 -470.602203
476.639496 434.110779 -564.166504
825.769470 403.857056 -454.090363
407.250000 336.459076 -736.576538
705.836304 314.368561 -746.912781
410.075012 420.078278 -641.826782
655.755493 384.909454 -602.549500
686.435303 418.144318 -555.496765
593.564514 358.902649 -688.514954
364.213623 427.273560 -599.234680
432.985931 458.661011 -562.239075
447.974274 349.280701 -723.959106
857.210876 346.494690 -627.489990
712.274597 377.949677 -603.762878
826.362061 347.912048 -624.298157
726.657288 413.815552 -534.236450
536.158508 335.307587 -815.786560
717.825012 441.546173 -464.450104
675.465942 255.182983 -753.968445
441.977020 450.438385 -551.502197
791.246765 376.052917 -590.237610
537.055664 353.788849 -660.387756
784.256592 419.491180 -511.954620
779.379883 463.169983 -425.620300
482.397186 362.359741 -671.999512
704.093506 459.254211 -436.154205
810.176514 325.469055 -693.062561
374.973572 394.576996 -664.895264
636.049683 445.132935 -492.691040
645.454224 339.718079 -686.548157
639.654663 322.069794 -762.478394
708.894165 381.839386 -605.265198
504.340027 361.888977 -695.505249
842.718933 311.364685 -687.913940
657.346375 428.181458 -522.318787
693.818604 414.315399 -535.678894
704.895081 398.991425 -574.571594
687.255676 444.204132 -473.534363
747.122314 379.433685 -587.455505
600.373474 363.817505 -653.403564
670.134338 414.621613 -538.006470
417.158142 458.338898 -535.891479
731.601868 382.927368 -568.160889
837.896301 346.100037 -618.232788
703.461548 370.284424 -636.295227
337.610809 455.770477 -557.403259
691.881531 372.360077 -636.557312
716.393311 376.626038 -613.654541
436.474762 371.693359 -713.232239
776.844666 315.749664 -732.656616
626.500427 256.312286 -746.477234
535.468811 358.783417 -668.660339
748.438354 444.197601 -449.632019
863.062622 353.771606 -731.283447
559.182190 434.550232 -544.006775
398.753754 465.445648 -531.634094
393.369873 441.654297 -566.903259
677.295227 329.891449 -702.201843
660.738220 419.832489 -558.294739
599.315369 423.182190 -551.172852
722.302429 434.580536 -506.929138
666.650696 376.664978 -613.549194
648.237305 415.060516 -539.511902
601.328003 414.205994 -530.676086
791.710632 399.860291 -545.441956
673.972839 232.963470 -726.505371
482.340240 330.462463 -730.369019
668.891602 293.918915 -750.701416
671.749207 411.667450 -557.607361
634.733704 259.420166 -767.998108
844.491089 343.152527 -635.803223
447.274811 388.350128 -678.864502
671.166016 431.332672 -520.926208
418.405334 468.952026 -545.004761
418.364014 468.615997 -519.359497
764.673157 418.788605 -488.771729
499.664124 461.610138 -503.441986
378.711548 455.166779 -551.579163
673.726746 300.830048 -728.567017
586.915344 434.356781 -557.190674
420.824677 390.845825 -660.632202
473.929474 462.474121 -517.118652
751.599792 432.659027 -477.805359
558.750977 346.652466 -695.266174
812.138428 457.809143 -428.686890
577.848633 370.295227 -671.766541
422.809479 341.839081 -806.885925
836.264343 346.628815 -622.621643
579.509949 336.508972 -723.014282
758.334595 335.720917 -671.852173
811.537231 363.125732 -605.539856
618.845703 364.857300 -654.903625
458.268982 463.598328 -519.165161
800.470642 337.218414 -649.373718
536.091309 370.632446 -668.405151
508.170654 440.963379 -539.414795
854.689636 391.775177 -539.015381
555.342529 264.395874 -772.301941
733.151184 411.605164 -536.719177
549.010986 450.824493 -502.829193
577.519897 330.802826 -765.944153
808.217712 339.120056 -684.485657
686.891296 457.012024 -477.492676
632.243408 371.163788 -642.524231
700.831482 434.289948 -487.537415
725.787292 428.986908 -517.946106
808.443481 427.899017 -470.132965
436.427795 447.163116 -512.283447
816.881104 371.667511 -599.574646
501.391327 457.360291 -484.348175
741.283386 317.129059 -751.621826
501.235077 478.140167 -490.073303
711.791260 286.606781 -745.809326
779.861694 355.200470 -640.123047
776.553772 328.411407 -684.561768
479.465668 368.773865 -679.869873
726.953308 336.510773 -667.512573
368.329620 424.799072 -615.919373
602.796997 308.436951 -773.753052
826.002930 364.142426 -604.889282
572.936768 463.668640 -500.549622
560.569580 442.407257 -530.740967
641.395630 405.117767 -571.015076
597.880920 462.388214 -493.892853
578.059570 397.510315 -606.081482
709.004272 381.397064 -591.718262
424.762054 407.288269 -609.968994
368.905304 446.952148 -586.489929
873.033813 344.990692 -620.089478
805.942810 361.111816 -593.757629
754.849915 463.707855 -432.693085
682.112061 268.127136 -743.659363
795.540771 350.930664 -626.861389
719.980347 269.464325 -740.633484
636.188782 271.093719 -764.762207
352.057922 412.071350 -642.056641
715.282471 305.716644 -730.961121
665.978088 424.514709 -525.139221
482.420441 330.978760 -752.817383
387.338837 440.582764 -570.132019
691.709167 456.799530 -476.020660
601.778503 386.238159 -614.761353
812.284241 423.282684 -476.054718
787.542725 405.884308 -546.056335
516.999817 352.750916 -711.965271
854.786682 332.332886 -649.506897
366.483551 460.788849 -540.320496
608.871277 392.958313 -604.716980
591.575928 334.878815 -682.974792
658.016663 379.182922 -628.473022
648.941101 325.196655 -751.087952
603.383545 437.987732 -503.365051
478.415039 355.619995 -724.682007
769.026062 412.092468 -523.356201
797.983521 399.475494 -508.366211
647.282654 336.817230 -718.130920
638.106506 384.146637 -614.974548
565.338379 322.315308 -776.989502
500.771454 455.548920 -521.795410
539.951965 363.445251 -679.499207
704.633728 346.415649 -685.714539
616.166992 384.149445 -610.357361
430.177734 464.635284 -521.007874
453.957245 435.392761 -561.733459
729.605408 321.175262 -720.787292
480.251099 356.004486 -701.896545
698.950073 341.632965 -682.239624
663.262695 272.452728 -751.102844
417.769806 443.248016 -598.941895
593.826477 378.567535 -660.767456
385.629211 423.374908 -637.438599
772.133728 444.252838 -444.797394
796.305786 414.611633 -478.162140
655.636597 437.774445 -502.625488
441.520599 418.978668 -600.937134
754.864624 388.179291 -581.492615
722.722168 466.573914 -436.640167
844.885620 356.520142 -603.958984
516.532898 462.420746 -496.973511
798.548340 327.029114 -714.963501
806.295654 458.377075 -427.678345
437.995789 458.428253 -524.599060
426.755951 351.900177 -734.622009
479.991791 415.778076 -594.504456
631.845947 422.573975 -537.818176
763.697693 454.003296 -446.597839
655.665649 259.893829 -752.191528
657.787903 452.679565 -483.413605
472.241913 424.718048 -609.053894
767.282715 405.614563 -541.343018
565.138916 364.697998 -636.697021
819.351196 338.048279 -598.172668
750.953857 418.613403 -527.908020
696.693604 392.903534 -535.504272
549.210999 339.383606 -812.158203
571.765137 451.041534 -535.188293
769.389221 360.357178 -624.492859
769.804565 385.520264 -576.431824
513.830688 447.649445 -523.837097
484.295044 439.564911 -576.449646
757.793945 309.550262 -730.704773
689.310303 339.807617 -741.191711
610.409546 409.780243 -557.272339
447.350647 372.830414 -708.183411
741.618286 454.314758 -433.024597
817.204102 333.089630 -642.744263
605.918335 398.429443 -595.179321
499.272064 411.802979 -631.466248
528.493774 470.807220 -503.461182
698.165100 419.123962 -522.092163
742.493042 387.711243 -589.041870
645.456909 404.288055 -589.074707
450.245758 435.199036 -568.498657
657.493286 348.515228 -664.203247
755.094482 397.281647 -573.044250
592.956848 447.942780 -517.557800
851.367981 328.924835 -653.779602
833.338684 328.166138 -648.144165
578.883728 435.374603 -525.303406
643.837708 463.935028 -456.895172
830.169495 352.422699 -569.742798
633.037048 265.689789 -760.761230
440.638123 466.991699 -541.004333
484.743011 353.326843 -820.623352
428.580353 487.321228 -510.731812
735.346008 469.926056 -437.722809
500.930237 340.259125 -814.629517
488.863007 366.611847 -689.402771
653.645813 375.140747 -637.703247
594.581360 403.930756 -578.428528
807.498291 442.972687 -438.350555
545.452332 366.394409 -663.272095
467.503204 336.490601 -722.161194
612.620422 352.124329 -641.410095
678.568604 454.440277 -484.240021
758.634338 387.981934 -564.243347
609.013794 389.798340 -616.884888
531.205261 393.558289 -629.480835
529.791321 412.071045 -584.885498
511.591400 457.265228 -543.480103
763.025635 381.200653 -590.505249
429.867706 478.913605 -531.864319
634.879883 440.885742 -491.305237
540.596252 374.682678 -674.239258
586.132629 301.821289 -758.189697
733.907532 304.520782 -741.743958
587.078552 300.861877 -778.236450
844.027832 342.594666 -624.886230
532.885803 391.922241 -645.398926
513.722778 469.580261 -499.451630
786.973145 403.487122 -485.567963
671.405029 467.620392 -449.653870
819.853455 379.433624 -515.347473
438.790070 381.853546 -652.661133
671.485901 437.410553 -495.063232
683.536316 431.585114 -526.647278
430.692932 354.821808 -728.861694
417.532471 385.300964 -678.538574
487.359283 346.238861 -738.435364
431.564941 351.521606 -733.244141
695.132080 302.802704 -739.710510
599.140015 338.459137 -758.503967
816.376892 440.528442 -468.372833
760.971619 446.363892 -440.862305
578.724854 466.396088 -473.053131
516.143311 349.390442 -705.590942
558.566711 323.321686 -741.402161
594.910278 455.917877 -478.971558
416.388611 405.387817 -633.051758
636.250549 356.958923 -624.578796
665.922302 450.348602 -503.638031
639.659912 448.173615 -509.749054
614.326599 422.547791 -551.952942
691.160339 448.223480 -438.377838
678.993408 379.524597 -603.498474
457.744141 445.409760 -556.899170
477.407562 336.128387 -720.972412
383.114929 386.754395 -734.199524
746.090881 328.557892 -646.958496
599.648743 336.317810 -745.258423
845.960449 399.196228 -512.349182
456.088623 340.816620 -765.112549
639.489746 359.131500 -668.440308
439.499908 444.759491 -515.221680
728.544250 302.723694 -730.056458
639.305725 412.157867 -555.128601
367.696686 392.999878 -658.611694
617.456726 257.361267 -748.867676
596.162842 332.769379 -752.827820
711.167603 367.642365 -604.693848
449.119263 328.237701 -775.102051
666.253967 246.730530 -748.768738
462.715973 458.870575 -550.889038
689.975220 361.124298 -632.443115
550.654785 406.885590 -623.335144
432.268951 368.574188 -724.806580
609.221497 349.889832 -698.729858
545.926208 438.817383 -564.094055
426.378510 384.673370 -705.606079
564.361145 445.523010 -510.343506
592.364380 322.195435 -714.863220
496.480011 388.109222 -630.616089
812.262695 385.365814 -545.254700
710.274170 297.369293 -738.275146
666.153503 402.021515 -517.461548
660.584167 437.298035 -511.902039
590.215576 384.234314 -646.767578
799.878357 330.910278 -661.224670
764.523499 286.986115 -725.901733
420.643951 389.437866 -639.003906
665.558838 459.012115 -456.749207
644.512390 331.018768 -721.498474
571.480591 314.136017 -789.846802
627.802673 449.223206 -483.724060
699.649658 448.022614 -481.886414
808.824890 403.331543 -498.257996
661.058167 387.328278 -586.796143
564.636292 471.363617 -474.791687
433.205078 431.655853 -617.857971
759.767517 462.336761 -442.045441
825.907715 418.007751 -486.130463
661.934265 402.892609 -590.188110
570.998108 329.203491 -782.830139
742.784790 300.258667 -736.121704
602.112793 456.788269 -483.565918
708.301208 434.213715 -515.102417
578.345947 445.007538 -506.697327
745.701721 413.431976 -503.315887
643.345947 467.538940 -454.115265
866.312683 342.000000 -714.324829
715.895142 452.480713 -443.407440
783.773865 466.820679 -419.935577
753.575073 292.875153 -726.373230
539.013184 456.817627 -475.986664
825.008057 427.722687 -478.661530
436.074249 465.129791 -512.803650
585.265015 419.757874 -583.792542
782.986023 308.739136 -739.153625
737.539307 406.049164 -561.893372
832.512085 377.644989 -570.686340
727.675781 335.515381 -715.271484
761.601013 449.330200 -429.990265
763.194275 361.693237 -619.618347
853.985840 378.104767 -566.110962
735.782898 346.493195 -686.083496
751.987915 313.767303 -734.386047
665.817566 289.209167 -751.373901
585.846619 468.484589 -476.437134
753.984985 457.648102 -415.580475
698.927673 380.342957 -594.319946
382.859741 481.270905 -525.787781
596.235535 267.001556 -764.844482
660.891174 389.200897 -585.232300
442.699310 344.438202 -754.859924
627.412598 443.743683 -527.574890
457.997009 379.171570 -647.580750
836.814636 413.756134 -481.289063
534.150208 434.382690 -543.750122
705.363403 392.765625 -571.698303
526.872498 354.965485 -701.203796
585.348022 411.686249 -541.500366
448.225891 438.222931 -591.339478
713.732605 395.219025 -579.888123
832.848450 377.679810 -575.160828
402.727631 383.395691 -703.989075
689.817688 405.386749 -552.784424
408.398895 335.596802 -771.192749
690.140930 378.746216 -618.333679
755.305725 409.021210 -539.857971
471.405151 384.568573 -657.838989
421.528748 336.287781 -759.965454
566.963135 418.780884 -570.770386
346.858246 486.470978 -561.995789
467.723389 347.899048 -744.784058
443.085236 355.645935 -829.193237
603.958496 391.927368 -626.564148
773.107178 413.645203 -473.963287
753.869812 452.722229 -455.459900
474.148254 351.389740 -734.161438
467.046997 461.167023 -550.615540
395.850830 354.838806 -746.772217
741.146301 446.702789 -424.900330
659.723511 417.430542 -539.747253
458.109772 399.931122 -643.816406
813.576660 394.111481 -545.641113
812.304016 443.004944 -458.236786
644.589355 423.394196 -538.505249
774.177673 441.873535 -479.170837
633.703979 283.716095 -757.939026
443.749420 393.796539 -647.028687
539.479675 457.893463 -532.824341
557.381592 327.100708 -804.195068
485.009857 388.536652 -642.357544
574.895630 282.083099 -766.928284
400.818207 433.439972 -620.475037
447.324554 453.026794 -572.635559
485.776855 428.191010 -569.018372
429.463928 432.185638 -551.938293
720.828674 381.396210 -612.214111
422.426605 452.471619 -528.029968
806.275818 341.290649 -749.176941
851.684265 334.109192 -645.026672
653.268738 387.989685 -614.184631
536.258606 455.314880 -538.958496
396.374603 472.195251 -545.488586
620.276062 380.388611 -641.244568
470.240967 424.612854 -557.808350
625.679626 262.509766 -758.170898
828.563110 382.968964 -514.457336
597.089478 401.481445 -609.139832
641.952759 378.722565 -629.880371
766.913086 418.804993 -452.196533
691.372498 409.983185 -549.592041
562.965515 377.440002 -639.600830
776.355896 340.259918 -729.734558
677.835083 392.455475 -581.579712
834.825317 324.963257 -617.756531
674.954163 386.726044 -609.352661
597.527100 304.657532 -776.929565
532.800598 397.780121 -645.903381
704.634888 417.699982 -533.396973
625.268799 448.765137 -514.036499
789.656128 334.902802 -612.620605
597.467468 388.449005 -633.374390
689.883362 441.282990 -470.436890
382.571106 434.406433 -626.017334
444.550537 413.906158 -571.606201
700.656006 294.074493 -724.141602
550.740295 399.091248 -564.021484
366.012939 467.894470 -564.414246
577.563599 439.785736 -551.470642
417.681335 341.988739 -755.156250
827.731873 367.715363 -597.583008
465.664001 463.356750 -541.072388
421.943542 352.252625 -735.954773
613.109680 242.027786 -750.746277
777.940491 347.019806 -637.517456
582.417419 464.686462 -478.666290
486.709015 448.910706 -531.224609
843.515259 330.962738 -664.196899
715.052551 448.248108 -476.265076
533.138184 319.659149 -758.756592
544.739502 324.612915 -731.552917
587.539795 447.237915 -521.315491
657.963318 455.410522 -497.104431
683.091187 242.298309 -728.320801
610.638184 337.691498 -689.951965
583.516785 375.665161 -605.771973
444.268005 441.693024 -552.187744
858.152222 357.014923 -610.440796
700.441956 311.944305 -743.715576
447.736572 479.246185 -503.785400
784.914001 421.873871 -437.514557
592.345825 444.386963 -502.920959
838.258423 349.266357 -617.702026
432.931427 363.688232 -707.378601
509.749146 346.364075 -809.289246
497.867828 434.816132 -558.711426
546.666992 441.802826 -554.216553
642.260986 399.839020 -588.667236
574.950378 469.197021 -475.989441
649.447144 470.759735 -461.052521
596.364990 339.884247 -671.117004
541.245544 404.753571 -589.269104
830.284119 436.921692 -465.107208
693.461792 391.435730 -585.400391
754.756653 310.064880 -745.565491
742.070862 444.065369 -465.058594
647.168274 425.435211 -534.637207
821.565613 375.424561 -555.095947
654.971924 463.226196 -477.714355
594.046631 406.703857 -585.842407
647.518677 401.830505 -597.438049
631.459656 391.686401 -614.934570
702.444641 365.230438 -611.932129
790.216919 325.938385 -675.043945
775.436951 348.652283 -654.676697
829.397827 342.800598 -730.163452
675.101624 375.613525 -629.206421
733.057251 456.712341 -457.754822
822.411438 415.173492 -437.651306
680.690674 276.960175 -750.862976
780.598694 447.711182 -423.568451
678.325134 446.680573 -483.223114
523.610046 409.384338 -593.974243
431.870331 434.051300 -605.880310
819.371033 377.887268 -551.707947
814.353760 447.885864 -405.331848
746.600098 439.235352 -489.239349
533.056458 331.538116 -752.682007
644.003906 279.801758 -767.859070
425.151001 403.055878 -666.563660
457.114746 364.112793 -727.644348
553.113220 456.990967 -474.716888
715.975586 306.917328 -739.182983
449.422913 454.213013 -521.329834
782.560303 430.064148 -464.333374
480.727661 385.721497 -650.874146
703.853333 258.687958 -727.345276
640.004456 244.540939 -758.289612
586.324219 406.028015 -607.475769
611.541443 226.636139 -744.297729
597.111328 391.770905 -604.840088
724.748535 335.162842 -688.351624
782.025146 363.813293 -616.027283
401.424896 412.852448 -658.741943
705.084351 456.241364 -475.451385
687.100281 413.503265 -554.763733
666.270264 395.398499 -586.987122
460.576996 397.159698 -634.048096
600.888123 365.565002 -646.732239
444.529175 344.003387 -764.593628
688.802002 470.793762 -439.950256
461.765625 402.372253 -637.829956
691.477539 402.622131 -557.410889
751.724854 471.894623 -428.215393
464.940826 395.630005 -661.031982
833.375610 322.725281 -632.046814
475.632416 357.663086 -736.365784
693.997314 424.360596 -479.654602
845.493286 338.514160 -723.767456
599.166199 393.739594 -568.599426
615.417236 464.394562 -462.353699
560.995972 398.975800 -601.598938
582.900940 316.008118 -767.005920
508.283234 473.971771 -506.447632
669.942749 270.967529 -754.146851
801.323120 415.205750 -438.934174
669.482056 387.931305 -604.647034
792.034973 338.501984 -639.397034
677.914734 236.382126 -727.051453
467.356659 343.583344 -728.418091
356.088531 449.589417 -612.187988
559.212769 315.833954 -751.452332
401.594421 454.880707 -549.570801
844.487000 331.082031 -637.651855
843.591370 440.780060 -442.179718
595.250000 320.761139 -775.567200
421.973297 376.416473 -684.594421
417.244263 371.142700 -702.650269
692.103516 368.408783 -621.021790
562.515320 305.412140 -797.855225
468.622559 380.978424 -663.757446
744.110657 463.108887 -439.930603
606.663025 328.974396 -710.367981
489.031311 335.043304 -781.455505
692.218994 402.211151 -580.355164
595.080566 386.993347 -603.038147
659.859924 458.554901 -466.537628
685.758484 293.404327 -738.437012
587.994202 263.491333 -770.931519
822.150452 377.532928 -555.785828
763.862488 421.778503 -523.019287
820.105713 350.617584 -590.485168
416.372009 356.123138 -733.278076
516.884521 421.968842 -579.288513
470.833588 427.564392 -604.474670
770.656372 322.866516 -654.138000
759.624634 407.374756 -544.902039
345.941620 453.731018 -547.157837
673.649658 343.876678 -703.044434
475.556671 468.884094 -525.268799
742.292358 419.573944 -506.343903
657.695007 313.820007 -745.745728
629.255188 337.095764 -730.447021
789.717712 333.493408 -720.349670
795.620544 431.896515 -475.360901
438.409424 411.051971 -629.210388
723.069336 320.445831 -730.676941
644.885498 466.506836 -455.190796
497.266907 411.647430 -583.570129
526.157776 392.751556 -612.657898
470.302521 468.122894 -504.798920
637.661499 444.143097 -485.247284
463.584778 445.317657 -572.949524
787.032166 450.819672 -420.015411
690.087646 357.497803 -646.329712
809.040955 360.087219 -608.161072
601.640625 244.822174 -760.890259
766.555847 342.513214 -651.466858
455.178955 431.678406 -572.185120
685.114685 325.833527 -736.983704
856.671143 392.498688 -544.666748
672.480225 333.034485 -760.872986
784.613831 381.668671 -516.451599
759.590393 326.830048 -692.339233
381.502625 398.365448 -649.494568
629.041748 228.760345 -734.846191
735.083740 357.224060 -592.359436
510.051849 377.498108 -654.456360
462.398529 373.813171 -676.577820
637.467285 371.418732 -650.683838
792.524292 382.848480 -576.817688
572.112976 373.168488 -643.878296
473.902649 360.213684 -663.062012
374.203644 455.179260 -565.442810
797.698364 457.622345 -434.854279
560.146423 390.826874 -620.399536
462.522400 416.857208 -600.963379
544.212524 404.987640 -600.675720
481.034912 455.225281 -506.010162
765.624268 330.450867 -672.966370
625.740417 420.324036 -570.261841
541.182495 388.452026 -626.282959
611.554199 361.717133 -685.720398
516.631165 394.232086 -633.238098
903.526245 337.222870 -665.280151
744.376221 437.321747 -466.025543
473.846161 449.531586 -543.072327
551.435852 329.202576 -737.601135
610.885193 322.910370 -764.728760
522.842407 470.595856 -483.621674
413.283325 425.281311 -612.718628
763.941956 382.373016 -581.328308
681.627930 349.018005 -659.319275
644.582764 451.214691 -506.022064
430.792023 426.204498 -628.993103
841.343384 416.375214 -495.781097
585.732300 272.865356 -777.866516
583.315857 344.213531 -714.178284
668.892700 279.103058 -756.224792
605.928650 366.474670 -643.956299
419.324371 471.021027 -542.921387
676.387573 309.496735 -748.242554
538.212952 376.019867 -680.200378
544.945984 456.639954 -496.237122
764.322266 278.392242 -722.345520
433.042206 377.923920 -682.978027
653.670471 422.910553 -537.419189
362.712067 402.520630 -624.308167
710.785095 282.590210 -743.630737
354.640747 450.341949 -558.651245
626.342224 452.504028 -494.704865
765.824524 465.404175 -433.394928
746.734131 424.737793 -523.215454
582.715576 409.190155 -574.303650
690.468994 468.939148 -461.036804
546.247498 432.600159 -552.365967
786.248962 410.707825 -456.690033
423.535156 442.317291 -576.112915
718.408936 462.040863 -456.415833
366.383270 422.066803 -608.560791
517.877930 358.373077 -671.576782
502.442444 454.383636 -523.448059
749.565125 336.766510 -749.071838
781.747131 398.980499 -521.206299
578.186951 468.372314 -477.670319
618.637878 287.964203 -757.008911
385.979248 459.688568 -568.852173
423.941650 412.034912 -647.549500
738.885742 360.206085 -632.155579
543.274475 467.619354 -488.240967
595.159851 445.375153 -515.028137
658.300598 384.981659 -625.643494
587.171204 436.293396 -556.918518
588.148987 343.166168 -692.298889
350.956177 484.651428 -558.881531
510.485809 381.482788 -648.681641
636.462891 470.450928 -450.912994
797.661560 387.392548 -560.862427
492.921631 453.134247 -529.551880
507.130524 396.823090 -621.133057
794.196960 364.283630 -548.700195
554.994324 382.442627 -662.756165
816.669617 324.560272 -666.923462
876.869263 339.700226 -697.156433
635.377808 332.206696 -760.952515
367.479584 464.872833 -569.915222
785.548645 333.040100 -699.585449
720.749878 361.836121 -581.907593
414.963562 349.100983 -766.677917
387.932983 370.703278 -703.027405
592.300903 374.738922 -635.900452
714.826721 291.644379 -735.578369
609.249512 252.480957 -760.800537
393.772766 415.051453 -620.909180
671.206909 405.839386 -569.047241
712.516785 360.588409 -632.246033
663.646484 245.476761 -735.741882
798.619019 348.705231 -621.849121
554.767395 424.494720 -564.352661
494.119507 336.803619 -726.858582
460.683807 434.576813 -601.689941
587.141052 332.427063 -770.938232
710.444153 332.124146 -722.870667
558.799805 440.407135 -551.582642
464.103760 379.495331 -650.576843
586.110779 269.418976 -772.892212
678.206177 435.438202 -511.326080
390.881104 439.572205 -582.531555
635.198853 476.383423 -454.493958
349.544098 433.004608 -615.537292
608.584717 352.709045 -671.196167
395.041412 440.187714 -610.862915
686.008728 276.909088 -737.528015
581.987366 415.848389 -550.534058
710.710754 372.994873 -622.399841
651.477722 448.242950 -477.526001
763.587158 336.503998 -749.620422
393.150848 405.882904 -666.493774
690.537964 249.833252 -745.623840
676.762024 436.957977 -524.208374
726.766724 424.527679 -519.901672
665.259521 256.239594 -757.473267
518.004883 362.940491 -663.078186
785.581970 444.468719 -453.216217
503.673309 398.609070 -583.744141
734.260925 458.772552 -448.542511
643.674622 246.922974 -736.973877
591.040894 397.447754 -621.137695
391.215912 388.009766 -667.482361
470.084778 334.198151 -801.890564
665.794128 428.527924 -468.869446
769.396606 397.970490 -549.004089
701.253540 293.524078 -740.804626
815.946655 336.577637 -645.684753
479.479095 468.834564 -525.765015
703.756042 383.278137 -596.763062
537.580444 317.246307 -803.726624
694.140808 426.211914 -506.151184
621.722900 434.005493 -528.761902
539.485046 361.101501 -681.920715
470.080475 460.671875 -513.767761
756.355225 359.454895 -637.036377
497.020294 414.434540 -593.384766
669.409912 457.094696 -451.933838
415.701141 417.208435 -610.314575
584.536560 458.825867 -481.535736
391.089020 460.254517 -566.865845
779.835205 462.955780 -408.221893
480.243591 363.765930 -711.263855
834.995789 393.260468 -535.702148
767.677734 429.088898 -499.450348
521.650513 340.789459 -716.843750
673.820557 434.532471 -511.279938
713.594849 382.223297 -589.165222
588.367676 344.377716 -712.207825
398.459534 394.560242 -689.688782
373.815002 445.170441 -609.368164
573.763977 475.327209 -470.027954
711.209106 301.953430 -745.236816
483.525696 351.105103 -708.930237
649.462585 452.589813 -486.192871
457.001404 381.479919 -648.618286
571.380554 366.375031 -651.389160
537.203125 435.592072 -509.053833
598.765015 441.018860 -529.790649
441.683167 404.087402 -625.854553
794.744629 446.421326 -456.065094
467.339996 418.376526 -570.978577
613.498352 364.266968 -650.124939
654.697205 424.599457 -493.311676
826.812012 396.940216 -514.147827
719.733582 368.242981 -632.898560
426.855103 462.717834 -527.442322
604.810974 430.359192 -533.046509
670.820251 378.678986 -599.780457
719.282532 387.751862 -576.312317
494.827148 395.287170 -652.689392
483.244629 433.941803 -565.213501
378.119690 406.932465 -669.387390
867.503296 353.855255 -730.370483
609.453003 411.002625 -567.952026
816.699829 465.452057 -397.512299
513.170593 352.519775 -726.576660
464.693176 474.170471 -524.942932
477.194427 451.452301 -537.098328
572.525330 425.531738 -582.115723
548.016907 416.865906 -571.999023
778.169617 346.856049 -630.866882
787.206543 402.109863 -552.503662
763.753662 328.540131 -644.118286
662.566406 423.267578 -536.582214
665.423340 413.359680 -535.650208
534.821228 377.454315 -647.899109
846.148743 339.458923 -629.210754
676.877808 336.934967 -685.846985
541.700073 484.261047 -479.223969
866.906982 340.644562 -693.910217
782.878601 418.339386 -490.481903
593.027039 308.491211 -751.273193
343.886810 461.916901 -549.974731
669.266296 365.764954 -637.833313
496.276001 344.214233 -715.845581
602.632996 451.562622 -520.336121
599.009338 461.922729 -498.019958
580.641602 462.179382 -480.861084
797.301941 338.816864 -637.948853
574.417175 379.747009 -626.787842
638.885681 285.505524 -749.931824
838.908020 389.810608 -526.472229
418.749786 418.819580 -607.671753
665.900452 398.853577 -583.838013
756.315918 462.802765 -425.188934
516.532288 365.279144 -710.789307
745.203979 380.602173 -589.190674
863.319397 394.372650 -531.512817
860.559387 359.508789 -594.771057
504.229614 443.721191 -570.223389
404.505280 454.483185 -544.656372
742.333069 271.498932 -734.095581
439.634888 475.709534 -532.852600
523.419250 428.987732 -560.332397
645.179138 454.897919 -448.859711
783.666748 351.739868 -624.333374
572.784058 473.458771 -468.715851
833.202454 356.575317 -578.026917
521.256287 461.666351 -506.112488
533.463623 383.086670 -638.256592
484.257172 442.460876 -571.868164
427.925995 460.880035 -520.733215
473.283844 412.730682 -546.098450
593.116760 434.908905 -521.749084
440.949432 406.205841 -626.619690
462.514801 447.809235 -568.535339
427.278412 434.294800 -607.280151
574.625549 358.324554 -677.321960
560.565918 345.915802 -800.716187
533.544739 452.467834 -530.083801
710.104004 431.536926 -519.327759
850.657104 335.441345 -627.366760
619.427124 445.297272 -466.552887
521.761719 430.307465 -554.064636
581.400635 430.187531 -533.876526
515.884216 410.544312 -625.378784
411.591095 375.187073 -726.682251
515.450989 365.652466 -658.990967
437.920166 452.978180 -576.432739
684.293518 307.972412 -736.217651
513.007568 454.064911 -487.232452
584.446228 356.602142 -658.996399
634.978210 372.953064 -635.468689
770.976929 309.451843 -735.285461
515.241455 454.844849 -483.890015
844.146790 351.520721 -590.344971
525.850647 456.189423 -514.211548
751.785095 305.101929 -744.834290
774.516968 420.421478 -509.023712
737.704163 411.962402 -550.763184
689.956543 453.141510 -481.649109
790.533447 315.412323 -741.522461
707.797729 356.177002 -662.986694
681.583130 360.367645 -640.999939
455.558777 391.880066 -625.799866
347.032410 442.463562 -586.629578
443.567444 402.591339 -620.002502
578.234680 352.183563 -679.221375
785.234375 316.433228 -746.480347
605.553955 430.064636 -531.514221
735.822632 271.745636 -739.868225
589.436340 370.458160 -651.504089
375.488312 415.386444 -647.508118
756.393677 457.619385 -443.708252
771.505432 395.250519 -553.655151
462.071014 432.660767 -569.204529
403.543182 432.214294 -592.803772
525.872070 460.488220 -499.371613
783.769470 347.488617 -653.098389
638.661804 328.277100 -712.613159
665.905884 450.859344 -478.571350
591.049561 435.951416 -523.109253
678.398315 444.927063 -507.978699
489.125183 332.973633 -743.049805
538.802002 417.562897 -582.725098
605.579285 431.958038 -554.977844
440.695068 394.055420 -685.341736
537.219849 388.015900 -659.160706
436.226807 393.009003 -674.299683
528.788025 386.222900 -638.972473
817.645996 427.544312 -483.700104
499.009827 398.244141 -620.903259
410.354767 433.913696 -553.575928
664.121826 333.201324 -741.348328
677.717285 290.400269 -741.610962
495.813629 416.059875 -588.510498
809.261353 436.992920 -427.139374
844.636292 379.717133 -549.632935
651.464600 360.524933 -652.450439
719.776733 257.460175 -737.733459
718.193481 413.612457 -545.794861
798.206909 348.088287 -631.715332
580.918457 370.620239 -673.501465
637.911377 302.195221 -760.298706
372.325134 458.907288 -555.728516
485.148682 412.899719 -603.872803
763.367004 406.323181 -525.568848
746.310547 434.925415 -470.569397
608.929321 454.012085 -510.278107
400.596832 482.085022 -533.922607
639.427795 303.898254 -748.057861
729.158081 333.842133 -672.697632
744.247253 441.961884 -469.694458
478.272156 432.097748 -592.398926
662.228210 452.080444 -461.161377
574.178955 478.454834 -471.879395
721.570923 285.419281 -726.389954
389.709503 428.560425 -621.140991
478.513397 440.363678 -552.686218
647.971375 264.375793 -743.454468
413.139252 370.368988 -731.383667
831.377197 365.931946 -537.447815
590.840637 336.613312 -736.065857
796.537048 450.726563 -445.009155
462.312347 356.968018 -703.173584
768.304260 393.764221 -575.865479
701.567871 440.682251 -488.387024
728.299805 420.937836 -507.378448
647.771362 272.655365 -747.186890
385.161163 401.552612 -690.855835
694.244385 460.875488 -444.271637
414.157959 334.877686 -731.297913
551.108093 416.071381 -556.367493
686.409363 280.409668 -751.920654
421.614349 362.585266 -740.706482
691.180542 304.013275 -735.612549
753.580933 392.658936 -523.874390
731.572754 435.758148 -474.954559
814.729797 425.928894 -479.698730
470.283081 443.875641 -509.970428
785.726746 359.161011 -597.327881
726.226990 399.195740 -538.829041
523.165527 446.739197 -554.877014
796.057556 444.367371 -451.381439
800.828491 333.603271 -654.944763
630.685303 383.852173 -574.372803
679.663513 385.533447 -591.665039
519.333252 422.669434 -574.892029
786.354614 421.933105 -473.517303
782.323242 412.334808 -455.921356
712.305115 252.462372 -743.643066
652.347595 434.826569 -460.105652
722.002991 391.165619 -568.516663
526.057556 410.789764 -580.404419
710.750305 434.215057 -506.609161
641.217773 431.544342 -522.036377
700.037109 426.782471 -497.196198
684.306458 397.108368 -582.764404
711.100708 424.352509 -517.820923
668.626099 296.321655 -732.222107
632.438721 449.098145 -483.011169
602.163330 434.891724 -532.788635
842.191223 437.091949 -454.655182
384.372345 429.431702 -635.335205
397.629059 482.279968 -519.786316
822.276245 314.324646 -644.362610
530.170227 333.865173 -768.716919
782.143494 447.406342 -419.528687
773.189697 349.459106 -654.047791
667.334351 265.348267 -749.155457
472.842377 433.428009 -529.444885
739.101624 449.316528 -424.480164
668.496948 406.931580 -564.815125
563.992981 482.506378 -476.877686
564.613708 396.168823 -604.917908
707.329224 402.374481 -567.192566
761.570313 438.040558 -473.867706
522.262085 368.062622 -676.375610
738.452148 326.726410 -744.108398
664.429749 481.209076 -445.333069
656.408142 344.750366 -677.761230
442.466675 385.167084 -675.400513
665.018555 398.238098 -572.661987
729.093628 427.762604 -512.951355
659.393982 403.259369 -566.504150
420.400452 381.985352 -672.134277
576.750061 430.521271 -535.254822
471.425201 450.177826 -534.083923
533.468933 338.276398 -721.429443
579.616333 414.970764 -562.736145
649.367126 440.685333 -521.943481
725.556946 429.341736 -512.798584
526.531494 459.307495 -527.823853
618.448059 411.927185 -561.021179
746.129150 426.500214 -514.712585
781.494629 438.801514 -432.173584
797.590637 328.372772 -669.356995
552.855713 388.788574 -626.508301
506.541656 354.226074 -697.924316
821.913452 361.887146 -599.157654
738.390686 322.227966 -716.799438
479.658966 388.455017 -646.184753
727.124878 327.771484 -730.151550
634.427612 398.239105 -603.726501
465.221680 416.246368 -598.668152
711.228516 411.371368 -536.731140
495.505280 421.895752 -589.966125
631.563171 394.404633 -616.038330
437.239410 353.460175 -741.297363
661.416992 423.793945 -537.545105
698.306641 415.003082 -533.248047
819.975525 333.104095 -663.794617
415.219513 442.322021 -596.555847
493.633362 345.937469 -735.097900
824.692505 377.084015 -543.517639
460.184631 397.721405 -624.838257
457.777924 432.364532 -599.948425
605.307678 430.768799 -497.895264
594.781738 446.709229 -500.321747
480.976501 363.697815 -679.006531
737.990784 461.510468 -432.922821
780.765381 344.581238 -634.763123
778.042236 435.237152 -475.051544
531.646973 406.091827 -621.134705
592.785889 344.480865 -692.794983
658.420654 280.954376 -749.058472
646.532104 295.764465 -755.864807
534.624817 380.219330 -642.860352
631.459106 389.032288 -591.708618
738.984253 374.301605 -611.150146
458.941437 458.322113 -558.379028
719.364441 391.656616 -520.063293
614.414856 335.497650 -742.546143
659.887695 400.426178 -575.444580
570.115845 364.044159 -659.155945
630.390381 347.961151 -676.015869
444.835236 369.699799 -710.837524
367.970184 467.371338 -533.170227
836.952454 365.515381 -594.565491
649.185608 438.549347 -528.512451
748.085999 301.081085 -738.039063
525.134033 367.656647 -675.456299
629.011902 280.115143 -763.378357
506.940094 372.324310 -670.613586
785.367554 358.324402 -634.357422
817.039734 346.006989 -643.288940
853.445374 348.059814 -606.158630
620.141541 377.978027 -623.317383
776.121948 334.235718 -744.273010
382.657257 417.357300 -649.793457
717.872620 455.928253 -459.073242
434.767487 458.870758 -547.273010
696.736450 424.415741 -502.887848
741.194092 443.724640 -448.822876
561.210693 408.407623 -579.648926
648.934021 354.115021 -662.704895
714.454163 386.636261 -580.101257
783.111450 368.328705 -586.910522
802.108093 443.112701 -436.154022
753.219482 347.818420 -642.248169
694.278748 464.457855 -453.303162
573.087830 385.702332 -650.001221
586.671997 460.247620 -484.674713
390.664612 354.521057 -733.531555
637.387878 294.280853 -765.075745
589.713074 301.517090 -771.852966
587.203552 402.999939 -556.528259
601.749634 258.645447 -770.514343
477.745361 397.313568 -629.639282
764.422241 439.668457 -481.071503
676.601929 389.252899 -548.814514
757.917053 439.700409 -458.325745
786.632507 425.620239 -494.977570
542.727112 342.234589 -708.029297
710.562744 366.358673 -634.048401
722.473633 435.000885 -493.643494
433.199554 381.032501 -655.666443
797.417786 431.024445 -477.226501
824.051575 414.583038 -492.299866
789.959045 316.813629 -652.647339
805.079834 432.866821 -435.241730
797.701477 355.704773 -612.235046
575.329895 268.960510 -780.784180
602.454224 452.421844 -486.482208
554.217163 378.529327 -639.329529
366.456512 477.494049 -550.631714
646.025024 347.658264 -661.090088
757.807068 282.312500 -738.261719
705.494080 365.296844 -622.014038
715.924683 396.447693 -522.838623
390.144684 340.008728 -771.163635
623.251160 394.636932 -586.157654
628.822021 340.768066 -728.853333
435.539917 428.433838 -584.300598
693.329346 376.624298 -612.478394
587.628418 359.536194 -659.214050
505.590668 460.560516 -532.169983
685.519592 306.987915 -741.834167
563.666016 332.554016 -767.386414
540.480896 366.225830 -664.888794
599.093811 449.032349 -480.287415
601.301453 253.153183 -762.931152
734.991272 386.330627 -590.791443
419.059479 359.852325 -736.285339
765.938171 376.410919 -602.645874
749.820679 463.348724 -437.936401
812.237976 429.485107 -467.359650
766.550842 424.100983 -511.578979
678.350891 460.997223 -465.446808
686.864990 412.508820 -509.759857
610.072144 438.943878 -522.598328
463.310730 462.985443 -540.816101
703.900391 374.344452 -605.793152
342.437347 457.972900 -536.976746
787.239990 362.407135 -611.081909
756.950806 285.705566 -742.279114
602.330505 265.618256 -754.880066
667.673889 279.768799 -756.177734
441.391663 429.630829 -591.036560
838.780823 368.037323 -559.853577
656.355103 457.772339 -468.095490
777.696350 351.265350 -648.294739
660.125427 457.115662 -458.428192
576.645691 418.404907 -568.231140
609.453979 236.612564 -746.286560
549.671021 457.923645 -520.886414
731.150574 330.019104 -683.602966
641.591064 458.368805 -471.504333
566.275940 322.801208 -792.263550
390.609863 459.580475 -570.358948
727.078430 361.061096 -638.443176
671.735840 357.012543 -641.325195
700.000183 419.230133 -511.776855
539.330688 401.274658 -601.917908
370.616821 406.155823 -677.432007
610.948120 303.579773 -774.209656
800.665955 342.071381 -659.394043
662.968628 401.428467 -570.328613
577.846497 301.280243 -769.881775
621.951233 246.166428 -760.539978
430.853668 471.528107 -512.864014
823.499756 346.757568 -624.950989
588.407776 437.116974 -551.908936
754.599731 345.150330 -659.029907
689.296204 355.727264 -642.888916
842.004944 358.272034 -559.943848
834.224731 415.938660 -476.200867
839.880432 333.079163 -652.634338
856.625061 352.041565 -577.204224
599.300537 461.465668 -475.542694
480.589172 408.503113 -608.917908
615.873718 341.869232 -675.089600
418.651489 365.674774 -719.012512
842.123962 340.210419 -709.266418
667.857727 421.624329 -528.663513
851.610779 359.356964 -609.772949
609.582581 353.702728 -676.457275
602.309570 403.401215 -606.180054
681.914001 429.785065 -517.900330
743.769958 300.953217 -712.071228
624.308411 332.441864 -722.133667
817.765747 434.302643 -426.477356
592.496948 260.940613 -770.680359
620.583618 456.064453 -483.559906
597.957703 394.798889 -555.431885
729.610596 340.185059 -697.613464
598.055603 406.343475 -572.608704
629.114380 425.810455 -557.020813
554.729309 387.291779 -610.728333
582.882446 313.914185 -789.554504
828.623474 385.007385 -541.562195
801.955322 402.977203 -514.947876
677.623352 260.814209 -749.487976
723.578613 276.935120 -741.335205
592.526428 270.246948 -784.732117
514.385132 466.304779 -476.431702
594.808960 375.957855 -655.684692
493.650391 464.331879 -535.740601
625.300049 346.618774 -682.767639
839.161743 340.865509 -625.610657
519.499390 437.755951 -548.342773
735.408813 457.501495 -430.719025
663.950378 303.159973 -754.498047
482.295929 475.615417 -496.039581
699.708252 440.858185 -472.458191
740.180969 335.195190 -714.217896
536.187317 403.893005 -591.791809
367.558563 437.717438 -588.943542
712.427124 279.286530 -735.682739
456.285736 361.035950 -681.894470
719.396912 449.140961 -473.371552
538.642639 374.522522 -656.951782
415.962952 331.392731 -735.828125
672.731506 234.000259 -728.508423
382.582520 457.554932 -577.381958
720.753906 400.626343 -570.304077
818.811829 442.336945 -458.407806
648.013733 370.610962 -631.276001
822.881958 453.921875 -435.779388
709.041504 426.197357 -522.070801
728.519043 444.352509 -440.735382
559.096741 416.287048 -572.606140
633.332275 231.901794 -737.373535
696.242554 434.016388 -492.660645
558.715027 308.069061 -803.685364
788.238953 382.506042 -591.678467
420.583588 460.322235 -530.342957
740.904663 320.418060 -735.005371
730.293152 357.034607 -632.550659
553.992493 437.320648 -533.149719
406.337494 337.632050 -730.574951
643.630127 360.877899 -646.651001
851.328796 324.500275 -641.150635
645.528687 245.864716 -754.913574
719.049866 465.940765 -437.539185
763.788147 458.205872 -425.657867
553.896301 427.545013 -546.700134
761.591125 424.760101 -504.220398
550.120300 397.173950 -631.854980
410.972168 454.056519 -537.992981
527.777283 444.316772 -561.248230
471.969879 465.938385 -531.706543
402.486328 452.688751 -553.998047
819.713196 338.654694 -683.247925
484.635986 390.722565 -640.442749
629.014587 459.374054 -471.894287
548.583557 357.023560 -704.069275
806.864685 335.217865 -618.225647
382.661682 475.792175 -521.917664
676.071716 345.162109 -662.988892
661.841248 308.755585 -729.129578
481.566589 352.734192 -705.738281
473.543488 371.115692 -701.264404
828.747131 363.931305 -572.268860
674.919128 332.200958 -727.286377
514.569336 459.035431 -532.460999
808.402710 392.765137 -494.348297
563.472961 471.065643 -473.452087
737.572937 444.272003 -466.994934
504.853943 432.671265 -589.350464
469.450592 387.450439 -653.224487
799.321960 461.926575 -402.532867
517.401062 416.956604 -585.880188
717.949890 270.067200 -730.489075
501.611542 394.391357 -626.082031
379.607727 419.845703 -618.977112
791.454773 356.852631 -619.032166
705.705627 312.893127 -733.838196
728.832336 409.570618 -494.541077
713.935547 455.843384 -438.642792
600.817261 453.827179 -515.894836
513.729797 436.405182 -573.369446
671.760193 416.940277 -537.565613
816.508972 412.121735 -497.258026
633.445496 280.551147 -752.582153
556.672974 450.727142 -534.420105
718.839722 259.062866 -724.504211
776.185242 444.930359 -473.026428
705.860046 446.183014 -456.774628
600.230408 411.650879 -569.992188
550.825256 397.987457 -612.563782
602.936218 412.484070 -575.518982
716.464722 423.364258 -513.151733
505.503540 371.050293 -637.051453
433.636902 468.573120 -510.125885
547.032471 476.317322 -477.075195
478.013733 429.070099 -536.572815
407.346649 430.216095 -586.904358
578.314026 387.998749 -604.259766
474.404663 458.689911 -510.885223
448.333557 413.927185 -622.330627
508.255890 454.480072 -549.422424
678.470581 410.287994 -558.712341
793.828064 437.831665 -452.800079
727.620850 437.575317 -487.690460
354.778717 465.571899 -579.118103
870.416077 361.449646 -598.163635
691.061523 381.650238 -620.215698
521.608459 420.104645 -572.670166
702.771973 328.179718 -723.505676
674.680908 474.097961 -446.925964
521.401062 382.851501 -651.989136
682.977783 426.905426 -479.239624
728.165894 388.576813 -558.832886
823.741211 330.082153 -729.108521
745.670471 369.393402 -607.719299
467.183777 433.276917 -588.902100
644.709106 466.502045 -456.261719
668.168701 441.310303 -518.850342
612.034607 348.699188 -698.061646
529.840881 377.496613 -638.029724
621.660706 246.304474 -750.543762
615.610840 457.200958 -472.240265
768.306091 391.220337 -515.620605
790.644714 339.638306 -626.340088
608.460938 452.838593 -482.884979
646.756592 402.541840 -579.560425
486.563843 434.474213 -585.416199
833.968018 430.933838 -471.923645
401.378693 419.769684 -619.650879
355.234558 417.602142 -649.870850
397.532684 354.738342 -755.395813
912.454773 336.358826 -668.883667
843.963196 396.394501 -495.414398
726.502502 464.049377 -443.467194
394.455780 400.602875 -687.483826
672.034485 336.446045 -683.406006
660.701965 329.000122 -673.690430
530.876709 383.067383 -639.172852
694.828674 326.627472 -734.465027
541.825684 396.005402 -611.287476
441.327881 470.236969 -516.853394
730.397766 440.893250 -474.809326
763.454468 376.777649 -587.043335
715.264709 370.455078 -624.722168
607.869873 423.996613 -536.476746
691.386841 402.708038 -552.420776
528.587280 433.151886 -580.097412
588.936584 333.426483 -744.185364
743.573181 471.012390 -433.061523
691.408752 363.095184 -656.108521
778.939026 327.018860 -704.703308
733.564209 287.619537 -738.180359
646.418030 378.422546 -645.155945
709.616821 359.292969 -646.566284
653.205505 328.494659 -695.696350
420.045441 369.983429 -720.871704
706.689148 349.601196 -669.379822
635.181580 290.186340 -763.216919
577.458496 318.328796 -730.052124
686.289612 407.183624 -545.771362
368.621765 424.227417 -636.076477
629.900452 332.049408 -714.877686
624.468262 466.528259 -463.077728
375.171417 452.522705 -557.355835
793.731201 339.961365 -644.994019
472.841705 339.482574 -751.852478
449.477112 373.072113 -709.087280
451.807281 438.217773 -596.021057
498.246613 376.489777 -661.357666
696.586548 464.765198 -439.645111
442.669556 379.046295 -688.260376
679.444336 440.869263 -484.216187
461.139862 416.918701 -585.824951
826.029053 342.719543 -625.064026
685.205872 469.530304 -437.593597
617.652771 411.014893 -583.382629
490.157837 469.940216 -519.905029
514.007507 368.239563 -678.876709
371.518097 459.151093 -548.953308
537.429749 455.596069 -522.164673
566.843689 431.164612 -523.566650
592.733398 410.448303 -582.066223
678.903687 284.213776 -746.960022
479.167175 455.074707 -526.092651
679.597107 451.380402 -480.043854
405.533417 488.106323 -527.024475
653.738098 309.229523 -748.283936
829.633118 320.893005 -689.177307
397.409973 487.049377 -518.192688
821.665344 343.743591 -626.191406
582.861328 427.926605 -510.795288
742.274597 455.070282 -411.299408
649.272034 319.713531 -744.140381
462.822540 348.306427 -746.356445
650.335632 291.633789 -761.651672
488.094482 452.204163 -552.228149
702.308838 437.829102 -501.673218
559.085510 401.598419 -597.386963
686.430359 391.229279 -606.351135
641.781677 366.400116 -636.877563
836.306091 399.012726 -491.773468
534.532654 444.466125 -522.913269
338.591309 453.798859 -572.447998
860.024719 347.768616 -611.303528
861.331787 363.532745 -592.962952
614.577881 413.546021 -560.120911
371.145813 439.444214 -619.794739
395.617859 475.883057 -521.158936
716.737915 302.408417 -744.033875
640.580688 396.216248 -585.532837
744.695923 397.107727 -557.047729
760.244873 433.148773 -461.806488
611.151794 258.887329 -751.900818
580.299622 414.480804 -599.577820
797.494141 367.155975 -604.036316
488.670624 411.280121 -599.828308
693.917542 460.878662 -442.089294
464.243164 387.352295 -688.617249
468.198242 425.196564 -584.416443
495.566406 422.501953 -545.901428
605.337402 433.234985 -524.031860
709.360901 358.968262 -637.415222
423.301941 337.207397 -794.092590
811.951965 350.364594 -622.815430
815.105103 339.710754 -595.182983
767.939453 448.798737 -467.708069
748.171448 268.721741 -730.462769
472.913330 425.280182 -582.760620
665.219360 365.279480 -641.634766
512.668884 411.960999 -592.846375
664.097229 391.828918 -583.092957
715.265686 406.323395 -545.108582
792.497864 449.049255 -441.847443
512.255432 362.747528 -680.159119
