ply
format ascii 1.0
element vertex 1416
property float x
property float y
property float z
end_header
-37.879971 748.635498 -507.978607
-74.236420 710.718872 -621.143738
118.171608 787.267395 -719.730164
193.236420 862.905823 -542.228088
58.091259 784.281860 -486.053802
248.597122 887.941711 -660.779358
-98.506088 673.420410 -668.371216
159.442856 852.796387 -520.654114
203.547897 871.877258 -713.002808
114.802101 830.410767 -401.654144
26.726881 770.201904 -509.811768
-121.900215 677.834106 -591.622803
-132.792496 669.235657 -577.657166
-16.843040 749.267334 -426.543884
25.125031 752.657776 -723.840820
-91.729256 711.789307 -452.683685
-11.337627 728.500610 -623.572388
221.187195 889.353943 -453.476044
227.669525 890.948669 -533.649841
177.580551 841.992676 -620.672119
192.826920 869.849365 -566.846069
-101.560463 706.100403 -429.094757
47.246025 723.849976 -720.168823
38.384464 787.365417 -500.508118
238.316742 891.700867 -508.081238
24.081072 751.332886 -691.203430
10.667235 766.496277 -374.039398
-13.827850 747.174377 -703.161377
172.778748 848.911926 -531.085999
198.055786 851.020935 -606.773254
222.828308 904.639954 -388.217896
105.182899 815.216431 -460.998383
-22.890202 742.093079 -455.126984
-4.027830 722.350098 -662.915222
69.096237 802.524048 -421.633881
93.948906 817.092163 -411.580200
154.006165 842.909119 -567.820862
-129.938873 674.566101 -417.606262
103.122704 803.789856 -569.682068
105.497139 817.778748 -483.927765
199.607407 880.150024 -455.449249
189.179230 875.656067 -414.128540
-54.477898 711.057251 -665.861145
52.380753 664.416321 -721.222290
159.569534 838.021362 -410.172394
4.748712 768.389954 -512.670410
29.760618 788.754028 -399.521545
-105.441895 714.644653 -465.921021
193.902405 840.703918 -479.219238
52.208038 793.284546 -413.242859
177.532898 885.023132 -732.594299
-75.539261 721.680420 -406.738159
-130.332870 689.694153 -575.923279
131.851227 847.407959 -444.580750
-0.308290 752.670837 -487.737488
246.857239 893.277649 -506.777863
25.298721 747.093140 -623.072876
229.036469 885.548706 -477.533875
146.158630 827.804382 -690.199219
-145.884140 669.411926 -553.129150
152.285950 841.744812 -576.025940
256.823425 896.542175 -521.492310
-61.059170 740.544434 -472.004272
1.348593 731.930725 -718.904358
74.882393 793.470215 -650.775330
8.661380 758.889160 -598.969604
-108.636261 673.492920 -625.079285
56.233421 699.801880 -733.222229
114.536507 832.234802 -497.711700
62.104237 735.931458 -718.479492
-98.032249 692.803406 -538.520569
112.001038 820.413513 -485.210754
145.625519 838.674133 -554.040588
-155.840515 676.793335 -571.516663
-87.262672 684.128052 -630.227539
9.424550 746.778198 -581.829285
144.172943 756.769653 -729.208252
137.549500 827.980713 -647.049561
217.393234 884.413879 -401.835327
200.472061 878.471436 -429.876526
268.034088 888.052429 -561.727234
141.896622 786.513977 -735.917603
210.591644 880.413696 -490.252045
247.412933 899.379211 -504.987701
26.522184 769.653442 -590.802368
-11.998665 771.524170 -444.985626
190.115845 870.147461 -474.962738
49.424103 777.579407 -597.490356
-102.174263 678.376404 -613.443298
204.504028 868.949768 -595.266846
5.145813 753.043701 -564.564636
172.984253 855.070374 -537.595764
8.229911 783.062439 -444.023041
-127.269402 683.376953 -576.829956
40.772850 748.046570 -659.072083
-103.020866 685.647583 -659.493408
20.839121 756.638062 -563.923401
156.790405 841.293579 -484.267273
77.885582 802.805908 -550.147339
-31.269720 741.280273 -482.650238
-50.098461 728.778748 -732.971924
164.087936 851.238831 -504.473816
24.818275 798.994446 -399.658539
-171.925598 647.413879 -643.951721
-12.532800 751.789429 -709.615540
7.451755 736.762878 -640.891907
95.599243 724.748108 -736.855835
162.351486 865.240112 -376.723236
-187.170547 673.454285 -448.898102
-139.658813 696.099609 -473.726685
112.774391 837.224182 -383.432007
138.478851 815.460266 -628.889282
10.578829 767.209351 -435.807159
169.632904 840.264709 -575.137573
-9.830600 707.964783 -722.187805
244.174759 886.621338 -504.819702
43.662357 780.536560 -692.105103
167.580566 866.430908 -420.361237
-14.245997 736.197754 -602.637085
58.912113 802.669678 -499.303528
133.889709 827.579956 -622.927734
9.351279 781.172668 -373.009583
141.375656 789.903870 -732.557556
-90.536957 700.645508 -525.469055
-4.689389 726.797485 -640.025696
-54.232521 707.790894 -549.200806
68.027885 697.981689 -723.070190
-45.715874 720.907715 -500.313385
27.440380 760.316711 -565.267822
127.535278 824.388123 -526.682922
21.793890 742.309204 -614.003235
90.586594 811.719177 -458.495392
84.275612 816.600891 -421.479736
-35.795933 720.956116 -623.201111
-50.080921 756.526123 -386.149780
-129.324600 677.334106 -611.325623
107.906181 824.170776 -365.177612
-4.339560 763.079285 -446.407196
-64.357811 732.523865 -419.866882
-4.157280 743.883545 -649.719482
77.561523 805.271301 -454.515289
239.746460 871.400269 -565.614075
126.054413 831.642822 -490.715088
170.448639 865.687195 -728.242310
113.364395 811.939026 -418.399963
-154.576797 673.632080 -451.131409
30.072954 733.633606 -713.680786
115.623665 807.617249 -711.773560
-7.037369 741.696228 -554.224731
165.361465 850.711365 -554.601807
-62.728897 736.094788 -479.356750
74.649681 804.006592 -532.978149
166.911026 865.839294 -433.332397
-156.817444 659.625549 -526.911316
6.251033 749.696533 -553.407227
-136.314575 693.322021 -426.107727
175.663239 854.761108 -527.964417
-77.897186 708.361572 -511.977753
93.396111 809.816650 -522.958557
41.372807 711.108887 -732.701965
-125.703690 661.082336 -571.479492
-112.290176 674.947144 -602.705566
19.845608 739.031555 -699.016174
156.308212 841.885864 -612.818481
209.881165 850.973755 -611.485962
-12.008839 768.421570 -383.957733
139.596542 831.736755 -595.502991
86.887657 813.301697 -532.657837
270.683380 889.413086 -669.821045
-28.598564 742.401794 -461.322632
-62.645077 721.970642 -596.462097
-90.502411 712.866821 -526.369690
187.367554 854.273438 -530.401489
47.435833 707.585571 -734.565674
-63.073589 692.598206 -641.104858
13.887962 763.057312 -709.912720
102.038910 722.347839 -731.417419
179.489990 874.435730 -385.750336
-75.190788 722.518738 -446.399597
145.789337 865.965576 -725.461365
-75.544296 720.417847 -414.305878
232.837463 884.644897 -485.917114
-36.402523 693.667786 -717.555664
1.202554 746.913208 -435.377197
54.307266 797.103699 -451.875427
-121.600174 718.063599 -394.126068
-192.858887 668.719971 -472.891937
104.941383 757.050537 -729.839661
-146.675262 680.880249 -516.287231
226.041260 877.009644 -468.939941
-162.790314 667.910339 -456.853699
231.143921 872.503967 -625.974670
-130.247452 683.055725 -465.013977
191.625320 868.747925 -530.855835
99.204811 806.951721 -539.515808
63.885838 806.435059 -503.084747
-150.286057 692.516113 -435.588379
146.180283 831.257996 -540.731079
73.456413 795.465210 -607.071655
169.945877 861.838440 -524.355530
-115.610115 694.148376 -521.249023
-64.429520 732.472107 -408.524353
-19.031557 749.479431 -562.599854
174.632111 845.656250 -585.871887
133.776291 840.319824 -488.935669
-59.770786 728.165771 -539.863098
31.091511 775.711182 -557.528809
39.775394 793.889404 -394.641876
18.880262 757.196167 -605.934814
133.353317 809.203430 -505.631470
196.972656 876.469238 -435.700684
124.434196 844.466980 -446.675476
115.306595 864.693604 -733.126160
152.771439 849.247131 -479.063141
-105.688683 682.399170 -419.266754
128.690109 845.176086 -380.317963
157.388428 862.705017 -382.265076
-44.532425 721.426086 -714.829651
144.448990 845.514832 -467.630310
11.067847 740.329285 -525.440430
36.860992 776.395996 -492.931458
92.843094 787.185791 -505.989655
-174.622620 678.090454 -440.018921
199.817368 845.584290 -586.070313
-161.535492 675.162781 -516.482178
96.494667 809.884766 -469.985992
-1.079373 757.693726 -449.551270
236.330612 875.269653 -566.856934
-114.281853 686.954956 -653.328857
-94.648560 727.405334 -417.869873
37.783890 766.103027 -676.761230
-41.395485 716.406006 -729.002747
45.259659 790.168396 -445.287598
48.731133 772.632141 -558.685120
-26.343386 737.040833 -508.631012
249.711960 892.497314 -504.501740
58.060333 797.245850 -453.086426
-73.225014 699.403809 -516.684631
-17.184383 748.771973 -578.990356
31.174585 772.144104 -590.174316
155.944275 827.769775 -669.052185
-128.780685 660.818298 -627.131714
-192.971375 677.125488 -456.118408
76.151688 755.190186 -704.310547
183.518005 878.918213 -442.807312
-113.954758 725.143738 -388.096985
212.221069 863.428772 -609.772766
-22.985394 716.603882 -658.688599
204.887451 889.202576 -384.622528
173.476944 858.701355 -728.681274
145.132355 848.866882 -517.287170
98.662987 752.950256 -725.630310
187.950653 868.685974 -503.274719
271.214142 905.815979 -444.533600
90.180870 796.602051 -592.373657
-12.262733 730.352539 -419.605438
-135.970322 670.365234 -644.231506
-98.521118 719.794312 -482.380035
216.653320 881.286499 -371.103302
-163.832092 627.178101 -650.159363
-19.127747 755.666321 -539.688477
-57.734215 708.635376 -589.271606
-98.966248 692.239258 -577.840271
102.402283 842.162415 -403.473450
132.458481 809.485779 -650.255127
-25.112228 719.303284 -530.477600
-84.926682 709.258728 -474.385803
64.173225 781.155640 -565.377808
274.356049 901.572388 -488.060211
-43.727703 739.977600 -541.943298
-44.170761 728.817078 -530.698608
-112.689857 693.252930 -612.835327
-94.618774 713.812805 -415.532196
72.953789 819.932373 -377.135651
208.621643 885.188477 -390.243622
44.302647 791.575256 -508.390900
198.347626 885.903503 -401.775116
39.922398 754.091248 -643.255859
-124.291267 686.057312 -617.343506
203.762589 848.805481 -580.600281
150.540451 851.215881 -694.514282
151.533478 847.217407 -483.364960
198.239731 871.859741 -451.750519
-30.628347 726.737549 -724.385925
218.109894 893.027283 -383.394409
-92.208794 707.968933 -700.734619
131.872009 840.087524 -455.749603
111.929375 815.113159 -528.524414
3.300410 764.927429 -411.132660
95.946159 814.472107 -510.978851
-37.746750 740.908875 -533.090820
-89.135864 697.873718 -537.824280
-7.300911 733.383057 -507.463959
248.231689 868.087524 -521.985291
-31.030321 723.653564 -648.902527
162.173065 852.814392 -719.292419
187.525055 846.282593 -631.025635
-178.917908 656.546509 -519.358948
205.716019 887.166077 -408.761475
137.938614 816.820251 -732.186951
165.051025 850.199890 -526.710144
-155.813629 666.716797 -461.055695
-46.274212 738.247681 -533.301331
62.373558 784.517883 -609.292908
234.189651 882.871643 -545.309998
-151.884109 671.734802 -431.240051
6.020460 750.815918 -651.754639
146.830093 827.800415 -557.838562
74.431778 796.063354 -521.800415
-158.771332 653.495728 -558.481262
14.492022 687.306091 -720.313171
176.852997 869.522522 -395.457336
-108.339058 716.335022 -472.965057
183.318420 870.442688 -404.616028
129.221375 824.308228 -507.753784
-70.950920 728.426270 -707.940430
85.285034 790.490051 -707.133057
250.608475 895.053711 -556.199829
54.015465 781.692383 -549.489685
-12.894746 689.129089 -733.113220
-137.115189 653.603149 -667.269836
21.758102 786.702759 -399.031708
92.388138 807.748413 -465.874329
114.057198 813.915771 -529.048340
-33.303745 738.803772 -512.600403
88.868011 761.464111 -721.898743
184.308945 862.610474 -411.868347
-142.193039 679.988770 -537.980469
79.344254 804.940063 -464.721436
28.089546 766.854431 -659.615784
106.398094 801.315491 -698.873230
58.142185 798.879761 -416.654602
241.429062 869.007019 -488.567902
62.599792 811.826416 -453.772491
168.507965 853.638794 -459.532867
-73.357498 706.477051 -355.017273
160.725876 854.552429 -450.943878
-121.023109 705.705811 -375.970062
57.717819 784.800781 -538.045959
22.840790 761.176941 -569.761841
24.967203 764.376160 -614.368286
190.814163 870.711426 -393.860718
150.515839 782.291931 -732.519653
-6.735527 758.874390 -462.579071
11.550830 752.893066 -535.395752
-111.024460 688.720520 -409.773865
-15.992350 743.743774 -596.096924
109.064339 806.203613 -581.842896
119.325188 800.118713 -473.743347
-107.762527 712.830139 -436.397003
-162.506104 667.119385 -461.969330
8.191364 768.188599 -420.124634
-143.039505 686.311890 -390.766205
-128.685486 665.894714 -623.718994
10.599451 752.111694 -549.064636
-99.800186 685.675720 -678.629700
140.795441 837.242188 -460.423523
144.460693 856.788696 -705.029602
49.397289 689.669922 -730.619812
102.333557 833.054871 -454.495758
196.778687 872.997192 -700.913635
-63.462288 705.016602 -719.843140
199.095947 874.930115 -393.667053
-42.255909 725.124390 -450.056244
3.865800 696.781921 -724.185486
12.048507 766.745117 -446.109344
131.715973 823.500977 -610.262634
89.494576 759.742310 -714.287048
-10.926046 745.432922 -515.257324
-19.450832 720.834717 -631.274414
133.301941 847.124268 -410.262024
107.001549 738.291016 -726.083740
41.993237 787.280273 -422.354858
92.156296 801.520264 -612.122375
112.167381 824.750000 -720.493286
-107.245712 676.661377 -608.065857
-153.392532 672.558044 -493.634644
-78.794495 710.106689 -498.710419
-44.667473 727.193237 -384.744263
108.563042 806.469666 -573.687256
201.614838 844.082825 -597.501892
57.476097 701.508118 -719.257324
106.065056 817.510376 -482.754211
-8.428042 751.248108 -573.249634
206.204285 856.745605 -622.390991
174.631165 855.188477 -403.882294
176.749283 854.716003 -533.232361
-38.874195 731.968750 -500.987030
80.911247 689.719238 -729.606384
47.897415 799.347046 -425.321655
57.811729 799.036377 -508.690002
188.164413 869.796570 -535.465149
-35.390179 718.048462 -653.982361
-120.070145 671.895325 -431.735596
-137.631561 669.072327 -663.567261
139.073242 832.530457 -565.571106
-159.519211 673.591309 -521.423950
255.495026 887.607483 -514.780457
21.898783 747.907837 -687.506348
-10.157353 755.721680 -554.698975
154.600830 863.279907 -413.098145
166.747406 856.014587 -540.311096
-63.631489 731.548523 -418.715149
92.977600 775.928162 -691.702942
28.289944 769.166199 -594.382019
-85.301399 724.419250 -713.235168
18.438091 760.801392 -559.312500
-59.078297 712.047607 -633.992981
179.790771 857.265991 -409.072083
-110.594818 720.979065 -425.854187
179.085510 875.121643 -407.426880
-23.254709 761.720886 -378.790619
141.216461 858.708679 -378.174072
-105.263474 672.723083 -637.545654
146.525360 830.857544 -631.387512
139.155731 819.515625 -561.307556
-22.899660 745.349976 -555.513794
82.095200 805.652954 -405.888519
176.803864 847.306335 -615.083435
83.688484 801.681824 -576.181519
45.116665 789.506165 -415.791534
200.594437 891.141479 -390.680786
-148.609299 688.121338 -416.491821
18.455074 764.985962 -672.951721
31.833981 781.357727 -419.387451
25.727947 712.788147 -730.320801
-147.073929 669.199158 -489.327850
-12.299892 735.804932 -614.318787
145.264374 854.981201 -416.626678
93.728523 809.252380 -492.976807
260.221191 892.471802 -622.309021
87.320747 812.499451 -393.524994
-18.383272 724.687012 -665.058350
88.505539 800.065247 -668.160217
264.096283 890.693542 -646.943787
-91.305809 678.769104 -663.628723
57.876415 726.269836 -725.132019
212.872421 895.203796 -406.889618
127.907059 849.741760 -436.306122
106.354279 829.127991 -452.897522
219.062378 858.076965 -651.721985
108.483818 815.636841 -493.612488
246.845703 886.410278 -545.111450
-79.364090 722.634521 -691.802490
101.814613 818.247864 -463.374420
97.518898 763.698181 -717.162903
-42.661640 723.666687 -557.792480
155.225677 830.694336 -539.011597
-108.183388 677.199951 -668.231384
208.540298 884.214172 -470.108551
139.047928 814.918091 -620.193970
139.889313 826.064636 -606.360474
-50.747707 750.078430 -433.680176
128.598053 837.396729 -485.759949
-97.747833 709.760742 -418.082794
90.304710 826.309143 -460.105865
248.000717 882.640869 -618.569336
18.562706 790.312317 -413.349884
39.049488 748.825256 -722.892944
29.457903 750.259155 -643.534546
247.550064 916.388184 -429.970917
109.200287 814.153015 -524.305420
-21.363596 758.219666 -493.778412
161.788971 836.737305 -516.584045
80.125885 797.551819 -533.197205
138.918182 851.433533 -392.431549
194.624374 862.416687 -555.453552
196.534027 851.431824 -618.110107
19.101988 774.397705 -523.818176
241.284775 892.752808 -567.238342
-57.841026 709.216553 -577.809692
-127.416138 706.881531 -713.908813
12.251364 778.359863 -504.812683
88.832634 811.109863 -536.945007
57.337513 806.120544 -460.476257
135.318726 825.499512 -638.788452
-35.646111 737.823975 -473.619690
90.442749 734.530151 -730.551819
-108.454826 676.080444 -597.845520
131.487991 829.423828 -456.320435
-200.216599 672.884033 -419.142365
241.378357 908.789795 -420.610809
5.667208 726.254456 -609.808350
49.473698 792.225220 -414.623169
197.334290 842.818481 -659.702759
6.595222 740.978210 -424.653473
209.657547 888.148376 -380.559326
119.395851 830.757629 -431.347809
-40.286274 730.345825 -702.047546
175.785995 855.920471 -520.603455
151.648834 821.525940 -584.299866
97.487267 776.921997 -710.709351
254.475677 906.921875 -483.462860
-42.545731 709.664001 -626.906860
128.049988 820.696289 -618.441345
189.421387 869.688110 -550.721130
-136.342529 684.675110 -423.326843
243.822006 888.064331 -599.891724
-115.273308 676.192444 -585.827271
253.041153 894.058105 -587.885986
-5.321696 751.252502 -600.784241
183.250305 868.948303 -482.086060
-132.657364 681.867737 -582.038818
-8.750884 762.675659 -385.946655
101.100677 719.463196 -718.997314
89.227806 784.492065 -629.514099
234.997574 882.378540 -520.300964
-176.573669 651.062988 -580.129211
173.544739 871.636902 -456.946075
248.363007 904.037537 -397.338928
-117.628067 677.872620 -498.028229
-4.726509 759.005127 -436.755920
64.935471 782.605286 -626.724548
-79.009544 705.691467 -474.783234
218.043457 877.360229 -489.936646
128.426376 837.513062 -461.723877
135.481537 844.300049 -493.225037
104.995537 699.538574 -723.954346
62.999718 733.210510 -729.827820
118.498589 844.074280 -394.791412
106.612320 785.326111 -719.611389
-107.543083 718.681458 -373.612091
171.112427 861.638489 -437.229401
-80.446602 692.286621 -474.190857
-105.997536 693.847961 -554.047668
79.043762 755.027588 -717.240784
209.336899 879.441711 -411.324951
50.691784 805.021362 -433.841827
84.570457 818.649292 -390.910156
-108.684540 707.684692 -482.951233
-15.282185 740.417236 -533.403015
14.390459 751.459778 -709.809875
57.363659 787.462463 -551.500122
261.597443 899.531189 -526.320374
239.602798 881.398315 -484.893890
-54.263718 720.905273 -525.101990
123.041512 823.932617 -539.997009
0.326064 679.083740 -724.978455
247.983459 895.392090 -501.997833
68.378113 802.894226 -473.189636
-102.920425 688.211060 -482.294952
144.840836 783.294800 -735.218445
-62.663013 695.688232 -479.290955
103.206169 832.259949 -377.981750
239.395813 903.820557 -703.390869
48.030060 739.756531 -732.356628
102.994919 828.133667 -413.807312
220.207657 879.487122 -528.779297
-77.111732 708.373047 -511.213806
60.299427 815.581360 -390.017059
254.141693 909.249695 -378.301788
-14.271541 771.296509 -410.275055
-53.176140 711.579102 -588.509705
-112.239243 712.732971 -484.179749
200.784790 880.892151 -443.197327
109.030251 791.119812 -555.152771
-39.369877 730.540100 -502.561798
130.292374 794.887756 -713.306702
209.495804 879.629272 -498.366852
-64.830284 708.105591 -483.335114
-123.827332 684.688904 -598.455627
-118.598076 672.254150 -436.659576
213.999985 861.191162 -593.375977
110.481102 821.221985 -460.224243
58.302795 802.625732 -426.141846
23.648241 726.343689 -718.072632
-192.391693 667.569275 -414.573151
-18.803846 698.907654 -726.295837
-93.896469 683.455444 -568.083008
-155.444534 676.832214 -516.360291
56.837414 779.212952 -587.416687
239.966629 906.899353 -436.709412
166.464828 876.626587 -711.356689
-44.041462 722.437500 -539.758362
-138.463135 672.587585 -522.668335
221.721466 871.174866 -561.159851
145.126129 832.107117 -538.494751
192.751404 871.809631 -488.684509
-150.020325 669.049011 -574.394836
146.256897 816.703064 -662.142151
-164.850372 682.801208 -473.621582
-139.755936 667.522156 -457.993134
90.247818 818.853333 -436.351563
-11.740092 731.694824 -571.951538
-151.085526 678.891113 -516.350159
-149.496063 656.875183 -582.055786
-35.718945 718.770447 -571.059021
41.386017 747.571167 -720.753357
95.485123 800.782654 -429.008606
-2.705922 764.453369 -433.443665
94.726875 809.700562 -719.323608
-46.094944 696.356628 -631.276489
-33.135490 749.766296 -424.839905
-139.698837 678.277710 -461.180328
154.049728 868.580994 -386.370483
218.286514 845.307190 -558.734985
-3.858892 690.286743 -726.538696
-61.336903 737.469360 -499.856018
125.265671 730.200256 -719.528687
94.280655 817.885376 -467.797699
-91.513695 708.240112 -591.796997
110.182617 814.368774 -686.983704
88.620987 822.558960 -390.107178
13.268500 781.347900 -394.223602
69.653419 728.856567 -714.491516
108.247711 801.929993 -604.902649
-38.788807 726.468567 -573.202332
-64.751221 698.134216 -622.603394
89.552879 796.399414 -639.384827
-170.907028 676.595703 -390.371948
157.769669 858.986938 -398.723755
58.268162 719.100952 -722.877197
36.318966 718.577637 -738.257202
35.598667 677.338135 -724.600830
-21.350727 729.774292 -653.425110
64.032753 725.177917 -721.659180
96.608566 803.819214 -679.991577
235.467056 879.118774 -604.559448
98.581512 696.033081 -720.754456
-152.582809 685.164001 -476.556305
154.633072 829.660950 -410.507141
199.889206 839.104004 -640.203003
90.616997 801.478516 -527.460327
193.530838 864.359741 -564.796204
-10.586287 738.744202 -591.534180
53.932018 802.820435 -471.060547
181.634125 892.406799 -730.251343
69.188362 812.883057 -386.061920
179.248810 856.155273 -494.376495
121.967216 829.925415 -547.216553
169.584778 856.146484 -533.345886
-104.966072 684.500122 -642.536560
43.734833 777.158875 -542.664673
-32.556908 721.604431 -640.978760
24.924417 746.706238 -640.532471
242.005020 889.525696 -423.545959
120.032768 815.040405 -635.261475
-127.303596 674.704651 -396.078461
147.760696 832.732849 -548.042358
252.684067 905.405090 -475.696106
-36.842159 724.608887 -578.665222
-102.990036 716.861938 -417.845642
41.615730 787.885071 -525.969482
73.234703 797.188904 -686.099182
-34.363811 755.445618 -425.748810
264.736023 872.029419 -624.082764
86.004639 770.406982 -720.973083
5.740949 766.892578 -560.535217
-115.875221 703.507019 -393.985962
221.177643 885.904663 -390.225830
167.249573 837.846375 -439.897003
40.007946 792.540710 -497.849243
55.174244 778.421204 -629.486511
26.816216 772.407166 -463.445770
4.598547 749.216797 -565.074158
120.272102 843.482239 -385.918274
-29.118223 729.445618 -630.347534
201.212799 850.764282 -587.639832
134.348404 835.749878 -404.150116
126.278458 807.072266 -661.711853
-177.724747 667.443726 -510.714600
237.165695 914.497620 -395.468079
-123.161186 706.309814 -486.798706
43.461975 793.834778 -438.615326
-66.614937 720.673035 -601.235291
-25.372719 746.377808 -462.868317
45.592579 769.417908 -607.366272
262.118896 901.043701 -493.784485
-5.460949 746.712158 -620.468750
-153.850998 655.727478 -607.412170
35.148140 771.381409 -465.830231
204.137558 831.906738 -630.197998
116.979439 781.455750 -724.542969
78.980690 793.644592 -518.378418
-124.098938 685.801514 -504.817108
-176.689529 647.407959 -602.301575
166.129822 834.552490 -550.694336
-162.005142 665.501465 -514.414429
-161.864105 641.107605 -603.710999
22.160500 760.489197 -494.762878
-16.499273 729.679199 -595.286316
80.212173 810.280090 -406.109039
-86.584305 699.977966 -615.666870
124.298378 845.943665 -385.321747
242.966537 901.663269 -485.424164
-30.018204 743.621216 -698.694580
155.982468 849.977478 -514.828430
228.289642 883.563354 -457.972961
-43.572041 712.425659 -590.322144
207.638504 867.162598 -707.178406
-161.044815 671.702454 -554.496216
-135.528168 704.689514 -417.571014
172.978012 856.467712 -545.759338
-113.710999 686.815796 -645.938843
101.922958 801.988708 -689.558167
177.968399 848.119995 -694.998596
-57.280933 735.332031 -725.525696
38.078823 795.535767 -392.817688
125.172897 812.521545 -642.112427
193.137848 865.085815 -527.529663
-114.458397 691.196960 -496.365723
-50.993481 730.002197 -506.580078
161.870743 866.864807 -445.368561
35.604328 785.849915 -429.037720
154.872452 823.783936 -641.259521
198.953812 881.459961 -398.827484
47.439640 766.900635 -597.140503
6.302956 762.930359 -504.225952
131.456238 726.165649 -726.320496
-37.262150 722.252014 -567.793762
180.209976 878.856140 -428.430908
34.438992 758.973755 -603.527466
34.900467 757.923401 -423.383667
244.041534 906.536011 -450.331635
-57.829895 715.379150 -535.206726
-101.059563 705.604431 -474.745209
-65.540359 734.818542 -728.569763
80.704163 799.285645 -478.849518
78.491951 728.971863 -733.551331
235.048447 871.501160 -653.043091
-135.085144 702.885071 -427.167389
126.226784 846.755676 -424.776154
87.151382 797.791870 -524.703918
2.210603 713.037537 -716.483459
-55.822784 701.897705 -695.015991
52.682999 699.420898 -719.187744
-95.860268 697.216675 -659.413391
-127.661095 689.874023 -427.450500
110.733673 803.036194 -644.545715
183.347534 850.725403 -606.411316
169.824158 837.482361 -631.166199
249.595352 880.464661 -574.955872
-24.584602 751.155151 -405.447174
90.572289 801.841675 -643.126404
192.498047 886.583923 -397.973999
-57.504230 693.660889 -563.596130
254.793732 896.389893 -446.347839
120.307144 732.809021 -735.065186
42.249825 759.265930 -606.971985
-145.392944 670.190918 -581.264526
-125.167130 690.442017 -465.472504
-53.057732 713.782288 -635.659546
90.494774 725.055664 -723.243896
40.121613 796.054382 -465.608643
-148.169403 685.879883 -521.711731
-155.935532 663.353088 -605.078552
90.883324 801.592773 -544.880127
139.245163 839.945068 -536.975342
52.603508 721.734863 -729.552002
-45.613403 727.968384 -528.293945
117.996056 812.742004 -593.084778
149.333374 772.521179 -733.222168
133.426727 826.738403 -590.189270
251.664825 904.903320 -419.233704
162.705521 823.142639 -725.869202
51.752209 792.589844 -714.977234
-3.937207 760.280823 -474.487122
97.646034 806.989319 -711.470886
-91.396965 700.382385 -440.145355
53.859093 792.061951 -423.070313
57.542667 770.209229 -616.297241
150.813782 843.479858 -505.419617
196.923798 854.185486 -628.639832
199.393295 832.446411 -595.977539
122.347504 831.778198 -499.317505
-115.033485 652.897705 -628.860291
87.371353 799.011230 -612.010010
129.557739 846.646057 -450.898102
-165.596054 683.913208 -400.142151
-181.107468 669.396240 -463.263733
95.115433 801.571594 -618.693542
216.536743 868.712097 -426.160004
98.376144 832.058472 -408.559143
126.979797 808.806030 -722.382202
-85.574188 703.412292 -516.322693
190.987595 852.620911 -462.895813
114.293579 820.640686 -553.811646
-45.829304 732.601013 -474.849121
198.431595 855.040527 -565.014648
-128.409317 689.256165 -463.371124
141.277115 814.082886 -720.355286
-155.630646 671.789551 -554.756714
127.042900 836.198242 -714.050476
-89.689926 693.272644 -618.146118
30.837040 795.886353 -409.188202
177.760910 856.728210 -709.905701
107.996254 739.538635 -721.711182
26.257723 752.638855 -599.976074
189.224213 841.673767 -580.163147
169.421158 853.905396 -573.435242
20.706678 759.078796 -532.578064
-135.952988 693.357971 -420.781830
-101.928749 697.660767 -543.169678
12.605320 752.756470 -445.189880
220.611908 864.596130 -653.501038
132.799576 742.534973 -735.263733
-84.914284 697.705017 -651.599670
-18.690224 748.817383 -703.565613
141.812653 828.330444 -505.086365
-140.512161 659.949829 -430.125000
211.296432 851.080811 -517.914124
-21.069124 692.614319 -730.003479
-87.469254 699.551025 -576.691040
228.845078 873.534912 -597.961548
210.680649 856.372742 -669.667664
-105.998726 716.872498 -442.471375
216.494644 902.356812 -392.135925
113.622299 813.948425 -552.786926
-69.149109 737.395935 -385.103210
-37.926716 732.407288 -405.379913
168.197327 831.697083 -485.946167
-121.803490 669.052124 -669.841248
98.386337 821.560181 -455.168518
208.583817 860.591736 -405.212616
205.657837 886.350525 -435.536438
113.326965 785.221069 -622.147034
221.211990 874.076355 -472.278778
-162.545746 672.862122 -399.849945
-77.382217 712.646545 -496.852448
145.513351 805.670715 -727.851318
-101.946190 725.864075 -424.932587
44.946350 725.722229 -727.721863
119.841187 823.292480 -497.335205
7.668031 766.249573 -432.026581
219.784195 863.901001 -512.844055
-170.918884 657.718323 -597.190491
47.399872 779.219482 -548.142212
147.680084 844.505859 -731.663940
43.168694 799.578918 -449.719574
110.213371 824.146851 -528.893799
148.401413 826.221741 -603.876160
126.319252 812.009766 -687.217285
114.962021 807.096191 -472.132874
206.329514 879.741272 -468.487946
94.439644 815.847229 -394.972351
204.307404 872.264038 -394.343994
63.388256 811.003113 -390.696106
-64.898361 704.092529 -518.266663
54.200695 714.275085 -733.476868
68.315895 815.536316 -377.617767
231.554642 895.573120 -423.345306
88.073051 809.063782 -544.828003
-137.898346 673.921021 -499.174988
64.757233 787.980652 -502.268616
150.199448 862.081787 -737.238342
-20.548033 742.575745 -675.484375
-61.893826 711.960144 -512.402771
100.283875 821.915955 -535.125488
-11.513239 742.672791 -624.719360
-79.605263 728.026672 -496.478333
-20.006493 757.522095 -428.203735
12.601257 787.085510 -443.979706
48.642250 781.628967 -706.669006
203.681717 870.483643 -595.946167
26.575211 760.306946 -648.831177
-9.691598 735.361084 -632.291504
170.386047 900.769897 -723.607483
-93.462334 722.633118 -715.147034
57.616646 781.365906 -508.483978
-49.726318 734.799927 -415.524139
-68.890976 695.000366 -621.702576
-77.394188 732.161133 -381.275208
162.457703 819.050232 -728.651245
182.606979 872.216309 -443.439728
33.237366 795.984741 -438.793457
62.809658 745.257324 -722.925110
-16.121922 761.601563 -462.547699
33.008804 753.079102 -714.473938
144.232147 832.880066 -558.759644
17.136871 755.364075 -619.612061
-12.446688 758.393005 -549.326782
-90.990662 717.489990 -421.473602
-98.391861 709.801270 -444.878113
10.065742 770.054993 -425.454407
62.669670 796.287231 -495.078979
-65.914101 719.100891 -573.478210
98.320198 818.582397 -446.280945
-94.866188 695.923889 -527.963135
104.176178 816.368469 -383.866028
-166.291916 639.588135 -559.793518
33.467522 774.726929 -386.999542
49.907585 776.137390 -657.344055
74.249336 797.232239 -398.005463
44.047318 796.597412 -437.531158
101.395996 821.754089 -540.496643
181.371445 878.814209 -433.157196
233.275894 865.596985 -639.555054
-31.065649 714.846191 -638.270935
-34.978313 724.132446 -566.178528
-74.442017 726.254395 -385.466644
66.393761 792.802002 -495.959686
189.036972 853.907654 -448.387421
75.692238 784.176636 -619.266052
112.004173 813.060425 -526.188416
174.255402 863.266846 -489.128784
-70.045403 723.261597 -562.445862
220.861176 887.845032 -506.532318
207.906036 880.020813 -701.753296
132.357895 846.380005 -404.719849
19.018394 795.471924 -381.999573
-210.378387 634.807434 -1049.511353
99.580338 802.498535 -633.869812
242.396759 871.639221 -639.485352
231.699493 895.204407 -432.542236
167.465744 867.316040 -446.290009
78.467407 785.028687 -665.164246
160.445648 827.416626 -442.329926
215.077332 877.488647 -683.453491
65.600327 766.861023 -667.535461
122.293953 747.307129 -735.852600
10.729817 751.679382 -583.595886
92.837891 787.061401 -604.331055
-7.814350 733.100220 -607.318115
116.501434 823.023254 -701.734802
136.315842 760.379639 -732.206543
149.382294 856.588989 -711.656433
122.680450 816.533875 -714.749634
34.325050 772.586426 -510.606934
-23.691431 726.710571 -634.915710
51.165699 784.445374 -515.532410
65.731606 772.516846 -661.291626
90.890472 802.408936 -600.049133
-173.042480 661.538269 -486.973694
-11.228798 739.934021 -687.118408
112.739304 831.726318 -703.008484
224.426819 881.485413 -463.669769
221.544769 873.953186 -529.937012
245.212540 894.540527 -564.605225
217.221603 894.337524 -397.981476
16.612499 751.886719 -571.723999
-76.892288 741.575195 -417.462616
-87.048584 724.421753 -492.355774
50.196774 732.760864 -725.176086
191.640976 841.966614 -506.136108
-161.279190 662.758911 -462.854095
-106.509148 667.504456 -537.141968
-87.233437 723.591736 -445.734497
163.452194 846.863464 -464.287109
155.723694 837.627319 -557.303772
167.315262 836.050903 -605.732910
100.696976 807.013428 -503.700684
194.955200 836.286804 -639.806152
17.742188 749.330078 -701.675842
-30.510963 735.219177 -468.086914
5.983083 748.198853 -673.835754
-169.691635 677.801514 -500.297668
49.137730 777.495605 -539.526428
-149.958023 667.784302 -547.326477
122.701126 771.367004 -722.644592
159.211441 840.075195 -567.436340
158.572296 855.560303 -444.704285
-60.103825 726.610718 -495.569305
0.071498 753.628052 -527.578491
94.478394 800.113037 -592.041504
-136.711334 685.178467 -463.259430
91.422943 811.530884 -512.980957
-143.219467 666.472839 -620.157654
47.014809 796.858215 -433.225983
100.867943 830.762390 -450.060394
141.539581 825.337769 -431.311676
269.544647 904.213318 -405.223572
178.055969 859.003967 -458.669098
-14.845901 746.647766 -513.118347
-173.098999 673.515869 -478.680237
91.658249 775.473206 -723.082458
183.250092 864.826965 -486.511383
217.077148 888.862488 -510.418793
109.521255 808.181396 -653.364807
-66.730026 727.173889 -392.569611
132.615402 825.520630 -588.761414
59.211674 789.526550 -493.750214
-135.151978 709.310425 -396.246521
104.755478 833.409058 -444.740387
245.958115 895.387573 -426.050446
159.843521 859.350769 -479.484650
-43.014751 724.057312 -551.949219
146.338547 841.523376 -439.050842
-13.143421 754.475952 -436.494110
246.408600 893.664001 -562.801514
50.352531 797.446106 -432.705780
-87.041847 703.856750 -433.578125
-92.714073 685.169128 -532.846436
-49.781265 734.278748 -398.374451
-29.538872 718.438538 -622.360474
26.624601 760.047058 -720.733582
108.391632 820.115112 -381.452240
101.805443 778.738892 -731.252258
43.241764 777.664551 -592.757874
-128.634567 660.229919 -633.276550
12.513807 775.436890 -397.545166
75.269783 784.166382 -603.929871
126.148590 840.054749 -483.945313
-95.301300 688.456787 -425.278748
-135.991028 665.465210 -596.281189
202.353241 835.791931 -631.235474
-125.232544 690.374817 -504.565674
-47.365547 707.767944 -515.775635
-14.226578 737.520325 -598.869751
195.483643 872.560120 -480.060364
-138.349777 682.772095 -570.710815
199.522720 861.212585 -439.337616
126.981590 833.247559 -734.600525
30.188019 777.940308 -575.137024
106.525040 810.320740 -642.016235
236.898376 887.334229 -557.323181
159.955627 854.336975 -445.839325
27.139271 694.425598 -734.662476
7.737450 754.832275 -525.105042
68.870209 797.390015 -449.451263
84.459053 788.248657 -578.773621
70.644272 783.302612 -588.586914
85.511955 813.004211 -515.133789
244.620605 913.225647 -430.677704
103.714180 814.106323 -599.208435
89.050858 816.072571 -389.137329
81.153000 797.191895 -396.926453
132.544815 847.106628 -449.887146
184.670959 871.355103 -392.133514
-164.145065 666.312622 -559.870850
-81.866852 723.863647 -390.043121
-101.816269 665.274170 -612.288330
230.461273 884.929016 -440.956726
-176.876266 661.546875 -692.123596
-42.692146 756.585815 -405.163757
-8.812881 767.982178 -482.819702
23.551413 789.945190 -458.129456
-171.925583 673.519226 -419.985901
-67.264603 729.568298 -495.368591
175.128433 876.195862 -726.179382
-44.330414 712.749817 -652.921814
51.424286 792.160828 -530.242798
157.098495 843.241699 -497.819580
69.450356 779.581543 -476.782501
166.852127 827.884583 -590.470764
164.279953 850.905212 -585.173218
228.431870 886.490967 -527.173096
-0.683969 761.372192 -552.559448
191.833191 861.330627 -496.757599
38.257477 802.388123 -395.359467
55.196751 762.000427 -645.732971
99.292145 689.881897 -724.628357
60.956127 789.376892 -503.859467
-137.342209 672.242554 -648.530396
-36.410301 740.825623 -437.067749
36.304821 794.731384 -471.095062
-140.224106 669.825317 -410.819183
84.038116 828.808655 -378.149780
-30.051641 735.110291 -383.250000
-82.758308 714.978577 -447.416321
-146.084183 655.100098 -535.538147
252.062637 882.227905 -619.770752
-75.775101 699.035889 -541.472290
199.078690 859.186401 -580.272278
227.221329 862.994019 -637.819397
52.927444 809.441162 -413.583282
222.445618 877.804504 -580.047729
-10.155835 742.627441 -409.731415
-17.145918 735.037659 -642.784851
-4.666020 734.127075 -521.804565
112.651970 817.615295 -572.328247
5.029623 786.946960 -413.770874
199.425644 830.607544 -641.925232
29.502550 750.143433 -617.433044
139.600052 824.626892 -563.612915
147.133728 842.456482 -441.557068
-78.796951 690.693359 -617.513733
245.122620 870.474915 -654.613403
-73.228928 718.534241 -562.764465
118.412384 812.531372 -713.312866
-14.832289 743.793640 -689.020386
-91.893158 694.755249 -513.409485
109.030754 733.414917 -726.652405
-77.313377 719.686523 -526.459412
114.673088 808.427429 -696.205872
-135.386185 702.553040 -465.276459
73.022278 706.199829 -720.172974
242.941254 902.687805 -602.753601
121.877472 800.171204 -714.639038
248.752747 880.425659 -543.360352
143.385208 807.460449 -734.904358
203.789246 868.159790 -419.636108
225.636887 873.761475 -473.618561
116.694550 810.437439 -588.516724
-57.346359 714.068787 -721.989929
102.397636 792.429688 -720.229797
228.800369 887.277527 -458.468506
10.164317 739.241943 -641.657959
-4.722804 757.507385 -451.286163
-28.542137 729.564575 -573.506409
49.017876 783.546326 -506.539551
7.680061 733.348328 -701.900085
96.261482 702.268738 -720.018799
200.310150 866.869141 -567.242981
94.470703 813.527466 -459.051025
96.224007 813.086304 -498.194733
45.213921 803.601685 -414.693634
257.400299 888.745361 -523.963318
-47.135216 707.086670 -643.072998
146.089447 839.429199 -586.810364
-100.615555 694.570007 -603.838623
35.734982 798.921692 -413.108124
153.009506 810.489868 -594.991394
112.296265 743.405396 -732.566895
7.467865 764.486572 -545.619324
-70.108368 724.962097 -404.959290
52.664513 742.295654 -727.718689
-184.256180 668.789185 -533.999817
-72.628616 720.876343 -715.844910
105.687141 825.636719 -455.010834
197.571533 861.332764 -629.796570
33.949032 763.525330 -630.073059
236.344391 888.048523 -536.336853
79.968842 778.035461 -702.123413
104.658676 705.449707 -723.660095
172.016281 853.653931 -599.965576
127.523788 806.949097 -652.487793
2.181919 766.283325 -449.605377
-105.037819 701.403076 -427.942474
239.789841 869.044617 -580.111511
132.437820 832.865173 -544.146301
-107.542389 707.932251 -431.508209
72.112350 791.324524 -527.862183
45.789349 784.083374 -583.846497
123.166588 756.167908 -733.805237
-158.672684 652.234253 -485.711792
-144.680023 684.225159 -411.518585
91.093216 814.804688 -519.968567
135.366089 838.675293 -514.556885
160.161987 835.001587 -584.065308
-58.313015 722.596863 -512.846741
33.975193 765.155762 -671.033630
65.052345 722.673401 -718.820984
178.913437 845.158142 -598.086304
239.161026 877.047058 -668.991638
235.402039 877.430054 -699.660278
69.506805 779.728088 -570.625061
172.256500 850.729065 -509.583496
-29.861134 731.294006 -692.405457
-136.513077 690.750916 -548.047668
161.498138 811.041992 -653.191956
193.311600 874.574646 -446.316376
3.646844 765.259644 -455.983276
13.853038 743.129822 -663.236450
148.750778 813.700012 -549.542053
152.977615 857.719971 -456.239990
-123.357590 677.143066 -664.641113
12.399623 751.150330 -652.159851
244.854187 922.298096 -396.900574
-43.136978 716.223145 -641.450256
47.502430 798.757202 -485.204346
99.854546 817.085083 -558.729614
-100.433907 699.909058 -614.558960
-180.064423 656.667908 -429.398254
-29.553431 744.278015 -580.378540
184.435532 856.823547 -506.689514
137.916779 767.221802 -737.638672
-119.878181 678.631714 -677.148621
-14.656425 720.612122 -691.757935
258.247406 880.067322 -643.256104
65.276237 813.538391 -443.204651
-30.539288 728.888550 -657.373596
135.931961 848.250854 -404.898010
269.444000 904.699036 -579.620850
-15.546988 727.029297 -712.310791
130.715149 828.630432 -572.132202
-56.210819 743.761047 -383.557678
-76.235222 703.063538 -460.524689
-7.652238 753.466431 -468.539917
128.502533 782.954346 -721.369629
-70.868668 701.519348 -650.775024
205.207474 871.185974 -399.030914
100.007637 805.978943 -532.732117
139.273193 806.875977 -519.670593
124.932808 752.408264 -730.587158
15.134171 748.449951 -593.227600
263.305237 926.448547 -389.196747
255.065384 896.951416 -640.921692
90.327080 821.862549 -406.966339
94.755493 798.305603 -576.741821
149.041855 806.324951 -717.353943
173.989227 840.112000 -723.985840
44.402569 698.004578 -734.434265
-97.829529 722.068665 -437.494446
-28.263378 715.661194 -633.109497
-54.562531 740.037964 -397.091400
90.475983 787.025818 -635.200378
69.087776 812.759277 -478.729919
202.518494 866.676453 -510.897461
67.284996 768.652649 -625.374451
131.382599 814.892029 -605.418213
25.898375 752.629700 -628.382324
19.074898 780.542114 -427.388550
164.460342 848.552490 -485.685486
29.281225 786.115601 -492.038757
227.703156 887.169617 -454.135651
18.847652 751.741882 -611.804749
-103.542412 702.666077 -463.737518
251.703812 885.392700 -671.088989
58.205692 805.859253 -381.481049
-24.315672 758.921326 -391.552948
50.354713 681.880737 -721.558655
177.165115 867.058838 -515.821960
102.074821 828.381409 -428.649231
226.797379 867.051270 -636.750854
220.400604 886.157593 -516.051575
-162.856796 648.931763 -582.924683
127.029930 830.266479 -549.610718
-54.177193 740.873352 -479.531372
36.678192 765.819275 -526.318604
14.026504 730.270325 -728.950928
-121.755501 679.445374 -539.588867
189.003967 864.200134 -463.307007
-91.550148 708.797607 -426.642303
-161.601624 689.086792 -446.477997
198.053467 862.316956 -571.598328
30.792597 761.800964 -529.751770
186.784378 842.144592 -641.229126
219.888809 860.439270 -519.802124
71.992401 812.078979 -426.177246
239.522324 890.504150 -389.446869
67.982483 719.088074 -730.001892
-78.183479 707.625610 -532.579346
-187.102325 677.646729 -404.891022
-70.812050 685.723877 -621.258057
-45.981895 744.469055 -469.216644
67.170143 796.197632 -494.150696
62.937672 799.876343 -469.938721
99.789063 819.877747 -414.091248
57.327515 710.501648 -717.627991
64.568893 798.372864 -394.513580
111.150856 806.764954 -445.272766
222.664627 899.740906 -415.111389
-165.722122 685.869263 -452.082581
9.175723 740.276855 -623.382690
77.794792 767.387451 -720.353760
112.080070 795.254700 -651.024841
224.800629 889.303650 -475.647583
165.992905 849.987671 -532.184265
170.967865 822.000854 -579.828003
-8.022201 759.926453 -452.229614
122.072701 812.982361 -589.119202
33.421497 785.749329 -403.623260
56.928867 734.162903 -725.897705
236.213165 880.622620 -538.405640
206.493637 891.120117 -394.090454
126.675774 817.334167 -430.497986
-53.898739 704.619202 -560.529663
55.797611 802.041565 -388.027710
32.398575 772.900574 -500.429260
163.375763 827.430542 -624.122131
245.455276 872.299377 -655.677917
7.399196 761.693604 -580.377808
194.863724 868.380920 -405.705322
169.861557 857.739685 -391.663910
62.914799 789.832642 -480.686768
18.123013 797.637878 -374.261871
-40.494965 720.456055 -645.413269
6.288537 764.179138 -436.893219
228.592453 909.620178 -381.675018
1.629719 739.241150 -620.642029
127.027718 820.595337 -612.803101
-137.660889 681.885681 -537.839783
-69.282539 715.576782 -490.495636
114.589394 836.172729 -484.183929
215.241089 862.188354 -529.354675
226.975098 902.331421 -423.068817
-23.507259 720.402771 -661.030090
243.744797 876.257751 -540.406189
184.511246 846.392761 -448.389069
26.936159 785.376709 -409.410522
111.330032 792.286865 -706.686279
9.719747 769.744446 -458.148560
103.631149 834.312256 -455.462952
-172.998016 646.767761 -539.005493
134.325668 840.626465 -532.975159
-130.440842 694.763855 -515.861023
-51.551132 738.393738 -708.774902
132.442551 750.515381 -727.591919
154.337067 836.809937 -658.598938
19.792295 746.627380 -663.018494
34.291260 797.836426 -377.270081
61.398670 785.779724 -622.065857
188.081100 853.326172 -588.623108
30.797266 764.495911 -630.623474
183.942886 844.264709 -649.132263
-133.857773 664.998779 -605.324951
93.584061 811.488098 -523.261902
-179.160583 663.773682 -498.260101
152.422104 742.634277 -722.408447
178.012115 836.055176 -670.909363
-5.136316 757.663086 -478.552460
167.206863 875.807922 -374.927216
-30.932743 718.620972 -571.743103
-75.384766 735.272705 -386.594452
-29.031895 762.938477 -428.127228
150.474884 813.077393 -727.187927
201.769501 881.941406 -444.041351
-50.113705 743.766724 -474.296387
147.595825 844.067139 -470.796967
187.075394 874.816467 -398.780151
110.950844 825.711609 -433.829498
-62.779354 737.865234 -393.688934
25.236794 727.750732 -713.121582
-1.854515 702.774414 -724.646362
-112.037239 703.084900 -418.578644
60.677902 758.798950 -708.903137
34.427662 768.402710 -662.180054
191.318909 850.120239 -448.723267
-102.687828 715.703369 -384.276062
147.679688 835.728821 -596.008972
185.500107 880.259827 -396.697845
-46.691589 737.016052 -430.402435
99.868813 736.707458 -731.453613
240.631638 865.363281 -465.763611
219.988846 864.070129 -619.509399
77.162254 805.667908 -491.370667
244.288040 893.486389 -646.156799
-117.781036 668.777466 -630.947571
35.575394 781.629150 -469.630676
14.630682 780.493958 -475.822174
171.180679 831.128662 -646.626709
-23.447792 737.419067 -435.795593
-143.725708 663.138306 -666.829773
210.525299 888.405151 -385.224365
64.452858 789.496826 -678.299683
120.414597 816.618652 -606.406372
104.367645 780.407043 -623.196960
248.802261 879.323547 -667.269287
136.996323 846.047119 -454.613586
171.821640 860.814270 -385.868622
6.615694 760.976563 -385.251221
-3.791272 737.425659 -592.942322
-45.300335 741.940857 -432.868378
39.834419 760.386292 -684.527710
-124.584381 701.798523 -385.026245
-13.205149 733.679016 -681.661377
37.524052 766.724670 -636.483276
-120.061111 701.104736 -436.572968
52.999203 758.285339 -691.861755
171.442200 839.294189 -594.884277
150.146591 845.015320 -718.013916
206.022781 853.770325 -657.385925
53.497738 751.150696 -730.091980
51.914528 780.204163 -507.038635
147.860077 835.876465 -731.571411
97.208504 824.195190 -391.699799
107.461693 805.584778 -627.522095
187.533203 872.947144 -404.325806
33.879753 781.378296 -440.279266
-98.393059 724.120239 -422.584930
49.040924 698.421509 -719.786682
166.318329 860.717285 -722.433350
203.489761 875.687683 -422.236633
211.749969 877.230164 -462.062592
82.824799 811.654480 -429.159760
154.198090 834.419312 -621.291077
49.597912 794.170593 -453.710785
-114.169472 726.246765 -388.666656
105.566124 730.081726 -722.994507
-64.236687 724.134033 -579.242432
254.676346 904.291443 -510.068817
-20.187220 763.709351 -454.608734
275.475372 904.940979 -640.935120
157.087006 811.455139 -603.844116
245.838318 890.494690 -541.129211
193.088943 849.535767 -540.063599
222.102585 865.398376 -515.955505
239.129807 889.524353 -489.933533
-39.916779 728.525513 -422.047760
-91.332039 680.571838 -636.400757
-65.280571 732.288025 -392.086060
231.804718 906.639648 -411.406342
18.255590 767.625305 -463.043060
105.805527 835.669861 -376.966492
-55.890137 740.424072 -478.251221
137.541061 753.513977 -722.529968
6.562978 708.932983 -710.008667
-78.267166 699.762634 -565.267517
253.075363 906.930786 -494.787292
211.789230 857.568359 -665.052490
28.296885 764.923401 -571.460693
187.397751 876.534058 -478.503754
107.970215 803.021362 -597.971008
209.735138 864.450134 -598.713135
-96.818710 708.254700 -433.614105
118.519295 844.507935 -434.172089
243.584534 902.604675 -474.006897
96.750908 824.067505 -389.280609
-53.618416 712.995850 -500.702301
0.399811 759.011597 -479.491058
94.423286 808.876221 -514.606567
137.244019 848.146790 -700.043884
-107.723740 654.339294 -652.407043
192.630524 883.931335 -422.889008
-172.954315 672.899780 -484.351593
-49.907269 751.215210 -429.035889
194.165771 898.174866 -723.604919
-52.685043 735.160034 -703.666260
-10.199763 739.095703 -560.188416
-28.463518 762.832764 -433.470398
20.434591 744.922180 -654.848999
150.681366 851.358215 -520.707336
105.286781 828.205688 -487.708282
34.654125 763.570190 -636.189392
129.057739 805.869202 -514.276672
174.285278 862.620667 -459.622620
147.872452 844.890076 -427.978058
5.600769 758.189636 -579.508057
77.455391 798.592102 -537.147095
60.995216 810.867432 -444.002777
-12.829312 751.035034 -379.468201
-89.043503 708.103455 -559.064697
180.371140 870.378906 -479.184174
-47.371189 735.171570 -574.835815
-158.278824 670.280273 -426.329529
160.344238 839.938782 -688.461914
