ply
format ascii 1.0
element vertex 1419
property float x
property float y
property float z
end_header
641.057556 238.245926 -487.326630
898.918518 130.913712 -372.213867
684.381042 235.516205 -438.320953
887.936157 -0.696084 -534.007629
686.263611 150.029556 -598.613403
944.793457 34.644020 -533.380554
856.040710 157.423187 -383.977295
746.985046 146.000916 -509.090820
647.918701 299.055634 -412.802429
816.142700 191.332535 -381.782776
782.760620 86.922646 -561.752625
998.365540 152.213638 -211.916672
715.172913 195.034058 -494.529205
935.660095 40.130833 -486.847260
1014.220886 45.992500 -365.943909
981.898987 -9.776530 -514.530518
964.580994 36.182743 -464.555725
651.439087 191.567093 -547.180542
944.335388 85.769035 -370.264801
978.652100 145.232910 -217.597458
867.697754 -22.716101 -553.248047
976.066345 95.819710 -328.648682
938.180054 -32.960705 -523.307129
876.004517 204.413300 -256.589874
886.298950 13.335071 -559.376404
874.990906 191.992783 -266.727936
610.739258 308.221527 -449.892090
763.442993 219.035706 -398.924377
826.080505 89.629669 -551.288025
957.105957 135.839920 -282.736572
758.280273 230.483368 -337.206909
680.148010 199.311691 -534.030029
927.533447 152.816833 -302.054657
969.574524 42.494652 -497.813416
923.069214 136.367355 -309.012848
1121.317505 -9.548504 -411.330383
895.261230 146.544342 -330.067383
914.687927 24.294777 -526.745728
914.315857 101.813248 -384.726990
643.188965 248.461426 -480.300781
889.871033 201.538483 -267.725067
685.803833 178.793884 -528.904724
675.868286 259.193420 -428.501892
929.375427 186.470459 -213.770340
1043.297485 52.338867 -328.424225
1021.122437 75.113556 -319.535675
932.837952 88.931305 -400.670227
784.132996 237.243958 -307.909912
968.761841 126.725861 -269.418488
603.603577 291.391571 -464.676971
997.637207 49.617481 -384.700287
822.040222 205.619278 -326.877075
753.989929 101.036629 -627.888611
937.209167 -34.954266 -513.923828
928.491272 -34.089214 -503.592834
841.667969 90.231697 -489.351715
580.036743 285.647736 -449.801056
1003.366516 79.444580 -297.787292
877.113037 66.614136 -524.796997
1015.466736 0.807540 -505.605042
1037.373291 20.972740 -388.889221
791.533936 211.472244 -336.209869
979.942505 -2.320694 -518.107239
748.934753 178.066589 -439.872559
843.709839 119.199699 -465.729858
905.945313 95.105927 -410.747803
967.167969 26.186729 -477.837280
894.319824 186.871460 -246.251419
809.434387 98.756821 -634.792786
875.280823 143.300232 -354.107574
870.620789 138.555130 -395.160522
1020.179077 123.423103 -227.317856
854.360352 -15.854591 -573.232483
788.689575 49.274006 -616.590088
1031.370361 22.708059 -388.092560
782.939880 114.789116 -527.974426
603.127197 283.354126 -440.295105
942.777527 91.373886 -373.199951
869.695435 9.978487 -564.987610
723.251465 133.265976 -582.066528
900.540161 184.979645 -248.216064
707.503235 232.846649 -389.342896
964.595764 103.671013 -345.901733
776.719482 224.459610 -341.690521
1030.395508 17.975578 -394.960052
1024.776123 45.164612 -365.997498
710.620911 138.915375 -564.524841
781.670410 89.870346 -582.713074
613.275696 277.231384 -477.515930
816.827332 222.696350 -292.412323
659.872559 257.884247 -418.505676
963.497192 129.225479 -249.202744
882.794922 9.582119 -548.434265
796.614258 158.152466 -424.780182
853.165466 56.696667 -552.008118
943.595581 174.985794 -231.149475
1084.775391 -19.265867 -401.390076
893.543823 192.253159 -245.961319
924.841309 106.170547 -393.574005
642.278748 201.549683 -538.154114
965.107666 100.523636 -320.518311
871.660095 110.648865 -443.125946
1017.427429 83.659355 -310.632690
847.420593 209.437088 -279.172363
690.382568 159.428955 -588.219666
1021.610962 9.374345 -405.802490
696.499207 247.204559 -390.930603
918.912903 103.597313 -394.003510
897.955933 88.879387 -447.169495
913.869446 90.760529 -407.278320
849.938110 -12.884401 -561.884949
1009.583252 79.944794 -299.684753
873.240906 163.494308 -343.935211
869.058594 58.673992 -567.630737
820.357849 204.612549 -312.555725
993.058289 76.415810 -350.979004
904.270508 158.600342 -293.186188
614.736755 270.533844 -473.314331
733.686035 126.388329 -561.471558
961.773254 -13.182748 -516.131042
855.182007 2.370334 -571.274475
996.455872 90.795555 -296.910919
976.786377 -2.855974 -527.306396
734.137512 216.159027 -408.005920
826.131226 228.724548 -283.086792
756.015869 131.869354 -556.704529
845.613037 178.985001 -336.665588
803.814392 87.177467 -539.368835
965.456970 130.896027 -242.729263
683.321716 167.164902 -551.889893
707.061829 271.230103 -358.052399
908.338806 183.043594 -258.244354
820.743347 172.202789 -361.914093
1058.089722 43.042606 -323.115784
777.590271 148.656265 -479.127441
754.164063 114.118271 -576.526794
1013.508972 68.851959 -348.999969
873.568420 77.215202 -478.095245
734.887085 154.436676 -508.874268
862.709839 164.042725 -349.164215
887.615906 186.625320 -289.329102
997.907288 109.589462 -280.993958
729.703369 113.757133 -582.677002
888.371521 37.917854 -555.859802
746.182068 210.785217 -427.548340
884.186523 166.623947 -306.596375
959.266418 79.387260 -398.230133
912.252075 186.466812 -258.361328
1047.475952 52.423660 -317.515320
876.758118 185.385849 -306.718506
964.144226 83.382515 -381.950104
816.871826 139.587463 -444.829803
1069.700439 27.646807 -341.296661
923.623413 173.110184 -264.248474
927.824402 6.176685 -536.595154
881.624146 213.234283 -250.530716
1009.469543 47.243290 -367.162445
936.260620 143.363342 -293.985382
934.906921 125.676224 -299.096741
901.134705 148.249680 -288.937408
654.677124 201.405396 -537.691040
657.659668 224.739532 -525.102051
627.848816 248.545807 -486.166046
710.703430 264.022858 -361.911194
679.144348 210.903152 -514.505554
717.205994 189.727554 -475.145691
888.218323 -17.941473 -552.037659
705.048401 244.409637 -411.041351
678.780945 164.521591 -596.647888
800.896179 192.792847 -372.209412
868.639648 134.076157 -413.019989
986.562439 59.450409 -372.559845
740.051575 129.840805 -545.129456
684.242737 168.265335 -582.393127
786.175659 208.635284 -352.790985
704.178223 179.160629 -469.077728
901.438293 68.502319 -463.116577
1025.692627 61.009598 -337.420532
909.948242 68.374352 -446.844421
925.944275 40.031086 -497.778046
980.876709 121.334793 -233.300308
967.437134 30.003422 -453.801056
878.216614 193.354309 -256.588135
914.704590 85.591568 -414.570221
617.842041 225.481491 -561.694946
929.232239 55.184635 -450.070892
989.333252 146.693924 -229.934158
1013.623657 66.509941 -301.580139
855.676819 202.550659 -249.902344
969.784851 111.490707 -291.729889
997.147766 103.920311 -273.159912
995.413757 127.807480 -240.307159
963.468872 65.237701 -402.211060
903.734192 168.049805 -271.950989
883.069397 172.587463 -305.311584
692.461365 233.635666 -448.118286
912.802063 56.442886 -543.390625
803.960632 199.291855 -382.771606
885.047241 116.045624 -405.647919
971.563599 144.410080 -244.365585
905.114136 202.723602 -248.874878
942.450317 20.481997 -534.191772
873.563477 109.607559 -372.697449
910.828003 -26.900692 -540.177856
991.946106 93.634499 -331.756073
790.392334 240.479935 -305.805115
936.910034 47.130089 -441.230530
777.676697 253.586761 -315.748260
1033.345703 12.816876 -475.182098
799.143372 222.106125 -296.322876
938.043823 84.037689 -414.862427
976.032227 38.631458 -469.480286
986.257813 94.092865 -304.278229
989.635071 155.137924 -175.987061
1046.567505 30.444860 -369.702240
831.453918 110.022629 -464.949249
835.791992 199.108749 -322.453156
693.550293 228.637024 -411.293640
773.373718 212.632507 -355.457092
879.144714 131.735565 -397.179596
1012.501587 52.143559 -376.666779
767.788574 111.948975 -658.360474
916.578674 189.785492 -233.586456
927.813965 56.950375 -468.827240
1006.824158 117.726875 -224.854965
940.226807 118.599091 -311.596863
928.954407 30.804451 -523.852844
915.550659 120.143539 -337.320984
829.520813 37.773170 -588.086609
1007.243896 8.317584 -501.280457
685.218079 164.021210 -551.195923
693.158936 141.550079 -701.736938
864.054260 139.622284 -384.276001
788.955383 100.599289 -523.928345
735.085938 129.227417 -550.409241
999.802368 -5.030276 -497.772827
688.205566 150.501022 -607.349121
959.931641 126.138771 -245.266388
1016.349060 60.364834 -342.728058
805.530029 59.852913 -602.928101
934.629578 102.296829 -378.953735
819.332581 174.032669 -396.414185
949.820557 92.056183 -341.231995
792.126648 211.404633 -352.485657
881.059753 34.931385 -552.665222
835.472229 -10.958893 -564.322327
1009.380737 22.939907 -412.534546
594.221741 280.145416 -451.699158
834.593994 19.748360 -587.607727
916.170593 156.311310 -311.028748
963.030273 7.117766 -501.027496
845.836304 210.770706 -278.117004
956.262451 33.763008 -475.418427
763.209167 125.588516 -523.822205
906.644592 124.091911 -355.055115
957.079712 80.213829 -377.184509
999.975342 26.217445 -418.948395
766.758850 138.559891 -496.587708
776.759277 92.238953 -559.428589
962.616760 81.544090 -378.970337
921.572083 188.697983 -219.019424
954.675476 156.783661 -224.504105
818.518982 38.016754 -601.605286
765.076233 126.462311 -519.608521
697.390503 204.389084 -469.527039
744.887451 169.499054 -482.694489
782.280273 121.894936 -533.434387
661.357422 159.938110 -640.515808
813.127563 198.216064 -367.029419
945.047546 46.940784 -450.464050
908.305420 141.234283 -332.460541
685.356873 157.619278 -523.431030
806.963013 0.449253 -582.572754
968.566650 67.769058 -336.708618
687.455688 173.538422 -495.003845
687.938782 243.778244 -406.567078
637.623291 228.953537 -493.870422
772.068787 195.302429 -424.100281
699.007141 201.755905 -487.005096
809.621521 196.107819 -344.456146
637.074585 290.474548 -401.879944
989.140381 64.436577 -375.301056
643.148987 207.845901 -522.941650
807.796326 99.686790 -537.074158
1015.818604 40.980022 -389.556610
984.313843 173.787491 -192.827469
631.301697 287.663879 -423.433807
876.824829 152.828629 -334.563843
852.872253 185.633636 -309.505615
897.891052 141.048828 -337.476471
982.783020 74.155846 -340.589752
957.757385 156.036667 -221.465286
822.608154 173.632248 -373.401489
973.505432 71.481331 -324.428864
798.039185 105.185257 -644.970215
715.456909 147.247452 -543.132019
673.640381 173.163315 -549.420898
673.392883 194.905106 -515.336670
706.149963 258.914337 -364.681244
836.113831 181.867966 -349.752808
821.483276 -4.650281 -583.342224
844.097656 167.206284 -355.791626
968.187378 92.520805 -354.254089
670.935059 241.969284 -474.906616
688.615662 258.916595 -382.283600
935.016174 91.754417 -372.046875
811.103271 216.169785 -343.020264
1000.637207 128.135223 -235.773087
1009.513489 126.261108 -230.729202
917.731018 165.208969 -244.428238
1004.542053 82.699570 -291.020020
902.122314 88.208260 -428.273834
855.278015 207.964783 -286.127563
1075.871338 0.971356 -455.348969
744.346985 132.747681 -534.597778
918.096802 90.063553 -402.263458
665.414246 163.031250 -599.005920
957.181458 55.217075 -437.262817
958.440979 141.734100 -222.144226
767.071289 217.400894 -356.721832
655.588989 248.745438 -441.006378
635.289063 285.882843 -411.369232
906.352295 33.595901 -542.809570
720.838562 96.737068 -639.231140
907.556519 116.572403 -383.703400
895.127441 -3.323108 -542.634460
762.266846 241.626007 -326.585693
1052.393921 16.127554 -484.675842
782.500732 189.681686 -427.554047
650.388245 268.187958 -414.845673
645.845581 158.119827 -616.697571
793.234375 221.806091 -332.121613
902.277649 167.074173 -265.252106
872.009705 17.773043 -561.692749
850.390686 204.642303 -279.142487
824.266296 128.075729 -444.420105
680.192566 237.283981 -439.023193
660.977661 263.796173 -412.806519
899.372131 148.627167 -313.517334
857.550659 48.039471 -584.355286
969.430359 147.756348 -240.642532
779.933716 222.182404 -333.372345
827.710083 188.163467 -368.861206
997.538879 110.746719 -246.332489
797.519897 224.391769 -334.632324
878.139709 32.480247 -542.480652
810.244934 240.061295 -301.884094
940.951599 143.161499 -273.772034
629.345093 291.331696 -420.302216
754.350525 180.309357 -452.257813
662.601501 173.168442 -566.321533
902.679382 175.957031 -260.393311
819.018494 12.371770 -592.082703
1002.906677 90.965645 -287.646667
859.596008 131.375381 -410.316315
750.758545 209.634964 -429.295532
889.763184 192.087631 -258.817963
665.886475 269.734039 -410.004242
751.855347 136.996780 -518.454163
866.807373 104.171829 -451.151489
639.348267 253.713058 -448.485474
989.115540 14.104248 -512.144775
811.600952 132.461121 -445.367035
965.008728 176.940674 -191.662582
1009.346985 21.831953 -508.752808
944.088989 157.872665 -227.465286
676.999939 262.037201 -427.533234
962.085144 143.766937 -245.180099
1016.016541 23.894526 -482.953064
857.851074 183.692703 -307.566376
985.903870 162.240540 -190.260513
944.053955 -2.086747 -510.893250
639.085571 227.190979 -494.468903
743.481934 242.058731 -343.350403
832.795410 165.634262 -320.276733
1007.990479 0.808978 -424.000336
898.807373 26.489613 -547.580261
736.784485 214.357132 -414.512299
716.013794 200.657257 -466.412567
621.288940 247.978088 -436.197937
1079.445313 3.514882 -411.966064
845.306885 178.435928 -343.540131
978.429016 156.896133 -202.889023
688.728760 130.513443 -642.182922
915.884399 150.407562 -320.996277
931.774841 -20.753458 -530.842468
939.907898 31.254898 -457.522736
741.131775 230.746948 -377.118713
969.009583 28.751888 -446.850647
698.263489 156.025024 -551.172180
970.664673 75.600700 -354.817352
946.010254 97.846725 -359.112305
778.793091 106.538658 -537.055725
794.323730 128.508591 -488.545807
772.352356 105.709183 -567.093689
842.543945 195.867859 -280.148071
981.455200 23.309748 -454.923462
598.311890 296.983398 -465.996857
705.406616 152.893982 -545.919250
885.410889 64.949242 -485.976105
650.624573 261.867126 -456.118195
844.356567 168.273087 -386.502930
891.293335 165.399963 -307.866425
938.691284 42.173561 -504.013092
823.059570 162.753326 -417.933533
705.799988 249.349136 -411.056030
935.645508 179.398392 -221.660446
942.281250 93.553688 -361.536133
937.637756 69.423927 -367.265747
1043.263672 4.267679 -491.729889
792.171814 185.749435 -394.120514
760.760742 108.197998 -605.172302
769.094727 143.535385 -486.645416
964.252441 135.837646 -256.273071
974.127808 34.849503 -450.572815
749.041565 133.596848 -567.749512
964.743408 59.106968 -387.908112
913.945068 144.979935 -267.392975
904.716675 165.948120 -311.608551
634.858948 238.135223 -531.781677
917.613525 178.658493 -234.539047
796.788513 152.713486 -446.244446
796.100891 123.796715 -520.426270
817.445679 232.180801 -283.613831
741.975464 103.454865 -610.265625
913.120239 111.109512 -369.781372
895.353455 67.576820 -493.845520
944.663513 52.341946 -469.851013
1015.329529 38.670166 -348.030884
857.263489 143.000198 -388.465515
675.216187 197.666046 -549.321411
697.127014 229.801025 -464.255798
672.040039 259.325317 -367.920319
972.576050 141.048660 -222.807938
878.868469 32.770355 -554.963989
860.448364 135.836273 -414.391846
873.428955 181.668427 -287.667633
1014.450928 118.359268 -249.756729
866.788513 137.713364 -409.137177
735.170288 235.894089 -396.101318
705.510559 123.317894 -654.716736
712.039124 202.130600 -468.814819
945.592346 47.551025 -461.311462
789.658264 155.055008 -480.080383
801.955017 213.917511 -355.389862
765.833069 211.821671 -400.688965
841.272156 205.871796 -267.647491
792.927734 221.940811 -313.476349
960.740967 132.371826 -269.574127
654.492859 174.063095 -604.758240
980.527771 173.155930 -190.065872
764.174500 178.713043 -469.935760
1012.651245 111.115974 -254.207901
930.703552 136.739227 -298.753540
760.447449 233.944092 -350.257996
723.585632 262.373962 -345.338623
879.808044 206.430435 -249.468246
712.076050 202.260025 -486.298920
797.335876 208.901199 -334.200500
961.460327 76.185410 -396.849304
924.435791 18.130066 -535.382446
912.476318 158.808197 -314.361847
1019.320801 16.996675 -513.210693
957.412109 122.281837 -278.023590
870.405762 125.346680 -399.795624
995.157837 93.748093 -310.774078
780.205078 102.189240 -561.350708
910.319336 -0.862594 -538.911743
702.318298 174.878799 -529.813782
813.321655 52.286625 -604.625183
742.860901 205.728729 -408.806366
956.613098 62.631943 -405.954193
903.906372 158.079285 -299.454834
891.266479 -34.976181 -540.795288
695.970947 126.935677 -660.841125
870.373352 196.448761 -277.362488
922.529114 -39.761005 -507.237152
975.325378 67.824837 -360.907562
963.710449 94.819000 -336.396454
863.265930 162.819031 -366.276306
695.793579 184.109894 -503.876678
911.933960 70.508163 -445.621185
781.243530 179.170258 -422.034576
893.197571 94.485855 -442.352600
901.473511 69.310303 -443.319458
1020.239258 25.613409 -477.666992
967.647278 107.247063 -264.691620
735.250244 233.738541 -402.169312
849.074463 165.269409 -372.710785
773.393005 114.459145 -537.416748
653.289307 237.818069 -502.799683
964.257690 120.270233 -226.953354
870.562622 62.178017 -527.458252
730.723633 131.600418 -565.710022
892.591553 47.544983 -567.825562
783.918213 149.331070 -457.857971
956.370605 125.445183 -250.131668
893.035095 183.729691 -286.522003
745.327759 250.330399 -326.625488
660.585876 277.641937 -383.497040
713.645386 229.184464 -407.366241
700.041626 239.177155 -399.365173
983.029541 79.983482 -338.311066
969.728394 106.043480 -302.392059
932.306030 105.454086 -385.224701
891.043518 124.071983 -384.195251
962.869019 120.277161 -289.094879
912.365173 157.078705 -312.476471
784.716614 213.462845 -376.220673
995.025635 104.880325 -301.092224
684.372864 232.762573 -433.232513
989.986084 126.558456 -263.707458
644.556641 195.054642 -543.722900
700.066101 181.170135 -546.540833
723.748840 264.847260 -360.548218
1036.728394 45.929314 -355.878754
721.396790 157.771484 -485.219330
815.059143 205.077316 -295.457123
881.535950 88.881531 -449.561707
732.563293 125.087852 -559.053101
823.808899 197.364151 -343.508057
882.297241 144.449249 -368.624115
773.963074 180.466568 -451.102142
908.478638 -7.740811 -543.559387
872.224182 158.744873 -328.708984
836.553040 -26.929911 -561.665344
949.843201 105.160545 -330.511658
802.311096 124.208321 -489.640259
682.552429 145.663605 -685.451050
995.553528 154.098999 -207.823853
813.576355 53.798023 -604.517639
878.502014 122.498596 -421.673950
688.382141 241.996429 -424.559601
945.250000 54.064117 -426.253540
910.535278 173.386429 -240.020584
718.328369 220.636993 -444.742279
612.857117 297.059967 -421.970734
803.866516 238.871201 -299.975128
801.736877 207.389801 -364.187073
681.173523 251.831039 -446.925873
660.016846 275.334930 -395.785431
850.360962 194.196671 -296.713745
621.677795 284.338745 -454.955841
604.614441 302.436188 -422.759766
943.871887 189.116028 -205.404022
859.844055 139.608337 -384.562103
853.837524 162.687408 -352.577942
1012.924866 71.038994 -339.015717
866.306213 -37.759819 -542.970032
861.233459 90.236839 -471.447388
909.388123 -11.849720 -535.026733
842.974548 124.641281 -465.881622
737.723999 196.603195 -464.287048
968.793701 84.873291 -345.402069
968.960754 57.278175 -385.017090
1012.236328 101.375755 -277.702759
1028.908569 30.198080 -384.207245
1001.934021 40.874592 -369.705292
817.306641 198.437988 -296.247101
908.824585 163.990570 -296.460541
682.438965 161.353836 -559.119873
1018.565247 56.932163 -345.468506
658.547119 284.643127 -422.740143
724.109253 128.511871 -609.062073
822.974670 107.123276 -484.449371
775.082520 102.263435 -553.560181
888.550720 110.866402 -430.564636
710.736633 144.339310 -517.695435
730.098633 240.470337 -394.878235
827.905579 207.629044 -315.423462
889.981140 120.809837 -402.325867
970.404236 150.021957 -229.663315
896.428467 41.400700 -551.537109
851.401245 203.478683 -299.553436
853.983215 -1.337350 -554.191040
655.621338 267.729523 -411.442261
684.734558 183.601700 -521.136169
714.515808 149.193161 -550.049011
983.661255 92.932678 -266.190186
800.193848 85.574974 -539.061035
864.221252 159.153931 -376.876526
966.615845 99.519867 -344.121979
909.732178 32.854198 -542.426392
951.744385 153.001541 -249.220261
817.533508 167.631668 -393.497314
816.935913 239.304016 -296.544678
701.413025 127.496780 -558.817627
891.389099 128.077957 -363.184998
910.530334 81.169510 -429.570221
803.468872 139.053207 -463.611664
683.709290 266.223938 -385.145996
710.505737 236.050140 -401.315704
818.931519 -15.209436 -574.906616
763.100952 103.344414 -638.600830
987.500061 64.971992 -338.433075
976.207031 87.232529 -362.756927
914.312500 176.322403 -243.750214
744.893005 230.161041 -403.222107
965.726440 79.372444 -374.387146
841.799377 165.554855 -367.635223
963.242920 63.136497 -384.054138
841.517273 158.886658 -403.451691
829.522766 82.345665 -514.808533
976.257690 111.736458 -282.377808
602.717407 286.041504 -437.009064
849.778015 100.859276 -473.722931
625.176025 286.827454 -421.819702
686.346863 247.341324 -447.673798
997.473022 48.192715 -373.707336
833.166077 144.778275 -432.461182
936.993652 137.448929 -289.498993
821.169312 208.133133 -318.486816
904.658752 136.248749 -346.246338
695.558411 115.274040 -606.343994
986.471008 88.397850 -336.941071
1038.169067 8.148985 -459.210022
856.325439 193.510681 -304.395020
747.967834 156.514816 -488.558258
757.761841 183.085190 -470.850586
795.202881 27.853155 -599.878357
687.893555 140.009674 -623.424988
820.284180 135.779617 -439.574554
753.567322 230.467789 -359.920471
679.569763 190.423813 -559.440552
830.397217 158.094437 -354.691345
926.563110 58.658276 -457.121948
1011.266968 11.496494 -482.708344
839.532959 93.928246 -492.963776
937.077637 10.154412 -520.860229
971.257507 73.191383 -392.514130
623.594177 213.674652 -509.162933
694.588013 121.509621 -624.725769
965.502808 129.538086 -292.216339
1042.855469 10.534868 -495.604614
684.321716 252.802277 -401.147003
591.848999 285.103851 -436.717712
929.192749 98.828896 -400.573456
1018.987122 64.848572 -348.032410
792.554016 137.413467 -468.087952
944.202026 139.455170 -241.284714
773.660522 195.963730 -370.325073
689.818420 245.059753 -367.802277
890.836609 -7.151911 -546.011658
914.613220 22.418848 -530.934021
619.081238 273.082642 -488.911896
1017.376160 116.387276 -242.114365
702.889099 225.936951 -372.198273
896.595703 -0.173558 -530.636963
780.470276 239.206375 -311.781921
1043.507690 14.380465 -411.894318
1031.020386 49.707233 -356.400757
751.929871 245.819977 -343.361298
708.786926 173.249329 -539.859253
973.966553 152.813522 -201.360153
775.291992 183.287476 -417.282623
978.775208 59.938007 -368.795837
968.416382 128.856064 -243.883835
811.075684 71.290810 -603.557129
989.628662 138.501831 -246.308578
718.072632 197.130600 -494.639282
644.142883 287.892120 -422.070496
924.886108 48.147793 -502.628571
999.447876 75.870621 -337.298767
596.670105 292.476532 -446.348816
854.646851 15.968229 -573.418030
885.719727 107.182739 -430.923462
941.448608 60.683029 -438.033325
957.158813 154.910583 -258.073853
1012.718445 103.788910 -270.078003
837.208618 95.241425 -481.595428
1033.630737 40.846420 -357.220551
848.764771 6.457760 -569.282104
780.598816 192.270233 -354.440582
660.718689 138.954514 -583.031189
815.945313 13.532593 -598.393677
911.853210 25.646090 -540.908936
996.764526 44.973934 -391.681885
855.753662 166.514359 -369.944946
641.307983 183.179993 -569.668823
844.338989 194.633850 -332.087341
843.259583 163.530411 -310.839172
957.027100 144.017685 -227.725525
937.825745 147.460815 -281.599365
633.302002 275.270416 -444.335907
859.016296 188.842743 -283.289703
943.538330 188.906815 -215.366974
877.454712 96.311401 -400.029083
758.424500 223.799484 -392.791626
631.531067 260.291687 -476.429321
778.634949 91.975143 -584.404297
829.613770 148.340256 -433.310303
627.798950 235.348862 -492.153931
823.085938 137.197952 -386.202087
755.809937 206.896790 -391.094086
620.606995 260.451447 -522.133667
981.881531 123.985039 -283.489563
720.233459 146.054276 -540.394226
886.070496 171.250473 -311.442200
953.828186 42.752251 -503.474091
696.123413 210.424637 -487.150818
810.061829 79.436119 -632.023499
743.800598 134.514709 -557.720642
1011.075562 50.564896 -370.408325
737.895691 260.334900 -370.251343
851.162598 221.540466 -269.611237
940.737122 130.889023 -311.627380
750.213257 242.501740 -342.292786
1013.983948 31.245361 -392.520111
613.486450 279.633514 -440.614624
916.547913 142.801285 -326.908600
973.148315 40.509560 -507.005402
745.765991 261.446716 -336.349518
643.328186 170.027832 -590.960510
966.737488 -17.282917 -502.450989
911.105469 20.461088 -515.947266
935.830139 167.991638 -234.845688
792.759827 93.155411 -652.099976
937.965393 142.600922 -229.191559
863.190613 197.628265 -285.471802
763.553223 157.198273 -469.863647
967.021057 153.543945 -236.788712
990.060425 -7.277011 -514.633667
1025.281494 40.784031 -375.331726
1023.608154 63.400227 -313.545837
809.750671 -12.432057 -573.437683
705.782654 164.403915 -542.360046
811.712036 40.933746 -601.911316
911.301514 168.793579 -253.621872
997.784668 114.423584 -282.669922
647.656189 284.675232 -406.485138
599.895813 260.139038 -449.719849
1042.608643 43.073044 -337.646149
892.051636 16.800341 -532.033447
1008.388062 100.540092 -280.611267
832.315857 186.536438 -298.044403
991.112549 75.916176 -345.040649
799.200012 218.843262 -324.339264
618.402832 258.876495 -488.815308
867.793030 -8.537836 -567.272461
989.607361 23.536798 -517.599121
796.317566 63.161167 -627.070862
906.679688 196.706543 -232.284119
829.286560 107.397461 -504.065765
1021.714172 24.298302 -419.995361
881.596008 124.321587 -417.763306
878.730530 125.175407 -389.797882
899.625854 179.071564 -254.020966
864.509766 64.590813 -554.778198
959.596252 31.797638 -499.851257
1026.561279 42.079586 -355.532776
922.443481 175.443039 -264.180054
926.574524 -10.683181 -537.453064
904.234619 -27.787195 -521.566956
1017.447571 18.430826 -423.917816
709.409119 134.127975 -689.209839
882.536499 133.419891 -358.171661
969.708435 41.870728 -421.570618
925.267761 142.498932 -286.319641
692.783508 248.230774 -437.808868
834.977539 150.933441 -426.059143
817.572632 147.890930 -418.434021
1036.896240 39.800819 -320.001007
835.998657 56.938465 -554.214050
917.338867 113.756363 -385.547821
852.845337 210.664307 -281.915680
947.905090 128.490280 -265.508331
834.278748 185.097519 -345.962860
818.974426 100.631866 -536.242249
844.841797 32.599453 -582.425720
1030.111084 19.241962 -384.139648
865.363159 59.546127 -584.690430
671.129272 166.820755 -585.274597
974.768311 36.226723 -505.533722
996.445007 31.742598 -485.459229
844.175964 55.880608 -580.785583
807.337036 215.663773 -341.141327
974.073120 162.730316 -204.949997
921.372437 163.010712 -272.441681
750.072449 127.786560 -535.901672
635.053406 180.891708 -591.894043
969.557922 47.549259 -417.308807
922.429260 162.374634 -257.392609
623.249146 300.609314 -437.442749
802.962280 116.770569 -519.100708
648.301392 249.806870 -485.897125
811.834595 174.495789 -412.336426
877.128296 61.385075 -498.300781
924.799500 73.028954 -429.435303
847.187927 182.545654 -354.152466
993.948303 57.610264 -319.772980
698.511108 223.385590 -459.783173
831.086670 84.985054 -513.375244
996.066040 43.789978 -387.838379
968.317139 135.868088 -268.088165
994.987610 159.486832 -210.890793
1070.120605 30.891329 -340.933044
741.992981 195.730713 -460.755676
982.916199 118.123619 -265.069794
843.769287 -16.251743 -557.537170
972.377014 60.539104 -334.426208
718.563843 111.853798 -589.813721
1028.406128 100.729340 -244.264236
905.843933 134.065308 -345.762939
978.250610 66.311623 -363.348602
863.999634 124.817528 -421.359253
950.235352 40.346542 -502.327820
1043.149780 32.637924 -361.327454
849.762573 149.939453 -383.748779
927.486816 -23.878450 -530.358276
647.831787 243.905029 -460.833099
822.258911 65.690224 -589.174072
712.976746 215.390274 -456.138306
895.741150 100.014069 -428.506683
771.877808 111.696373 -537.230530
635.810974 196.702484 -550.091736
985.121155 7.821052 -518.091064
941.087158 170.633942 -209.832977
842.584045 177.806946 -367.175903
727.832214 136.139526 -583.062500
653.084229 251.955841 -452.985229
803.376160 199.529800 -345.783417
919.971985 86.455620 -403.352570
709.361206 230.375809 -411.838470
924.244507 148.962357 -296.831787
821.437561 170.509705 -387.231201
713.413086 229.494934 -408.788422
780.910522 201.183014 -401.165283
793.319946 231.640045 -314.697144
906.333740 51.877525 -520.392151
984.618958 57.114914 -355.990631
899.309509 191.703720 -269.285126
898.294067 140.630341 -322.899750
748.473511 168.410919 -468.427826
796.804810 154.924393 -459.540039
901.897278 159.961136 -319.462799
905.974976 123.722664 -376.739990
903.519287 143.316101 -324.737823
1031.050049 29.207544 -515.367981
768.663574 91.579369 -559.595764
958.133850 43.703411 -499.645172
926.080688 56.444595 -445.500153
689.981018 253.552307 -398.453186
1013.185486 91.935349 -297.270905
915.278809 173.093750 -277.955414
647.161255 193.235001 -582.329346
981.362915 76.120483 -326.246246
958.540039 139.233765 -269.968994
798.374451 70.828682 -584.158264
871.122925 88.022087 -461.650482
966.204102 101.482727 -319.852448
840.656433 71.512627 -549.719482
955.458618 155.587997 -263.185486
854.828247 8.550209 -572.679932
812.839050 186.468124 -362.738586
654.920227 181.479004 -589.139709
941.997070 106.336754 -325.136200
799.318909 200.665436 -349.405701
850.633911 154.550446 -396.462341
890.895752 105.564491 -365.945923
764.655273 237.550842 -337.051361
857.581909 84.842598 -508.482819
857.896423 56.746727 -567.570313
825.039673 171.318420 -371.339539
913.622131 135.833725 -323.461334
742.125793 125.909592 -548.871094
891.448425 1.114827 -547.085876
697.659729 185.966888 -531.387939
968.043762 120.388618 -293.178467
858.562744 59.057549 -567.454407
921.766418 93.565483 -416.533691
803.690613 121.740410 -476.286560
871.108765 157.164719 -341.661194
1047.227539 -4.802072 -420.425873
968.628845 107.975807 -303.822479
954.897583 180.992859 -207.459793
849.913696 221.993134 -273.368683
851.623535 -27.284327 -544.786377
1002.139832 17.566097 -451.700073
827.889343 100.077965 -526.687134
914.010132 45.723793 -480.365143
971.195374 36.284546 -455.911896
649.109619 147.563126 -635.745239
1035.553955 17.812984 -436.589294
863.666626 209.607773 -289.828522
979.556396 19.705723 -526.400940
838.204041 -29.389807 -544.649109
1002.983276 91.460381 -312.707153
937.471802 25.378883 -526.191528
779.069275 175.076141 -414.349274
745.707520 236.571060 -359.836365
781.930359 99.997269 -655.149475
854.672180 83.895317 -525.894226
956.432373 87.065422 -366.483337
729.223145 159.198334 -507.552368
786.463318 56.617657 -622.362061
877.807556 -22.990303 -547.448303
637.758972 189.471268 -567.332825
841.131897 72.614189 -538.588501
889.308167 -17.002029 -531.942871
1036.138794 32.315964 -343.248230
1005.076294 43.800411 -380.892639
756.096069 85.251747 -628.009155
803.787842 81.622040 -560.278992
896.113281 138.932419 -329.488403
831.240051 137.418121 -432.734711
912.322327 57.266907 -490.370880
802.153381 92.619972 -532.083740
639.154968 191.989960 -578.888367
911.080444 19.288614 -537.828857
806.869263 166.249924 -352.091278
746.091125 101.912910 -620.822876
798.300232 151.771973 -464.041718
1000.038696 106.191742 -284.547272
689.090088 145.991547 -584.952881
914.838440 92.990753 -397.507233
968.821960 102.479927 -345.767761
711.141235 250.796005 -368.623474
674.098267 153.081818 -595.746277
732.177063 171.641678 -489.875732
788.430603 103.828888 -652.232239
929.384277 117.971237 -336.239990
840.304199 13.574927 -564.983826
930.968933 145.464645 -272.042755
892.886169 -33.916912 -531.644226
905.879761 166.936310 -267.497314
798.090515 56.242714 -616.643738
686.122986 201.524139 -505.501129
934.728088 49.850201 -457.222443
948.062683 182.144363 -202.148438
923.108826 178.680939 -250.503967
770.919373 203.350525 -404.074493
714.639526 119.264938 -587.713501
702.089722 243.304825 -387.949066
970.983704 91.070709 -327.591370
616.132996 279.535828 -475.138428
903.079163 53.948139 -493.449341
848.770020 207.204346 -274.103485
872.125793 122.761429 -393.798920
998.339539 21.229078 -416.269287
1067.949951 0.864882 -434.588928
854.619202 14.935893 -574.560486
812.118958 9.130261 -591.506287
767.863098 141.372192 -500.812683
890.687439 102.545586 -444.590302
763.791931 197.114532 -431.115417
1007.216675 86.599709 -300.574677
813.995728 31.240732 -603.020752
824.105957 -2.120882 -578.866333
848.850281 5.663347 -573.818909
969.642029 -13.978430 -513.141357
976.244263 -13.259260 -502.297729
914.271851 140.068359 -346.258881
929.172913 -16.105911 -525.312622
858.493896 191.811859 -317.647644
868.302246 74.403938 -537.580200
991.481934 170.225388 -190.594376
762.267761 164.340027 -464.315704
886.098938 200.744171 -262.126434
746.144470 194.688461 -456.949860
984.309509 140.566330 -246.679092
941.117737 71.519653 -424.997925
936.601807 128.887039 -267.903473
827.418823 24.100828 -573.386658
1045.337524 39.362629 -348.766052
713.308716 255.503723 -388.298584
616.705811 270.982819 -411.742035
956.895996 146.156616 -273.861359
912.614746 105.537979 -380.712433
662.482971 198.634995 -548.569031
987.232910 31.577034 -458.083710
773.462524 143.850662 -516.893921
878.213867 114.370071 -366.094879
955.049194 152.006378 -262.946411
1004.705811 117.634338 -259.117157
955.651672 64.807457 -416.923706
830.331787 62.915516 -600.611694
1016.287537 4.303269 -495.139801
1000.682861 89.454521 -286.767944
941.595886 55.395584 -463.987701
620.976501 280.758942 -423.052063
939.518921 153.516785 -247.510742
715.320923 118.654312 -639.315613
911.799927 102.191086 -376.204742
974.919617 182.102966 -195.310913
847.999878 167.171936 -341.368225
684.388550 223.589783 -450.429230
698.544495 226.509796 -468.267029
969.876526 25.874424 -441.278046
793.396301 134.163712 -439.661926
939.671753 69.781036 -438.741058
911.598022 138.925537 -320.402832
690.850647 176.792999 -555.060486
984.935181 111.927338 -258.460510
743.686768 115.293884 -564.178162
728.251831 194.232361 -476.517212
900.026733 63.249363 -453.998444
954.492371 131.518616 -290.847229
671.816650 203.907852 -503.123016
857.269775 173.737595 -327.346375
682.252930 149.909500 -694.004456
1020.859070 70.663872 -319.695099
1009.322388 69.400467 -304.724487
788.919067 184.558884 -395.247589
974.483398 149.226440 -219.371948
900.617004 9.635121 -538.068848
952.348755 134.968552 -287.132172
910.016479 180.335617 -221.695282
740.277466 248.655426 -378.443726
824.138367 204.277298 -342.815674
1008.057129 28.884504 -382.261627
952.371094 128.808975 -286.504883
953.090210 53.329609 -457.334808
837.443359 150.068283 -397.194031
776.754700 97.766190 -528.148682
941.498413 143.922775 -296.158386
766.590942 173.381821 -472.280212
877.246643 -37.054703 -537.489380
863.315735 22.372692 -558.810486
698.247070 238.491821 -410.131683
1013.669800 130.539322 -233.126114
766.728577 98.175934 -623.823181
874.604858 -25.208336 -558.096436
854.652039 124.237396 -426.325470
817.444580 134.283096 -481.075165
885.219360 173.250305 -254.376724
823.464661 107.778473 -518.046753
912.469543 26.591978 -536.345520
665.826965 267.414703 -399.590118
917.769531 158.998672 -251.353760
668.214661 241.469315 -481.764282
737.011780 199.335861 -427.968781
886.572205 192.300934 -274.694611
956.677063 34.779308 -473.889740
966.612915 105.980873 -342.410858
802.269226 62.995216 -615.459229
801.325378 116.126144 -521.522644
827.774353 114.107986 -455.855377
1015.757996 110.496422 -256.176849
1047.147461 8.448825 -473.747986
649.243591 198.059555 -550.908386
794.331116 182.985001 -385.206635
1003.957031 8.897068 -512.381958
1031.835938 29.174698 -376.948395
689.059326 226.125931 -441.559784
901.383423 195.469284 -241.417816
888.924744 200.571091 -248.003662
704.016174 185.024612 -494.214569
681.803894 151.304535 -578.988342
771.790466 143.371994 -482.441925
836.377197 174.423431 -352.948090
870.361877 118.733368 -411.836090
621.056396 196.721268 -545.234314
862.600159 -18.475029 -545.924622
737.451660 164.814865 -515.484314
802.914185 147.226868 -470.782837
973.460999 153.061234 -191.916367
1059.492065 12.553213 -474.001495
818.422302 157.962830 -431.820313
1039.527710 16.485142 -404.513641
700.904480 221.388885 -442.365845
888.487061 137.728470 -349.116608
981.479797 94.456108 -334.016693
719.342957 133.506073 -527.242493
864.061890 49.085754 -519.253052
917.343323 135.634644 -318.921082
796.039185 124.783882 -492.672333
886.454895 101.669609 -420.516998
752.256226 213.129913 -392.666748
762.888428 189.690567 -394.129089
819.500244 4.024328 -572.562805
673.574219 194.639801 -544.048584
837.617676 146.018341 -427.160065
984.908936 163.140457 -176.369568
855.074524 185.955002 -296.180817
638.979431 234.007050 -530.888428
793.740662 174.509979 -435.586700
859.735168 -11.655009 -562.235229
666.565002 140.743546 -611.446106
893.360107 71.073708 -490.204865
730.040039 165.917160 -475.642334
587.654724 299.883881 -450.217743
953.373962 151.172897 -253.587006
763.634766 236.679291 -323.738373
945.090088 128.421524 -296.606354
758.171570 195.981155 -414.851074
660.114319 164.306412 -645.040161
927.456909 126.777031 -342.555023
948.576355 149.640594 -270.662933
859.400146 139.707031 -377.400116
807.438232 157.627655 -423.578522
819.476685 60.220509 -607.371643
832.185059 92.005379 -534.704590
1016.557678 -2.803081 -465.627716
930.238831 40.449360 -450.141296
990.625244 96.469238 -310.278168
1000.238037 128.710739 -202.238083
947.327942 31.248028 -504.798492
750.278320 251.992661 -322.835175
912.082092 -31.802217 -528.319763
913.379333 201.593933 -234.668015
861.219360 122.236351 -406.983887
745.540771 187.957321 -446.635132
948.743591 73.242981 -353.105194
943.036987 121.450478 -325.667908
855.061218 164.040405 -347.069885
707.620361 245.504379 -348.983612
972.321350 21.933439 -504.972260
909.860657 135.996994 -327.964752
849.496521 40.299259 -579.230225
679.049744 137.982697 -671.558167
795.369873 171.012329 -439.535431
938.444397 159.032852 -260.317810
1021.649902 59.087551 -330.580475
966.687744 90.306900 -367.076935
717.347778 124.427361 -573.291565
883.551086 175.503250 -279.483215
909.455078 133.356308 -337.323456
966.689148 128.868256 -285.358582
804.905884 114.370323 -490.589539
843.019714 201.766907 -281.312164
974.692200 16.205917 -445.180725
955.435364 53.061363 -432.200562
857.042236 -2.806084 -562.894348
1040.168335 18.259901 -496.741333
770.370483 224.482193 -364.244720
741.275940 151.631958 -495.300720
769.083740 197.124527 -423.069092
958.900940 125.399757 -307.663513
869.783752 60.970295 -573.865662
869.514648 97.464737 -476.220673
1018.271362 9.324408 -383.886230
724.088623 221.888992 -402.224030
729.691772 204.074966 -394.634857
862.766663 195.782852 -252.940643
951.421326 78.026604 -380.517456
779.130188 165.497787 -468.082764
844.237000 27.006889 -583.853638
964.390503 164.139465 -191.773499
891.845825 76.895882 -459.642334
911.302490 135.882034 -325.018341
807.002014 205.282318 -351.570129
761.149048 174.728256 -431.577911
1018.885681 93.749184 -262.493652
872.662842 140.139450 -359.374268
829.637878 178.108795 -364.574219
672.156067 187.136185 -515.174011
632.651672 263.669189 -460.977264
959.130859 167.786407 -228.647324
839.621399 98.936867 -483.996155
720.281555 181.213089 -522.473694
841.413635 183.123276 -341.083740
993.537048 67.248154 -359.640167
627.731934 238.413361 -525.107849
681.950134 260.016663 -393.326996
995.171082 52.639317 -386.705383
904.046509 13.142080 -546.722168
866.409607 63.574192 -530.780273
847.080566 116.385124 -431.592865
712.937378 247.754562 -369.276245
793.362915 86.744469 -586.876831
822.487732 -19.326525 -571.197510
755.679138 110.759079 -542.147034
953.671753 170.626266 -228.743942
1066.051758 22.744587 -495.821777
650.935486 222.457489 -498.131073
765.906433 101.382950 -542.796265
1033.793945 29.421091 -373.905945
648.125916 190.417618 -550.821167
874.331299 145.740372 -362.553436
924.948914 13.240782 -531.927429
866.807556 74.778824 -509.312103
950.234436 146.317703 -222.652420
908.250122 165.558716 -278.756805
1003.727112 70.891815 -317.319214
900.095032 -21.408133 -542.250244
799.181580 189.831543 -365.219208
989.718506 121.960251 -258.094543
1054.311523 14.466249 -490.894165
819.681458 137.679688 -472.641998
673.395081 284.198822 -408.653137
658.159058 263.744476 -417.424988
942.689941 97.396072 -373.324005
897.525879 14.044038 -537.314270
728.210083 191.451187 -408.365662
970.124023 30.498264 -476.005768
823.699646 143.962341 -418.538208
788.071289 236.288300 -306.733551
1005.857544 111.263504 -271.694153
1064.853271 -2.604702 -402.494537
953.606628 29.277033 -499.800751
798.360840 169.910538 -411.247467
698.459473 169.913040 -514.127319
898.398987 200.894867 -256.952911
867.759521 79.339523 -482.576477
971.626770 118.983955 -303.037048
786.804321 142.260178 -466.935577
915.372681 104.928932 -379.991028
872.565247 176.019409 -301.009491
967.450073 -20.785872 -509.978210
742.882568 257.021057 -332.275665
813.721069 198.502930 -338.297760
768.644897 195.891449 -375.912964
731.551758 196.299347 -418.798401
821.269104 84.086235 -526.356445
894.431641 185.606659 -279.248840
892.716858 158.660400 -319.833008
1031.638428 24.719833 -366.016327
836.271729 155.831177 -332.943848
946.594360 152.070374 -264.823273
798.569153 116.638161 -496.068878
802.841736 188.207764 -367.354828
782.540222 106.759712 -540.378662
713.356140 202.915466 -492.773712
910.033569 152.076324 -317.276367
871.110596 89.778008 -492.648987
894.478943 141.159897 -335.222137
858.299072 72.985435 -534.520813
872.840637 46.782860 -536.195862
1057.752319 -3.330913 -452.500610
734.176941 227.857773 -413.146576
953.536804 50.117363 -414.826965
800.151184 17.541346 -600.259888
1052.455566 27.997185 -369.999451
904.868774 194.443329 -238.386124
669.839355 251.397186 -421.359680
692.452271 243.198563 -437.125793
699.988098 227.504959 -463.474884
675.166382 157.941742 -583.677551
737.119446 169.481934 -483.524628
619.159485 236.752228 -497.893738
950.503296 50.699638 -435.407013
900.904602 160.928421 -322.951141
965.583313 51.219276 -413.544525
617.504028 309.548157 -455.113342
948.319885 -33.645988 -498.497040
819.429443 -14.794662 -562.548157
969.921631 39.887547 -427.866608
933.767029 178.516174 -238.340469
701.455017 149.361938 -584.903809
785.943970 185.981613 -391.613647
816.930359 84.871803 -529.634705
971.222229 139.467575 -258.710297
936.818848 182.910706 -220.816925
816.628357 155.667130 -410.944672
778.696045 228.256577 -362.435364
849.555969 112.971016 -434.663208
1005.298401 49.319996 -318.582733
928.308960 -23.462307 -526.093811
1020.589478 2.231506 -491.883484
879.249756 198.452377 -245.614731
737.347595 156.699081 -501.611298
850.017761 125.613663 -445.765015
971.065247 141.218185 -238.394196
969.454285 31.629004 -400.410522
712.002991 191.946899 -473.779724
860.440430 129.420242 -431.826111
855.263550 68.238403 -578.148010
774.832764 103.616447 -599.318787
793.913696 83.953537 -569.989136
852.975952 126.334366 -416.762726
975.851563 84.298584 -358.018738
943.951599 142.912247 -282.474030
870.709778 86.232414 -491.651703
677.363892 268.521667 -389.783051
663.145508 254.893936 -392.029236
960.155212 116.223030 -260.426392
899.110779 186.275574 -262.748871
723.434021 116.005951 -618.336182
1039.966064 46.503292 -333.427948
811.564331 48.189724 -599.725830
957.686584 55.936317 -425.197693
1013.895691 92.576599 -265.923981
1001.638672 54.698006 -370.273499
797.349915 88.266251 -587.490112
698.575806 165.117493 -566.993103
857.477356 106.793564 -475.432434
674.763062 215.295105 -481.028717
880.449402 191.838226 -291.230988
923.525452 74.909485 -439.743835
995.983948 122.482315 -264.423279
815.297974 192.706711 -365.350067
788.797180 103.636703 -563.096863
790.867065 121.585495 -524.696716
986.645081 128.900833 -265.319000
793.771118 102.876831 -554.617126
841.717773 67.965797 -503.964203
880.545166 54.771156 -557.773926
790.894958 141.030396 -463.999786
647.622253 178.745804 -570.005920
850.499146 50.665688 -577.015869
745.095886 207.274734 -369.762817
868.421326 141.942535 -391.780426
958.909241 -11.293600 -523.711609
1020.673828 11.876151 -371.854950
693.997742 249.110626 -400.948090
975.190430 30.394594 -415.139679
873.219299 188.951965 -292.070679
892.440125 105.887703 -436.301819
970.296509 169.188690 -198.728470
872.691101 -1.370419 -563.413269
915.418701 172.581802 -220.315140
946.464722 9.202133 -512.380554
922.686890 162.417267 -285.048676
664.356567 256.896271 -410.436035
984.712097 72.745125 -350.176514
817.649658 76.463509 -646.109802
985.916382 56.903618 -371.894531
757.222351 190.382523 -428.892029
809.929749 71.243080 -633.216064
937.700500 41.115082 -518.779907
596.718445 313.275513 -430.935333
832.736938 172.849426 -326.740570
938.337097 -37.640545 -499.220764
650.260376 248.355896 -488.320923
687.475708 206.425797 -494.573853
1019.184875 39.966022 -371.485016
650.688232 279.018463 -398.670563
658.551147 127.056580 -622.693359
859.934631 195.991287 -272.198212
716.393860 168.456711 -491.303711
719.582520 217.412109 -448.689575
1007.891846 147.735428 -185.898132
892.128479 50.181618 -543.814453
853.057678 96.664726 -471.127106
962.730774 185.817047 -200.991440
841.184509 129.147598 -441.109436
917.302917 180.754059 -227.752670
875.871826 195.326859 -262.197021
718.111450 185.922668 -476.431610
747.281433 224.656967 -361.528748
923.694580 135.688705 -281.708252
698.582764 155.000626 -589.962097
672.449036 159.354034 -554.524841
967.752075 30.406460 -479.357727
801.225525 77.301178 -625.867310
804.229858 176.843719 -391.699005
802.423340 22.633957 -592.364807
883.439697 144.135895 -358.163849
778.291931 205.900986 -305.524750
819.744934 85.226952 -542.527649
1027.772705 76.122993 -307.507690
834.574768 105.502457 -489.738129
625.809937 234.108612 -507.882538
806.964172 211.579163 -312.097046
964.374573 93.654686 -363.711334
757.718628 193.790390 -421.645844
758.892151 222.507446 -358.240814
824.145447 203.961075 -313.929779
772.427612 98.090775 -562.483398
944.413147 62.356342 -446.677612
975.496033 58.464169 -382.195648
682.539795 211.282043 -493.074585
949.278748 110.060295 -350.720276
624.771057 262.529633 -496.479279
872.615967 197.859787 -290.240356
816.026978 106.396721 -488.412476
752.587097 232.453003 -372.001770
933.011536 183.626556 -238.152969
691.977173 149.949997 -592.099976
979.562622 140.424393 -227.275208
980.346985 92.235268 -333.767944
838.057800 80.452362 -552.213135
650.038574 272.869965 -441.970062
999.918518 19.560715 -529.839172
629.929626 254.676804 -415.837555
958.007324 160.262802 -194.973236
890.892029 162.813339 -306.212708
640.489075 248.235367 -465.943970
739.904846 113.907509 -643.323975
692.702454 157.784622 -555.864258
765.781982 192.829163 -384.983734
835.344421 205.126129 -326.599792
668.758118 229.351532 -438.249451
812.487671 103.385574 -507.041351
881.724121 80.103043 -469.360077
856.263367 -8.700811 -562.282227
923.144958 167.776566 -261.814972
825.399719 82.593460 -521.683350
934.504456 121.392799 -330.828735
995.412476 77.224503 -308.363892
950.333313 -27.926010 -500.806244
834.732178 15.065303 -579.559021
791.500549 104.260910 -515.959167
640.992676 197.687057 -581.306213
757.289307 192.294144 -376.451080
744.262207 201.168961 -382.702759
809.381287 46.329285 -620.344055
840.921021 93.137199 -511.153168
926.845703 -26.561440 -509.651917
905.505005 128.801086 -373.464386
844.781738 33.512348 -588.200012
674.303833 271.663971 -376.546265
894.827698 129.961975 -373.984314
688.909485 230.765579 -432.967865
802.181030 60.806007 -612.462158
797.268677 200.983429 -347.490448
699.078918 233.496857 -428.255920
811.080383 138.637726 -482.041473
958.258606 126.199936 -284.264679
649.747192 176.330063 -574.172180
924.651489 160.142258 -296.109039
1031.862671 26.207115 -367.010468
912.491699 41.947872 -493.488068
1066.292114 6.711651 -473.012909
629.353149 281.946960 -450.541168
884.185669 -17.140261 -546.885132
648.994629 232.498657 -520.956726
779.525574 160.436096 -478.414581
866.487488 150.795975 -358.115692
827.906494 74.536484 -579.403259
756.094421 110.284370 -556.563599
999.493774 107.216751 -288.302826
939.822876 84.052666 -392.478516
700.647827 231.799652 -376.513306
857.560608 107.148705 -453.408234
681.353027 214.503494 -488.966217
953.125916 179.088455 -215.594620
929.863892 155.599792 -229.603027
913.826416 177.289978 -250.769012
