ply
format ascii 1.0
element vertex 1365
property float x
property float y
property float z
end_header
-183.537827 977.584839 -155.532547
-222.875732 922.334717 -137.546646
-245.924362 971.097839 -365.163757
-267.404083 853.800415 -121.286186
-152.553574 1058.041260 -292.270691
-279.557220 942.187866 -414.247986
-427.694977 699.086426 -162.505646
-148.672165 1009.491882 -181.499451
-333.422729 844.992554 -333.889679
-240.201965 905.188660 -440.202759
-406.550598 740.590576 -271.427368
-326.351044 858.796509 -443.505157
-397.954620 789.305542 -348.539398
-352.776367 806.991333 -288.326996
-342.031036 782.459106 -115.822403
-373.125671 790.974121 -287.656616
-274.574615 892.387451 -255.270630
-253.775269 940.023743 -289.229370
-262.749481 875.555664 -157.965775
-269.492523 949.874146 -403.125946
-208.083832 909.967041 -78.765602
-347.261871 825.597595 -307.295563
-338.318085 765.478882 -177.414368
-303.293701 805.422974 -102.215279
-212.656281 957.302917 -212.419403
-414.156464 680.483032 -124.608551
-188.195251 986.161072 -192.847931
-149.413055 1024.588989 -239.434845
-457.104218 652.893188 -103.493355
-322.959351 858.197449 -278.639221
-384.870575 785.467590 -327.314789
-268.706879 924.404724 -294.365601
-334.136292 792.355591 -161.327316
-393.244446 759.386292 -208.494019
-257.624390 907.230042 -234.459900
-399.165405 759.326904 -279.482422
-220.438690 942.803467 -203.137497
-268.037445 949.238953 -421.562836
-317.684601 807.443237 -160.251068
-343.316833 804.855835 -244.362671
-247.057404 870.221558 -110.682693
-248.188751 884.571106 -109.343948
-284.063995 852.824036 -198.951553
-468.587402 673.544312 -231.668396
-329.423767 786.962280 -146.339905
-207.840225 905.757935 -94.479752
-437.289612 710.726746 -302.913116
-261.016235 935.750427 -346.052765
-245.082443 873.585327 -111.855156
-196.064240 962.691833 -169.861313
-256.407684 945.143860 -417.626129
-310.104187 802.863098 -127.078537
-156.275650 957.638489 -117.043304
-394.942749 722.738647 -178.416336
-271.379486 828.850342 -160.766998
-103.593102 1016.114197 -85.297585
-271.382690 961.439209 -389.193268
-251.857452 960.105103 -409.936462
-213.726273 951.436890 -210.416931
-383.253632 788.109436 -273.979401
-180.208405 1016.703796 -260.791901
-303.334534 839.636292 -214.030685
-296.377899 816.557983 -117.658218
-295.159546 888.644592 -273.314117
-240.441589 880.176270 -125.622055
-238.357071 960.950745 -432.574219
-250.141098 893.552185 -159.013977
-215.186310 910.786194 -119.073174
-268.773346 889.420410 -231.562943
-254.628952 992.280884 -415.585449
-405.542206 710.766663 -190.321152
-364.713562 791.437256 -267.864563
-238.668686 961.115540 -279.988556
-415.592560 679.440857 -195.168671
-222.103668 971.268555 -285.259888
-589.541443 790.662781 -779.148621
-280.583466 832.499451 -100.992065
-184.546341 991.812744 -218.125519
-184.516556 962.873291 -115.755280
-315.614044 835.930603 -441.820557
-398.570007 784.316406 -306.138519
-263.809570 907.095886 -215.867737
-169.242523 964.829468 -88.669083
-345.940826 746.058289 -155.662170
-152.498642 999.712646 -192.685806
-439.273499 676.247253 -129.457565
-157.249451 1015.368469 -238.147141
-316.142609 829.310242 -217.958588
-217.211578 998.284058 -337.728668
-347.612793 889.860657 -412.188019
-134.380432 1010.324219 -117.421906
-389.150177 711.905273 -119.984390
-300.556854 878.073303 -276.094543
-166.094421 1015.365662 -208.967865
-146.987381 991.039856 -118.969681
-166.872040 1028.183350 -245.575089
-210.250168 925.921082 -146.181885
-390.664917 772.066772 -375.253265
-226.803711 940.617859 -233.190430
-322.769012 905.712646 -409.082611
-364.963379 762.898621 -171.304871
-289.026947 841.434082 -162.787125
-398.804657 732.196838 -259.920990
-146.775085 1035.170898 -303.165192
-366.685547 750.823242 -173.900970
-199.127533 1103.213623 -367.851288
-413.015991 744.945007 -251.343613
-190.099121 955.765625 -123.842674
-422.320282 707.632385 -288.756409
-193.804947 959.047668 -180.366882
-369.721283 815.688171 -302.812836
-132.036469 1039.278931 -220.499283
-211.696884 992.247314 -324.592163
-129.341400 1029.367920 -113.870621
-301.344452 863.020569 -247.972122
-335.045837 845.177002 -344.505859
-321.521332 817.270752 -190.336136
-283.591766 950.616394 -387.791626
-313.857147 820.402283 -170.109543
-313.433533 910.677002 -426.378326
-150.874695 1004.509460 -196.311813
-140.232391 976.671021 -75.757217
-127.059105 1029.610229 -103.248497
-371.130127 864.579041 -408.994049
-398.464233 844.584045 -408.278564
-304.869141 890.033508 -322.470490
-404.593170 721.839233 -154.114914
-366.526855 860.864746 -390.855560
-337.218262 786.092041 -170.742264
-272.929688 970.093872 -368.456512
-159.873032 1010.118225 -292.320984
-343.378845 797.616882 -161.715286
-261.792358 848.473999 -104.090408
-256.544403 902.277893 -172.098495
-200.748962 919.025879 -89.430321
-239.606201 953.496765 -258.955933
-213.835892 941.339539 -274.229156
-371.804108 783.742065 -322.603699
-132.834000 1081.105835 -252.057709
-306.786652 822.391663 -147.495102
-352.768250 803.755066 -220.576126
-397.385040 816.322449 -433.634216
-339.338318 782.160156 -148.032898
-418.495605 693.592957 -166.728485
-232.858200 969.475647 -420.144012
-151.325424 1019.514038 -225.559204
-130.850296 1069.047363 -334.368622
-424.360718 667.190735 -128.895813
-160.199600 991.109192 -129.578552
-338.525299 818.787964 -215.974289
-190.380219 957.532898 -119.172279
-426.989594 703.595215 -175.174637
-216.877075 940.389832 -192.263596
-144.989365 1071.322632 -287.313934
-403.982666 719.685608 -194.973419
-223.130112 953.291748 -431.234924
-265.466278 938.293579 -303.714020
-465.923706 710.376099 -312.750946
-286.512238 944.570557 -412.418152
-408.537781 770.372742 -298.074982
-235.480042 900.199463 -108.902222
-388.688751 812.807556 -377.546600
-422.959198 696.112976 -143.440643
-167.011185 949.501404 -101.480415
-160.103455 1043.208252 -271.445129
-366.882172 822.094604 -328.284851
-181.086380 954.584534 -131.607529
-161.473389 1035.034546 -254.645004
-356.311584 777.217285 -127.218750
-246.365143 970.819946 -422.713837
-149.256897 1021.255188 -166.365860
-212.844681 945.315430 -148.820145
-250.594376 933.594971 -257.484406
-334.644135 798.797058 -101.287811
-209.508316 960.857300 -196.993088
-156.007172 1067.547485 -309.481873
-263.611603 905.447937 -210.532516
-345.758972 882.968140 -407.606293
-159.898834 1066.587769 -272.030396
-422.119843 687.311707 -219.656403
-261.766754 1019.558044 -386.982300
-440.485077 663.918091 -170.206558
-161.210968 1038.196655 -255.369003
-193.028137 989.589294 -236.195099
-260.932129 992.630493 -401.135284
-256.920654 906.987122 -187.607422
-468.829224 707.441162 -364.415375
-250.292297 866.921936 -88.603050
-306.318878 816.594055 -150.697403
-427.150330 663.709595 -125.426865
-121.919060 1005.831726 -120.833839
-306.451019 805.906555 -95.689941
-265.248077 918.400146 -299.916077
-248.926361 870.256104 -100.290672
-463.036804 665.338989 -125.398872
-252.282867 885.333313 -160.875824
-183.731155 950.952515 -140.434097
-129.726349 999.991760 -84.514328
-385.185394 773.631470 -285.055969
-447.721741 646.860474 -120.615669
-319.643280 906.992981 -400.728302
-333.360016 794.710449 -118.899338
-277.714325 864.821533 -450.257202
-167.670212 1043.178589 -318.898712
-169.762756 1008.550049 -200.221069
-252.772369 998.338440 -415.414215
-342.282959 831.353333 -266.210938
-323.782745 864.255798 -300.550171
-311.191925 884.292847 -294.908142
-187.819702 978.495422 -176.333923
-324.140045 798.781494 -138.829926
-326.587891 824.214905 -171.068161
-453.339386 710.747070 -366.158264
-257.078094 916.860046 -444.530182
-159.609039 1061.337036 -328.986603
-423.662537 756.614380 -308.298218
-435.111267 770.036987 -372.834961
-238.111343 904.674072 -138.873199
-339.834900 882.773071 -408.904846
-190.469238 983.379517 -193.931183
-321.123688 829.657471 -224.890015
-200.718430 957.857971 -152.810883
-241.791962 945.415405 -263.337585
-137.154221 1059.448486 -340.054962
-472.312988 702.514343 -336.771149
-354.907135 806.458618 -269.330261
-288.791534 846.281860 -198.239792
-375.951141 746.615295 -124.928078
-242.205521 985.275696 -349.822632
-304.530548 962.514771 -397.071106
-136.341690 1050.345459 -315.332458
-318.565002 767.434937 -120.360390
-337.531403 794.950623 -138.900269
-310.365204 879.781189 -340.768616
-397.025055 704.534729 -129.634277
-201.230820 952.672607 -143.148376
-217.645874 968.599609 -253.146194
-416.673065 716.196411 -163.590515
-354.985260 800.246521 -290.323486
-249.731323 897.343079 -263.133545
-426.733459 741.855774 -357.239868
-271.613556 900.998352 -210.796768
-296.412231 839.644287 -125.613541
-305.831451 846.308167 -453.811707
-205.562027 971.127258 -286.914337
-314.570831 846.253967 -247.963577
-433.458252 684.278870 -170.360962
-360.681183 831.072205 -356.795135
-316.985016 870.201050 -337.819275
-132.152451 1034.624878 -250.909332
-154.597244 1026.151123 -253.286774
-169.413483 1001.301819 -185.885193
-411.381622 717.315247 -273.950653
-175.459625 941.821838 -139.678253
-276.325439 878.097107 -201.194046
-137.423187 969.542542 -82.706612
-268.271820 861.969421 -146.734848
-135.476410 1008.370117 -87.315155
-248.272842 1002.023132 -413.133331
-325.327820 815.542542 -145.548660
-400.674011 740.038025 -249.778229
-431.633820 688.301453 -192.530243
-207.103714 964.056824 -221.684662
-354.173279 774.882996 -186.807114
-246.202545 954.118896 -285.109039
-141.289337 1023.445984 -151.686905
-173.477173 1033.979492 -310.897827
-457.605835 715.475403 -307.612854
-419.743591 695.645630 -195.645340
-221.871445 974.657898 -350.721649
-437.570129 763.617432 -384.157684
-171.732941 968.004944 -118.201935
-325.118713 810.376709 -200.767807
-343.801453 794.452515 -197.914185
-246.456482 1009.541565 -388.699493
-364.992432 755.640991 -110.786514
-158.291641 979.254578 -69.062981
-261.123596 1002.296997 -388.054169
-360.775116 763.033264 -172.036362
-400.076294 769.208069 -355.592987
-276.990265 868.669006 -144.481277
-135.689011 999.173584 -78.858772
-344.302734 802.391541 -223.628113
-355.421936 773.119019 -131.627457
-347.823517 826.078979 -316.551727
-171.929871 966.140137 -182.726929
-451.057068 653.901123 -197.794449
-139.801773 993.251282 -181.433655
-202.371292 983.701172 -256.276581
-173.020844 1001.955139 -313.038696
-151.881104 1040.446045 -314.266083
-165.630524 1042.800049 -354.410278
-199.220276 1010.602600 -332.274811
-260.296936 901.927612 -183.463928
-189.280548 951.989136 -145.778030
-326.727356 861.725769 -416.030548
-458.935059 727.781372 -361.739441
-324.185913 826.617004 -222.813354
-231.340179 939.934875 -434.744812
-321.494324 891.899841 -423.316589
-135.561768 1009.311340 -124.715706
-155.474869 1065.928955 -307.838440
-471.548126 691.507874 -326.597931
-148.036804 990.366272 -58.322243
-367.705933 756.922668 -258.943054
-327.697632 812.778992 -192.386978
-178.321915 1019.787842 -279.203094
-330.978210 815.008728 -219.540665
-244.324036 964.489624 -323.391296
-129.673065 985.975342 -69.320450
-292.493805 843.992188 -165.254166
-254.723251 858.760620 -450.865417
-425.796936 703.104553 -152.749985
-305.480042 883.475647 -342.708710
-375.181458 768.710876 -172.157135
-338.805359 745.907043 -91.514023
-354.617188 754.695068 -184.084076
-244.778915 983.711487 -422.413391
-231.729919 966.175232 -428.984161
-293.234863 903.013428 -417.473114
-394.801880 704.982239 -127.135284
-280.304779 874.348572 -159.915817
-439.075439 649.622681 -134.116287
-350.098053 845.965393 -350.263794
-379.675293 835.976685 -374.586090
-207.448532 980.331909 -243.711075
-289.135376 949.939392 -385.007721
-158.960739 1018.605652 -191.019012
-161.751282 1019.067505 -259.667786
-136.763062 1052.616211 -225.764954
-222.751541 937.391724 -209.604813
-257.036041 909.375854 -219.184525
-369.138611 731.828552 -122.690796
-161.238388 969.474854 -89.125725
-278.197205 856.633667 -114.970123
-190.437271 1007.212769 -269.550964
-187.641907 934.121033 -134.442154
-234.279114 896.446350 -99.131378
-400.661560 783.518188 -337.465393
-452.628174 700.501831 -264.602600
-333.342102 895.118958 -410.987549
-227.860245 937.560608 -227.885590
-321.503784 889.666626 -389.869781
-398.621094 748.517273 -242.043182
-285.931671 875.632690 -253.198685
-228.747116 966.152832 -277.819000
-242.946259 976.539307 -332.405151
-421.490051 715.431091 -254.434525
-253.826889 961.352173 -329.106079
-331.425140 865.073669 -440.860718
-258.816742 991.717346 -383.892792
-140.946701 1021.012756 -182.374207
-438.414429 740.653748 -307.283173
-247.680389 899.333374 -195.519547
-432.134003 693.455872 -139.969742
-202.899155 993.558716 -285.462982
-233.708008 905.984802 -175.363449
-465.145966 679.666687 -249.294540
-159.187546 1033.454956 -234.648911
-236.551193 1063.999268 -389.081879
-256.544525 967.138306 -414.032654
-399.347260 737.904724 -170.136322
-265.048279 860.790222 -111.438805
-220.116974 899.425049 -167.252197
-389.565033 718.908081 -162.979065
-176.579987 1015.154297 -250.953613
-357.129669 800.163513 -258.644958
-426.617645 704.389954 -231.651794
-237.813416 900.889771 -129.766724
-168.109848 974.591431 -197.890045
-420.583984 793.928284 -425.236450
-263.632111 998.448425 -407.822113
-229.495605 920.091736 -179.624985
-403.434601 717.676025 -184.768921
-245.487076 900.313171 -436.670502
-273.181671 916.142151 -282.958954
-359.800903 747.375000 -135.086578
-223.259476 930.191101 -191.196442
-384.525940 770.468201 -231.655518
-276.507935 895.071777 -243.034241
-286.399780 938.074036 -366.696869
-233.053177 954.439331 -261.084747
-386.146454 745.080139 -189.072159
-249.580154 901.098083 -213.858261
-206.974838 1023.458008 -361.414948
-447.760590 672.804871 -151.263748
-310.350098 790.381165 -104.485435
-406.435913 754.593994 -323.380371
-300.612671 807.367493 -113.874512
-267.854065 876.407043 -173.898666
-374.084290 807.575867 -284.674530
-152.530746 1066.488647 -313.300018
-357.186066 803.253357 -324.691650
-302.924713 926.107117 -408.694763
-309.825470 940.150940 -409.488037
-353.932129 824.805908 -433.659332
-425.470245 744.128906 -355.129028
-227.130508 922.893433 -178.222183
-136.360901 971.605530 -85.873993
-237.066391 894.564148 -138.018036
-251.597183 924.883362 -265.770020
-386.723358 787.863525 -325.381653
-406.091858 699.547363 -146.159531
-262.238556 844.898743 -175.957794
-313.949158 797.827148 -102.087891
-240.988632 962.766724 -377.123138
-314.437958 847.467407 -206.090469
-418.415924 816.800293 -407.031372
-272.081329 873.492554 -193.253494
-449.642059 689.548889 -227.615753
-344.231171 769.426819 -150.784897
-146.352127 968.081665 -67.453789
-445.474976 658.086914 -119.009865
-263.442505 863.583069 -132.759888
-120.514603 1040.093506 -131.369385
-198.787338 961.629578 -200.981628
-259.339722 880.646240 -119.893059
-214.732788 969.878845 -240.792282
-324.837646 792.380310 -125.120750
-332.238617 862.001709 -364.095428
-218.217056 900.402100 -104.296837
-408.008026 741.206543 -202.136948
-260.740051 875.090454 -140.002319
-189.857819 965.765442 -254.853226
-193.786667 970.068115 -221.294220
-171.442368 955.330383 -83.935616
-371.864044 794.222473 -322.876648
-299.753967 887.249756 -347.117340
-216.914093 906.783264 -85.727951
-304.336853 826.828308 -114.270477
-410.410706 690.752441 -137.299713
-123.601486 1025.302734 -126.040230
-239.595840 884.328003 -189.694885
-236.852417 876.959961 -154.013855
-362.036743 870.598877 -408.665436
-353.734955 882.892944 -392.731445
-298.515564 861.640930 -238.112701
-268.217468 849.708313 -113.095795
-299.029816 858.117676 -437.190887
-302.474762 857.807922 -280.552643
-233.595047 921.240295 -196.874359
-436.743042 689.053650 -168.967056
-398.335693 789.202026 -395.451141
-257.327087 919.622070 -302.932251
-193.351669 932.930847 -117.878784
-145.023300 1003.885010 -181.111313
-262.028748 853.093262 -86.247780
-264.481842 894.368103 -230.090042
-222.585632 959.247192 -216.328827
-359.195831 815.548462 -282.153259
-199.623581 922.277527 -143.165863
-242.451569 886.265930 -87.734962
-276.883301 906.386475 -440.703064
-201.569214 971.377075 -247.713120
-408.159882 743.323730 -287.539124
-200.079514 927.260742 -88.021133
-106.260704 1033.036133 -116.315681
-144.985901 1023.544006 -226.019699
-243.337067 888.170471 -138.207260
-272.852509 914.559265 -277.218597
-189.331924 970.975037 -141.524536
-398.181549 844.954041 -412.424133
-388.586212 790.677002 -313.487396
-261.299316 895.857971 -452.188690
-153.547440 1021.533936 -205.018158
-354.919678 790.289856 -166.105347
-296.128387 830.953186 -150.289093
-444.054230 802.992981 -421.159088
-259.979065 907.436707 -253.518448
-310.070068 782.019165 -132.019043
-266.649780 949.864258 -379.117371
-140.144058 1002.466919 -102.976410
-216.036942 964.253418 -271.540833
-281.232025 904.295532 -273.151978
-241.841049 961.599121 -325.418610
-442.586456 686.433594 -189.531662
-270.907715 879.229431 -141.044693
-409.939880 737.156311 -271.774506
-149.934219 1016.893860 -168.544800
-393.183594 753.671509 -269.141937
-158.742569 1121.993164 -358.657532
-452.597687 724.131775 -349.720551
-330.271271 899.160095 -375.294098
-303.502533 840.522339 -279.405518
-415.442963 675.962646 -125.511253
-367.153809 864.958496 -416.616455
-315.305756 834.793457 -301.113037
-231.675613 926.554260 -151.820679
-292.594818 889.973389 -267.852814
-239.358292 882.288635 -82.364586
-269.738312 893.904907 -194.929169
-343.601288 863.942871 -421.945129
-275.493103 853.419189 -173.304626
-289.308594 967.589844 -397.994965
-360.082550 720.638733 -138.808578
-225.201401 978.855164 -301.603882
-372.847778 770.560669 -225.449463
-378.168365 758.937378 -203.287521
-378.636566 786.786499 -323.406128
-431.927338 669.867981 -178.274155
-214.854355 906.861511 -80.291962
-250.106415 999.717834 -407.704010
-270.958435 926.648865 -305.818207
-265.361389 844.559875 -99.806984
-129.254501 1003.100281 -169.507950
-175.444748 951.163086 -75.360443
-229.263168 886.024475 -89.822021
-301.932220 865.181641 -271.486389
-217.062378 880.479614 -92.903229
-250.697784 897.590820 -176.114731
-439.955078 686.026733 -195.276291
-381.288330 734.526184 -167.086609
-394.820404 761.112244 -284.337219
-229.792603 983.545166 -319.521606
-277.017548 945.896545 -361.590240
-439.227264 706.497986 -213.811935
-166.255768 1027.718994 -258.613068
-428.288788 691.655640 -138.743378
-127.794579 1026.134155 -177.007309
-235.869141 963.113037 -294.413818
-247.456635 959.361450 -324.233154
-289.203125 866.501709 -244.639664
-197.228851 982.619995 -216.643387
-151.732193 990.220520 -161.987183
-195.175797 929.410522 -171.658783
-225.193497 955.085266 -230.122833
-300.540100 872.086426 -285.854584
-357.377838 820.039307 -279.069550
-179.819565 997.994934 -236.569031
-363.543396 785.643799 -195.638840
-152.709885 977.620789 -78.833229
-237.182663 934.249207 -429.317871
-213.670914 949.508057 -205.363876
-140.973373 999.038330 -146.956329
-341.091248 887.049133 -370.499512
-274.954285 928.261292 -410.345337
-316.946625 857.188904 -248.099457
-361.718597 793.484192 -256.458618
-360.690918 811.593323 -310.770264
-426.958191 742.997681 -306.557495
-440.244568 702.004456 -219.428619
-384.321838 740.970581 -132.097900
-209.692505 946.602417 -156.580429
-301.840546 840.940552 -228.784866
-199.130173 995.954773 -279.204193
-388.483124 757.305786 -201.315033
-176.432953 985.319824 -199.847672
-426.445282 713.014954 -219.682541
-251.465469 926.750244 -270.730804
-267.325562 933.833130 -416.120850
-397.918335 699.750916 -130.653305
-265.216797 878.739380 -183.888763
-376.882446 746.393616 -177.718292
-165.191345 1043.450684 -306.303650
-280.250458 977.445557 -399.684204
-441.311401 681.275269 -106.453392
-243.559860 869.252930 -93.764175
-340.970520 802.124695 -152.003952
-292.096954 884.614258 -324.369812
-336.473053 826.320618 -260.060059
-164.540665 1032.625488 -251.305862
-378.863373 776.259949 -285.081238
-382.688507 797.899536 -368.895172
-145.870728 1003.504944 -126.290695
-428.264587 733.798584 -278.494324
-146.705215 1094.187012 -349.936249
-350.793884 824.000366 -324.257629
-322.809479 821.605286 -280.229492
-109.520409 1024.962646 -119.545753
-325.847961 779.085693 -171.923828
-280.894135 917.401489 -314.470612
-231.578049 885.491150 -100.455444
-457.209717 761.725403 -394.126892
-158.359161 1001.053284 -145.025970
-418.125671 696.202881 -173.816452
-411.011414 711.753906 -212.743256
-271.469452 847.058899 -105.804779
-226.679947 914.944946 -168.502686
-435.866974 679.493835 -210.912231
-157.925247 1042.658447 -291.433960
-456.947906 676.045166 -216.909119
-371.079956 850.525879 -383.337128
-237.434647 958.997986 -315.762604
-162.366272 1021.935181 -322.954529
-411.379944 693.609497 -116.425560
-183.123596 962.066833 -119.013863
-449.797241 692.732910 -295.872559
-179.499115 995.895447 -315.142242
-178.367584 1004.188477 -312.908051
-252.413528 830.715454 -114.447327
-235.214798 889.619690 -80.094597
-407.681824 718.330383 -154.589584
-377.814606 808.678589 -373.804932
-252.433578 1032.773193 -390.763184
-130.682404 1018.693237 -126.225021
-367.453461 736.358643 -102.127136
-266.626190 886.820496 -176.754074
-246.318542 926.477783 -215.843689
-160.418503 1096.527832 -349.302124
-451.606537 724.713562 -316.146729
-194.948624 1022.973999 -338.192108
-259.379974 912.862366 -274.892303
-314.300629 792.157227 -96.887047
-156.396408 993.894897 -127.048355
-420.275482 752.752808 -369.599823
-354.606750 790.273926 -181.222031
-341.926025 756.614563 -113.735962
-293.963226 886.947388 -426.212799
-145.604538 1028.755737 -205.628510
-266.384979 898.254395 -205.630554
-174.605774 989.316589 -157.691055
-296.006592 831.014954 -162.114700
-183.993759 982.436340 -217.210770
-205.695755 955.158630 -156.819412
-146.155426 1056.447632 -283.327209
-146.948639 992.839355 -123.058632
-397.132599 765.596924 -262.123169
-294.634186 934.250000 -370.627045
-474.721741 695.858704 -368.903320
-255.707230 934.130493 -260.236298
-291.010071 817.812866 -112.636642
-214.703674 909.418701 -80.022728
-133.483185 1040.306885 -185.984787
-328.742432 844.092651 -281.003601
-204.048538 1004.613647 -336.663879
-290.266022 860.059875 -211.085495
-262.522675 900.098999 -253.128204
-310.719696 791.761719 -84.894501
-400.774963 751.270935 -288.644379
-326.302460 859.995850 -442.753967
-191.077011 923.098267 -99.699928
-360.107635 802.704895 -221.434433
-223.489822 979.445190 -290.058075
-185.258118 939.409424 -166.634293
-236.222977 908.893860 -438.769531
-428.495880 672.266968 -122.512505
-303.017853 860.606384 -262.062408
-436.215851 750.836121 -340.379028
-444.875671 674.629333 -127.293259
-324.238678 816.877563 -166.460510
-303.094543 821.987305 -131.417114
-280.977814 855.512329 -152.517456
-299.546631 905.781128 -413.128143
-245.338501 890.025574 -125.819061
-427.554504 770.377136 -381.761322
-353.555634 766.861633 -198.543274
-422.390076 687.140991 -235.665573
-431.683075 741.553772 -321.860260
-155.326828 1039.628296 -250.984131
-342.494324 762.490112 -120.558487
-457.763153 730.165649 -401.511993
-313.053375 821.334473 -169.564972
-441.690582 683.053284 -178.649765
-262.891357 909.235168 -438.495972
-263.646759 927.421509 -343.081268
-407.491913 755.040039 -296.722351
-133.620499 1004.255859 -198.325394
-345.480255 805.867859 -183.456116
-202.922607 995.160706 -291.275604
-264.244873 857.830444 -110.474625
-275.772430 899.662109 -284.613159
-199.094315 1076.446655 -379.083923
-438.346893 669.190063 -172.746658
-261.519867 920.167908 -292.127533
-126.890366 1006.376892 -166.112091
-318.779510 791.680298 -120.821106
-403.447540 826.716431 -426.156738
-101.052315 1020.766174 -93.048317
-210.734985 936.364807 -159.283936
-336.621277 755.982849 -176.292526
-479.320526 707.765198 -343.438782
-413.393097 689.560181 -122.822571
-357.116455 806.830811 -280.334656
-139.435883 1021.326721 -150.113434
-245.966248 965.114746 -411.168518
-125.959503 1055.022095 -189.692932
-386.762970 844.694641 -421.431396
-440.945313 679.609070 -209.975266
-440.346588 659.064514 -138.011063
-341.013153 836.736572 -325.050018
-383.280579 723.570190 -151.242569
-176.790009 1022.175415 -282.291687
-416.252380 713.743042 -178.733612
-423.096405 671.001160 -115.958260
-301.130127 875.022400 -251.253616
-220.403839 1039.492188 -362.715698
-137.452209 990.232361 -62.289391
-179.885941 1002.578308 -278.632202
-312.713928 794.885864 -152.970123
-294.166687 828.291931 -203.754684
-176.967285 963.209717 -163.604782
-157.623810 997.463318 -175.810989
-162.876617 998.377136 -151.789612
-312.604736 862.005920 -297.022888
-285.017151 871.649292 -253.793381
-368.699310 756.604919 -102.585381
-167.212646 956.472595 -153.480286
-423.560944 715.449463 -247.058685
-276.236786 907.215454 -306.791382
-320.103729 787.693481 -121.123863
-233.886627 924.446533 -163.576141
-385.997223 829.166931 -439.362000
-242.004333 959.918701 -426.404755
-401.746490 725.741333 -215.262894
-197.178070 949.933044 -108.506981
-234.325943 908.172852 -115.566216
-400.176086 724.371033 -175.912766
-201.180420 924.409363 -70.020935
-194.465988 991.700439 -213.354095
-137.458893 1036.791260 -180.578308
-162.868835 991.482605 -146.045471
-287.336761 892.355713 -423.182007
-257.247467 935.959045 -432.276733
-442.496826 738.497559 -315.431519
-343.794098 755.310547 -152.656876
-242.680222 1052.175903 -385.586212
-214.299408 1049.304199 -383.791748
-135.887421 1036.870605 -188.265991
-453.421661 764.557495 -394.554657
-187.399063 975.178040 -206.614639
-403.290405 722.581604 -145.348831
-434.115784 707.434692 -225.821381
-167.228668 1038.900391 -331.990814
-433.991089 719.787659 -246.627716
-379.324982 822.480652 -407.575134
-263.492218 891.200195 -228.819275
-118.977646 1019.420166 -146.337189
-461.238403 731.116455 -369.682159
-346.054901 771.242859 -145.361710
-219.490784 959.376831 -255.367996
-340.636902 865.182312 -431.099365
-267.660858 897.078186 -242.529541
-273.970459 927.264709 -377.279419
-347.565094 853.645752 -336.568665
-330.014313 786.081360 -130.920242
-370.472778 879.061218 -410.813599
-297.647949 873.595886 -269.037354
-302.579834 915.115356 -421.217407
-346.365570 836.974121 -425.232178
-132.656387 1007.523743 -143.402344
-442.680756 690.032166 -257.712524
-287.535645 901.339294 -417.784607
-386.023071 749.074768 -226.069199
-452.330566 695.427917 -307.757141
-342.422180 795.758667 -248.538361
-365.907532 789.102783 -259.403351
-127.135139 1002.224121 -82.086533
-309.034058 829.687744 -204.199097
-310.534332 798.017334 -119.900230
-270.216736 905.568970 -442.557800
-224.506958 975.214355 -270.163239
-283.053925 933.711853 -415.776794
-354.777771 754.328125 -145.250275
-271.019348 925.781677 -427.739258
-419.632172 711.605652 -172.178375
-178.772049 961.250671 -99.231895
-135.950409 1031.167358 -164.834763
-192.550003 999.185547 -282.338287
-275.594788 882.612671 -250.086044
-170.060577 1030.744263 -302.200653
-269.990448 866.537170 -97.025612
-239.018219 888.338623 -126.121498
-289.178864 943.761780 -383.842804
-468.194641 706.218140 -353.234741
-182.830246 981.186951 -234.232452
-274.409790 877.565063 -227.066605
-266.259888 856.665833 -119.333870
-469.672852 697.357605 -369.100250
-244.781509 899.834717 -440.270569
-424.279633 732.223572 -370.563904
-253.876984 993.735413 -363.097931
-404.652740 700.663818 -239.458618
-280.397736 900.280518 -244.292267
-189.660828 1027.160767 -309.962616
-311.777771 850.744446 -242.639801
-460.508362 710.452148 -302.979919
-311.225616 814.933411 -154.190048
-252.038208 1045.692871 -396.200500
-277.617249 857.746765 -180.239349
-284.350067 883.848450 -218.188187
-218.402725 970.214417 -248.707901
-345.258362 829.765320 -274.939911
-425.668060 681.347961 -158.010483
-289.408936 863.244690 -228.879013
-157.255219 997.588928 -143.508224
-260.297119 888.329895 -182.239670
-348.531372 876.900635 -393.062347
-222.403900 950.075684 -315.191589
-231.911880 958.836426 -296.263123
-400.640320 773.604553 -272.649292
-208.170334 919.790649 -120.118462
-188.113846 1004.813049 -272.274445
-196.920639 930.750610 -80.683891
-217.914597 951.916443 -234.613815
-276.759766 914.123535 -411.531799
-355.388824 773.658325 -170.064682
-367.808197 804.543823 -325.749786
-134.942688 1057.849365 -230.153656
-457.221283 710.308044 -317.958221
-352.801697 771.829529 -170.018112
-362.763092 765.292603 -216.301941
-246.377686 948.099854 -427.167511
-390.114105 762.254822 -256.917389
-269.518585 875.550598 -136.558487
-192.283417 957.476990 -168.704758
-346.788147 860.375244 -367.639709
-346.989899 782.745117 -130.681274
-334.659851 817.522461 -188.699860
-188.455521 996.982605 -272.989471
-233.738007 917.399597 -130.029694
-367.905914 858.405273 -395.593567
-415.660645 681.381958 -200.221268
-322.708527 799.323547 -140.625916
-410.056946 845.861084 -419.093933
-235.701553 971.702026 -424.968689
-224.137665 954.237671 -299.954315
-259.201965 904.001282 -188.175018
-297.523743 825.861145 -142.669861
-394.554626 758.702698 -355.596802
-413.670837 782.155396 -387.270844
-270.867157 851.104736 -446.245056
-345.696228 832.309814 -341.565186
-176.397964 972.498535 -132.517914
-125.062714 1013.807007 -136.289459
-235.554626 883.002808 -75.076385
-384.481598 754.532532 -159.996414
-301.871796 848.443787 -181.094025
-307.084564 880.843201 -278.275177
-418.038177 736.695374 -248.990616
-286.634796 840.026611 -119.922668
-173.343903 1007.868591 -219.310364
-425.908600 718.916443 -337.100830
-311.226501 806.887268 -86.375221
-265.825348 949.359985 -345.733459
-139.901672 999.189209 -68.834564
-304.007507 814.130188 -109.175911
-271.353943 933.718018 -425.399658
-230.153656 906.870056 -145.989334
-228.278763 913.002441 -112.003395
-272.407684 972.883545 -392.582855
-265.939667 874.370483 -192.777649
-300.944855 881.770813 -275.079681
-153.951721 1039.400635 -324.128845
-274.297516 862.600647 -149.998016
-356.665558 738.968750 -173.983963
-125.958130 1025.387329 -118.240097
-375.968536 801.701843 -362.826324
-262.188202 954.256470 -411.176758
-176.717987 992.955322 -177.702805
-379.821808 745.877563 -112.050812
-313.083160 870.443054 -338.075867
-434.754395 712.811035 -255.925095
-213.741119 973.437805 -289.342529
-285.496368 906.001099 -299.073059
-182.214996 1023.233826 -266.491028
-343.060028 791.331299 -123.301834
-328.305908 830.421448 -269.423553
-341.162231 763.848389 -95.677147
-282.240265 843.107849 -150.548615
-376.289215 721.080627 -129.583618
-429.241394 721.380249 -233.771454
-375.561951 832.168701 -445.404266
-269.288452 872.866699 -250.572510
-184.545380 943.741638 -77.252472
-166.326691 995.256042 -153.240952
-470.613251 723.112305 -382.079376
-252.204025 911.532898 -187.170670
-447.419434 699.075500 -294.431763
-362.056763 785.705444 -291.963074
-228.822418 924.488770 -172.523026
-112.052292 1024.191650 -135.164886
-292.890045 863.870361 -194.658310
-168.028000 965.427917 -67.764427
-336.282654 830.596069 -283.920471
-140.527618 991.580933 -102.251099
-232.283997 894.342651 -123.464027
-383.861023 715.516602 -102.025780
-393.055084 726.459351 -145.317993
-178.896225 947.675476 -169.544464
-287.840729 910.958496 -359.537720
-225.319214 940.083740 -297.866608
-322.047302 842.899719 -219.939865
-281.242676 981.536621 -401.379791
-134.001297 1003.910095 -69.608818
-280.931854 929.311340 -432.373840
-253.278702 932.895691 -434.209534
-343.893036 877.809937 -384.469604
-416.356720 830.109924 -429.274414
-338.149841 849.911133 -307.935181
-327.474792 896.031311 -408.023529
-189.063034 1004.606750 -284.088898
-294.406189 925.781250 -416.797485
-296.583527 862.432434 -254.211487
-398.416687 722.828979 -118.565155
-475.969788 722.388672 -420.219940
-324.024719 844.759705 -242.123383
-158.637146 1028.571045 -238.965103
-277.139587 890.085938 -211.846329
-313.199310 812.552429 -140.057938
-374.388672 754.265015 -197.258438
-294.907684 885.465088 -250.821198
-156.104385 1061.215332 -297.673065
-447.812744 722.814636 -366.595093
-335.126038 797.992920 -181.463333
-358.671021 807.828674 -344.004364
-277.777527 889.122375 -259.763794
-236.851517 959.736267 -295.588684
-200.482681 1028.692871 -340.959717
-397.058838 726.946655 -133.512024
-253.922180 972.052612 -399.258667
-175.121338 1060.616943 -340.764130
-151.258774 1027.505493 -241.633133
-260.505066 877.725586 -166.469421
-455.417755 659.993835 -176.138702
-362.096039 772.492493 -113.986778
-412.261078 749.232849 -259.144073
-394.059631 733.403564 -246.565414
-334.489197 855.308350 -361.314240
-432.066376 716.733459 -291.524170
-168.472870 967.116577 -190.780075
-287.845123 875.894836 -189.470108
-437.640747 729.922607 -292.530609
-164.165588 970.879028 -83.103798
-438.420837 656.145508 -114.681198
-255.175156 1029.911621 -399.968689
-134.507828 1029.424927 -169.559418
-131.417206 1051.356079 -274.974152
-161.462692 961.114014 -66.050667
-247.348557 893.938049 -145.129028
-437.666382 704.410461 -203.475449
-258.741852 942.548767 -339.694885
-368.573792 786.380005 -278.823029
-341.999084 855.489563 -442.125610
-249.360916 933.816772 -436.842804
-353.290680 765.914429 -163.830887
-150.185196 1032.101685 -258.662872
-151.799133 979.698486 -95.731796
-310.103821 845.303772 -183.446533
-249.013992 997.612549 -382.315552
-401.278839 712.239563 -178.660278
-141.815079 1000.853027 -70.590385
-334.417664 819.890686 -260.141968
-450.970581 654.702209 -109.929428
-200.216507 1015.599670 -344.942108
-415.465729 704.918091 -136.713959
-407.248352 703.893066 -156.207138
-383.917023 766.070068 -198.123825
-357.465454 821.286987 -276.846100
-255.987061 910.422302 -198.275818
-228.583282 959.911682 -429.081818
-265.476105 920.995361 -270.650665
-267.267365 852.994995 -126.131592
-297.312286 921.797119 -364.923370
-339.785309 788.040894 -170.046005
-200.545700 993.090271 -288.638855
-321.450500 838.690735 -250.726746
-222.589935 964.477783 -291.898560
-376.715729 763.277466 -235.667892
-427.045593 729.382690 -338.949890
-204.326263 992.186646 -273.857208
-388.452484 715.451904 -139.421082
-257.469055 929.194641 -429.514709
-389.970917 791.073120 -319.205719
-162.560440 1053.429321 -322.773743
-325.571228 840.167419 -234.367233
-211.768311 975.811707 -271.157837
-431.423035 748.441162 -330.016205
-253.504593 996.364502 -410.770111
-372.149628 752.405762 -104.515984
-226.019928 941.410156 -212.530060
-450.087585 647.748352 -119.565926
-391.751404 762.882141 -212.677078
-300.449310 915.472656 -362.199738
-374.951874 752.251099 -153.984772
-297.695801 915.179382 -406.339935
-272.941406 867.935791 -117.242996
-182.590164 931.182495 -107.053459
-296.058838 875.512024 -300.424042
-353.897461 827.128479 -298.276398
-470.850647 712.283936 -377.903717
-153.002014 1014.185852 -212.644348
-339.911346 869.892090 -402.466187
-395.437103 720.594360 -162.803192
-219.811218 906.370239 -128.238297
-290.183899 869.445557 -255.662766
-197.865143 936.136780 -94.140396
-172.055618 965.509827 -93.161583
-155.020874 976.753357 -97.365494
-306.634857 843.877258 -439.759766
-209.117233 918.458313 -102.025703
-447.605133 718.380310 -277.611359
-293.107788 903.243652 -318.521545
-439.230133 685.823730 -137.125671
-209.260620 1055.234375 -392.248505
-315.667755 834.958008 -454.441620
-338.094025 809.322266 -166.102478
-247.523392 920.994629 -443.584015
-368.907532 819.635925 -331.672150
-448.289093 721.352661 -380.157928
-242.584732 918.572144 -203.490051
-409.203461 661.772827 -146.141647
-445.176239 665.185852 -181.493805
-425.804413 667.369385 -137.714813
-167.615891 979.541748 -221.822250
-358.423615 747.838379 -130.736954
-411.360413 741.940735 -235.396713
-234.986176 936.502258 -272.797516
-236.637283 882.165527 -120.224457
-211.702545 967.311890 -223.543945
-412.657471 743.510559 -250.882751
-219.065704 942.202087 -177.315292
-391.758392 738.596558 -220.752335
-215.538025 951.420959 -188.970764
-229.977112 908.225525 -169.772903
-245.920090 916.567627 -170.001282
-351.251343 794.582520 -224.050873
-291.751221 884.711243 -279.783905
-408.935883 720.065125 -142.867737
-194.920914 985.822266 -198.522461
-399.864319 795.672363 -363.551819
-189.767456 993.084900 -220.181992
-113.559502 1028.552490 -98.975601
-297.546753 851.259644 -456.204102
-233.085770 965.014160 -300.880402
-227.675049 877.667480 -102.756264
-148.806671 960.650940 -130.919769
-253.298203 965.757874 -364.162201
-186.534302 938.593872 -147.668930
-334.831970 799.996399 -106.105820
-440.383301 733.994080 -376.844360
-381.837952 782.529602 -251.365250
-226.001938 946.749756 -245.774170
-246.639008 926.916992 -261.569183
-388.668610 704.799866 -124.268799
-299.878693 902.326599 -373.915619
-367.933502 737.615662 -106.988487
-296.799652 890.845337 -324.916077
-367.838867 726.346436 -107.735130
-400.630676 704.920044 -107.309830
-196.487671 987.218628 -331.587616
-443.447754 711.355347 -313.285431
-266.150482 947.859131 -404.377411
-307.343719 887.365173 -310.235321
-380.413544 739.893311 -111.530815
-383.851257 788.026184 -360.103302
-253.413086 945.560059 -333.799957
-296.492401 877.787476 -311.697723
-342.583374 799.225525 -224.981033
-453.099243 728.953247 -334.221924
-218.393143 903.745056 -78.028419
-465.168060 698.296875 -361.688110
-374.611847 783.039917 -341.716736
-449.780334 733.525452 -376.104614
-450.777557 714.353271 -355.363770
-134.325180 994.217957 -65.141701
-475.097656 696.410706 -310.996185
-322.857178 801.210571 -99.345390
-183.377823 974.155273 -150.793137
-277.015167 873.845581 -202.312943
-422.367981 718.220398 -262.019928
-394.991943 706.497864 -107.021400
-129.359222 985.856201 -69.593285
-253.025833 940.183105 -316.465668
-382.821350 749.146118 -105.490288
-155.145279 1054.498779 -286.942749
-331.727997 808.685059 -195.024704
-280.854492 966.426331 -375.810059
-227.413010 904.287903 -113.475739
-158.344009 973.567200 -58.635323
-303.312134 866.320618 -214.209778
-366.325531 808.982117 -288.528503
-307.842651 848.861023 -187.515060
-380.918427 752.339783 -160.239059
-155.039078 1031.625488 -222.264328
-149.860031 1004.971741 -144.424637
-134.463684 1013.725769 -83.133972
-133.225296 989.827759 -71.449455
-193.740417 974.068298 -220.657379
-295.157715 816.832275 -122.738853
-295.473877 909.307922 -412.677246
-351.058167 751.072083 -106.422813
-451.900909 696.572327 -243.489761
-267.473877 846.694031 -99.093559
-241.062073 900.503235 -147.354752
-400.839417 720.412109 -108.926796
-315.234650 827.655701 -195.490952
-135.150864 1004.305359 -88.344337
-302.906586 918.601318 -378.889862
-256.846130 869.001404 -78.896927
-194.499115 939.339722 -92.821152
-121.064407 1004.209045 -73.735909
-390.417511 759.696594 -328.286438
-435.824982 660.318420 -123.475662
-176.702713 988.481323 -180.925262
-345.919037 878.446533 -423.307983
-236.682190 904.355164 -138.226639
-205.996338 921.373779 -68.917206
-328.845062 838.639160 -240.328094
-332.376740 804.303772 -139.658432
-255.252335 875.202698 -138.298904
-216.564941 932.346924 -142.957703
-270.431091 918.241638 -344.796417
-339.121857 861.806702 -330.871613
-318.204102 891.905884 -358.860504
-142.618759 981.217468 -88.269432
-348.362335 811.432678 -226.796341
-177.238220 964.288818 -139.892838
-190.188889 1034.068359 -325.596680
-307.299438 853.137329 -285.064392
-175.808838 1028.115723 -307.734467
-438.544708 697.864319 -188.632462
-334.966705 812.174561 -178.354034
-169.265717 964.855469 -187.077225
-259.558746 945.815552 -325.103363
-198.062363 988.958069 -309.331665
-316.738220 801.098938 -144.810135
-219.112335 878.601807 -99.711945
-474.105072 688.339050 -260.382111
-461.833405 695.178772 -309.161713
-312.678406 823.154724 -449.932434
-283.126068 829.680908 -110.955978
-405.285065 689.242676 -112.884308
-278.393036 916.530884 -308.194489
-191.719055 1047.252319 -358.380859
-380.071686 755.552002 -148.900146
-216.437622 1080.187988 -378.379272
-200.181091 956.830872 -171.442093
-146.076797 988.734558 -203.558426
-436.999908 738.220276 -331.719116
-224.982803 944.394592 -245.711227
-363.798248 762.789551 -184.313644
-379.132385 809.998840 -352.518890
-199.260315 967.140869 -161.835678
-246.933548 956.960693 -318.931610
-328.549194 853.918396 -445.379303
-134.134308 1021.964783 -117.679489
-159.719940 990.664307 -181.624878
-253.797455 925.778687 -313.969116
-402.573486 788.463440 -366.313446
-199.409348 986.142090 -263.239136
-182.506699 1081.967163 -348.979858
-376.073975 742.376831 -210.713394
-398.792969 755.364075 -294.885895
-174.587677 941.163696 -72.607544
-275.348053 845.568726 -81.023689
-258.191681 901.836853 -190.031006
-448.069427 666.045837 -143.248230
-159.925659 1046.922119 -296.275024
-133.885788 1034.245728 -211.140015
-297.023376 834.595215 -148.742126
-172.875900 982.688782 -122.492691
-327.224945 809.311646 -181.557663
-280.648102 901.199524 -271.804260
-202.541718 968.802795 -188.795074
-430.398438 705.761169 -260.461670
-380.964844 712.292358 -189.301529
-334.741699 852.237366 -431.452515
-165.053680 1029.133301 -240.652023
-321.719513 867.474976 -439.416138
-422.896057 746.667542 -351.751190
-471.775513 699.149231 -319.016510
-190.813202 911.914490 -101.679581
-424.803925 724.131409 -226.548599
-268.228333 983.964783 -374.401398
-294.019775 909.037720 -416.514496
-405.512299 709.881042 -106.319023
-319.756042 832.320557 -242.819901
-437.123718 720.181885 -249.591248
-193.031052 979.625610 -234.420380
-423.995117 743.428345 -264.580017
-149.737305 1013.627136 -271.317169
-311.615143 918.089722 -409.659729
-222.721573 941.084717 -219.002533
-278.771301 839.455200 -98.659172
-282.064941 866.486389 -196.685989
-231.905777 890.581848 -96.134735
-194.896210 1089.990601 -372.728088
-420.073334 766.846313 -359.922791
-293.185425 894.130676 -339.366760
-132.356232 1002.634888 -71.858612
-229.157547 947.016479 -261.542633
-462.070526 675.736938 -234.062424
-173.848801 953.624451 -168.966125
-271.454651 992.006165 -413.336304
-455.529541 668.002136 -188.164612
-252.662155 902.944397 -217.232025
-212.853058 982.772034 -310.759338
-283.472534 851.805542 -96.384979
-242.452393 909.697388 -145.216187
-271.984283 860.134949 -82.544456
-280.656830 901.979858 -249.806503
-349.238739 754.017761 -165.875290
-172.676590 1032.607422 -319.508606
-358.109955 745.175293 -155.994553
-262.870392 912.465942 -424.545319
-347.007538 760.011292 -127.785561
-333.501465 865.936157 -348.516144
-187.736801 977.517090 -206.690842
-133.831482 1000.517029 -73.064529
-331.791992 781.172668 -116.755577
-192.822235 974.523987 -172.404831
-373.911713 823.917786 -437.673370
-157.950348 971.192688 -130.393036
-180.662979 999.909973 -220.294312
-236.932587 880.399780 -88.468628
-281.073578 917.346802 -434.106598
-218.889496 966.903931 -276.356476
-418.016693 741.135498 -236.195465
-134.421570 1015.338745 -136.013000
-203.659744 1002.076355 -271.527130
-272.950562 886.472839 -450.461090
-132.859680 998.656921 -118.370102
-179.533493 1009.957397 -307.676880
-221.339508 941.016602 -171.595505
-290.116089 857.348572 -200.568054
-239.051498 1070.773071 -389.161011
-437.011353 678.131592 -212.589813
-323.383911 892.206909 -424.132050
-439.977661 681.040222 -214.730103
-388.216644 834.760559 -397.516693
-417.447235 746.896729 -323.009491
-354.203522 825.596191 -353.619537
-171.234055 1025.103271 -254.159576
-129.937332 1012.901794 -113.852867
-222.569626 892.633423 -86.544449
-228.283279 978.759583 -308.393799
-303.277954 832.493774 -168.319733
-253.559784 869.749939 -451.475098
-298.575073 847.122559 -145.650253
-146.178558 1030.582642 -211.517807
-209.644806 956.729370 -225.732697
-154.745346 1054.232910 -269.765198
-385.449097 793.982849 -309.879883
-269.743744 936.824524 -312.106110
-300.688293 868.251221 -263.768311
-212.786575 884.610840 -89.249435
-258.530853 860.776245 -109.857185
-381.379852 726.228943 -143.087463
-418.837952 730.559937 -205.345154
-202.629517 937.759827 -91.854317
-256.891418 909.887024 -197.996582
-407.029510 702.254700 -170.903656
-276.262299 885.391785 -217.736298
-227.332642 911.355591 -157.669189
-381.269104 836.808472 -414.970673
-240.551819 915.410339 -192.621841
-382.431702 724.847778 -99.817390
-140.783890 1008.115845 -59.638130
-142.210663 1063.178101 -300.322845
-273.152069 828.101929 -105.086411
-374.257874 799.019470 -348.385620
-247.066605 901.376648 -181.852524
-328.030670 827.975342 -196.257095
-408.634399 735.159790 -261.076385
-438.280670 724.674011 -303.750519
-263.141418 960.147522 -372.581451
-291.570709 838.730225 -231.967056
-180.909729 932.795776 -93.521599
-235.427414 875.726685 -95.864410
-450.654816 790.112976 -417.238342
-154.754868 1051.321533 -265.453827
-146.837463 995.264587 -77.525352
-198.395767 977.150330 -201.225143
-285.241089 834.489136 -158.390625
-258.906738 850.393005 -144.614822
-325.694061 870.472778 -320.974060
-335.250610 871.600281 -345.589325
-133.700882 1036.249756 -195.132370
-157.561905 991.884827 -129.634995
-249.028946 873.606812 -106.080315
-454.518524 702.662292 -272.044403
-451.174652 742.569336 -378.422882
-420.184937 686.338806 -98.065277
-152.695953 1025.140503 -214.677780
-363.687927 825.554199 -446.379791
-313.695618 857.349731 -307.430756
-447.796204 656.133972 -131.536377
-272.351227 887.177979 -210.074615
-438.621674 704.170410 -216.368912
-152.952347 1033.976807 -314.827759
-428.274231 739.580505 -349.720337
-128.591110 1000.192505 -124.057449
-320.621368 887.629822 -372.882294
-173.152817 995.952942 -296.220642
-289.974609 934.699097 -404.013062
-256.225647 921.862854 -420.413391
-298.915558 790.413452 -119.182632
-186.951538 992.033691 -207.906998
-150.818741 1011.429077 -148.575699
-206.378647 960.497070 -185.566315
-318.565552 836.752197 -244.539200
-333.872650 856.995239 -441.601440
-357.052124 827.719727 -285.215973
-333.789185 864.871765 -342.833984
-412.515381 707.451660 -115.039406
-217.299377 962.412354 -230.792389
-410.968475 779.902771 -366.566895
-438.278259 676.503052 -166.280991
-220.404221 946.060059 -213.821350
-134.759979 1018.163940 -129.052765
-415.812042 736.883911 -305.364319
-412.325256 726.019470 -217.785797
-166.020432 1022.878479 -240.788956
-143.107483 1012.036987 -168.007996
-144.489822 1024.672607 -163.037140
-271.428162 897.940857 -259.947540
-333.869141 777.634888 -114.093910
-307.273712 883.766174 -361.188599
-422.845337 716.198792 -219.189194
-229.624313 878.931152 -134.145233
-171.440994 945.503113 -135.772003
-290.027252 847.296204 -166.616043
-382.226288 728.950134 -157.689255
-255.353470 937.469543 -286.482147
-141.852631 1061.586670 -265.416168
-156.714127 1021.574341 -202.372910
-135.805573 994.599365 -88.991348
-308.774109 893.181396 -333.746613
-308.539276 931.832703 -402.044891
-384.500671 735.693237 -220.337494
-232.409836 1032.978516 -381.321686
-312.265900 785.204163 -130.394791
-271.814880 950.275635 -374.974487
-398.771271 736.264954 -164.780731
-147.762604 999.092346 -101.777840
-291.831482 882.387268 -240.422440
-238.722565 881.023254 -112.577370
-349.901703 861.910095 -361.041107
-212.424103 998.083008 -301.890625
-265.653412 897.177856 -441.630646
-139.532608 1034.217285 -201.490326
-313.299927 886.279602 -359.440186
-214.054550 990.510193 -321.911713
-134.038422 1004.601563 -113.765839
-163.270081 999.723938 -166.846207
-177.804474 956.128479 -123.937256
-266.875000 925.105957 -266.020660
-239.901031 901.149109 -175.071640
-267.786407 821.727417 -135.932816
-153.008713 989.766602 -110.188492
-301.996033 865.522339 -275.534210
-341.780823 870.401794 -391.624054
-197.972855 960.261353 -197.014343
-334.140686 758.420410 -116.101845
-382.536560 739.213623 -163.689240
-279.758728 952.659424 -377.598572
-319.791382 849.206726 -232.901733
-230.110962 912.316467 -146.872940
-219.575394 989.177246 -302.588013
-308.540771 868.223816 -276.731842
-209.259979 979.720886 -275.454407
-217.271408 1000.246887 -322.120697
-287.072876 884.268494 -426.507263
-272.002686 967.837646 -373.341492
-318.009369 911.884216 -406.039093
-290.298431 835.887634 -103.973381
-435.116058 674.674744 -196.661209
-165.421997 1040.828735 -266.805634
-447.558441 719.859680 -316.356934
-369.251099 763.790283 -135.976517
-438.720154 675.673279 -178.769226
-129.350800 1010.878235 -109.674622
-164.383652 986.319458 -132.334015
-192.965057 945.569946 -152.332886
-203.727844 958.472961 -188.101990
