ply
format ascii 1.0
element vertex 1426
property float x
property float y
property float z
end_header
665.929810 15.649549 -801.617676
639.611267 -9.000529 -825.680176
708.648682 139.905060 -642.797974
752.040466 139.106934 -648.765564
563.398621 34.848362 -824.964050
720.244385 -46.393555 -842.995117
656.347046 47.677135 -776.799133
625.946167 -29.609015 -894.168518
714.735657 -50.916557 -864.253906
569.387146 -102.254250 -886.014465
747.311279 109.572495 -683.291016
540.666260 100.678223 -748.338928
469.925903 -64.413368 -899.991882
656.252563 -35.660061 -908.755554
579.614929 129.732315 -685.248962
494.201691 -34.728729 -904.897278
332.589447 194.961319 -722.116699
767.459778 -6.924310 -771.309387
541.162964 24.812317 -838.124634
716.547852 43.706688 -764.275452
601.008728 94.574821 -714.043335
664.454895 86.422958 -720.250793
432.019714 30.959963 -843.220093
579.902893 104.108727 -745.478760
446.219940 29.560755 -854.493103
608.338196 157.783966 -659.199707
741.038818 59.976757 -728.759338
621.842468 125.553154 -703.031982
740.197876 45.964741 -742.949951
474.607452 107.770966 -762.906982
519.354614 162.721603 -694.719360
708.300720 97.610199 -670.197388
680.775513 122.316498 -692.777222
601.143555 119.550613 -721.043457
701.529663 -35.426987 -803.589172
616.263794 103.255562 -727.584534
453.417969 17.153332 -894.221313
602.404907 111.826797 -711.899109
422.195465 91.109093 -814.725769
304.572601 57.898159 -896.684692
709.969604 -50.777805 -921.923157
613.521545 179.025879 -668.839233
532.965088 -109.969994 -857.573120
679.755676 28.812017 -770.029297
669.380737 96.870140 -707.924744
514.409851 -98.504799 -866.151489
612.463745 134.719849 -673.112244
618.060974 141.390472 -700.206299
304.826447 219.051941 -704.561523
729.306763 118.489212 -660.906250
317.899750 208.263626 -696.828247
609.048340 -81.286232 -893.236145
517.097778 -22.595285 -914.993042
286.292633 83.088715 -870.977295
518.228210 97.104401 -775.644897
389.060974 23.263809 -951.731995
711.463501 102.905128 -701.258484
306.825836 51.752048 -872.771240
512.718506 181.703812 -694.983704
722.058594 23.149160 -778.611694
729.193909 149.553833 -640.573120
617.344727 159.212280 -660.043579
613.342834 133.437622 -709.942505
538.488403 148.876587 -690.477051
534.943726 171.547348 -690.987244
535.235229 40.592831 -803.398560
690.531738 35.915440 -771.565735
749.292480 123.953255 -630.836792
609.817261 15.916763 -820.564697
526.018860 69.459969 -790.369568
546.744446 -1.111046 -885.069641
536.460449 49.910328 -820.406067
353.294617 93.123978 -828.602844
557.769348 78.852127 -779.572571
301.240997 94.430382 -817.457947
623.171570 -24.078693 -849.637756
521.998657 64.296844 -797.407776
618.553467 63.216564 -772.631897
300.236694 160.680374 -807.052734
548.127563 191.554092 -671.099670
701.497620 124.793930 -662.355896
308.948639 134.275513 -814.908691
608.333008 -21.397923 -853.938416
733.373718 130.235626 -664.765076
579.079041 -52.296768 -874.865173
791.246948 -24.586323 -801.576843
460.402344 -57.681854 -908.623779
366.573914 192.619659 -712.746155
658.233459 86.306763 -690.320251
477.062683 74.671234 -795.578674
480.760864 118.031357 -751.634827
308.355286 209.609787 -706.385071
756.389099 32.210144 -747.441345
557.794250 -107.699745 -872.602356
574.399353 3.381860 -850.567444
374.383423 187.997925 -704.117126
433.448303 221.134445 -695.554749
669.708984 -20.044735 -843.562378
619.815735 92.602066 -731.262634
715.190430 73.814522 -713.711975
633.597412 -62.058411 -892.381348
715.536743 93.274178 -700.744202
324.876831 35.213840 -894.615784
626.469971 157.630020 -676.420715
565.549377 22.383755 -821.885620
463.061829 71.281601 -806.828735
695.194275 129.777390 -675.094238
545.769226 151.208832 -698.359863
694.588257 -5.722351 -812.704956
423.800507 117.479294 -790.953491
608.644775 27.931496 -804.137390
666.126221 71.928818 -738.313232
473.874481 16.177410 -854.552673
489.973877 203.673264 -685.439514
750.733459 40.326935 -753.568665
323.576355 70.980774 -856.742554
346.060791 47.400009 -877.546631
341.306458 235.044907 -701.794678
482.095184 -48.405056 -903.820618
519.718628 8.202154 -844.896912
790.085266 117.923836 -657.880066
595.671570 42.868584 -800.438660
500.889801 133.069839 -750.479492
440.521576 168.598022 -717.344360
555.176147 25.194983 -822.699951
715.868591 141.901474 -628.058838
467.960144 -93.719383 -862.051208
770.905701 -40.285873 -817.529114
340.390198 155.033356 -742.924561
583.717957 102.703278 -750.489380
542.714417 -34.157074 -877.090759
783.725281 57.110611 -714.590210
558.983398 145.436050 -698.061157
610.202759 172.738388 -650.284668
473.575165 198.778351 -678.167969
630.183533 -79.339394 -902.027222
742.501709 147.730179 -645.340820
479.033264 -97.091660 -873.464478
302.279297 61.166767 -865.775818
572.796021 108.300903 -726.394531
527.715637 14.385151 -854.167786
411.853149 40.824326 -831.540833
653.946472 32.609245 -787.812378
553.550781 118.037506 -741.348145
467.144623 -8.693340 -899.452515
408.473480 123.088272 -771.291138
372.787384 144.599716 -773.625305
323.121857 86.127541 -837.663086
497.714172 48.546154 -812.244690
705.952087 56.849304 -753.031738
561.811951 -61.849495 -894.675598
734.082336 83.090485 -694.764954
681.692993 168.019623 -642.119263
553.709534 100.908401 -745.926819
787.201294 -3.157489 -789.122253
616.494263 29.074673 -806.611755
752.160217 80.647018 -694.677368
774.442139 107.631042 -640.521118
746.071655 -22.715340 -807.338867
538.539063 67.217979 -788.929749
585.665283 158.192139 -673.227051
482.552521 71.682228 -816.987244
531.022217 146.639389 -708.816284
590.054138 115.616188 -729.673218
547.767151 -44.297691 -910.299927
618.320679 177.878830 -668.234314
359.440002 165.113739 -768.464172
498.957581 38.316425 -827.921570
567.122620 -41.619690 -873.115295
436.261993 136.526947 -767.781067
674.506287 5.171897 -805.140686
432.012726 69.972282 -832.696167
690.283020 52.756508 -755.515808
381.019073 57.739979 -843.085693
781.279053 88.180893 -665.613586
777.544373 85.591576 -664.970886
750.238770 71.295334 -701.377563
594.575317 172.883789 -672.061768
441.150360 -38.406071 -910.971008
718.309998 80.444801 -716.642944
732.062439 40.692146 -753.987610
484.384369 -96.973106 -873.694519
535.510803 39.472416 -816.837341
667.677429 57.619450 -744.438477
718.625000 129.881775 -656.557190
598.181519 38.149223 -792.154114
734.929382 46.710892 -743.283813
780.057190 18.448889 -759.372498
615.262268 75.556671 -758.670349
761.691772 90.937088 -691.440613
602.522583 -93.686737 -882.353271
550.631714 -51.725697 -886.716003
598.178833 135.904678 -712.588745
780.987854 119.866562 -628.006592
641.953247 89.857407 -722.238098
401.575684 106.057854 -815.611267
375.171509 118.316368 -804.084656
617.162903 132.166168 -674.039612
535.181946 -83.682968 -890.106873
369.541595 53.969723 -848.793091
474.548584 23.361475 -843.383972
453.306366 8.570524 -919.616089
741.777344 109.534660 -675.743164
690.893799 -45.488056 -863.031921
517.441345 -95.828667 -864.952698
598.637695 97.642746 -745.183899
445.024963 212.698853 -675.081482
563.032227 -34.568581 -901.423340
751.769958 104.732254 -675.141479
345.428833 238.805603 -704.533020
509.742188 60.495277 -796.176941
490.636566 147.240402 -714.912903
347.601410 163.544205 -732.637390
342.048340 72.135422 -863.215698
344.715149 41.177601 -851.633179
647.413574 -19.090752 -836.994080
776.390381 -20.457733 -811.651001
435.729919 54.797832 -818.407898
626.511047 -37.036396 -875.750549
501.021362 123.860321 -746.292969
548.031860 121.427933 -733.583130
704.609253 34.716820 -734.249817
374.556915 181.513535 -735.224487
578.063904 184.225311 -666.552429
543.282898 142.023376 -706.004822
581.980225 22.974352 -832.667236
291.315277 60.218349 -862.651062
471.710175 160.493607 -697.126770
547.104126 178.566101 -683.490845
550.909668 -73.079094 -888.721558
359.856445 27.600163 -935.279724
714.064758 61.115807 -728.397949
386.671265 149.912323 -752.021851
748.385498 -46.042332 -816.261841
706.053162 1.319439 -778.300171
495.924805 -10.668373 -902.482239
505.097351 -32.108154 -904.292236
721.872498 -42.520603 -895.711853
573.878418 -70.392616 -893.659546
514.547852 102.863029 -773.717224
718.146362 136.504547 -658.036743
395.279572 221.178711 -683.665710
712.884827 35.905792 -774.002380
294.347809 58.241421 -890.261963
426.257935 159.122772 -747.912659
805.175598 104.215210 -654.309204
418.203156 123.028938 -767.846558
532.335510 52.344318 -797.826172
447.192932 -65.720451 -882.800232
697.117554 143.945786 -659.647156
572.476685 169.047562 -652.320374
617.086731 79.921799 -750.524841
427.430389 134.685333 -746.619568
661.674622 138.239624 -678.827759
621.918701 -2.501468 -833.630310
482.491760 105.785149 -762.888489
705.919312 149.058136 -649.523987
575.449524 63.761646 -776.612915
654.569092 141.722717 -645.521301
391.929657 199.036758 -705.777588
664.562500 -29.251768 -874.476501
606.487732 -95.674255 -890.386841
733.791809 26.391987 -736.293396
342.413696 126.710693 -813.121094
651.862305 100.866096 -716.651611
529.989868 -24.728306 -896.599365
593.897583 45.361210 -764.273071
538.654297 -106.581154 -859.733398
384.718842 132.032654 -763.928589
729.958435 -6.201515 -789.749329
640.918701 -18.424065 -836.559265
398.948334 156.457123 -750.904724
553.632324 50.863792 -808.291382
336.800171 233.064087 -715.822815
713.594238 103.393776 -673.907104
532.823120 187.539001 -653.520569
721.689209 18.354572 -756.797424
748.556885 114.989532 -669.452209
747.603699 12.146950 -760.147827
733.043396 110.669930 -686.278748
638.350586 100.040657 -713.444153
451.823853 48.683701 -827.534058
618.637390 149.506073 -669.749634
403.296173 62.334740 -830.901428
346.298737 181.483429 -730.925415
589.263000 6.089282 -847.051941
714.498169 141.401062 -662.675415
421.479279 222.793442 -674.470032
640.778931 81.047287 -752.927246
498.733398 -31.262493 -908.045532
675.487732 158.567291 -637.354126
725.020020 126.969246 -671.634827
534.201050 -24.806679 -907.467041
340.890594 233.080521 -697.741943
533.427063 -14.786275 -899.074341
742.515930 140.475296 -640.577026
340.619812 97.649094 -823.312622
711.543396 89.242012 -714.094055
605.784668 138.077286 -705.519836
779.728027 10.004981 -771.898560
697.828735 165.946243 -644.741089
624.854065 7.905377 -791.099976
456.932770 168.816376 -729.977783
479.489624 194.194336 -673.805481
420.941772 206.533081 -661.479980
601.494324 79.071007 -763.424255
478.106964 84.781990 -805.494019
641.229736 71.609138 -740.672729
787.440247 61.099876 -710.292603
528.143372 186.414978 -682.472107
652.578979 116.475861 -663.035889
439.061218 174.300446 -733.593933
697.583984 43.647171 -760.036987
451.492615 76.969963 -781.123657
698.837280 110.258659 -695.645630
531.672363 133.627487 -737.137024
469.000885 118.532944 -771.838013
677.880066 124.183914 -674.287720
349.257263 134.125107 -781.558777
480.793579 26.363810 -857.084534
364.181549 175.789032 -750.883667
687.371399 -28.060726 -830.695618
601.717651 1.057793 -817.812927
686.098816 16.757748 -793.831848
790.691956 6.222115 -762.848755
369.736359 177.021500 -734.344727
389.218384 150.089447 -752.114136
586.116699 -30.252150 -875.692200
584.414001 81.966270 -752.452759
372.701294 76.376442 -828.443909
615.518494 141.003571 -688.140137
401.753571 221.419144 -698.217590
348.724945 52.747211 -878.236755
646.552734 -8.270233 -841.136292
643.882751 69.114899 -758.624878
601.093201 -32.563980 -911.206604
617.364990 188.267090 -655.242004
386.102936 196.232956 -703.166809
762.490845 122.216530 -661.891296
768.285461 54.312237 -713.384888
434.044220 75.690468 -808.953186
699.256897 121.371063 -690.375061
453.353790 11.959274 -857.064758
691.073303 29.295792 -765.542664
589.178223 -65.956635 -899.575073
771.257385 71.804573 -705.084045
577.041382 107.663589 -730.394653
626.381531 -3.562058 -826.146606
605.755188 134.385925 -709.441528
691.497559 121.862679 -671.579712
390.267456 180.596313 -740.002014
615.952515 -84.051270 -887.856079
655.965515 176.898773 -647.018494
390.355164 74.401291 -824.107239
457.851837 14.747305 -857.260620
755.585388 143.766220 -642.052917
602.257263 132.780106 -702.389832
665.204712 88.797348 -736.328186
660.342224 49.861629 -777.045349
298.403351 168.504410 -755.917175
669.073975 25.750587 -785.111633
486.571564 5.595336 -889.559021
533.658203 169.968674 -677.818604
639.704529 3.911115 -830.273376
763.430908 -8.491758 -770.406067
768.832642 -46.076946 -920.739624
396.238770 45.086468 -863.689880
300.187469 114.443222 -816.592407
456.351440 202.120056 -694.604553
565.037903 176.922012 -670.184692
371.185760 230.659515 -699.409180
385.660583 145.039429 -782.248779
577.941650 -59.989830 -885.582703
782.136230 108.182434 -666.275635
767.196350 142.437469 -640.203308
447.710938 111.889191 -768.242554
658.355408 120.257584 -694.480103
457.760437 159.731110 -740.798279
554.174072 100.257957 -760.839661
482.647949 207.882797 -653.161438
395.183868 42.353531 -853.713806
776.521484 21.175627 -747.369141
560.136108 141.303085 -681.894653
354.634338 139.216873 -795.538391
459.940155 98.706352 -784.428101
534.174377 137.378647 -682.915649
735.452087 -11.097336 -802.448486
733.999939 138.419525 -633.146851
330.432892 49.542614 -905.166565
617.626282 -67.400246 -879.034058
633.312866 144.519440 -676.834961
705.033203 67.547333 -723.067810
537.609863 68.317093 -787.499695
418.608551 166.941071 -725.089722
567.769287 116.518417 -744.781738
745.331299 -13.587300 -804.963745
641.677368 140.165695 -651.635681
647.696289 -65.104782 -900.108398
494.718536 -39.219414 -904.506104
350.436432 63.633587 -861.733521
510.393219 -90.959465 -892.928955
685.451965 87.587181 -725.684692
371.437195 79.778023 -825.718994
690.251343 146.752914 -629.566650
517.097107 38.787975 -814.570923
745.158752 -22.632454 -807.355103
410.949860 34.616215 -873.183350
441.929626 -74.172974 -879.187134
398.280487 166.222656 -751.513794
752.569641 50.589382 -736.169312
521.460083 8.107096 -837.084351
507.494843 209.392883 -661.526794
451.724365 122.196304 -781.304382
731.139282 65.443100 -705.154358
503.647278 15.812537 -846.284302
462.485535 -57.426399 -905.015259
408.782440 63.570732 -829.408447
482.179321 171.169968 -702.446472
469.188110 -6.092429 -908.411377
293.072754 212.026978 -738.811523
401.295380 103.765846 -795.781982
398.070099 182.219406 -720.937988
532.496704 160.868256 -697.064880
615.373596 -88.688766 -893.403015
327.934509 189.508728 -714.298706
701.956604 73.994385 -738.455505
633.080872 3.523442 -815.442993
456.643494 186.501389 -705.018188
692.684326 -38.339851 -884.575012
571.230286 126.752182 -716.399597
395.445923 62.393261 -849.800293
746.893372 96.120987 -687.736206
322.960663 138.997986 -803.282654
357.030975 116.686279 -796.151489
523.192017 -30.541807 -903.994385
767.917419 66.377678 -703.042969
557.070740 -5.079997 -856.852539
593.349548 57.404053 -777.677124
591.590576 -64.208046 -893.048889
567.953857 164.380127 -692.514099
493.929169 47.350052 -820.875366
513.392639 -6.222638 -900.394958
496.450714 120.275085 -748.980408
525.325195 23.772617 -829.847534
539.793335 146.475815 -709.228149
615.587219 -29.554121 -891.008240
437.284943 30.271307 -869.253113
333.952301 203.297501 -709.251221
414.273499 124.086357 -791.362000
697.529846 -53.499500 -897.016907
642.095642 -69.456177 -912.422424
354.060913 57.656555 -874.364441
693.478821 49.157742 -754.015442
539.653015 55.292793 -773.955322
709.477478 158.385986 -641.813965
418.553162 -36.229229 -904.438721
391.908051 163.322708 -743.779114
396.286133 189.630692 -713.976746
429.012665 181.645538 -710.866882
599.059021 149.935745 -677.876709
396.837646 25.269896 -860.158142
721.990051 130.303650 -665.185913
733.816101 153.471268 -632.757446
545.930481 -0.332019 -877.852661
568.969971 84.226860 -759.575684
632.950928 156.523270 -657.256470
751.705994 120.841240 -659.769348
625.330139 122.939102 -716.535400
526.496460 65.873360 -788.379578
769.720093 26.987539 -747.337402
453.500397 71.472557 -830.165894
681.827148 144.757385 -650.592529
406.787109 163.904678 -731.164001
350.160522 210.387741 -700.187927
662.203430 130.230652 -681.544800
345.237701 77.989243 -843.537964
487.893799 -30.860210 -915.332397
474.819275 210.619385 -671.514160
786.532410 27.899786 -751.791748
517.360474 24.881279 -853.236206
316.610443 117.573875 -790.335632
553.188171 -1.433739 -880.314941
514.561707 39.473019 -797.703064
511.657806 -92.713882 -887.010132
591.104309 182.851471 -651.855652
437.903076 125.340744 -758.262817
462.955536 -42.293259 -893.107544
584.198669 -91.435699 -887.652771
454.997772 64.961044 -817.897583
432.875824 162.180939 -746.190796
772.418335 109.952194 -649.136353
524.206543 -8.265384 -898.266418
481.785767 102.753792 -766.604492
754.388550 -70.048027 -852.778625
323.138062 72.933601 -850.442322
344.874634 209.711227 -707.298706
611.087708 -21.421101 -864.373047
604.288757 -106.113586 -864.306946
375.301758 176.353210 -732.326538
706.362793 18.615145 -762.854797
657.095215 169.892822 -644.611023
772.999695 110.462204 -657.117554
438.878571 -72.204620 -873.696350
568.154053 125.786156 -718.842163
321.610748 49.519318 -896.401306
522.020691 161.012390 -692.263733
744.035217 77.653679 -718.073853
656.305237 144.633759 -671.120667
391.102905 63.624615 -834.040710
607.593323 40.842415 -798.243774
306.725586 106.807747 -822.633179
623.844849 80.475571 -754.959412
517.505127 170.362213 -705.474182
642.379700 16.266094 -800.560791
643.920410 67.031456 -759.596619
514.055237 26.166243 -846.558533
753.390442 -56.905350 -854.849548
458.465546 -91.080109 -867.385437
504.178162 176.626389 -662.498596
344.017059 63.574219 -871.946899
586.775330 -104.542191 -873.263855
545.042114 185.739288 -660.922607
291.798828 71.659485 -861.812561
538.192322 188.867218 -676.517700
549.871277 111.921333 -736.895569
368.248169 38.355572 -866.239624
361.514130 166.737854 -715.255493
649.243042 -31.845474 -854.821472
648.853943 132.017303 -678.583740
667.866211 130.332382 -671.478088
431.294800 175.751541 -711.457092
783.974976 -47.317135 -892.100098
771.435120 84.199532 -686.032349
750.823608 99.887115 -675.225342
709.671387 -47.100060 -911.196533
617.290283 -24.928421 -840.153625
451.659210 -31.218544 -910.702942
436.674896 47.601215 -836.588989
637.739014 57.760273 -765.254150
579.476379 -38.515488 -884.071045
362.990875 192.273895 -703.132202
521.780029 21.549986 -847.400330
695.966980 15.351100 -801.200073
702.200134 -48.254608 -872.265869
561.474365 60.506603 -803.352051
488.962402 122.598671 -725.238037
424.277924 226.882690 -694.946533
522.998352 165.729050 -687.783081
724.884094 115.107109 -666.700623
420.683380 44.667397 -841.728271
596.718811 150.611252 -688.634644
495.078644 165.923828 -676.942627
477.221588 40.705891 -845.547729
298.996735 176.140335 -747.009521
562.352722 85.859810 -736.973755
658.890930 21.465345 -805.952820
548.290771 47.076023 -793.592407
390.117188 239.666656 -676.922485
549.846191 138.571701 -706.981995
551.066406 57.631607 -789.598328
721.779663 -0.031849 -801.918457
640.229309 128.832520 -681.517883
730.195129 43.433674 -747.942261
783.352295 17.473322 -733.250183
398.685272 189.253311 -707.893555
360.959900 228.774673 -710.866577
631.231689 76.502159 -752.503418
606.457581 -79.031227 -898.662537
408.133728 99.975967 -797.626831
391.924225 155.372849 -728.190674
329.589874 66.990501 -851.495483
424.187805 220.285309 -674.328796
714.171326 143.032211 -655.817078
669.216370 98.290962 -705.860535
681.458069 -41.390347 -921.272766
616.438965 121.166916 -703.497375
512.195068 61.467022 -797.230713
617.921265 55.911068 -773.999695
557.916992 64.715302 -773.977844
571.930481 -108.486977 -867.701904
439.489288 64.712021 -822.599548
307.289490 47.147556 -920.303345
405.722015 30.675594 -862.514282
330.849274 144.903961 -772.293335
447.047241 136.371735 -736.156677
435.511719 107.436859 -784.453979
772.260620 40.903965 -717.147156
571.394958 69.204834 -779.959473
594.018738 136.617798 -713.589539
574.382080 100.835808 -753.909180
404.906067 225.106628 -693.486877
546.668823 -19.430332 -887.151428
430.717468 172.210938 -714.945679
634.976318 33.342529 -795.617676
352.360657 119.294220 -782.374512
585.222656 -44.311382 -872.083191
679.241272 -20.806980 -838.706177
644.890381 150.626495 -677.980469
536.701172 193.664001 -661.031494
410.749329 53.179295 -853.905273
607.988098 163.945801 -682.172791
671.776489 -72.073807 -894.964905
753.127502 -27.842421 -819.652039
565.290588 122.068390 -732.437378
353.016113 59.352020 -827.800659
567.398132 19.146355 -825.739380
467.776367 -33.873711 -909.683594
431.767395 -13.606287 -927.052979
760.736633 109.042450 -677.732849
525.806763 57.090702 -802.497192
520.499878 180.405975 -672.094604
608.365173 -64.314186 -894.013977
468.150604 163.869873 -713.779785
320.799500 122.401917 -820.248169
514.099731 15.880396 -857.440369
316.995026 133.346176 -809.935303
340.152893 126.563095 -806.102661
341.727173 46.129932 -888.756775
383.288269 209.288940 -718.438965
503.010376 68.151901 -812.310974
369.026764 92.978645 -814.767517
514.165466 6.441084 -853.686279
384.376587 29.215891 -951.205444
323.593475 136.892502 -787.455383
711.271118 -0.186492 -777.726318
657.163086 121.417542 -703.223206
356.289246 96.267105 -815.722046
574.696655 100.797722 -757.845947
675.669250 77.304848 -733.300171
684.527039 -52.852173 -868.050781
482.691803 91.042824 -777.770264
613.512512 163.497345 -654.510620
679.902466 49.936287 -750.246948
425.749359 196.290359 -692.354492
504.392365 42.205986 -823.056030
340.489410 230.604843 -689.461426
560.404968 40.284424 -802.175781
673.820557 4.055441 -793.938232
603.930115 128.824615 -680.607178
639.172791 63.577915 -752.365906
683.089600 -2.229769 -821.479248
377.704895 235.655792 -673.747253
587.166321 195.535126 -657.699036
485.934448 76.475014 -806.894653
775.379883 74.631538 -699.759460
748.584778 -42.990982 -809.665344
457.177582 169.118896 -713.314575
479.453278 11.119513 -882.421448
760.930054 104.515381 -650.908936
414.873871 199.996628 -693.545349
443.297577 96.706871 -802.220764
467.424530 206.858047 -671.896362
397.399017 158.501984 -764.221069
489.378357 -45.596066 -902.230469
571.411133 -2.748936 -836.861328
511.657104 144.754166 -733.800537
620.143799 -35.252663 -872.790344
507.585724 91.690651 -760.618958
442.893555 -69.498322 -883.490479
737.902161 147.939590 -645.840393
364.252350 171.881927 -755.046570
717.486694 85.610443 -702.051392
557.813110 -51.634773 -908.022217
658.528564 -40.946007 -882.813354
732.439148 139.530807 -651.473389
420.574524 221.735962 -672.960449
678.600830 160.322968 -646.467651
588.193115 21.420298 -816.846252
518.405823 178.737839 -657.742188
715.222473 81.378334 -725.469116
443.023651 44.927109 -843.297241
725.546204 -39.453865 -802.948914
418.095093 195.742981 -693.374756
736.524841 24.020702 -738.439209
623.500671 -60.928909 -899.321777
512.458008 -62.700848 -889.370789
737.719604 127.275177 -659.870178
376.532867 109.022995 -796.578613
621.499268 111.800957 -729.286621
478.275116 13.081323 -849.997375
565.377136 131.870163 -678.137207
744.137878 150.406265 -642.185425
594.722046 170.435272 -663.200867
596.891724 83.578697 -715.471863
489.651733 90.192825 -759.191895
633.593323 37.795002 -785.920837
363.453094 73.323570 -850.050964
445.283630 192.977844 -687.653137
626.646729 -68.602562 -887.432739
353.090302 118.208923 -795.084717
507.608887 105.543526 -755.646667
546.600647 -9.243386 -889.066284
614.979248 -37.100655 -896.157104
564.160889 74.218193 -782.730103
371.737976 212.822281 -713.403992
779.132324 124.549934 -651.257202
526.558228 81.792458 -788.340515
587.721924 62.895996 -784.280090
319.806763 173.749374 -751.611633
385.002502 203.234650 -698.249084
713.275940 -17.988325 -816.376465
683.494690 168.384857 -646.863403
441.577759 189.087372 -685.075500
331.585785 86.539749 -834.169250
778.615112 137.007980 -623.948425
558.874817 86.281601 -734.125427
548.852417 -38.192230 -912.400635
445.959930 168.287109 -690.333801
651.812073 122.965012 -705.527893
666.734253 -44.702244 -892.430969
726.367065 41.460129 -740.713013
664.238953 -23.085138 -850.390442
649.264709 88.012428 -739.372559
579.911743 24.873915 -823.973755
698.564575 113.261513 -691.314636
632.539429 73.367584 -713.083130
714.433105 -42.357113 -809.883240
499.495331 140.472488 -726.900146
376.206238 148.899872 -758.620667
434.680939 76.866432 -823.329041
694.088684 31.100491 -780.448792
768.127075 131.722076 -631.430481
605.417542 88.610275 -737.844238
711.559082 -69.999443 -874.828003
691.517883 -11.332465 -814.164246
726.212646 -79.023247 -861.275635
613.818054 40.467319 -785.254578
477.099854 -61.441303 -899.622498
677.313477 21.241304 -786.390869
545.891663 152.637787 -716.560974
733.325256 56.429638 -738.329773
542.467529 111.615425 -716.750244
744.117554 126.697868 -666.159485
382.412811 115.873032 -787.353210
462.453522 -24.366627 -909.083862
713.749573 25.997000 -772.753174
411.159393 43.898777 -847.154236
500.656891 -38.346859 -895.816833
726.469971 -39.686543 -797.600098
394.434845 131.458359 -791.609436
581.446838 86.496948 -744.912170
741.325500 70.139946 -683.731018
600.324890 44.749355 -802.594421
307.887878 169.051559 -760.826050
629.466248 -80.718292 -882.719727
315.287537 119.954300 -792.172729
604.717102 -44.963219 -909.489319
376.780243 66.535957 -853.396118
666.116028 50.775921 -769.736145
581.120117 127.985039 -711.439636
400.617645 153.156036 -743.669922
486.155182 200.865723 -667.693054
345.806763 146.745071 -771.578735
498.063965 205.770279 -677.651672
332.770721 47.257282 -847.228760
662.158752 -19.144262 -829.736389
553.453430 -50.967983 -884.736877
654.479736 89.134995 -721.588623
694.082031 -63.087250 -910.403870
687.329529 -43.716587 -917.913940
540.424316 45.881531 -818.797546
401.945526 168.824158 -728.593811
577.951660 -55.073799 -889.770203
400.382690 118.544327 -795.492615
369.297394 204.409592 -698.347961
348.747864 154.978653 -746.048828
695.917542 -22.944544 -823.520081
606.299744 -11.253731 -850.097778
627.958679 115.310883 -720.766479
412.359497 114.321724 -797.690613
650.722351 171.382980 -646.486511
517.257080 3.385334 -865.478210
313.675018 173.434753 -747.553711
685.801636 -38.122772 -843.088318
523.858337 -29.559980 -883.972717
592.194580 26.231419 -818.130249
336.394623 146.669601 -778.831665
720.758362 123.970360 -671.201599
388.119446 10.202409 -897.373047
606.859985 52.869232 -793.751709
634.255249 70.665695 -748.021179
589.230408 18.682856 -827.025940
600.712585 -38.949860 -882.996765
435.675964 76.034798 -798.161377
669.368103 78.185860 -741.298035
302.730438 124.852905 -812.488770
728.028748 0.560959 -782.335144
456.012634 206.186264 -691.582886
403.183167 139.810883 -776.108398
569.328796 -101.743851 -876.073914
745.198547 -19.121330 -801.529053
612.102600 16.761408 -811.295593
768.648132 -6.124034 -793.405029
418.240753 117.975029 -792.315247
535.673340 162.333954 -686.738953
699.923645 133.772644 -653.117676
507.330139 -103.074646 -871.694885
394.858582 89.282074 -809.251221
541.113098 -56.896591 -888.097961
441.699036 40.435993 -857.225647
601.120239 -87.855103 -893.128845
511.981995 146.830658 -709.955322
713.479187 62.435333 -734.243469
479.137360 124.377930 -764.957153
645.944397 136.680435 -668.036316
455.290314 30.247616 -855.718079
359.108246 97.802994 -831.558960
525.434875 -78.443047 -892.436523
696.828979 43.248116 -772.102295
771.205139 121.677193 -658.110535
482.870361 176.433792 -691.292053
582.421387 60.063164 -788.836914
716.350830 28.229710 -749.291016
595.084167 -56.998165 -890.116516
289.841949 52.329578 -917.888672
676.306335 -51.051006 -922.786865
481.748138 -21.396347 -915.202148
421.757019 62.376305 -850.697388
733.807312 149.082458 -639.748535
737.005249 47.918087 -750.806030
797.659851 62.692215 -706.768738
683.056274 125.924202 -668.263855
687.297974 28.429777 -782.944641
548.528015 -101.369461 -868.663086
632.264160 79.620758 -717.370300
776.278687 72.568604 -685.717224
412.279510 40.789215 -839.537964
734.163574 -39.333286 -926.288940
660.538696 68.430405 -731.989563
580.027466 161.181076 -668.441528
452.640839 140.072128 -730.864868
369.703156 44.566509 -842.938843
640.292175 127.093315 -688.359009
346.497437 230.265289 -703.510376
622.922119 28.233496 -804.764465
391.958252 217.980148 -678.843384
581.453857 1.700771 -853.256531
699.310913 -42.625065 -843.821838
386.053772 68.791084 -847.613525
680.093811 -13.839330 -789.654541
610.015137 108.872429 -719.457336
613.745117 40.473000 -802.687256
547.279968 53.292915 -813.319519
291.122101 185.447922 -751.457092
664.685120 85.020294 -720.993591
763.891541 90.800919 -692.766174
678.800598 141.844437 -648.274170
373.668945 193.688751 -711.483704
613.625488 -68.943192 -895.579224
370.453552 66.312828 -836.496948
472.236023 23.880816 -854.989441
467.208130 -83.824982 -872.228149
797.123413 88.599251 -661.277649
763.495422 96.973076 -672.755127
562.746521 -93.696457 -881.795410
512.666992 128.041229 -728.728577
718.166809 65.607956 -729.574829
640.562012 15.401690 -810.646179
699.505310 66.036736 -721.899658
680.683167 -38.443462 -865.106323
675.101318 150.717651 -645.670959
341.836212 61.183456 -857.772339
741.479797 -49.248260 -827.299561
760.876770 57.083187 -724.901550
636.975891 111.440536 -723.436707
314.494690 175.012589 -733.585266
301.600281 152.545395 -794.300049
727.071411 144.110153 -629.031250
662.963013 97.939262 -712.317139
400.695374 36.358448 -889.632141
724.047546 130.380463 -654.561218
496.706726 87.285942 -776.476379
729.758911 51.693287 -751.233826
612.041138 116.164803 -705.151184
394.890961 72.709747 -830.755920
568.317383 104.174179 -754.504456
414.210144 99.075912 -809.528748
440.777100 56.508865 -827.555969
697.833679 19.339455 -787.870605
750.289612 111.783272 -666.518616
491.300262 -77.091583 -893.092651
731.701050 44.758888 -750.281311
729.728882 -57.700939 -856.194763
325.840424 52.164001 -896.929504
666.614868 -10.076115 -831.506165
438.136932 208.091614 -697.174011
684.121765 96.668121 -701.803650
506.506073 32.850224 -842.535645
651.955750 119.121094 -709.096008
465.956848 23.107147 -856.924866
538.766357 41.524773 -822.892822
678.446167 66.032295 -754.821533
464.427948 68.157692 -799.488770
721.986816 135.874008 -647.418701
427.173340 66.817772 -819.761475
548.904480 146.710968 -678.270081
433.303467 44.850117 -858.107239
756.506836 141.629379 -628.936462
443.297913 58.408295 -812.824768
566.903198 139.111130 -705.303894
563.168213 162.383911 -677.092102
525.800415 54.138409 -809.908997
523.255493 60.453308 -811.675293
765.002136 114.211433 -656.418091
685.591492 85.079933 -732.750183
450.835693 198.068695 -705.872559
477.612152 160.207428 -733.260376
507.049377 -2.154744 -900.114075
695.146973 56.055107 -753.239685
694.875549 60.116249 -749.657410
629.433655 -70.619583 -911.590881
484.111298 161.276596 -685.550720
598.960999 138.214386 -696.382141
682.700623 152.568192 -656.039490
555.001587 -59.120007 -896.742493
514.435608 33.653606 -841.009888
352.513458 73.497871 -857.581970
615.555603 102.832970 -718.320129
403.778748 77.930115 -817.331787
648.003662 72.709557 -737.082642
664.239746 12.514219 -802.853455
299.119019 140.273102 -792.042725
738.757935 67.219421 -724.795837
466.362122 -74.344604 -888.473450
557.743408 52.191135 -798.903809
650.457092 -79.578537 -888.084351
490.372925 155.484253 -714.704285
484.472626 208.194107 -679.207886
563.011230 -82.989944 -895.809082
711.942017 114.912086 -669.084839
515.954224 8.945124 -860.225586
625.934021 -35.972221 -897.121521
611.433044 172.291611 -662.353638
605.290771 143.866669 -690.622375
754.593750 15.375351 -769.237915
660.253235 162.801666 -650.641541
549.519653 2.927876 -834.682983
418.630280 34.105827 -850.736328
462.424744 148.557388 -731.937012
494.094604 -66.543030 -895.147705
701.963013 -35.569252 -860.237366
368.705078 134.984512 -792.691589
698.339722 -57.222595 -919.199280
774.380737 48.310936 -728.233887
561.277710 130.317886 -730.300842
555.469177 64.504341 -801.337646
434.419830 36.675526 -828.796692
575.138672 111.186096 -743.710876
432.392029 43.628899 -849.565613
577.171631 -62.548126 -895.712341
645.641357 68.694862 -737.880371
543.765137 68.511551 -781.339478
767.531982 118.751694 -663.702637
523.543823 32.530380 -825.065247
752.074585 -12.909231 -775.507202
339.482605 173.697464 -740.946655
314.843384 54.311333 -870.937195
313.295288 241.429932 -677.696899
614.573486 -39.654709 -888.084167
536.594482 6.881371 -840.725098
352.797668 93.849503 -793.084534
610.097473 23.658422 -820.595581
670.182800 -3.659919 -812.630310
334.548187 82.308098 -809.746948
301.969757 64.400917 -871.801331
587.232544 179.032425 -653.694824
405.963898 66.790710 -822.192139
588.005249 -32.559605 -889.356262
490.942139 135.858139 -726.090088
726.161438 51.622074 -742.775208
794.778809 81.954620 -687.698242
673.329041 -7.243981 -828.673706
498.149719 169.461899 -700.618835
477.702332 92.102676 -797.651428
552.791809 154.959686 -691.269836
358.636444 204.379471 -710.035583
517.678345 -32.897823 -887.090088
333.597229 83.850670 -833.474426
580.050110 -15.700933 -884.481201
661.307068 -10.752834 -833.715149
538.696411 206.308655 -664.899841
325.145660 89.906357 -854.398499
424.125549 121.480705 -786.681213
417.723633 108.384499 -783.572876
447.939209 161.406189 -742.780029
687.725647 113.730759 -653.610657
620.298340 -80.550720 -896.513123
295.647766 116.610809 -836.230652
711.074524 33.821110 -745.743286
442.416016 -27.516338 -920.635254
379.992249 139.475357 -765.766113
572.494080 68.836884 -770.333008
696.844482 -37.622517 -838.821045
459.284454 60.924202 -805.837097
693.549866 147.551407 -655.379700
413.211212 11.721327 -923.770203
689.570984 15.390399 -788.285034
427.759766 139.489853 -734.092529
537.363892 32.733105 -810.269775
355.269257 141.297623 -799.208130
447.193176 -65.766251 -897.572571
474.349701 -23.508503 -906.807678
738.115784 84.817673 -712.543457
587.147400 -8.362751 -869.126160
329.608612 230.332397 -713.414795
434.973877 -17.807480 -929.322205
690.604980 123.280220 -679.196899
338.309662 46.319595 -854.149231
441.861908 5.308197 -913.014954
672.220093 144.447968 -661.766846
707.365295 123.177277 -681.525879
397.038605 85.047348 -819.604431
738.582031 132.371521 -628.417725
322.324585 158.880035 -734.423889
551.935364 122.002350 -730.129028
605.064087 66.249161 -760.725830
741.652954 49.825401 -727.164001
568.401794 -69.950531 -878.276428
625.328064 66.929871 -770.546570
674.481873 147.053879 -646.136292
476.652344 186.238129 -704.415649
520.835938 69.983139 -791.480286
606.622803 71.904541 -730.773132
556.139465 192.316589 -657.880920
470.612946 14.235250 -899.128235
707.405945 74.858170 -732.818237
552.932800 -84.594017 -889.989441
477.473328 -41.029469 -905.956055
375.446075 114.072701 -808.164246
341.364624 159.665878 -781.899963
386.770844 112.786026 -798.058472
491.910675 63.594124 -801.175293
751.860779 49.645210 -713.619995
299.476440 97.988060 -853.660706
757.274963 -42.101147 -829.860901
533.999512 28.328533 -837.383179
390.566071 50.353962 -862.156738
388.974243 135.723236 -782.484863
547.084351 -13.806842 -901.848511
610.410645 120.183762 -706.218994
515.506592 -16.680279 -880.648743
716.203735 131.494598 -673.656982
617.422546 169.581055 -655.685791
743.487854 88.119209 -685.243042
661.856262 109.697624 -714.203064
600.301819 30.762211 -799.270020
747.138916 28.492340 -758.594238
584.183289 83.008224 -766.749268
452.885345 162.726212 -716.257507
622.978699 129.163712 -709.206482
460.436768 76.579407 -817.949341
622.064575 -36.005524 -895.362366
679.654053 43.198914 -734.221252
513.159790 101.118149 -755.258606
479.495789 -34.716835 -911.946716
619.982544 -32.319427 -893.279724
514.732544 33.216499 -824.154297
317.870911 94.601051 -829.283325
647.113037 -51.530399 -908.015747
472.411652 -4.467024 -869.021301
633.800415 43.314690 -777.311523
536.219849 152.326050 -697.767456
747.867554 53.173012 -688.398865
595.824951 4.731589 -837.273438
394.290710 101.754059 -786.397705
357.536255 120.597717 -792.096069
552.213745 -14.308639 -891.354980
622.691711 91.626556 -742.401917
387.305328 146.954010 -729.135620
679.283142 94.321442 -720.442627
742.781433 16.331511 -770.484375
417.986908 117.333252 -773.389038
376.402374 37.519012 -891.938293
740.592468 109.794754 -680.059998
711.525574 77.864830 -726.084167
686.923340 86.834190 -718.680359
611.133667 70.253487 -757.255432
653.084106 56.455940 -757.364258
380.754974 115.125565 -790.024597
304.228638 88.304810 -848.932922
769.294495 63.790157 -701.830139
637.253967 137.128403 -698.427185
723.769409 107.269325 -675.453003
660.339783 56.278343 -753.440918
463.793213 -60.207016 -884.554138
348.103394 111.336456 -801.388611
603.560059 -65.048973 -880.431580
773.839661 67.415344 -684.614258
438.940796 41.854427 -843.850586
627.018311 171.141586 -668.784363
750.135681 -32.427586 -818.055237
293.701080 195.557312 -754.477539
505.215668 -27.086874 -914.964233
541.842590 186.554474 -685.404907
765.667725 130.063812 -627.064453
397.980499 64.476944 -831.290222
678.881653 81.160522 -734.841187
760.735413 -12.642168 -792.331238
555.042969 -69.372360 -889.645508
663.517456 -32.172295 -910.145508
511.602020 -21.809944 -915.794250
436.347443 177.727036 -696.272522
354.952667 41.062218 -948.237122
678.313232 52.882614 -754.430176
323.728760 224.643127 -720.934143
525.635376 184.379044 -670.233521
468.585785 173.034164 -724.121460
555.444519 130.280884 -693.243591
542.336182 167.756149 -687.857544
616.973938 66.435036 -732.482422
564.430725 8.942501 -845.790283
641.128540 -40.427189 -914.313965
638.225525 -39.615810 -903.358215
458.103638 182.512833 -691.437683
411.724548 106.012184 -805.876648
480.917389 210.762314 -669.878357
423.403107 60.358269 -831.323486
354.274139 172.165588 -744.028381
674.778625 20.218212 -760.239441
663.268188 -38.935829 -884.009644
300.131287 81.343918 -833.174194
530.019287 45.859489 -802.544861
429.837952 113.204353 -764.295044
401.508179 110.371468 -811.517029
342.592102 130.327133 -804.966614
605.620178 81.780014 -750.271973
654.064697 -39.195915 -925.746094
419.793701 186.992172 -708.825867
665.212280 175.748718 -645.155212
652.859009 123.903671 -692.678711
562.541870 47.997265 -815.386292
641.914795 -48.536770 -910.317627
608.869751 -93.644943 -882.370728
345.842407 216.103134 -698.950134
422.411804 -36.522034 -912.708130
771.950745 28.596577 -725.634216
501.514404 65.529709 -803.089905
473.416168 54.533611 -833.054016
341.712097 110.833115 -832.431946
695.203674 24.415512 -767.849121
514.646484 -43.275673 -888.301514
758.754944 -57.480556 -847.328857
514.152954 106.107506 -768.577759
688.020142 17.483784 -779.211548
382.611084 145.577423 -768.059875
422.188202 13.638798 -928.477173
551.327271 121.099358 -725.029053
420.592316 144.662888 -747.259460
491.150421 -32.911858 -911.041870
604.186462 71.606895 -770.484863
574.460022 -20.863585 -871.155945
412.637665 133.215027 -727.744812
634.870972 152.313873 -670.245239
744.466125 56.165340 -729.072815
674.895691 7.804488 -768.430847
444.093262 186.333542 -699.522278
391.986908 110.935043 -790.186829
469.701141 173.857147 -682.459412
697.781433 121.833870 -676.494812
488.115479 9.591905 -857.691467
479.065338 62.238510 -805.964539
429.679779 78.052467 -823.514832
429.877350 121.215973 -756.469543
297.773346 130.816193 -800.574768
535.523132 -2.105377 -848.087646
791.557190 58.262291 -718.429504
505.803467 3.383547 -877.340454
483.213196 107.987221 -764.692810
718.874084 71.596619 -722.799194
512.510437 -94.903297 -883.160400
621.698669 -55.083572 -905.834106
507.128357 -8.874492 -897.646667
527.155029 1.585100 -834.873657
360.524109 109.915108 -800.488037
661.637085 163.832458 -648.201477
485.775116 16.403141 -879.307617
536.441650 83.038506 -765.220764
394.280182 33.661900 -861.957825
440.722748 -7.360086 -915.151123
375.266449 185.330612 -746.631104
728.235901 115.531441 -675.436279
470.190704 124.850517 -736.823486
664.515991 -12.192707 -830.055969
326.306061 85.205551 -820.834290
451.082123 136.553009 -746.074463
647.143311 103.239838 -707.428528
297.125031 144.705582 -782.287537
676.751038 151.199432 -654.491150
409.313232 131.026794 -763.338135
735.032166 79.800072 -717.549561
734.309265 104.455124 -686.298157
729.973938 7.880485 -784.900208
563.607788 71.321136 -771.024658
405.569946 88.689896 -829.136597
565.388794 80.938858 -781.293640
685.083557 75.611427 -729.048096
785.510620 97.318039 -667.295105
510.446777 47.681194 -810.868286
753.960083 14.432311 -773.578979
721.990967 76.700874 -722.228394
706.311584 66.881706 -725.362244
648.558044 -30.031666 -894.034363
492.539032 32.810093 -853.899536
591.087524 -70.270721 -890.491882
633.526062 117.330383 -699.964417
755.488770 22.651978 -762.442810
454.542206 202.284836 -674.928711
498.403534 -42.193485 -905.364685
398.157593 199.899109 -671.755615
485.559998 186.034348 -700.904785
689.527893 154.673843 -635.164917
715.656921 -13.237167 -819.570801
681.290894 -4.103614 -804.956848
546.122925 188.477158 -663.556824
521.464600 137.123718 -716.423340
578.466064 115.249863 -699.471191
624.513367 80.640930 -753.137512
690.509766 27.293251 -779.402161
543.071716 201.427704 -658.330688
525.281494 -58.594196 -890.389954
313.695099 102.875374 -821.757385
354.896942 158.752884 -740.672974
713.624634 -47.948654 -922.544678
718.581665 146.588318 -642.669678
490.059998 191.976578 -676.288147
696.827698 -44.673172 -928.576660
347.510925 254.994415 -681.264954
498.640564 143.994781 -723.387207
387.544708 69.473549 -830.054382
700.061523 86.498909 -707.173645
599.082642 187.387482 -646.312561
509.576141 37.517490 -826.272644
781.223816 99.367592 -679.530762
602.963928 -91.009048 -891.484558
591.947144 -23.463074 -864.790405
679.262817 159.387146 -656.215759
742.926880 136.973007 -644.014771
588.682495 109.982216 -741.306641
552.587036 -41.208752 -897.833374
305.461609 48.024780 -939.134521
348.461975 105.982872 -782.487976
762.645630 105.068047 -671.290894
470.538147 167.995148 -724.346375
758.977478 136.745056 -631.268372
380.318665 84.902596 -818.561768
624.944336 38.025501 -776.901123
564.708740 13.348618 -841.591797
495.832397 -103.408257 -867.074341
461.308075 135.466492 -744.080627
529.638184 -84.457680 -897.275757
653.829468 160.138840 -648.901306
720.090393 45.271793 -749.660034
503.097046 201.028702 -679.092041
328.272736 82.132729 -854.145813
447.420441 46.505226 -823.885071
593.895264 -29.659166 -883.846619
680.112793 18.552893 -802.735168
315.398041 207.168045 -718.079773
332.095856 71.018929 -845.781128
568.785767 -51.024239 -887.028625
645.736511 -24.533514 -827.843140
493.599152 -33.257408 -905.431030
659.222046 30.413015 -777.028870
523.811584 105.164032 -765.197388
454.699280 -33.888771 -904.382996
659.485413 124.391296 -697.969849
333.012970 184.988434 -730.369812
338.435822 238.653625 -676.975220
671.596619 -50.348370 -921.166931
345.100403 185.430191 -714.816040
500.797638 -4.354619 -890.109192
539.433350 -25.171247 -914.297668
724.673828 -38.010647 -840.705505
702.136536 1.368776 -794.973083
498.134583 196.867630 -685.504211
597.536377 106.411865 -728.652893
475.541687 62.586700 -815.558960
633.586426 95.075165 -732.474670
596.192078 -14.577313 -836.652161
465.772125 71.937134 -820.809143
664.422058 101.274055 -712.515747
471.139526 90.006683 -785.544067
456.942017 -14.993816 -906.260681
540.769958 146.047775 -682.232300
678.610596 33.199722 -775.517700
528.909058 -2.394691 -855.940186
306.109619 80.758919 -848.745239
757.561768 113.038567 -666.768860
437.344482 172.391159 -710.439026
298.616638 88.844765 -870.419800
717.043579 92.620438 -672.095398
544.863831 185.756393 -679.863708
694.019348 86.696251 -717.589600
347.565796 107.425621 -805.869141
648.949463 48.518551 -766.224426
435.840881 136.534470 -738.791016
376.674347 118.679634 -775.552246
614.094849 -28.504622 -866.225159
485.334930 -68.493309 -878.579285
589.408264 -2.972155 -833.165283
375.791748 186.017990 -727.481140
531.236633 -89.752403 -870.106567
531.312195 77.101784 -781.322693
732.759216 16.252752 -774.483276
499.846802 202.677139 -665.226563
736.848999 114.113914 -681.281921
576.916138 17.158024 -812.598572
664.435059 37.437542 -768.215027
471.676147 190.354340 -701.590759
675.757019 43.732136 -772.244385
707.715637 68.766975 -734.520020
581.703308 90.410851 -741.094055
763.508240 85.081177 -692.348389
669.085144 148.242676 -670.903564
457.514008 -27.908962 -900.232971
695.581787 103.016151 -703.530823
305.985687 66.191666 -886.730652
536.245789 -50.137218 -904.156860
446.934967 131.411163 -768.904846
677.302551 103.549118 -696.861267
415.380127 91.878021 -803.063293
449.917267 206.459641 -674.792786
648.172913 88.503311 -739.004944
612.888855 137.679901 -704.282349
773.212585 93.702904 -675.786072
792.785400 50.767620 -718.213989
673.071472 17.205025 -799.442993
517.173401 -26.395710 -881.672180
433.321167 118.268936 -791.665955
644.969238 -49.485043 -898.402710
398.282684 182.226974 -724.138672
380.124908 97.035355 -830.199646
515.356995 127.498894 -733.768738
469.908630 1.649566 -907.642456
415.805908 29.068872 -875.281738
523.164734 195.733734 -661.627625
306.938660 111.021446 -818.191223
582.059448 98.063148 -733.134277
602.563843 166.467010 -664.338745
417.240143 211.604767 -682.430969
512.484863 -84.591705 -888.206238
406.415924 109.647308 -774.774353
734.695190 -38.916939 -831.106628
418.562622 129.217606 -751.256958
334.934387 90.803909 -845.189697
653.676941 130.701111 -676.944824
546.431946 41.402092 -805.557068
547.239258 159.626587 -684.217590
441.595581 50.621899 -821.055481
670.969055 83.167847 -701.331055
416.015381 83.379311 -810.793762
567.177246 158.327240 -698.328186
739.590454 38.840614 -751.594543
632.104065 -0.713814 -834.504639
535.111694 -54.247635 -886.801147
362.849335 41.051609 -861.434814
532.930298 -59.024902 -898.313721
763.718384 69.439690 -715.449036
284.783691 44.769436 -876.339844
648.927856 40.444618 -783.648010
472.286346 -85.138916 -883.379883
491.325195 -100.477783 -872.057556
557.913208 202.579453 -660.982910
499.597961 56.373463 -822.553650
531.776001 57.526527 -800.744080
308.504913 196.486649 -744.508667
556.210388 -58.879894 -887.628784
517.388000 140.900040 -734.803040
724.147461 -35.378834 -839.257996
727.413635 73.324997 -710.413208
740.713745 -44.490326 -831.828247
317.807404 108.152046 -814.881165
536.996521 3.011133 -848.877747
646.119080 -40.673485 -852.900330
535.054993 188.759293 -667.249512
309.183319 52.398350 -897.904846
561.388489 -22.143084 -867.850891
750.448364 69.850906 -717.361023
713.150879 -43.846848 -807.391113
472.493408 146.197159 -726.869324
575.695801 125.516121 -719.323059
415.109894 167.755188 -707.499634
744.016357 123.094154 -633.461365
437.290070 182.953857 -699.035889
736.791260 -21.299862 -812.856384
666.015625 11.230411 -805.266602
745.448608 26.537592 -746.181824
600.680725 135.186966 -688.280334
597.800903 -93.437370 -878.970642
615.348572 116.799248 -723.696289
537.509338 67.891632 -783.673340
752.035400 -64.028465 -871.113220
733.335022 107.684952 -671.403625
738.323975 131.852768 -649.396545
763.203613 72.924721 -659.924316
736.351685 65.706932 -728.302795
418.666595 34.738110 -866.880066
747.755371 19.852539 -766.168030
503.610168 156.221817 -727.417419
409.695557 178.033493 -734.828125
717.809631 65.392754 -697.535828
531.619995 63.334080 -789.693848
594.274719 147.245346 -690.860168
488.949371 116.777031 -754.724304
568.607971 181.598923 -659.602051
674.512634 79.735344 -722.867737
687.652344 105.945747 -699.637573
505.594269 -20.755821 -878.963928
689.672058 97.486557 -713.012268
718.840698 -38.781040 -927.059265
523.395447 -106.035400 -855.383240
619.225098 89.249512 -731.492126
602.372925 117.303925 -716.828430
346.041443 218.001968 -693.613098
516.459595 -27.977291 -908.079590
719.219421 154.937683 -641.263916
527.396484 -33.657898 -906.571045
538.547668 -4.484627 -881.965149
749.647400 97.247177 -692.712952
698.209778 118.191841 -680.467957
778.948853 109.974136 -636.033752
577.447449 -87.978394 -880.121338
585.313965 -11.755323 -853.741699
349.019470 186.438446 -751.114441
380.617828 100.070702 -803.623413
450.182373 55.888561 -822.132813
