ply
format ascii 1.0
element vertex 1409
property float x
property float y
property float z
end_header
-878.720581 492.152161 295.162079
-790.919983 285.078552 409.355133
-795.026245 208.191986 355.102417
-888.128479 469.645844 276.357635
-789.205139 116.723427 226.354095
-932.932129 257.623993 105.981590
-748.516479 179.883133 362.812317
-779.002075 79.746124 250.956848
-758.552124 148.182068 312.253998
-895.426147 383.910706 195.274048
-826.414246 480.356689 477.909790
-854.518555 481.934113 472.391663
-822.690186 406.615417 486.449554
-837.300354 247.820786 261.629730
-757.186646 223.248245 424.037445
-763.371094 156.010895 391.830902
-772.561646 215.375458 419.688293
-843.604065 501.200989 499.082214
-801.557617 220.189774 344.030792
-758.406433 288.080841 491.725616
-791.680969 427.022400 579.371582
-853.919800 425.423889 378.903381
-752.039429 66.650330 269.617950
-740.958435 127.467743 303.314941
-814.153015 329.280396 425.926849
-813.812805 219.553329 277.611664
-730.843750 293.842712 557.222412
-725.658325 316.283752 626.921570
-732.370544 291.297699 535.758728
-755.832214 226.428299 407.848633
-827.087402 220.737320 245.362473
-810.383728 228.722046 293.289490
-767.160461 233.732574 425.769684
-769.396973 225.729019 427.846558
-749.549438 213.203949 424.945038
-796.307312 291.940979 415.479858
-818.680969 254.626068 308.914307
-782.303345 268.079926 412.937561
-884.315063 405.657684 339.273682
-777.610229 380.624451 567.132935
-880.522461 397.613983 330.293213
-723.093506 342.181854 606.075500
-758.335327 315.559265 511.498993
-728.086914 286.537689 549.218018
-747.605042 160.259949 422.645721
-864.169189 343.403412 329.862518
-741.909424 200.185242 459.479889
-839.835205 226.301544 234.193893
-748.990784 283.210510 525.510742
-929.916138 422.367859 305.721466
-870.306824 512.278870 492.819794
-833.026123 331.644836 344.969025
-797.319214 112.399155 200.883453
-837.828552 312.321381 327.472321
-814.036316 319.786133 390.961212
-737.375183 352.548279 611.163940
-866.424866 314.491425 279.278870
-780.182678 335.941803 446.377167
-823.156494 409.890564 502.210999
-879.796204 280.519379 161.368805
-838.913940 391.809143 427.064453
-754.903870 119.173950 306.354034
-789.620422 431.594330 585.927612
-841.800537 475.532867 466.748596
-835.177185 309.131744 316.980743
-799.346375 319.998352 442.309082
-730.446472 140.775284 354.208527
-789.710876 324.070404 449.987488
-758.445984 374.185669 600.550354
-809.825745 409.686462 522.343750
-786.827515 407.315613 574.303223
-934.185242 293.893646 147.862442
-810.480286 314.263489 407.940796
-754.795837 241.384277 464.652893
-801.774353 184.678574 243.710678
-771.975037 308.910797 492.692108
-850.490173 493.917358 485.709839
-733.825684 269.901825 520.786438
-780.732849 107.790543 274.885040
-850.858826 453.198242 450.214844
-796.249146 216.209671 322.572418
-780.360413 122.713173 260.076294
-807.872681 263.162201 339.529175
-826.959961 181.253006 239.979599
-743.190125 318.317322 588.093567
-805.556213 415.889160 539.285339
-737.553589 294.527710 536.796448
-907.297913 405.750885 311.975830
-801.385437 447.108643 508.560181
-882.499695 466.307678 296.762268
-798.413208 198.469772 292.661163
-727.384460 317.915344 553.724976
-745.412842 305.028473 542.439880
-805.655701 377.636658 509.069855
-832.105164 395.652649 450.010529
-784.134888 388.633514 568.036682
-839.503784 310.348297 292.336792
-770.041687 336.027130 512.432678
-872.922180 396.568878 355.475006
-870.981079 324.176086 279.770477
-779.266113 148.798447 286.436920
-726.157166 305.483826 561.135254
-833.517456 203.496872 255.840820
-728.994873 290.081390 601.643494
-947.515930 499.703522 405.059937
-779.657593 216.224365 364.880432
-770.886719 396.975769 604.546265
-863.306152 254.928253 234.879196
-769.687683 326.169281 456.113708
-838.331909 282.559143 315.227478
-813.025330 181.232666 210.024139
-796.353394 407.313232 470.821960
-765.876892 315.602936 526.421814
-866.625122 484.167023 269.653992
-772.216858 400.027405 527.639832
-744.537598 149.847275 405.434021
-910.621094 408.080841 250.910645
-822.448792 445.815430 510.502930
-775.128357 208.368073 349.197968
-895.685791 315.030640 205.853409
-854.529480 319.688446 291.435608
-800.640015 235.293015 324.233765
-767.429260 346.626740 483.716156
-838.929871 273.243073 302.934753
-907.623047 260.550079 115.572563
-909.797668 384.341400 196.250702
-794.473022 340.015869 482.001404
-764.605225 261.166779 475.960083
-834.057434 232.437408 237.937454
-776.669617 358.364441 535.764587
-918.141846 509.047272 379.348969
-811.223877 419.454651 529.014038
-794.801025 286.444519 433.178436
-772.723694 354.377502 538.153625
-785.344177 253.324066 385.363556
-846.324280 161.455032 160.708939
-810.541504 350.391937 433.170471
-897.432739 503.674652 346.428528
-805.546387 314.854004 394.465912
-790.248047 270.379730 400.626373
-738.625305 335.081512 611.990967
-830.088989 297.682343 318.506622
-800.885986 249.184875 320.397644
-760.018860 216.657959 423.870941
-882.026978 499.516724 313.264099
-865.886047 220.254807 179.871292
-827.244263 474.781250 538.177002
-795.639404 184.938797 287.065979
-846.080078 202.210754 225.355759
-761.262817 145.595352 335.384949
-806.999329 371.170654 467.399109
-829.316528 453.386200 448.117310
-827.902039 419.728241 474.863556
-829.630920 273.933472 261.027435
-816.180481 428.818085 492.411316
-728.548584 300.179199 588.925415
-855.288208 271.410553 227.179932
-856.872925 484.706299 473.330811
-737.301086 256.451172 535.185730
-812.708191 447.950165 549.412048
-721.202026 316.725739 582.969299
-753.713623 373.529114 595.643066
-781.626587 384.233459 555.194458
-841.034668 333.016510 354.512909
-926.664917 288.201263 145.602982
-912.349060 421.141510 288.269714
-809.880249 241.776398 293.294067
-759.084839 326.351227 538.891052
-839.943481 364.717163 410.509552
-796.574890 214.064240 326.892426
-839.504089 318.086823 311.935852
-845.859375 187.312607 159.404877
-875.381226 489.829224 321.368073
-763.803955 382.237823 578.237793
-757.912964 119.882614 368.470520
-774.681030 265.996399 428.529968
-737.007080 298.340424 509.327606
-854.079285 229.738647 232.348709
-783.590088 371.516357 516.274841
-784.887756 202.589523 336.713470
-891.116699 429.187836 239.476990
-829.223938 329.490143 356.867859
-894.055054 450.903687 265.053406
-927.668457 511.315399 395.618683
-758.150452 174.414719 370.198273
-747.280029 320.265045 564.236023
-804.579590 349.071289 468.328552
-776.923889 292.214478 484.535797
-744.490601 342.883972 595.644775
-845.085815 237.319016 232.352097
-722.110840 339.064392 644.087891
-791.037903 375.989502 524.328979
-724.521790 342.077026 592.329102
-835.208923 240.008362 287.928253
-774.487183 120.431419 260.663300
-835.172974 184.178619 205.449448
-952.965393 330.806152 189.567139
-746.607544 267.129456 508.521271
-832.517761 218.849731 227.115036
-875.050537 556.550415 512.602112
-853.334229 291.607697 292.264648
-844.953979 473.967316 482.894043
-842.427185 309.431702 310.721130
-931.124451 541.462952 485.858612
-799.951111 448.392120 503.830872
-850.068420 440.459656 466.029877
-728.749695 261.704376 519.066284
-765.186890 290.807922 507.698059
-838.293884 214.561829 204.110550
-882.807129 524.866699 450.530609
-767.703308 156.370895 374.582916
-770.494507 162.272614 332.817810
-826.472534 473.802948 541.961243
-806.858276 401.692474 509.134308
-720.290955 244.287048 498.890015
-788.338745 304.323303 448.787750
-725.918640 244.551971 479.435120
-741.490906 189.054214 452.372986
-777.126404 186.204605 336.766876
-916.839600 511.012756 450.421295
-773.543518 94.627434 256.808899
-810.815613 468.022247 504.340424
-901.502808 463.084808 297.797119
-784.319641 295.404022 440.892242
-892.614990 472.336060 291.761353
-753.729187 87.885002 303.126648
-739.312195 337.399994 599.328552
-836.316223 345.661072 381.962341
-901.710083 283.131165 158.444946
-747.327637 102.268745 275.471771
-723.173828 311.198669 587.863037
-780.743103 264.889801 447.841949
-801.986328 321.707062 411.089081
-880.612732 427.599823 239.234055
-833.732239 482.402130 520.927246
-810.050476 288.514648 400.293579
-780.435364 212.939056 398.450043
-813.911560 151.041061 243.872742
-777.848755 69.224403 266.770416
-747.562378 193.168411 365.161285
-779.813660 326.653351 480.071472
-767.981567 200.487915 379.878387
-760.135864 315.261810 501.536926
-749.509155 197.321014 420.052704
-855.922058 263.962189 213.517578
-799.175659 274.427490 332.122681
-829.920227 174.557602 208.256073
-849.620789 301.324768 312.582672
-908.602783 434.270477 346.493103
-860.322510 321.807098 307.359131
-797.927246 388.644470 527.417908
-740.080566 168.054794 403.625580
-760.788696 392.219116 569.544373
-807.804565 146.554993 262.786041
-731.894165 310.820038 535.078796
-923.476379 539.805481 480.049927
-787.289063 152.647858 241.804016
-824.658020 217.747330 294.295868
-893.036499 450.243774 262.206940
-823.803589 367.962219 417.583252
-774.742188 328.855408 522.263977
-783.221191 208.077072 324.304932
-878.860229 296.713013 233.696289
-873.941711 440.631378 228.306442
-807.240723 447.427856 565.954834
-826.387512 356.427826 423.674438
-858.999451 288.212830 235.177307
-839.021240 478.950043 531.009033
-849.835999 183.436508 193.939041
-739.939941 330.870300 563.316345
-907.680054 396.054779 241.059525
-842.919373 186.711700 163.666016
-880.392029 528.042114 467.128418
-904.352356 519.317932 469.316406
-883.804688 462.758118 273.959473
-871.911255 451.988708 229.182098
-941.267273 492.908203 402.316315
-758.449158 192.043060 432.729553
-865.266602 398.459045 383.673157
-771.530701 87.932571 234.371216
-856.004150 236.697708 234.117294
-747.760498 269.794067 461.106171
-756.262817 221.632111 426.027039
-865.470215 323.741760 258.706360
-793.983887 144.785294 237.980103
-803.982544 169.673599 283.783752
-809.480835 105.931793 195.199249
-738.737366 249.362823 481.200867
-883.219604 494.452637 307.203491
-853.005249 202.565002 212.325500
-894.288574 313.485016 191.163589
-852.149719 521.605286 529.069153
-845.702820 316.339722 263.595551
-738.651123 229.117432 472.114075
-901.376770 467.132721 409.158875
-732.443420 289.348145 538.467957
-899.020630 253.259583 113.648170
-804.301819 328.942902 423.267944
-783.582092 359.126221 489.286743
-911.677551 461.187469 327.977448
-767.682190 293.612823 487.123718
-869.698669 337.443665 242.788498
-763.282227 241.640732 428.372833
-780.541992 244.217361 422.831360
-785.387634 405.832245 505.241180
-766.346252 303.189270 501.017639
-812.357605 210.096832 308.199463
-737.996033 213.469803 487.570007
-888.320923 464.308868 348.033173
-861.953857 260.160309 187.024551
-828.567139 434.984100 433.236847
-910.214966 385.004730 277.158386
-842.962952 414.497070 435.155945
-882.206299 252.959732 131.014389
-837.864868 259.136627 300.551117
-816.612427 328.940765 397.600983
-825.679382 446.064545 507.672760
-926.450623 389.938660 207.851334
-929.983337 511.756775 394.730957
-887.134277 444.809479 341.467072
-745.043335 356.524017 577.349060
-852.959717 499.298309 494.465210
-895.901245 397.118286 208.852051
-756.500977 350.366211 574.818542
-893.625305 421.899963 334.626801
-835.478699 370.044098 426.528778
-865.719116 429.757660 375.125122
-868.558105 513.601746 329.068756
-776.346680 268.507172 463.236603
-813.013672 453.193359 539.796509
-826.822083 468.582733 514.851990
-770.316223 192.335220 366.254150
-876.242371 463.504425 280.187897
-855.250610 387.101624 340.359650
-771.065125 137.528671 292.513580
-857.293579 199.896210 158.190414
-828.243469 393.692383 457.258423
-754.113037 247.128815 470.740295
-755.147583 224.855225 459.702118
-756.196289 196.059464 390.691437
-871.851501 272.662231 187.559753
-767.269714 70.147331 232.941422
-753.451477 117.989105 322.579346
-730.075195 306.526489 614.420410
-745.691528 296.636993 538.587830
-876.911682 330.513397 269.726776
-803.522339 324.901855 457.063110
-789.036011 165.574463 316.083771
-882.568481 480.859344 324.699951
-841.112610 449.867340 474.756348
-746.065491 326.510071 588.998840
-772.731750 304.427002 426.607422
-780.467346 227.117584 371.746185
-800.181091 412.462067 539.968201
-774.760010 290.267456 444.770020
-769.234741 184.046280 386.373444
-779.789368 365.999725 463.666595
-830.460449 129.576279 172.270844
-796.771118 435.155060 565.412048
-940.200806 348.680817 192.191620
-839.627014 422.604736 472.307648
-763.971741 267.133972 484.117035
-860.144653 340.678009 283.573914
-899.970764 402.120972 208.505402
-783.771545 284.116211 425.814484
-829.570313 190.021957 252.302750
-837.278809 159.866501 192.053696
-709.494568 271.719940 555.197937
-840.792542 345.862366 376.891296
-760.491028 245.934296 469.214417
-789.563904 331.813538 484.900238
-833.864807 250.743973 259.877625
-839.164978 306.449921 320.397980
-864.026550 294.682617 205.006927
-747.217407 306.049164 559.185669
-751.361572 203.023636 423.552002
-837.980774 287.332123 287.331390
-888.813171 226.945038 124.950066
-813.323914 248.527344 348.864594
-885.452209 282.754639 190.271255
-795.536499 155.418121 190.945190
-798.150085 365.479919 432.626648
-809.476196 242.054184 357.472382
-912.122314 402.046722 249.325089
-815.121399 325.600159 395.304626
-789.089355 224.288803 355.428589
-855.804321 347.181488 340.895905
-839.175842 398.694336 413.267120
-838.173035 385.593719 402.307861
-864.388489 458.144348 233.267975
-747.784912 256.255066 495.678680
-821.337280 470.971344 518.279480
-739.938782 241.103943 491.313568
-841.856140 409.486023 429.949005
-751.441833 254.253632 479.391266
-830.172302 202.091324 262.925507
-791.783691 422.514038 550.369934
-852.343750 308.226501 313.867920
-849.292236 309.509399 281.933105
-810.986450 206.910156 256.147827
-812.472778 181.163544 237.412109
-804.596069 369.025299 489.469421
-750.127747 234.711761 462.099457
-855.562134 314.306122 307.167084
-764.324097 278.586517 478.172211
-798.414917 140.430634 266.687042
-753.322632 121.846336 313.169159
-801.672974 279.913300 390.429077
-726.896790 369.475067 627.742920
-794.109436 382.179657 506.788696
-830.123779 157.605911 166.348495
-823.215820 289.120148 320.212372
-745.436646 216.798630 456.258270
-848.098083 306.658875 265.807739
-835.400940 232.326965 236.878647
-777.675171 263.509766 455.120819
-867.583191 215.078430 169.099899
-776.101440 344.386597 448.116516
-839.877136 445.878906 475.354858
-805.448059 262.275757 374.793976
-761.573486 372.567688 573.443481
-791.224670 330.780304 484.329712
-743.929626 350.609619 604.319824
-943.253967 322.151031 171.049713
-859.861206 413.572052 385.500793
-757.072571 214.288284 407.314636
-812.919922 274.037415 326.517242
-892.849548 504.639252 436.818848
-870.415344 319.388245 229.239075
-810.071838 114.581612 217.918427
-743.158020 340.091095 601.546692
-879.617554 440.453094 228.586960
-764.263733 105.962219 280.352783
-907.858765 465.878998 304.525970
-776.894165 345.672943 506.261536
-785.058105 132.426865 258.402863
-798.908691 359.934509 469.487091
-786.284729 259.306976 389.782043
-893.906128 261.770874 154.865784
-759.067322 117.758385 307.284393
-737.379211 251.288757 536.520020
-770.352356 188.991302 360.909637
-876.046265 362.449188 320.972473
-817.973694 376.501556 463.365540
-842.453308 498.110443 512.684875
-916.631287 408.559937 246.314011
-776.923828 212.069092 321.564087
-841.021667 427.674652 478.683716
-815.636475 316.895905 390.183838
-750.870911 170.308365 390.632843
-757.389038 319.160217 545.913635
-797.897339 290.049957 402.820404
-718.004456 225.998276 490.593842
-791.855164 387.962555 542.800232
-752.515503 185.592499 407.735199
-820.142456 362.148895 450.843872
-879.013672 322.276886 255.872391
-820.250671 175.516968 250.524857
-818.910095 110.128777 197.377930
-757.890991 148.153015 342.227417
-866.216431 497.362122 313.696533
-943.641785 336.921600 201.233841
-779.061157 309.056030 493.485962
-762.132813 289.563599 496.643829
-766.256653 264.017792 446.743622
-820.363831 358.266632 427.406677
-813.008301 392.777924 480.604858
-891.051453 294.241394 186.040817
-838.588745 182.217545 166.529663
-768.381287 165.543732 368.306183
-880.970276 454.122101 243.198364
-766.903992 183.469162 379.991547
-800.326599 361.382599 504.411865
-861.011169 470.893311 461.069916
-884.189697 414.946899 340.693634
-810.349365 323.669067 439.891266
-800.690369 354.548462 463.326813
-875.992004 389.227997 335.720703
-839.579956 399.387054 419.470032
-857.023560 298.126709 254.679565
-902.890564 456.306549 312.737610
-928.049988 373.650574 231.550766
-771.087402 250.080292 399.936401
-823.031250 269.790771 306.972412
-744.946045 351.848022 572.243469
-853.144165 494.525970 514.547607
-890.931580 395.008728 192.228592
-769.163452 289.852356 480.019836
-894.324463 496.732422 322.287537
-752.764038 158.766998 372.798492
-810.657043 457.678162 552.810852
-795.508972 403.667908 547.416321
-851.454285 171.796280 168.663010
-915.741699 322.036102 189.684128
-861.534729 315.784729 272.460175
-841.080139 375.827789 387.875397
-783.380981 266.582520 442.273621
-868.173828 349.554260 276.506165
-870.123291 463.683289 419.099121
-758.268921 100.521332 280.153198
-793.762390 114.292839 209.344360
-848.073364 431.471161 425.997620
-785.781921 273.158173 443.608032
-848.706055 270.148102 274.288391
-818.461914 180.607895 195.627640
-922.305115 402.660370 289.327118
-777.707581 242.639191 402.257965
-919.835938 500.011261 384.539856
-884.928894 358.062653 272.857300
-821.502869 454.035706 516.262390
-827.346436 253.244492 311.912079
-905.582458 426.027374 329.417267
-882.175842 228.717804 154.445480
-805.883606 211.902847 291.204010
-794.919861 310.461090 417.663483
-910.441040 409.419434 277.387878
-727.657898 313.110352 547.842773
-773.939758 220.775620 387.462067
-856.510742 445.768433 418.981537
-894.912109 415.701904 288.155212
-816.277527 360.313660 424.962128
-800.665100 254.511902 386.289307
-784.292969 132.217575 254.414474
-760.016357 367.824158 585.600098
-836.095398 461.566345 515.132141
-931.753296 471.453033 382.157532
-904.623657 444.631958 321.324371
-847.550476 512.482483 487.011688
-822.637451 395.580048 456.191925
-751.020508 286.864471 494.365753
-897.126343 287.983734 178.432632
-891.600708 263.228333 155.193039
-727.968262 333.221863 593.168030
-745.137268 190.448608 383.510956
-739.858582 206.363190 461.634674
-729.103210 273.616028 578.585144
-780.112732 378.354645 562.681396
-908.977234 498.028442 376.019684
-774.916931 83.870171 258.313416
-776.040955 421.535767 576.960022
-876.799255 358.888336 296.599487
-825.007751 434.369507 501.661865
-763.747742 199.817871 415.050171
-866.178650 335.716156 273.779297
-770.009216 192.947571 390.558319
-892.374817 487.431488 344.543243
-739.370911 260.502869 500.905212
-813.058838 405.576782 511.109741
-792.757080 445.124298 550.715881
-846.474304 489.753113 507.038849
-907.027832 401.852783 241.478180
-864.883545 422.709961 410.631226
-771.333679 128.820068 220.801987
-881.981567 461.422638 319.220917
-866.193359 404.807922 343.654297
-869.746094 245.650513 191.830429
-727.904236 314.497192 602.076233
-910.025879 465.806366 327.898590
-849.908630 467.543030 421.918182
-837.170837 475.410339 536.178406
-763.246521 63.255611 255.600418
-881.303101 281.263977 201.768341
-785.382996 197.233749 358.990784
-773.929443 306.432068 468.955261
-717.300537 313.220978 610.095337
-743.244385 140.516754 368.140533
-742.404602 151.159180 381.417297
-906.306519 526.330505 455.420135
-821.874634 246.194427 326.482666
-748.743713 108.312675 324.903473
-801.062317 105.760666 230.103394
-902.122192 414.784149 284.167603
-867.682861 238.512222 207.463318
-758.007874 350.644379 579.533325
-755.614319 206.990387 421.199036
-804.766846 403.683350 494.095459
-881.137939 467.482452 309.330475
-794.710327 273.647522 411.805115
-823.001404 364.502289 419.779419
-894.526001 418.845215 214.839951
-954.837280 533.822693 482.247803
-743.087952 97.636124 324.312286
-887.804626 440.958862 272.483215
-809.969116 220.633148 259.447235
-815.687012 241.376709 308.483978
-747.642273 101.383812 304.511597
-815.901855 131.135971 218.436981
-757.538391 215.173431 363.339478
-809.147095 364.978668 486.452332
-723.593567 302.358734 575.593567
-801.456604 425.895477 558.880493
-771.327820 137.484573 285.137421
-784.915771 416.482758 572.797974
-828.557251 325.987793 360.161987
-846.080872 492.756866 511.033905
-770.644348 76.572525 224.681946
-878.477234 438.504028 223.027023
-761.319702 86.091522 239.415207
-759.603760 226.552399 452.872437
-766.883362 105.859161 272.983429
-854.435730 302.674500 261.486481
-785.947205 422.361481 581.845703
-891.697510 386.929932 191.533310
-751.737610 207.606628 434.399017
-795.859192 335.697144 486.902008
-857.335571 249.014771 212.988037
-821.380005 180.528854 252.088913
-827.228394 200.751953 240.684128
-862.129944 288.190765 270.419983
-808.064636 278.159424 398.615173
-871.953613 334.402588 249.521286
-907.174683 393.394562 228.883362
-748.994202 227.383575 438.601746
-901.617310 278.265015 175.896240
-792.008362 279.126282 434.734161
-850.297058 259.065277 223.263992
-819.970825 175.849869 231.773636
-761.371521 371.049225 594.659851
-791.073181 270.977631 432.441162
-810.886841 248.170517 321.812988
-777.219910 385.553375 570.885803
-755.753479 204.319214 404.540192
-799.241455 375.649261 511.651001
-886.704529 258.533081 146.870071
-861.045166 449.558319 447.625122
-822.699585 427.778534 435.191925
-779.854980 174.711868 307.832275
-793.463257 273.216522 423.345490
-781.328369 268.304230 426.783813
-763.429260 123.042099 266.780945
-764.791260 329.276428 534.497009
-901.566284 423.738312 241.851929
-720.418457 327.574005 566.605347
-885.118469 263.884857 143.624100
-854.694946 181.014938 184.950287
-817.617004 156.307114 197.593765
-769.065674 272.418793 461.061157
-801.025269 287.543732 383.006836
-789.373779 245.127441 377.168762
-875.728638 309.323181 242.866531
-828.801147 364.820099 395.166290
-736.703857 144.176041 377.465454
-830.378784 386.740906 423.995087
-800.805298 387.323914 493.685059
-807.435669 201.706619 287.961823
-770.889954 331.884705 446.149567
-735.631042 275.502991 540.515625
-756.549011 159.813660 362.111969
-864.664673 322.120270 231.103012
-805.700134 393.655701 481.638885
-840.091553 504.498474 489.777344
-872.252136 491.779053 317.587067
-806.408752 210.653824 299.583038
-849.228943 179.109726 178.793747
-726.732483 157.014618 402.852722
-875.375244 397.354309 346.780701
-818.706787 451.812683 512.433228
-871.305176 337.913361 276.362518
-752.244812 161.355774 376.882751
-771.090576 363.903778 561.208374
-773.346680 345.161743 514.776306
-902.861877 330.609283 206.115601
-785.991150 364.677185 540.685669
-768.371582 261.516113 478.321899
-879.816711 495.975067 303.557983
-773.781250 183.989105 346.123444
-875.377197 515.357239 352.568085
-745.766602 324.394745 581.509644
-887.103821 455.459625 262.074402
-854.148132 450.429657 428.310028
-773.523987 301.697784 472.183136
-833.355957 225.635117 232.499207
-814.033325 162.995056 217.330612
-803.754700 375.168030 505.898285
-836.246704 302.218781 323.113647
-830.666321 479.367584 527.246826
-917.441711 369.918793 198.850647
-952.800964 320.373993 176.779434
-858.831177 355.579102 321.717438
-766.769043 99.540047 307.328125
-742.977905 198.502167 464.926636
-939.397522 512.996216 433.558807
-794.532288 430.527924 552.607666
-762.179626 296.572784 501.828796
-799.977478 281.811188 396.160187
-930.209778 477.688782 402.355316
-777.239197 403.234802 520.116028
-876.383911 258.532501 124.662964
-741.007568 181.669403 410.923737
-799.378052 327.374878 451.229523
-839.897888 218.434326 151.578613
-750.172546 89.800262 309.497009
-812.400208 399.247345 504.917145
-733.818054 246.260513 529.300720
-737.884277 84.765152 274.503418
-752.762390 168.873367 406.751312
-812.741089 251.148849 353.227814
-927.972900 377.818573 206.049606
-768.818359 296.156311 477.218903
-857.673889 493.046173 473.687469
-902.468323 405.683502 203.896484
-719.510742 354.369476 621.665894
-906.240051 411.469299 227.651169
-771.740845 111.841614 301.999878
-846.834167 464.413177 498.529297
-795.556580 258.195404 360.671448
-927.851929 538.564148 490.008026
-745.628418 111.648544 336.568298
-831.970154 468.586853 524.805725
-790.032959 178.349762 291.057678
-780.854126 105.789932 271.740021
-882.845154 431.652466 366.597961
-817.345215 220.615372 312.065674
-825.793152 442.966919 516.333923
-750.282166 224.827927 486.321777
-788.605591 205.300369 361.608887
-925.373047 502.794769 417.080688
-905.958740 405.991089 234.827362
-834.383179 184.168365 178.368576
-778.618164 102.050423 277.844849
-798.590027 330.393433 439.925934
-900.433167 465.415588 309.020660
-758.749084 380.347687 601.715332
-864.515686 471.965820 444.805023
-728.612305 312.021698 600.198181
-831.271118 352.937134 408.111053
-748.074951 145.036392 354.083649
-819.792236 299.460388 350.417175
-751.326782 305.402771 551.488586
-799.730042 222.408798 297.090576
-739.782837 258.962189 499.176666
-819.309631 435.571686 535.811584
-827.414856 320.039459 355.658356
-727.961975 321.882538 616.597717
-771.454712 230.875671 431.205109
-841.279114 384.975433 402.379059
-935.901550 481.156738 409.147827
-870.150269 469.795044 291.352905
-744.778442 294.893799 548.748901
-875.981750 238.079071 164.312149
-783.080017 222.157928 394.547974
-723.610046 269.956116 571.328918
-782.887207 264.901581 414.149933
-755.411438 146.418823 319.568024
-842.271057 203.240677 180.889664
-815.324219 444.644958 548.479126
-846.029602 501.459473 497.253723
-878.660950 437.365662 231.980316
-722.494751 310.656250 575.175293
-840.410095 246.564545 208.898529
-793.011536 178.715576 229.631775
-892.456421 380.280701 284.491241
-776.207092 137.017120 288.708527
-826.448853 462.428864 521.800110
-760.946594 45.342709 236.006393
-832.453186 276.412567 268.111267
-883.204895 434.562592 216.205673
-935.100281 303.049042 166.106476
-766.300964 138.137756 278.252106
-828.627075 416.454895 474.049683
-745.060913 326.511810 585.655457
-806.287964 422.683960 543.989380
-865.570496 412.538788 390.369598
-743.722412 198.704163 442.436249
-775.974792 318.948273 507.818390
-865.632690 209.624969 185.444138
-848.560303 216.206802 219.955643
-750.297668 220.705383 446.599030
-754.210693 206.175430 412.500397
-859.469910 382.875854 370.830139
-768.811218 320.277679 530.472900
-752.094360 87.237015 281.802032
-801.813477 398.554626 517.828369
-824.537964 473.161804 537.023621
-770.924622 324.688477 534.650879
-795.687683 280.955505 427.941315
-865.259460 361.808075 296.352692
-814.724487 310.724579 412.436493
-862.217957 278.261139 215.275681
-875.679932 512.530334 470.896820
-847.170532 194.266541 164.869049
-811.707397 167.889160 231.319885
-773.323975 370.357300 563.682373
-836.468140 335.760803 338.655487
-871.986450 423.899139 208.962234
-872.731873 361.334106 313.141144
-861.200867 513.899231 499.555176
-832.444702 170.710754 229.811081
-889.251465 471.375854 300.407257
-759.970764 238.901657 450.991089
-836.561157 266.111633 221.880859
-727.483765 333.329712 626.624756
-779.083191 310.770050 497.242401
-819.136780 279.994751 310.348480
-782.254822 220.345428 363.581207
-850.589111 239.151779 218.639496
-958.109009 501.639008 432.568268
-903.603394 429.399689 349.232513
-869.383789 433.061920 215.545059
-879.108643 371.787170 277.326630
-820.086792 414.007629 513.727112
-858.020447 331.203644 272.683899
-892.138977 471.335754 286.603516
-767.058289 72.267487 218.595047
-800.072083 230.460678 323.668549
-836.342224 162.701996 185.351089
-759.699768 79.889206 259.153900
-839.457092 376.974915 388.636597
-884.358521 460.600250 267.267212
-876.530518 410.951813 371.637695
-801.235291 441.921967 533.703796
-809.660095 298.839233 378.010101
-899.528320 462.199860 380.380798
-778.153687 254.287064 349.067078
-853.864502 229.377014 222.810944
-729.296082 243.125336 502.135773
-762.782959 239.204941 446.024384
-832.620117 163.334503 181.207794
-847.864990 437.204803 464.942902
-782.984436 413.540314 542.612061
-815.857788 404.155273 459.355713
-743.323486 296.489777 553.599060
-860.172180 509.574707 505.770264
-787.521667 401.399414 519.335388
-869.059937 214.535141 160.477539
-743.499207 130.847382 348.014740
-736.891296 175.223816 393.507355
-752.991638 238.653015 483.194641
-866.939575 266.805054 193.010605
-781.131287 207.981705 381.162506
-848.890625 343.486450 343.067993
-815.443542 410.176941 477.680206
-798.793640 187.166275 315.847260
-874.936218 324.388641 239.192459
-881.647949 417.787537 222.071091
-913.662048 488.462891 380.940857
-832.755127 278.358673 291.352844
-775.285706 364.812439 561.840637
-877.098877 364.812561 299.256897
-768.745605 396.205963 595.383850
-770.063904 414.281921 574.663147
-803.996033 113.324905 232.747055
-782.129395 343.081512 491.999756
-918.891846 397.391785 248.233200
-875.243530 427.570129 376.197937
-768.490723 376.213379 500.263519
-785.813416 431.382446 581.813965
-831.673889 286.672150 336.998169
-851.229797 343.822418 316.778015
-901.446960 452.356781 303.515594
-807.008179 183.511536 250.390259
-819.336975 170.868698 211.903152
-824.475464 465.692566 469.400513
-817.604248 419.262512 482.871216
-764.615845 289.611267 489.047821
-779.091675 310.321259 459.550232
-740.147949 200.987091 432.386902
-761.314697 292.019226 489.983032
-779.593628 332.214539 501.216248
-916.137085 398.754211 268.433533
-847.591797 258.190582 230.055420
-764.992798 284.790802 490.316986
-717.636169 322.504333 619.568665
-822.088928 174.820404 209.170044
-828.055298 279.708954 284.747772
-813.491882 159.121857 220.335983
-768.118774 323.545105 502.331329
-844.331726 323.643158 344.396149
-834.005005 410.827393 418.842102
-901.181702 451.448608 301.791595
-804.649048 384.351288 507.690552
-796.522827 451.960175 522.805298
-922.442261 362.003571 216.488953
-815.397278 186.368195 251.869965
-884.435242 402.249176 334.905457
-752.777222 208.056656 433.147461
-811.684814 339.656311 443.728546
-864.289185 423.129852 382.421997
-774.649658 408.492218 596.203186
-825.692017 306.976135 326.956604
-838.308167 448.093079 487.845703
-898.404663 263.063293 158.340607
-753.007446 72.434883 257.518524
-741.867554 206.461639 457.001373
-771.397949 119.099251 267.741028
-920.022583 507.159943 426.443390
-843.221924 202.800400 192.544693
-957.650574 311.404877 170.829132
-866.923462 185.349350 144.691299
-857.205322 475.528503 483.414825
-907.301331 429.090637 256.580292
-907.838623 451.642303 326.052368
-839.855957 293.661255 304.074615
-783.349976 214.323532 350.894623
-806.279724 201.795502 224.041611
-904.809143 412.724274 225.730774
-800.161499 312.892487 446.140930
-744.339417 190.455399 415.433746
-810.132629 264.244049 322.026947
-813.324524 420.835663 480.114716
-909.957336 433.593414 303.186401
-873.314697 464.165741 251.386444
-859.344177 305.856567 287.760132
-841.813538 288.894348 328.348663
-780.767944 370.432587 550.393433
-909.067200 503.407074 432.015808
-781.772644 369.869080 536.179199
-737.908630 267.659698 528.426025
-840.819275 416.485779 454.755829
-744.283875 161.597290 418.563507
-795.718933 428.952820 567.564880
-897.752808 437.447906 253.568069
-777.329163 237.467575 365.890900
-825.978821 237.293152 241.703491
-789.141418 295.831390 439.841919
-751.703247 241.549408 471.472931
-771.677185 199.664200 371.215302
-818.950134 369.491577 453.582611
-857.530701 245.803574 194.466003
-875.257507 466.826904 284.295044
-831.226257 511.146393 517.486389
-869.394165 281.999390 199.575790
-778.539917 163.249573 296.755463
-828.401855 221.333923 238.653687
-780.003601 144.112793 275.979706
-818.916748 252.778427 280.902344
-858.411865 321.843445 308.592651
-794.401794 93.415955 209.519608
-853.167847 237.849182 156.389603
-843.058838 391.931763 404.730011
-784.328613 304.880859 482.423676
-771.801147 241.067902 410.553375
-764.888123 98.404655 268.060699
-749.094604 249.626617 467.787445
-795.439880 251.129669 367.586578
-932.277893 331.084900 209.558395
-760.848083 127.388962 307.883667
-854.354614 386.336060 384.577789
-799.261230 291.549622 393.113312
-771.197632 170.425293 306.336670
-910.042908 504.543304 369.170227
-783.940674 164.577850 289.452972
-915.052795 429.417206 288.457062
-722.437073 322.842194 556.582153
-908.376709 391.082977 199.727676
-761.349792 348.573334 529.146729
-719.923767 329.122589 610.294312
-740.155273 194.166885 448.718018
-805.651245 181.827454 256.149628
-792.267700 416.531494 562.707886
-840.974487 201.096313 210.054459
-883.744446 457.269623 267.353394
-726.866211 288.598969 577.956787
-827.670837 152.000916 163.628876
-820.713379 152.299622 182.076462
-839.545044 243.420242 204.592010
-746.167175 200.041183 380.890594
-793.451233 150.223373 294.730774
-807.071594 406.175537 535.850708
-902.901428 460.414825 310.957275
-754.044678 354.315613 599.807678
-800.190796 370.976440 494.108215
-800.739685 171.617599 257.876526
-845.729614 187.767654 173.909515
-754.366638 122.248108 278.627777
-799.541748 373.270508 498.515686
-865.639709 478.901611 447.380371
-793.406555 268.590485 418.608734
-771.062195 348.479797 535.315735
-873.972778 272.228516 210.515472
-804.157288 454.511505 555.941833
-891.293274 457.461029 323.902130
-765.445007 139.822128 310.178223
-765.522278 291.032562 490.489136
-789.326538 90.961449 232.603973
-803.375000 403.312469 508.086212
-814.736816 417.976624 528.623169
-901.403870 441.834473 302.038452
-830.359863 440.076355 499.008362
-836.386353 166.388824 161.029266
-801.352051 393.024658 512.558472
-808.462646 420.361725 537.391418
-840.357361 456.650024 483.570618
-802.407227 441.215637 566.811890
-756.655457 91.976593 273.620453
-755.797119 85.605568 271.296814
-813.894531 186.581558 235.632172
-778.363037 333.164459 515.796936
-829.532898 130.073410 193.654556
-756.067932 277.295593 485.202026
-811.570923 373.852997 455.711090
-822.508911 417.919067 489.081482
-842.871704 414.103638 440.884491
-740.029236 144.662415 371.623688
-749.048828 299.078033 510.097931
-800.361206 332.885803 439.342590
-762.746033 272.175507 477.906250
-754.825562 365.749420 520.094238
-804.051208 110.176910 194.409775
-879.018738 486.589691 292.471680
-747.905151 275.935120 516.290771
-814.424927 452.360077 537.239075
-804.146484 438.679138 518.542175
-766.653564 368.579315 579.964844
-906.330200 428.101318 307.362854
-781.716736 384.477661 533.062134
-878.794312 356.047180 293.051605
-829.688599 305.409821 361.706909
-875.142273 436.350586 243.470291
-850.273071 307.486359 275.104187
-851.319763 383.755859 368.956238
-789.221680 199.306839 320.669769
-759.639709 333.865784 560.938354
-756.766541 215.759705 418.148682
-755.837280 328.606049 558.917419
-887.901794 290.177948 191.274704
-807.294678 362.571167 460.759949
-759.046265 272.154755 500.396973
-874.376648 340.350830 284.301971
-876.553406 465.833038 248.404922
-786.849609 235.594681 405.376984
-855.977539 198.749283 140.769882
-815.428894 479.618988 516.623413
-742.994141 131.904968 302.735443
-792.572815 294.378693 415.527344
-761.330688 373.262177 598.348816
-766.480408 251.033691 433.015900
-775.667847 77.154678 239.908478
-731.206177 252.540634 490.179535
-794.395264 140.224884 194.090775
-737.642639 251.688660 520.891846
-871.313477 291.362061 256.829346
-833.905457 207.391617 210.785461
-846.690308 326.368378 308.595398
-823.079590 306.472534 392.180908
-822.577942 386.399567 459.910217
-774.186707 40.158390 234.839706
-797.949036 103.522942 232.485794
-814.852112 251.698990 307.208923
-835.474487 175.157166 227.296570
-789.484192 148.372025 254.558136
-749.250977 117.962090 370.839600
-803.118225 244.016785 375.960022
-811.430176 261.668610 285.360870
-767.890137 370.837433 534.764038
-919.136902 353.119690 239.353806
-829.223572 414.807709 458.113495
-864.981995 230.685425 164.809738
-760.705139 144.299988 377.415192
-878.021118 356.662476 264.825500
-784.304871 296.951569 474.313843
-795.640503 119.931618 262.734406
-884.613159 477.711121 363.671844
-884.687439 483.999512 332.767944
-782.287964 320.151764 488.003540
-893.748108 282.006805 187.306473
-859.395386 363.216705 317.961670
-745.616028 203.819733 422.696869
-849.686890 361.331085 341.448425
-842.182251 368.561981 406.479675
-919.091797 460.234589 386.222015
-766.840149 183.827423 353.408173
-776.547363 290.415527 451.817810
-925.038452 542.974548 490.022675
-781.493103 129.369537 251.983200
-728.419312 314.365875 612.163330
-835.658020 502.291351 489.670105
-747.602173 241.799500 474.824829
-792.274719 267.908234 423.039612
-903.329529 486.072845 346.617889
-909.399475 513.840881 398.483612
-779.219238 376.916107 554.051086
-750.786255 82.784264 296.213318
-888.792114 496.151917 326.618317
-788.944580 117.733513 276.356171
-808.883362 345.704681 449.925201
-917.760498 415.816650 277.369873
-770.185913 229.890640 410.840546
-827.815430 264.042664 268.376831
-795.331116 394.990997 530.648071
-903.679932 439.462860 274.283661
-740.192261 222.421951 420.200806
-876.494446 480.226013 273.615570
-876.581421 463.508179 255.659561
-751.988647 265.535645 497.517792
-762.563232 319.040131 521.138306
-726.580017 115.715408 357.425140
-924.325867 372.126282 233.734863
-743.459412 351.710022 598.642029
-849.519409 209.738037 197.406067
-838.836365 481.381866 464.064728
-859.809448 488.535767 484.522339
-781.183655 240.386810 420.119934
-771.942200 107.996597 220.728424
-821.919312 184.822647 217.502029
-843.279541 454.537354 440.382568
-903.195679 430.467468 285.222565
-826.759338 291.547852 312.613037
-864.101624 278.491272 243.760193
-783.944336 128.838211 258.798401
-758.041504 195.810333 421.415283
-885.079834 426.847229 370.333038
-816.816345 220.066803 302.788910
-896.304749 351.024231 238.365570
-887.500061 473.357178 293.609833
-760.242065 97.655937 281.587433
-789.999390 409.781769 563.381104
-931.843140 289.837738 154.075943
-894.488281 433.198730 252.357330
-726.680420 348.782104 621.917847
-853.867615 407.776642 378.342590
-826.821289 323.620422 315.446167
-821.914612 129.468948 207.476303
-851.142212 296.397552 242.774567
-863.680420 480.293243 277.055511
-859.499268 403.264191 389.812683
-771.000427 97.403831 289.581085
-794.820435 264.862854 369.462128
-856.717468 513.611511 519.653625
-929.804016 539.497131 487.339996
-935.908813 497.593414 387.335480
-755.474792 361.992126 574.562317
-766.825378 362.851044 547.874512
-866.155945 472.499023 409.417023
-819.446411 271.058167 318.185303
-844.111816 222.618759 249.560577
-789.626465 120.489342 190.587479
-799.393677 281.200439 379.951813
-928.018127 499.202911 401.455566
-867.656799 325.166260 268.027130
-769.946411 355.045410 548.076965
-832.783569 414.071106 483.944397
-821.174133 388.646271 431.983521
-890.465881 478.670013 291.176910
-773.396545 424.202332 571.569580
-810.139526 447.970947 513.975708
-902.234680 491.731506 342.701447
-862.522888 248.243332 184.022232
-782.706360 79.702888 219.225159
-911.844604 390.115204 192.959244
-774.963806 87.877655 235.714737
-797.353516 228.821198 366.487030
-785.401428 131.924393 245.467346
-911.912598 416.324890 268.713409
-920.965759 253.335526 109.548798
-790.626343 282.741974 406.957397
-813.330933 371.954407 449.766632
-831.163879 163.687622 225.922531
-848.461853 454.695374 469.993500
-862.598328 268.077026 253.995331
-784.838806 290.439301 451.250610
-780.605957 273.569366 378.042023
-806.937622 237.662628 359.491272
-899.408752 454.259064 277.229584
-723.433167 276.359589 573.296692
-786.303772 98.333260 221.540283
-750.775635 380.122437 611.761414
-796.942383 344.138062 480.542206
-773.249146 119.346550 306.601074
-794.043762 399.420288 477.086914
-723.668945 328.217377 616.416199
-873.299255 231.819366 186.235764
-886.827271 254.712860 122.615677
-822.058655 151.597076 179.667923
-807.479614 135.489105 234.042908
-799.757141 153.712799 277.493591
-912.113159 414.039673 284.537079
-846.360840 371.505951 368.810883
-761.613831 167.955109 355.123993
-762.791992 281.747559 508.487396
-740.080933 197.580582 444.295349
-798.952332 244.623932 348.172241
-860.454590 352.441071 312.342773
-879.676147 335.075134 266.983124
-784.283630 332.602234 463.384094
-816.692749 159.815781 213.869324
-808.962585 426.340027 495.031555
-806.947388 259.020752 372.654907
-899.008240 410.192444 262.124817
-791.897705 165.787613 269.575745
-819.846008 281.083923 365.436462
-888.249634 465.105438 304.913788
-895.878662 444.772736 250.335342
-862.902893 352.889099 304.720245
-750.329285 377.013184 585.898499
-819.975891 256.706024 255.741837
-765.765869 77.431152 287.206848
-772.749390 243.688492 448.990753
-734.081116 251.249329 532.368347
-752.805542 258.914581 483.455872
-867.798218 267.509674 182.929733
-854.369507 391.440613 390.483429
-754.423889 268.276276 478.554108
-859.196411 462.574188 439.938202
-874.466919 296.105743 254.357559
-785.794800 331.997192 472.902130
-793.780701 380.235809 529.956421
-751.442383 244.218399 444.778320
-814.610779 250.746323 285.272278
-846.269592 409.588806 433.597443
-753.619873 381.375336 591.460632
-765.961487 346.190765 533.929382
-784.614319 353.552490 510.334381
-779.280640 256.014893 417.358429
-832.696838 455.870880 504.160126
-805.188965 171.907074 244.632614
-853.706787 270.530518 241.771133
-878.500610 419.809052 217.615662
-910.345520 483.110138 335.006042
-858.905334 407.189331 375.576813
-783.403076 255.074707 352.768951
-739.423889 277.159760 494.129364
-862.207214 504.760834 495.174988
-748.783447 344.717194 570.230042
-887.751770 471.130585 408.914581
-766.524902 80.828537 247.066452
-818.708191 388.248169 463.824707
-850.009094 441.680206 395.802277
-812.177490 322.204742 385.072113
-807.653015 443.022430 551.511536
-844.241028 167.924225 179.291229
-759.932434 381.468109 603.147461
-834.061890 214.048325 224.662888
-774.753479 249.694153 402.310883
-889.076294 435.762024 229.836990
-821.185486 295.920135 373.611603
-796.042236 305.702362 423.139374
-730.562256 378.181488 627.128601
-816.890503 250.006134 342.081177
-785.280334 127.391350 265.236267
-713.793457 293.130615 561.853760
-742.955078 319.843781 566.720581
-782.166870 167.636993 243.543869
-859.184509 402.905670 372.408295
-800.488892 311.802338 421.170441
-890.590759 387.628296 319.525055
-790.258240 180.748703 329.069763
-899.340759 461.363739 336.644012
-812.282898 136.799255 228.286896
-905.390869 393.716339 207.289246
-761.727661 381.934875 615.563171
-739.372131 267.265839 520.930481
-738.694214 353.194946 605.880432
-798.038147 189.636353 320.712921
-784.603149 243.836960 355.586853
-779.771362 368.554657 537.777161
-891.133850 432.819611 354.353821
-911.191406 410.609650 233.870956
-779.906616 188.033463 332.007446
-864.346619 449.226868 243.990799
-907.634094 446.492249 328.475098
-901.148804 465.904785 342.324249
-802.810425 205.069153 274.144989
-925.636719 513.114868 432.601898
-748.669189 326.230133 550.963135
-772.491150 326.626099 523.371033
-851.745850 439.023773 395.509491
-754.160156 265.648438 466.955841
-798.806213 283.541931 401.685455
-822.175598 343.143585 393.151001
-854.010010 333.837311 320.345734
-792.687683 328.669983 464.598541
-922.214172 506.787903 393.146118
-792.475159 146.656433 289.057343
-781.721069 182.588806 330.671936
-861.348694 461.222778 247.896835
-772.334778 145.214630 310.130890
-855.969604 444.091370 450.741241
-849.725281 409.621490 420.470032
-856.602417 376.239105 345.714447
-889.395569 511.409973 478.088440
-836.379272 238.110519 220.454315
-894.874512 331.337219 226.673462
-803.241638 163.961685 261.681152
-846.821777 246.227905 203.656998
-766.218018 152.075729 356.938171
-855.344116 384.858490 381.957581
-933.875000 372.527008 243.734741
-767.984314 239.949509 421.093811
-764.469666 170.421005 382.240875
-820.472656 362.785828 417.571564
-745.848694 381.274048 578.289307
-730.794128 241.765656 497.968903
-875.509583 446.459686 230.608627
-728.318787 269.709290 570.096313
-752.488770 311.196838 550.845032
-856.893066 330.574402 298.158508
-884.607544 407.462097 195.429535
-927.011780 367.268616 192.592209
-797.042542 409.180542 544.112976
-751.677246 50.552845 261.108948
-906.830994 466.728119 350.216278
-871.247620 268.056976 213.505524
-854.606934 273.762573 203.062241
-818.772583 309.813507 376.884430
-875.522217 351.532440 294.685028
-744.181458 334.821899 600.821228
-923.298035 383.230499 238.959015
-840.145813 257.826996 282.620056
-918.121643 494.779633 373.132385
-782.034363 106.068901 238.468430
-835.729370 227.765686 173.950516
-861.076050 514.578247 336.850800
-788.664917 330.223297 493.276642
-842.993225 325.368774 352.320923
-738.771912 219.549896 427.004700
-775.561829 402.506653 587.750977
-915.921753 487.658234 425.022186
-739.244995 293.177490 524.005981
-851.473145 190.601547 181.238144
-910.217102 503.854340 351.034332
-874.237244 310.671722 239.003693
-853.095764 411.933533 427.255402
-840.061768 399.046570 418.658051
-878.571411 490.787292 287.148865
-807.308411 357.729462 442.919128
-802.115479 249.283676 377.681610
-810.316589 254.354416 301.574280
-917.108337 381.650360 197.095413
-778.518127 247.478287 433.880005
-777.160034 262.006958 427.138031
-758.405273 297.798584 503.663086
-810.728027 263.123901 329.286621
-903.767944 478.975555 420.139099
-774.698425 358.830475 551.165161
-734.351135 283.176544 549.790771
-826.896851 186.624161 207.230881
-762.835693 364.107910 575.444458
-825.794922 200.465637 220.058914
-769.010559 355.537384 489.835327
-792.814087 412.156708 538.082520
-749.641724 105.336014 345.072571
-777.115417 158.706161 303.318359
-733.406616 353.304810 557.139343
-786.703918 132.920868 286.668457
-806.104065 384.284485 489.254608
-847.055359 211.262848 184.005295
-916.834900 537.601135 470.833252
-800.697510 410.953064 519.865417
-808.634094 120.822411 205.458878
-828.419189 239.809784 261.618408
-775.677063 251.173325 407.221985
-734.523071 226.327225 472.962738
-903.109741 432.576141 228.136856
-750.238831 85.900620 301.908417
-831.828796 482.103638 549.130127
-934.661194 521.107849 453.304291
-861.198120 274.308990 246.651169
-741.420044 157.635834 398.620758
-871.602539 495.997253 294.149231
-865.907898 359.896240 290.859924
-904.789612 436.405823 244.951279
-887.873169 496.125092 442.796753
-842.886475 235.711517 199.878342
-730.719299 152.626083 363.094299
-820.614197 474.416168 572.481323
-857.049561 475.476746 275.603363
-756.167297 223.092590 418.824310
-859.412598 486.063416 295.626038
-916.103394 403.573334 261.228302
-725.654663 271.069580 550.484558
-956.184143 493.529846 424.188538
-864.812683 283.392609 217.428558
-844.439880 284.668335 301.572418
-797.444824 396.423645 502.872467
-751.364441 287.842621 519.027832
-822.637878 388.908234 441.709106
-852.962402 407.314209 365.082275
-812.813904 136.960251 223.939453
-868.969299 323.004974 246.024857
-855.873962 224.217850 212.223358
-842.689026 354.204651 364.783783
-852.906555 303.645782 301.598175
-777.776428 416.303680 556.460571
-792.827087 249.125443 348.245911
-904.496216 473.602814 324.638702
-804.372864 313.672668 410.775299
-888.298462 500.422699 321.787872
-941.695862 506.056061 416.621796
-893.467712 401.888489 299.484985
-855.976501 205.971207 165.663651
-808.289185 229.108673 274.780060
-842.304810 488.594635 523.862732
-915.798645 454.151794 305.589661
-932.347290 494.269806 382.098633
-786.115173 352.187256 491.187195
-860.851379 500.448212 309.681183
-753.063721 89.601768 246.706619
-766.200684 126.993408 264.407654
-803.733032 216.946365 252.179626
-752.628235 344.211121 573.681274
-900.921570 279.663239 136.066864
-881.683594 431.411011 249.780426
-830.521179 226.614700 289.687195
-908.251465 429.720886 281.971741
-817.707458 313.432922 389.217926
-912.273987 506.737213 424.878632
-742.236633 305.200409 577.939819
-903.843811 379.813873 274.658630
-745.993042 226.733444 462.208374
-752.647705 178.851425 306.759369
-811.875732 272.414093 378.766876
-918.987976 291.984375 158.711761
-762.418274 338.282532 551.422546
-760.334229 306.968994 530.320984
-865.294067 305.050659 271.607513
-803.046265 177.716721 256.922729
-805.201477 228.600418 306.764587
-835.334717 454.526093 466.031830
