ply
format ascii 1.0
element vertex 1456
property float x
property float y
property float z
end_header
-94.112968 104.140640 976.772583
-60.977764 221.196411 1023.859802
72.646873 291.265320 1009.443970
158.684982 193.814194 907.512024
-109.450981 260.193512 1120.122925
121.284630 76.073349 867.196045
-166.289108 120.106148 1017.579041
-64.585793 65.558395 945.802124
-137.433456 -95.312798 895.824036
-131.110046 198.853149 1073.211792
160.558044 210.945572 911.902344
0.800666 117.149429 938.166321
1.245287 106.656776 927.278442
53.438213 236.170090 979.034607
-4.529916 276.421478 1022.969971
-9.835299 94.345779 944.775818
93.566833 307.533478 998.890442
-118.173744 -114.780510 859.464600
-99.411758 -105.331169 847.661499
5.843729 42.478382 890.033691
-21.353148 139.492615 961.243896
-113.745338 33.039734 932.880798
-69.644104 -102.153419 854.032410
-113.795303 135.006317 1000.635132
119.636414 123.241585 902.210876
29.456240 100.673691 931.509644
-60.302200 -31.579477 882.946289
-202.372299 47.035900 1006.879761
-16.445017 333.784668 1068.473267
35.392899 192.291824 943.412720
-141.179474 38.221802 954.557068
-201.459763 22.822941 996.530640
-14.119574 20.530706 896.279968
78.268356 202.413925 949.156189
-111.972679 -5.742382 922.968872
0.380738 6.915355 876.466858
-219.223511 91.485886 993.637756
143.176331 255.922043 951.116089
12.843563 236.593613 1013.841858
-87.640991 64.174324 955.427246
16.774122 -111.961151 783.021240
50.434624 264.171661 997.173096
14.094756 281.525146 997.458252
112.977699 77.048340 867.487183
-178.725067 94.907364 1013.857361
124.001320 155.253174 907.415955
38.941410 59.191833 901.141418
-57.803356 33.409290 935.136353
-108.581375 -50.307541 892.482300
-109.425438 -46.490234 903.284790
-67.852806 148.595154 980.596497
-190.738235 25.702417 974.485229
5.549222 311.486450 1039.746826
121.932999 99.794319 863.285583
16.877483 70.737511 896.865601
106.690895 100.906464 881.233398
94.109779 73.681854 870.981628
-173.807709 167.404724 1010.406494
-110.804001 -115.982811 871.070435
79.953270 264.350922 973.656799
152.193710 316.896454 985.243408
-74.438545 -23.479988 910.018066
64.353539 200.047928 934.964111
-94.386887 -12.788923 912.234558
172.726990 225.808472 926.864075
-111.091759 170.467484 1025.916504
-140.757614 -59.049511 887.922974
-52.380184 316.917145 1082.455200
-29.603287 -73.780586 854.757813
-141.067322 193.803528 1060.067505
-38.992657 -56.304390 867.399292
44.096928 -71.021011 802.888733
-151.916153 -59.558567 893.552124
28.279533 108.509468 932.946594
65.530403 44.694786 888.373901
-216.850754 -109.235252 963.276794
7.451862 85.639236 933.378052
63.690968 97.806915 916.210754
64.966911 201.067673 961.908752
68.377548 127.512993 919.774963
121.964134 241.764328 955.796509
-66.776436 204.919296 1029.082031
160.342117 290.082001 944.817322
-26.159660 215.346344 1016.463867
-8.111352 -119.354034 821.069641
-147.160904 54.668530 1001.934937
88.255386 -55.284206 812.020508
55.678860 146.127075 925.904053
-75.526878 45.382168 926.211243
-133.855789 -35.452805 933.658936
136.315338 178.496063 903.052368
-3.672940 132.831833 961.941223
-100.987976 163.563156 1012.479980
61.117962 187.068588 950.339722
-20.192953 -46.891605 858.248596
140.639069 201.826675 916.132629
49.892315 -58.891335 828.588196
133.001022 191.674164 933.118896
61.916222 98.153656 910.860657
157.387497 260.928467 940.376953
-160.187515 16.983383 954.998169
-73.120956 -87.775101 879.236877
74.015877 309.294800 1020.589966
21.288597 329.727081 1059.276001
-117.490730 -87.203812 879.063782
63.420807 -71.181580 803.955261
-57.111137 141.562149 983.040649
53.754250 -22.637363 853.594666
-212.675262 67.276398 984.555115
-57.163261 117.807953 974.642944
177.519791 306.406555 946.306885
27.404106 -84.461136 821.290649
-32.847309 254.748627 1039.069824
-174.473282 153.524567 1015.438843
-224.824356 95.502579 982.000671
92.481041 241.601242 970.057678
-52.230968 212.278030 1016.337708
-17.582773 20.215034 908.786804
122.739540 130.800125 895.460449
61.751392 158.803024 933.614990
25.140453 188.920776 970.920898
-123.218285 252.414322 1093.612915
-142.699234 2.229239 934.738708
-52.809406 -111.460358 853.004333
18.393776 -120.774765 820.700439
-140.789444 225.318359 1065.706177
68.141525 290.460815 974.414917
-56.743935 282.607513 1061.622314
-3.523121 196.338486 985.906067
32.198101 -14.018118 851.521057
9.707944 258.704254 1029.074341
-179.690048 -78.778908 889.094727
55.484261 107.522163 924.943909
-185.779724 162.876740 997.151245
-189.328049 52.939911 998.142700
-186.355362 69.158951 1015.464478
90.791611 83.106972 866.414185
-56.128307 -37.376896 868.638611
73.797379 107.378204 893.119019
-102.273048 60.776062 949.868835
115.284538 269.507111 969.907166
86.382858 150.383621 914.475464
45.983856 210.058823 981.335083
-154.947418 211.213303 1059.298828
-93.227417 64.095390 968.856995
-158.284088 47.804710 984.848633
115.272682 98.003151 878.322388
-137.281433 177.174118 1054.340698
-15.112181 -109.174370 804.100098
-202.761078 10.318611 1007.353210
-0.334782 22.325649 902.363098
-84.294586 0.228846 926.392029
69.732605 -52.704369 809.595947
96.685883 -26.711599 787.697083
4.047811 -63.798977 858.370483
-39.014252 45.873867 921.506226
58.680599 324.186310 1027.252686
89.779625 298.403412 1004.286987
-78.037773 -9.991406 906.609314
-82.550842 22.963696 935.996887
-107.200890 272.285065 1092.472168
-77.689400 67.516045 941.295593
6.347386 136.958527 952.960876
74.491364 122.967354 890.525696
148.060089 298.855682 974.985596
123.544388 205.400085 928.160095
123.160126 267.010376 956.788269
28.955383 135.709747 936.582153
122.909340 250.767456 960.966858
-93.448311 -24.083540 901.453796
84.889183 66.459000 872.938660
-67.507507 199.013763 1026.981567
123.501915 136.162964 891.407959
-11.916401 199.224945 991.288269
30.878887 -41.499969 848.828125
-212.614914 36.974812 981.649658
-45.072369 57.403469 924.864075
-148.012589 15.635410 934.400452
-95.599350 50.281864 937.316406
28.051882 116.827660 929.179871
-114.543495 -52.545780 901.336670
5.377593 -25.695286 877.131897
-90.270897 108.262093 972.849976
184.797119 256.005127 929.742981
95.526505 221.711060 959.359070
-197.333649 -84.236465 941.988098
-174.159607 95.783783 1001.591553
-106.536865 227.725311 1096.987305
83.985558 85.546692 881.793396
107.848328 208.218735 932.991821
82.907646 176.810211 914.737183
7.389856 224.265457 998.456848
134.454239 287.562408 954.552002
-172.561478 -21.204678 937.719910
15.811922 -151.155563 806.862244
-8.987439 -54.464794 864.190002
-136.325577 197.247803 1072.666382
77.040085 -32.449608 822.086487
-62.689552 147.603378 978.396790
-114.430710 81.124992 974.495178
-1.166432 239.689484 1017.577271
60.615059 81.778908 896.863037
-224.461929 105.218842 978.729248
-17.799395 -33.313633 862.891663
60.924507 233.359863 948.697815
-50.345123 286.319855 1055.675049
110.230873 297.247345 985.904236
-50.030632 54.059677 928.141968
86.263618 15.481733 847.501587
50.005871 242.111084 983.698059
62.060917 125.399849 932.760254
-70.886093 135.806473 981.398438
166.437866 302.832672 962.095947
31.403387 211.936020 979.959045
95.140022 137.557373 880.364990
-193.553284 -4.362817 1006.870300
-155.270142 187.406723 1031.906982
27.345510 97.793846 919.412720
76.197632 282.153168 1004.849609
119.861366 80.801300 870.092651
-135.762009 -79.056412 875.643921
193.206680 269.865570 944.432373
-59.565720 -34.532578 875.076111
85.398865 194.461456 956.590271
-101.790634 -7.970373 918.895386
-101.234070 63.432961 967.011353
132.436829 189.063507 913.815491
83.861160 100.077415 896.820251
-56.453499 -47.283737 871.435059
-142.087601 103.733681 994.460449
-130.037567 -28.817856 927.408813
188.913605 256.442657 940.675659
48.802868 321.751129 1040.931763
-189.494522 107.792831 1004.726074
23.618410 159.684006 954.721741
28.281069 135.486008 916.951599
100.984474 297.928436 1001.683228
71.038895 237.218750 985.883789
79.751274 277.881653 989.252258
77.507072 190.248993 949.448914
2.918756 135.015945 949.500183
95.554634 206.335526 958.433655
-201.902222 117.484177 994.183594
-139.036453 225.865997 1091.053711
-140.265457 135.897964 1011.320923
-163.677490 155.296127 1030.817627
-34.813198 270.964935 1025.736084
111.752571 108.172363 881.475891
-125.901222 20.690596 951.465332
61.613350 254.859589 995.047546
45.171661 -131.558090 786.851318
-162.412659 218.895432 1031.728149
79.031868 95.593193 888.448303
-185.030472 122.306831 996.762268
47.055523 -111.335892 810.342651
140.910446 311.465576 982.620239
32.772385 214.711441 978.401184
-22.523863 297.420380 1053.816895
-87.657990 266.348419 1055.463257
56.041836 -128.747406 783.459778
-113.125511 -77.214340 884.935364
179.096634 272.737640 935.944580
-96.091629 -67.927155 887.737000
-89.432129 -113.409264 866.956543
131.957916 90.261002 869.705811
52.874771 -123.521027 784.844543
16.329115 202.579102 973.268921
-105.349289 9.316590 923.856140
8.278392 107.775009 946.087097
-93.519356 259.185608 1100.386108
-43.796062 168.968933 988.143127
70.177132 298.776489 1006.721619
2.129620 -29.084457 856.421631
91.363113 123.887863 915.083191
-18.949308 299.235809 1053.930786
14.015173 9.542462 888.878784
156.345139 283.561005 958.851746
172.530441 276.115601 929.807373
-207.206955 -107.710197 930.094055
139.896927 127.374924 884.713806
-122.394516 144.510422 1037.439087
-183.489319 -113.893967 907.775635
-10.659373 -3.952597 895.351563
87.444031 108.003159 891.119263
-92.047081 133.816284 992.146606
77.216171 65.895325 862.658264
30.879385 160.247314 950.720947
129.307053 249.991608 959.591431
45.174171 -46.404064 843.399719
-196.177139 -105.075356 894.099182
-177.041367 171.213486 1027.980591
-138.995560 153.524017 1030.221558
-114.726715 191.169525 1044.722534
-74.925072 -7.198892 905.663940
118.677940 262.095276 956.472168
161.640350 279.103027 939.199951
-106.214355 193.929611 1051.805298
-145.201141 203.028244 1048.672607
44.156414 0.750019 871.162842
-86.663513 194.356552 1026.586304
30.190220 -13.779634 853.541382
-127.790726 187.466232 1063.034302
131.168457 211.782288 930.863831
-55.039074 307.663300 1049.515015
-94.924339 -8.354620 925.527893
10.236793 228.317261 999.856750
-3.169378 171.012177 972.269836
80.835945 19.693686 863.701294
112.803772 291.762512 971.249756
-57.725273 258.046967 1039.329712
-97.218658 -27.428127 901.301575
79.991837 147.187729 934.590454
-32.240112 -60.611687 854.936584
33.263691 -125.811607 792.524475
-155.667160 100.831848 1024.489990
-76.331474 219.884308 1030.875610
4.489542 291.552795 1038.214600
-183.583008 -71.501884 943.124573
168.359528 246.308853 927.427490
-28.150164 9.881643 891.158875
-77.682091 79.816010 935.180115
-109.497658 209.672379 1100.869019
-102.406403 116.114090 998.867371
-97.594246 68.869614 962.182007
85.485558 5.590697 854.675354
135.988464 214.255615 932.646484
-181.182770 -14.695384 978.077942
-37.358273 69.316429 933.782959
-34.956516 7.574861 907.023621
-44.713749 -133.636948 828.307007
-123.402855 102.418335 997.501892
-205.496658 102.160469 1003.261963
120.784225 185.450714 933.253967
-199.741562 106.594757 982.234741
-19.615295 185.199432 987.211670
-37.693935 275.208862 1045.975952
-42.209194 -125.023216 838.960876
36.560558 267.221100 1016.361389
1.850961 -5.025193 874.354736
-191.906876 198.124481 1000.956970
-56.259514 -0.850268 898.427795
108.319908 238.145370 965.481323
-223.297699 104.476563 952.456665
-77.502670 24.295691 935.301270
-87.355347 -89.359070 878.276428
-45.622471 254.508896 1050.272339
-73.003448 94.953781 971.559998
133.986954 94.364662 871.297424
11.068327 98.637619 930.365051
-37.549068 175.660538 989.160339
-193.032761 159.719833 1007.188110
90.437256 197.096725 953.739685
63.889332 -57.814369 815.955383
29.239033 -99.821030 820.406799
71.150475 174.979599 911.841370
88.028038 76.212029 857.427795
-89.820328 -50.419750 877.582153
5.908225 106.055878 937.118652
-168.510147 102.597763 1026.726074
-35.551804 273.965210 1048.444458
67.723610 214.499313 961.568665
8.775380 329.597015 1040.285156
17.667147 207.346710 974.970093
-125.187622 137.887634 1036.282349
30.768736 56.618019 908.367493
-156.759964 -95.316521 887.585754
47.646774 -24.429995 850.245361
183.962967 224.358826 925.823486
-177.744431 102.619141 1001.597656
-176.717392 -82.730232 907.896301
24.527891 197.551437 982.553467
-17.891281 295.081268 1023.058838
-192.015915 178.699921 1011.479919
116.928925 189.836670 931.187073
-35.124222 -24.584230 895.522583
-79.057236 16.185398 937.550537
-15.134996 91.134537 929.130249
-147.828339 -82.796295 911.681030
22.451029 106.237610 925.572693
-117.638847 -1.697219 942.028931
-24.123936 -82.399689 821.216492
26.636251 -131.257004 787.100098
2.309714 286.093445 1036.795166
-15.075783 130.506241 955.001160
-56.788097 225.016006 1039.018921
-195.295410 -78.700493 917.833923
-198.306610 99.828827 1006.811340
105.184547 244.013016 969.720581
-15.948376 -141.500412 824.681213
-157.967606 78.018517 1025.919922
165.384521 291.874847 969.559814
57.508888 -39.653305 835.819458
-81.123055 100.366463 979.340027
-85.153969 -122.028908 848.735229
51.204037 299.750275 1018.863281
194.234268 290.803619 959.548401
-57.415165 108.350540 961.311584
111.840729 96.588150 895.366272
-54.771397 299.588684 1060.539551
-81.859177 61.141747 957.586792
-160.519241 142.599991 1024.705078
-5.875103 245.131256 1029.192505
26.839540 229.261658 1004.469971
101.878052 209.519714 957.136475
-65.256096 220.249069 1030.311401
48.934921 -27.369503 856.936829
28.281370 -6.164944 856.505554
-192.256653 199.215790 996.276123
-137.840836 43.777370 967.498901
87.063080 84.867157 890.526001
-19.041468 98.039558 941.875061
-34.633533 -117.346802 819.590515
-152.225922 118.426956 1048.525879
3.317092 -48.297550 830.397888
100.084068 138.941559 899.728821
-50.164341 165.579422 992.975403
65.786041 279.423737 1008.928406
24.149977 264.917175 1014.811707
15.444358 299.705688 1042.706909
-193.416321 91.381775 992.147278
-108.212532 -97.337379 888.940857
51.395771 235.497910 972.768616
-9.489830 79.537437 922.507690
-157.727005 235.715652 1043.319580
83.137321 207.693573 961.540649
-30.620485 330.264160 1087.589478
50.852352 262.652710 993.806641
-129.487198 241.179428 1104.666138
-61.062851 112.228065 976.015137
152.948029 272.219116 958.720642
135.667038 193.891678 932.717590
102.274788 226.428329 963.744263
78.982468 191.303848 957.626892
76.845985 120.657875 910.066711
4.560049 311.011505 1054.148193
45.082466 70.398514 907.735840
-26.366238 34.728748 888.265015
-146.622482 212.315140 1065.161255
-205.398834 154.301605 999.485657
38.195011 192.269073 975.203430
0.082474 -24.236141 875.742737
35.045258 -129.635208 789.770386
-128.737579 65.696808 987.310120
-17.582136 264.565582 1034.864502
18.973331 131.476669 918.847595
9.338351 309.407104 1051.525757
38.614300 87.943329 902.805542
93.696205 86.157135 883.708984
2.815477 11.310711 872.272766
56.607231 215.710693 963.907898
-82.360298 -120.614716 859.701294
104.238754 229.863602 965.205505
-134.944458 -1.328907 930.312195
24.984612 43.200352 904.007690
-218.051987 78.478363 988.277466
-134.088638 199.791901 1051.265381
27.487389 -13.862163 844.082397
-83.600014 143.897491 987.385437
-82.058327 -95.618805 877.340637
-122.164246 156.746490 1038.999023
37.953743 188.297684 955.843262
-0.904778 91.095169 928.613953
-51.572536 312.831451 1048.391235
23.163986 263.423187 1018.556763
83.378548 66.508186 870.870422
-57.299732 228.667587 1014.073792
85.229942 26.689594 864.748718
36.460709 -23.711828 841.147034
-126.919754 -43.777664 917.892395
139.404205 253.025589 958.485718
-77.421524 60.119686 944.307068
-8.751573 209.102997 995.981384
80.990837 309.393707 996.772827
-153.476517 204.096420 1067.515747
-47.401299 -19.215668 884.159607
34.928627 287.059937 1027.035645
40.724400 -90.611588 826.086609
-103.053696 -102.573624 878.811096
-41.514896 312.574951 1070.941040
85.551491 303.532379 1007.608215
-115.235657 46.423790 948.707214
4.741790 193.322281 980.700928
-210.347595 121.582443 992.644775
6.252262 -109.926361 822.621155
-31.633581 68.697746 941.494019
52.368893 182.341003 924.334961
-13.790074 132.107773 933.740662
-106.813812 12.573241 930.391174
36.812473 -63.139080 826.476563
-101.378372 275.897461 1117.570801
49.830612 279.093597 1016.395325
103.389580 258.607025 949.950378
21.286423 13.486570 887.691589
47.075787 255.067139 975.019409
22.351196 327.480255 1054.344360
-130.651932 -52.001961 900.418335
-199.517349 -30.678123 1000.984253
22.127651 -107.279587 804.107544
-17.925926 245.051224 998.044861
-171.269257 143.626419 1040.591797
-54.273941 56.747913 935.530090
-182.314651 37.138107 998.956055
32.786015 -6.745100 853.652405
88.152885 -73.149452 811.249451
-22.598621 82.776299 928.019958
89.900681 334.224518 1004.203369
-34.651012 148.621170 972.581787
42.282253 131.928253 928.606262
41.907875 125.245323 898.471191
-22.266008 86.871193 932.193542
-199.703995 162.011749 1009.383728
-77.364777 218.344406 1014.617432
187.913513 242.676453 935.335693
-67.996147 -80.512512 857.456970
147.492752 253.233231 947.880859
-143.579849 225.598511 1090.628418
111.635796 186.884354 912.870056
-130.491959 -31.231007 912.629211
137.600296 293.281769 982.882507
-153.214767 208.168549 1056.171509
-31.909359 19.230579 916.178711
-146.107864 -32.924187 907.513428
-218.033829 100.846352 963.059875
-49.293224 104.615028 955.383728
121.452927 291.612610 978.915649
127.270561 119.995834 894.857239
69.659966 199.224152 968.092468
21.431101 299.106049 1038.020264
-9.301490 -9.743750 871.794250
91.904488 331.118042 1022.613220
126.590157 257.521545 939.293701
75.001984 276.700134 1003.029236
-9.051507 -39.713230 845.304321
-208.522095 -82.660355 980.046082
-12.251928 -117.328651 823.892151
-75.085304 -64.542892 879.756714
30.543104 321.049988 1037.920776
-140.418747 -19.359837 906.502197
-222.289871 109.640358 976.873413
39.235737 -80.900459 810.802246
-60.250832 284.106964 1058.640991
-55.627304 167.210526 1002.295532
-37.135864 212.632004 1016.640686
55.130554 20.929750 864.477051
122.712639 316.639862 1000.297485
-32.960190 224.094727 991.807434
0.468501 -70.601906 854.945251
51.066566 -27.323895 839.847229
-57.651630 72.177078 944.579773
55.549217 312.668793 1002.928040
16.250130 17.717421 877.410950
-179.484726 -72.932144 913.215332
103.760445 66.343002 862.146240
11.204164 310.733063 1052.145508
-35.562065 318.586639 1068.434814
27.611015 180.158813 973.074219
-67.585800 211.510605 1014.675720
72.622513 38.721741 881.948486
107.648384 103.348686 872.173035
109.266029 195.640045 941.207397
22.204655 130.006332 939.747009
150.648438 236.054703 927.664307
-95.776619 -79.864151 873.341003
126.326836 263.802490 966.904724
54.038635 280.916901 994.632263
-56.116734 132.093918 972.353088
49.030727 52.960056 878.059448
53.554901 181.630463 955.134583
-165.439850 204.345596 1036.962646
-149.823776 221.989594 1077.958374
-197.159836 -7.163346 1010.352539
-168.729385 176.496292 1032.562500
107.754242 214.250900 953.956543
-26.631359 -42.536587 852.140015
-107.044853 156.073914 1017.697754
-22.542234 21.066832 911.485840
-54.531063 120.580894 970.113464
-109.803322 222.602203 1129.141357
-25.724968 283.768066 1048.727783
51.441292 -15.847357 843.972534
-85.524315 47.808002 931.755676
-127.112541 77.703438 986.349243
-155.751663 64.001144 1002.267700
15.177527 -24.081850 851.470398
-139.154846 20.871582 937.131348
-211.788010 26.450563 976.171204
-40.421833 -40.679901 863.561951
-60.264164 -86.053543 850.337891
-73.361336 -47.677494 872.862610
118.118271 210.908432 928.903503
127.412476 47.497215 859.716980
-34.611252 152.235275 977.922852
-9.858676 98.990288 937.196838
21.792097 -70.235413 831.171448
15.882946 -12.924261 879.081848
17.164925 300.593079 1022.235779
65.972763 217.051315 943.569519
-100.788437 -77.947777 886.349304
74.117287 187.707001 927.941223
-17.148619 -100.325478 842.090759
14.337411 176.473602 964.275635
72.507011 242.827225 984.910156
-168.215042 215.902771 1024.673462
-124.464050 -84.152840 903.307861
63.291756 254.387360 965.078125
57.481461 306.130859 1025.317749
50.403168 41.983406 889.321411
-220.399002 84.373451 985.249268
-159.988922 -117.634575 883.712830
163.087250 293.986969 960.256775
186.468826 282.423706 932.927917
138.366364 227.165543 951.140198
46.808228 -6.968071 839.369812
-107.983330 -56.700935 890.404541
101.690010 24.283546 862.434021
24.961178 -114.036270 802.015076
-142.602997 -39.319767 910.883850
-188.191391 91.911919 987.048523
39.365898 13.195162 866.636841
39.334915 287.194427 1023.195068
41.720394 29.518812 889.376160
-65.853188 297.624420 1078.689819
-68.059143 5.475218 897.898071
31.102846 -83.426651 799.084106
32.871086 288.533569 1025.617798
30.009241 337.635712 1053.998047
45.189835 -37.963253 832.947754
171.607071 239.464615 937.868347
-215.067352 27.018003 998.529602
72.659492 132.922165 917.731812
108.751099 220.661743 919.730591
124.024132 231.885986 949.054749
86.660576 90.021881 883.097046
16.426519 -135.915054 803.989319
5.414858 304.614990 1025.415894
59.395332 -42.241344 808.150757
-162.526810 1.337061 960.146179
113.421356 205.381287 940.722046
-63.570290 127.197403 977.179688
78.296188 87.397011 892.670227
26.642292 -25.838379 848.363464
-191.522568 203.284973 1006.335999
68.585747 -32.062767 842.614014
-11.182523 140.262192 965.498169
-186.482910 -15.840673 1015.876404
-144.594223 -83.211380 876.556152
60.414047 247.088242 988.387268
-26.738848 -99.496216 840.208557
-115.975906 198.339355 1096.476807
-158.544449 -95.000175 898.525513
36.289803 -30.613922 846.050842
151.631973 252.370071 951.070923
9.517737 -85.773811 807.846130
58.228313 309.232788 1028.424438
-157.610992 198.473221 1069.932007
-66.147614 -96.686859 850.152710
29.181578 -128.676590 785.013977
-89.946732 251.886581 1071.415283
55.508770 -95.885208 796.216431
130.997589 148.817032 895.100830
-37.023846 247.174744 1026.725830
-192.391251 95.779480 1004.689941
-49.986481 171.599777 1007.080261
107.393303 45.412632 836.853882
-53.803707 26.176224 912.040955
-140.647583 11.539464 952.977905
139.518982 175.949646 902.430908
110.065651 165.239166 928.231750
-130.494720 199.921906 1094.610840
2.149996 20.222069 884.521484
9.451662 -23.373455 858.542175
-31.399393 105.653984 951.545166
-91.887703 21.640232 939.796448
-170.928146 76.495056 1027.207031
76.187714 -15.223520 797.557190
-151.109497 -77.380096 915.905273
-37.154446 157.869568 988.606689
23.685785 293.410461 1034.004028
128.943466 172.654404 915.137512
101.570717 105.255119 884.800903
-124.279961 135.610291 1009.938904
145.517960 295.775513 961.741333
-34.219486 281.238983 1050.837646
-83.563065 37.736542 935.617432
65.030830 289.672455 1014.884338
108.940216 118.512215 885.049194
148.349731 225.399506 939.752380
-85.408348 -17.294449 921.468689
-89.556717 -24.882406 887.141418
71.003586 224.219147 969.611938
-76.261208 19.700857 917.787659
132.378357 103.837425 876.107666
-10.300335 263.140747 1032.933105
-134.671494 137.716690 1027.433350
-14.889067 -26.162682 873.260742
-199.944107 180.849594 988.934021
-119.756584 -114.345070 887.474487
4.049850 235.206345 1007.016174
16.607141 237.689316 1014.429932
70.145805 197.060059 956.473999
-10.248778 -128.744247 801.172119
-116.490845 91.908707 985.857849
8.956273 -112.787376 799.184326
-37.559334 -69.017258 841.718018
148.198746 137.163910 894.544373
141.389542 122.671478 882.264282
63.958527 54.990868 863.013062
82.629333 307.011353 1005.069336
-140.000351 215.010529 1089.548096
-113.945450 149.884995 1026.238403
-2.646916 -0.571041 856.553650
-66.539391 152.697067 997.828552
87.643051 198.207779 944.194397
100.036537 100.103752 873.188599
-220.327637 117.197144 978.090759
-57.317322 1.565308 899.311340
-188.001984 130.188095 1014.762695
45.752117 10.388696 870.707520
-80.291451 -1.456744 897.536621
123.523529 114.886116 882.203064
-214.918503 -120.766174 965.732666
-0.298566 311.914337 1061.890381
35.096107 -103.383163 821.093262
97.310104 275.314484 972.966248
34.663525 233.423157 994.297607
-185.251450 24.245707 1003.862854
-36.089817 68.334511 941.276245
-23.751740 255.140045 1031.174683
168.426163 213.183823 916.454773
-79.495735 -127.088219 857.449524
25.899960 -34.956696 845.688660
6.013807 -74.783340 816.781372
-158.326111 177.919968 1031.813232
-167.916138 7.428717 993.986694
43.439632 281.771484 1003.281006
-222.018158 116.638161 984.583984
162.402954 249.357925 926.650452
12.324839 188.351822 967.931335
121.627090 176.426666 897.578552
21.822903 -64.500786 830.114685
69.570915 143.608292 918.458252
133.834442 241.923584 954.080505
39.971725 305.369476 1014.745117
141.472809 164.680618 904.050049
123.041336 193.163101 929.699219
52.226425 139.300919 928.708191
-78.382439 234.708832 1034.152466
-37.163094 1.990019 896.136597
-47.669254 213.532349 995.687805
65.109062 80.779388 894.457153
107.015671 186.606506 909.709961
-122.404869 18.281467 937.494019
86.703384 23.322704 851.990112
-132.574966 -59.874588 904.388000
-17.145111 154.415894 949.060120
32.548412 51.724583 890.997864
-164.645004 -108.748734 910.380676
-138.999390 155.110229 1040.230469
-46.646702 -54.459637 880.932800
-22.629936 70.919548 936.657227
99.992859 167.937729 937.691162
20.305382 182.626465 945.230164
76.349449 303.482727 1017.040771
-26.867931 -87.908836 839.413452
-86.759781 -65.140457 885.917480
-44.154087 -71.847809 854.569824
-147.933044 63.529327 1003.957031
-46.224907 -39.196201 863.165283
111.973221 322.853455 987.769592
133.026978 85.669167 878.073486
45.076801 279.581360 980.993042
108.429863 218.551895 943.357544
-82.716034 -33.089745 899.408081
21.805044 112.983940 933.727722
207.043411 300.925415 971.782776
28.436550 170.011658 967.424255
-91.918007 130.997421 1000.603821
-56.325024 150.232910 992.539734
-78.716431 164.379776 997.856750
83.419899 -46.461060 819.959106
125.479317 179.810272 923.117004
40.800415 203.292175 983.795288
17.758736 303.113434 1038.913696
-143.919693 185.427109 1048.859863
-37.414326 92.805840 936.922852
147.998734 318.198853 988.576172
80.561974 269.624298 992.287781
37.595901 70.867210 886.834839
59.920181 261.785553 997.665100
-2.587518 177.333832 987.942261
79.153252 139.292694 897.397034
-16.519217 115.668152 958.702881
-99.080727 -123.845764 850.091187
59.687996 203.759872 959.218750
2.889778 288.271362 1021.135620
-49.977203 269.713379 1061.419678
67.467796 -23.122717 834.036560
24.306374 176.081955 934.691589
-85.920700 272.624420 1123.278809
-15.214830 282.132874 1024.510986
-62.133240 -82.010933 844.897583
129.864136 147.586456 899.785461
-146.886337 -91.658508 896.318970
69.390083 93.496101 894.501953
-101.583603 204.306763 1052.302612
-66.553215 262.054199 1074.934692
103.211792 102.435448 883.862427
-95.191002 104.731010 988.004333
82.438202 329.607483 1027.588867
116.958847 209.271530 951.652588
20.679188 165.235382 959.438721
-146.856430 103.047585 1007.104309
-79.995811 -48.285343 889.439026
-68.133377 -64.343109 889.984619
-98.995888 79.284492 961.890320
92.949898 212.039185 962.096985
-93.797562 201.731995 1036.479614
-4.162360 207.706711 993.107483
-161.443939 169.540253 1038.868652
36.547604 -128.012817 790.229614
107.812637 138.452225 905.975708
-141.176132 -84.491997 893.982178
40.167583 226.434814 982.060791
68.786423 -26.267643 850.023560
28.745485 -94.029945 828.304749
-205.228989 49.681423 1002.772156
-193.265701 169.564697 1012.860718
142.347244 159.722794 896.773315
-137.389389 64.329224 980.479919
-132.946854 49.051670 961.663940
-151.061874 101.971100 1021.814148
107.925804 255.897583 974.050110
-1.119313 91.215370 937.811401
-196.822021 57.894154 1004.080261
-66.455284 -118.303024 852.919006
-124.641075 200.395874 1067.627197
84.233162 284.711212 969.928528
160.943802 192.416656 912.399048
157.054230 207.818756 917.356812
-22.329456 47.089596 913.411621
-178.950165 -72.139282 920.861633
-162.800842 -12.411648 934.541809
39.250160 -110.274689 796.477478
-177.331024 -35.775665 952.773254
-132.189346 87.913963 985.796875
-126.993690 90.643829 967.415283
-2.239104 146.672623 967.996338
173.944199 300.488586 957.217896
113.480789 320.387146 967.453430
-63.612404 -3.644360 915.971924
-40.282879 48.620850 932.388977
-9.180091 157.497467 967.609619
-177.394409 180.943985 1011.075806
-84.306854 42.742756 953.922791
135.188004 202.286743 905.063843
169.133438 237.481842 912.675232
-121.419121 -13.023806 908.341919
-61.970703 280.694305 1062.552368
-12.249107 148.627213 973.244202
-106.860435 -54.256077 891.169861
5.948853 6.041820 873.727234
-136.624313 59.711750 977.460876
-27.590273 7.521079 882.297729
-98.295334 146.424301 983.628418
20.043152 -38.954323 843.275330
18.277802 -77.952133 819.210449
54.689236 331.168549 1041.611084
-169.248489 186.340103 1016.901184
-17.291763 300.636810 1058.326660
-187.826752 177.534805 1016.514221
-198.836914 -95.907761 916.668091
25.303251 124.748634 906.213074
39.396809 136.660400 942.958679
-2.166455 42.619129 882.026917
12.034880 91.200584 919.450928
3.486490 285.107727 1024.362183
103.698357 -7.130470 833.064941
-4.086171 73.642921 930.054138
-110.409637 113.692307 986.909973
105.797867 274.772827 973.745667
-153.986450 50.023537 985.949524
200.570999 308.505005 948.172546
123.427681 152.482422 914.533508
-171.777756 176.398941 1013.377991
-8.875987 -58.019417 847.439636
115.987007 37.829887 847.370239
107.585411 316.591309 1007.581848
-62.293880 -36.729324 882.584290
136.383606 131.338531 883.563049
-29.019661 79.616684 946.791321
37.630669 275.687225 1003.996155
95.827217 52.697327 873.147095
-154.844742 -3.659206 935.447510
-84.696068 232.998230 1042.546143
1.190285 -31.462032 857.776733
25.784924 136.246674 950.847229
-26.220104 274.861053 1041.243530
-77.481827 301.923431 1118.095459
61.466637 -8.302428 841.246704
71.779968 -13.799179 829.682251
32.845970 115.951195 926.864563
-213.526367 127.113647 1003.665588
-52.551979 12.417027 903.730957
3.763442 -102.548141 812.125549
-42.500500 248.982651 1035.656494
58.292225 10.186370 838.328308
-219.000656 109.977974 981.315186
147.628845 217.929993 921.020081
-67.776146 93.187576 960.376770
-38.205242 -4.562906 891.963623
-57.205238 -117.936714 856.212952
-78.363953 217.055435 1046.287964
162.965714 232.814926 922.631897
-122.327400 137.950241 1004.873840
-215.592789 32.045189 994.969299
-182.291412 29.736603 1001.033020
28.347572 -33.219109 839.402161
36.029915 65.558792 896.176941
-3.097151 146.250549 958.348999
-169.552460 158.451141 1011.527344
-22.550982 273.644165 1037.044922
-129.857468 -124.907204 877.045288
-121.935570 51.823578 947.178528
-58.098801 15.267461 907.527039
-78.898102 -9.417561 924.008423
13.347980 299.361938 1015.780518
-16.173309 76.093117 923.192139
-181.447342 127.407196 1022.082825
-121.819710 -72.213997 904.888855
90.009384 309.436371 1005.669861
-36.771729 149.566086 990.314636
-17.362860 148.994095 946.241882
-13.599111 323.261780 1064.520630
37.577362 -21.982649 843.123779
-114.789421 240.231308 1104.317993
64.195328 59.176617 859.499817
139.670059 247.170242 948.316650
42.589657 287.308807 1011.026550
-68.198494 -81.340431 859.335083
-87.276764 260.438843 1070.270874
-126.501877 -12.359885 934.905396
-18.722282 324.853760 1067.660645
9.999310 113.945633 934.529968
-63.211506 27.251936 930.631531
81.146561 53.654041 872.311890
-155.067978 107.735336 1022.780701
-84.006165 -8.140596 926.852173
40.394814 232.864731 976.751221
-124.145729 166.190659 1028.707031
35.588169 -75.562546 831.621765
123.157982 295.723755 978.454895
-115.254677 -68.061066 903.964966
-8.896310 71.194252 917.263123
41.391174 -44.868340 850.884583
112.884888 19.025295 846.596802
33.450245 -22.080900 847.478882
-83.289818 -113.051498 847.740540
-70.380058 -29.861242 867.757019
12.804772 -63.874008 834.592834
165.311417 239.584045 932.897400
140.890350 147.889877 892.633423
7.168993 -110.023682 818.174438
161.868347 316.021912 961.460693
163.473236 251.856415 946.428711
1.351885 -61.736111 845.429626
-181.823441 143.344681 1019.822327
142.341660 264.682953 961.561218
-188.838165 187.541489 1015.961548
55.049461 251.613998 967.195740
-11.314857 311.760223 1059.418457
-90.021523 33.902824 935.941711
106.353699 23.826408 854.440186
71.672951 300.591583 996.193176
-111.960518 168.401718 1027.621338
-13.160023 16.608522 878.317444
32.693661 61.049397 909.892212
14.516679 5.593300 885.870544
-154.242859 44.573696 987.472900
113.082397 38.011581 857.836365
-0.155246 -45.362053 868.615601
112.543884 190.928894 934.009460
14.837039 158.342316 957.052673
-177.675354 157.655396 1025.153198
32.225338 296.791992 1013.488586
54.480476 44.854710 873.002808
-60.723507 7.040490 906.327209
146.880005 308.106018 963.062927
-66.081177 -77.153099 878.922180
54.571430 205.387558 962.903076
-83.067558 294.927673 1110.880371
-61.857967 283.615845 1072.888428
1.319273 232.197174 1018.295227
77.257164 94.549263 909.583496
-96.622177 -41.229725 907.736206
103.221764 307.465668 996.512878
39.814194 148.214630 951.522034
136.926010 292.581146 981.015015
119.476791 295.609985 992.145203
-154.249817 136.132065 1024.439697
-86.449661 -20.270052 921.272827
85.265251 252.983215 974.579407
51.807697 249.765961 994.205017
150.964249 293.424591 966.326843
-159.456207 203.997864 1052.025879
77.841522 93.700226 897.406982
6.964012 70.891571 893.395325
131.321472 231.235153 950.029541
-126.544258 126.164680 1019.165100
71.234268 211.730728 969.806335
-52.889477 214.028320 1022.824524
17.510954 -74.469002 841.384155
-108.275017 126.082710 988.846191
-142.712433 53.316101 982.273438
54.137390 68.852425 892.163818
-67.473763 99.216637 977.286316
79.115768 62.595383 874.271973
55.621029 -37.492802 823.468445
-149.303558 -26.479944 908.966309
37.952972 278.173920 1010.089600
-87.693771 276.207520 1115.344727
-6.922402 -27.910608 847.992126
137.853088 104.239838 884.501343
49.188583 110.904030 928.519653
129.084930 298.991272 994.771362
-111.828308 120.080742 1013.553589
22.019390 301.015106 1040.225586
56.275230 199.419418 952.991455
85.082169 268.219116 996.522400
-45.844952 -60.338200 877.351868
-33.904381 291.720581 1055.478516
-41.819740 -55.476357 863.393616
-118.982323 -104.552101 865.761780
-194.956406 -91.931885 907.181396
-112.785599 12.390186 943.380920
59.244125 11.631740 833.369019
-82.770332 -11.047685 884.429749
113.450462 82.291908 867.885803
-108.055061 193.342804 1065.713623
-66.847511 250.371124 1058.062500
-2.542000 191.267899 976.222229
-120.080215 131.544693 1012.444214
-210.298691 17.383806 1011.133484
157.427811 179.773239 907.112976
-149.237732 -8.528062 919.131531
-40.740868 93.900932 948.816528
-54.866676 157.601639 996.429077
-149.859955 63.857208 1008.715271
14.246439 24.741081 880.345459
-52.029121 294.694031 1065.455078
-33.308128 212.651077 1008.497192
182.853485 319.620331 970.167175
154.720764 216.713196 933.891479
38.903877 146.088196 941.288879
-173.867249 216.043457 1043.476074
58.998791 120.687256 931.764282
-10.644773 -7.121360 890.819214
-151.886505 219.939972 1043.422119
-171.753922 87.974052 1013.285461
85.732880 200.201553 948.223999
-116.526154 127.469162 1004.311401
-25.642721 236.242310 1026.493774
28.270241 -24.779266 849.729797
-52.675827 223.984467 1035.220825
-90.378700 189.872025 1025.941162
-54.809380 154.052414 981.452393
64.614738 118.709663 893.160522
1.963765 -18.903942 869.515381
94.384109 183.366577 941.068970
-195.769455 157.720627 997.609314
-90.871353 74.865974 954.682739
-28.577784 -114.612556 841.986816
-29.555866 208.114670 1001.308411
39.333939 19.333477 869.758972
42.858421 66.420876 895.513611
-68.247871 -114.198105 844.998230
-28.445980 261.015533 1036.867310
-67.128380 -127.719734 839.410645
-141.054596 -113.084381 889.779053
-49.701538 309.872772 1056.192627
-7.140495 -42.993542 873.560486
-58.467018 330.891510 1064.066406
79.885384 202.459412 946.227905
-49.552574 269.384369 1023.874451
97.635941 195.014328 953.187561
54.268993 118.129585 915.565491
-142.052917 212.620316 1077.196533
55.498207 134.453461 924.247559
63.262783 211.812653 958.875122
162.296844 241.649887 935.196045
142.412689 305.527954 983.729370
-166.336548 -20.199274 932.259888
120.336487 287.696442 987.214600
-33.124493 176.613724 991.799011
78.050583 85.628929 885.270508
-165.550797 92.227188 1012.377380
-68.770889 28.028282 919.190613
-11.820554 89.787949 943.302734
59.043110 -4.186372 860.389160
55.207741 6.824304 844.252441
30.105453 166.820450 954.147217
185.370316 231.744171 937.357117
-101.851059 174.245316 1041.385132
77.036148 104.428520 896.364624
46.059414 -5.767068 851.320374
86.055901 278.308044 999.028198
-101.392990 121.930862 979.523560
45.665829 288.186157 1002.481018
-210.650787 25.115978 987.386230
36.739708 90.535583 922.705627
165.659149 244.177887 940.852417
28.996241 -97.995590 812.624084
-67.924599 173.588287 1001.400818
114.615700 231.196930 941.093140
74.323563 146.265076 935.364990
-40.657410 249.675537 1036.579712
98.305801 302.743500 1001.959839
42.143784 174.627502 959.877991
-81.806534 209.184235 1030.465942
-136.287857 214.053940 1067.524658
71.343483 125.085625 893.087891
0.163957 278.381409 1016.971802
-79.650902 76.084579 958.842407
-28.725260 276.126038 1053.956909
59.592419 -100.852608 809.911621
-191.640274 -46.468658 989.818787
-75.999290 -50.925957 869.451599
-178.604263 -14.209751 963.956726
-97.980659 151.608871 1004.733459
195.725479 273.571686 945.175171
20.637041 -47.251308 837.477356
141.453171 283.110291 975.249023
-29.583448 312.571075 1062.631226
-168.622330 112.138512 1016.539124
18.918386 133.213333 940.570251
-9.944592 94.065651 943.426025
-23.797472 -115.288177 839.885803
-213.929550 50.133057 983.896301
-132.024841 123.856888 1003.197144
-222.220566 123.219452 962.813171
-209.642914 69.668831 997.826416
100.550209 8.447706 851.893921
-30.885696 223.174210 992.878113
-159.490906 -46.987347 904.448059
-44.410660 307.725037 1080.346558
-83.348999 6.025523 914.985718
164.261078 245.678726 936.520142
-200.898499 50.588154 1000.246643
61.150066 11.467930 868.991699
-91.184456 12.493279 921.847046
142.136215 197.478043 913.317627
-89.325996 -71.587654 862.901001
-171.179520 173.252151 1025.075684
-125.961205 7.186326 932.197388
103.035973 223.252625 945.060730
-73.052223 122.881721 986.513794
54.730846 -2.515373 847.499268
-54.082893 97.363365 952.483765
62.984165 95.643394 913.498901
-22.294058 225.886902 1021.094482
75.631264 154.381302 908.979065
61.438404 32.957287 875.696228
80.380745 261.287811 992.152893
8.320513 228.171982 976.269470
155.606094 270.155609 947.849304
-159.819046 -5.931897 924.518250
33.068962 247.046524 1000.883545
10.162409 -72.316734 849.299133
-179.371063 -90.553726 891.989868
87.608398 109.398621 866.829956
-14.841743 292.700897 1020.546997
23.210934 281.941040 1033.382568
-84.793785 175.244308 1026.342407
-51.860943 -129.112854 851.156555
168.024963 275.204681 953.797729
-54.084110 315.246399 1071.019531
-32.347630 -26.675135 894.290222
-4.072327 12.092031 886.215027
63.829960 260.124420 1003.348267
22.842484 292.289490 1019.579041
-120.903603 167.944901 1046.305908
76.308754 -12.290781 813.747559
13.354287 245.891846 1014.115601
-206.046570 114.716187 986.323914
-145.568634 27.180685 954.048706
-2.810437 244.111908 1007.061218
122.642212 256.744293 932.895752
-77.516220 137.022751 986.254272
-122.396072 -52.155514 898.710632
68.013664 267.400513 997.116272
-6.153430 270.302643 1031.816040
83.683128 -9.737841 801.066833
-185.189621 190.424026 1013.180847
-3.835031 196.683701 994.203247
78.917923 216.322037 957.257568
92.741150 -3.585123 845.897217
-155.578293 82.383781 998.087708
-5.489218 -129.024445 798.616882
132.639740 276.568115 953.516235
-75.816551 166.205475 1011.107605
-39.812763 92.648933 937.024536
-169.713501 -35.604156 943.321716
188.032516 295.283844 952.887756
-26.895647 287.639893 1048.838379
-19.392099 267.498230 1032.353516
176.418488 209.839111 905.512573
102.105110 157.931702 910.921875
78.768242 295.413635 990.064148
-185.713699 124.318344 1024.782349
37.310123 128.800522 924.353394
35.253078 93.086449 907.001160
-227.851776 126.650543 953.083740
-61.157024 281.682129 1062.083862
68.349838 204.867065 971.863831
-77.799171 244.402634 1048.717529
-92.166618 261.783630 1107.053223
31.185110 104.320381 924.319519
-44.673714 266.464813 1046.973022
-208.260086 128.254105 972.215637
-135.467834 -84.021317 886.303711
-51.180031 -38.346115 865.949402
167.444611 289.265167 968.656494
-170.177368 -89.088600 910.237671
-62.848381 -25.327057 902.138611
-12.615831 152.466187 973.141907
135.814774 258.326508 966.920471
-65.616417 -82.600426 866.879578
-61.119644 -12.146815 900.548828
83.549950 127.559921 911.038818
-172.539902 31.645666 1010.189331
29.582369 62.181927 896.746765
-65.073029 214.105164 1004.319580
114.005173 126.587662 903.286438
-113.182434 174.678513 1053.738403
108.149811 119.471458 895.430908
-174.354095 -69.550674 910.193787
-138.590149 -23.170483 938.242065
-91.812012 -8.260530 923.164490
-130.940491 -41.581482 906.260803
-172.419403 -101.998589 909.621033
136.048752 195.384094 927.286499
14.870860 292.145630 1040.448975
65.231438 284.996033 1000.126709
42.635521 -133.279480 781.555237
-164.839844 186.222641 1038.475464
27.654226 -44.938301 813.100769
83.585541 126.727234 905.879578
190.413254 253.181183 947.077393
31.391079 199.994843 983.054626
83.678589 59.505730 849.559021
47.758102 229.759491 958.690674
44.813469 295.371613 1015.811707
-168.812897 74.155121 1019.041443
18.999393 326.880280 1034.556885
30.613972 -105.275139 818.933472
168.820251 223.745834 925.534363
-180.194870 -12.217180 1000.172913
-187.074371 94.525627 1019.067017
68.032951 133.743576 920.389648
112.474274 80.143135 868.741638
87.017639 232.415970 957.374512
-41.681946 -120.135307 847.322937
-94.270332 240.798492 1096.943481
-124.935265 147.562927 1024.479980
-18.443295 237.650986 1012.501404
-53.881668 171.351578 1003.579224
-191.459976 -105.889938 913.635254
-60.410252 105.027939 955.207581
84.854218 87.041130 898.987183
-61.580231 -21.818968 888.665649
-61.388622 172.590744 990.168762
22.174398 253.999802 1020.607666
-145.817657 115.715668 1037.355469
-124.370186 21.160795 959.859802
25.324343 52.954884 896.939941
67.088013 170.893997 939.826843
-175.859787 -45.222908 925.160461
-46.550232 286.912354 1044.387085
117.530579 313.130798 988.762085
-40.877728 120.144722 958.968506
47.327267 5.750513 872.589661
121.605782 247.220825 940.944092
-35.316181 326.472900 1075.781616
-11.503323 215.264114 1013.885315
-43.793987 45.340542 909.625610
-132.841263 69.808189 981.447510
-107.010788 167.447144 1014.395020
-58.279583 -31.488924 884.331055
-51.617977 72.466156 952.307861
-132.176788 177.212616 1076.532715
-79.758911 299.205261 1135.283447
46.238392 109.565765 930.198303
142.885406 231.873886 937.501648
61.212311 178.043915 954.948914
182.079575 276.917358 955.926819
8.498538 48.788540 900.705200
-183.670944 -92.266769 900.375854
-110.895454 -76.754379 890.211792
-124.613541 142.360611 1039.753540
-185.867554 213.512665 1027.748291
81.944626 263.371033 988.198730
21.242346 207.881653 990.977661
37.811344 -5.160838 844.515381
73.062050 60.368340 872.304993
133.648346 216.151978 928.327454
39.461590 293.774414 1010.008972
126.760292 188.957031 932.673035
-142.475891 -15.753414 926.942566
92.742683 54.076019 856.819946
-49.798691 312.682892 1082.340088
28.662817 -107.445160 822.104187
-13.548530 26.278105 893.462463
-3.058769 97.900925 933.020630
15.630487 297.951904 1037.516479
-124.187759 -115.674294 889.540039
-27.207714 197.106842 995.796326
-22.807775 101.415825 940.913025
-96.715256 -55.656353 906.739136
3.646856 -120.754089 799.903809
3.429341 -104.627625 814.951172
-20.156647 221.793671 1003.593567
22.065929 39.411255 869.093872
-201.939697 169.541885 977.066589
-129.555466 140.443359 1039.020020
-72.060303 48.218784 931.611694
-31.905960 -52.148899 880.619263
-83.206062 61.047234 963.336121
72.951065 304.515839 1015.783447
17.630074 198.860611 957.298035
46.316219 -67.872612 791.937256
-161.641769 140.762985 1030.756104
-174.506424 95.404854 1004.925903
-85.787277 74.212395 971.366577
-158.412048 199.718521 1041.596191
42.919235 147.954010 947.379333
-25.148291 73.723579 924.361694
19.017784 172.527512 962.365906
117.587112 305.329437 980.293579
66.834091 -76.536438 820.249817
-76.922203 97.845787 962.279480
-168.283798 198.710678 1023.541504
16.761751 76.915451 909.146362
89.903564 24.246284 827.617615
-146.339890 46.683376 954.727722
42.374012 264.814758 996.185852
-140.612610 -99.317635 901.305054
-102.121559 26.696068 937.115234
4.533023 274.037354 1039.395630
-22.465195 -21.749247 871.472717
-105.979012 201.361160 1060.098755
51.164028 81.470901 893.808289
-48.912182 0.344724 910.183838
113.857109 84.440598 870.496460
75.299904 -50.994015 816.294861
46.637268 320.868774 1039.396118
-107.057793 -54.083775 911.577698
83.210548 60.231304 875.415405
-31.626171 68.355812 939.019348
-23.720121 223.946777 1017.636230
136.014709 168.106216 909.106506
39.135136 -93.348755 821.855469
-84.168785 26.880877 916.320862
16.229998 163.044342 958.934631
60.480461 112.187881 913.390991
-23.074312 48.556736 895.439880
45.158012 103.053574 922.003479
146.769760 252.075577 953.203979
2.218462 120.530861 941.449158
18.890825 4.246535 866.503418
-122.640892 246.164963 1115.344727
-161.611740 90.563629 1020.019775
110.742516 7.301258 829.932739
88.483582 48.310486 875.155945
25.043558 108.676254 919.912231
20.853592 22.712095 879.551453
-12.379169 242.463608 1014.513062
102.510216 51.763409 855.132446
102.579887 199.517578 952.000183
-74.615768 153.475128 1003.538635
-123.722534 181.679398 1024.845947
-201.285416 62.914814 991.304321
-13.324594 161.593201 975.122498
84.316551 97.307388 880.692566
66.392006 -21.256989 831.107727
117.592812 264.997650 976.268921
-87.408615 236.966827 1075.050415
14.754792 84.763649 928.671265
46.741470 140.186035 945.450378
82.767082 -32.560436 825.017273
-209.876495 67.074997 985.119446
-91.980858 13.962476 935.861572
-149.131439 231.610260 1057.311157
55.801201 -12.054785 841.942383
44.185291 109.050308 920.190979
-160.462006 -85.329788 874.964355
91.420105 -41.805851 818.957825
100.333717 122.302483 909.665588
-164.168884 153.916946 1021.672485
-137.954117 78.386574 1007.910522
19.734600 181.822906 940.306702
36.474072 179.034561 957.898193
-111.739830 -70.405624 882.125488
92.151184 16.068594 844.219727
-138.854034 140.961517 1012.725586
71.274544 115.335503 922.173340
-132.240768 219.837875 1107.261841
-51.865368 112.457176 977.869690
-17.380770 323.178864 1069.858032
36.889198 237.767548 995.596375
67.234802 277.869843 1011.624817
125.793869 236.286713 950.489868
-19.778126 71.505226 937.441528
-66.382141 257.251434 1028.852051
-60.179775 165.544556 1006.734436
-178.660965 30.033703 1017.109497
-211.077667 78.304291 984.264221
-174.627396 186.024673 1024.243652
-39.461403 96.503304 928.619141
-2.679812 -96.820976 829.926758
36.610096 274.811859 999.220825
104.703865 262.882874 982.004272
65.537857 165.998169 950.068542
122.353729 265.202881 969.509033
-133.285355 -119.262993 869.419128
-197.313309 34.023884 1003.063416
86.659142 163.526672 931.159546
-77.256111 22.474064 925.529907
-32.740059 247.152161 1030.088989
-148.761322 2.888509 951.631287
45.701580 -85.582458 805.378662
-4.851189 72.297226 929.118591
22.831293 176.787735 972.756775
-200.655563 -3.499265 1033.111084
101.244286 94.408920 898.203125
83.441597 48.705051 868.039612
-161.092606 132.231445 1035.808716
49.783627 -24.245678 815.586426
56.818878 315.240540 1012.167908
-88.297997 244.328888 1051.723389
-44.124798 199.189728 1005.188843
36.421680 198.957550 977.996399
-189.201248 61.925671 992.310120
-6.583292 -56.912590 845.449158
190.094727 245.644897 938.657593
-50.841373 211.880646 1016.649231
-12.864395 141.421341 963.819275
133.763611 308.578766 994.042786
50.231117 -44.124634 830.179016
152.984756 284.189697 952.242798
-29.092648 229.121536 1010.102295
-82.896873 75.940201 966.360046
-13.432057 272.489441 1039.317993
87.089432 50.229328 881.290710
72.081367 201.296036 952.498474
-150.235535 121.238937 1030.201172
-61.458057 147.688889 995.115784
-180.476700 -90.909271 921.182129
