ply
format ascii 1.0
element vertex 1371
property float x
property float y
property float z
end_header
-501.378235 -306.748871 603.955383
-501.258026 -415.712311 584.060608
-954.288879 -188.750275 611.670227
-675.500427 -85.820747 669.639099
-496.788757 -419.056519 588.647644
-687.171082 -203.547379 624.568420
-576.177124 -248.440399 614.247314
-839.893127 -101.322067 635.779419
-848.602051 -360.163910 545.956299
-849.937622 -124.112961 635.420166
-764.189148 -421.650146 556.470337
-602.080505 -159.341156 632.245361
-708.360718 -399.820190 549.015564
-465.217377 -281.441254 623.400513
-765.114136 -46.432125 662.932617
-776.271606 -422.796173 505.173401
-616.335266 -249.227142 624.983459
-763.356140 -153.906998 636.385071
-854.709229 -234.654526 596.320618
-910.604126 -213.513367 599.107483
-447.244049 -385.895508 597.196594
-476.510620 -403.683960 573.412537
-855.914063 -146.499100 621.263306
-663.663940 -488.339752 562.767883
-781.559753 -238.768616 602.627319
-716.197815 -207.116165 619.761414
-639.173645 -343.542297 578.386902
-653.238953 -300.420807 587.113220
-614.891541 -301.110382 599.271729
-720.151123 -44.922138 672.208618
-855.181519 -150.900543 612.641357
-604.691650 -230.430923 621.678101
-817.391968 -80.811707 646.523682
-639.803833 -202.635284 631.877808
-608.076111 -463.468231 558.075073
-553.149658 -177.326645 644.411011
-721.291199 -136.763931 634.695496
-800.234802 -80.241287 618.573853
-728.120850 -115.093300 624.224670
-780.338196 -378.366394 576.617798
-480.027618 -439.512695 562.321350
-529.823669 -225.035706 643.335327
-645.531433 -332.248016 585.123413
-619.738220 -224.974365 621.642151
-534.449768 -278.914337 611.259155
-762.211304 -77.716324 660.770142
-649.214233 -207.455048 621.235657
-783.805969 -265.703705 598.082031
-874.873169 -335.495667 599.546509
-685.034912 -191.929230 630.749084
-835.048828 -180.936279 616.867798
-716.300354 -160.321198 634.008728
-460.051483 -327.124786 604.442078
-824.880859 -261.015106 587.788452
-402.865448 -326.977936 610.713318
-620.752869 -183.518799 637.355835
-693.381226 -83.550049 648.829895
-764.968506 -202.466263 622.149536
-574.993652 -334.284912 600.797424
-904.111694 -323.673798 616.423340
-460.412445 -332.657379 618.464722
-484.371735 -276.852600 615.342773
-854.985474 -168.763092 613.150085
-674.948181 -376.368256 559.501831
-836.364929 -379.547638 501.078552
-935.373657 -179.150757 616.477051
-701.611450 -317.328583 597.173462
-775.440613 -104.543907 650.569641
-733.433899 -100.528763 647.754883
-728.819397 -489.860748 575.715942
-827.139954 -164.993652 599.274963
-658.035645 -396.247559 565.168701
-677.283386 -287.730927 597.027466
-823.857056 -96.605774 645.752014
-883.713013 -347.572876 561.515869
-698.697083 -249.913147 605.457214
-647.558838 -282.362976 609.409119
-834.314758 -254.737961 601.650330
-539.132141 -430.288055 560.416443
-691.988159 -64.917877 664.512085
-642.452881 -427.839172 562.168457
-705.333618 -236.431732 608.841736
-500.378326 -219.469528 637.439697
-760.708008 -210.475800 622.838928
-624.239014 -193.676071 633.513550
-850.031616 -291.750092 570.291199
-862.701477 -158.756897 612.342163
-441.182678 -314.893188 611.891418
-753.407410 -445.354309 537.709595
-694.008728 -403.738495 563.676208
-769.102844 -218.175262 607.204529
-619.408325 -459.753204 557.379578
-436.786377 -360.658142 603.191833
-576.524475 -489.512543 539.953735
-796.618408 -225.903900 607.914856
-524.898743 -294.505219 597.179321
-765.181763 -181.274078 626.298828
-881.128418 -155.982697 622.829407
-530.970581 -430.985535 579.283569
-719.430115 -37.646336 666.754150
-419.650848 -324.768005 591.854736
-752.601135 -356.932098 572.650635
-661.842590 -236.004059 606.448181
-502.421143 -421.814117 573.077026
-642.261719 -108.033401 656.214355
-540.359497 -259.963348 617.802551
-554.997375 -181.650146 639.331909
-830.567017 -293.216736 587.332581
-768.620300 -171.119110 621.100647
-491.654785 -373.931274 594.820007
-488.040955 -323.071472 617.084595
-797.250854 -134.137741 636.169067
-523.211853 -287.511414 618.329651
-912.338745 -212.069321 604.285278
-579.580078 -514.541016 532.058472
-770.404114 -153.386475 635.624878
-848.716370 -352.942657 572.143311
-689.797546 -343.132935 576.756653
-498.798523 -425.148712 566.022217
-799.729004 -391.608459 519.540466
-628.971008 -363.160400 565.650879
-452.147705 -259.553284 622.870361
-487.332123 -308.470367 604.207336
-685.925171 -74.614281 670.415527
-679.526306 -150.724182 636.069763
-637.063293 -443.741455 554.783997
-839.778076 -101.377495 639.536316
-563.628479 -385.053467 587.278442
-593.030701 -506.975708 551.965454
-704.784180 -348.875275 567.802795
-624.108459 -305.855164 588.753906
-849.060120 -354.470520 506.483978
-899.405212 -326.821503 573.647705
-825.505005 -387.528687 537.404602
-746.097229 -20.093742 658.309448
-436.046478 -371.212494 576.857910
-809.872131 -183.264832 618.753601
-548.265442 -356.364838 584.055603
-649.161499 -132.964691 659.367615
-848.681335 -164.925873 621.934387
-551.774658 -331.505096 604.626526
-566.677429 -188.757446 634.624634
-858.955139 -125.758858 629.292419
-732.967834 -24.874159 654.821045
-831.712280 -276.463470 585.363892
-654.534119 -236.375351 611.949768
-883.471741 -177.771286 615.877075
-555.547791 -238.664429 636.758301
-785.463684 -162.411926 627.819824
-706.495178 -276.685913 593.727722
-503.345642 -368.145569 604.049133
-652.631470 -297.617462 593.790710
-669.832825 -139.181259 650.783203
-562.923706 -262.792694 625.684204
-690.767334 -89.366364 659.241333
-426.857849 -358.829803 587.442078
-548.838196 -368.436035 562.437744
-886.914429 -157.608994 622.744141
-526.415649 -369.598572 596.459839
-616.996582 -169.271225 628.200745
-846.679138 -351.722473 553.403503
-773.627197 -122.627731 647.193176
-756.452454 -20.242628 655.291809
-383.394623 -315.245941 628.083862
-789.337341 -405.927246 547.259155
-570.438904 -369.087463 589.860901
-800.427246 -73.450836 646.069641
-782.944458 -253.795609 597.436951
-485.294403 -280.202911 617.053345
-753.352295 -28.762474 667.339050
-675.162170 -82.326187 661.239197
-708.360779 -478.590027 575.890991
-897.177490 -325.839325 593.985840
-644.083923 -422.432159 551.025574
-505.669403 -323.485657 597.322327
-748.142029 -215.338867 620.818726
-648.832947 -198.562515 621.297180
-832.337036 -72.082771 650.824036
-741.369568 -152.641235 637.866760
-858.952637 -365.351074 528.024963
-565.046082 -437.593475 575.149109
-896.080566 -341.135895 600.443726
-608.534607 -408.441559 577.594177
-918.081177 -247.799789 600.646301
-866.630432 -320.956635 595.527466
-736.746033 -204.592300 623.154175
-624.852783 -115.970062 665.375916
-807.501282 -380.063324 563.199097
-511.649933 -277.107666 622.262024
-494.085449 -371.420837 563.862244
-785.692383 -392.046112 566.636230
-396.564209 -352.734192 619.504150
-734.302734 -343.506073 580.323425
-835.345947 -231.676117 601.992554
-855.632874 -139.456299 631.713135
-651.203735 -286.325073 607.839478
-725.324707 -93.163712 642.723938
-688.523560 -375.293304 564.932617
-655.263489 -138.770294 653.071350
-764.513428 -412.744537 463.811218
-481.923523 -439.458435 576.257996
-869.711426 -250.896667 596.608643
-801.802429 -306.036499 568.990723
-662.833252 -264.086517 605.227417
-925.732117 -208.539841 602.708618
-642.664978 -115.143456 645.636719
-707.224670 -352.165161 567.251038
-622.044495 -256.655884 622.326660
-697.488525 -56.468269 652.650574
-558.896484 -489.119873 557.942444
-666.804443 -129.237656 654.600159
-839.626526 -374.556732 550.967590
-822.064331 -64.662788 653.642517
-708.532104 -353.060120 565.984741
-781.687927 -166.931931 613.596680
-683.586365 -246.228180 617.641113
-537.036499 -459.189697 571.651550
-880.498718 -188.151154 607.726013
-656.659668 -137.380783 650.452698
-489.177582 -254.987366 636.173584
-814.804932 -357.692169 571.650146
-730.379028 -325.219025 575.680664
-800.201721 -407.265717 534.208008
-434.565369 -357.718170 588.107239
-535.567017 -267.637573 626.389526
-466.129700 -380.263214 582.289978
-814.618103 -57.242313 661.922852
-493.621307 -223.986725 638.975586
-560.061768 -397.687317 576.811707
-663.390991 -135.345764 640.130798
-900.269714 -180.277008 609.170166
-814.052917 -274.410309 594.527161
-638.462097 -184.379654 613.769165
-846.013428 -244.889648 600.756165
-715.656921 -464.694946 541.993896
-673.642029 -135.939468 651.181152
-481.015564 -349.311249 591.006104
-841.970093 -320.357056 579.083069
-786.195435 -129.445038 638.966980
-622.119934 -380.669006 586.330566
-834.453003 -239.199219 604.282166
-762.287292 -265.358795 587.503540
-780.860413 -58.425842 646.083069
-672.831299 -411.843781 544.458069
-676.953552 -397.955505 568.766235
-723.724426 -126.764633 646.951599
-647.824829 -330.587433 581.596863
-874.889648 -346.470276 552.118958
-846.202332 -296.148804 586.323547
-788.256409 -240.102173 604.998291
-666.505127 -287.850800 605.573975
-570.078674 -418.762512 573.378052
-812.845764 -124.997635 621.956543
-714.741577 -164.451172 639.089417
-428.992401 -296.806091 609.666748
-603.010132 -403.725494 562.863342
-836.605469 -99.785774 636.109558
-525.553589 -244.343475 608.593384
-536.626526 -286.023438 609.524231
-868.933044 -204.427124 604.682983
-773.444458 -174.670013 623.229614
-537.239075 -243.281677 608.255554
-830.039429 -368.763123 540.103821
-553.960815 -382.298401 582.347534
-640.391785 -87.349319 648.398315
-743.058044 -427.764923 559.750488
-794.633118 -203.056290 617.547913
-793.748596 -400.510773 570.146118
-800.014771 -407.164154 499.628754
-594.383606 -154.807938 640.906311
-893.130798 -285.975067 588.693909
-821.455139 -150.177704 634.263123
-731.866211 -465.783539 541.439697
-743.537292 -206.680786 620.937073
-679.421814 -470.339355 561.985596
-818.684143 -104.376900 614.411621
-825.831726 -116.278801 638.482239
-890.245483 -354.202942 615.648987
-723.621033 -317.272522 593.391785
-758.188538 -343.060944 563.389587
-758.210388 -132.053040 641.817993
-617.683899 -187.556015 623.387085
-842.194580 -120.587807 621.549744
-648.419128 -323.654846 583.911682
-561.462219 -500.968353 543.819458
-687.331848 -181.314743 621.803650
-802.573181 -223.012634 614.746643
-514.644653 -475.718628 561.441589
-726.220886 -462.828766 567.474243
-453.322968 -334.990417 617.690247
-612.897400 -266.337250 609.047791
-762.942627 -439.368591 532.460266
-786.581665 -264.380493 601.645447
-502.767578 -269.037598 629.553772
-644.667725 -437.452393 558.156433
-808.870972 -374.763763 568.419434
-619.891174 -343.666229 583.349670
-540.222473 -504.381927 532.267212
-660.817200 -270.972168 614.055237
-581.576111 -172.118591 643.396179
-655.436523 -344.164215 589.088318
-724.096375 -108.997627 652.830566
-817.222778 -299.367218 587.031189
-504.399109 -335.951752 602.081360
-626.727112 -232.528595 618.696472
-558.794434 -287.221741 617.949280
-634.762146 -382.211365 582.883667
-605.028259 -320.071320 575.264648
-768.824463 -416.394043 510.396423
-563.839783 -445.375397 566.649780
-895.165405 -239.319870 598.323914
-716.449585 -343.172760 579.486389
-805.680115 -204.362808 600.206238
-517.288635 -455.329865 569.148315
-636.234192 -299.367676 606.948975
-599.441101 -479.449005 525.471497
-687.774841 -133.402924 650.570923
-608.855957 -407.315430 572.865417
-898.619019 -188.190674 607.461365
-649.263611 -351.305603 590.396484
-679.534363 -122.978355 641.719421
-758.564514 -31.504347 661.946594
-816.356506 -394.401855 502.340454
-762.715149 -387.917450 562.261475
-404.725311 -343.527679 609.494446
-778.474426 -319.838623 588.046875
-877.855957 -227.071991 603.949890
-750.145325 -63.281548 660.059265
-416.375458 -334.507751 608.429749
-626.655518 -400.461639 566.796997
-813.965454 -204.975403 598.876465
-722.419678 -372.339844 562.195435
-646.722473 -301.546326 608.027954
-579.281738 -394.822479 586.932617
-788.910339 -406.102448 549.354248
-736.823547 -104.156487 626.757629
-802.284546 -161.039536 618.543091
-558.619751 -318.762177 600.594666
-780.279663 -228.109650 601.846558
-424.257813 -283.260712 621.753540
-956.920532 -297.098053 631.236023
-878.392761 -347.829407 549.758972
-750.857483 -452.565887 511.659119
-818.300598 -278.180939 592.764832
-747.503357 -21.164345 667.578064
-713.429199 -413.492493 571.129944
-744.120178 -105.057220 652.345398
-604.621033 -128.855698 651.134399
-922.449280 -262.350677 609.654968
-799.850769 -19.387880 663.711121
-733.979858 -89.000221 631.980347
-793.978760 -176.774811 630.175598
-553.222107 -525.648010 548.649780
-834.587158 -359.614563 563.671082
-817.373535 -212.016678 600.322266
-720.453186 -457.564423 503.821381
-670.226746 -136.544128 636.574280
-630.261597 -201.688583 629.447021
-580.862610 -188.146973 635.879883
-668.578125 -231.816681 624.198120
-756.493652 -414.685669 571.776489
-462.046295 -364.915436 606.732910
-752.189575 -276.758484 591.873169
-768.265747 -347.223785 566.717407
-643.388611 -280.332397 597.102051
-668.156311 -270.701904 613.446533
-517.177124 -258.784149 605.111389
-803.049683 -243.653946 599.687134
-694.272339 -177.567245 625.131531
-612.132568 -217.234482 613.986267
-566.830444 -338.884369 592.257996
-732.126648 -70.953430 660.064758
-644.017273 -372.864441 572.257446
-619.230591 -184.191086 635.862671
-476.029663 -367.954834 605.946777
-751.625549 -335.665039 582.832581
-781.518188 -189.295792 617.188416
-913.621765 -253.020279 577.812622
-687.538330 -177.692429 638.162720
-868.787964 -236.705261 596.275452
-559.654541 -290.441345 603.450806
-687.944275 -186.749191 632.003845
-877.983337 -175.608154 611.703613
-858.109741 -161.645279 620.793030
-578.775635 -415.059479 579.557312
-679.299866 -158.956161 646.687744
-530.838562 -499.551605 571.527039
-559.474548 -232.273956 626.153564
-477.011627 -344.775848 613.427063
-820.837830 -101.126068 637.292480
-545.941284 -224.371857 633.893250
-785.603149 -408.316803 564.146667
-840.214111 -358.609955 536.012939
-567.674011 -221.167358 637.777771
-781.873596 -2.543276 676.838806
-603.750244 -274.354767 607.463440
-751.019836 -438.915863 535.255005
-606.676453 -259.594177 619.499512
-895.023010 -220.660690 591.916931
-908.228149 -198.242538 593.760559
-741.071472 -448.618103 513.790039
-762.893372 -136.462936 626.740173
-636.547668 -422.740265 552.191650
-741.651184 -163.176392 630.857849
-692.654175 -139.686386 644.517090
-690.308228 -411.258850 559.620605
-738.588379 -265.564178 603.742004
-818.455811 -281.289276 576.393372
-804.990051 -311.918335 588.198486
-547.075500 -432.954712 562.725159
-563.328491 -368.310577 591.310608
-674.077759 -119.722099 642.637817
-684.207397 -428.194031 551.226685
-673.295532 -491.146393 543.430298
-795.159607 -70.204460 650.727905
-736.063354 -439.286591 517.520569
-658.767456 -418.570068 563.268982
-756.435425 -279.781403 596.867554
-792.368713 -228.415573 609.448669
-894.677429 -210.968353 600.173462
-677.544006 -449.597168 559.757446
-700.088684 -102.532196 646.725647
-695.920410 -165.810410 632.977234
-524.623535 -300.509308 609.973816
-540.609924 -209.588226 626.113098
-749.808533 -116.955582 621.420837
-873.521423 -348.111206 576.171936
-520.294800 -484.603119 549.624146
-540.300903 -402.917633 570.874268
-860.054565 -218.628494 601.235901
-824.666321 -60.692184 645.364502
-589.753174 -442.290924 548.481628
-673.548523 -81.127029 664.651489
-796.059875 -408.929596 533.371948
-492.174286 -366.806641 596.588501
-770.370789 -226.969727 604.636841
-649.195618 -112.027649 652.239014
-801.654480 -55.709343 645.450012
-502.024933 -371.532928 596.715210
-797.017212 -393.069214 536.912231
-555.259460 -173.138657 644.417969
-485.621185 -337.877686 598.369202
-533.557007 -386.382019 590.514587
-629.502808 -145.384430 649.918945
-679.365906 -340.619537 575.264099
-745.816711 -270.899994 588.010193
-502.817047 -412.185638 583.327820
-604.604309 -287.617432 596.439575
-513.475525 -238.736938 619.181763
-444.614105 -373.770050 606.932068
-823.133789 -148.285156 613.556335
-802.175781 -164.727814 611.631592
-674.609619 -122.204132 646.903748
-687.800354 -424.148682 560.467346
-453.960602 -287.512024 632.745544
-651.172668 -218.059097 618.714172
-492.365997 -289.822815 623.775330
-826.639038 -373.916229 563.822449
-523.111389 -307.030518 612.813477
-765.714722 -310.161133 585.519958
-802.757141 -50.343418 664.916321
-795.935730 -300.152313 588.298340
-464.276215 -374.355469 604.529602
-904.757629 -210.700302 589.374207
-806.959900 -112.381271 625.284546
-727.306946 -475.870392 536.588623
-506.215179 -453.111725 568.268616
-524.505981 -214.911224 643.559814
-913.955627 -223.785477 589.810181
-813.383606 -145.849350 633.186462
-814.565918 -154.775696 612.580322
-746.418762 -165.558151 637.660583
-521.651489 -352.721771 586.863159
-649.054443 -343.412445 592.647217
-889.117493 -349.018005 560.851379
-792.183533 -392.284027 482.191223
-862.394531 -360.250793 542.843262
-776.156799 -422.961090 532.890564
-869.103638 -344.792542 573.616333
-432.551331 -341.528748 606.749695
-756.939758 -266.591431 605.232056
-612.270752 -297.282745 595.406677
-509.029816 -308.997253 584.026123
-655.156921 -223.455795 618.746948
-595.360474 -341.785339 596.336975
-727.053650 -373.721039 563.146667
-726.490967 -98.294601 635.315369
-662.414978 -125.497864 622.131042
-773.634399 -423.406311 534.380371
-689.166931 -332.325348 583.639099
-783.482422 -198.830887 610.914978
-510.891663 -397.564484 575.027222
-911.638733 -337.323303 595.871765
-824.580688 -188.474274 618.514038
-707.385071 -284.684814 590.852966
-793.390320 -377.081207 579.327454
-723.148010 -166.283386 624.274902
-871.713257 -204.530945 602.192749
-461.965179 -265.631409 625.091553
-564.431030 -253.429794 614.120789
-838.051331 -150.855545 604.210876
-764.330750 -50.019703 656.929077
-559.586182 -457.160797 553.569519
-691.081787 -206.646683 623.316162
-878.878662 -148.060394 607.188721
-542.260254 -299.248138 608.277161
-525.585510 -441.731903 557.493652
-828.631958 -127.223564 626.379211
-740.870117 -39.621468 652.297668
-572.444580 -247.513733 625.428406
-626.384155 -332.719574 600.626160
-794.722717 -265.466736 596.997681
-790.363159 -157.840424 605.006958
-567.401367 -319.070618 594.297058
-597.470642 -222.512787 623.808105
-764.847961 -231.485123 603.278503
-876.033813 -119.325119 632.252136
-851.923645 -122.251122 621.152466
-883.550964 -357.292816 589.751099
-499.696136 -283.953003 624.896301
-529.036255 -194.628769 644.085449
-811.390503 -345.748474 572.599426
-748.303467 -204.115555 613.066711
-637.890686 -231.320038 599.696960
-613.150330 -404.099182 574.748596
-521.581787 -461.694275 567.714722
-654.868408 -319.253571 582.160095
-578.729675 -355.836182 593.064026
-555.706848 -272.799835 594.669617
-808.138855 -375.712860 471.286560
-563.857178 -454.094879 563.506653
-794.841248 -180.063858 616.628784
-860.040527 -257.215942 580.550232
-795.276306 -397.337189 551.200500
-694.621521 -282.217346 597.477844
-532.851990 -260.809296 603.739441
-735.005615 -346.040680 569.449280
-751.641785 -223.738586 608.787354
-882.444885 -358.355133 562.542664
-847.076294 -353.218750 498.001984
-712.838440 -108.383041 648.127258
-751.039246 -138.967331 631.525574
-801.122314 -386.037659 509.089722
-774.753967 -66.617981 649.789856
-610.550232 -332.686127 569.972534
-547.413696 -341.489441 601.959778
-667.605957 -335.902832 577.710571
-750.723877 -32.471165 675.374817
-557.424072 -464.586121 564.500183
-692.070313 -363.253662 573.713623
-685.939453 -479.400696 530.589722
-828.212402 -364.887909 544.577271
-623.265259 -331.863739 586.923401
-501.062347 -246.724869 630.339966
-575.089233 -431.934662 562.230103
-597.664063 -486.111267 541.124756
-520.429871 -218.163361 634.554810
-753.502625 -163.885605 628.622925
-675.297546 -252.096085 609.260376
-483.381775 -310.768890 615.083374
-724.934998 -207.517929 624.031006
-906.451782 -261.851166 586.774658
-504.750122 -250.227554 629.192627
-501.018188 -257.945435 589.763123
-707.625183 -475.123352 576.000244
-827.251465 -245.564148 594.323181
-607.024231 -139.966141 633.238159
-735.786377 -164.586914 637.095947
-698.261658 -470.841980 578.833130
-805.635437 -64.131767 656.079834
-780.300720 -76.946579 655.660583
-795.438110 -399.582550 504.758453
-716.746277 -97.971588 654.396179
-665.308655 -249.699127 618.830994
-679.225281 -381.324188 574.270691
-617.107605 -377.759277 566.336060
-699.210938 -277.502655 593.950745
-649.151428 -327.436127 582.982361
-805.319458 -200.495148 605.892151
-515.402466 -321.760162 586.317993
-791.761230 -112.757782 635.304749
-475.083435 -254.586411 619.005066
-414.067535 -340.775818 584.394043
-671.160583 -260.940643 605.269836
-744.653870 -437.701477 480.711487
-737.859192 -45.098244 667.511780
-852.960510 -157.279816 629.131531
-797.192322 -268.520691 572.685059
-818.383972 -87.323914 641.745422
-823.312073 -158.951736 618.968994
-595.043335 -434.586517 552.331360
-933.858032 -270.493042 603.717285
-567.222046 -472.293396 529.285400
-475.702667 -364.287750 589.507690
-774.002258 10.959679 679.177856
-910.072937 -343.314331 617.325073
-783.016785 -155.325104 637.411743
-548.451721 -283.222473 596.255737
-543.970276 -242.197662 623.837280
-656.673645 -115.642052 651.127808
-481.255493 -269.262146 619.360535
-939.415161 -202.462875 600.190674
-629.380859 -121.628540 650.510559
-563.856628 -315.188416 595.832642
-550.229126 -417.770386 563.140442
-758.193481 -423.114227 485.344696
-723.001709 -54.401756 654.895996
-813.890625 -376.496216 524.923523
-841.401001 -371.906067 512.581543
-561.297791 -413.665894 563.221863
-850.521118 -188.091843 605.675415
-460.780334 -403.917053 599.917297
-785.198486 -53.561623 654.549500
-718.358276 -146.174118 633.297058
-917.470459 -205.867874 609.348816
-792.270020 -119.467155 640.687378
-668.999634 -89.321922 658.998657
-586.827820 -354.420898 581.727600
-759.147949 -828.161987 468.925323
-591.343445 -190.321075 635.261353
-910.849792 -162.071793 611.738708
-705.605347 -281.649780 576.365662
-882.888428 -138.097870 620.558472
-877.643250 -175.479782 616.897888
-840.868164 -366.100952 548.294678
-487.297852 -284.299835 616.228271
-748.442078 -143.817612 630.322754
-808.268066 -345.567200 579.302307
-749.492310 -95.497421 648.584473
-663.028381 -191.005508 627.330261
-565.574402 -210.378510 626.713013
-539.878662 -475.608521 557.675720
-520.077576 -369.115448 583.087646
-725.157837 -391.094330 559.917603
-527.315674 -421.883179 574.149353
-767.474426 -166.429932 632.566528
-705.712952 -120.368668 642.541504
-654.733398 -290.152405 606.032959
-652.814453 -396.298248 560.061646
-857.493164 -329.942535 589.703247
-823.714050 -248.364243 586.204712
-504.771576 -345.084930 606.124023
-442.487061 -318.010040 606.730835
-849.939514 -365.577698 511.184540
-594.739990 -452.156921 559.600281
-779.435974 -245.293915 591.262817
-551.392639 -228.498642 598.638184
-772.305115 -249.586014 604.487915
-543.289246 -430.127930 561.978210
-493.089050 -359.859344 586.633728
-746.062378 -312.477386 588.102600
-493.908722 -245.097488 605.557495
-708.637207 -118.158363 636.164368
-437.078400 -303.169647 611.253662
-573.256897 -326.410858 590.476440
-480.775635 -368.659332 584.979065
-838.590759 -371.138306 502.541138
-560.200317 -242.023178 607.958862
-646.372681 -108.212456 654.145386
-638.599487 -297.379211 592.727661
-543.976990 -418.357208 584.776794
-471.752411 -402.280884 595.894897
-947.189880 -209.511902 595.459595
-826.848999 -379.898621 495.930725
-519.586304 -338.243896 606.811279
-611.123596 -272.417511 615.653992
-929.910889 -322.815491 621.197083
-829.424927 -375.425323 541.253296
-752.410339 -184.668549 620.148804
-850.274292 -348.926575 539.622314
-804.452332 -244.937637 596.853882
-513.469177 -416.374725 566.279236
-851.274536 -293.655853 577.995972
-808.040894 -147.099777 623.234924
-759.748962 -245.027084 600.368530
-741.995667 -210.197708 616.285034
-804.900269 -383.128296 577.046570
-654.769043 -389.106018 574.453369
-636.171204 -358.718506 591.649841
-654.393799 -151.900711 648.751099
-597.576050 -322.022949 593.615967
-825.845276 -160.319702 618.436768
-699.619751 -72.223160 663.649536
-868.707947 -209.853546 605.282166
-563.129333 -288.977478 606.976746
-446.359283 -384.508331 580.020081
-602.429749 -200.028198 631.965393
-764.067017 -297.644958 575.832703
-801.336304 -408.433533 528.519592
-760.777710 -101.572975 651.395142
-556.580261 -393.118713 572.007507
-546.700256 -373.230286 597.620300
-743.676636 -105.084496 641.822510
-485.280579 -266.494843 618.959778
-582.274780 -474.882568 533.871399
-836.945251 -369.678009 543.521362
-403.093384 -361.630890 617.141418
-796.719177 -410.459351 532.792480
-958.399292 -290.476257 626.754150
-728.975342 -344.661346 565.629272
-658.794373 -337.994385 590.856384
-785.315063 -372.044678 564.918762
-529.585144 -386.904510 578.899902
-799.076904 -257.608002 583.872314
-669.483643 -125.098572 657.719971
-809.693420 -328.497833 574.503845
-967.688477 -273.866608 629.524597
-372.124817 -324.977478 610.038513
-848.757507 -185.638458 614.058533
-754.273682 -235.525223 611.809021
-731.488953 -213.517105 611.988831
-811.370483 -127.205772 637.957458
-429.422119 -338.655640 603.955078
-711.578735 -93.485786 644.234863
-833.236023 -366.773376 563.853271
-590.238647 -256.486511 612.992493
-853.575317 -131.040176 632.871460
-910.389160 -204.430603 600.262878
-625.739319 -275.338257 618.546570
-837.815491 -182.687256 614.066162
-828.294434 -125.389244 627.000488
-897.386475 -177.584778 612.490051
-577.550537 -209.099289 632.152527
-759.666687 -179.419815 628.395264
-419.331085 -332.894867 588.891724
-735.332947 -131.744019 640.880371
-872.934021 -292.845093 596.960388
-781.667480 -167.133255 634.041687
-681.834961 -482.116852 566.448914
-531.185730 -386.585449 595.773621
-667.446655 -284.648254 595.444153
-483.932953 -383.290985 583.294556
-665.343506 -196.870972 618.987793
-827.897522 -148.263763 619.570801
-777.141235 -244.046921 610.295288
-738.571838 -206.554871 626.282532
-732.974243 -132.543198 640.084290
-809.427551 -378.927551 524.248291
-610.021667 -417.349304 556.957764
-681.537537 -218.805710 615.555908
-817.146179 -161.126511 618.905945
-803.666321 -56.041771 652.670898
-746.326660 -262.748962 599.317566
-785.755981 -380.471039 550.078003
-708.957764 -477.230042 542.592102
-553.555969 -249.691986 626.900940
-759.779663 -270.408478 591.401184
-728.544739 -253.651459 609.196594
-764.211609 -249.274841 598.575806
-716.083191 -313.173126 582.263428
-806.565491 -392.215271 546.712952
-800.937378 -135.370758 637.468994
-724.370422 -128.510452 642.589600
-755.138672 -438.692535 520.603271
-715.045288 -484.977142 569.112732
-855.985962 -260.730286 579.616699
-613.317749 -166.530518 629.093384
-923.518433 -206.525497 605.459106
-813.933411 -392.142151 487.653992
-671.337341 -125.635719 646.043823
-575.796875 -344.087097 589.510925
-516.633118 -259.066010 589.710999
-643.325806 -291.304626 609.091492
-743.874878 -456.946716 520.624817
-832.494568 -110.267227 633.236145
-586.368103 -188.722427 643.701294
-687.149719 -182.712219 624.634827
-496.859070 -230.947861 627.318909
-742.755127 -188.140961 621.673828
-751.377747 -149.805573 637.122986
-493.854309 -364.101959 599.754944
-462.276672 -311.792053 591.673706
-688.719360 -450.528473 560.135986
-757.822937 -266.212769 596.751099
-653.804138 -355.844025 576.138062
-650.897522 -256.871979 618.496033
-529.194946 -260.217407 629.295593
-521.564636 -246.172165 639.991211
-453.988831 -315.418457 621.893066
-820.022461 -173.503876 624.956726
-635.553101 -298.789520 599.275513
-674.377136 -119.438400 638.976746
-495.462616 -440.031006 552.732910
-679.345886 -406.108704 556.653748
-501.737640 -437.198975 574.233643
-670.579895 -410.652100 552.804871
-770.312256 -419.709137 516.873962
-601.160217 -361.168823 594.617859
-432.629517 -346.530640 611.753296
-820.457214 -387.271423 540.709290
-790.168945 -400.049347 531.418152
-645.561218 -120.446465 650.344238
-851.409424 -347.054382 575.620300
-588.216309 -442.280396 535.371460
-627.234192 -339.707001 593.491638
-645.968750 -347.642181 579.395508
-884.647400 -190.830353 606.769226
-897.049561 -327.688904 592.433777
-834.560730 -350.875549 580.773621
-767.364563 -423.418030 548.384766
-838.221558 -237.622360 607.250610
-918.915955 -240.048752 599.625366
-506.191345 -231.450089 644.317993
-563.570313 -270.509644 622.560242
-742.037354 -323.267120 575.861755
-621.350342 -224.705505 631.265076
-830.602173 -203.229111 609.799805
-808.281067 -289.927032 586.815613
-672.878479 -233.065933 611.139526
-592.384094 -305.517670 600.725525
-744.822571 -199.442535 624.495667
-799.537231 -138.819061 604.326416
-926.266357 -311.838043 592.917542
-863.679504 -242.289780 593.687927
-742.650940 -26.100552 678.734619
-488.577606 -270.139099 617.524536
-766.840820 -62.253468 661.580933
-572.206848 -158.821457 647.529419
-687.531433 -510.020569 580.511597
-499.974609 -426.978180 553.580078
-740.428589 -108.952301 651.766663
-784.060059 -47.964733 647.105774
-611.457336 -231.372467 632.778015
-535.897217 -226.210800 645.763794
-739.692322 -248.262070 600.418640
-834.647522 -311.370728 583.625488
-896.574585 -326.207916 557.081177
-658.349854 -223.120987 612.589478
-488.142822 -410.785217 569.298462
-781.234375 -101.914085 645.107361
-668.953308 -197.457733 627.486511
-399.234894 -309.555756 640.236938
-559.463867 -236.464172 619.441956
-453.409424 -346.892395 607.883545
-695.369690 -140.548523 648.474243
-842.756592 -217.541000 603.769226
-833.978333 -361.908325 531.588013
-836.853699 -248.491074 574.109009
-816.478271 -128.785461 634.288757
-518.378540 -359.728363 575.218811
-438.971405 -319.764679 602.871704
-696.752197 -159.508484 644.680054
-691.721191 -353.844604 557.034546
-460.858246 -251.886551 629.726135
-553.344604 -185.318756 641.888489
-513.973267 -243.502045 636.620300
-655.610168 -343.321777 579.489075
-623.900574 -290.595581 590.506836
-837.560059 -197.504044 606.891418
-789.837830 -157.510712 631.289368
-689.915405 -267.872528 609.305481
-838.809509 -342.898102 589.388306
-685.898743 -208.606232 613.988831
-771.632202 -412.804871 492.643066
-664.920044 -387.912994 560.948608
-882.267517 -216.460175 599.501892
-724.241272 -113.561729 652.442932
-630.906799 -177.421234 643.520081
-486.199738 -398.103363 588.688110
-713.170410 -302.869354 589.335144
-561.199341 -288.971405 605.783752
-790.258179 -111.076706 629.640564
-910.312683 -226.461975 594.568359
-585.981812 -367.360626 590.673767
-693.972839 -278.066528 595.808411
-818.707031 -231.395889 608.857300
-849.562195 -239.431641 605.285889
-802.463257 -113.698616 646.818237
-790.732849 -92.998268 641.623779
-911.744690 -182.236343 616.331726
-602.992676 -162.672852 649.941956
-826.223145 -117.655609 640.173950
-877.622742 -206.423904 606.049194
-594.753235 -291.127838 612.862122
-654.876770 -393.143921 578.811707
-627.194214 -423.635071 554.456665
-542.019348 -307.193329 601.370239
-685.203247 -150.294754 648.612671
-616.366821 -233.161163 625.954651
-438.977936 -374.621338 593.439148
-769.293030 -228.447403 612.501343
-590.552795 -276.229492 604.512085
-446.882751 -327.296112 599.804077
-572.610046 -163.240494 656.577454
-618.164307 -404.976929 560.795471
-525.856262 -297.028503 620.044556
-416.484772 -318.920319 622.043213
-886.892334 -348.238464 571.787903
-670.315247 -241.274414 614.452942
-493.136108 -361.211365 575.317627
-496.693542 -249.659973 625.372314
-803.691040 -190.759613 624.946716
-737.048706 -312.867737 583.106201
-940.181763 -234.141220 596.164368
-828.998352 -241.970505 594.559814
-877.788330 -355.124268 558.937927
-592.890137 -398.534637 571.205383
-855.947632 -370.810089 510.895752
-555.501099 -350.894684 577.340393
-625.143127 -187.531479 630.949768
-779.004333 -249.544937 597.208679
-580.155090 -380.741272 573.784546
-795.736633 -332.042114 575.592773
-780.322754 -217.648621 612.695984
-572.857910 -320.486267 598.143250
-627.791382 -197.071686 625.764893
-510.666229 -282.497498 625.849976
-517.757263 -371.997955 580.406555
-474.752258 -277.174194 616.012695
-770.900940 -428.679596 528.301392
-668.371521 -439.723114 540.030396
-873.214539 -209.983475 601.950745
-697.495239 -222.056976 614.531006
-903.041992 -178.476715 603.168396
-452.128754 -271.260315 622.467651
-873.532898 -240.449768 601.671631
-635.942444 -193.080811 611.800537
-381.373962 -322.780212 612.968811
-812.804504 -227.861496 582.391602
-501.766846 -305.979919 605.019958
-813.827698 -389.120483 551.122314
-596.056335 -244.137482 615.503906
-588.363586 -218.157578 624.275452
-735.730835 -39.128967 666.582703
-593.095276 -276.498199 600.659607
-596.055847 -209.842102 625.783936
-448.800659 -284.958618 595.254822
-760.990112 -381.751984 574.225708
-699.605103 -209.971161 629.366760
-670.991455 -244.766235 622.473938
-774.858459 -425.904114 491.804901
-584.242371 -177.639496 610.239380
-502.660156 -339.629974 605.552490
-568.881958 -336.243256 588.051147
-845.789307 -175.841232 615.999512
-826.959045 -229.069550 605.969971
-837.715881 -202.539429 609.687317
-706.545349 -99.722054 658.355530
-868.141846 -180.071198 610.525146
-672.258728 -137.149673 646.030457
-710.299500 -312.732391 581.824951
-908.117981 -212.586197 598.856445
-618.399414 -177.728790 610.292236
-812.585938 -205.400452 586.127808
-794.940918 -185.717117 613.470642
-425.136780 -287.035034 623.507629
-611.968140 -250.605972 610.810303
-777.481445 -82.157219 650.944031
-806.386475 -154.332870 613.861389
-831.153564 -379.331757 496.363312
-621.607117 -505.415100 557.236145
-756.921631 -195.087631 623.370728
-653.492065 -141.335587 649.993652
-682.816895 -75.934113 661.160034
-614.812866 -272.891602 608.976501
-762.749634 -198.011337 613.531372
-714.982666 -396.183594 572.284180
-395.073212 -323.438293 627.467651
-443.492554 -370.576538 576.771179
-460.547699 -371.680756 597.719666
-671.390747 -170.901016 631.867798
-598.160400 -381.439728 576.517212
-610.863098 -328.478851 585.803162
-601.430725 -155.618652 642.118774
-818.895813 -376.690918 541.498901
-487.516327 -306.450562 604.920593
-720.174805 -256.324219 613.798950
-812.518677 -286.140900 577.151672
-797.737793 -342.723907 575.244568
-504.439667 -361.823883 601.052002
-723.349121 -68.534782 650.314087
-500.611816 -403.763550 578.731934
-484.412933 -302.276611 620.544067
-478.373352 -244.508377 631.168945
-590.093140 -346.705811 582.850769
-749.184753 -121.196686 647.155884
-444.814941 -364.582245 609.943115
-522.507263 -269.778839 614.394470
-712.520630 -208.466202 617.743958
-939.078918 -262.271667 603.895752
-681.575745 -130.733124 647.414246
-786.640076 -101.798859 651.549255
-689.340454 -249.226425 610.498535
-495.466522 -317.129730 608.063538
-791.948547 -153.499054 635.494751
-652.633789 -234.742981 614.802185
-679.599487 -136.843399 639.020691
-710.468872 -156.219376 629.034180
-664.525940 -401.130432 557.209473
-759.979126 -73.912689 643.418579
-626.191345 -200.995178 637.498047
-472.344482 -302.762299 612.827271
-678.697571 -261.837921 602.007202
-490.369293 -321.399475 602.201904
-742.004089 -314.493286 577.973877
-785.025085 -213.661285 600.599670
-695.132690 -329.530090 582.062500
-728.640808 -443.591797 574.686279
-739.532288 -66.566734 658.108521
-752.465515 -264.898285 577.237244
-673.517944 -206.962830 624.592590
-633.661194 -133.677231 640.009094
-659.079468 -382.169647 562.762512
-641.331238 -251.606964 609.688538
-557.931152 -457.100647 566.696106
-757.748535 -147.629089 637.049500
-800.688538 -407.786713 562.431946
-758.436951 -56.774536 665.748047
-770.878418 -57.119240 661.627197
-551.194946 -293.253632 616.836121
-754.775513 -363.930450 576.798767
-448.852600 -313.010559 603.736572
-510.352173 -246.218338 623.487427
-492.402252 -286.243164 602.417114
-874.929321 -224.537903 599.698425
-961.433777 -258.945587 615.561157
-728.587402 -222.464828 616.041382
-707.731201 -100.847725 650.440186
-794.112183 -122.567085 639.553223
-871.670166 -216.567612 608.337524
-461.067535 -333.297089 617.223145
-778.383240 -392.338165 569.742798
-620.333130 -182.558441 628.700195
-829.248352 -263.914001 586.748230
-759.797791 -41.219517 668.337891
-550.396179 -212.152405 642.115112
-784.033386 -148.328720 632.474304
-665.372498 -446.482361 547.184998
-701.036499 -220.098846 623.265198
-827.472412 -242.799637 591.829285
-697.352905 -398.426270 555.757751
-853.916016 -247.129028 601.029114
-794.021240 -160.596832 619.713501
-646.790955 -482.321991 548.098755
-702.875000 -263.523773 594.997925
-584.326538 -290.508759 592.359314
-699.620300 -418.265320 558.894958
-586.362915 -390.717133 575.357056
-483.485138 -409.482819 592.800293
-735.107788 -232.059586 619.243347
-824.127197 -214.842758 605.278503
-872.388245 -148.868988 625.957581
-507.570953 -259.832581 637.176208
-800.495972 -391.765930 485.130127
-618.196350 -374.088165 570.517944
-821.607849 -259.736145 590.438232
-716.370850 -122.360626 638.061707
-618.615967 -230.075180 632.497803
-865.698303 -359.993073 538.143005
-757.645508 -49.823738 662.178406
-637.699768 -311.416626 588.661316
-855.500854 -125.692474 634.384216
-803.364136 -125.317505 624.173157
-523.550232 -415.117554 578.875061
-853.244385 -118.314674 629.626343
-630.111877 -263.435211 618.090271
-618.295410 -328.940491 584.878845
-441.491974 -386.241974 601.448486
-738.797791 -137.186783 632.771484
-617.208069 -399.852661 563.696777
-790.994873 -219.875046 607.840393
-711.948059 -46.302792 656.517639
-747.372925 -115.810333 649.574463
-585.270447 -321.850647 582.430725
-637.925781 -220.380692 621.131287
-606.391296 -411.204926 550.633789
-760.012878 -98.681480 631.007813
-700.399048 -118.329590 653.233643
-548.487793 -248.886917 621.540222
-760.189758 -427.987000 531.696655
-753.972595 -69.702896 660.585083
-784.102905 -187.923157 593.190247
-593.180908 -350.323029 595.390381
-719.528625 -226.855881 609.964966
-603.524414 -404.971649 552.592346
-553.544373 -502.414490 528.866455
-722.350830 -335.405640 574.009583
-529.190491 -413.613770 568.997437
-683.633057 -250.093246 601.958496
-875.178650 -356.708954 555.450867
-781.036072 -55.952274 663.340942
-600.522400 -397.890808 564.849854
-783.565613 -403.335907 550.381714
-597.718079 -343.049072 584.983521
-693.536255 -97.908951 651.619141
-525.550964 -452.456024 566.701904
-657.464844 -377.707642 583.028625
-902.791626 -336.019470 615.763245
-747.096008 -321.992767 577.070374
-559.257813 -194.751846 633.666992
-810.791260 -342.712921 569.139221
-885.771912 -141.459717 625.655823
-444.949646 -390.482574 599.879761
-677.449402 -87.409500 638.881348
-876.615784 -341.991852 528.994446
-795.457397 -394.436218 524.027344
-608.494690 -369.329956 590.156128
-697.888184 -205.036102 623.379883
-439.372345 -354.755035 608.795837
-490.962219 -403.460815 593.718872
-787.438782 -272.344910 599.027039
-861.042969 -340.515289 586.518311
-770.557983 -124.075478 640.788391
-717.690247 -292.388580 592.023132
-725.320740 -340.643951 567.678772
-620.880920 -372.446930 563.524414
-669.561401 -118.836967 660.436951
-701.921814 -291.065369 597.327393
-557.516663 -332.608948 596.421021
-698.120300 -332.640533 580.355652
-554.089844 -427.617554 559.208252
-515.061829 -204.273682 647.054565
-904.121826 -319.036743 609.054138
-739.691956 -435.974945 569.661743
-666.947571 -140.988693 651.429199
-807.258057 -404.759216 516.833984
-587.182434 -187.452423 649.685120
-815.863037 -100.170723 628.185608
-795.514160 -53.438614 662.008667
-827.347717 -383.781891 511.244904
-606.970093 -180.645187 644.447021
-541.307922 -260.992676 618.687622
-739.441895 -441.605621 493.582123
-480.817352 -279.711334 614.965881
-559.942017 -304.408325 615.195251
-770.789612 -59.725201 642.397949
-923.495239 -296.569885 597.623779
-804.333313 -381.369934 567.900940
-716.810364 -129.469650 651.266113
-491.867615 -316.083618 620.738464
-637.300171 -366.582153 583.824890
-597.581848 -523.282227 552.161438
-858.422546 -343.758087 520.217712
-638.756042 -355.520538 577.390137
-933.533508 -278.754181 597.188416
-723.791199 -75.163635 648.444458
-650.830811 -93.554504 658.327881
-447.189301 -293.985931 613.955811
-719.319946 -149.383133 626.915588
-736.897217 -137.419876 644.015930
-693.904358 -184.078445 627.332642
-474.390991 -292.345581 601.668884
-667.949829 -495.319885 571.168579
-879.314270 -231.888138 596.161377
-654.399048 -129.669647 646.473816
-772.086792 -51.128643 647.598083
-519.976501 -219.659851 621.362122
-711.721802 -260.681091 611.804016
-735.583435 -332.520447 573.054260
-608.862793 -380.830505 561.220398
-892.909363 -246.674728 589.297058
-721.271179 -356.050812 577.249695
-706.811646 -490.907501 555.643005
-702.780640 -227.028931 612.940491
-798.553040 -99.807510 631.175232
-822.928711 -382.790588 493.710693
-434.612366 -378.134460 604.834290
-803.523804 -399.297333 553.835449
-510.684814 -365.223724 576.277100
-721.030396 -372.528503 558.973389
-819.896606 -380.172485 520.563721
-723.534119 -487.752991 586.302551
-820.773438 -380.885925 543.975281
-806.336487 -122.794228 637.163269
-810.603149 -126.343201 635.828735
-742.507385 -422.216034 571.887878
-724.072998 -228.027374 605.957886
-803.859375 -294.920166 584.509460
-826.319397 -365.576019 563.826172
-807.159119 -164.632095 596.995972
-838.261841 -202.128845 599.687317
-527.994080 -198.959427 638.948486
-761.567200 -76.058891 658.157349
-609.925293 -193.409119 635.075867
-513.763000 -241.711304 636.683960
-439.098785 -334.289642 596.411865
-639.886414 -187.016586 633.154907
-733.753601 -299.240326 584.252747
-755.528870 -120.023010 647.390137
-550.887329 -206.492493 634.646057
-771.522339 -21.079538 671.937317
-811.360107 -392.250763 520.128906
-768.721375 -139.725830 612.185913
-662.782410 -86.165184 659.354980
-630.519897 -100.632156 644.346619
-437.894287 -319.153503 593.133423
-748.040344 -130.783539 638.112854
-572.504761 -302.276886 589.512634
-775.028015 -96.788826 649.140991
-608.931580 -250.292969 613.297913
-863.679871 -229.933090 593.181641
-890.170776 -258.349579 586.292969
-727.150330 -456.602448 544.397705
-871.271912 -267.979065 570.218140
-797.599365 -403.372559 538.532349
-420.007660 -358.832703 595.963379
-755.472595 -434.717010 497.679657
-776.605225 -200.553177 590.627502
-681.073914 -339.744415 592.302490
-513.886169 -234.143570 638.935669
-689.530212 -77.384666 654.698730
-506.110504 -333.899231 596.539185
-392.963531 -304.579834 620.210144
-856.820374 -355.609375 533.481323
-484.419983 -294.675812 608.255554
-709.071045 -51.891106 658.078918
-656.245850 -141.840546 638.915039
-882.625305 -285.566711 597.317505
-775.703796 -154.028976 633.642883
-784.212158 -421.157318 487.002808
-793.421814 -186.162003 620.919678
-722.954224 -163.613129 631.866943
-574.041626 -365.495056 579.149780
-494.674774 -334.654053 614.890808
-620.550232 -211.348999 625.534607
-766.419495 -223.917404 605.955261
-850.928101 -359.789368 501.880615
-863.108887 -363.072906 547.849121
-856.708252 -358.985596 550.548218
-615.252380 -339.121094 594.881836
-811.847839 -401.066925 498.886353
-434.860382 -316.014282 609.437256
-423.674500 -301.134125 614.872986
-452.046021 -328.995270 616.431030
-736.459167 -99.599823 652.308411
-656.258850 -461.291809 557.226440
-755.840637 -294.973511 596.517090
-872.686646 -204.265305 594.149048
-777.551147 -406.081848 561.117065
-890.017090 -323.410767 611.411072
-873.162903 -348.635193 530.646545
-677.100220 -341.715118 575.427429
-533.053345 -194.963791 633.592712
-818.673462 -33.875450 661.904053
-528.556824 -348.596283 588.512817
-741.203003 -368.261749 570.234253
-776.018127 -213.817261 616.182556
-892.992188 -196.266479 604.869202
-766.777649 -315.885773 568.818542
-711.545227 -123.597504 649.692139
-582.601440 -221.635330 613.343872
-607.624817 -215.979752 606.331055
-810.129333 -79.060783 644.352295
-499.529633 -335.263000 585.898315
-410.179993 -333.023407 605.532776
-704.434509 -309.755646 595.047241
-740.200745 -323.286194 584.922791
-691.039368 -257.991730 598.891113
-731.326538 -262.858002 600.628418
-612.904724 -365.637390 586.747925
-735.628235 -419.364716 564.795898
-882.989258 -229.996902 594.178284
-868.774231 -151.530884 621.696655
-860.701294 -354.682129 528.079224
-625.709106 -421.086914 554.570618
-704.215027 -121.886322 652.268738
-753.294922 -157.008759 631.012512
-646.474609 -141.105118 649.792786
-634.469604 -113.636841 639.686096
-607.174500 -161.730225 637.473206
-680.494019 -395.940033 569.103943
-737.766968 -440.832397 509.100616
-788.528809 -188.580429 617.049255
-702.440063 -187.583847 634.024292
-809.061462 -181.844040 627.126526
-703.601257 -182.051468 628.644592
-552.640381 -509.795959 545.961304
-529.954041 -455.065826 571.618591
-831.633606 -361.091614 579.540039
-732.972351 -262.594482 597.107971
-542.340881 -211.593414 636.997070
-443.177307 -364.149323 591.750854
-693.182190 -186.008911 628.585693
-772.122253 -344.096130 566.744446
-773.371338 -151.972992 631.968018
-493.299255 -227.550873 634.375610
-561.550842 -203.096451 643.789673
-818.419739 -317.134949 580.067078
-472.683319 -253.995956 645.656494
-534.043396 -215.049393 627.379211
-882.170349 -352.728943 583.036133
-800.286316 -174.325577 625.957458
-542.368225 -193.847702 641.356812
-662.235168 -204.637665 623.217773
-868.992004 -271.078918 580.038574
-667.576965 -212.554642 632.557373
-515.434387 -289.973175 618.130493
-672.853699 -156.148712 645.423096
-818.128845 -265.325592 593.379761
-421.451263 -305.668793 605.460388
-598.678528 -523.789795 548.245178
-695.458740 -265.713776 613.837769
-849.595154 -133.716812 633.759460
-700.223145 -174.585999 608.758789
-818.524109 -311.507019 575.012451
-788.960083 -217.534393 598.852112
-694.567261 -199.024841 631.318054
-722.146973 -203.071014 622.136230
-526.924316 -467.923340 563.539246
-643.548279 -285.479980 608.827271
-710.677002 -169.229736 622.142273
-474.949402 -288.411163 592.388794
-654.697327 -221.029755 630.239014
-648.025574 -205.028091 626.960693
-397.270874 -342.932281 620.507996
-463.671204 -289.613068 603.418030
-865.106262 -349.599396 560.284729
-868.369995 -360.134308 527.987610
-863.893982 -131.784317 630.245911
-535.583313 -312.206299 612.689636
-726.607727 -286.952820 573.386597
-847.627014 -361.844177 526.811401
-572.305847 -330.189667 585.228333
-390.604828 -302.129700 629.285950
-721.196228 -203.817276 625.759644
-710.612000 -124.852104 638.953491
-591.430664 -196.325851 642.143616
-712.833496 -103.334488 655.729797
-662.369934 -115.643669 651.774902
-796.169983 -100.051689 638.078308
-686.431763 -285.596466 599.728760
-726.685608 -104.905029 653.957397
-482.918579 -369.239258 603.296570
-674.166931 -268.784546 602.428345
-718.155518 -352.085114 571.078247
-669.866638 -297.728790 586.393250
-797.603149 -172.796356 623.353088
-582.037903 -262.459015 609.043823
-720.241516 -382.698730 569.637573
-722.096008 -453.716187 562.084351
-713.642578 -169.728500 634.331726
-779.602722 -284.211975 593.545776
-731.901550 -343.688629 586.014404
-828.663147 -354.467102 570.291382
-693.001465 -107.135468 658.669861
-782.079102 -68.261841 653.867737
-463.617645 -324.314178 604.847046
-637.182922 -246.542587 610.006348
-765.459595 -436.042297 503.428406
-727.366577 -33.823589 671.261108
-584.861450 -494.116150 550.138367
-914.119141 -315.981689 582.603577
-886.638672 -307.431671 593.836731
-738.461975 -393.356567 567.511169
-704.535767 -104.335258 649.706909
-857.713135 -355.630127 563.632996
-659.025513 -293.881622 606.067017
-823.981750 -384.387085 540.970825
-550.389954 -494.122894 546.205139
-489.343903 -228.539047 619.942322
-830.517456 -270.414246 576.462219
-865.933350 -170.814117 612.765564
-689.438049 -439.393921 554.341553
-896.371704 -233.110428 584.617126
-858.069580 -112.611092 636.224609
-840.939148 -214.337708 601.700012
-671.066101 -355.670319 588.269470
-706.053711 -467.442108 502.047516
-563.045715 -424.601013 548.817810
-520.236511 -491.939789 570.696716
-496.027740 -249.454010 625.110229
-514.505188 -303.722809 603.296692
-830.253235 -303.824097 580.697388
-915.427002 -314.157471 597.389465
-711.664551 -477.363312 547.574951
-845.124512 -134.015289 625.492798
-714.232117 -253.962158 610.629639
-791.399170 -262.653442 603.139587
-710.436646 -315.207642 587.454346
-849.162659 -295.482422 582.662781
-705.341675 -400.357269 554.997131
