ply
format ascii 1.0
element vertex 1417
property float x
property float y
property float z
end_header
-41.845402 666.395569 -505.493958
215.280121 834.043335 -424.527130
234.796371 815.448120 -634.258728
153.303116 726.203735 -741.756165
78.073624 777.572754 -423.764374
98.674797 727.126465 -653.387512
182.428009 828.575500 -400.726410
52.501331 729.649414 -602.629822
-71.866463 653.828125 -672.772827
-51.772911 683.774048 -566.605591
257.123108 841.478394 -532.730469
324.035339 871.828552 -608.526367
301.833710 843.167114 -655.007874
137.408890 741.652832 -655.550110
89.968277 766.907654 -532.552124
123.380478 800.952209 -448.406799
94.877022 745.738464 -584.018066
43.637363 696.346863 -745.047607
156.553925 791.216492 -555.180725
-55.560497 666.267517 -709.594116
276.927246 828.700317 -637.703064
-38.349281 699.812988 -432.589752
1.922901 670.433044 -670.255737
135.761032 755.245972 -686.091248
234.371063 800.692383 -623.487732
-87.513519 642.319824 -674.762024
-74.064453 663.964600 -430.091766
38.513165 716.967651 -556.876404
-55.893578 643.144287 -674.391235
-111.013214 649.860413 -510.194427
242.761368 820.038879 -595.274353
47.507393 761.788025 -428.217834
-82.798035 674.552856 -479.074402
328.907471 867.698181 -583.293091
68.342529 752.755127 -483.632935
94.105919 741.486511 -616.776123
167.532791 744.672119 -712.675171
41.489292 737.056885 -492.325592
65.763741 727.505737 -637.754150
53.842659 726.557373 -635.137695
230.427963 806.462952 -622.534607
7.915129 705.459900 -754.623047
73.515785 742.729431 -517.401001
99.447105 725.690552 -674.971313
182.854736 783.742310 -480.259827
172.030334 823.703918 -404.424896
125.439613 760.740173 -612.809875
308.985901 842.212952 -643.649414
-36.763901 667.383911 -676.164978
229.162338 804.042114 -614.806030
-57.247776 676.353271 -525.834473
61.542336 738.429077 -530.581970
-34.641174 699.489990 -457.891876
-38.860394 684.902649 -423.252899
73.138702 752.394592 -473.081940
65.309593 767.022644 -456.413177
29.695799 700.013611 -584.780701
138.129730 763.135437 -642.923706
53.428822 733.133850 -535.587708
-102.543884 633.648010 -597.836243
194.095947 727.562500 -745.628601
123.594124 737.588318 -682.831604
158.357498 762.091187 -712.847168
-62.429558 674.993713 -521.234192
121.504372 776.759827 -510.232391
272.460052 838.848816 -588.963989
312.171997 834.171143 -669.225098
137.480789 764.323303 -581.527222
246.836136 866.796570 -398.810699
60.058323 748.259277 -479.642944
211.405792 775.765503 -721.374634
293.469971 835.920044 -643.740356
103.638969 744.722351 -589.282104
32.507088 693.385254 -654.696655
161.993073 804.057922 -448.512787
-5.147756 696.857117 -490.779388
67.278633 769.506592 -455.624359
32.782135 748.763611 -417.521301
236.572586 800.262756 -748.655273
201.771530 774.774475 -597.527466
-120.879601 662.962646 -470.090363
25.392298 694.844421 -684.470886
300.948181 847.094788 -608.728455
48.647022 728.576111 -544.721619
-125.591141 637.177063 -592.508545
109.620232 782.283447 -507.044891
-14.163937 724.050110 -474.094269
64.738548 703.639465 -683.095398
85.296898 726.074402 -728.911499
34.716354 747.282898 -427.157623
-30.550234 718.587708 -458.144684
176.606583 775.001648 -535.301941
6.839200 718.809692 -484.157104
205.396652 832.727234 -429.528015
-93.143936 632.227722 -661.277893
150.319672 755.466003 -648.664612
134.917603 720.670837 -722.028259
2.497403 670.179260 -676.964233
-19.805872 647.746765 -664.221802
289.574493 857.212646 -567.781189
292.537354 891.975586 -397.696289
0.716644 710.752441 -509.770630
220.149063 784.110901 -609.118225
-15.913301 705.608887 -499.545502
-141.934464 650.008362 -494.094208
118.134682 720.957764 -726.000549
188.123199 788.567688 -722.098999
211.411758 802.335815 -600.651306
-27.576866 665.476379 -711.629944
-63.940681 650.507996 -688.000427
69.566711 757.965698 -431.082214
154.169861 783.032593 -522.636597
179.330841 762.264160 -613.779846
210.169846 780.238892 -745.831421
160.631592 809.927612 -479.510742
41.527092 725.316284 -444.992096
314.331268 886.631409 -433.180298
91.894905 724.418152 -642.444092
238.808517 841.930481 -441.277863
-29.407057 687.458557 -488.073120
28.473135 709.950867 -653.690857
14.435524 692.181946 -661.089294
113.360970 740.857666 -627.925293
-51.683884 690.100098 -502.866608
172.558868 780.093323 -592.242310
83.066101 764.819702 -429.312592
264.337952 854.401428 -455.221771
99.635460 758.929688 -537.174988
186.818054 788.809937 -597.145020
314.694214 850.306335 -637.958862
93.486435 724.943604 -736.923035
240.670746 828.851196 -575.547546
-54.794678 695.977051 -450.819489
278.696991 836.200623 -610.587280
134.081741 790.484436 -437.386322
-90.279625 671.767578 -466.668091
77.802452 757.468262 -549.662659
78.923111 682.948181 -730.817566
133.306641 766.444519 -612.976013
146.937958 757.689331 -736.495239
-47.014286 661.117859 -694.887817
114.998177 679.387268 -749.852600
-112.522675 639.973877 -485.254639
84.691490 732.990906 -608.149231
155.486282 731.752686 -741.707886
-89.159752 630.846069 -670.598206
94.464569 789.108032 -437.712097
-15.205292 700.099487 -387.523926
-5.132943 727.869568 -470.551208
284.036407 868.774719 -447.699463
184.225525 762.075073 -737.984131
191.214920 811.198914 -516.341919
200.672440 801.838318 -531.813049
318.325500 838.137634 -667.519836
263.591949 833.893799 -565.185120
277.418976 852.350586 -486.833771
210.877014 800.369019 -644.135071
-138.168671 662.580872 -517.211304
195.672974 711.829773 -749.183594
137.991730 800.963135 -413.689880
-12.628307 714.401123 -506.532959
168.083939 796.557007 -491.280029
-83.860626 662.292114 -529.386108
45.882927 721.500122 -514.442688
294.261322 819.206482 -602.678589
173.964905 716.557495 -749.168640
141.858597 803.753540 -418.409149
-93.627846 650.208252 -537.623657
202.578842 826.553650 -419.806061
277.411774 828.514160 -520.914185
201.649857 819.204529 -502.829163
267.204865 830.065613 -648.777405
128.495346 678.694702 -753.003784
119.420288 761.825684 -547.029297
-40.468121 663.629578 -564.688232
274.156616 860.458740 -731.029602
-120.217918 671.887085 -477.492279
-32.597443 707.125305 -449.994293
13.155149 716.421875 -510.581573
317.692261 853.047180 -560.151855
68.070641 702.710632 -670.722717
-22.883244 728.795288 -432.339417
91.246010 733.637207 -679.327942
274.685486 872.762756 -414.926270
155.491760 807.962158 -413.092316
12.725004 690.131042 -668.724121
228.266556 812.200012 -453.323883
113.071381 804.311279 -402.178864
-53.980816 656.132507 -668.922791
91.870888 749.884705 -552.896545
202.141022 814.786926 -482.733124
-5.470259 736.681213 -448.286469
92.731148 763.204041 -503.655243
314.656403 852.113953 -546.146667
-57.298443 683.701050 -556.187134
85.897034 724.092957 -611.063904
235.499954 832.845520 -433.755585
-103.231720 650.974121 -604.262634
167.564850 764.973816 -742.604675
116.104149 782.918823 -426.642029
148.546432 772.156860 -487.135590
234.107498 786.688171 -746.613098
218.580200 745.344360 -750.474182
275.717712 866.736084 -444.398865
180.661148 709.701172 -750.355103
144.186798 803.968445 -481.465088
-115.579414 663.510254 -424.592560
-74.633842 698.911011 -458.822723
162.698654 789.897278 -589.535095
86.062965 778.443237 -410.440063
-39.730896 657.825195 -589.684204
150.538101 782.122864 -511.017426
123.195213 771.531860 -568.256775
175.877289 668.611084 -734.093506
194.513077 818.219421 -505.740479
220.633789 819.268921 -563.909302
79.229073 715.833313 -686.065796
246.257889 843.268433 -730.250854
81.953758 754.700806 -556.782471
274.178558 843.527405 -568.690918
214.848587 808.085571 -712.226685
238.684845 834.203979 -528.024414
-28.584114 729.512146 -428.968231
109.233826 730.601379 -659.050415
180.505112 789.457214 -612.950623
-47.953636 712.720459 -446.566956
-13.031264 693.012268 -549.375305
120.577827 801.250549 -398.000610
62.691856 682.961182 -757.074219
80.271461 726.216492 -714.907654
-39.311779 704.187134 -419.034668
125.884300 682.537231 -750.112244
168.862671 747.204102 -710.820618
299.730133 832.611267 -687.280273
274.317535 873.492493 -405.543213
264.970459 863.546631 -392.223785
-41.018730 659.964417 -634.588013
229.253220 813.803040 -603.571960
225.892212 831.745728 -468.781372
285.520721 871.509521 -474.270111
-17.038044 668.862854 -641.861450
258.605957 839.678833 -546.035400
110.801895 736.067627 -736.234802
-14.110079 701.028259 -510.547089
206.510590 832.646545 -434.726410
-108.232109 649.551636 -592.863403
-67.257202 682.067871 -451.061005
120.452232 766.799500 -584.089905
15.556076 694.446594 -613.004700
-39.912395 644.131653 -671.304749
153.605911 756.614258 -645.570801
45.169346 697.193848 -731.393982
-52.733723 697.164063 -524.292358
-74.533218 651.662964 -638.024475
33.406605 705.763733 -740.518066
70.513657 768.184509 -429.512909
204.230972 778.936829 -727.354919
66.005356 744.152588 -527.471863
172.830170 816.051880 -442.855560
126.495903 759.950623 -631.273499
253.740204 857.999695 -479.312469
121.343300 754.532715 -707.890076
277.606598 830.276794 -678.006714
114.827332 768.164185 -422.955536
153.304672 816.752075 -402.683075
-15.443328 665.365845 -652.810669
45.632133 753.737549 -486.981506
44.883923 736.535461 -491.560944
216.027222 834.645142 -495.931824
59.299988 668.053467 -749.373962
-45.642380 692.978027 -472.772491
76.802887 762.509583 -460.678070
-71.703186 662.400146 -554.927551
147.096405 768.731812 -632.415100
161.090363 793.973206 -503.438507
141.680130 729.355347 -725.712524
103.306679 794.463013 -410.225037
126.312531 744.337463 -620.586304
253.747192 848.952209 -480.774933
179.560028 790.502197 -557.628052
87.966980 775.224060 -418.779114
286.766052 819.157532 -572.578735
94.330116 751.578674 -616.400146
70.440598 754.683838 -450.140625
-81.971107 678.689514 -531.443665
170.475815 766.410339 -654.621765
231.111633 804.170105 -619.511475
209.954315 829.218811 -420.522705
308.227112 865.036926 -704.698120
177.471420 827.513550 -393.027710
93.016418 752.163025 -534.404785
213.098984 748.407898 -739.129211
4.517120 704.187317 -555.775513
258.532654 847.372986 -409.375702
181.454102 790.253723 -611.694946
235.433868 773.234009 -740.397949
-43.243519 647.549377 -668.129517
177.137268 771.837463 -735.363220
-40.620636 679.328857 -738.894104
-86.135635 640.637756 -692.572937
74.900108 763.045776 -515.393555
36.297882 710.225830 -596.842896
245.743057 844.544128 -524.601807
245.191879 843.231201 -462.777405
-59.310638 669.141357 -497.677124
231.547104 819.072815 -593.987427
125.277016 764.849060 -470.828888
163.859070 772.545532 -621.819702
-98.055748 651.388611 -526.734192
95.858170 663.356506 -739.005310
233.947571 834.250427 -556.741821
250.385590 859.929443 -452.306091
255.047089 854.734131 -481.973694
100.666344 745.495789 -463.974152
113.874992 748.181641 -658.731934
263.518188 832.471069 -554.702820
223.295837 836.481628 -414.853668
-1.993422 692.726563 -576.504272
58.633327 741.985840 -552.447388
200.052017 815.694641 -542.279663
168.115814 771.509338 -633.469849
172.056656 802.170288 -538.126038
180.862762 742.085632 -719.984314
134.777893 793.866089 -498.508850
-0.140416 700.454895 -556.782166
272.266174 844.207886 -604.104431
136.240692 774.350525 -609.313843
-102.359192 669.067749 -525.929504
134.684540 754.070007 -640.318970
-36.153397 675.016846 -631.278564
272.337646 845.830200 -725.267395
246.388031 816.337402 -606.414307
141.609283 806.586548 -436.642700
303.598206 863.963501 -530.260620
51.446461 694.764832 -737.481873
124.420715 754.322876 -616.168274
154.965469 760.825378 -648.074219
251.659012 855.084473 -473.002899
23.774221 702.693420 -608.356506
161.003479 756.298218 -590.979614
153.903702 772.799500 -710.343262
271.076965 821.496948 -662.770569
-28.302011 700.895752 -475.572083
149.472931 811.080444 -443.201141
-112.487869 667.036682 -458.290955
300.232819 883.670837 -415.154968
198.425369 757.627930 -742.170288
305.068512 830.115234 -647.435364
54.537930 753.565857 -494.235321
21.190004 696.292236 -647.575745
236.568451 795.709595 -732.956604
215.015472 809.318542 -556.093201
252.470825 855.013428 -422.363373
106.834572 789.669006 -409.990601
-35.700161 704.718933 -507.746918
248.664337 859.086121 -431.531433
-40.400974 702.796692 -525.475891
126.962296 733.794128 -735.531677
93.530464 728.566772 -694.600342
299.672546 857.577942 -595.087341
71.475388 745.379150 -460.642395
226.795074 785.941528 -604.852722
39.892166 709.856567 -593.148315
148.023880 785.116455 -561.126953
129.263641 775.810852 -509.365417
162.022491 804.041687 -511.696381
100.888824 727.070251 -728.652161
-25.662857 695.382813 -382.508240
308.735229 874.312073 -492.068207
-91.110840 626.921265 -652.930176
34.544113 738.905334 -461.714966
30.481428 711.230896 -563.417175
76.318687 720.932312 -617.012939
227.255829 809.640442 -746.214111
272.029999 857.716248 -504.186493
-8.882652 722.675842 -430.461884
-147.604111 654.155090 -436.778137
-15.273599 681.446228 -568.315979
63.067326 734.475769 -605.745728
307.637329 859.672546 -541.238953
237.088821 811.723999 -675.826050
99.024582 686.171875 -745.060852
230.844391 836.615845 -451.423279
-82.869141 624.669373 -685.052368
178.215790 813.335999 -437.373505
330.098572 868.052185 -589.357239
-84.860733 641.894043 -684.662842
67.058395 707.564392 -657.186768
112.910332 670.457153 -751.715881
-58.201515 663.692749 -588.003296
228.874222 850.215820 -434.130127
69.859520 729.197754 -610.535278
70.502892 737.039124 -564.404358
78.393188 741.544128 -506.912384
49.568733 701.095825 -654.596313
34.709015 693.743652 -620.248840
279.896759 837.115662 -731.392700
285.773865 874.285400 -460.054749
79.641296 765.976501 -513.517395
47.570908 690.480652 -687.068115
110.682426 796.633728 -397.925781
148.502640 719.585693 -745.782654
-45.431007 685.632507 -454.303802
143.311539 778.728394 -580.065002
19.526482 695.444092 -609.244202
187.842422 810.006531 -490.664307
103.529556 780.639465 -403.219086
147.677429 797.467224 -443.570160
314.711670 852.699707 -583.701660
-106.250908 657.539368 -447.986298
14.182353 709.757019 -591.617554
-109.836983 619.112793 -690.429932
-42.394283 701.207214 -444.589203
-67.814178 682.052490 -479.973877
-14.479285 710.882263 -532.199402
163.814697 768.482727 -638.541077
30.753773 699.441345 -590.520142
159.641556 810.521362 -474.272766
87.669693 705.756897 -740.937439
-0.591738 708.520203 -502.018890
-123.022934 653.719910 -479.380859
-126.009262 650.796143 -555.895874
185.726212 751.356384 -742.686523
-43.511372 716.743652 -434.321289
-19.449812 715.010010 -496.655701
295.469208 847.921143 -522.052307
131.281082 751.213745 -638.246460
88.054588 737.238159 -721.041931
-84.088333 656.162476 -733.131104
146.086258 760.859558 -672.289856
259.423767 849.556946 -539.912659
194.360092 812.882202 -479.969055
-47.082451 645.797363 -624.882141
197.264221 794.821899 -592.975952
50.128532 744.280029 -526.053162
233.366745 791.029846 -591.352966
-80.117622 637.882935 -681.365784
198.176132 801.039063 -614.480591
-82.263077 685.792603 -419.248627
93.791092 652.950928 -748.949402
39.183456 709.936462 -742.327087
-25.924435 716.981567 -493.304199
15.525858 710.261902 -760.255310
184.081039 811.039551 -462.675537
0.214835 710.516174 -560.956116
233.983627 822.131714 -597.509277
265.858429 845.101685 -423.978638
76.035393 743.678040 -596.204956
98.623528 762.968994 -500.998688
291.250488 832.041504 -656.032104
66.762123 755.517761 -425.794159
46.529438 697.363586 -732.671326
148.543869 770.113586 -625.635254
185.415817 784.945679 -676.866760
-4.436687 701.309326 -586.306885
43.515881 699.492188 -746.958191
-48.395149 641.440674 -662.152161
150.155441 769.612915 -698.693115
59.888012 748.150330 -538.234314
120.446777 745.604797 -631.620056
24.590271 700.200439 -611.157227
248.939743 823.331360 -602.885742
191.496445 831.638977 -411.826752
167.916885 778.466736 -671.462402
-113.804001 639.694092 -533.560547
33.981419 708.158203 -585.707764
-55.542751 674.974915 -531.244751
69.124329 724.987915 -565.950623
191.888321 792.502380 -489.192902
142.311096 781.233521 -528.203308
210.136124 817.943542 -573.714844
41.742180 759.757751 -433.549438
-38.414845 704.752625 -445.064880
215.451218 808.679626 -747.791016
193.944397 800.900146 -521.020813
191.640244 806.733276 -513.918030
233.982849 843.739685 -748.832275
302.892303 855.403564 -495.524719
-103.339996 640.714172 -621.824219
102.399086 770.619080 -470.629669
21.236759 705.288940 -461.093506
193.170013 784.940186 -626.565857
205.431961 810.834961 -581.820313
222.721619 828.803040 -535.952332
182.026367 817.407166 -415.169739
-41.310688 714.606201 -449.812988
305.802887 874.227600 -476.245117
225.379532 804.806946 -746.484253
196.764572 730.815308 -732.261292
314.869446 826.277100 -671.458008
185.178253 787.466003 -609.777405
186.991852 814.117065 -523.603760
36.069920 698.251404 -653.391052
-13.405701 692.642639 -489.416595
-32.534752 641.283875 -670.911255
257.907013 832.789246 -524.507202
115.986839 747.205017 -655.436890
169.901443 809.513245 -430.807709
283.303986 866.531616 -473.671783
-85.441185 661.625488 -608.462463
113.528107 780.150085 -438.156494
136.197754 789.923950 -475.243286
263.892365 845.403931 -741.625732
235.425751 825.805542 -415.353638
132.000916 759.552856 -715.382385
149.780350 701.297424 -757.238098
-112.469551 666.623718 -463.520416
164.005661 793.906921 -513.060852
168.920181 819.858765 -406.233917
266.605042 798.132751 -659.367554
219.325745 743.923157 -745.643799
219.968872 764.330261 -744.390808
264.345703 852.652283 -426.252014
66.957932 703.243103 -664.573242
272.069702 858.267822 -484.836975
-85.703896 666.079224 -486.697601
165.990295 746.852661 -734.513000
61.282780 745.427307 -500.792114
146.405228 773.323853 -575.244324
282.884918 866.868225 -432.925537
179.157318 786.788086 -710.961853
50.731110 703.134644 -728.305847
-103.803726 666.675293 -464.492310
134.613174 663.289551 -750.368591
-31.295467 717.494507 -415.675751
142.510971 720.362183 -724.355896
204.491531 780.576355 -647.452820
105.640938 775.019836 -523.959167
67.732231 765.733765 -472.291718
-70.348030 679.829468 -462.393616
-50.075871 680.622253 -582.681335
-53.310123 694.768738 -457.703979
266.521545 851.861389 -547.342651
43.229630 691.886841 -754.437805
288.399780 866.962524 -729.346130
33.348015 683.963684 -705.143311
308.748688 848.985168 -634.996399
117.026093 738.269043 -684.494019
267.904938 811.340454 -589.324829
-14.987529 680.350342 -654.570374
45.875050 754.768127 -480.662415
100.638733 678.239075 -751.552124
295.488800 877.530273 -448.036804
275.690948 853.472473 -487.724396
272.266968 857.090637 -718.661255
25.982843 711.007751 -614.186584
272.944855 858.799194 -520.850464
88.613472 721.473206 -683.800232
6.514861 702.544006 -556.774597
56.501278 750.513672 -457.386475
178.090195 807.845581 -519.537170
178.050049 771.141235 -659.619263
112.200897 771.369019 -556.688232
218.255554 797.367126 -692.002869
217.087158 826.515747 -525.063477
-115.756233 641.506470 -567.585327
-82.089272 689.229248 -417.928558
295.895538 830.039856 -656.873413
53.970215 740.212097 -494.440613
78.247719 736.275574 -625.775452
289.776520 867.921204 -725.887512
-11.541636 688.312561 -420.520233
188.797897 822.408691 -452.019684
49.418045 712.739502 -732.835876
164.274216 764.625061 -696.586853
108.254105 742.585266 -667.189270
114.591934 700.486267 -746.260254
109.818306 743.183960 -732.570679
197.807419 791.294373 -479.169983
13.595780 721.377197 -476.601318
17.942816 698.432007 -614.477478
-62.716827 668.718689 -583.680298
272.459595 870.566956 -417.563477
96.108353 736.460938 -677.820129
9.247143 686.115356 -632.252136
236.614059 840.653564 -428.258240
83.759109 739.476624 -622.271545
206.602219 809.319885 -713.098511
14.581786 727.095703 -437.296204
-114.929367 666.662781 -462.920715
314.239899 876.997437 -404.881775
194.168228 743.677673 -742.205261
-71.150513 637.712036 -650.507324
221.853699 823.626648 -546.922791
258.335785 828.184387 -574.887756
159.707657 815.685059 -437.461151
-37.894676 668.203979 -634.344543
250.068054 848.033691 -444.235565
209.632172 796.497009 -602.084106
189.127365 827.576721 -438.759430
-122.608055 643.297302 -619.153687
148.418945 789.522827 -429.120911
159.347885 791.717407 -513.250549
267.316132 830.497437 -663.443176
245.510010 823.322144 -631.325928
219.248215 784.798218 -745.958069
264.187042 803.680481 -604.227661
83.943741 763.195618 -467.281189
249.826584 847.370300 -501.057983
189.407196 813.829163 -467.153473
191.233032 750.521790 -747.035339
305.901001 835.063110 -629.519348
175.321732 805.903748 -459.943909
187.787857 792.735901 -690.328430
135.590378 756.275635 -622.523804
275.037476 845.257935 -600.933167
-81.238884 633.628479 -679.977905
119.819885 734.294373 -664.926880
155.779907 773.265381 -712.146362
82.358154 760.012573 -534.461426
78.752228 740.726624 -606.100647
230.041107 813.384399 -621.921509
66.368889 709.262390 -639.388977
223.461716 838.942017 -503.822479
126.159615 742.457642 -666.562317
208.680023 817.092834 -414.337494
288.873230 824.867676 -670.336182
243.260773 821.698669 -530.704895
-66.563797 658.661072 -593.607849
-92.492668 675.264893 -430.435394
90.233162 773.523926 -494.405151
90.294678 737.190125 -564.415710
-47.616882 680.088196 -529.878479
-77.190361 672.059570 -479.549652
312.687683 863.274109 -585.750305
215.928253 736.378784 -741.489807
-30.944818 684.838745 -544.084045
129.422256 788.646729 -521.682922
260.775055 849.225647 -526.501038
144.861816 759.026001 -716.311584
255.643723 829.459717 -695.580200
255.796494 856.464478 -404.312744
176.870224 825.508789 -402.814301
-132.768433 654.109070 -466.141479
236.011353 852.160889 -437.596375
82.468842 753.502380 -518.460876
70.243538 745.103210 -504.862793
161.916534 804.307068 -448.598938
239.085312 774.409668 -737.986389
149.240814 685.605042 -750.617798
56.340321 714.323242 -593.614807
208.682022 832.736755 -445.354034
169.400375 794.691895 -531.621155
232.896088 854.908081 -746.953674
113.917580 731.991638 -728.720947
236.460358 814.125366 -597.627991
106.418427 742.106323 -618.015076
225.259018 793.357239 -644.559448
327.368378 878.182007 -566.818665
232.007355 827.825867 -744.684448
-17.284365 712.369629 -426.349823
-32.801849 685.403320 -538.740601
112.172646 734.363647 -670.117188
310.610016 867.751892 -546.153198
254.689545 860.486145 -742.598206
142.046143 795.111877 -470.442108
116.092094 759.694885 -573.453796
250.562363 841.794373 -533.954590
276.815063 856.005676 -401.467407
233.105621 815.771729 -589.634521
176.813278 818.730408 -427.593323
275.970337 868.739990 -459.926178
282.243439 852.621704 -473.016846
258.720428 795.968079 -674.962830
194.217957 788.294006 -669.610535
133.284149 763.222534 -621.053223
174.973587 693.333496 -748.117188
0.276563 730.808899 -419.879517
52.266090 746.628479 -436.192566
263.813568 807.940918 -625.907166
-30.035706 721.211670 -462.378723
-22.454737 692.414917 -586.886536
132.881912 790.662598 -433.189270
-71.451660 681.211304 -452.038940
67.462135 746.870972 -510.526215
337.229645 869.362671 -518.026855
94.652832 717.967407 -680.309448
72.654480 705.438843 -725.171936
162.571335 727.650696 -725.031921
19.575590 690.969666 -683.307190
31.793213 703.912659 -564.912659
250.549835 845.069641 -522.687683
-51.070148 678.379639 -561.173706
69.305893 736.035889 -627.951477
170.482132 776.674377 -705.151550
137.602600 809.016541 -428.936371
23.938942 690.047913 -752.293335
185.479889 831.917236 -396.383026
-53.354191 681.297852 -430.610168
229.171600 838.195374 -524.046814
46.387344 746.485840 -404.415131
4.972966 705.599487 -474.038910
172.112244 796.228271 -428.297302
-113.745872 643.041199 -645.247375
-47.785217 675.757446 -549.695923
-76.826874 616.174744 -667.287415
98.205978 725.281921 -661.052490
-4.781252 712.143799 -487.374542
175.129654 700.900574 -747.082642
-74.455185 684.687256 -432.220825
250.774979 835.574341 -475.844727
175.123154 749.102173 -735.385681
-104.544197 636.969849 -681.233215
321.083038 857.822510 -613.004089
52.326954 725.107117 -741.033813
95.192139 651.309143 -739.938171
273.166351 853.431152 -739.190796
284.060242 857.904358 -417.542572
258.653351 818.729126 -581.499207
49.364445 691.970398 -756.508545
123.671173 774.128174 -556.309326
87.213524 734.647583 -655.406189
-33.469234 699.035278 -471.300842
21.291142 718.709045 -507.128510
-141.299271 657.647156 -454.936859
265.735718 832.680786 -610.186218
-44.358345 661.454834 -695.146057
195.767731 789.426636 -582.570618
77.614120 750.551086 -557.484802
51.018372 755.941711 -454.667023
31.944181 725.828491 -525.462341
205.858597 803.618774 -610.735840
183.946762 811.210205 -441.730164
63.075554 761.280457 -423.416595
197.694931 771.330139 -748.988770
-82.411797 654.817932 -561.718628
213.732300 812.438110 -524.489380
86.729286 736.208313 -647.771606
137.079865 764.649536 -563.363403
241.042343 816.804810 -597.177124
153.334595 774.854675 -581.627747
-137.139023 662.786987 -441.794464
-59.845554 680.854004 -524.253845
299.989868 826.891663 -646.884033
-19.447121 678.817322 -597.392517
-1.632683 723.222595 -501.284607
130.849396 745.082825 -665.315125
175.791534 812.008240 -433.005737
148.789230 774.765503 -634.799194
85.334404 749.266724 -593.688965
68.329758 713.704651 -711.702637
121.578476 786.860413 -500.677460
160.717651 799.222473 -505.374329
307.141998 859.449463 -603.248840
52.574390 699.294373 -680.146912
114.219574 696.888062 -739.959106
207.346024 829.573486 -412.931335
-31.683580 675.744934 -587.366150
-111.759201 662.153076 -549.462830
247.242844 847.856018 -521.564636
227.322845 798.653137 -639.382690
224.502914 804.998474 -520.132385
93.215988 769.274231 -471.097717
35.120152 700.577515 -554.429382
54.637672 751.011169 -425.418884
130.681427 778.202087 -551.946655
13.121640 723.254944 -400.907349
219.589218 786.254700 -646.105774
-70.161591 649.671387 -637.459412
308.507507 870.222290 -524.089050
337.017822 871.624634 -600.437317
12.575424 694.491394 -752.884827
302.216858 882.760620 -457.162659
14.981076 705.854553 -575.348328
119.018234 771.809021 -556.467468
4.471657 723.784729 -458.956818
304.128113 868.343323 -434.079681
82.178299 751.257690 -576.587708
245.699432 845.526733 -734.411865
-50.136322 710.310242 -447.696136
138.952087 807.690552 -401.196503
321.595856 861.792175 -608.118652
-102.165359 678.920715 -418.668976
111.102150 788.812012 -409.530701
184.213074 791.259216 -708.360535
130.352951 742.998169 -677.436523
44.265293 702.494934 -730.649231
311.526642 847.128479 -571.614746
272.116791 825.966736 -575.335999
117.742813 768.321777 -584.707214
-115.130867 658.896362 -504.824860
268.986755 823.172546 -599.700134
83.422188 722.976379 -626.814270
127.011940 783.269287 -492.556976
105.733681 789.223450 -400.583252
220.813248 805.618774 -584.373474
275.981171 838.866516 -472.615204
95.097328 782.173157 -467.499969
-61.680595 657.256104 -636.474731
94.925873 742.800293 -578.763428
163.538223 792.010620 -562.713501
305.053680 841.075928 -650.237305
138.885269 670.180847 -737.102417
257.160431 820.317200 -636.263855
12.595783 682.939331 -649.229065
-90.262665 657.933838 -585.958252
64.811523 729.411804 -701.093750
144.563690 788.678467 -501.865417
-42.657928 697.315979 -457.771149
94.734802 698.059998 -736.877441
166.405930 779.683655 -572.977295
185.605164 798.316467 -582.302185
50.198341 746.155884 -432.859039
208.393448 803.824646 -613.823792
-95.944153 678.779358 -416.730743
156.908401 798.741699 -439.516968
119.304306 743.367798 -631.817017
152.897888 808.877197 -417.847443
77.899086 691.962280 -736.749512
141.713257 732.526917 -723.955994
222.131851 803.445374 -649.157227
173.520447 767.540100 -729.018799
214.931244 819.534180 -561.194275
158.587189 804.050049 -514.851379
268.850861 853.883362 -465.979767
-19.328447 660.285339 -697.605164
1.230020 723.883911 -520.896118
298.717102 861.400024 -522.490601
120.920807 779.681152 -516.241943
27.520670 747.345703 -453.744690
54.542957 749.629700 -420.595306
323.031586 852.887207 -474.889648
260.228577 843.418457 -453.973877
126.242706 793.306335 -429.058014
171.383850 806.534790 -487.817139
263.805756 849.518860 -554.768555
15.259842 735.066650 -417.772461
119.065994 800.585571 -424.834167
227.533157 843.000488 -442.933685
206.318054 796.902039 -602.672424
213.527618 795.711182 -698.422180
311.077759 856.894714 -514.589417
188.314240 777.814697 -672.878540
107.847031 778.524170 -519.200439
91.573463 721.576294 -724.105652
181.091339 695.319702 -749.043884
129.168762 764.036560 -549.383850
9.487038 711.683960 -511.155579
73.935493 737.449707 -558.694153
186.943130 777.923462 -637.996338
6.639083 723.220886 -451.855743
201.486847 828.552063 -486.128601
190.657272 806.153992 -558.413757
285.454132 850.620239 -449.303650
253.805130 845.896362 -748.868286
296.753723 880.943665 -454.388611
-129.213669 650.891174 -535.304321
335.927704 882.470459 -548.034363
128.028458 773.464111 -445.259491
302.716583 877.477478 -418.199799
14.132685 670.747986 -642.376282
-50.507336 658.580444 -706.268555
96.204689 748.723999 -725.701965
256.708740 797.686096 -626.044434
163.514008 771.276611 -689.890259
185.403015 818.355957 -500.971161
227.139755 840.995789 -391.953705
99.442268 718.952698 -736.065613
283.336517 831.481140 -515.739441
-33.514168 672.880310 -690.575378
135.926056 670.975098 -750.093811
184.932312 812.761963 -504.805634
186.696915 831.825317 -414.631989
246.158051 821.130249 -738.351685
25.710442 728.658875 -487.572266
158.029922 797.803528 -472.714081
70.599976 733.776123 -558.818970
239.061676 857.023438 -426.725250
-60.828037 704.633606 -448.908813
230.344208 819.798706 -754.122620
180.010757 811.677246 -451.269684
62.780491 708.104492 -714.050476
42.652981 738.079041 -546.824890
185.226746 789.504028 -648.344299
-12.289108 716.829712 -523.177612
42.386951 691.868347 -746.827820
-7.286410 700.509033 -554.525024
272.781067 869.367371 -439.138397
222.601471 801.992493 -743.291016
-90.304398 610.384033 -673.741089
43.104645 764.307617 -415.332245
137.561401 786.265747 -477.547638
40.449741 706.966797 -668.684937
193.904785 703.930298 -744.321533
-106.237076 641.829346 -589.135315
315.921356 857.943298 -629.172119
-119.879608 636.128113 -529.761841
257.861969 853.279846 -422.017609
306.025421 833.414734 -682.028442
-30.208090 666.709045 -622.614075
190.788162 760.670471 -663.661987
262.030487 836.872986 -573.762451
-47.865231 656.739014 -646.763428
215.866272 807.889465 -537.006653
-108.719231 644.342102 -450.331665
252.911240 805.684265 -737.800293
53.490295 681.874634 -754.885498
50.849087 742.557861 -452.638367
223.429520 831.818298 -456.308319
135.654175 738.969727 -618.862122
191.183136 763.267273 -698.334961
292.481934 885.420776 -411.265930
-92.573418 682.386902 -429.474609
244.453415 846.530640 -403.697723
178.511963 708.365540 -751.123352
195.609024 818.108276 -447.611023
183.165375 774.439148 -703.906372
137.810074 790.043152 -456.370483
-97.037338 641.853882 -687.942444
-21.068611 690.970886 -717.000061
33.817184 707.471069 -677.993286
-41.154705 709.630859 -421.410736
314.438263 861.560486 -611.688232
116.027924 758.735352 -475.887085
147.930862 765.811646 -601.818848
46.246605 755.517883 -403.342377
132.883911 805.745667 -397.486877
84.179573 719.520569 -625.153564
-32.953735 692.977173 -492.548035
194.063461 790.143433 -635.662842
77.842819 757.344604 -463.172150
-31.773098 676.194214 -541.041992
264.919159 813.804565 -609.317993
152.615860 768.144836 -481.906952
72.069649 742.263733 -542.197632
302.875000 858.394897 -589.304749
132.820145 752.964539 -717.135681
100.215599 781.017212 -406.588684
-100.461197 673.896179 -452.871826
191.654480 827.431152 -405.055115
105.102127 771.493469 -529.874390
320.624603 842.913208 -663.299683
-93.732712 642.860474 -474.946136
292.624847 822.597168 -703.929016
-103.292801 661.022522 -548.700378
11.777159 706.968018 -621.325195
207.286758 726.513123 -730.976624
267.607788 835.716187 -624.305115
-13.629347 709.240112 -530.969482
-78.264427 674.679016 -548.670776
82.395721 756.938538 -411.658173
145.184448 750.178955 -731.308472
232.263779 818.192078 -620.620483
41.579475 732.027466 -477.261810
229.664246 823.748047 -487.324554
81.553185 722.549072 -731.543762
134.677032 760.449158 -642.513611
301.944336 859.721985 -577.174866
92.941116 736.026978 -661.190735
287.645325 870.587402 -404.589294
245.708038 850.239990 -407.914276
143.066910 794.822937 -493.313354
142.409302 805.299255 -453.779907
-32.483696 709.703003 -510.258789
273.769012 834.503601 -563.658203
-102.033249 658.957458 -560.309265
-98.531250 675.384460 -428.940125
29.887066 697.846436 -620.425598
183.738739 811.309998 -530.262634
91.789711 761.809021 -561.661621
13.970716 677.682068 -685.160034
-33.618320 666.284302 -636.324524
300.097473 865.047729 -488.897949
247.641861 841.884521 -524.417786
-14.563235 718.999451 -429.076508
180.529724 822.602112 -462.484344
291.657013 833.900024 -659.426819
118.887985 778.159058 -454.231842
35.498260 731.623291 -559.131348
299.071075 901.322510 -405.280731
12.084420 714.493530 -418.147034
324.866608 872.771362 -615.005249
193.114807 796.382446 -717.433289
-37.492844 708.816284 -407.980225
233.420349 823.862610 -536.155457
96.645592 770.305481 -444.124420
233.620605 814.197266 -638.223389
42.075790 745.583374 -456.496674
54.442722 738.903076 -513.146179
48.046093 723.319397 -549.365906
323.583374 843.411499 -571.082458
-16.641273 698.393005 -512.528931
-54.356262 698.607971 -493.055267
8.747963 662.601624 -672.750183
121.578224 750.025635 -627.646606
28.620556 696.678040 -634.075012
6.446860 729.355347 -428.154602
58.931160 728.028198 -581.524292
293.737610 879.973816 -434.653168
231.389481 839.183350 -430.516418
95.969002 765.985352 -493.582031
17.720623 688.858032 -631.254456
-109.313683 678.849365 -467.831573
77.697823 735.858337 -556.185120
121.045654 788.265564 -457.868225
-68.610641 640.216064 -650.828552
46.764503 755.103394 -408.271088
111.406570 781.618591 -458.228638
20.508430 719.530273 -524.676208
17.624367 749.088806 -425.328888
83.759323 713.382202 -683.539673
198.441513 817.114807 -446.333130
288.561676 848.185974 -462.371216
-65.362366 696.560974 -416.353149
-55.034485 668.498657 -571.619507
264.127655 837.545288 -613.915222
180.959503 825.247742 -464.875244
117.240852 769.184814 -533.270813
-19.656446 722.105042 -405.356018
242.271912 835.106628 -732.399170
112.124504 720.884338 -659.425415
197.492294 781.575500 -616.251587
103.784294 746.491028 -467.403137
-117.706062 650.984985 -743.117920
127.651154 665.310852 -736.645447
234.146637 846.737488 -476.336670
245.899399 839.656555 -452.519623
-49.268784 705.246399 -421.596924
184.905441 798.070435 -600.667725
225.695648 728.280090 -741.625305
-92.244453 674.084167 -517.430237
44.108952 733.774597 -432.035797
217.945526 748.829468 -731.930603
33.310619 692.703857 -648.665771
225.566895 740.622314 -743.503357
125.902519 697.182495 -748.176208
-127.816185 642.553772 -579.556885
-110.306976 623.124817 -643.565796
126.137230 785.531433 -528.898865
233.665482 856.810486 -744.330261
169.217651 819.994812 -404.872406
-95.271652 655.774963 -452.032349
217.998184 822.470459 -554.492065
247.787674 816.196045 -611.532959
285.071014 893.099731 -398.709351
266.788727 832.602356 -637.401428
191.506775 715.294373 -745.149719
169.147842 682.003906 -745.685852
67.535164 732.017212 -582.497375
173.285034 807.827393 -430.080231
191.754166 706.480530 -745.961731
-89.233772 664.907104 -595.014709
0.148888 680.244629 -634.096497
118.491791 734.193359 -677.719788
-112.941612 646.970520 -490.964172
264.941437 819.847168 -658.794495
221.627609 809.749512 -746.415100
249.064545 852.191101 -489.771088
33.547871 724.548523 -599.668945
137.354858 787.834229 -538.063843
126.926445 793.729004 -483.985565
329.607880 849.560242 -674.204773
277.185303 843.131531 -579.271790
329.836761 885.454834 -509.693237
199.901306 797.727600 -748.015076
98.940773 762.872437 -509.410156
-44.602608 685.499756 -437.512543
81.871429 695.618530 -749.609802
230.659637 830.040161 -749.966736
-36.557472 674.616516 -581.976624
179.119522 772.698120 -722.071716
33.706009 758.650879 -418.474884
221.734665 721.546936 -741.291870
39.473938 728.417175 -533.841797
299.932861 871.683594 -466.571869
37.031857 704.391541 -737.651184
298.232758 897.644348 -739.521057
-99.298248 670.030884 -538.042297
155.701477 804.794739 -504.717651
25.657017 735.984619 -453.328918
-16.517717 673.259155 -691.434814
77.586601 758.510803 -468.813293
-65.367584 669.743103 -728.270508
39.254070 724.022888 -544.635254
8.951715 678.689880 -740.598328
153.793381 711.954224 -734.183594
32.752270 702.112976 -666.091919
152.213882 780.268005 -562.398132
-17.529522 690.338379 -549.307800
192.707855 825.263611 -462.278229
280.746643 830.154419 -619.171082
37.731075 733.719360 -456.539185
113.845108 745.266357 -599.244751
224.998642 823.948914 -564.059692
-1.620180 694.712280 -654.487976
-32.865345 685.882019 -566.073975
318.583801 877.792908 -520.343323
189.844757 789.052124 -659.226013
203.240372 797.237793 -604.969177
213.900955 797.368530 -733.026428
-123.026283 672.748474 -477.595856
-62.922661 691.461792 -456.347504
106.747368 739.648438 -540.448914
-24.523497 690.676270 -535.858276
306.755127 854.240845 -512.085327
183.590118 731.392578 -744.325317
324.783569 881.506836 -464.323822
121.316643 771.479370 -577.652954
47.059334 752.948547 -424.489746
163.055161 671.719055 -737.180054
331.080780 863.187927 -635.039490
-44.140896 665.061523 -596.421021
38.721630 710.364563 -501.960419
173.446976 832.552795 -396.218262
128.128647 701.241455 -746.020569
7.627451 708.219910 -533.912903
245.504425 836.014893 -537.838867
290.474579 842.694641 -482.050812
235.826370 823.804443 -560.794189
102.097305 658.974548 -745.432617
96.946320 747.357849 -555.226501
95.190598 684.424377 -732.445923
-16.062155 692.742310 -600.897583
51.357681 706.079956 -636.307129
295.787872 859.286865 -550.068970
120.889977 758.955933 -619.090271
-70.702690 645.943665 -620.581238
248.735855 848.460510 -421.723694
-74.103844 648.098267 -611.483948
92.233437 660.945374 -744.408264
215.510666 815.575317 -511.832489
-114.884926 632.767090 -565.035278
243.338043 852.374756 -471.267120
154.998444 771.469177 -592.658936
301.935516 875.727356 -491.435852
-86.169785 674.315430 -466.292419
222.279541 846.696899 -446.486298
-111.156364 626.297302 -611.830872
-10.371635 673.733765 -560.112183
76.936012 766.307556 -439.075928
220.298141 832.235779 -440.128448
245.029343 853.325623 -740.582153
210.561340 789.033875 -669.418030
-21.287930 695.218567 -586.858704
111.069901 728.479370 -606.369202
281.198486 826.051208 -651.271790
61.187805 745.300049 -506.486542
-120.350777 661.194702 -473.980957
153.207748 798.640015 -522.102844
272.291626 825.477783 -650.149048
12.763035 716.271912 -498.346008
100.531891 762.364197 -556.950806
151.924271 801.702759 -412.740936
241.895203 814.674927 -663.774597
222.425247 802.146606 -676.520081
63.072552 700.300720 -742.078186
203.605743 832.833191 -405.923615
129.012634 753.522156 -718.224915
259.562286 875.962524 -398.831818
115.367134 780.552856 -496.341583
-10.001645 704.013794 -514.396118
251.349792 859.159058 -450.952057
156.800583 813.624207 -399.039825
276.323181 841.843079 -515.399170
204.719177 743.882263 -735.344788
3.883049 718.837036 -406.191284
99.349358 747.486328 -697.157837
56.099247 726.996582 -625.022766
55.026035 741.541565 -426.557556
-76.811325 674.275452 -465.990692
-92.333977 681.418579 -503.147125
289.647186 864.321594 -455.249786
188.396530 792.648193 -640.202454
195.008148 812.542358 -538.437195
-3.959045 668.381470 -687.045410
256.399445 833.481506 -547.535706
312.789124 861.726257 -606.396851
-92.859756 658.624573 -724.833435
-13.749457 660.425049 -646.009033
206.992477 720.133972 -740.787170
-23.766243 712.824646 -496.832092
20.610500 703.038696 -582.241516
-61.988552 660.554321 -579.646118
346.385193 877.832825 -694.336853
126.680595 803.676575 -442.670105
71.417755 744.753174 -509.892242
258.627319 830.221863 -554.898315
274.540100 843.681946 -594.639648
-19.213745 690.950134 -446.067780
2.004573 675.599976 -615.600708
158.210739 799.941162 -507.774902
61.907310 759.494507 -483.487732
148.359192 781.297974 -539.436584
128.265442 780.869202 -557.623169
-141.320297 649.977234 -496.807526
183.824203 706.932251 -746.583679
116.796356 795.198181 -447.842529
308.017365 875.733276 -506.790741
70.175339 707.812317 -742.493713
-87.009132 634.074402 -578.716370
96.776978 749.816345 -584.273804
90.941750 773.343445 -420.130524
51.217773 708.494873 -739.503723
151.776581 810.444824 -405.310089
22.186045 709.197021 -554.733887
21.358389 713.634399 -547.626587
-24.943205 667.037476 -638.814026
312.378906 863.084656 -543.164917
195.657898 798.882019 -568.045715
-131.979233 635.520081 -605.046936
191.827240 792.804382 -722.219849
58.921040 739.246277 -494.075958
-13.612411 714.690369 -501.042358
-93.853745 642.930969 -642.051880
186.248428 802.821899 -561.365601
-46.183834 666.680054 -674.750244
94.024155 779.131104 -478.993500
-3.180362 700.481018 -618.071594
-30.528290 677.069763 -578.144714
307.266968 857.235474 -591.059265
326.414612 851.050476 -648.166077
169.997040 758.800537 -731.263855
182.084641 821.311462 -405.843781
114.866486 744.830750 -690.235168
-25.390362 676.098511 -648.130798
103.077766 672.996948 -746.509521
262.689545 814.953613 -648.738159
-30.170969 713.870789 -476.617035
-26.949926 712.504089 -429.428253
227.780518 808.369995 -700.037415
183.939651 820.377930 -404.324860
-80.137115 686.279907 -494.526611
241.073029 843.368042 -408.576691
153.985687 767.613220 -717.401428
-102.791885 646.972595 -476.591309
283.868835 841.543457 -599.912598
-12.759917 710.320496 -474.521118
104.288940 752.461792 -592.757996
114.892876 776.476563 -470.332062
258.973694 859.565918 -453.435242
-84.740387 672.238159 -481.816711
237.263443 810.519104 -668.185913
-26.918879 722.209839 -446.298889
28.555668 726.202332 -429.215179
-47.612728 653.201416 -600.767883
69.118561 660.740356 -753.045288
123.341438 768.692749 -511.379089
139.037613 751.407104 -658.930542
7.937589 699.994568 -564.805725
113.758766 776.456177 -449.194031
-28.809280 694.665405 -504.647400
238.689362 838.617920 -525.603333
41.045834 753.831848 -408.693939
86.461159 737.430725 -587.543213
308.983643 856.969666 -569.398621
12.106213 698.645813 -508.422638
208.306213 719.968018 -744.233032
7.211608 745.625488 -422.378784
59.757801 710.581360 -635.684509
-15.112346 730.468689 -406.179077
229.344879 826.414795 -562.791565
257.193970 826.169312 -487.857910
122.449783 781.778259 -524.034790
-54.475155 673.313904 -608.031921
101.149422 727.254639 -724.077148
122.590714 761.681152 -432.068848
148.150299 806.896606 -414.041199
123.841293 774.981873 -501.913940
106.181793 776.573608 -469.587555
283.242126 840.707520 -584.826111
318.086212 852.112854 -661.392456
-3.129730 659.329956 -655.615784
294.293396 848.997192 -622.415588
252.982376 847.122375 -389.599152
303.844666 857.829773 -517.157532
308.794586 822.337402 -701.547668
79.495613 669.757935 -754.842773
186.017990 733.010864 -731.567444
271.627380 833.792908 -589.857361
217.604477 832.251221 -420.702423
13.507833 665.558899 -733.970215
70.041183 694.584106 -736.722412
-22.013569 668.246399 -684.195923
17.587975 714.429565 -518.802551
-54.598263 656.471680 -679.525696
140.575226 805.754883 -466.539337
297.931152 842.762268 -600.634155
265.132904 840.165222 -444.644287
244.958710 866.142029 -391.660278
276.883453 882.456726 -398.551147
233.548813 830.962036 -471.563110
152.398727 767.527527 -642.673096
197.597992 806.670044 -534.739807
-79.124153 681.844971 -478.248962
243.450775 836.587769 -544.071167
117.160568 782.170593 -450.311432
80.944969 714.801453 -743.307739
-91.150696 656.464783 -551.300598
139.950928 643.067505 -741.019104
229.480438 810.871704 -747.729675
5.575126 724.002258 -469.816132
-79.303848 687.154114 -434.482208
11.053150 667.720276 -659.056519
146.326569 746.751404 -686.074097
188.621964 809.153809 -467.837952
87.918808 737.387695 -512.491150
160.449478 785.420349 -563.176758
-51.548645 687.416199 -476.056915
95.186584 743.635986 -456.655334
153.107071 777.561584 -721.896729
220.876038 806.639587 -677.513916
22.194336 707.010681 -629.159668
178.777191 822.710449 -423.150299
211.963593 813.418091 -583.205078
243.055679 806.209106 -617.440186
-79.674492 676.390503 -537.364990
315.167816 852.768494 -624.620239
120.591553 782.365784 -452.060699
-128.207458 658.340393 -491.468079
-119.796463 645.237183 -511.373749
207.305115 792.733337 -620.944214
-67.347076 685.235535 -458.459625
311.525726 882.127869 -490.079132
121.698418 797.950500 -425.570251
-45.067856 652.636414 -599.399353
255.580383 841.410400 -454.243195
-39.661228 711.362549 -405.683777
-120.629463 662.949585 -458.571136
99.132942 753.394592 -459.271759
282.344421 860.205750 -531.970032
-6.513370 721.693237 -496.200775
216.424942 854.113525 -400.054291
103.691025 741.692200 -593.691467
306.566803 841.715454 -688.995667
245.041794 863.846130 -419.294250
111.654259 767.341248 -516.331787
128.725159 740.329346 -680.320618
303.638672 857.020020 -715.226501
43.986393 716.219238 -576.254333
3.690321 705.669128 -469.086975
240.946365 816.841675 -586.067383
-66.862122 704.765808 -452.734009
281.813934 862.899536 -458.709198
150.872421 741.947144 -724.679077
299.089996 856.481934 -479.175140
-83.950356 654.301880 -644.464294
210.653809 824.308228 -529.603027
85.620338 671.772339 -739.350952
152.400604 729.787476 -744.445740
21.822069 692.648254 -628.078064
79.545311 752.131104 -579.332092
265.620758 866.145203 -424.292206
-57.688320 693.418884 -508.770447
-54.471291 686.122803 -509.062256
296.667908 860.432373 -567.710938
164.688126 802.204834 -445.365509
65.852028 720.804443 -506.767639
149.729691 760.786560 -513.611511
1.334471 732.954285 -468.454620
172.742905 796.854370 -585.477417
25.421831 693.966187 -755.289368
180.774918 796.113525 -582.577393
-69.789970 682.050415 -534.869568
141.273254 749.873535 -663.255371
-34.563622 664.727051 -583.889038
-119.395416 671.383728 -470.947662
31.677303 705.697937 -726.779663
-75.208725 654.954285 -575.512390
4.075299 714.690979 -496.682709
85.234489 732.703125 -593.690735
218.919159 839.728271 -408.365540
12.871920 712.886475 -597.756775
256.621704 840.308716 -546.745911
153.861221 680.230103 -735.631714
198.493698 799.213257 -473.347412
210.721420 812.084900 -443.364105
23.604507 725.172913 -455.278320
-79.948006 627.379089 -586.397888
101.264397 756.422546 -601.540649
43.555321 721.266235 -549.495911
164.273743 666.466614 -737.601929
220.905075 853.183777 -413.393250
-56.486176 666.893799 -520.029541
173.825378 802.765015 -550.550720
-25.519903 675.742493 -600.424683
-18.295727 704.454895 -441.025391
59.246227 723.757446 -492.576569
186.276108 802.229492 -527.744263
120.755447 788.057678 -452.815552
284.122467 863.442749 -506.359467
315.601776 866.120422 -526.417847
-1.669618 682.226074 -583.937683
-90.365326 673.784424 -537.281372
224.165085 833.723450 -414.007751
-107.206116 663.538635 -554.783813
162.266235 813.734863 -463.512268
325.788116 877.860657 -453.497009
56.536816 759.035278 -452.177277
208.690460 725.234131 -737.478638
27.869759 724.782715 -558.564270
203.552124 755.834351 -745.072327
142.434433 774.628723 -564.653503
161.348038 756.277954 -734.062500
21.214359 756.901978 -421.927094
302.668152 853.759155 -617.746033
162.991318 800.570374 -470.195892
191.419144 812.608887 -471.147003
-27.122406 700.865173 -493.983856
84.756790 774.250671 -407.096008
242.492783 847.974609 -485.473999
27.639357 737.578247 -522.611572
58.355503 748.665527 -455.989502
113.688728 782.839539 -423.755768
282.024292 872.559509 -435.682831
263.573853 865.503723 -413.951599
273.303528 862.092773 -405.811798
310.215515 837.657104 -660.274170
344.347321 864.936951 -591.164124
104.043297 778.909790 -414.774597
57.406250 726.518250 -470.165100
84.017250 723.206909 -695.644775
270.227081 841.376465 -565.608521
201.862427 811.844910 -499.385651
250.694839 833.685974 -586.748962
186.969955 771.588623 -705.093750
-12.745240 720.207458 -437.406891
142.655182 776.665405 -612.446838
