ply
format ascii 1.0
element vertex 1467
property float x
property float y
property float z
end_header
138.175629 454.496277 983.865112
56.831238 218.374878 916.695679
155.624832 128.192230 839.579285
125.849518 447.167786 988.560669
77.974693 442.067474 1016.748108
-68.948799 375.665558 953.222534
-94.657059 109.217674 901.470093
283.253113 292.976501 853.834106
34.141521 305.536377 967.334229
279.903778 396.368286 904.782410
257.869873 294.910706 867.772461
-20.908754 56.806309 853.231445
-27.110321 286.091064 965.807190
32.445843 118.707458 855.791870
-98.860161 249.440292 982.973206
204.521667 435.047211 949.573547
-5.653342 86.661179 861.510437
99.012192 138.103226 855.999634
7.036512 99.697174 865.322144
92.817032 417.813202 981.995239
146.111862 219.060837 873.742676
127.149414 300.476501 913.024048
167.294479 181.608673 860.193542
9.211368 129.538101 884.553955
88.645508 325.138458 949.976440
-34.962658 226.974365 948.157715
170.914963 226.685684 864.949158
26.156559 166.725082 892.140442
103.083122 420.906738 979.466675
-37.783974 75.602791 888.384949
185.769211 450.405609 964.701660
-2.267369 144.754166 888.304871
274.735229 350.583923 887.644897
144.776596 497.050018 1000.786865
107.992996 306.842407 934.910217
92.145241 412.924042 981.616272
-24.193832 65.283661 875.084595
203.831009 376.258057 905.695435
-39.752045 229.560120 950.810181
-70.512436 268.654968 991.195251
211.293198 372.271912 930.387146
15.794161 -3.877502 828.096558
150.882050 254.205505 886.252319
34.934086 183.019806 876.333618
-53.327190 341.899719 984.803833
-21.864653 351.844910 1000.719482
217.687119 387.794891 921.906616
-9.593935 160.259354 888.300659
25.638130 413.586273 1051.372559
182.078384 422.184723 956.946350
196.541199 342.774567 919.278992
140.737839 455.386566 988.365601
-87.260925 316.209625 966.077454
77.751495 211.561646 903.936951
19.657675 405.077576 1048.455200
57.016830 37.101860 815.581055
126.490234 192.183487 883.152771
78.906525 330.605682 948.177429
-19.958141 84.595024 885.182007
322.826965 356.838074 872.479004
-34.005260 122.414070 901.649963
304.152557 412.942444 914.440491
222.200836 314.421692 892.358337
110.152596 183.324158 866.391907
204.210892 273.284088 879.968323
98.598930 16.226240 802.158386
-14.845653 416.149200 991.829529
-114.438454 183.986038 997.883179
278.342072 305.869293 857.182678
-113.339012 109.734230 914.760986
235.467560 404.965027 932.849670
-41.652184 270.936584 984.987793
29.025015 253.254303 939.461243
119.240196 428.855743 982.580444
86.521576 251.563080 905.572998
80.562592 133.187973 855.609314
200.431198 460.742737 972.061523
225.828766 269.513062 881.226440
-46.879948 335.870300 992.941406
7.611165 79.701653 853.667664
76.031731 146.844269 880.638428
90.922653 48.448910 827.198059
-106.222984 78.197365 905.569580
272.456085 330.465424 870.598755
-11.353864 223.678070 935.523315
-9.214448 146.431625 894.821472
39.792709 353.124359 955.269653
207.730194 348.683899 919.105652
193.693466 226.954834 862.664185
61.609970 454.808380 1050.066040
224.531128 365.504913 907.987610
-114.750290 175.438248 991.199951
-84.669479 184.882477 949.831604
314.909302 377.814087 885.985901
-109.491608 163.177811 960.016907
111.573074 344.685486 942.131958
-0.466249 209.559784 930.636108
200.174438 304.764740 892.365417
129.453537 422.539917 948.577209
2.353064 332.086823 987.760559
248.827393 286.145203 877.445007
3.050555 28.121082 845.468079
-1.949865 170.558609 914.447388
60.961067 8.110984 798.052063
57.136318 64.476547 847.426941
172.900345 296.525635 908.882385
338.666656 350.079529 883.080627
246.691452 433.583435 906.869080
91.667236 33.191322 821.179749
95.537361 123.903893 851.047974
191.535049 391.343903 924.895203
112.632324 311.270264 939.214050
43.995018 137.686859 864.049011
-40.734375 222.428482 938.572266
293.994537 369.808014 896.896912
36.927193 62.669445 840.840332
53.448692 233.292099 913.441650
138.052505 81.391357 814.747070
-107.453148 305.602600 951.694702
-24.092243 323.031952 999.680908
129.265518 485.222198 1012.377502
26.896486 307.470306 963.515076
106.251511 84.858810 801.621826
-12.716028 151.363297 901.001648
47.262051 283.270233 946.331543
130.995178 280.791626 905.988953
291.940613 311.096130 854.755371
78.804749 105.978119 849.182373
230.705963 412.862244 926.897766
-25.620668 154.375687 900.928040
3.237086 404.145630 1014.225464
164.731110 302.638824 901.347290
-86.968391 209.279007 983.659180
20.263540 169.769623 911.013916
83.927948 483.215027 1054.520996
179.340088 339.516663 914.010376
22.021885 383.646515 1040.397095
107.504395 468.138916 998.266418
-104.174133 234.466705 1011.994629
125.821129 56.688801 802.570862
88.920265 82.762581 831.974792
-11.903055 420.480835 1006.914795
94.783836 157.111298 874.985596
62.372860 7.108179 819.814514
43.636253 371.107758 980.928162
69.613518 236.607468 903.445251
-61.348934 143.260895 920.964478
-10.401897 37.184807 842.054810
-64.130394 273.643066 1002.033264
-30.354515 399.274414 980.415283
92.913658 399.811523 987.223633
198.293655 490.518951 996.412659
-3.967737 199.794830 930.305664
175.855209 251.388931 877.965454
-25.312620 104.462318 870.396240
307.106354 348.218597 865.931519
128.625214 516.430237 1004.749268
138.289490 101.943024 833.877014
-76.410370 166.332062 942.259155
119.648354 313.597839 928.909180
-16.225178 72.072739 879.390564
146.699005 373.984222 953.960449
236.970673 443.861145 946.492493
32.852051 309.721375 955.027832
86.583702 167.295441 869.555298
108.726929 292.028442 920.338379
236.589554 276.974030 871.340393
107.675713 495.293182 1038.783325
186.475021 233.450012 865.131226
209.317230 181.026917 849.789978
252.814087 343.939636 893.508911
2.094721 165.996811 902.203430
-111.909058 205.716568 997.378662
173.637650 348.446228 920.556885
-85.770065 172.970825 928.632629
-99.589935 327.367401 956.668579
-10.246100 380.847046 999.481506
115.427048 299.488434 920.590637
122.306580 493.065735 1011.416504
224.260513 352.958344 909.319824
268.335236 374.338287 903.428833
145.390961 233.814255 871.559448
129.709946 478.244995 998.326599
218.722153 242.505783 853.416199
83.542595 405.142700 973.148865
183.309860 254.377090 869.245789
-102.233765 135.418930 900.534119
102.580788 253.616928 913.974670
-109.415573 250.408752 983.170288
179.587296 311.465607 909.329163
106.301582 66.621452 812.551392
243.794403 443.408173 936.584473
61.994133 422.778961 1036.716797
-7.161740 125.359016 874.800964
-65.519379 157.727203 914.269470
173.578278 141.853516 838.699158
-66.908890 104.481171 895.262878
-67.969826 286.152954 996.128906
209.257263 411.026825 926.496765
166.705444 166.004913 837.588501
155.384766 85.682472 780.422546
245.307465 271.217163 851.677002
-89.271332 290.464935 976.308716
-25.276718 181.608887 929.823120
106.963310 222.750885 884.166809
-35.720520 334.758240 993.539001
-43.884899 352.967804 970.537964
208.528854 316.128906 904.328979
339.875397 379.818176 862.707336
169.969559 472.615570 986.821716
148.209503 461.877502 986.067810
6.399097 193.222885 919.813171
-102.902718 88.654686 895.942444
244.255600 422.409180 899.882446
309.113434 317.158417 865.885742
22.655024 161.051163 892.932251
297.354767 381.368866 887.994080
217.573257 312.574249 882.420471
25.169130 102.505356 848.027832
36.818783 207.750473 905.747864
165.258667 109.161415 818.433167
195.860474 418.803314 944.023499
175.698242 206.226364 845.441956
-33.871895 275.597198 954.012695
152.898239 173.033478 851.066772
304.837067 387.619781 877.199219
182.530228 253.161896 876.225647
190.472717 283.613190 886.294983
20.342358 440.541016 1013.851563
273.616455 257.946716 853.407654
194.825287 201.023041 858.627563
296.185242 351.601471 885.143372
130.640182 96.529518 821.597107
252.312759 431.394836 938.304504
-142.561935 83.198868 929.239746
-49.018116 124.056519 907.070190
116.049049 257.092163 902.429626
202.709763 358.533600 923.871277
204.175797 287.292206 886.548828
-57.528122 338.860016 986.625916
142.732422 481.528748 999.251953
173.589142 152.413712 844.734436
270.171387 408.548370 919.375183
101.221077 227.529633 894.807495
106.216507 398.829987 979.425171
139.536926 177.406891 852.725098
-59.247902 239.405334 986.681091
149.146957 476.742340 997.378967
54.460102 99.192772 863.720825
75.236404 246.085266 906.365601
-54.024300 290.965881 987.116760
-4.409090 165.135880 902.419861
-97.449738 184.255219 989.092163
149.330933 453.834747 977.238159
108.563934 44.259926 803.891235
64.726593 145.688690 879.503113
48.845882 230.668198 924.891357
188.383224 235.064621 864.164917
221.062744 380.738159 923.516602
140.306274 454.983948 985.776917
152.047089 354.932800 925.006287
49.486095 282.047302 942.851868
14.787686 121.578506 887.321716
114.868233 103.967529 833.426819
235.499817 321.625183 893.969360
276.816040 289.432587 832.597778
-125.524254 136.356277 976.372986
-21.600258 348.637573 1005.403809
120.082909 111.587418 845.204041
163.027466 423.704254 948.783325
55.240318 380.149628 982.622009
121.180573 82.556076 809.589844
-55.377163 322.673676 990.403564
170.586288 197.945831 851.366150
46.636459 339.365143 961.160645
62.015957 90.217567 819.515991
-61.947098 372.390381 968.466553
-39.086323 187.759323 920.761902
300.609131 403.682922 868.565674
111.628227 102.567429 830.026550
168.222031 316.717987 913.158569
48.235764 102.116043 851.976685
325.981873 356.967712 867.433411
262.366608 309.359039 882.411438
-56.528038 118.290787 901.300049
268.724915 440.250702 934.037354
210.413574 324.773346 895.630249
67.419556 383.889099 969.244141
48.192348 371.783691 1001.230652
230.316620 425.416962 942.283691
-15.373814 269.709717 962.798767
235.663849 372.423645 919.222351
58.007797 53.541737 841.377014
209.510757 263.097321 843.366943
39.412502 62.276432 853.789368
-91.113007 175.016953 933.963440
51.009285 317.702515 948.777222
301.949524 332.185852 872.732727
246.269104 320.706787 878.068665
211.272095 264.350464 850.950134
129.033798 104.514870 820.793945
166.529129 471.056732 993.074707
193.754410 362.056824 899.494812
168.452072 147.312805 831.886414
39.044582 82.406197 861.490967
-104.242424 97.886688 914.956604
-37.153633 95.925262 882.407227
-33.754684 245.524765 965.663269
201.929230 287.087463 877.853333
-90.145592 317.860870 976.491089
-82.208496 170.449615 939.519226
127.267448 436.098816 955.562439
184.392685 352.326782 932.999023
230.195816 201.705795 835.427490
177.888611 187.262436 842.084656
-56.982021 300.645844 975.473328
290.633575 293.964722 869.996826
1.572882 424.767120 1016.762695
82.492668 221.193054 898.035400
44.836773 104.304482 844.426392
-105.544609 249.865204 970.809814
132.002213 474.946564 991.356628
42.332092 50.717667 830.796265
128.256439 428.119720 987.109009
273.062653 362.920227 902.388367
74.636299 306.217224 945.826660
215.093994 272.406799 885.691589
112.819496 390.363098 960.340576
-33.778175 340.965820 1004.794373
173.234238 403.508911 926.870056
-6.031322 222.869446 938.238953
25.993504 158.518234 886.368530
2.561065 93.732529 884.862793
146.683914 396.147980 943.720520
138.634430 95.405106 831.246643
-56.400963 183.991943 933.713196
28.681574 150.905991 898.348267
110.069962 328.665558 933.630615
-38.730812 308.352448 996.700378
194.593781 286.176117 897.536438
152.241104 139.354996 818.421448
-94.627350 116.458832 919.096313
-47.897640 125.493668 909.623779
-40.306698 62.185394 862.809875
229.836945 396.709259 934.407166
194.698700 267.437897 889.995300
95.517952 82.264702 840.514099
219.067337 457.003906 955.040283
-30.128294 216.675873 921.721985
156.090607 224.267258 873.468628
-91.953094 266.988068 978.614685
-93.356499 179.976578 975.123962
94.273338 -2.838377 822.243286
2.329480 417.837708 1017.238892
43.313538 73.795265 838.855103
-96.452805 83.614258 893.199829
104.077225 440.297577 990.083130
112.467888 305.043396 937.982666
229.875137 393.242096 927.670532
-27.860371 153.140305 900.336365
210.401688 309.513031 870.249573
185.673386 170.136627 832.593689
-126.325859 119.893440 947.036194
44.836285 207.604141 906.608398
-49.258183 241.009979 943.681824
-102.005547 63.480022 901.983826
119.726456 440.885620 983.696655
-23.111750 108.750725 867.113525
243.549789 350.675598 877.033691
-99.574440 246.855988 981.116150
198.584915 325.554901 913.074524
50.627495 1.059472 788.999329
210.190125 337.229767 913.278198
185.869446 184.949539 844.403076
207.433807 188.770752 829.407593
147.304077 161.618454 857.414124
30.913857 137.802628 892.125854
-105.889282 205.028946 1001.453674
-121.274094 103.695221 908.722473
41.092731 56.343193 850.654480
106.808434 295.294312 930.516785
29.515671 27.795771 836.378906
145.277451 431.098236 975.730530
37.870472 434.811981 1065.241455
207.065796 372.289551 918.379822
182.460815 201.957565 851.010803
93.118446 200.643417 893.513794
94.710991 142.959778 857.079895
222.342194 373.371063 913.012451
88.330536 310.349792 914.653687
147.194824 162.447495 847.866150
96.541435 448.205048 975.452209
-6.888003 276.384399 947.637878
167.913925 463.863770 983.962463
231.548157 386.077820 913.973999
209.742218 423.951874 937.374573
216.933624 170.580719 835.012817
-34.646442 392.977020 989.653137
87.041679 315.819977 931.701050
130.875488 169.467743 827.142639
22.859915 181.488937 911.866882
103.689911 264.516663 904.269104
163.891922 301.500549 915.459045
-76.648079 361.083618 942.487610
-14.916907 188.581573 913.680115
191.655548 447.133057 936.959167
54.388607 303.690735 937.660950
272.263641 376.883667 902.314453
135.279144 399.414276 966.875977
-75.860977 354.140015 949.515991
211.880615 277.527466 886.482178
-26.823023 223.947403 931.905457
18.913717 56.078094 859.365662
233.896744 451.949310 933.938782
277.302643 263.980865 853.570251
119.407738 127.739723 842.846802
91.250259 218.585922 890.332275
8.701352 144.571167 899.564575
283.743134 315.172119 859.261963
-3.911042 84.661636 851.811951
29.256571 203.020752 903.293274
-80.867050 158.084167 931.802795
35.376919 213.034973 901.713318
-25.338833 240.883224 933.688843
76.448372 228.894745 882.705444
-82.868706 310.165314 982.065430
29.967688 392.376831 1015.404297
69.777496 266.367004 914.075562
1.480058 256.784729 942.266479
275.545502 351.348419 886.936035
-78.274216 351.222107 963.397888
61.112438 250.612930 897.613953
-106.163956 257.014130 971.135376
128.891708 314.512115 921.440796
33.151508 119.833801 866.751587
204.723358 337.264130 914.249695
-50.641155 347.139832 966.406921
215.719116 271.820007 852.609619
-11.080408 224.448044 927.723816
187.246567 336.326782 914.365845
267.248932 293.713898 874.644104
258.108643 421.062653 928.077209
183.296738 215.409851 873.480591
116.150330 84.025879 820.041748
145.786057 424.988770 967.620117
208.749451 367.948212 925.769958
213.609970 200.450226 842.381592
43.625648 -5.873875 812.209656
180.963623 370.331940 928.796387
121.196129 320.357178 926.972534
-54.899506 58.943913 867.269165
30.827013 28.262720 819.038879
310.332245 399.451233 894.648804
110.272133 451.059082 991.928894
178.925110 176.798111 853.522034
111.526093 159.532928 834.168762
44.166412 227.195374 906.646179
67.272736 235.744308 923.813293
1.810562 309.806610 985.129272
174.257446 250.223022 890.051086
10.623188 219.694870 930.831787
246.579086 264.725006 849.010925
218.122025 476.456146 975.513062
27.860518 86.832207 872.318665
39.319332 66.613762 841.447571
178.748749 416.588776 945.444641
-79.700661 151.922775 918.759033
237.377640 352.364105 907.726379
184.140411 128.675995 820.341187
189.291534 306.842041 897.273865
66.631645 443.070404 1056.182373
135.477188 265.686066 901.676025
-41.519665 365.652252 983.398560
97.626808 202.862717 881.124634
55.659592 153.225754 889.862122
64.271591 159.084290 872.038147
26.601656 205.345551 900.414246
327.544556 337.794769 869.290283
329.110718 357.665314 870.431702
227.601746 284.865906 879.322937
105.164879 177.034119 882.311462
133.135971 59.577419 810.781128
106.760994 168.096649 859.854614
260.839844 385.451721 895.225586
97.191040 486.709686 1066.968384
113.899261 339.349182 938.698792
191.716934 293.132416 886.170837
181.396317 424.039948 942.389709
-17.629448 230.477692 942.169800
100.357841 205.345169 883.352173
250.896851 262.272339 850.376892
-49.489208 83.208832 865.891541
-97.133118 110.885674 909.443787
203.335297 329.957489 912.303589
-99.750008 280.851288 979.221436
172.508759 254.607635 878.622864
-58.017113 393.428925 947.924683
210.178345 292.451355 888.854980
288.224884 381.669495 902.114075
179.655609 159.938202 850.504517
314.093231 346.325195 878.819580
222.770386 253.962708 853.546814
122.441727 243.950531 895.876221
116.850639 218.021332 894.408203
143.460266 260.329590 896.440796
139.288757 463.212677 989.855652
78.204147 104.155243 842.064575
-71.244110 99.880348 878.523621
62.226295 336.079651 956.374084
135.091980 430.303223 975.902893
-15.307177 311.780945 987.202393
275.494263 323.447266 865.874878
148.832092 317.771240 926.369385
253.112457 269.473602 838.296875
214.233353 424.800964 938.330811
202.275391 349.136841 890.697571
269.317780 377.432556 907.694031
300.235291 413.964172 909.278748
21.743214 387.026978 1016.638855
-47.708260 77.569923 888.746948
299.664490 308.457916 860.504272
329.675964 401.507233 872.992493
0.234445 131.217743 900.011353
130.455002 359.849091 943.010986
-20.416557 232.391296 933.338501
-35.420338 390.209167 987.694702
209.510468 335.816589 894.572571
287.328003 323.425568 844.963257
202.484665 293.258881 883.237183
337.741516 407.952393 886.814758
36.725540 7.097773 833.949280
-69.146774 207.607376 931.298340
133.338913 413.394104 966.044861
-55.550724 53.293873 861.212036
255.394638 332.073425 864.653198
221.906708 421.915466 934.517090
127.596359 174.981873 874.019775
212.638748 420.963013 935.294067
160.258255 161.708832 837.813171
27.021040 414.780579 1033.153076
161.770782 302.555206 915.428284
154.876785 408.129272 966.947693
10.441570 233.715927 922.685913
56.791912 234.985794 921.584900
92.579506 411.187073 978.888855
23.805941 9.769855 828.369507
184.075775 214.377869 870.622375
32.894695 16.021761 826.402405
159.931885 158.173019 847.618774
190.915176 415.403320 944.955261
237.228027 376.235413 922.066895
-68.382530 134.121353 905.524902
168.682587 196.540543 853.516968
173.541611 271.221588 900.380432
51.804695 451.581573 1061.331299
-100.155685 79.595352 892.086487
142.880173 74.544006 811.184631
125.622513 296.664948 925.081604
-53.272850 69.347130 871.247131
150.750458 454.531403 956.119995
138.197342 270.919647 878.992004
156.234329 186.910172 852.836731
74.883141 140.085953 859.916870
-6.653520 320.620575 998.213501
271.077332 262.611938 850.898438
45.209110 29.136902 837.292603
-92.757225 186.373581 962.944885
-81.295242 368.167908 934.804321
73.074524 277.385803 924.842163
329.070282 354.587982 864.606628
165.342834 441.806396 963.770081
10.643359 72.835785 872.561829
63.565701 41.293602 834.359558
69.325829 95.899055 841.330872
264.220398 312.616669 865.812805
121.176338 123.472710 851.036682
253.166672 265.682800 857.029602
36.017185 301.231384 958.999268
73.799805 372.754700 973.483398
253.625076 434.128296 936.547363
239.513885 280.684326 840.553406
47.007282 158.371536 880.134888
247.638870 296.346375 872.767395
62.526840 393.255615 981.565552
224.312820 441.187286 924.340576
42.134182 323.727295 953.347961
-76.523376 89.192528 907.545471
90.891907 103.890953 852.777893
241.372025 261.494537 853.804871
130.262787 72.115990 809.518616
113.055092 220.835571 867.506653
137.405716 415.033997 967.255249
-89.353119 329.824860 948.591187
138.085342 118.210060 820.433350
232.168900 299.222992 876.830200
204.655594 239.454498 855.216980
226.797241 347.156281 906.531372
161.826569 175.496002 858.637573
241.121475 394.403198 923.646484
68.770126 56.989635 811.717529
271.986755 400.631165 899.660400
193.068634 439.950348 951.946167
200.261063 388.624725 938.607056
-31.941792 400.195221 980.777832
184.811432 348.443909 896.510864
291.586823 347.796661 883.354553
54.218384 14.003148 789.178894
35.355221 188.953186 895.408813
-13.495399 179.818924 911.701477
-96.133362 273.791290 962.062622
-66.724426 51.422813 866.043335
65.430786 381.212097 978.252441
-39.532307 71.955177 888.535461
-86.899849 165.789841 913.157166
346.590698 363.636749 880.066345
277.219482 402.815247 914.482544
120.262909 202.282043 874.576599
63.600281 273.118134 919.107971
30.066904 260.509705 933.934631
1.815083 128.664017 893.126831
166.382965 503.718933 989.532043
62.666618 365.954987 976.051758
259.682709 340.842438 879.407288
-79.299591 140.811615 914.834106
98.463791 219.965439 888.781067
193.866882 163.737839 827.810364
281.261932 387.171631 907.367004
272.969940 377.369965 896.729126
80.726295 423.023193 1003.056274
149.985046 149.419449 841.970398
80.600136 134.262787 848.150879
106.058983 437.998230 986.699585
-15.004354 378.430206 997.680908
102.399063 443.033325 1009.203613
155.220383 340.451813 924.275452
153.954834 282.954712 894.936340
100.914597 280.579193 926.736389
180.180115 107.094284 818.204834
142.657196 76.370316 810.553345
76.455391 320.123077 951.767212
289.630768 279.360229 854.067383
98.813408 458.151978 1010.857849
128.083359 486.124359 1002.391296
89.523010 283.686401 932.054688
235.122360 377.218323 918.635071
165.981842 135.360870 826.086426
-18.314796 47.322746 862.217163
191.774796 452.020569 951.995544
179.979843 321.755432 903.493958
272.311920 354.619537 869.070740
87.913361 31.530302 804.895935
53.169762 171.637222 872.255737
21.952221 377.126099 1005.247314
57.618053 428.398560 1028.328857
37.744141 214.882278 911.662354
156.826752 162.805405 839.379272
56.013008 8.638724 788.095276
49.081516 377.672028 989.993530
107.353699 187.438675 886.092285
68.516579 29.535793 813.355896
81.074974 208.283722 885.742981
173.399124 377.569275 914.443542
-11.645898 163.993958 913.072144
144.791245 177.129181 866.667847
0.704195 136.143448 898.482239
124.016708 286.421478 911.092468
28.551838 393.230408 1018.390442
283.414734 329.886719 879.818420
5.684891 88.693970 876.819397
30.006395 145.053635 892.790466
299.272461 391.345245 895.544006
144.443115 295.362244 910.092957
208.696976 352.660522 890.041443
-3.031512 39.108261 840.091431
252.564072 406.653473 908.784973
233.487396 361.012695 878.286011
106.488182 52.150349 823.577087
167.097839 468.650543 992.826294
46.458797 206.210281 914.734680
91.053619 13.742073 795.647034
156.641235 87.904091 812.255493
109.645142 354.231506 927.874207
347.580383 381.953613 883.371460
110.280762 149.097321 852.945557
120.008934 385.152191 971.263489
67.022377 194.662521 900.045044
36.248940 108.020264 871.652466
-50.764896 59.242149 881.907593
192.366653 425.238464 942.511780
247.939514 333.048859 880.950317
76.028679 74.893578 830.559204
-90.423676 196.980667 971.130249
179.325531 248.009796 886.956360
124.575584 72.460983 826.728455
113.060036 225.629410 899.918945
308.109161 397.859344 902.917725
86.849091 336.274292 948.129150
121.551804 191.669815 871.002136
144.978867 232.322266 892.682190
82.685760 97.235130 840.437622
140.366272 181.187683 866.310913
124.137596 393.187500 960.979126
125.770088 87.633659 833.385193
39.468380 329.983887 966.327209
139.728683 231.380371 854.631958
66.769211 195.122482 873.024536
313.575409 327.054443 859.240662
194.996170 233.989517 854.026611
247.386841 327.231445 893.727844
3.686010 17.129713 829.696289
-13.240118 391.907257 999.652161
217.339767 196.334869 838.024597
-48.608582 96.019417 886.106445
-104.851822 242.515991 974.887817
-23.580973 412.100067 984.024048
60.682835 149.408722 868.481018
118.942795 138.257858 845.599365
-6.723788 211.664795 932.927979
-58.467846 180.478561 936.246460
-5.048923 102.146156 872.575073
66.323845 371.096863 975.247864
-74.931137 180.621124 928.430908
43.552273 188.533920 907.885803
188.171143 329.635986 916.897461
217.091537 369.226440 913.901245
12.582601 321.890930 961.825317
-19.295034 144.767441 884.415039
157.223541 383.920410 953.811707
249.397858 352.312622 902.739136
120.845871 109.512459 831.609863
51.722496 398.575989 1003.550842
159.199570 423.575684 965.624207
287.764557 316.783325 871.711487
80.863579 -11.655577 789.094360
98.502106 20.969328 799.226807
-58.882454 391.554169 960.026428
208.862900 450.964050 960.908752
234.448837 268.659607 859.493042
25.574223 132.164093 868.195313
43.834435 177.960464 904.237305
-105.184425 108.170448 907.561951
-29.268486 312.795990 972.080505
104.982285 79.768631 840.747559
57.283524 282.378723 930.701355
-41.131218 99.038841 879.852112
306.068726 342.808960 859.792297
28.016321 314.034821 953.498535
145.016800 169.110062 846.899475
134.563690 94.549545 819.364624
50.548096 340.951935 963.116821
255.799896 346.207703 899.621033
226.388657 203.977188 837.491943
199.753754 257.716217 883.602783
30.885771 443.703186 1036.102905
132.932541 283.354736 907.275024
120.924500 331.054199 941.409180
27.944248 56.654655 842.004456
92.219681 203.109818 885.960632
-59.779778 375.397308 968.020508
296.974335 333.466278 875.653259
97.753838 94.352058 834.277710
101.171478 349.990540 940.569031
-45.322247 363.759735 965.045715
-91.409058 293.351074 953.582031
324.636932 401.880859 889.965881
-29.964569 338.661987 999.038696
-85.724457 106.367386 917.173950
-11.781469 158.430740 897.549133
211.848450 454.891235 943.691895
-106.576927 253.623810 985.175476
256.913269 437.880280 938.662231
112.969742 241.962128 890.589905
326.354492 386.235077 890.233276
194.428345 262.047485 878.647461
-53.522739 106.561508 909.097961
14.674777 299.223572 951.340942
322.736267 363.756226 865.207703
182.985443 199.325562 819.800476
-37.133324 133.799393 894.271606
9.196911 292.470795 960.810303
-48.655354 70.233788 888.202271
249.736191 366.027954 907.461243
196.960175 436.548553 961.978088
273.520050 435.963104 928.790833
267.517731 397.576874 917.629578
171.736526 267.996216 884.361145
-56.980957 299.235626 991.788940
-37.980106 133.747452 895.305786
22.508718 233.775223 903.992859
150.708466 159.763092 845.338623
139.827042 262.983398 906.092346
246.180191 402.863556 927.229797
231.675339 192.787262 845.233643
164.038574 136.039169 808.486206
36.007946 48.412457 849.233948
219.866745 329.546692 909.174072
192.972961 319.745239 905.052063
-58.837265 166.221252 906.965637
242.666168 250.139023 852.912781
-65.112595 87.691505 889.176514
-124.767143 100.404755 910.481323
152.554398 434.693573 960.997559
18.197277 376.613678 1004.608582
98.281624 247.897568 895.827515
299.113525 382.685181 891.521240
221.563156 441.257355 934.479797
-11.214525 389.959747 1004.611938
-20.191288 398.693146 977.115173
2.619822 21.214291 854.969971
-24.381662 287.949829 988.509277
-29.131054 355.203918 1005.461304
-4.862594 281.975830 971.809448
328.449921 346.046936 869.198059
292.844025 391.247559 897.083801
123.219017 63.370647 825.329468
76.380577 184.938431 875.046082
-101.852097 246.774506 976.708313
163.580399 458.248505 955.404846
20.705667 396.877655 1002.851440
183.544571 275.114197 879.407104
290.823792 442.546356 923.244812
-44.603283 302.836212 989.834290
19.094851 386.618347 1029.525513
227.599564 238.291656 853.154541
107.948868 151.302048 846.708801
222.880615 371.237976 923.070251
180.815125 264.984375 893.568848
230.765289 370.672791 900.793701
-6.268626 122.828857 879.102966
108.327477 419.929626 974.434387
36.959759 111.134476 873.950134
249.379944 327.732147 858.740112
112.750801 19.334558 803.987427
53.157295 258.475922 918.986511
-67.734222 323.590332 983.970398
-55.030128 119.403618 914.058411
-89.189667 78.579491 908.356018
-94.908768 187.582001 957.731079
13.744768 304.202515 954.558105
95.788223 372.017181 950.372375
282.978546 308.966064 864.666626
83.813683 110.973495 854.890381
131.148972 149.483810 862.495056
51.852695 316.572968 960.018188
37.656036 93.292465 851.068420
248.156723 335.415497 862.358276
130.230637 92.950165 821.647095
-58.813381 198.371735 953.559570
34.740269 235.598984 916.284973
116.314972 58.066040 810.127563
47.989643 84.354317 859.527344
129.061905 407.671600 953.235107
84.722427 170.091049 870.218689
-83.219070 288.389008 978.426636
136.861557 134.682938 854.000732
179.900406 359.122101 926.848816
189.333038 317.826050 909.997925
-32.958134 244.228500 934.897400
86.132072 207.095261 904.094543
-92.914909 56.685894 909.119934
320.862488 404.686310 892.093384
233.942703 199.629578 837.060425
110.877480 110.708481 824.294128
109.771301 395.718445 976.589050
-13.042573 223.985107 913.469849
287.223267 329.053619 877.438782
-42.599850 61.874626 881.526733
200.410187 311.677612 888.545898
187.737061 261.165771 859.903809
-42.655796 101.504601 869.526062
129.393723 376.356476 952.467773
117.199287 219.767715 874.578613
169.973679 222.705231 866.646973
-35.118099 124.146912 897.150879
18.318737 403.405548 1031.718750
186.317841 176.243011 849.578308
-14.362683 65.889275 876.398743
-25.744417 226.591629 930.850037
40.422104 2.491335 819.733643
182.452560 270.813812 883.841858
29.497917 94.694633 833.311462
136.388336 358.608337 940.297852
-21.995911 132.724579 889.805969
12.887475 309.565125 970.553650
63.097527 47.055084 828.922791
96.314140 321.810852 934.387512
177.546097 132.233521 835.200195
128.347519 61.654266 807.956238
-12.740088 410.351776 999.847656
204.308411 419.881165 939.645081
275.891846 421.059082 921.424866
236.042587 295.702545 869.353271
-21.823235 90.942764 887.932800
-169.572708 72.496124 968.299133
-93.002457 245.543304 967.661743
57.364101 187.263046 887.138245
167.425278 176.309464 842.864746
270.206451 269.628235 853.467712
-111.436989 213.060959 994.959900
-46.121120 148.381424 893.256226
83.192307 174.514938 886.138000
36.844154 32.810181 842.234497
96.009933 440.897919 1005.508301
41.431992 35.891727 819.052856
-124.052826 136.236267 913.424744
213.428452 355.930023 918.837891
273.748718 351.182129 892.231812
-93.130516 174.340988 952.308838
-61.909252 160.613037 913.511902
111.643349 254.694138 911.040955
40.137833 232.399475 899.196899
40.387043 416.391602 1061.012085
68.349396 382.820770 990.886719
-38.252316 193.788223 933.678833
249.179596 309.426361 870.775146
62.465878 -19.921772 792.314880
87.674309 432.760132 992.918701
239.602859 461.309570 936.909851
72.155289 139.878601 875.473694
47.569180 321.145477 945.610474
232.689713 342.834991 895.305908
213.839813 446.984009 960.499817
157.210785 351.722778 930.117615
9.754000 203.843689 924.170349
-67.064194 109.980621 895.127136
146.447662 363.400726 951.487976
-28.050985 211.776031 933.373779
151.861664 314.024170 913.496826
-38.372387 205.409927 935.021240
29.525581 151.874252 895.857178
226.264908 248.073456 860.801208
86.384674 403.572815 979.868774
301.764496 353.331421 870.087952
-74.048286 370.539429 955.634460
113.147453 421.655212 967.247314
-46.875275 392.442932 977.041809
97.859306 130.147110 845.355347
-45.767765 181.488754 935.418091
269.153717 283.056488 863.796265
-73.493866 119.261902 913.958923
-26.863609 123.043365 887.757629
179.167419 210.286835 868.412048
-74.030151 277.239258 983.541748
213.182343 192.712585 837.598633
17.068333 26.106459 813.293396
-108.255157 270.006073 962.954407
262.784515 281.762146 861.686646
-90.596611 311.628937 968.391052
269.920807 398.528656 910.685181
180.445007 314.099701 900.968506
33.451401 242.440521 919.799805
162.785858 321.315491 924.245178
-53.055138 289.315399 985.476379
221.668091 189.655838 842.379150
243.304459 232.591187 843.948303
198.682571 165.678696 831.933838
150.174774 396.885132 932.164490
-36.762188 172.439957 924.555176
156.637344 269.870972 894.118835
174.637161 377.260620 937.575623
191.277863 460.757813 969.676331
251.965179 439.159149 938.651123
187.796875 274.978119 894.643921
107.784302 188.974213 882.827576
41.040283 403.475403 1024.763916
29.561314 346.268250 969.637878
-64.490532 318.776154 983.611084
31.531166 235.812180 915.117676
110.659332 181.774536 880.344177
-0.153981 348.083130 998.696777
83.678848 146.424072 871.809753
311.261658 373.200195 864.477051
269.155060 327.667480 879.745850
234.164444 221.763916 840.272644
161.205032 380.171661 931.920776
-7.915634 392.418976 1005.945374
31.436344 429.685883 1056.207031
213.509583 333.192291 891.995178
120.011269 391.173981 954.760620
84.995010 447.410889 1008.042969
271.851440 364.980255 896.542175
-12.301914 359.452271 1000.958801
-30.273939 32.085697 854.189514
0.177756 353.885010 996.876648
52.291821 214.833572 897.781799
-24.470901 73.087791 860.622131
243.004761 344.513031 903.900757
23.802984 226.950089 931.354919
-107.956177 235.783478 992.697876
-77.118431 364.861877 968.488159
18.248692 217.806793 909.414551
73.037857 131.064178 857.251221
237.839005 414.296997 939.079651
-19.657003 105.245323 864.500977
178.500824 342.295776 925.087402
74.956833 -16.130985 815.755920
295.194336 312.235504 844.403137
61.906517 399.669830 970.787964
268.981476 329.421265 870.652832
1.527062 201.061600 911.291016
0.587283 429.439392 1005.532959
48.526237 205.541031 902.147278
132.861084 380.125275 953.117798
134.538239 254.143723 897.587952
143.955078 218.428192 874.993103
188.946472 379.429749 933.845886
4.369758 340.396240 1013.794373
286.123810 362.581940 873.665466
161.673843 483.297119 991.294373
47.653194 134.903000 882.042847
-110.584320 211.524658 996.296021
-10.871673 86.017342 865.220947
-60.127754 128.659134 901.576843
-17.276041 84.389977 875.342773
197.470306 180.496979 840.751343
109.106796 485.189392 1022.082825
97.275124 191.292099 893.415100
-31.444611 309.196472 993.653687
-96.330978 337.669647 929.328369
158.536697 334.432281 919.678894
105.410873 80.195343 819.649658
-53.088417 209.348129 945.388672
129.105011 497.285004 1020.747559
-11.686438 230.599396 931.879761
76.911140 5.295274 814.689453
131.372986 423.793213 983.483948
289.926086 343.910065 870.215210
198.895279 215.598526 863.153809
243.730164 403.630829 924.269775
225.348007 378.846436 915.006714
193.141754 341.906494 921.944763
44.362854 120.627609 874.652588
148.253616 253.146317 889.121033
186.682892 325.928802 902.600952
329.569122 380.760376 865.126099
98.120140 43.121456 806.019897
148.687714 299.309814 920.459778
-37.168797 182.628784 916.945618
-106.899345 94.547508 912.770691
-51.712894 356.995087 976.165710
-87.844894 167.791641 925.626526
80.725410 84.303604 846.887146
-21.349543 80.483353 880.563660
72.840561 190.633331 899.309387
148.407181 495.436218 1012.611206
134.749573 263.193176 895.363464
208.318909 223.097015 848.159973
-9.416844 305.104401 975.885376
-62.992062 373.877380 966.923584
-42.120461 205.393600 948.099731
205.328506 173.207077 829.738464
-17.117310 337.538116 1000.340759
92.745918 487.236786 1064.963501
194.350540 224.991501 870.151062
136.524292 100.513931 821.914185
141.869507 106.005234 834.331177
-51.377781 276.577301 988.737915
232.663757 425.265930 927.935730
105.619934 361.761444 964.882996
229.356003 327.090912 898.963806
39.814693 131.355576 870.232727
27.861370 241.244461 915.324341
52.819336 445.105225 1069.765747
294.914093 370.522827 883.925232
191.502823 391.142639 913.859314
-67.967865 79.614273 894.125732
91.596504 48.473236 831.065796
55.938629 406.679199 1000.741699
27.460342 192.299530 898.867676
-83.358315 195.330429 957.111816
87.440468 347.574402 964.745911
24.121193 417.978363 1017.302429
137.516769 176.891983 837.821167
294.812500 393.870178 884.401611
64.637383 206.446808 889.540344
277.511475 291.937622 872.123169
306.258514 318.815094 858.513611
123.490456 336.951721 911.481995
80.468605 70.431160 846.004211
213.765289 300.687744 898.801636
46.915180 74.365509 824.951965
240.737885 253.095352 855.282593
73.077950 224.232697 902.904968
-28.586645 279.493073 986.869019
-0.905265 390.246033 1011.547058
43.746082 296.542633 944.394409
59.591278 421.120483 1013.419983
12.006370 379.165802 1015.073730
217.340210 408.429596 944.514954
183.363770 423.591827 926.302979
-26.557360 63.258884 875.252014
-76.970543 339.202271 948.890503
-4.842320 396.466675 993.309265
-32.366947 274.000793 985.387451
273.891632 359.404846 895.156433
304.354980 342.231018 871.648438
153.054001 422.188354 959.918579
217.550674 219.531891 850.694763
31.066149 219.010590 906.892456
-68.963112 353.826141 950.073914
70.700783 80.397552 811.485535
189.717972 377.504395 941.356995
-84.097496 166.215805 924.710938
197.530640 343.392151 909.188782
261.303131 322.893799 858.472290
44.986465 9.905001 805.244568
-12.118303 398.337738 995.532410
297.625977 347.348694 877.480042
40.173275 375.799072 984.551147
176.658752 374.603485 935.836792
-113.299423 237.697662 955.145020
181.966583 379.745636 931.042908
132.865295 79.241844 828.716003
222.159836 428.945099 945.029907
257.656708 402.165833 924.005432
132.556458 398.510071 964.007202
265.370605 309.555298 864.457397
63.093472 102.686554 865.207458
67.731087 40.461185 818.380188
69.946098 74.851799 828.911499
164.655426 300.441376 876.509094
-91.032051 230.656494 988.934692
107.970512 445.281586 979.626465
154.267242 429.559906 953.369629
167.417999 213.571289 865.563965
168.983170 199.148956 851.179260
-5.813999 183.333527 908.090210
3.465805 194.422989 907.973938
120.394943 246.857346 887.791565
-29.141621 187.820724 929.033997
-60.978149 172.415573 933.473206
167.593903 118.101082 818.042175
254.440140 255.313538 864.864563
-16.329781 148.090393 907.566772
15.963573 55.793201 843.795776
-47.239136 93.745155 882.029968
162.729492 77.642906 818.169250
145.703049 398.756073 955.918274
-54.733727 383.463074 960.127502
149.612106 317.572815 920.085815
20.177309 429.990662 1043.391846
78.140839 20.952518 804.605164
130.484772 368.836273 938.608887
69.721916 336.485657 952.312866
-109.335861 189.999542 1004.866150
234.508728 358.582275 914.404236
221.102722 411.822723 929.493164
-13.850230 110.086502 856.222412
265.022430 320.893311 868.912292
131.348831 97.558983 800.320374
214.661118 361.966949 920.881592
168.126495 273.906403 894.120056
38.018116 197.855530 897.937988
65.906441 118.575233 852.698608
166.627411 134.735458 825.396362
56.949081 175.274216 900.210693
135.027893 447.036346 984.888916
58.225094 143.833328 885.768494
220.422073 438.316833 948.506409
27.616732 391.184204 1018.873657
13.113992 340.628235 986.584106
21.972628 236.368317 924.859314
-68.798409 213.263046 956.252808
36.205715 187.193710 893.568359
136.203049 475.550079 997.332214
-1.699419 270.937347 964.170532
99.464844 404.333893 977.347717
77.090340 449.737579 995.798157
-62.936668 260.621460 992.626099
314.293274 387.282410 892.387329
6.762724 346.619843 1004.181702
198.217911 225.642960 862.298767
197.605637 325.456970 895.109924
232.589569 436.736725 946.227112
-17.526962 193.271774 918.169617
105.523506 34.230213 809.423279
162.518372 172.405411 839.856262
173.779007 223.993073 860.748047
4.993171 252.731491 947.609436
113.894630 124.584396 849.719604
100.288399 249.421478 904.100220
205.684448 410.993134 934.793823
26.162035 401.721802 1050.812622
43.697521 282.930084 940.679626
165.504410 200.502304 857.722778
257.979614 254.227066 849.244995
-36.324440 49.223980 878.870789
191.950836 263.444550 890.345825
174.314224 439.674866 956.980042
173.430359 129.424332 820.637634
214.594406 184.171417 835.066895
48.803944 379.367828 982.092163
172.436417 433.711151 939.637451
-59.844349 294.567627 991.281677
226.334366 395.668457 915.128113
150.155304 95.685005 831.028748
168.256485 359.933502 933.319458
86.478554 106.917595 820.102417
161.734772 310.939087 911.013062
49.718910 177.432098 888.480835
145.682312 277.116028 903.372437
89.555161 53.786186 813.208130
76.628975 294.191467 911.895935
330.652252 357.483185 873.083801
-23.645910 381.482422 998.019653
261.614990 430.892242 912.019043
-17.927702 287.349152 958.771790
250.684067 398.188446 911.931335
211.565018 175.063263 828.044006
38.914757 140.040985 887.219177
-17.634333 409.131073 992.016846
77.080452 224.906082 897.560669
213.808228 448.277222 960.635803
191.942657 387.882996 937.034363
-71.554787 129.938766 904.815369
150.373413 313.290527 908.060242
166.691162 94.480011 815.469910
36.469189 327.088928 943.836609
8.012955 429.071655 1014.493530
111.145187 73.497177 816.045776
196.148605 359.479614 916.854614
121.634995 265.690826 897.987244
199.308685 171.172913 835.583130
-48.003254 26.132387 866.604553
-18.723114 285.334778 977.407959
-36.693367 209.783661 948.024719
2.221891 379.578766 1011.165222
69.835976 234.683289 918.951477
-51.726017 256.950714 979.596008
240.635696 375.431091 915.982849
246.454422 406.007874 926.697815
286.566711 348.552948 874.546021
106.230736 368.414063 967.749146
72.853111 323.355072 954.386536
144.268311 451.695129 983.699524
175.202271 188.701935 828.654602
20.424368 163.901520 889.515686
233.028976 331.042633 903.190857
100.372383 209.634491 897.645325
-0.598365 417.264221 1023.877258
-77.742546 156.823425 918.495117
164.097809 99.451241 814.574097
4.512241 66.106537 839.435425
160.837082 243.693420 877.442261
215.672806 235.814499 865.065918
88.067558 169.879318 871.212952
137.101700 408.886047 968.715759
40.297432 391.487579 1035.959473
6.002156 68.206779 866.750061
316.538300 364.354431 858.835083
-37.833588 212.509399 930.108154
91.273712 231.276291 897.126953
293.391602 294.418427 858.143982
90.821220 479.641052 1043.855225
176.483856 206.202789 867.429565
36.660164 215.831741 890.501953
69.771957 435.742645 1020.174988
199.922485 321.634460 907.610840
137.456177 199.854340 869.668762
230.274841 395.795715 928.425415
-98.472427 116.700287 892.050354
165.314621 217.589111 846.382324
119.009743 279.802185 910.954468
-41.045849 344.729919 972.004150
217.256805 240.966354 859.107666
95.565285 82.350220 803.969482
101.185577 482.065063 1018.927917
169.691147 456.869324 970.058167
23.841219 281.838562 935.055298
54.406876 190.026749 892.299866
336.417145 380.100311 884.496582
18.892536 406.278351 1018.662720
12.082250 350.538971 983.660156
282.499603 335.410095 861.723694
285.408691 314.272217 875.658081
-10.577686 281.251434 955.451965
86.194969 387.250732 962.554504
12.234550 406.855896 1012.329712
78.781120 128.348770 871.143982
61.602325 74.700455 819.277161
-82.467392 92.805206 894.896790
69.932739 362.736755 966.333496
-103.563370 281.244995 971.660889
117.925896 221.935226 885.705750
216.932175 268.313416 880.132813
144.527069 409.784271 966.997437
245.117996 237.561569 846.294067
-66.200279 347.850861 968.571716
20.725367 424.575531 1023.278870
48.850739 321.934540 954.112427
178.976593 189.930695 849.792969
21.130198 266.108978 939.697083
332.465912 365.802765 863.490845
114.287720 255.399597 905.308105
237.196823 335.657013 883.972900
220.164581 420.337067 943.450684
89.686142 236.258636 905.012146
279.826843 379.958740 887.733032
-5.024216 22.542072 829.316040
93.273048 305.393921 926.359375
168.464828 471.560333 975.386719
265.253754 336.436157 885.991455
27.392996 75.817436 860.549561
266.934509 366.910583 904.272949
207.850250 301.226471 894.237488
154.987534 277.581024 907.237427
31.520035 238.815506 903.185913
-11.466403 110.359489 878.121643
118.359047 133.777802 855.797058
99.243652 35.039017 808.188293
27.859629 176.371384 892.633179
-102.394196 230.158691 998.514160
196.495026 186.329193 844.691101
222.011093 234.837143 833.794861
205.405807 394.103943 936.940369
316.729309 341.547607 864.762817
117.013733 488.103455 1017.734070
183.283005 181.193008 844.711731
59.024570 87.141609 840.360229
-75.899986 142.993652 907.732300
79.288132 353.854706 964.157349
135.521576 450.433380 981.610718
-5.266057 364.558228 1006.311096
19.615425 55.553520 841.368774
-50.652966 343.552826 990.408691
70.344795 181.530334 893.261292
-37.325268 377.767303 972.354004
25.693377 38.233818 841.367004
137.121780 230.708862 882.144714
222.467697 396.330322 937.656555
129.812958 54.251320 804.151001
-107.289581 225.327911 999.257446
-40.239700 262.499542 967.035828
-8.408118 62.309315 837.052673
187.760361 255.271774 869.446350
-37.244526 120.467804 909.669128
60.022644 299.218201 949.328552
96.981033 2.334889 793.616638
83.225403 125.636093 851.357422
118.088730 406.117340 966.050415
68.437874 58.053062 808.045715
-20.190176 271.044861 976.621948
37.700535 42.604694 845.906433
127.122292 228.284821 879.353271
148.329727 164.962387 827.345825
148.421066 314.700500 923.864990
-4.862617 187.889450 908.285828
175.095154 155.914047 820.727051
167.968430 302.684875 882.197632
-44.774033 63.570461 887.592773
-10.436536 375.940918 1011.626587
296.885040 372.552948 869.701538
140.542450 186.695923 861.890076
84.137161 357.528168 970.408569
255.478424 412.136993 929.961792
-25.506056 381.590393 987.555115
-64.251610 374.028656 964.024353
23.554001 38.642948 827.087585
69.276398 100.307762 858.500610
325.294556 367.967773 865.293152
-68.877655 192.316467 944.606323
110.391228 481.553192 1004.308899
239.519318 289.209229 876.754089
9.436297 369.287445 1006.125305
72.949928 88.034019 843.564392
-36.328289 247.270172 948.203796
88.782433 235.467133 902.739075
161.485260 86.776451 821.795410
150.264816 441.317108 950.546997
-41.348286 307.500549 991.541992
241.463104 262.873596 850.785461
23.874250 143.003189 883.549744
49.992302 185.536057 880.530090
315.904022 339.009766 858.568359
45.027569 193.275696 880.536499
159.495026 365.197296 931.958618
175.913651 245.580994 873.087036
25.138029 265.563782 948.221863
-93.466606 311.460907 944.626465
-98.114647 140.529617 929.925476
195.608109 192.780487 846.997986
-71.931297 277.236145 985.695435
168.330063 223.185318 880.217102
234.792679 216.872559 852.526917
230.572296 289.320648 884.179382
209.698761 250.028702 876.728088
170.249771 166.046860 842.532715
135.595505 192.977509 865.005493
268.261108 303.746582 871.968323
182.721237 405.833618 954.378235
114.485748 196.532593 885.555725
2.035520 39.782173 856.153076
-88.676514 187.567093 930.519653
121.617332 355.867188 956.507874
69.137802 70.891655 850.146973
250.370331 413.989410 922.938843
148.100128 123.881569 826.931030
67.557083 237.655777 901.969849
145.331345 398.604218 969.203186
61.170067 373.024017 955.675842
-14.881604 270.457672 965.206482
-27.712732 189.236725 914.500671
230.568207 435.969940 918.493713
-49.513527 287.597412 984.375732
248.167633 257.700714 854.850403
118.282753 436.193512 985.610352
37.319534 136.311722 862.805054
-111.239113 117.912285 915.027649
112.379799 253.793289 913.774780
74.428757 -0.967276 796.607605
131.030975 271.788544 897.207947
-20.107550 188.962982 917.106262
73.584877 95.874756 839.100830
43.160889 378.112671 991.848877
148.272064 448.482819 981.235718
263.338287 407.835388 922.062378
239.021378 243.036743 850.711609
3.990374 35.939327 838.499817
166.758072 291.523621 897.845459
136.475266 427.659912 975.192017
104.245026 455.953491 1001.255432
173.401733 129.248764 824.868347
23.672411 272.873260 937.446716
58.100082 289.269501 935.495300
155.388397 99.888336 788.328491
216.886734 350.961823 905.195496
108.714607 462.766571 1013.658936
69.557198 237.738159 910.687988
148.428360 230.947601 868.959961
200.888931 370.477020 925.599609
-35.775902 30.100962 862.592834
-29.395058 159.766541 921.722046
281.209381 381.078674 868.978027
-21.543592 427.432098 965.943298
123.872849 266.059021 903.750061
201.966431 360.387878 919.946838
115.877380 156.237717 857.622986
-7.039864 47.410480 858.267639
-62.356770 278.070221 974.325928
33.447495 406.948212 1047.422363
-94.664871 307.695404 967.457458
14.111691 222.508408 916.505981
176.122131 243.069992 876.705566
-103.815422 311.644592 966.815918
-128.577713 154.701508 967.073853
148.439255 208.934082 881.028259
-13.988428 187.300797 928.458679
101.133179 160.264221 860.731812
85.680954 118.469620 857.785156
319.752991 402.839233 878.024292
307.027679 382.116425 891.574707
-31.907919 193.626251 922.046875
171.958801 386.115082 952.415344
35.525696 382.167816 1011.442871
122.498016 109.418861 820.336548
-50.950104 331.019104 968.244690
-56.935135 51.503170 882.345337
117.016609 308.822510 937.818542
139.307526 279.903503 901.466431
105.749382 227.366196 892.356201
148.054367 275.875763 908.711975
129.941666 168.025299 856.374878
-32.265400 357.013367 993.442749
273.988251 248.937744 853.831116
142.572144 263.787781 874.623840
246.849609 340.430573 898.127869
98.504631 282.103790 927.743958
