ply
format ascii 1.0
element vertex 1409
property float x
property float y
property float z
end_header
196.140839 -562.388367 905.742065
363.174072 -446.176392 742.761597
286.198090 -509.033417 775.652832
361.846344 -473.237213 650.298340
115.057747 -607.002197 873.855591
231.651886 -599.157837 710.770203
98.750992 -606.608948 859.799561
356.041046 -420.849579 846.222168
387.886902 -390.448303 799.254150
194.281067 -668.108826 613.434021
235.971802 -620.395569 566.241638
116.354385 -703.073120 722.328552
174.650970 -627.961060 826.459351
350.131897 -488.294739 651.509521
366.714905 -438.526184 722.707642
301.263458 -513.070129 711.568298
294.835052 -566.913330 499.567444
306.255493 -603.182739 461.555786
366.584991 -409.164673 854.201599
371.936798 -461.065582 713.373230
151.866470 -692.804077 597.529541
277.372955 -470.591797 939.083252
320.119171 -480.092041 738.957458
353.357635 -418.808533 836.658630
311.024353 -465.240997 889.905396
318.808502 -498.867218 712.949036
291.284790 -496.571442 792.342773
287.970245 -597.815247 549.838318
266.846954 -576.395447 626.504944
325.146851 -560.458618 488.486664
345.305573 -462.054504 762.859131
284.049194 -451.129639 863.570251
218.466324 -594.534119 756.391479
165.035172 -694.626892 540.523926
116.285339 -713.881165 725.245422
202.882095 -599.713501 785.789612
339.271881 -451.243134 841.591370
153.980194 -613.713989 915.559082
198.025009 -582.084534 828.746643
305.561890 -587.484802 487.225677
237.416733 -583.615784 733.013428
259.551239 -513.194946 904.021362
217.705841 -545.889465 901.372253
131.244095 -626.391357 862.252808
344.364532 -494.689728 626.592041
228.686783 -660.989258 498.825470
278.966003 -572.940674 578.144043
363.268555 -426.075714 797.008240
368.561096 -430.439423 797.871216
140.989426 -679.460876 656.454651
398.339203 -383.120209 829.444946
285.955963 -487.399902 900.383362
262.375458 -537.944397 775.610840
385.562256 -414.849243 774.903870
208.204086 -590.759033 797.942871
296.249756 -530.541809 686.605652
184.904205 -574.954590 821.242065
318.362000 -571.469421 492.929688
212.111130 -642.809631 627.522644
113.384399 -704.187622 719.086182
282.712067 -522.109741 722.191589
310.287537 -501.041016 706.470764
352.670410 -417.895782 812.391418
146.561951 -709.282166 570.825623
313.533905 -445.542206 878.824341
380.144562 -402.532135 787.814819
307.474121 -476.787720 795.241882
221.172424 -595.298035 718.966919
172.651382 -655.152222 603.929077
287.119720 -451.402100 918.238098
342.194702 -426.579834 821.263306
204.237549 -617.923645 729.419922
238.428925 -482.363129 968.887207
208.208511 -650.702637 605.987183
92.933548 -633.618286 835.267212
342.854218 -424.775085 896.876465
193.732468 -652.641418 669.302063
272.880096 -599.469727 589.313477
335.266144 -471.739868 731.853333
330.765198 -426.314636 791.282043
161.422150 -663.304688 774.169861
123.252869 -670.651489 790.422180
84.971069 -701.735413 711.589966
254.656723 -545.984863 787.390930
354.447266 -479.201050 712.025269
330.497589 -533.836670 602.090820
110.633057 -737.798889 547.938293
363.725464 -469.507416 656.755493
281.624298 -497.918030 841.063354
393.701141 -387.783752 828.173828
330.185455 -429.888885 904.911743
177.825195 -632.038574 768.506714
280.234192 -486.929962 919.331604
236.577316 -576.805908 754.280396
206.995575 -637.831238 560.927429
292.215942 -508.452240 814.320374
284.366272 -467.622986 956.192200
193.901138 -626.412537 945.041382
208.995422 -674.945129 531.025513
130.312042 -662.423889 769.785645
276.559998 -503.125061 863.433777
220.579651 -591.131653 699.980957
327.753021 -530.262878 637.561646
237.820587 -575.927979 706.900024
240.489944 -534.219238 850.526306
250.911331 -585.493713 650.651489
219.327621 -582.350159 787.871948
328.777496 -493.508118 740.566101
105.993454 -701.406677 739.919373
177.976532 -593.742310 783.850403
377.151123 -448.209808 716.122131
179.227478 -608.075195 763.371704
325.148712 -430.604950 895.648926
216.495453 -534.354614 883.486084
210.199341 -623.809204 697.235840
397.759918 -369.665405 873.620667
300.415833 -507.567474 757.143311
360.807007 -404.047638 897.791443
307.263458 -514.592285 684.024780
147.873260 -702.711243 544.800537
177.230774 -638.795532 904.677673
309.038177 -548.408325 573.035950
234.158173 -594.728027 653.813721
-118.956024 -982.824829 684.433899
302.743408 -449.120178 909.390137
302.046844 -569.185242 577.831909
228.906479 -561.656311 771.746155
215.157120 -680.402344 488.412659
146.818314 -680.388611 644.566956
285.510681 -469.288086 921.215759
228.246094 -515.513794 967.885620
342.433899 -433.092285 810.580261
173.688736 -630.786072 793.968628
307.754089 -589.689880 439.221588
350.078857 -497.991760 614.095642
178.291580 -615.275574 774.814880
222.923447 -580.726685 734.386047
343.713013 -461.832703 769.059631
367.088196 -451.518219 701.089905
230.768661 -578.136169 714.893921
183.697769 -687.009399 501.398804
188.067657 -627.938965 662.696960
343.096252 -492.775848 626.475586
171.259552 -647.225647 761.180664
133.330261 -710.333740 715.296692
316.837097 -519.935547 649.417725
212.350693 -558.328979 855.054993
239.281479 -561.668579 739.739319
282.774780 -529.348633 715.305542
169.450256 -626.079163 890.453003
314.333130 -573.460083 435.739258
289.455658 -492.238647 858.246338
187.769150 -548.852905 946.622742
346.690704 -421.681976 806.083557
212.823227 -596.532532 690.748779
260.925354 -573.415405 691.830872
310.841370 -556.730774 530.106628
239.351456 -598.098816 639.015686
274.799530 -502.720184 846.090576
337.432404 -488.904633 658.714111
312.556213 -538.908875 600.817444
324.568634 -527.223816 584.831848
211.578415 -512.337952 934.721008
308.933716 -461.244385 821.709229
274.783905 -563.374512 678.144348
173.625031 -634.979858 760.961487
130.128372 -713.389343 611.258728
326.098145 -489.815613 757.949829
289.514008 -512.473206 762.818726
202.316330 -658.913940 597.228516
384.292816 -391.665283 863.625427
326.735382 -450.552582 851.862427
184.563416 -630.444458 951.334717
120.809799 -689.461365 748.160645
372.257050 -427.327850 782.799805
325.727295 -579.283508 484.334320
273.376709 -551.353149 684.881714
137.798126 -702.404236 604.667969
390.119049 -375.083679 849.017883
132.090714 -745.831299 709.128967
277.906677 -613.658142 517.832275
133.560608 -707.097107 748.193420
305.059265 -550.867188 567.592224
318.763092 -448.409912 829.644104
134.970718 -652.288879 815.293030
279.128052 -607.581421 459.309814
237.544189 -593.063721 712.155762
271.954041 -557.158142 720.216492
314.145233 -516.672913 715.336121
369.096985 -399.475403 822.614502
194.080750 -600.615662 862.714722
120.117989 -678.706970 767.599487
345.474792 -429.455505 860.970886
247.423309 -507.503876 930.406433
347.191620 -414.375641 923.755249
262.330322 -534.222595 819.209900
335.264587 -453.510284 681.724854
359.962341 -425.951294 809.973022
225.597244 -604.443115 722.028809
128.621506 -773.719177 653.363159
368.952972 -396.322357 868.701721
179.563080 -599.141968 799.413513
358.297485 -420.294189 842.944458
190.298111 -617.524353 931.756348
304.991516 -475.464569 879.937134
210.109512 -621.069641 643.067627
272.505249 -511.339630 872.100708
180.558975 -691.106262 585.285400
211.695435 -527.315430 960.441772
315.170685 -552.513855 538.129028
347.098236 -455.977661 739.002014
389.041168 -385.567535 875.399292
200.654907 -609.378723 684.509949
356.729156 -417.891907 827.772400
242.426437 -583.548096 721.767944
343.499481 -433.377045 868.726257
95.211967 -624.289673 843.810669
325.144562 -441.847290 889.328796
368.367981 -437.223511 755.770264
322.821503 -505.219086 606.271912
262.960144 -585.976257 602.294739
191.871490 -597.970947 822.381531
259.744965 -540.480530 794.677368
269.863129 -525.401367 809.803223
239.023315 -532.496765 860.843201
310.607697 -525.546448 706.304810
332.822357 -389.495392 885.036987
352.367859 -415.682343 884.555359
317.095764 -479.863495 786.046509
230.696686 -546.312683 831.712097
271.346069 -595.080505 525.443237
144.699234 -649.270447 734.407227
305.275452 -505.466431 735.754333
244.726700 -664.263184 488.168091
174.303024 -628.502136 865.055115
349.581879 -452.392273 786.148682
342.864929 -475.364288 757.587524
337.880432 -540.813049 563.495728
271.231476 -488.481079 856.014893
290.983673 -498.880554 825.937805
253.013489 -582.466431 693.554443
337.889191 -476.124207 708.022888
213.986877 -653.161316 558.001221
360.576630 -441.285004 722.709595
222.186935 -631.232605 626.280029
128.569611 -733.025879 705.980530
349.482941 -420.294312 888.714905
191.196426 -668.810547 541.290405
273.757263 -499.859558 850.073975
259.035156 -490.574982 933.263245
296.015564 -520.825073 713.200745
112.966934 -637.706360 849.937073
317.414978 -455.779053 866.534912
290.534332 -491.862579 847.490234
124.211937 -715.502563 723.723389
282.444305 -480.849182 902.323303
397.341949 -413.752411 758.978271
234.763306 -630.636047 525.384094
170.295593 -691.617065 596.226318
200.901169 -572.549683 990.285889
299.845093 -464.022980 903.506226
284.561676 -456.487213 910.145874
271.036957 -538.045532 701.264221
156.907166 -670.911743 693.312256
259.938873 -569.235291 584.888550
333.945587 -480.313568 713.226685
197.755875 -551.782837 918.742432
228.452850 -652.872620 479.283478
342.583771 -519.403198 558.351013
98.570175 -708.635986 685.857605
302.546204 -562.338684 457.877045
187.416382 -635.391235 692.893066
291.451599 -481.119293 900.234314
359.215271 -468.976715 728.061218
88.660515 -698.865845 716.091003
372.061096 -420.207977 783.831177
348.253265 -461.291565 691.663452
373.471985 -428.151520 745.273071
258.974243 -548.019226 775.678589
369.178436 -404.302307 848.483276
311.874817 -551.967468 544.963379
101.047020 -598.421448 865.873596
277.195740 -533.272339 724.275513
207.004227 -606.459778 685.905212
226.331284 -591.413513 687.712097
184.963318 -542.704468 956.508728
133.138580 -728.307312 573.947144
385.814026 -433.443390 733.442566
239.404510 -518.026306 901.121216
57.567951 -618.317017 783.124634
242.494904 -605.756714 604.995239
359.705078 -451.898376 736.131348
193.554184 -643.687866 674.275696
371.141327 -448.666016 696.954407
262.405914 -556.233398 711.499756
276.721375 -600.349915 572.687256
229.905472 -585.429138 686.616455
262.607910 -592.359314 574.746277
176.673111 -675.334595 512.791748
167.258255 -648.801392 802.085632
245.765137 -524.015625 872.149536
226.974319 -649.869019 560.323120
337.559143 -468.940308 732.921875
217.776169 -507.177307 934.628296
182.487411 -606.746033 785.312500
74.143890 -673.815613 737.968079
234.107895 -491.401215 912.153564
146.910141 -628.387756 879.212036
302.015656 -597.590332 443.154816
235.353577 -629.687378 537.209961
254.991257 -528.990234 803.816345
215.907623 -564.345276 860.519104
235.497620 -600.385803 645.970032
110.737434 -632.423828 830.155334
160.190781 -652.407898 695.802734
235.332687 -556.931030 764.899780
299.072266 -549.383362 586.563721
155.744705 -691.669006 678.463013
266.922913 -504.979645 870.152344
304.886169 -575.029175 503.988007
253.376175 -624.633179 475.844147
255.190384 -587.591736 606.239563
284.736023 -565.203491 594.435059
392.907349 -399.513184 794.777283
265.359985 -484.282928 932.903687
176.487564 -634.876160 847.729675
92.284866 -687.410828 729.709595
124.420181 -634.308411 867.564697
279.001831 -567.451721 558.934814
283.237213 -545.686096 669.158325
294.720428 -570.584656 523.170044
363.943268 -381.074982 878.820984
166.182068 -635.414063 841.453552
182.251709 -616.181580 789.750916
152.510284 -662.451660 786.058838
253.977844 -490.917816 981.680481
344.653564 -462.128723 729.128052
215.492615 -608.124756 669.117432
335.299408 -505.617828 604.480957
260.580048 -541.985535 807.956177
191.285522 -588.340332 820.104980
247.822006 -569.705444 741.255798
219.665100 -523.153564 943.827820
141.207413 -726.995300 715.657349
355.157532 -422.683472 845.965027
239.973221 -531.977173 850.616394
357.888489 -481.736145 694.751282
262.432159 -583.610779 660.847900
364.395050 -456.618164 701.659973
313.504669 -570.725342 512.302673
134.163620 -639.109558 861.491760
334.316681 -519.107727 636.373474
219.024750 -590.907532 707.284241
173.689117 -648.061646 869.864258
182.914093 -616.783997 748.839600
283.610474 -500.818237 847.772644
309.372467 -574.485962 535.826721
292.039398 -555.616089 555.385559
339.141296 -438.518311 822.653442
175.152527 -613.287415 783.980835
106.007149 -700.194397 734.972107
240.653885 -590.205811 666.929810
323.062592 -526.196716 610.314270
367.485443 -410.040863 864.923157
258.634033 -550.288330 729.235596
292.401367 -528.071533 684.515808
298.079590 -455.569794 935.028442
117.635849 -660.377075 777.736267
249.522461 -546.450806 804.649963
345.709961 -482.657196 606.086365
219.757919 -594.450439 688.411804
324.824127 -522.053711 591.613892
282.889313 -584.227234 546.977722
175.705505 -626.288818 739.917419
297.557343 -511.685394 786.800293
330.508148 -540.546753 513.497559
211.357086 -600.316833 653.406250
92.380836 -617.790527 827.155029
238.062881 -613.929749 578.893188
287.351257 -567.762024 566.068604
143.039795 -650.927429 839.576172
207.790512 -543.663513 919.276062
219.145432 -650.455383 525.047485
164.281967 -701.068542 545.866455
386.416260 -402.188507 782.075012
388.580109 -390.574188 831.577026
319.469788 -498.597839 752.969360
300.340729 -578.400452 499.083679
171.330963 -629.412598 936.870972
283.927948 -539.867676 668.080261
225.099106 -535.677185 908.834534
216.402435 -549.996704 973.816772
383.461670 -380.711853 848.608459
362.970886 -461.041016 715.858459
360.007172 -491.047272 609.456299
220.217728 -611.711060 654.673584
242.047546 -567.153076 768.556702
360.167328 -448.619965 673.833374
288.309906 -546.169128 617.542908
241.597549 -617.429993 578.275513
156.233109 -639.819641 710.540283
354.680267 -488.878082 622.282043
234.526657 -557.042236 819.253418
298.034698 -469.880676 912.535522
75.530197 -683.239197 710.413940
95.023109 -716.104431 714.585632
189.064377 -662.612610 624.488098
379.995880 -380.033722 817.308777
254.130905 -608.308411 544.968018
340.780548 -416.668732 906.052368
181.221588 -688.039856 596.653870
313.171753 -492.229279 775.738525
269.220856 -574.744507 615.643005
302.071838 -446.003571 937.551208
226.840225 -636.806885 530.237976
218.199829 -519.410645 970.821655
319.000305 -496.222137 707.844482
277.068939 -535.194946 714.255493
74.673477 -626.522156 807.268005
144.183472 -732.356018 544.202454
180.553680 -617.076599 880.712952
318.530426 -570.681763 521.686646
227.021255 -596.806213 736.893555
362.308319 -396.076447 904.611694
120.966698 -639.564392 816.533691
317.409973 -445.583984 849.255188
289.999878 -605.330688 464.319733
166.725220 -663.226563 639.672974
275.027130 -633.102905 478.360718
300.267700 -552.802246 585.218750
290.414856 -515.219177 784.571655
239.330093 -502.028564 947.169861
313.800049 -496.192047 746.044556
337.778198 -453.878235 770.169556
327.755737 -522.821777 577.501648
100.937599 -630.229065 814.254883
185.993546 -616.020630 851.126038
330.375122 -574.251709 495.091858
321.569489 -464.038116 839.693298
316.570740 -417.735352 919.918457
227.134827 -613.288757 668.499390
249.010529 -496.758301 967.149841
410.351501 -372.856964 850.035522
229.888519 -609.601135 670.766968
126.757584 -750.176331 687.828308
158.674423 -629.904846 733.674500
320.852234 -536.899109 547.706909
244.826248 -548.460144 827.488647
132.159332 -627.009766 889.517517
361.464508 -416.438293 812.867371
305.408234 -536.841858 686.981079
326.327759 -454.225189 836.806335
160.228577 -704.631409 548.105469
144.532578 -718.626160 659.452148
216.147003 -602.972656 614.516968
178.456741 -681.617249 548.844299
262.507660 -619.806641 544.959839
129.807297 -717.686462 710.509216
87.944511 -695.258728 725.582031
237.680450 -651.321716 476.117218
234.974594 -621.394287 634.125977
367.057617 -430.650879 771.544312
218.784256 -685.553955 507.119202
173.330139 -626.689209 765.339722
145.334000 -701.284607 641.897461
241.413635 -595.972961 646.574890
314.770111 -585.726196 443.492554
267.661926 -573.856995 611.717285
303.051727 -498.673340 754.505432
292.843872 -510.685333 727.630493
100.669289 -651.949280 803.549438
262.614563 -575.562256 636.159546
232.490448 -547.422668 866.470886
145.493927 -713.911865 651.410889
174.541138 -679.333679 555.381042
110.618767 -624.172729 868.382690
267.871857 -608.676941 562.650635
317.168579 -443.733337 845.962891
182.116241 -644.525574 690.496277
310.369568 -506.009796 740.406067
360.311096 -450.682159 741.394958
260.414642 -501.206421 785.896790
181.958221 -642.645264 917.443726
198.918625 -697.486938 521.272339
106.524551 -591.416016 879.108154
353.538605 -448.140015 741.808716
131.320251 -638.913940 841.783936
232.821747 -582.131348 772.243958
107.754356 -719.081299 712.504761
346.147491 -445.006500 791.616394
101.948906 -663.880432 781.093811
387.545410 -413.167633 774.392334
305.943695 -505.440704 757.429932
206.251541 -628.232239 648.820740
256.140045 -522.446655 865.879211
256.913513 -524.072937 877.497131
360.550201 -457.981567 746.367798
155.305740 -680.781128 780.322693
307.920593 -529.346924 626.171509
94.014183 -658.209106 784.394043
313.066650 -518.849731 567.896484
107.767670 -647.085876 816.467957
352.528687 -417.580139 849.937683
260.716461 -529.747498 828.365356
314.917450 -587.039734 437.438263
186.930450 -628.512085 915.894348
181.396408 -644.821472 942.197021
250.603287 -592.772644 669.194946
189.850693 -580.901306 857.320679
191.349319 -649.067505 609.882080
136.002686 -712.250854 725.604797
200.973160 -587.685913 839.718140
299.819458 -462.637360 844.127441
209.830383 -685.716797 494.191315
132.819229 -618.362732 860.084167
331.528839 -449.958893 837.000977
307.715515 -457.931244 845.073364
247.333206 -563.497253 762.631165
115.893486 -668.445740 763.929626
278.461731 -528.689331 710.253113
315.521912 -531.186951 612.034973
180.971558 -661.387085 601.026489
205.129074 -655.795959 538.186279
181.153152 -617.222107 932.359619
247.729462 -598.576599 597.113037
100.498695 -675.039246 765.714966
112.640068 -676.311584 769.228455
159.985123 -693.777283 543.335815
348.680237 -493.601898 667.075989
312.835510 -512.352295 712.063538
114.378113 -729.759888 545.223389
132.823456 -633.521973 833.300110
316.943054 -526.061890 600.999023
161.070877 -639.699646 721.604370
120.917068 -687.350037 722.829773
257.358490 -575.107300 617.151611
200.054855 -618.826233 695.840698
197.642548 -605.619690 730.244751
280.816284 -510.184998 780.569458
341.882904 -504.229614 656.804871
351.059631 -494.051483 653.303101
281.542633 -513.065186 817.355591
250.400375 -572.588074 693.314636
343.002960 -436.464966 874.379761
143.342407 -669.785217 637.312561
168.416138 -664.716248 709.125427
232.572098 -609.905579 606.554565
330.500458 -441.197571 888.351868
190.415878 -592.383118 780.157349
128.605148 -638.140076 850.906128
308.705170 -514.348389 593.745483
359.903198 -502.418335 588.928467
184.364456 -616.745117 711.194824
247.156174 -631.771851 553.499207
228.301849 -570.856323 753.930603
293.792450 -557.101318 593.649780
314.565796 -455.476471 880.681458
125.852600 -625.583801 854.822510
347.377441 -520.744324 615.116577
139.151001 -753.162231 720.600647
304.704681 -539.105225 622.767395
408.488312 -361.339539 872.805725
284.121429 -590.517761 494.812622
299.378235 -567.741150 478.336456
242.367416 -614.569885 624.426331
117.572876 -661.752136 794.562134
-126.099220 -1015.891296 686.169495
355.060150 -447.469025 768.201416
280.313232 -531.132019 691.531494
187.145142 -597.107361 896.570068
201.287247 -627.316467 647.350220
344.775970 -436.698151 853.004333
77.495537 -615.466064 808.368591
333.207062 -494.283142 668.738037
188.622604 -622.778992 720.471069
243.125610 -583.647278 622.801086
273.074829 -609.514893 454.017029
366.298767 -441.454285 745.358826
191.922134 -620.125183 698.289063
179.825607 -602.406738 746.080444
226.057037 -526.507080 931.659546
251.196823 -557.369324 746.740295
242.773270 -494.338470 970.054016
188.060974 -640.362061 645.616577
110.333374 -659.617126 798.844238
86.815506 -645.991089 791.173279
201.739960 -657.406677 549.625305
304.392944 -522.337769 616.138123
382.660309 -405.450043 824.153137
114.955559 -611.432373 849.081055
332.808807 -522.575562 633.961914
227.560867 -548.145630 844.482971
199.189865 -672.685303 505.804688
208.100510 -575.221619 897.758728
344.778137 -472.962860 710.884644
140.019302 -711.154724 643.187439
330.529480 -451.274475 848.161621
127.261093 -627.980408 858.337646
156.301132 -663.286194 662.973633
333.176819 -496.549530 716.244080
75.925339 -607.561829 810.511047
389.037842 -400.140259 821.097290
322.630798 -544.840149 593.736572
271.067505 -537.259888 738.161987
255.373688 -581.148499 704.004578
293.495300 -468.098572 910.868652
246.468216 -527.121338 854.273743
276.044220 -519.490723 761.892761
311.282532 -452.438843 848.814331
75.759781 -656.093750 746.527832
355.330536 -491.700897 672.047302
358.387115 -423.558868 777.516846
192.452972 -668.096802 558.535156
317.009308 -580.867920 470.225830
331.562866 -520.778809 582.833069
223.330444 -651.419556 586.294189
164.200897 -619.778992 858.601440
284.839600 -529.730225 718.375366
336.694183 -481.675446 746.673096
92.640045 -603.430847 859.116455
84.678200 -686.486938 734.923828
129.016998 -767.586731 644.744812
352.542572 -429.520721 865.072144
342.596252 -429.624695 868.486145
140.774490 -723.663208 588.105347
407.540375 -381.368652 817.373413
228.787155 -514.036743 856.820251
337.320435 -515.186890 598.567017
169.304214 -659.630737 749.375793
306.160614 -498.218079 801.682922
172.384048 -660.734192 667.919312
322.922363 -520.716919 625.038940
285.106293 -547.805908 701.867798
240.614182 -573.585388 751.426331
139.666962 -693.471619 678.370972
270.634857 -496.521912 889.265503
309.445740 -529.861511 620.952026
264.008575 -488.556641 959.106384
187.020187 -576.950928 872.929138
192.427643 -610.128906 785.538086
265.719940 -579.472046 562.550598
283.090912 -548.958801 664.460815
263.476288 -572.905273 545.927612
126.809685 -737.522583 708.870605
377.201233 -422.159210 793.674988
324.980347 -544.977966 599.865967
207.191376 -516.986572 929.951904
315.512939 -489.254669 742.554810
275.149963 -476.601318 916.179260
158.544922 -626.108582 885.687500
271.586121 -534.102173 798.269165
309.362915 -483.340698 825.758850
337.517365 -480.534424 727.375183
302.808044 -524.998779 730.409180
266.757172 -583.725403 646.766724
282.962067 -598.316956 562.883545
329.360535 -503.422638 713.271240
361.264252 -454.532990 756.704285
264.462708 -638.324890 489.320618
178.496628 -688.361450 525.843506
296.644287 -503.966187 682.983765
385.900330 -385.383453 837.806824
282.443909 -536.724365 705.008423
185.333374 -623.657837 873.342224
93.798332 -609.928467 864.846985
348.486115 -389.556915 843.597412
138.514389 -656.913330 805.858521
375.607971 -407.625641 851.046997
357.271973 -424.194855 859.690979
193.500717 -657.303345 601.266602
146.980392 -683.441040 635.918579
319.907501 -461.861664 812.200500
330.560364 -469.739716 741.013611
320.477081 -533.828674 635.937195
289.792969 -466.109680 934.502319
248.493774 -514.557617 908.795959
365.143616 -417.846954 771.896057
221.302429 -636.765137 634.735718
336.793030 -435.641022 879.714050
260.107483 -616.550720 468.933868
194.508438 -576.320435 930.215881
113.552910 -688.335510 752.707031
236.832825 -568.911194 738.714478
295.761871 -523.135559 734.522156
164.885330 -632.352051 822.242798
330.593323 -488.694214 707.214661
271.803284 -578.504517 602.907776
275.374298 -583.983765 618.745850
299.066895 -465.072540 839.541077
142.684006 -603.605103 914.275208
267.152435 -554.787415 657.840393
364.800903 -438.562561 755.982239
282.256287 -598.597229 511.503845
178.994598 -607.733521 948.234680
267.457214 -568.677063 693.941711
282.829315 -502.840302 857.868713
183.256577 -603.253296 814.309998
200.703613 -626.902954 710.547546
249.943436 -511.054016 907.671509
297.642853 -560.743408 515.633606
275.634033 -602.356750 557.565369
323.398163 -436.441772 907.950562
174.469208 -630.490112 801.098389
146.148544 -652.219482 788.004333
309.813446 -468.239197 801.039917
285.467438 -546.224915 631.598328
184.044739 -663.671875 586.168030
248.084137 -645.449829 499.129730
214.652328 -657.769165 494.424194
295.800385 -600.056763 440.830261
395.258026 -391.960815 833.478638
324.424011 -489.003296 746.142883
296.704681 -515.856934 776.095886
237.944824 -530.524963 890.241638
159.822662 -639.209778 829.849915
239.956284 -510.615601 938.778198
351.715881 -431.882690 798.927185
81.757629 -654.000854 787.426819
292.503723 -477.753723 850.303589
224.669464 -501.554596 911.874451
339.484650 -446.504913 827.418213
229.842072 -639.675354 581.539368
311.681183 -496.251556 752.867859
197.636124 -581.944031 886.164673
267.632690 -593.131592 578.082458
267.900940 -612.295349 551.202087
296.420013 -510.632935 664.994446
353.948395 -430.838165 829.924438
403.059723 -375.302490 863.896423
182.505966 -657.239990 664.122253
219.513214 -542.800781 905.304077
308.548157 -515.784607 731.971558
327.601013 -433.870087 907.911316
247.845535 -557.602356 779.115295
294.820526 -479.471466 871.538696
290.463684 -502.886261 838.487549
130.937668 -657.833191 807.229797
333.096161 -575.569458 472.060852
245.960205 -557.872803 802.978699
300.299622 -455.598663 820.385315
211.347504 -629.099792 688.508423
212.752411 -628.228699 634.432373
181.153091 -634.911316 746.277893
407.552277 -373.006042 835.595947
252.404373 -524.027039 841.566772
187.421829 -609.276428 771.710449
321.967194 -575.520020 449.803680
142.071594 -690.443054 578.809998
161.924011 -675.016724 674.998474
344.876465 -504.576996 610.044373
227.573120 -548.582397 808.751648
314.717773 -555.010559 587.656128
111.741653 -693.351379 741.089294
150.229218 -728.241760 533.001587
150.445984 -696.580811 593.982849
266.081543 -629.530640 496.145966
251.584229 -536.056335 804.382202
233.448486 -524.982239 918.696411
311.282990 -559.515381 518.749634
271.068237 -554.475464 720.946716
248.985214 -533.204041 810.733276
146.200317 -652.213196 807.725525
339.346924 -427.262451 899.975830
364.283813 -456.857086 685.802124
267.938263 -581.869751 584.644470
222.267883 -553.127808 859.056213
232.973846 -516.349426 894.635986
235.198547 -596.158386 615.410706
101.966843 -644.897461 819.011292
282.805695 -518.397949 682.929443
313.727753 -558.307922 575.420349
255.144653 -523.685730 833.986877
191.332413 -647.316589 617.668884
104.448212 -636.853943 835.980591
263.354950 -534.747253 769.422668
216.700684 -601.707703 683.488892
382.854645 -382.734009 865.836121
285.215332 -568.479248 625.702698
292.411713 -550.469971 625.108154
194.472290 -673.581665 597.773438
242.838913 -515.897278 908.351624
180.439880 -623.188904 730.781982
382.002380 -402.588226 826.802063
353.678070 -486.674591 668.268738
224.029724 -617.349731 677.587280
142.966949 -688.214478 572.246338
345.656158 -465.433868 735.134338
137.734772 -649.043640 835.851196
297.627533 -444.243835 926.672974
337.346771 -527.291382 596.980225
141.913528 -656.806030 733.122925
197.801758 -526.808044 957.120789
221.613297 -547.488464 900.606445
239.175537 -499.945801 930.174133
352.995300 -452.319092 726.936829
265.378784 -494.121735 814.161133
346.798828 -445.732239 797.460876
310.429047 -536.304871 596.564941
155.965790 -645.312439 791.405579
219.975418 -524.926697 982.010620
206.217896 -683.197449 512.209656
333.225098 -563.967346 510.906219
280.776459 -502.558441 844.066772
272.876404 -514.729919 798.813232
122.614059 -746.238953 700.805969
121.983238 -776.195007 594.546021
313.278748 -484.272919 752.552429
235.364548 -584.880310 682.085144
256.704956 -491.274933 914.766968
169.463226 -619.089783 770.747803
93.308311 -655.642090 807.709106
326.864349 -524.656372 650.961792
263.430054 -640.865295 475.331573
351.556488 -427.429962 809.667419
241.286850 -656.463196 487.302094
312.171143 -436.588379 927.229553
375.048706 -389.035278 837.145630
323.437836 -476.984344 813.618408
346.519348 -482.361328 728.334839
251.643021 -507.128296 926.827454
181.064362 -655.967102 670.639221
206.608185 -588.010010 812.433472
120.210365 -628.893677 856.282166
238.233521 -617.584778 570.668152
364.964661 -438.334381 737.050293
297.460052 -564.754395 593.240173
184.205338 -594.659363 868.359985
277.844025 -592.994019 524.972778
324.812164 -446.233551 885.277832
237.759506 -536.858643 834.332947
225.610092 -626.607239 631.212891
249.055374 -539.070923 836.078247
240.322617 -486.025818 912.894653
413.178284 -391.982422 825.620117
336.794647 -442.077515 819.210510
162.378067 -677.508911 676.198425
148.640762 -711.147095 595.611816
240.176010 -607.464600 591.620605
317.830780 -454.820221 873.943115
317.914124 -459.947479 799.773560
308.854614 -542.843506 591.411438
389.003052 -390.536407 816.036743
150.717880 -708.962646 538.628784
264.552673 -501.480225 856.966858
166.501389 -656.644714 661.824341
82.513771 -624.682800 797.382202
370.988098 -388.635376 830.333618
379.236084 -399.572296 842.472107
205.837631 -556.671448 888.923340
235.268784 -609.939148 652.159058
370.639374 -405.944000 808.133118
325.269257 -519.645264 583.544006
202.609253 -641.586731 600.416138
196.128540 -619.133789 692.754700
255.718094 -539.690369 759.472839
211.181061 -657.860657 516.973816
294.672974 -455.856079 885.372070
215.278580 -527.177368 906.079712
266.900909 -565.310669 659.925842
282.054077 -490.534149 875.392822
270.440216 -577.809021 645.807068
340.367310 -455.260468 809.554626
131.954712 -605.814880 888.203308
134.026184 -701.010559 734.654114
208.776031 -672.458130 542.935181
217.358322 -570.394653 834.581055
103.451553 -665.151550 757.072998
218.787262 -529.754272 875.985535
254.884903 -482.761017 882.386292
244.867554 -550.811523 754.523010
283.882965 -514.627014 764.814270
214.279282 -603.227783 699.811340
259.671661 -594.311584 572.241394
274.994904 -580.998657 630.066223
378.987854 -420.882385 794.643127
319.441772 -413.760468 859.934875
273.622070 -482.955170 929.522644
165.506042 -685.669189 623.023132
317.915161 -406.763702 883.403503
218.372803 -566.651733 835.779114
274.072662 -591.538513 608.529846
339.380066 -460.035675 815.016357
208.598541 -607.482300 744.490234
83.209663 -683.677917 736.253845
338.699036 -474.161011 744.897461
148.220184 -698.948608 733.861145
205.829086 -544.324524 878.927979
198.348343 -549.271667 891.133362
229.316086 -606.228882 694.773804
388.083405 -391.270660 875.715515
199.331390 -604.110962 777.681335
350.663544 -420.849274 865.118469
282.345551 -595.845642 505.046844
300.728821 -587.106628 506.765808
318.521118 -462.326538 716.887512
188.887314 -611.275940 715.989563
308.112701 -538.346497 672.716064
335.291229 -470.160797 782.944214
243.601868 -525.128052 778.975037
239.985626 -527.301880 790.266541
189.681717 -573.066833 925.494934
267.615570 -520.699524 696.406128
240.922012 -569.899475 736.721252
121.543190 -613.679443 889.788574
79.392090 -638.334290 803.570190
253.326385 -540.858887 710.380432
345.674316 -539.527222 515.608032
145.117142 -624.428589 876.086853
215.915894 -668.662659 491.990112
226.065674 -586.126221 653.083435
303.091675 -525.480164 719.384766
215.131302 -575.006836 834.078308
306.192963 -541.440796 594.668213
310.554382 -456.655304 897.712463
299.079102 -587.339355 531.339111
157.536453 -658.010803 684.683960
343.000610 -466.757874 720.419922
152.307083 -654.387207 684.655579
320.765137 -420.490265 862.031738
149.820282 -694.392029 567.046143
300.984741 -479.027588 864.585999
132.617508 -712.590515 722.401672
326.685211 -530.928101 619.216736
269.036987 -585.408081 576.572388
183.195206 -673.872314 611.266113
192.324112 -630.394104 954.460938
286.504120 -616.374695 481.016632
388.710815 -389.359650 842.482788
234.868546 -617.742310 627.323547
329.725311 -420.561401 871.553467
272.622833 -517.183838 794.516663
210.334351 -661.994385 562.985657
164.240067 -685.796326 592.059937
364.382050 -414.422729 857.076355
380.279572 -388.280548 865.940735
249.214142 -537.146118 799.257080
240.347092 -625.596619 541.392578
290.594360 -536.036682 664.745178
304.330658 -568.313477 527.692932
247.989639 -553.092957 749.529907
329.456818 -518.521729 651.551392
105.520767 -627.752747 841.438232
339.484100 -524.347778 619.455627
271.236115 -560.424805 706.482910
224.191101 -611.358582 693.449768
223.979721 -563.939209 851.947327
329.699463 -526.218689 555.118225
171.448181 -673.290344 539.795227
238.717392 -526.782227 897.184387
150.982773 -679.010559 700.104187
139.717896 -622.062744 860.445557
328.780457 -521.230774 589.048340
299.686676 -491.228302 809.077881
352.057739 -489.769226 607.157959
151.816025 -685.596497 717.601135
346.460083 -444.790894 819.842712
335.940491 -501.452087 550.281433
183.886017 -632.016663 933.147217
316.746429 -521.697510 628.122009
303.778778 -564.825928 586.259155
377.675751 -413.381561 774.557617
264.052551 -541.065369 748.207947
177.500702 -639.184753 684.812012
185.113434 -555.036804 930.200195
318.081940 -484.567383 731.818115
351.594635 -460.841949 760.155701
214.569077 -636.130920 575.899475
379.714325 -390.029724 830.436890
117.322548 -735.291870 718.649658
109.198257 -620.557373 874.084717
198.115387 -653.706360 624.053772
90.312546 -628.478516 827.138123
329.496368 -502.954620 522.060303
342.264038 -439.250427 847.045471
279.053284 -630.253174 471.212219
269.835693 -505.391541 856.284485
291.356110 -486.688354 827.264221
170.994446 -653.296204 762.260803
300.926788 -472.740082 774.837341
104.499611 -609.065552 855.283569
210.796539 -618.897461 646.495911
292.972137 -527.161926 747.262939
199.253647 -582.583740 813.470459
186.453583 -596.768982 850.078003
321.937592 -432.023438 938.631165
324.685516 -526.623840 587.312073
210.991394 -626.713074 636.045227
324.382660 -512.749817 699.478760
308.533386 -514.796997 693.935303
247.385178 -583.976257 710.634338
232.553543 -662.026917 499.397522
235.619415 -544.287781 873.693970
142.497253 -670.388550 787.570068
349.473999 -527.786560 541.653076
266.668427 -583.575317 543.675781
256.708374 -571.884583 720.446472
284.780273 -574.627502 557.523865
304.785187 -449.235443 943.002991
77.547722 -632.125549 791.930725
272.370453 -558.481873 704.820190
170.996048 -601.598633 947.596313
337.102722 -448.795135 796.607239
322.645233 -459.967407 809.052979
305.543732 -460.678894 864.624756
237.277695 -612.988586 583.098389
291.736572 -503.468018 831.640747
154.567062 -670.252625 603.596924
306.549866 -439.505066 916.313904
249.448242 -546.795715 693.599731
103.854179 -656.979004 764.006287
390.795929 -421.248047 745.685486
249.588898 -534.290161 849.814148
333.375366 -537.005371 599.135010
289.029114 -491.992645 844.328857
294.658569 -505.760834 797.455688
400.844727 -371.436432 798.501282
406.712555 -358.323883 852.847107
366.298492 -398.011841 883.408875
192.633240 -598.951294 784.208130
355.838013 -455.972321 775.005981
201.432938 -581.434082 834.372986
299.269257 -543.589722 676.781372
327.970886 -448.178192 812.269348
303.320618 -478.760864 831.287292
312.685852 -581.343384 481.670685
218.953262 -597.395752 728.373108
223.316513 -592.210510 719.665833
254.115143 -563.863770 744.268372
339.015228 -514.722046 593.833740
164.928955 -621.243713 920.109741
291.498840 -474.923035 761.487061
182.218079 -620.649414 887.794250
302.248108 -571.358948 528.716187
238.546844 -604.794250 569.950256
321.316254 -531.173279 649.650574
314.818695 -470.956268 815.188721
270.625610 -563.109619 642.635681
239.542618 -578.479370 723.752075
223.284836 -659.593933 539.811951
255.504669 -527.504211 816.718262
289.851379 -516.028076 745.563843
311.707642 -571.032410 458.992432
194.322784 -606.869141 761.158875
370.849548 -421.963715 815.517395
139.363937 -690.432739 759.159119
87.109543 -653.087158 759.304810
312.048431 -470.153870 789.301941
259.248627 -516.319824 871.493042
333.632416 -530.901794 576.993530
229.319809 -524.754517 975.906982
140.340118 -727.176208 612.258423
269.841156 -531.761597 795.086426
333.630615 -490.940796 702.371460
222.683716 -548.738892 904.417297
325.781860 -503.057831 603.222229
336.766998 -472.835297 725.018005
345.494232 -485.250214 608.219421
207.560028 -629.575745 688.613403
296.976440 -459.520416 830.800720
238.547211 -632.719360 529.249023
120.101013 -750.397217 614.786438
150.606964 -678.798462 800.524841
281.181671 -495.005585 880.574280
137.633774 -637.938293 856.062073
161.292328 -639.477234 840.477844
158.069458 -709.910339 562.365967
105.876991 -662.401245 794.707458
273.422882 -526.116882 757.027954
339.183136 -404.111359 867.600952
182.664444 -658.161072 659.773315
325.490631 -567.659302 516.608643
239.671463 -611.408691 582.122131
129.429291 -720.518433 627.561707
119.445824 -618.921326 885.994934
214.377594 -575.620056 789.276489
370.000305 -416.474823 836.094421
284.522186 -514.772766 764.564697
308.740143 -566.160950 500.393036
312.107117 -507.087128 704.808350
314.960419 -460.414917 807.071533
118.052147 -790.419678 590.050293
367.737122 -437.309082 762.162109
156.976593 -652.749878 839.559998
266.483368 -586.724426 574.664978
243.142532 -543.209229 808.333679
350.475616 -491.340698 685.044739
183.602463 -696.029236 562.645996
186.059860 -577.575439 910.056213
360.617096 -455.967682 711.202148
267.143951 -526.234741 836.857849
259.296906 -588.772522 605.298401
283.372162 -523.449707 719.687378
313.666534 -590.582031 441.422394
189.733002 -663.430420 564.156738
192.202469 -641.221069 658.730408
400.446686 -370.179596 803.180847
408.025452 -389.919342 803.651978
291.782990 -565.767822 574.587097
306.895569 -510.316254 698.296021
362.673615 -465.816345 705.378174
332.677155 -520.327881 596.907776
73.846855 -662.579407 759.495117
213.382523 -631.716309 598.637024
207.540939 -617.844238 682.740784
251.166946 -603.607422 624.945251
277.621002 -482.571167 910.915222
346.167053 -454.955383 728.909424
234.922775 -522.572266 923.208740
392.304138 -393.729187 788.292236
256.313446 -507.388306 846.333618
283.275269 -586.060852 447.877350
177.201126 -623.684204 816.146301
242.597321 -596.632690 635.170593
228.763763 -624.171387 508.691742
178.353653 -685.858459 612.723877
363.818176 -392.326355 840.670166
293.394226 -521.055786 711.842468
270.988251 -621.506592 484.712769
162.576752 -691.523926 627.003723
224.143692 -622.388123 596.438049
376.896240 -418.037048 807.826599
296.008240 -553.262268 649.511963
264.198242 -507.648895 838.174805
158.124908 -611.932983 900.403564
244.348953 -557.165161 762.513733
160.701599 -622.243347 755.680115
293.710907 -454.370331 900.888977
165.389191 -658.603821 658.911255
186.088562 -585.221252 861.039124
255.612015 -504.223175 929.515137
272.478607 -612.013611 474.458588
155.500214 -633.171570 841.929993
288.979645 -542.652588 712.999207
396.623230 -382.142822 809.049805
193.082230 -655.245972 606.672302
361.761993 -427.980621 786.755615
152.976425 -606.894714 869.796509
236.482727 -620.784424 622.721497
360.651001 -450.833862 763.689514
209.750992 -522.541260 913.064148
219.680328 -543.500427 993.792480
293.940216 -504.362671 659.944275
283.203033 -492.023529 832.934998
173.512543 -636.747498 698.914673
409.437836 -373.116425 841.241943
258.180298 -576.119568 649.940674
334.278320 -456.439575 821.097595
282.622437 -599.942322 542.498779
139.712326 -694.763306 617.805542
163.788773 -626.542480 862.826965
282.754730 -585.999451 584.684082
310.270569 -572.428650 539.976685
290.805420 -548.318970 537.304321
304.215851 -523.230469 706.761292
213.315750 -505.138214 939.941101
143.374298 -633.541565 860.691528
118.477150 -645.685730 831.138611
162.451309 -719.818481 548.615845
381.892212 -377.510651 855.990234
256.451935 -578.674438 647.334839
222.562988 -560.021606 820.310852
231.748703 -617.193420 586.993225
392.165161 -378.191406 841.568848
321.434967 -472.314178 778.562500
210.247116 -646.523071 513.989441
371.707397 -393.267334 871.941101
229.593857 -514.894714 935.404358
205.555801 -537.806580 884.146545
291.527374 -506.389313 752.964600
260.679626 -513.331848 861.879517
168.798431 -660.322388 777.479248
217.479004 -599.598755 712.850342
103.547340 -655.817444 796.980225
157.739166 -683.581421 661.666382
199.646240 -613.544800 718.178223
302.561096 -516.528748 746.062012
309.655029 -549.365906 557.367432
197.181152 -651.870667 542.112854
156.019287 -683.202087 743.596130
270.612701 -598.967957 529.009766
137.093109 -699.080139 614.607544
268.968719 -490.944244 915.667847
265.654358 -523.996887 810.029053
195.692627 -592.070190 855.548401
366.826904 -457.183258 713.375793
369.336761 -423.326904 789.654358
296.564331 -494.973633 778.713013
332.356903 -530.294495 606.530518
316.506287 -553.028320 600.603516
207.376541 -646.317932 622.843811
233.542953 -610.205994 626.852783
247.455444 -500.372070 946.795776
378.670380 -451.009399 722.583191
253.348312 -537.641479 825.903442
234.970291 -632.817993 559.712952
302.939362 -469.092529 902.900391
234.710907 -585.167236 649.970215
192.949310 -666.053284 545.757202
275.007690 -496.458435 868.311279
315.056763 -475.130188 811.980652
123.645004 -788.914307 608.477295
344.907837 -468.062286 739.082214
330.891724 -443.285675 877.303223
317.954773 -431.830078 876.396057
319.164795 -490.939636 710.230530
306.309387 -517.507690 718.118652
177.837540 -696.815186 576.475586
244.989426 -609.985962 570.361633
279.828613 -461.929443 908.553894
242.184952 -530.616333 882.532654
297.095581 -602.946594 461.908112
144.826355 -718.178040 575.523804
144.501556 -675.042847 692.782593
297.244385 -604.253540 442.771545
363.073334 -401.025787 886.935913
299.516907 -609.575867 473.647461
238.368576 -497.336029 886.431030
336.610138 -570.494812 480.877655
363.285217 -400.770355 864.615540
228.547043 -537.129700 864.073730
263.442932 -471.626190 889.116089
206.178497 -586.332214 790.791260
249.092484 -562.767639 775.816223
313.549774 -455.055450 885.685547
201.441727 -686.398926 537.789185
277.042664 -522.058472 799.488953
302.329865 -471.197968 884.342834
147.329178 -657.247375 815.087219
159.108856 -642.168091 866.639587
366.925934 -459.933868 675.679321
312.597595 -519.767700 711.310242
190.796921 -713.847473 518.661682
190.271667 -704.121399 526.316406
241.950211 -581.164978 672.203308
334.011414 -486.249146 693.033875
207.113586 -705.612610 506.732880
206.278717 -580.663940 862.220093
276.209381 -581.872375 611.250671
366.620544 -409.835510 813.518066
337.438629 -450.883514 834.498596
102.728035 -664.181885 790.291931
177.363586 -664.472107 599.400696
298.542480 -508.401642 747.359558
336.183228 -511.836090 610.826843
418.906067 -360.042023 863.061096
113.803490 -659.137573 792.970337
169.187653 -670.059814 523.330811
302.337067 -483.085876 781.427795
278.840393 -584.108032 571.463745
300.072021 -532.997253 664.101196
129.778046 -611.238892 896.668030
304.527069 -548.229614 540.450012
313.080963 -564.060486 563.938049
233.302582 -621.452637 624.654846
295.520782 -525.615601 740.013855
208.941803 -564.547974 949.172485
146.620117 -717.658630 722.652344
235.385117 -514.070374 942.171509
140.096786 -669.836670 652.673279
97.903328 -657.181274 773.678101
98.941452 -658.161987 807.126526
233.103394 -574.669189 787.992676
350.155243 -442.769348 794.317200
231.742844 -591.090637 703.770752
295.204926 -501.532104 813.407593
335.128998 -464.590698 794.626587
312.127319 -545.202393 563.433228
169.282333 -680.692871 594.364807
278.243042 -508.777130 802.157959
221.621292 -504.907501 944.224731
357.085663 -429.508453 837.547302
358.189087 -508.305603 622.491211
301.807190 -452.774628 896.930908
181.990799 -636.942505 711.628296
218.367889 -632.705688 540.376099
341.951447 -537.504517 570.065430
282.026337 -559.145447 633.918335
340.073181 -506.819824 621.754333
349.728363 -402.027496 890.140869
315.557770 -477.420044 801.035522
284.464447 -453.420380 921.483459
283.373718 -478.250336 916.268677
343.075592 -410.772797 870.307800
386.391449 -392.169495 842.167725
360.137665 -450.742340 708.190125
200.475449 -515.041992 950.785583
302.639709 -589.815369 520.747070
314.650818 -444.404327 914.407898
150.777206 -634.841370 856.742126
169.966309 -640.571411 828.415771
234.457153 -566.388855 792.831787
249.705597 -551.666748 769.103088
266.697845 -539.935730 763.732727
305.098083 -561.208252 579.346436
256.465149 -580.304626 628.182373
143.175568 -606.038513 911.054871
351.928101 -485.576599 643.272766
258.546539 -589.691895 594.404053
361.959564 -429.524323 828.822144
132.267120 -646.737793 798.492065
310.976440 -529.232056 594.227783
274.109283 -600.403625 505.887665
168.156326 -634.207214 854.671631
408.845947 -383.840973 827.603271
217.845627 -616.191223 709.197998
241.158768 -537.935852 880.663635
183.233978 -645.862000 660.517090
119.271957 -651.251221 798.599854
251.987228 -571.783020 699.579956
392.087219 -406.341553 785.110657
114.453743 -667.981201 800.515564
283.852264 -467.435272 928.128296
382.875275 -397.120544 839.709961
303.251221 -536.266174 619.066895
321.089417 -532.702698 571.219727
164.378418 -665.871155 630.866943
237.817520 -552.185120 845.560059
215.683868 -563.600098 882.568970
352.789917 -438.445038 772.799988
167.442825 -624.224792 881.945679
229.531174 -663.946777 497.785339
398.608154 -366.943542 892.315125
297.888000 -545.542664 517.381226
213.938538 -538.382446 902.832336
314.583282 -498.958649 763.146729
112.962646 -625.674500 826.359253
359.440552 -421.027527 855.139587
321.395477 -515.721313 625.054016
385.697571 -410.341339 792.922424
209.141571 -557.087708 869.286804
134.716278 -700.544006 615.759827
85.762772 -627.405396 820.660461
156.541092 -617.113464 838.092590
268.751312 -546.722534 704.227966
339.144653 -481.852631 748.392578
347.725433 -470.585205 685.897949
372.140991 -381.864197 847.361084
154.184204 -671.877869 647.438721
247.388184 -558.583862 768.783142
247.124435 -515.569336 864.034241
340.002686 -456.065918 825.086670
95.710175 -680.456970 724.571716
249.396118 -587.077393 639.873535
158.317200 -672.565247 551.056641
292.887512 -473.909454 783.881531
195.886734 -694.487610 536.698914
223.362015 -595.233398 740.166260
312.679352 -463.820709 884.165222
154.530640 -711.366150 585.613647
316.240784 -592.984680 484.008789
270.085510 -532.403625 769.754028
226.603226 -660.920349 549.711792
292.358093 -599.209167 476.342621
289.860138 -542.808167 595.131836
359.816986 -480.131836 627.312500
131.325012 -727.136108 560.945251
218.593491 -651.085327 496.942627
179.216248 -620.366821 858.325378
187.477356 -593.926514 839.837463
100.034615 -646.030579 814.676697
145.323792 -699.218384 641.258240
326.111298 -487.237366 712.739990
321.891357 -523.076050 676.411987
341.246094 -507.816956 626.076416
191.563858 -684.416687 498.658417
328.143280 -515.557678 682.112427
252.643539 -638.020874 536.976685
152.019562 -621.533936 861.463501
63.317459 -654.848022 744.576233
110.855827 -701.660950 724.693359
98.987572 -690.557251 730.902527
299.192352 -574.160950 587.189026
310.925446 -559.757446 510.146667
235.160141 -517.966919 939.994629
262.768677 -596.881348 607.518127
230.102310 -566.811951 784.259216
205.848907 -626.287354 653.191589
165.099976 -693.902588 531.371460
356.133087 -519.194946 600.226929
238.173447 -642.471619 540.390503
290.850769 -572.879639 555.691040
394.542419 -370.552612 872.095520
74.967102 -633.452698 804.627625
293.325500 -589.645691 475.828217
205.892319 -624.052979 612.033142
186.541245 -615.171448 836.385132
250.301758 -506.503754 917.835876
363.984406 -474.539703 700.339417
336.823761 -424.315613 805.175842
219.943161 -573.212769 755.652344
289.179321 -488.944611 749.255310
385.866638 -395.414093 824.119324
261.105438 -615.961487 559.697754
343.177246 -421.865051 877.741394
213.517029 -565.044678 869.732239
162.589005 -621.212158 822.900269
167.827942 -626.238403 862.705078
250.358231 -498.582184 964.816467
156.339111 -696.815552 615.447327
191.922989 -560.978638 845.031982
151.142242 -672.541199 708.252991
184.865173 -587.489807 895.381897
195.871887 -626.826782 665.943665
132.493515 -726.030701 544.291687
321.778748 -606.600769 424.547821
118.985909 -740.576294 695.773743
207.597885 -644.694702 651.923401
267.223724 -492.256287 877.224182
315.992340 -515.508240 661.788879
