ply
format ascii 1.0
element vertex 1375
property float x
property float y
property float z
end_header
-538.150635 -118.114059 813.882629
-569.904053 -64.426277 813.485229
-444.411926 -273.355194 722.485596
-736.760559 -218.349701 820.449097
-489.061340 -151.840210 781.179626
-430.326813 -166.163025 769.002625
-505.484192 -443.260773 685.571960
-464.998108 -462.867920 666.495544
-345.184326 -299.084747 702.113281
-577.621704 -147.921341 777.193542
-378.155304 -239.477585 745.352539
-582.174988 -101.288483 832.367065
-478.309875 -145.989334 799.975891
-662.410767 -205.577576 790.198364
-402.073883 -216.664841 759.038879
-762.371582 -213.029373 850.027588
-431.798706 -437.984406 655.663879
-300.858429 -334.203369 662.186768
-549.590149 -131.775909 806.812134
-572.363403 -60.353199 832.328186
-677.300781 -174.279602 804.015564
-748.148010 -107.117165 853.595032
-522.242188 -26.355062 817.707947
-573.040649 -173.726593 797.125671
-692.558350 -262.444885 800.405273
-464.157501 -418.139984 670.067688
-469.738434 -33.556469 819.609863
-605.579102 -404.977295 737.900085
-525.073181 -179.942871 781.208679
-574.856018 -263.595673 745.102905
-397.259338 -145.667175 773.975281
-573.377441 -174.458481 783.354614
-506.187195 -190.530716 786.345581
-592.809875 -22.172564 858.985901
-483.416138 -87.556137 819.195007
-451.102631 -458.046570 648.415771
-683.449829 -178.293518 801.850403
-503.117035 -62.865208 831.853088
-669.370789 -201.775391 785.968994
-734.930054 -203.521378 814.622070
-406.929443 -428.844147 657.810791
-267.658051 -317.034912 680.922913
-368.742493 -195.017624 761.863098
-381.681732 -165.754456 767.490295
-506.229919 -359.275452 691.560242
-551.792969 -142.708099 797.924866
-533.895203 -257.469635 747.604675
-516.348022 -361.150726 705.858887
-279.273621 -328.713135 696.712341
-511.966980 -78.602310 828.106628
-579.815063 -301.083618 747.864624
-325.813751 -205.578766 720.210144
-474.885498 -301.611298 734.543152
-389.426727 -195.819778 764.527222
-502.783478 -45.031044 822.610962
-677.280334 -318.722351 747.340637
-630.716309 -90.018890 837.662537
-512.119690 -28.245331 831.997742
-635.682251 -206.988419 790.181213
-530.292297 22.949358 877.029724
-534.800659 -80.879066 829.732849
-621.717102 -69.682938 835.425842
-582.172546 -2.754722 859.089355
-636.894470 -57.380600 833.655945
-519.661560 -249.678635 748.718750
-498.285980 -41.059113 836.709290
-519.780762 -185.951447 786.787659
-490.529449 -456.550507 671.930420
-656.326843 -314.793854 765.517334
-565.093079 -89.985497 819.990112
-507.395203 -48.823936 837.024902
-346.070007 -365.952545 679.090454
-460.296875 -421.249725 655.057434
-485.880127 -189.933258 769.509583
-347.474945 -275.369476 717.532104
-722.462952 -141.880676 822.564087
-627.910278 -336.990204 734.190735
-379.640778 -280.113281 716.541077
-713.803711 -288.726318 756.996948
-393.524078 -395.084351 681.487549
-764.008728 -138.197571 840.273071
-439.299561 -425.970764 662.593018
-512.900696 -105.832764 808.270813
-330.235168 -276.340820 708.079346
-330.493652 -352.739746 682.254944
-458.928345 -384.817047 685.710876
-553.040161 -45.676548 834.758545
-493.726746 -241.492584 762.667236
-485.521393 -175.306824 783.574585
-719.037231 -292.411774 742.264526
-462.951508 -299.832001 733.661621
-525.428467 -269.628479 739.337952
-699.419678 -116.623444 817.514893
-411.880920 -455.457428 670.487488
-503.940948 -39.776047 824.911133
-719.481995 -123.401352 840.400818
-725.836792 -279.495300 721.300293
-488.092682 -349.473114 713.111267
-641.783936 -86.157684 813.605713
-719.576599 -297.369019 715.032837
-609.158508 -209.444046 787.086609
-389.980896 -159.686722 779.691833
-638.890686 -133.988449 805.745605
-422.225800 -139.316650 782.388733
-522.446106 -206.960968 770.070313
-550.936462 -240.660507 764.660522
-415.830322 -374.564758 681.487061
-353.009003 -204.942886 742.695190
-434.172058 -209.588989 750.920837
-441.402222 -262.446442 736.460632
-682.634216 -178.187851 808.561707
-695.107788 -114.567154 810.966003
-451.025116 -74.259827 820.294128
-365.359589 -421.125244 671.117981
-500.325073 -213.932053 762.303833
-683.867981 -322.912292 701.360229
-656.445313 -367.269897 706.687195
-430.607727 -190.427811 758.269958
-682.453796 -334.644501 661.950867
-596.056946 -133.543472 789.394775
-271.525726 -348.804688 689.780701
-617.469299 -390.111816 738.451721
-454.979858 -96.024521 804.567139
-517.309937 -235.001144 739.842041
-665.054260 -346.318634 663.965393
-397.952332 -249.869019 714.907166
-298.458862 -307.193054 692.934265
-576.534973 -111.686691 824.723145
-716.742310 -131.521713 835.224487
-321.075195 -356.104370 680.019775
-350.580383 -312.388763 716.844788
-655.286804 -230.846390 790.051636
-722.169617 -295.661407 746.692444
-350.233765 -329.610046 693.233215
-528.223938 -203.945526 753.434509
-683.642883 -102.212685 843.012695
-342.306152 -207.725464 743.601929
-500.117462 -323.789368 730.351990
-498.252563 -441.538605 649.699341
-599.737244 -68.832687 833.284424
-444.083954 -227.330093 748.336060
-538.255554 -0.815743 856.545898
-694.017456 -299.790405 740.171387
-772.543213 -184.314819 847.343384
-558.481079 6.149963 846.720215
-478.597839 -238.801147 752.653870
-487.144989 -340.723572 696.126160
-445.374634 -100.286880 794.425964
-705.989807 -73.914894 843.967346
-561.381653 -196.129471 791.445068
-544.945129 -237.405884 760.853027
-688.288818 -100.981789 818.272949
-638.662842 -360.410095 694.344910
-475.721558 -102.405495 800.900208
-616.680054 -225.565643 781.169800
-669.333191 -228.406967 782.390015
-511.107300 -71.544739 796.675171
-607.604553 -409.200958 697.634216
-626.405823 -393.975555 699.927490
-453.385162 -102.781090 797.067017
-425.575409 -121.434853 791.195679
-599.393188 -202.116714 781.278748
-323.990265 -213.969040 735.396729
-570.100281 -178.108398 781.481628
-526.695984 -324.313660 720.416565
-706.010681 -102.418694 832.389587
-661.621643 -344.353729 649.019775
-338.536743 -366.747528 674.087769
-470.741150 -507.561462 662.099121
-674.322998 -314.244293 739.455261
-387.822632 -277.412628 710.790222
-537.645874 -320.967804 733.057495
-479.268280 -73.647491 825.205078
-516.189819 -131.461060 792.479614
-526.308655 -59.041862 825.044373
-274.498016 -279.470062 704.610168
-538.645935 -153.540833 803.123596
-503.650238 -213.244263 776.966675
-610.190186 -236.482422 766.620178
-369.713104 -354.472961 661.570557
-621.035339 -208.926636 793.562622
-242.643158 -313.406769 693.760742
-404.014160 -175.288208 778.936340
-365.656158 -216.498260 759.315002
-498.118073 -373.382050 683.643799
-541.587891 -52.381687 815.058838
-551.149658 -247.590210 749.284607
-364.217773 -329.491089 711.239136
-314.534119 -339.678436 690.532898
-395.045471 -235.287979 749.674133
-703.685303 -295.969604 700.566406
-395.793823 -421.160034 645.148865
-346.927002 -350.397522 692.326965
-660.007690 -352.892609 660.779297
-476.823151 -102.168930 808.906311
-303.495331 -293.732635 682.895996
-552.826599 -101.512352 824.515198
-595.967651 -11.439543 844.996643
-585.202026 -186.053268 784.559937
-607.246094 -122.395782 814.913452
-621.505188 -389.404633 721.546936
-625.756897 -37.946297 827.387329
-487.020660 -365.813019 707.586670
-548.549438 -163.748367 789.549133
-705.382996 -308.372192 728.559021
-589.242798 -48.741722 840.198486
-378.676208 -273.228790 709.624329
-409.631592 -130.416107 784.042297
-434.531860 -172.333725 769.786255
-513.666016 -254.824875 739.868713
-457.217255 -96.307846 791.547058
-641.520691 -367.601624 716.223755
-442.067902 -267.321716 744.168213
-603.296143 -195.306595 787.592041
-365.645233 -400.420258 677.870911
-585.415955 -316.650391 741.539063
-655.656921 -227.622650 787.777527
-344.708099 -205.506500 738.659607
-614.044373 -157.830231 809.569580
-687.005676 -308.425079 732.369629
-415.929901 -223.392593 747.771484
-333.053650 -389.143311 677.429443
-538.828430 -332.899719 717.060730
-641.276855 -233.004211 774.183044
-510.431274 -163.406052 797.498901
-607.937195 -72.138412 846.908508
-609.244751 -382.010376 740.880127
-569.126038 -85.651299 815.442078
-455.138824 -59.672810 831.450439
-401.567169 -195.429779 766.509827
-561.333252 -434.804169 705.844727
-524.427490 -209.583801 771.104614
-539.401489 -256.808167 759.182434
-395.919006 -282.800385 716.053650
-440.020782 -198.942383 761.372864
-638.260132 -370.057770 717.972595
-587.399963 -117.784973 812.335449
-394.861389 -172.085205 773.093811
-430.823425 -233.189743 755.806335
-494.178986 -100.433418 801.150818
-703.053406 -314.133453 739.694458
-468.885223 -188.276855 766.855835
-771.230591 -184.413574 853.102234
-470.544586 -193.467361 766.432800
-627.938293 -376.088013 709.936890
-575.540710 -46.337856 821.404968
-294.310120 -275.096436 713.438354
-603.839294 -413.105011 692.016113
-601.515686 -71.453018 842.435181
-492.673889 -309.986542 718.235840
-671.362671 -192.627731 805.972046
-446.830048 -352.964874 713.493530
-378.000244 -176.449951 759.740845
-525.147522 -400.363373 703.939026
-526.398987 -497.595032 696.415649
-516.717590 -189.716248 785.036926
-605.400330 -232.168411 777.007996
-428.588379 -428.691162 669.810303
-569.168762 -390.441895 718.032837
-449.803406 -235.672546 741.484558
-293.053131 -295.317139 694.811523
-647.167786 -355.854797 733.782349
-488.401917 -158.758713 784.046448
-611.038330 -277.561859 761.380554
-585.660217 -367.151886 718.630798
-698.201416 -286.970398 775.266907
-590.292603 -323.191559 729.733154
-577.928406 -312.386414 726.069275
-331.611511 -371.278778 666.128357
-594.593628 -52.110786 849.113892
-322.471985 -330.929565 701.754700
-730.009949 -285.713074 723.044678
-495.451660 -306.109802 720.303162
-624.255005 -385.554596 696.221130
-496.046692 -40.880344 821.225769
-421.813934 -237.529572 738.639954
-634.225830 -389.549133 665.480164
-762.326599 -145.603180 832.398315
-679.689453 -211.170334 789.832642
-510.469208 -497.239441 687.761658
-399.048340 -158.192322 768.677490
-676.414917 -176.030411 805.152161
-648.694275 -59.427994 853.145752
-497.574280 -173.309677 789.959229
-634.766296 -274.223633 766.201355
-439.840637 -191.911560 765.210327
-268.203217 -284.030701 701.854492
-484.287506 -527.971191 666.968445
-659.772705 -328.621704 737.885071
-317.201172 -335.882874 697.759033
-284.925934 -273.993500 730.558044
-384.485779 -300.541901 707.537659
-435.397339 -389.930573 691.864685
-471.546600 -171.392975 779.316711
-761.820557 -225.273636 847.286438
-439.072021 -476.545471 657.010925
-345.322662 -304.736694 703.690613
-536.217102 -260.510925 757.278320
-424.106445 -287.304962 720.278809
-471.545532 -46.163853 810.273132
-458.588409 -282.057892 720.847961
-422.991364 -274.928314 728.044800
-490.199951 -229.178513 765.169128
-573.271973 -134.472046 785.314880
-342.910461 -263.890747 720.579407
-540.538635 -367.272858 691.190063
-496.078461 -405.563446 663.432312
-613.959534 -34.020359 853.167603
-425.264313 -176.136673 756.560364
-457.475494 -235.985474 746.194763
-410.438660 -156.962570 773.764709
-696.617493 -322.294098 690.055054
-622.930359 -146.063126 804.031311
-306.281708 -304.026062 696.989929
-673.469116 -116.864166 830.332825
-679.028870 -163.680908 809.125732
-397.815430 -321.292694 707.729309
-671.139709 -87.725082 844.206360
-628.056458 -272.089752 757.355347
-509.597626 -71.775932 829.900391
-574.175964 -189.492966 786.411255
-488.868927 -447.031158 674.404419
-542.311768 -183.394150 790.276611
-544.557068 30.209915 853.612427
-503.227386 -237.716370 751.639648
-436.067657 -116.244690 798.262146
-518.775818 5.958509 848.873840
-534.003113 -226.640335 756.421143
-631.722839 -318.696625 746.623230
-620.091003 -218.593109 787.888977
-597.721924 -208.865738 790.738342
-347.810913 -366.321472 672.169983
-443.603638 -453.431854 650.670715
-620.064148 -422.486725 689.054749
-497.084259 -284.244965 729.939941
-325.336151 -331.384491 684.232300
-478.089355 -302.784424 711.941284
-428.116791 -386.472992 686.215393
-513.953186 -76.552422 825.928772
-464.095062 -177.557465 783.504211
-628.106934 -184.804779 789.555725
-497.634674 -167.425934 780.358582
-406.262024 -424.776825 675.752075
-536.214355 -394.478912 701.028137
-715.120117 -115.561539 831.980530
-525.141846 -251.675461 755.212708
-581.303833 -341.648407 719.534119
-603.296814 -86.315445 803.815308
-728.795532 -150.871658 824.663574
-342.502411 -385.681488 670.959473
-542.942810 -334.570435 714.284973
-670.177856 -114.697830 830.270691
-502.972229 -74.962486 815.019165
-727.242676 -154.949539 824.832642
-547.717896 -336.157837 710.143433
-564.275146 -254.588333 761.451111
-638.750000 -179.571838 806.417542
-700.646790 -269.645844 803.599792
-422.959747 -335.175812 690.653137
-715.138977 -290.994843 749.207703
-360.514038 -168.124496 774.188049
-460.093628 -69.423599 818.087585
-541.838684 -111.303200 819.284241
-553.543884 -365.009003 702.089233
-426.050995 -370.063019 699.071533
-392.683533 -436.160278 660.344421
-485.153381 -513.031494 672.981445
-582.569641 -21.715080 851.724365
-479.641235 -364.940857 693.680359
-542.027527 -208.647629 766.013062
-493.451508 -257.822662 757.927795
-648.938904 -90.594536 840.892273
-309.189117 -291.919769 715.020081
-583.893982 -8.347462 849.327515
-638.654358 -75.243065 848.196228
-730.548889 -280.977509 723.590393
-589.172241 -37.793804 847.123596
-680.962708 -91.017746 818.690796
-644.128296 -157.531387 805.270935
-476.758698 -42.866158 838.149475
-676.405701 -115.313828 832.734802
-337.123016 -206.545227 735.432678
-539.921021 -233.771179 759.234131
-425.615936 -110.798531 765.411926
-658.381897 -287.734253 757.130676
-704.594849 -313.838013 710.940430
-502.180939 -170.479431 793.436462
-598.972900 -83.370361 841.601440
-666.278320 -355.187012 711.711731
-705.112183 -279.525970 795.676819
-640.561523 -280.822754 741.639709
-589.347351 -2.120908 846.889893
-616.550537 -48.882591 849.736694
-453.133362 -466.256042 645.945374
-622.833496 -380.621826 742.105225
-514.674500 -203.492844 777.202209
-698.211426 -316.966125 687.080811
-447.485901 -325.054596 705.881104
-514.036926 -51.149773 824.340637
-614.396912 -211.247437 791.562500
-575.903748 -60.350410 845.289063
-687.487122 -104.251656 836.253113
-741.682556 -176.275726 825.535034
-386.599274 -166.199570 765.035645
-739.171570 -256.091522 800.693787
-531.280212 -79.751633 818.432922
-566.619507 -145.003250 798.681946
-475.274078 -335.966156 709.314575
-357.684204 -192.417892 748.895508
-446.318542 -180.748535 771.211548
-324.429932 -219.378952 737.618469
-553.851563 -266.771240 757.214783
-560.299988 -189.014435 775.873901
-237.078384 -326.755371 689.755371
-722.950073 -289.886505 718.869446
-628.779907 -77.857048 829.944519
-545.049622 -241.227600 767.060181
-463.586884 -193.626144 778.592712
-412.160828 -115.410454 790.290222
-436.890320 -159.224319 780.390991
-668.093018 -184.631042 795.047363
-473.160309 -249.959213 739.283813
-676.825195 -333.144318 670.351746
-397.976410 -233.011444 752.927368
-532.548340 20.812914 858.887451
-489.014648 -297.495117 735.645752
-603.098999 -398.364960 687.747742
-401.037781 -227.589828 716.458069
-629.875549 -66.916214 829.970154
-679.706055 -173.802277 815.977539
-735.541931 -261.656616 812.420410
-453.603821 -465.327515 653.707520
-729.760742 -128.456070 840.133667
-431.018127 -290.254486 703.632507
-479.178802 -106.932068 812.139038
-525.498413 -210.647797 765.410156
-688.523438 -299.285156 790.486694
-366.640991 -265.964142 734.706909
-431.851440 -275.278534 724.341248
-583.094727 -254.275314 755.567444
-767.158264 -226.740784 858.297974
-681.824951 -70.245331 850.408569
-557.724121 -79.091751 827.783997
-538.675476 -260.162384 747.257629
-598.610779 -300.865692 740.908447
-434.885193 -199.393570 772.949280
-515.116455 -218.604279 756.638367
-553.375183 -80.797783 821.042542
-734.788879 -269.619904 750.037659
-368.794128 -368.554260 692.386047
-348.941254 -397.727997 661.680420
-474.709656 -275.332642 731.085632
-439.454346 -149.611938 790.286316
-409.445770 -187.667084 761.963989
-670.537720 -341.100189 667.512878
-537.003967 -269.295380 758.941162
-471.640503 -318.082764 730.401550
-508.317352 -407.523560 675.752808
-671.800354 -198.885513 790.591003
-550.873779 -5.183877 838.954224
-657.592102 -149.057220 804.773743
-513.463318 -330.452576 717.482605
-311.933716 -312.646545 706.645264
-489.303192 -10.902087 851.376404
-351.310333 -342.185852 700.551025
-551.649292 -125.095467 813.678711
-446.351044 -396.136353 678.828430
-325.560852 -246.564026 724.473877
-658.302795 -333.532471 745.260254
-339.825165 -221.854736 747.967407
-506.749725 -353.726685 703.372925
-379.776276 -392.722046 668.932556
-455.383820 -316.608124 703.619629
-491.828339 -419.395294 666.598145
-438.445313 -290.101074 719.531982
-691.640747 -141.745621 804.660461
-470.936981 -270.746735 749.547729
-553.482666 -137.101242 800.134521
-412.307495 -344.877930 706.661865
-621.140991 -109.566780 798.243530
-495.559326 -46.801987 838.933350
-543.854858 -290.009277 738.577576
-540.582581 -61.726471 825.550415
-555.270630 -210.301636 770.299316
-379.467834 -349.145325 687.729858
-543.832397 -408.006439 688.975525
-573.568359 -83.884903 829.579468
-598.130310 -374.824310 730.975159
-519.923767 -107.143394 814.938599
-633.640503 -41.036198 857.698120
-661.527893 -73.245567 833.761597
-407.537628 -201.334045 750.535706
-693.742188 -201.446167 789.905273
-554.668091 -16.168310 841.035461
-492.145569 -379.032562 688.569824
-555.094604 -285.979828 749.726318
-450.721893 -204.068817 767.569702
-475.295807 -44.925163 820.925415
-430.583771 -134.956207 778.209290
-399.819336 -182.031952 766.937378
-506.323761 -160.248093 796.097656
-511.258575 -202.719208 766.791748
-536.921936 -383.334076 706.830872
-445.836182 -377.074677 684.477966
-474.709839 -423.309296 679.923462
-384.832275 -310.228943 685.026550
-614.722656 -392.632416 707.046936
-656.631104 -79.830597 847.473083
-274.996399 -354.477478 671.306091
-679.272034 -170.630890 818.253540
-617.085571 -68.388382 845.153076
-655.932861 -319.628967 759.664917
-566.854675 -49.228539 844.506287
-602.593201 -401.344879 712.361938
-341.658508 -248.248734 721.588501
-645.084656 -379.724030 671.169312
-471.339539 -267.541626 746.222046
-296.403809 -278.546753 721.313904
-358.646667 -297.016113 705.043457
-427.632874 -232.746643 740.850708
-720.657104 -125.568153 836.849609
-309.290009 -327.269470 704.281311
-715.578857 -189.420303 806.345398
-291.371826 -270.095062 708.756470
-492.278442 -222.713684 758.798340
-420.669708 -277.345673 724.475891
-659.658203 -308.453796 759.129761
-685.494263 -104.164787 839.251526
-457.480194 -286.225525 728.756470
-564.860474 -209.569885 768.677612
-384.471619 -345.706604 697.346252
-417.930664 -276.873291 707.546021
-608.967896 -41.619003 852.501221
-311.081116 -350.882172 676.372742
-447.760773 -262.329468 745.927979
-535.769592 -135.069046 809.557495
-436.968903 -316.654785 713.832458
-663.410889 -347.487091 730.612244
-505.457031 -13.231956 837.754883
-706.821167 -302.458527 739.582397
-348.759125 -313.266693 696.203613
-485.323944 -236.534943 752.408691
-575.145264 -152.992447 805.935913
-488.511017 -157.616959 795.742126
-458.604584 -482.646057 661.417664
-553.118286 -118.834084 807.114502
-672.326416 -236.357529 780.549988
-243.285187 -324.546875 703.694641
-527.358215 -53.672749 827.381714
-573.646973 -125.605347 818.329529
-319.454834 -411.503387 668.493591
-404.657654 -361.390076 699.919983
-466.213013 -321.920929 722.875671
-602.603821 -76.318359 838.271240
-470.815216 -216.257156 733.650757
-319.312805 -291.461487 700.772705
-509.436981 -57.293423 834.774170
-563.898987 -243.832870 754.098694
-515.658752 -57.721943 822.568359
-508.749176 -395.011658 699.867920
-602.548157 -88.764458 818.056152
-578.582703 -444.842712 732.097290
-518.337769 -300.307037 722.669983
-364.351624 -281.906128 730.823730
-742.305176 -266.489929 780.436890
-350.034912 -386.778473 666.381287
-530.333008 -307.833557 739.270386
-382.656403 -400.249756 664.430298
-738.890259 -136.340775 836.169128
-537.831726 -149.082199 806.682251
-394.361969 -244.551056 737.182434
-445.407196 -440.979889 663.662109
-529.985962 -124.738159 799.242493
-714.418457 -306.922516 702.201111
-646.296875 -47.518471 857.768005
-390.456390 -412.824646 659.895447
-616.361816 -381.047119 728.963257
-535.637024 18.851948 848.895447
-418.993591 -454.595917 670.280334
-302.462494 -274.073944 710.454285
-404.205566 -202.739990 768.044373
-641.475769 -296.620453 766.930969
-650.061584 -201.121307 797.922302
-726.434875 -281.921387 758.080994
-475.223785 -40.133640 824.888977
-547.495361 19.954205 867.874268
-548.084839 -113.378708 790.240845
-423.510315 -390.742004 695.040222
-614.468811 -98.180199 833.202637
-436.780731 -91.441254 802.822693
-454.108673 -365.257477 690.461182
-558.478394 -86.095398 826.152954
-596.705872 -398.308990 727.273560
-444.208038 -279.867798 737.207397
-351.475067 -263.997314 732.052307
-615.286682 -366.813232 723.287170
-334.804260 -319.382568 695.733765
-520.490662 -112.735985 803.307983
-688.726624 -234.794891 784.497253
-702.484497 -274.175751 798.344666
-534.174561 -235.121201 754.531982
-486.571106 -205.495392 764.599670
-570.400696 -117.420952 816.172913
-404.212219 -297.519592 717.848511
-494.064819 -94.474785 815.568054
-425.578949 -333.117706 699.841431
-539.362488 -69.105164 835.378784
-455.915100 -122.519882 797.276001
-504.613007 -391.716980 697.308716
-697.507019 -109.847748 839.458984
-470.187500 -283.256042 726.578308
-422.275543 -419.740753 683.062317
-460.609009 -214.727875 768.018188
-692.705994 -103.477043 819.047974
-634.504028 -349.425690 742.398926
-693.914185 -321.690338 728.128113
-611.646790 -211.664322 761.481018
-440.122955 -353.640167 711.051819
-518.191101 -78.692795 825.913452
-707.464844 -119.514839 817.261108
-655.667236 -107.536980 804.033264
-495.674164 -174.943192 778.547119
-281.728668 -338.565277 693.543640
-700.914612 -162.157532 810.370667
-378.975830 -291.551605 724.930725
-581.496155 -57.527885 846.771912
-537.470459 -297.079620 735.074707
-322.525055 -276.804565 708.210266
-709.890625 -145.303055 822.562012
-453.269958 -460.362274 648.590393
-485.177460 -403.038269 677.658936
-420.590912 -167.721069 751.747009
-486.270508 -27.618254 828.772949
-700.369019 -178.492111 818.226257
-389.860809 -183.919464 768.453979
-704.921143 -295.367737 682.571106
-450.623932 -81.515167 795.869141
-477.441376 -422.585724 685.737854
-506.097382 -35.188389 827.582336
-636.635864 -205.029114 791.524292
-462.823730 -295.479034 725.656372
-611.804138 -382.452606 711.305847
-573.165039 -226.459793 775.809509
-653.601013 -306.054321 772.022705
-552.198608 -241.960098 766.856445
-388.519043 -292.392700 711.309265
-594.961365 -232.981766 767.315247
-712.372192 -284.426422 749.354431
-301.536224 -375.772705 676.271912
-552.610107 -369.065704 701.780762
-519.059570 16.028639 869.476318
-732.487061 -190.003586 799.704163
-375.542236 -374.286804 687.201355
-507.932648 -328.627441 717.082886
-434.576904 -269.919128 731.692932
-548.642456 -338.733246 714.906311
-423.774292 -220.006500 737.448364
-511.361847 -302.454559 724.217957
-448.547394 -415.030914 687.433289
-354.610321 -348.402161 661.350525
-560.294434 -104.199432 822.813416
-653.547913 -367.416718 699.208435
-353.201111 -205.657959 756.528687
-561.721985 -436.708862 708.281616
-585.220703 -5.565621 863.205139
-552.492371 -129.033356 787.027649
-538.569458 -82.609200 818.739563
-641.421692 -267.574677 760.953003
-602.158569 -435.833984 697.079956
-432.982117 -326.412415 703.462830
-727.406311 -136.559692 820.191162
-488.777161 -295.796448 723.724548
-711.774536 -154.132294 819.551147
-528.802063 -411.534668 679.772095
-699.369629 -138.074844 813.997620
-627.617432 -142.357285 819.208191
-406.595398 -139.666122 782.849670
-568.648682 -120.357620 812.179382
-493.088745 -352.770416 704.367188
-594.926758 -153.777191 809.019714
-428.561462 -303.588013 716.050232
-329.681641 -329.657104 696.480164
-676.171692 -343.181854 661.889099
-724.603760 -278.965271 758.500244
-670.385132 -279.888000 761.653381
-718.378052 -280.120728 808.774109
-584.586243 -307.503998 744.298950
-416.033691 -338.241241 695.983398
-530.436707 -8.780013 856.949646
-338.251678 -349.518799 699.291870
-392.352448 -194.352127 757.424316
-685.597107 -311.213531 782.488831
-427.590973 -226.564941 755.435242
-303.054169 -325.883606 685.652283
-430.589081 -304.943237 707.569092
-549.352051 -124.648178 814.560364
-687.788879 -312.624634 664.565247
-507.969482 -204.867233 770.509827
-616.133545 -227.400497 774.063843
-521.057800 -188.521667 787.647095
-571.234497 -37.561275 847.296509
-444.677277 -410.586426 689.378357
-519.302612 -105.125473 808.095825
-331.846832 -216.877945 737.903381
-745.547241 -140.562042 834.041748
-661.480530 -159.314590 796.302063
-337.547791 -379.002258 687.179565
-510.899261 2.849353 861.753662
-411.825928 -143.595154 763.275269
-450.681702 -487.959808 643.972778
-520.880737 -134.807938 810.041992
-595.460938 -269.997375 754.518005
-668.924561 -358.875519 665.113708
-645.017761 -97.083946 836.377319
-270.351410 -352.060486 672.028564
-580.857605 -131.008987 810.730225
-745.017578 -135.978607 832.442322
-635.748718 -72.370422 844.609314
-475.347137 -174.267365 750.180176
-485.896759 -383.520325 705.517517
-603.463867 -312.385223 743.149658
-632.928772 -253.804077 769.681030
-555.922913 -244.222992 753.062195
-666.889160 -203.985870 776.669128
-473.425690 -405.620636 676.501587
-637.960144 -87.654900 831.209595
-423.163696 -119.610504 799.059998
-367.220520 -372.604584 684.086670
-658.439758 -51.498997 851.281372
-650.939697 -174.971298 811.169434
-476.504120 -376.120026 692.886658
-553.432373 -38.040260 844.302307
-435.473480 -100.538513 800.976990
-555.346497 43.931061 863.349243
-679.189270 -102.195969 823.119080
-415.771332 -122.724472 793.401367
-578.527649 -4.981607 868.532166
-373.793121 -248.892960 745.470398
-645.072876 -387.643280 671.511047
-568.508545 -316.331848 728.431702
-550.098389 -93.115135 799.012329
-583.223877 -403.197296 725.636169
-437.206177 -184.395935 767.898804
-608.885559 -46.916847 833.808716
-416.916229 -267.768219 719.634094
-432.612915 -466.112244 658.670288
-627.244690 -148.224503 815.140930
-418.584717 -282.015106 719.557495
-624.274231 -14.768864 864.279968
-634.034790 -381.755035 657.280457
-569.329346 -2.178088 857.625732
-334.304199 -271.749817 731.059204
-553.356262 -283.455597 740.989624
-405.358215 -257.424988 744.790222
-496.626373 -93.088524 786.008484
-567.626343 -176.042068 787.070801
-479.864044 -200.592194 779.210815
-713.111206 -127.655296 819.614319
-651.160461 -81.083694 843.411255
-571.055542 -43.290867 830.698914
-578.221069 -283.105865 753.851624
-505.184631 2.550439 851.136963
-664.037048 -103.146240 824.845947
-524.853027 -127.460693 807.425293
-597.282837 -249.121216 763.144897
-385.790710 -386.514496 691.598572
-659.384644 -160.532089 814.158691
-412.711731 -436.086517 672.081299
-497.499756 -312.114777 721.341980
-707.122314 -288.396118 721.236328
-672.936340 -115.617012 828.153809
-459.945251 -303.599365 729.891174
-412.960358 -229.821854 755.297363
-407.434052 -359.212738 688.468506
-552.946472 -304.684723 742.714172
-766.608032 -184.121460 808.601685
-526.241150 -118.661522 814.651733
-584.014465 -277.858521 746.787781
-493.840149 -399.265259 689.120483
-633.987610 -144.216476 811.560913
-332.057129 -343.528809 692.523865
-513.792908 -251.731750 753.116211
-527.373413 -150.703201 791.770752
-384.116730 -197.849457 752.905029
-643.613403 -168.110947 803.006165
-510.336273 -324.286438 718.053162
-633.094666 -380.798096 663.021179
-399.081726 -337.201538 695.286499
-399.092834 -152.866928 775.916504
-596.053162 -98.353851 830.264038
-427.184967 -361.979065 695.462769
-384.678772 -204.457443 760.589478
-626.554688 -65.656006 837.785950
-473.624756 -350.450531 704.556763
-706.904114 -284.626678 776.608521
-454.376251 -176.861725 763.079285
-430.716339 -180.026062 763.755798
-534.292297 -30.739286 836.724426
-502.870331 -117.994858 782.850464
-431.936127 -166.641113 782.266663
-581.484131 -325.951996 729.543640
-413.118134 -156.752853 771.605957
-499.619080 -405.798126 690.410706
-422.308105 -371.081787 702.124817
-390.680603 -161.936890 777.610779
-573.692993 -209.002167 786.697327
-496.274780 -183.637009 775.841797
-541.622009 -380.514526 684.598816
-406.940186 -252.225693 732.503235
-585.502563 -146.349854 801.659302
-476.576172 -416.600616 672.368042
-615.117249 -72.612854 843.503113
-489.875519 -74.070740 793.173950
-561.930664 -166.244659 787.933228
-678.572021 -159.548569 816.005737
-403.792114 -373.094452 689.307983
-475.241455 -66.102219 809.661072
-637.849792 -348.191772 759.925964
-577.815613 -198.938248 792.620178
-696.890198 -276.038055 754.654480
-522.596680 -107.441574 802.078613
-569.943298 27.138418 857.604736
-467.692749 -136.965118 788.152893
-491.141357 -94.226089 818.440796
-586.377380 -222.535385 783.064392
-402.388336 -167.732819 738.028564
-588.886963 -23.342731 855.419434
-489.614746 -29.634356 829.614990
-525.015198 -47.044449 828.806519
-552.463684 -141.711044 801.678650
-605.345520 -420.079559 686.863098
-655.770325 -173.992111 807.155823
-675.819458 -347.404144 695.005432
-407.423248 -155.690369 781.553467
-666.014343 -338.818512 705.557129
-692.477478 -308.041626 706.899353
-491.873993 -77.475998 813.949646
-482.148682 -360.624207 696.026123
-663.853027 -59.287384 848.276123
-702.064148 -136.617386 826.623596
-505.559753 -90.752808 822.658936
-455.498016 -85.656540 789.867004
-555.010437 12.589793 856.022644
-592.380249 -46.227562 845.137756
-561.378479 -162.626175 799.708923
-359.977936 -189.879745 762.623291
-399.062286 -366.381165 701.723511
-512.271362 -275.250305 740.116699
-532.419556 -248.079529 767.338440
-749.239014 -149.674133 856.259094
-709.812683 -283.737976 707.946838
-711.346497 -283.690857 745.452942
-276.217926 -338.291260 678.515747
-512.496826 -200.940308 774.134705
-540.848206 -0.626838 861.581116
-585.880310 -172.108551 793.166687
-485.341156 -296.173279 723.670654
-561.707520 -303.939941 730.560669
-657.602783 -297.446228 763.035889
-343.756653 -375.490143 680.390991
-663.181763 -341.608826 730.464050
-543.783325 -224.288422 759.880066
-390.728577 -302.741333 709.083496
-477.283752 -322.026581 726.340576
-491.380066 -216.566071 755.865723
-286.362488 -294.725433 704.523987
-344.634247 -371.233276 670.716736
-387.889008 -258.627014 713.994751
-573.500061 -157.121918 789.804871
-335.328796 -285.198853 716.958801
-645.810608 -320.918335 752.464050
-690.405273 -286.995026 774.840637
-623.033875 -267.290405 767.901672
-652.626587 -331.608490 737.283691
-697.200745 -208.407349 794.557922
-381.439850 -332.759674 708.829529
-360.756256 -273.942749 706.148621
-609.011658 -368.960999 721.786438
-469.202026 -469.704071 636.376221
-442.945160 -387.040985 680.081543
-594.154358 -285.988068 756.626953
-668.814697 -135.709991 819.782898
-572.833374 -72.505882 822.701233
-409.664612 -292.348633 698.869324
-298.815033 -284.778931 703.845032
-572.625671 -353.740784 713.105835
-391.879578 -418.968262 659.701782
-613.225708 -52.456223 852.157898
-679.952209 -312.339935 716.731445
-581.638489 -320.032013 743.540039
-529.137756 -212.387024 770.431824
-666.337524 -339.735413 644.211548
-608.408081 -149.004257 813.082397
-752.881287 -167.223389 828.541260
-541.258789 -259.411407 751.643066
-305.482513 -272.372650 694.983154
-464.389404 -199.708282 763.175110
-356.560760 -313.245605 685.061584
-680.503906 -281.848145 773.364624
-421.163513 -277.109344 736.216492
-449.046448 -139.897247 777.728760
-677.911682 -321.870453 742.824036
-552.494690 -382.193634 698.394104
-525.682800 -212.755585 776.144836
-493.653168 -202.127029 767.433716
-415.795715 -260.497192 745.604126
-612.400696 -400.182129 647.805176
-381.446167 -290.120789 711.940430
-648.036865 -343.195618 737.688293
-371.551239 -358.409088 668.201050
-651.154236 -148.146576 814.835632
-430.141632 -287.476227 736.360657
-494.411285 -364.316742 709.105835
-626.241943 -124.604752 812.863953
-541.018188 -127.789932 801.024170
-594.748047 -246.735123 770.773987
-593.828613 -109.834183 823.380188
-648.861755 -70.261147 849.582764
-520.816589 -217.541656 762.483032
-602.500671 -317.340546 729.459656
-599.227661 -58.290234 828.532959
-605.616394 -114.306015 821.751038
-757.457642 -229.097595 846.449036
-587.971130 -251.902954 759.044556
-538.291321 -305.829590 726.203735
-568.904419 -343.241974 721.984192
-478.979248 -172.426208 778.254150
-400.450592 -293.344025 725.035156
-335.464203 -228.655457 727.285828
-587.307251 -290.574951 733.985901
-505.091736 -276.467407 738.655273
-470.319458 -95.779381 801.693970
-638.342957 -371.540222 699.172119
-545.800232 -284.976624 748.832642
-260.479187 -304.681213 706.557983
-767.952087 -229.193100 863.313904
-463.100800 -445.021942 658.453125
-574.284241 -111.594017 812.989075
-471.367676 -457.514404 636.563354
-659.027039 -251.665039 787.531677
-372.372528 -278.607117 721.155762
-562.613464 -18.417006 841.176941
-531.928894 -394.226227 705.264832
-585.382324 -128.991760 807.043213
-525.463989 -421.002197 670.669556
-720.546997 -150.590790 817.433716
-267.167603 -287.786865 701.967163
-335.206451 -307.022003 712.177856
-439.925537 -259.518463 750.091492
-447.613129 -391.950775 692.569763
-347.528076 -340.582489 704.493774
-496.514618 -413.229309 675.156372
-692.161499 -329.335419 708.961609
-521.024841 -58.813080 836.447693
-598.578247 -21.668417 859.346741
-291.721893 -371.813019 684.770813
-740.964417 -223.584930 815.981201
-600.824036 -24.244070 855.451782
-587.683350 -410.170685 722.184448
-698.493530 -322.685913 685.199402
-598.563416 -142.961746 811.875000
-546.250366 -352.343109 718.735291
-599.614685 -452.143433 739.455688
-492.879730 -161.727264 783.448486
-568.530212 -142.798264 805.254150
-304.289612 -278.243103 707.171570
-616.737976 -179.133560 801.899353
-480.066803 -169.007858 780.160950
-535.392517 -298.157562 744.326843
-712.909302 -292.537079 735.732178
-760.725830 -232.679123 821.056763
-602.994263 -77.538849 836.590820
-599.827148 -388.177460 732.259705
-661.471802 -293.754974 771.476318
-334.370850 -357.183167 688.117737
-611.945923 -63.897411 841.449463
-652.328857 -205.208847 791.916565
-455.693909 -119.045891 798.143921
-676.099609 -316.535370 720.899475
-675.543884 -323.223419 713.248718
-343.592133 -343.739868 681.950867
-644.881470 -267.151062 760.713684
-709.734009 -256.755463 796.089294
-564.995850 -157.111084 802.853210
-659.028503 -279.674683 779.403564
-706.044922 -228.023483 798.008118
-329.787292 -254.335724 741.996399
-392.711365 -137.540695 780.483704
-564.799683 -157.239975 793.061462
-586.652161 -356.119202 710.285767
-668.208008 -331.734833 691.085144
-557.086487 -4.949774 861.468201
-492.677856 -60.085743 817.250854
-616.889282 -183.372757 797.377869
-511.427094 -368.323792 696.430359
-728.970520 -286.167786 741.212219
-434.182678 -213.133759 764.747131
-653.482849 -126.321480 827.437256
-581.677368 -72.342941 835.476379
-544.235596 -242.484634 765.687744
-495.350494 -215.965515 771.961060
-631.855713 -274.924713 751.662842
-260.870789 -308.659576 690.572754
-727.264404 -279.316925 743.128113
-627.220703 -165.873749 781.691772
-292.435730 -303.998810 706.795532
-519.186035 -332.193176 715.078186
-684.915527 -214.072479 789.013611
-435.792206 -90.358414 804.099243
-535.397278 -57.746983 827.953308
-637.799927 -113.941704 827.737061
-571.118530 -146.817673 798.717224
-363.044800 -269.103027 708.580688
-593.305725 -84.825745 826.439148
-501.732513 -175.266510 780.349548
-485.626617 -43.987751 825.871277
-630.888306 -108.738609 831.995483
-584.340881 -182.166122 785.068848
-285.044250 -270.926300 714.624451
-512.240051 -352.804108 702.788513
-410.134979 -168.826294 777.728943
-554.115112 -279.304626 745.214539
-525.372375 -19.010508 834.922119
-464.148346 -283.548218 731.298096
-343.346680 -220.142685 726.857117
-627.663147 -137.128632 810.502014
-544.137085 -179.569687 794.109680
-683.888184 -319.415314 731.928650
-642.291748 -359.790039 698.507751
-380.318573 -308.682953 704.332214
-547.194336 -79.041382 804.482849
-595.442261 -30.044739 850.404114
-554.375122 26.341431 865.968079
-735.488647 -186.789963 832.192810
-690.137573 -97.223137 837.285278
-473.088043 -138.288254 783.918884
-524.864868 -355.741852 703.457642
-606.006836 -334.195160 734.790405
-713.575012 -280.907257 783.460144
-400.726532 -239.236359 738.221802
-377.013489 -350.303253 687.515503
-583.226318 -30.393051 846.751465
-668.729675 -88.571770 829.214844
-548.628479 -198.864090 775.612610
-383.634308 -207.642578 747.070374
-613.541748 -191.680099 797.726746
-509.173676 -48.870571 819.799500
-466.523865 -152.029556 788.893860
-470.745758 -381.345703 667.760986
-321.260742 -339.783051 691.663879
-519.777283 -131.386353 809.166321
-435.612427 -424.720306 642.169189
-738.781189 -258.071381 767.526978
-305.372406 -309.279999 669.966675
-664.760498 -231.519485 781.371338
-510.273804 -51.701103 831.102966
-656.085938 -209.679749 794.468689
-483.730988 -29.062298 838.189392
-659.726746 -363.255585 708.372681
-580.167786 -100.183296 800.228455
-451.234100 -356.936798 696.424133
-318.842010 -238.228897 729.715820
-746.808594 -130.170135 855.327209
-502.317505 -171.076950 787.791138
-724.275574 -131.503601 832.644348
-290.570953 -268.316925 724.924377
-524.614502 -218.041885 763.854065
-682.496521 -142.544937 821.560669
-431.252289 -328.720398 702.685242
-452.218597 -296.178131 712.853455
-567.208679 -202.007568 780.216125
-597.190552 -316.079742 733.703857
-547.809631 -332.581146 716.271362
-682.256897 -304.991669 762.568909
-457.602783 -375.624023 686.490540
-409.323792 -146.535736 775.754822
-527.579529 -260.814911 744.987000
-518.935791 -394.859009 687.556885
-472.047729 -119.499939 795.091370
-628.379456 -312.236176 739.475098
-583.236755 -355.299377 733.032104
-489.488159 -359.748932 697.667969
-423.535278 -423.617035 658.954285
-486.419373 -181.186371 778.010803
-633.126099 -382.394562 723.135742
-523.821655 -93.791718 795.126160
-425.095093 -361.952576 707.590149
-621.981323 -380.819580 703.737915
-558.641663 -361.485168 709.675415
-726.107910 -275.645508 828.918518
-631.570801 -18.333748 860.451172
-592.742737 -169.502579 787.422241
-722.958008 -275.806091 773.070984
-731.948975 -278.176239 817.147278
-567.035706 -36.068085 847.607056
-591.470825 -175.604477 790.594421
-337.524078 -217.982666 738.771362
-489.745697 -483.295624 663.315552
-641.106262 -204.692917 781.761597
-713.603577 -119.609413 825.714111
-625.108337 -290.888153 755.460999
-572.138550 -98.820168 810.802612
-692.429138 -154.228455 824.425964
-422.679199 -356.787384 689.552673
-743.931274 -157.885193 820.489868
-586.708008 -437.159943 693.865967
-498.883881 -240.690567 762.229004
-644.540100 -328.837097 732.114258
-356.105042 -290.281830 718.729370
-374.122284 -349.384308 688.690979
-731.789307 -282.664886 742.930542
-371.735168 -403.054718 683.834045
-465.190033 -59.287315 819.275208
-308.621704 -235.981094 725.811890
-620.446594 -395.713470 695.514648
-430.555695 -109.086800 791.476868
-393.312561 -364.425690 702.742249
-430.276245 -151.370316 772.668457
-685.496460 -281.473999 753.389648
-508.982422 -55.297478 835.064880
-691.866760 -240.597000 801.899902
-720.559387 -193.615540 805.728394
-406.816711 -286.239777 731.264038
-532.237793 -140.632416 793.620361
-378.634338 -357.183655 684.604492
-651.058411 -358.394104 708.196655
-404.674896 -416.502228 675.108948
-557.589050 10.325142 845.834900
-605.255920 -55.025051 846.078491
-357.887848 -274.131531 715.290588
-393.738434 -199.041138 764.363525
-392.427460 -158.379898 786.838196
-481.224854 -410.110962 687.527893
-534.884094 -108.157150 794.246033
-731.550781 -274.926880 793.600830
-701.658386 -310.215424 717.576111
-690.449951 -299.702759 747.131714
-339.000885 -343.126984 687.291443
-533.588318 -213.541260 776.428101
-555.018433 -82.588127 830.427246
-302.487915 -297.018738 706.607849
-500.315094 -121.389870 812.026855
-532.721252 -482.208862 696.503235
-636.787903 -362.247406 720.705139
-460.609924 -225.211533 748.730469
-725.545837 -169.953217 823.457275
-724.339172 -290.585510 750.413086
-589.901978 -364.743896 723.549377
-626.218079 -15.352022 860.106995
-584.820557 -118.102562 805.325562
-391.819305 -411.180084 668.474182
-689.593140 -111.194138 819.258789
-422.950439 -193.202454 774.695862
-716.753662 -194.811783 822.738770
-454.082001 -484.584686 657.673218
-489.054291 -383.259094 686.131409
-542.852966 -135.091644 813.073364
-740.384949 -270.558929 816.754700
-375.069427 -217.991318 742.065613
-442.572052 -464.173157 656.809204
-402.009125 -324.578766 706.947632
-653.930664 -188.422760 787.843384
-657.097717 -343.255859 708.091553
-443.185150 -199.361771 756.300476
-335.900543 -289.234802 695.299988
-498.644958 -152.268219 798.705505
-633.403809 -83.432182 825.822388
-435.785217 -269.954926 745.066528
-622.061340 -358.217987 738.311890
-589.122070 -119.377861 816.829834
-494.403229 -84.288467 812.143738
-361.539612 -170.686035 765.773865
-650.741821 -98.995155 829.310181
-378.814819 -357.609314 703.175720
-633.819763 -73.857681 832.037292
-422.781525 -204.428558 744.014587
-476.936127 -336.224579 696.533020
-552.405212 -315.873962 737.470825
-408.059326 -362.665100 683.791382
-440.465607 -126.487633 763.429993
-422.149445 -216.827530 764.202332
-403.736694 -381.069672 677.418762
-473.369110 -82.274048 808.179138
-292.237518 -305.653229 689.195862
-393.717255 -271.035858 722.872009
-565.594727 -219.773087 778.144897
-682.425720 -151.621475 816.763916
-595.874268 -95.608292 830.134705
-435.286469 -146.935547 791.180725
-358.514801 -183.912369 737.665649
-624.345093 -87.294655 814.100220
-393.219421 -174.469513 779.354736
-376.515656 -165.402756 767.442688
-655.862244 -368.139740 691.305420
-624.652344 -201.499207 776.913696
-557.210022 -173.965240 790.495300
-450.909088 -168.579391 784.927246
-477.850281 -202.645035 766.895691
-291.613068 -315.401978 701.142273
-533.732239 -181.960175 783.942810
-420.301697 -226.165222 747.075012
-682.950500 -332.645264 706.654663
-495.335419 -92.610329 814.178101
-418.012146 -338.601593 697.133789
-579.856506 -167.034500 786.904053
-597.363403 -116.659019 814.105469
-257.169189 -314.289398 676.507019
-408.547913 -132.389709 781.721436
-617.613708 -226.537155 765.983032
-307.946411 -320.817627 689.827759
-522.333984 -233.610291 766.895020
-516.680603 -273.574432 721.444519
-532.785156 23.820572 857.500732
-399.275909 -257.707214 729.600708
-759.173401 -241.131866 844.929443
-535.411011 -150.223724 803.036621
-520.964722 -192.861816 754.611877
-600.392212 -321.183502 739.837646
-694.823425 -257.997284 802.906982
-592.768799 -255.228531 757.278076
-669.338867 -333.620544 647.583069
-514.994141 -80.989227 825.969055
-431.904266 -152.493759 777.391174
-637.434387 -163.214859 814.238403
-618.075684 -388.234711 733.418091
-491.753632 -338.115295 710.275269
-520.842834 -111.769501 805.954529
-642.044067 -60.364143 833.503418
-404.264923 -434.259186 668.454651
-626.049255 -225.022949 758.610352
-377.062866 -350.175537 705.737305
-452.613312 -332.957916 703.799744
-543.729980 -167.812103 798.339539
-382.640533 -429.925293 664.968506
-729.049377 -216.768219 830.348572
-696.484802 -107.137459 824.148987
-432.626678 -225.492218 747.947754
-508.836456 -102.167389 783.766785
-660.958374 -254.380249 772.829590
-463.103790 -174.862946 775.601990
-574.154175 -99.110054 817.202271
-332.846039 -265.083191 715.120605
-628.708069 -77.928848 840.017700
-519.898193 -32.710884 832.222168
-741.831116 -274.460205 821.825500
-478.095612 -173.111847 774.861084
-546.237427 -224.408936 778.468262
-434.226227 -100.660385 799.079163
-412.611023 -423.623138 659.865417
-426.637939 -175.823349 770.630615
-759.345337 -162.135849 830.332458
-560.764160 -93.714439 803.750305
-684.670044 -302.798126 745.458801
-456.735779 -409.647797 659.701782
-333.030396 -356.864349 694.864807
-285.844177 -353.761200 662.589783
-358.146698 -200.314407 747.728577
-642.152161 -225.622284 784.348450
-677.606018 -109.476212 825.701660
-477.053558 -246.570328 747.185425
-582.701416 -205.170929 775.330933
-443.279022 -86.292984 806.927246
-512.478882 -112.270584 780.004089
-657.284058 -372.099518 674.654358
-456.915894 -422.569366 667.053101
-389.778137 -296.797974 703.806946
-657.701904 -97.351585 835.571228
-699.528320 -139.902588 823.735779
-557.061157 -242.505402 752.506470
-586.281677 16.780243 870.315186
-282.893616 -335.821686 663.478638
-469.720551 -18.806131 824.988159
-546.953125 -104.041237 817.915527
-385.338257 -385.936066 673.797180
-324.492340 -310.131897 712.480225
-633.215149 -373.807800 744.021729
-622.904419 -212.241287 772.540222
-589.466187 -130.558868 807.654480
-577.093079 -261.069641 762.340881
-508.514374 -297.564575 725.673157
-686.644775 -200.410660 796.606934
-450.735992 -377.295624 697.234985
-470.588470 -482.263672 644.076050
-510.521667 -348.037292 723.242798
-301.448395 -251.929855 718.793030
-609.832458 -133.479919 819.511536
-619.306396 -373.228180 728.536621
-332.435089 -249.704590 718.279907
-283.185364 -338.002625 659.285034
-646.160339 -145.536850 815.078979
-542.441650 -210.939499 775.247192
-297.065430 -273.514160 710.534302
-356.526520 -330.391357 707.078796
-403.764923 -191.759354 769.266663
-669.040100 -195.376236 794.609253
-338.336670 -360.482117 687.306641
-718.947510 -294.625336 732.004883
-439.932770 -108.613884 789.727722
-446.494720 -111.505264 810.975708
-389.014191 -140.207352 792.017700
-389.380554 -390.287170 685.955566
-371.337189 -311.756500 718.555786
-502.558380 -292.223663 731.288513
-396.989960 -131.754196 783.079468
-655.467957 -154.252319 822.688660
-366.031067 -360.412537 690.929321
-592.777222 -109.509247 828.996277
-410.446533 -403.127289 647.143005
-635.465454 -137.805054 817.050415
-530.804932 -64.987648 828.681396
-636.880493 -81.830116 831.724915
-518.549194 -404.270660 668.066528
-662.269897 -130.283493 832.963501
-466.639923 -305.990112 708.528442
-399.889008 -201.641022 750.009949
-303.459503 -317.135559 705.931213
-722.400757 -196.844955 820.053894
-246.155075 -336.719910 681.881287
-447.473328 -146.206329 774.936951
-570.037537 -426.204102 715.789001
-554.491272 22.960375 849.724792
-316.921509 -337.740448 698.439819
-664.254272 -78.467361 848.935364
-531.080811 0.538631 849.539429
-514.794983 -224.194534 759.160767
-399.589996 -295.434174 711.503784
-546.757629 -68.161217 825.959534
-689.537292 -86.510849 838.514343
-327.439056 -325.363281 686.608154
-440.598785 -165.562973 771.114319
-366.546051 -369.667480 697.089111
-510.647858 -204.663971 766.975281
-561.210388 -195.653198 790.233154
-664.156616 -172.175171 813.981018
-365.012573 -203.671860 726.694580
-669.368042 -81.134369 848.542053
-417.784973 -367.827026 702.993713
-450.698364 -202.528076 774.294495
-576.544556 -33.504032 848.172119
-342.394440 -382.178497 687.064636
-635.083984 -286.341888 762.640747
-698.629395 -92.864517 828.127136
-710.965332 -242.989105 808.745117
-713.306335 -300.781097 731.962769
-293.860992 -312.451050 686.083435
-625.472412 -44.661091 828.628784
-504.079620 -201.203827 751.977356
-762.569397 -204.219162 847.846985
-581.744690 -53.109772 843.743896
-531.115967 -378.014954 694.779175
-626.518494 -118.015182 832.475342
-322.042755 -269.629333 697.785767
-546.165771 -146.460083 771.919434
-502.506348 -50.985821 834.371765
-468.774628 -146.915894 795.886353
-528.787964 -301.860748 739.744507
-610.172546 -253.812515 769.627625
-501.005676 1.618485 851.807068
-424.024261 -243.160370 751.465942
-716.045288 -126.828964 834.489380
-361.402740 -254.762650 723.298584
-365.423706 -377.667938 672.353088
-693.924683 -309.040588 745.732056
-589.800171 -314.053680 739.932922
-435.959808 -230.875824 747.460876
-504.735382 -65.349472 832.132751
-730.863220 -276.063416 740.066101
-502.539856 -371.910431 712.556396
-491.990356 -346.777252 686.966248
-705.437622 -282.910492 801.677734
-517.768250 -14.411003 848.476257
-398.436157 -325.539459 699.328064
-325.626953 -287.515076 702.373596
-269.736694 -337.646576 703.153748
-605.676575 -220.985992 781.748962
