ply
format ascii 1.0
element vertex 1422
property float x
property float y
property float z
end_header
258.288666 -952.639038 111.284523
437.796204 -796.341797 -96.751869
168.866913 -912.622375 96.189674
232.810089 -984.903992 155.804840
353.632477 -934.084229 97.644981
561.199585 -918.424561 83.734238
253.738831 -980.918640 166.366364
202.847580 -818.749512 -86.495934
314.336578 -865.776550 14.701011
524.318665 -789.526672 -76.028030
409.340668 -962.037964 127.637810
578.417603 -927.523438 87.055092
237.465698 -805.583923 -100.337883
594.142517 -861.104614 20.351696
594.985413 -859.991943 -5.034209
299.796204 -782.228455 -94.467628
211.055481 -914.218445 92.076477
262.724976 -960.948792 174.995773
372.734039 -902.784180 67.205460
598.172729 -879.768799 37.857597
580.698181 -953.230713 135.695511
425.851563 -937.875488 121.389923
610.416504 -894.783997 53.788399
550.172302 -858.921875 -14.074700
582.408813 -899.752869 62.126343
530.981201 -823.714966 -58.635826
155.954880 -831.940613 -1.196278
552.561218 -872.145325 8.312311
256.027557 -922.283142 95.129623
368.183777 -935.091553 103.363113
538.916748 -935.042725 110.229164
558.523315 -1032.291626 162.922302
326.932556 -934.803162 217.185593
280.782837 -985.915222 153.527390
430.002319 -919.604553 92.208687
373.844025 -895.512268 31.960588
602.973694 -883.568848 28.823883
112.415199 -825.416565 -34.666283
412.979889 -934.136963 100.750313
424.272156 -839.067261 -51.190815
411.868713 -865.257568 7.856819
411.786072 -863.724243 -11.226769
422.050537 -948.089844 117.857491
256.818146 -832.309387 -53.515842
126.743279 -812.743164 -36.682270
424.415558 -848.806091 -13.269789
333.212952 -971.981201 133.721558
438.394867 -922.786865 94.192589
542.939758 -893.070496 31.894333
569.171204 -894.737610 70.122498
282.448364 -973.998047 152.869583
294.245514 -888.299744 29.044046
141.432770 -774.601257 -127.708504
546.990173 -837.153503 -25.124113
582.403931 -844.516479 -31.470747
226.785767 -920.113342 101.777771
556.726746 -838.126709 -45.989193
475.629272 -898.322571 54.279175
567.404846 -937.254272 114.567680
577.775696 -897.069519 54.925274
592.002258 -922.611694 115.042778
487.248810 -934.165039 94.812271
505.056519 -919.219910 124.725700
352.961121 -882.416321 37.871185
135.015167 -893.413818 56.783581
539.406189 -848.544373 -17.811718
348.268677 -910.945496 91.316536
535.166077 -963.541443 156.421051
549.060547 -975.093933 158.500427
604.985352 -911.702576 91.130592
569.881470 -831.359070 -52.657822
230.644028 -848.056702 -21.788565
475.911713 -886.450195 35.443562
390.822205 -947.207153 136.175415
418.153564 -851.870972 -28.975006
397.902222 -847.585083 -14.797518
270.489349 -801.114258 -108.274055
421.414429 -937.659302 110.262962
150.873001 -841.858215 -17.787380
539.819214 -847.855835 -8.220156
446.458832 -895.484741 55.860615
124.214531 -925.674255 91.895088
427.336823 -828.347656 -36.478622
384.269379 -934.951233 103.903351
570.961243 -894.160400 69.270012
559.538269 -912.550415 88.284821
421.863220 -794.337463 -107.132797
368.188019 -829.270203 -63.124107
173.226944 -873.190796 23.772331
547.365417 -928.395020 85.606422
426.270081 -862.384277 -0.234197
445.226196 -935.222839 106.518433
459.520081 -912.216064 76.958931
292.660797 -927.827087 108.597404
509.594574 -833.270508 -30.738472
485.139557 -921.754944 106.097374
118.689529 -860.884521 -12.295948
467.572174 -880.485291 29.809269
221.766052 -946.866638 137.198441
507.301117 -1016.663330 178.892471
219.202362 -853.346985 -14.359384
473.029266 -1032.632446 174.319794
391.601624 -798.150879 -94.788338
467.952423 -930.128418 109.469498
134.012756 -923.206055 79.683472
147.965347 -888.267944 35.965118
378.960022 -941.998962 222.411255
279.260315 -916.784607 220.926697
512.885925 -894.759521 85.936470
307.670532 -830.781616 -14.057530
365.367889 -890.262573 57.469013
519.400452 -858.763733 -4.599884
395.445984 -943.912537 228.851166
386.261810 -968.463867 184.963058
135.547607 -852.756897 -35.802082
132.888947 -901.541138 39.845016
548.042969 -805.272888 -56.651733
577.026245 -796.020935 -62.766777
371.394287 -804.161743 -96.729362
197.530212 -836.167847 -31.659733
253.376358 -835.056763 -32.835941
236.139893 -891.645996 50.126156
365.963959 -815.890991 -48.684727
530.099670 -919.916077 114.977570
569.510620 -799.604736 -84.366760
598.066040 -823.102234 -27.347517
331.949188 -831.976624 -23.886570
592.018250 -810.127747 -19.626692
439.517578 -846.972473 -7.539749
544.558899 -942.765137 109.938271
221.303513 -842.467896 -21.088663
303.677063 -799.014465 -80.335342
551.680542 -913.547791 70.679016
550.871399 -955.730835 166.230316
267.901642 -951.897522 127.861046
428.121399 -920.294739 80.088821
438.614655 -825.752502 -52.773331
127.888695 -899.500244 69.103668
431.268677 -970.416687 130.548477
444.145111 -1008.118958 192.059753
518.800293 -953.831909 124.983482
137.886658 -790.603333 -129.516968
595.013672 -809.748718 -47.932709
337.892151 -810.570435 -43.337387
148.893219 -983.239563 126.796883
278.651184 -965.923767 199.131668
552.731506 -871.971802 12.590384
202.474579 -783.853088 -115.845123
119.310570 -861.052063 -11.592986
339.087677 -925.505249 89.488037
140.027222 -809.447510 -102.086739
243.638153 -816.348816 -82.401978
558.523010 -933.901550 113.537071
148.412720 -847.136475 -13.663739
456.503845 -896.542358 43.918163
328.204559 -902.637939 63.061108
501.103149 -939.623169 118.197296
504.911346 -802.019714 -93.819946
302.059906 -875.892944 31.017351
181.681229 -903.304199 51.873558
241.496399 -828.049683 -51.618946
297.207001 -861.383606 19.871929
391.577545 -973.519104 189.833633
363.636902 -905.704529 60.134056
180.686630 -876.353821 8.092045
543.345886 -806.063843 -76.865829
183.908661 -777.566284 -136.105972
517.910645 -847.960815 -11.239899
357.259155 -810.835571 -69.705498
126.646187 -778.180664 -109.780647
559.690918 -798.051636 -72.995918
272.741791 -798.792175 -108.635757
446.614136 -840.233032 -24.953747
445.074615 -1002.294006 169.675217
516.530945 -933.840515 111.307648
402.786804 -882.833984 39.414619
115.801384 -884.556580 25.046509
220.728867 -995.456055 140.047897
198.947525 -855.472107 13.271925
345.839539 -824.093323 -35.574142
527.408447 -839.181458 -41.599110
364.079010 -904.446350 72.341393
150.680298 -809.799561 -31.848410
412.201355 -979.372131 155.397705
168.267899 -890.420044 21.452066
319.757538 -901.658752 40.429211
238.624496 -948.128906 198.079987
366.285767 -947.250488 126.685486
277.109100 -964.775269 189.052338
425.923889 -937.204285 116.787186
144.835007 -894.227478 31.415630
619.884216 -833.416260 -51.071892
403.358459 -864.619751 11.353667
308.377899 -943.153015 111.645218
334.916901 -794.018799 -117.799492
294.457214 -795.589478 -85.955879
198.605637 -784.468384 -90.250610
371.664001 -952.014404 226.460022
528.078491 -943.810181 108.404007
591.811157 -956.219116 162.637451
450.414490 -898.942932 46.620434
426.117493 -1014.246887 168.724060
554.096863 -802.823792 -71.538231
434.049805 -819.538757 -53.941730
471.172211 -811.276001 -73.963867
396.291748 -973.098083 154.144409
259.953491 -758.716431 -103.193924
178.280212 -934.367188 97.180473
174.776642 -802.994446 -82.955147
557.026123 -914.923035 84.482834
520.599182 -990.667664 155.439270
282.054810 -954.526855 181.167084
243.275970 -919.084900 77.007668
589.013306 -817.339783 -76.098099
435.846039 -869.365601 -4.530582
344.113800 -895.836121 31.818708
186.774673 -1002.440308 140.080307
242.426193 -791.721863 -98.239471
500.954712 -841.199402 -11.447485
459.971588 -913.954773 71.324265
471.854401 -875.041687 61.915546
529.942871 -813.636292 -54.315250
370.747711 -860.735718 6.154569
528.935669 -889.475037 34.324177
584.778625 -1019.070740 164.559631
181.962234 -902.474304 95.559563
508.947784 -886.302185 36.829079
586.130310 -831.313843 -33.320805
303.163208 -969.920410 184.133957
310.642761 -800.015442 -84.219559
325.875458 -945.003235 136.679581
480.027496 -1004.950439 185.831406
176.874313 -775.843018 -95.649864
143.036484 -851.475159 -13.949594
539.352478 -922.788269 76.742050
203.604294 -795.896851 -122.089714
381.349091 -884.336304 41.568523
389.750702 -816.463501 -55.208370
458.668213 -887.881165 23.435921
541.614441 -955.342224 131.525085
293.013763 -785.319580 -108.106331
592.354980 -845.863281 -14.390532
470.433258 -859.938660 -13.095335
166.990112 -885.858032 48.417812
172.088623 -874.115845 27.446875
181.200333 -873.392273 28.645859
368.858673 -847.605286 -9.493614
328.766571 -877.577698 25.857027
576.460144 -884.481934 39.160824
289.541870 -918.267517 228.639999
536.372314 -796.064026 -90.321365
198.446716 -915.797363 93.409744
553.933472 -886.287048 70.696243
511.693817 -989.917908 169.019531
200.324722 -905.350769 97.877319
284.143768 -813.743530 -69.042305
394.399628 -971.484802 211.307861
424.812286 -875.367126 26.738943
492.580872 -898.672607 46.925014
396.678162 -816.438904 -70.638626
502.476196 -929.737549 86.041779
146.227234 -825.886414 -75.353012
143.347824 -781.279968 -107.400482
302.839630 -856.542175 -27.831821
540.359009 -918.396240 83.095932
225.005310 -957.600769 170.370224
365.271149 -946.827209 205.803604
552.694275 -844.940125 -34.412682
516.813782 -950.903320 133.845245
408.478790 -987.053711 186.442276
411.453979 -943.659607 117.046959
401.226959 -922.631531 100.070274
538.279175 -852.128113 -4.243392
122.421806 -909.968018 64.743523
171.155121 -799.617737 -59.756344
407.930817 -784.361694 -86.189339
211.887772 -947.139221 103.490669
593.212036 -887.320129 32.981728
292.901459 -948.297546 110.036873
220.033920 -901.693787 93.794350
219.579163 -912.814392 88.028000
124.202957 -775.544373 -135.333435
337.021942 -944.900208 202.061111
146.314697 -876.535889 2.828137
307.128418 -864.012329 11.647017
607.113281 -870.464539 18.181011
393.374664 -898.163269 44.616325
446.230011 -915.170837 81.783318
516.138977 -1012.528503 178.292923
370.295074 -910.794373 87.916199
255.840271 -925.836670 100.148918
462.012543 -888.349426 44.477173
506.204041 -810.004272 -39.885696
180.348846 -831.159241 -18.032389
509.579407 -799.785400 -71.502777
494.629089 -816.629700 -62.993530
456.810455 -1018.135376 164.163361
320.097473 -932.193848 120.470245
118.033966 -898.992371 69.556137
361.051422 -817.998779 -60.753403
442.658875 -799.990356 -102.143539
404.390930 -935.626160 94.253159
328.692352 -823.064087 -56.443405
534.831726 -790.706909 -71.078468
512.267334 -896.659302 44.027431
265.558990 -844.215759 -16.557842
312.102386 -953.963257 150.566437
442.496155 -871.275330 1.272865
244.123383 -859.518921 3.475551
298.226288 -780.711304 -106.395882
263.399048 -898.182007 34.466190
344.299835 -806.734680 -106.523865
478.096008 -958.200256 156.254395
396.212738 -947.884644 225.532379
216.521378 -978.888977 152.965988
165.280350 -831.233215 -58.107658
222.088593 -776.235901 -135.175095
398.209930 -893.306396 46.689445
381.613861 -852.650818 -11.518890
180.253418 -814.734192 -40.029243
556.871643 -994.470947 163.174362
409.218384 -859.032349 -7.050830
144.081146 -885.962036 30.383402
560.193726 -881.305847 42.565498
522.958862 -820.023926 -44.092003
246.155167 -911.898926 63.612068
306.983490 -876.097534 30.590746
434.865997 -844.882996 -18.717365
545.244507 -949.696655 140.060211
522.144348 -841.802917 -20.182440
334.964478 -932.437439 231.745926
532.669800 -852.583191 -18.131298
224.803574 -894.284912 59.832424
105.996056 -917.235779 65.095924
492.826935 -943.725830 118.070511
205.417114 -830.904846 -61.392864
334.515320 -863.489014 10.370040
516.686584 -922.812622 90.569946
392.922546 -982.373779 183.397797
374.205688 -927.350098 80.021751
455.513885 -910.428955 77.903496
517.581360 -863.522644 -6.802187
394.059113 -908.017212 62.585835
274.726349 -898.312195 59.837669
589.765381 -861.017151 6.420813
449.904938 -882.148376 22.961500
147.828857 -831.539978 -64.978149
380.303467 -932.998535 88.779472
602.911926 -893.473389 41.798443
341.983032 -958.200012 209.598251
471.689240 -869.831238 5.118137
107.251701 -919.786255 109.736954
475.278687 -817.884338 -55.740459
474.341522 -840.119507 -44.005863
363.555542 -825.074463 -21.366215
429.668823 -1017.006165 171.616119
317.119141 -943.443359 123.491295
168.551620 -898.928406 66.603004
256.414398 -886.039917 24.598417
256.289398 -884.119690 54.315102
370.950592 -846.228455 -16.327999
350.770660 -904.659607 52.711636
241.241516 -899.896118 68.116211
209.003540 -824.723450 -47.608688
424.949982 -831.604736 -46.099499
573.621216 -846.285095 -12.107527
571.197510 -906.505493 91.367928
375.306061 -884.691040 30.261982
440.315826 -900.509949 62.147209
226.840927 -951.547729 183.183197
498.043518 -962.715393 151.243759
315.145752 -961.659485 206.397598
203.797882 -915.836670 93.738533
169.293777 -879.530518 56.447613
596.072876 -913.176941 71.971550
235.772873 -858.458130 27.296583
414.082001 -891.745789 51.057735
129.488632 -858.276245 -19.489042
354.645416 -860.392700 33.687801
605.077698 -813.110046 -85.684349
547.711548 -967.380249 144.609177
378.359009 -936.095154 229.584641
491.446381 -1039.131592 165.949554
391.779144 -916.033936 87.432487
160.475510 -805.430359 -93.355865
322.012878 -908.735840 73.082916
340.258362 -977.557800 160.628311
415.704376 -861.689758 10.831581
155.905869 -899.632935 62.867485
440.594055 -794.028320 -106.144127
165.914001 -807.843445 -67.444252
362.122223 -874.913269 1.164542
251.770020 -950.255310 142.458374
335.812866 -836.002197 -53.572765
301.616089 -853.842773 -29.230722
591.557007 -839.098511 -23.798666
360.072327 -854.570984 -8.225574
228.324677 -835.280151 -53.950500
571.125122 -883.141052 70.087349
410.597900 -836.233582 -24.472029
547.547546 -830.114441 -43.093472
284.432831 -963.549500 193.140671
345.337524 -818.580261 -71.484184
366.290894 -988.751343 164.460449
273.008301 -784.615051 -115.335449
133.768158 -842.213379 -17.580111
389.021210 -855.295471 -24.180101
411.570190 -808.091003 -34.043617
214.821381 -848.306213 -12.333803
368.491913 -916.999207 87.886337
249.734619 -862.104797 9.717311
440.506927 -880.351929 26.984636
337.943237 -867.334167 43.774368
478.859741 -795.050110 -53.235569
131.011597 -892.225647 77.289078
140.222031 -809.676331 -75.697327
566.025940 -883.960510 30.389177
278.417633 -798.983337 -84.274757
310.411987 -943.250854 215.369263
157.889603 -831.168518 -38.509151
588.027527 -826.280457 -24.595263
445.417358 -810.502075 -29.627401
559.065308 -832.758362 -15.468104
179.964371 -805.219299 -53.034363
415.108765 -778.789734 -72.709854
540.915222 -878.201782 20.034809
351.115692 -890.193848 43.124622
522.548645 -872.410583 7.056015
307.147766 -852.049805 -15.094730
414.140289 -879.077637 32.671211
549.830750 -951.534973 133.320267
226.893143 -971.300598 151.985336
359.370575 -800.398987 -93.009361
153.626266 -893.050049 63.080719
585.572205 -826.524536 -20.121033
402.633667 -986.944031 160.235870
485.504700 -816.668213 -66.747704
193.595718 -896.674561 70.189651
397.677795 -899.082703 62.741554
438.531616 -919.812134 89.239716
261.781189 -910.131226 80.116081
458.635315 -1014.384338 173.755890
121.969498 -804.092102 -69.723404
228.029831 -856.456604 28.572821
277.108643 -925.637939 108.283920
334.850647 -852.875732 4.855952
373.853424 -848.203247 -22.201368
427.483093 -973.757324 210.287735
344.111115 -803.042603 -62.777348
443.944794 -990.062805 161.531845
519.301941 -1005.335754 172.708389
157.174408 -873.390381 -0.211061
370.940063 -969.211121 184.977600
176.637085 -840.664795 -7.871273
231.342957 -914.910706 108.712517
532.679810 -888.484680 38.786301
269.756744 -808.516479 -35.476238
274.589935 -966.659363 182.817978
491.611023 -958.499573 130.823318
340.089233 -824.802307 -71.575882
416.830353 -980.598511 179.768372
433.858246 -933.858521 96.969505
131.869064 -871.015259 -0.299570
211.750717 -813.243530 -63.512161
328.063995 -936.542664 122.369560
200.992020 -980.537964 127.856842
244.998352 -991.264099 144.932739
223.534363 -812.851746 -70.396088
405.618530 -789.164246 -79.789642
313.582550 -833.379639 -41.240116
574.654724 -903.131104 94.817863
494.397705 -832.658813 -32.988491
489.712860 -886.238708 45.952950
466.308929 -917.249084 68.394257
586.920532 -976.928650 154.178604
210.632156 -916.667725 97.256882
550.404175 -820.988098 -42.183765
571.759399 -841.741455 -37.627697
180.832626 -786.890076 -84.267693
199.628098 -1010.246399 135.291183
549.688782 -950.498596 132.927094
315.721191 -842.587036 -47.248283
126.933220 -836.554138 -59.119205
258.821259 -949.543701 201.818420
518.942688 -815.847839 -61.131039
459.118896 -922.074219 94.951218
356.992584 -975.166748 204.415421
191.500061 -864.989014 28.591904
264.312195 -950.044189 201.532074
352.581543 -835.038513 -39.237286
338.420441 -969.041260 187.370911
310.963531 -844.036926 -13.758576
317.971954 -973.644775 179.179382
477.456726 -891.434082 34.660206
577.622009 -875.198425 13.881623
319.772095 -856.750977 -8.350343
162.622177 -875.660889 26.682400
233.155701 -867.925903 46.056728
174.238419 -781.906921 -126.110901
199.689468 -936.516724 103.140823
319.305267 -833.079163 -38.229515
585.085938 -863.390198 -4.056574
412.644287 -857.265076 -20.129732
364.387634 -897.736755 62.777473
98.500771 -881.997009 15.731174
307.171021 -858.158997 -6.160845
169.901443 -790.983032 -100.161041
153.123566 -924.219910 106.133667
586.142151 -802.729431 -72.859169
435.977631 -972.260620 144.614517
498.342651 -894.138000 43.443562
379.408691 -972.063965 197.764542
329.114380 -895.985413 53.372604
278.993164 -962.986694 183.995773
216.965851 -847.103271 -22.094263
528.537781 -850.082886 -30.118477
494.544922 -829.462036 -56.978935
441.062073 -883.424927 22.561422
291.153320 -819.429749 -76.309547
544.759949 -942.455139 112.101341
417.908295 -994.505127 187.898224
386.516724 -941.859680 102.531525
321.419098 -826.387695 -72.903305
319.411316 -825.323059 -43.911129
557.144165 -900.547119 46.532448
209.085281 -773.823181 -121.270256
562.985291 -809.288452 -85.980728
355.462097 -828.797302 -40.845127
600.751709 -982.346313 150.361725
159.826797 -807.871643 -67.081932
167.862991 -821.762207 -34.605518
572.260803 -811.980774 -83.393394
590.387085 -943.564148 151.835419
298.844269 -943.380432 208.081635
340.665192 -839.732727 -13.605787
505.238892 -876.371155 15.334861
223.676727 -794.486328 -133.668808
367.855804 -937.644836 108.521980
340.481659 -950.750427 140.255707
279.920898 -834.250122 -61.546898
563.104553 -803.097900 -58.689632
328.061432 -967.875793 128.891754
387.959076 -805.780212 -87.497551
527.814758 -934.028931 108.580193
376.360840 -969.849426 184.695892
558.345276 -894.082947 48.781223
483.895355 -857.244751 -6.646436
241.850525 -978.637817 167.729568
449.724548 -794.255493 -99.521751
237.609604 -860.287781 7.738647
146.018784 -809.309509 -94.747917
458.445984 -794.713989 -99.497124
405.184723 -973.833008 216.436417
241.688736 -779.051331 -123.358627
329.270844 -833.760376 -37.713039
429.411743 -812.753296 -57.799965
349.747345 -945.544006 112.739243
557.388367 -871.581604 4.793198
369.003845 -938.972229 221.636780
192.792252 -775.235901 -125.394257
254.904938 -790.377808 -86.477806
387.427887 -857.297302 -21.195900
237.451691 -872.816223 20.142944
553.030945 -840.332703 -11.296349
391.559998 -933.323669 98.232559
395.961182 -921.243225 90.517387
538.659058 -806.518250 -84.592529
211.917526 -783.898071 -114.714989
475.290344 -922.032959 125.009140
168.992599 -867.461731 -7.786886
330.487946 -884.939941 45.342754
294.258972 -920.091980 99.006866
511.212860 -867.747131 1.925053
266.339142 -912.208923 88.852875
279.555725 -954.432495 122.887276
209.535934 -848.695190 -34.153542
201.988190 -836.240601 -15.065211
393.977356 -971.506836 211.468231
313.950928 -889.461243 44.170826
273.116119 -864.999634 26.667259
78.143509 -987.557983 105.127014
185.968704 -841.531921 -23.238394
449.276855 -993.181091 173.384705
592.407654 -861.568787 7.178780
240.371307 -915.052185 70.572052
458.388519 -839.803955 -21.580845
180.049515 -821.442261 -31.318113
114.081558 -858.884460 -17.323755
313.907684 -963.727295 214.046326
584.549316 -938.424194 145.518036
231.473602 -996.943298 161.864746
337.376038 -967.712708 132.761581
516.329590 -902.164551 81.789299
232.936539 -946.852417 105.208008
213.457031 -855.947937 -10.618047
540.752319 -885.568481 51.511982
387.035828 -812.937561 -74.415291
290.044434 -908.140930 73.996925
216.492111 -819.659485 -34.742352
376.860809 -888.445251 75.117661
318.358643 -944.021240 117.254227
590.651001 -874.401184 19.598616
435.518768 -856.073303 -2.562748
297.415131 -947.340637 215.112793
310.790497 -987.456848 146.469223
249.044968 -809.169434 -72.788773
522.771851 -852.186523 24.130478
439.391724 -812.143433 -73.434341
264.856873 -782.989868 -111.398949
140.981934 -832.071960 -18.122210
381.646729 -824.030334 -22.405052
138.009567 -803.174194 -84.306847
210.816986 -833.391602 -34.086723
553.442566 -801.584961 -73.201759
313.509003 -892.562561 48.998592
324.580200 -798.379211 -60.010242
561.127625 -833.635620 -43.781158
175.219833 -796.579712 -121.411217
221.942413 -805.194031 -79.722748
203.525467 -867.914856 18.777451
385.873199 -848.727417 -13.139422
149.137863 -791.905090 -88.272423
256.309174 -840.559204 -45.887291
357.860443 -931.711975 97.942101
392.185181 -860.018982 -16.421600
407.639343 -823.991943 -69.825401
219.630295 -828.617188 -43.911758
241.580414 -873.966125 7.389410
198.763214 -828.576721 -22.134729
136.811432 -902.566406 63.964817
431.162689 -1017.150208 168.957428
405.010895 -842.859619 -14.875939
396.759888 -932.931763 117.452896
300.821594 -785.985901 -111.507210
277.422791 -797.920898 -50.851620
201.951843 -803.438721 -45.069130
328.975342 -957.766235 207.862686
213.443756 -968.180420 125.511353
518.151978 -812.916199 -54.845203
168.482162 -899.201538 59.226303
389.611481 -976.981934 194.827148
544.349609 -819.598328 -42.296265
468.611145 -1042.510620 173.233292
225.380936 -860.985291 -13.590149
386.721008 -801.907043 -101.377510
447.204865 -1006.984680 152.174545
224.025787 -856.845886 -27.967548
532.492371 -819.354004 -26.076944
212.085281 -953.044739 117.276497
154.786209 -961.086365 116.418266
271.593201 -964.926636 154.760468
328.494415 -961.803528 208.728577
484.856018 -820.460693 -59.602379
334.121613 -843.437866 -24.086126
312.786041 -854.325623 -24.964617
286.064850 -788.487061 -99.794044
219.349167 -988.239807 129.384445
231.489197 -794.200562 -93.714256
497.243958 -906.617249 63.109924
412.190643 -818.216675 -65.727188
314.187195 -969.406738 194.393631
307.937469 -970.000610 166.031281
375.703735 -810.212158 -86.803345
320.377686 -843.026489 -42.055637
490.921814 -898.501953 53.830273
404.173981 -841.202148 -47.521519
241.040009 -962.633423 160.993286
263.759644 -980.917786 149.095093
606.077576 -805.633972 -71.910759
466.795898 -927.072754 82.435989
564.270325 -805.105286 -75.660660
548.792236 -854.544312 30.462734
315.695648 -824.991943 -51.906288
573.893677 -976.297424 152.890381
203.713806 -898.733643 67.875435
290.375488 -924.650879 121.042137
280.859680 -944.927002 107.380295
455.307373 -918.738037 70.391815
319.877228 -867.653381 -2.364501
481.533875 -795.333801 -84.797478
508.776367 -875.928223 12.400547
438.420013 -859.970520 35.099728
307.185394 -963.008179 169.202637
464.653748 -861.863464 38.013020
320.739838 -982.068970 143.681244
608.559509 -830.336914 -51.226734
356.956421 -968.851929 132.089615
173.125122 -843.803040 -8.009108
289.185272 -795.844971 -113.096588
315.364899 -822.265808 -48.939388
160.017731 -879.170288 9.704599
288.781769 -816.635132 -64.741226
457.190918 -869.350830 -0.153263
392.649048 -943.300476 110.893951
373.930817 -982.094299 170.581604
362.132874 -814.904785 -71.587486
565.835266 -814.319153 -79.451721
600.740112 -800.111023 -64.951836
341.537292 -803.203186 -86.375992
563.760010 -910.320557 64.952744
230.575180 -920.972778 73.178757
422.526031 -798.130493 -82.167892
182.238419 -936.036865 103.660278
293.339172 -974.247253 170.513489
221.391495 -857.672119 -27.265148
176.615097 -918.609558 76.151390
503.565613 -977.226013 157.618790
156.550995 -903.665100 67.276695
262.745300 -960.361938 125.455223
401.241241 -961.930847 215.806091
554.224182 -802.080444 -83.130898
525.087219 -826.975403 -39.389778
350.425293 -868.580994 -4.342050
252.512878 -922.631348 109.121559
360.987152 -792.082886 -93.471802
394.011322 -950.858643 119.769081
569.817627 -940.692993 125.982574
315.630310 -777.944458 -90.042877
475.033936 -806.106445 -71.691269
560.090088 -807.033142 -63.283421
251.412918 -855.751831 -7.342694
510.257935 -927.543274 97.283615
104.989616 -912.091064 67.827255
570.926941 -877.647095 21.291779
288.234833 -784.868408 -108.303947
603.090515 -855.939453 5.510182
492.535156 -912.634460 79.996048
445.970551 -808.838989 -85.010262
529.144531 -873.716736 39.822723
166.256378 -915.403992 112.982384
220.430283 -888.832642 44.169834
155.000885 -790.451843 -68.728088
560.365479 -833.115112 -51.237198
509.562408 -832.124634 -39.177563
471.393341 -859.766418 32.251369
292.319336 -967.115906 167.185272
215.321564 -994.549744 154.990479
478.578827 -838.676147 -48.678173
384.266357 -886.159851 25.128664
260.541534 -961.215393 195.585007
299.355225 -810.887939 -99.911797
539.296936 -860.854248 10.255542
317.905914 -969.771118 179.291992
84.564262 -897.691772 39.335442
237.683914 -942.617065 196.862183
306.615753 -929.267456 90.272804
567.883484 -898.106018 60.820122
610.515442 -822.296204 -77.027260
567.989197 -830.659119 -46.562500
336.547607 -803.113953 -86.352325
370.823547 -913.962830 92.326523
483.621765 -866.511230 7.131493
159.092590 -866.325806 -16.921682
137.705688 -871.178406 -0.596006
262.013824 -959.186035 199.338562
557.013733 -933.177734 122.956490
347.752533 -854.719910 -5.816624
525.933411 -864.258484 20.456823
300.351501 -855.846802 -0.246728
399.328949 -828.133240 -63.742737
467.589813 -900.727722 61.985710
569.641724 -851.959595 -3.543581
588.556030 -854.501160 -17.001339
588.298035 -902.420105 52.125263
553.201477 -878.759033 35.872807
223.666794 -853.914734 -2.440006
462.600555 -847.300049 -15.170897
591.056519 -945.374939 120.510857
430.930084 -958.442444 128.425461
195.788712 -886.835999 17.769838
455.913116 -844.500610 12.230883
390.655457 -963.213013 170.317383
537.685730 -914.430115 117.813866
453.782410 -1013.368958 179.805450
371.740234 -847.081665 -16.650553
235.033920 -975.330688 142.751358
141.098679 -821.369690 -52.645363
362.118896 -940.488403 113.504326
466.184906 -836.663940 -21.520885
435.737335 -820.957458 -63.072788
265.111298 -827.250000 -45.655746
439.848114 -806.974182 -77.535408
538.852417 -862.311096 48.220104
560.471924 -889.298279 68.816895
416.348999 -950.039856 217.442413
227.278915 -827.052185 -53.676552
162.022141 -893.725220 26.028603
190.650940 -783.158752 -109.121735
584.175964 -839.649658 3.739531
358.082001 -947.181824 203.621323
235.158783 -795.847046 -117.531593
503.587463 -1007.604675 168.358047
494.166504 -851.542053 -15.136355
341.221039 -822.180664 -50.235058
615.724426 -840.202942 -42.940727
591.216064 -808.370056 -80.846840
420.153351 -814.001343 -24.721334
145.251343 -877.729614 1.465605
351.436249 -842.669434 2.623379
493.185364 -893.651123 55.335106
386.119812 -824.274475 -74.406906
485.811066 -953.983582 137.418137
291.080963 -884.268677 49.269573
241.127029 -869.392212 -0.882032
288.424286 -910.257751 72.516441
558.592651 -869.857727 54.711361
296.431152 -922.815735 87.440094
171.767822 -859.846252 5.782654
155.164246 -828.763977 -5.620543
222.191681 -778.939575 -130.894989
195.295181 -882.115967 38.989239
304.087646 -938.284668 206.348145
168.291122 -797.652344 -81.280426
607.853455 -832.539917 7.962754
485.309967 -802.738525 -98.551331
298.838013 -956.544189 186.811798
493.403351 -939.558289 102.422264
155.493042 -873.051575 39.164211
559.060181 -896.785706 46.601109
133.724442 -875.444397 9.280838
346.927612 -873.834290 51.062687
375.873779 -824.508484 -57.884624
390.324066 -954.294006 120.352425
199.271408 -821.594238 -50.563663
463.006226 -868.042236 10.707285
443.891846 -841.517090 -45.842159
573.003967 -829.443787 -47.404015
397.424622 -807.787109 -82.379211
107.645645 -878.845825 32.733223
500.351318 -911.097900 59.715569
372.539124 -984.533447 163.619507
295.530579 -794.240234 -64.844635
542.954346 -913.338745 62.572865
555.955383 -950.742554 143.049881
130.310883 -917.641968 99.855446
367.457367 -998.059509 165.741913
540.875732 -825.769470 -64.148422
243.734390 -962.498169 178.619400
474.942505 -888.979248 25.358370
516.210938 -840.773560 6.697002
555.795410 -953.012573 135.893967
251.363800 -936.755127 121.118057
485.354126 -839.471313 -28.414787
549.100952 -941.142761 124.719162
519.057495 -848.479248 -28.072701
252.944260 -816.935547 -82.542725
285.367706 -930.071838 223.814178
237.232376 -795.815369 -90.272766
485.624695 -887.745239 31.557224
436.542145 -927.641907 104.855972
382.224335 -903.407898 68.597328
399.383728 -849.544373 -5.099974
351.534821 -842.431213 -26.788519
376.401001 -860.615417 10.128819
505.646820 -873.173035 24.009203
501.014893 -925.570251 113.968994
333.571228 -963.521179 207.292130
399.521729 -882.038086 34.960663
223.371048 -859.610718 -23.371649
533.326172 -873.234131 28.376081
439.929810 -818.501892 -63.236416
270.693604 -902.298096 47.197563
427.170532 -793.401367 -66.499069
579.747253 -905.380859 68.327713
138.678864 -896.085205 92.550621
321.848969 -915.453308 90.393974
496.914032 -787.850769 -84.356865
453.489716 -939.752136 119.150993
266.396027 -876.543518 10.784039
514.686768 -936.293335 96.692436
603.839417 -832.707458 -34.532932
460.752350 -939.956970 106.766579
245.287750 -937.769897 109.118729
385.861389 -918.118774 95.914375
502.772705 -819.698425 -42.290592
278.238800 -916.740662 111.268425
394.612335 -783.515320 -91.875046
270.046448 -811.520630 -73.465019
289.162964 -859.682983 6.009095
441.097076 -798.371338 -77.233322
599.942444 -975.763855 144.898788
542.998474 -937.376831 115.984886
437.080383 -850.449707 -18.301384
300.209991 -862.946350 11.889887
556.793030 -805.537109 -87.561310
153.562576 -935.636169 113.819359
507.551605 -887.174011 37.814785
617.097351 -812.157104 -70.264038
459.918060 -857.399231 0.646080
527.576416 -1024.798584 163.591904
252.041046 -807.203186 -80.216667
243.755020 -760.223145 -91.114815
444.964264 -838.913086 -28.404013
356.564331 -809.648621 -44.067295
416.813904 -866.456299 -6.858831
409.564636 -844.793884 -12.237625
320.944824 -829.328369 -68.621254
398.976654 -977.293213 146.766983
172.334183 -778.308044 -124.029198
476.847168 -941.970581 114.186188
272.585449 -858.627625 -19.913330
285.740417 -896.300903 85.010727
466.744629 -821.127014 -23.648193
223.627991 -866.634644 -4.519432
429.687195 -821.526978 -51.900051
554.102295 -842.561890 -7.799410
203.428635 -873.971375 6.509975
581.039734 -888.973267 80.781075
460.766357 -880.326416 21.264515
418.506378 -792.490723 -102.430038
182.616196 -937.795044 117.948334
584.984863 -915.592834 75.441872
352.278992 -969.192749 174.771652
390.785156 -935.410217 121.734520
308.633057 -873.778198 23.461452
403.747711 -951.547302 224.280075
571.368408 -845.117371 -24.139503
456.005463 -929.175476 92.994041
609.905334 -806.405334 -49.912045
340.413696 -872.858093 51.980549
361.173248 -899.716553 62.105652
87.266563 -920.839172 70.050880
450.867706 -1002.558899 184.437073
351.316406 -816.975403 -62.037766
460.264374 -822.244141 -50.456879
459.691406 -798.680420 -91.525536
302.779449 -962.078186 180.191071
398.206909 -975.837769 192.571014
234.832642 -906.352661 76.024155
139.910034 -913.476440 89.966049
452.958466 -860.169678 13.095792
294.614075 -784.365051 -121.460335
192.773407 -779.179688 -118.192345
340.779877 -807.778748 -69.001518
286.821808 -851.109131 -34.420895
410.597168 -968.906677 145.423645
198.496857 -778.695740 -124.782455
252.787384 -892.677063 48.014137
472.015320 -847.992859 -35.505280
519.486267 -1030.422852 168.625687
503.459167 -939.590881 112.349464
89.258850 -912.744995 61.729824
572.884155 -938.361328 108.783028
467.946198 -854.803223 -22.387375
402.099274 -863.592285 36.799835
278.322815 -978.506958 166.262604
418.628998 -846.406433 -37.930992
569.456909 -907.817261 64.670097
119.168510 -807.770996 -60.546432
369.018005 -897.492798 66.585335
514.133667 -807.746338 -93.433670
283.088684 -947.639038 206.007767
566.370972 -870.105347 36.270409
486.224335 -954.263000 141.449188
270.829803 -841.860718 -44.015350
492.659149 -854.838501 -1.379542
519.180298 -905.473206 66.543465
472.792419 -941.347046 122.609344
460.827454 -822.078430 -61.223846
499.720551 -877.804321 37.154839
289.840790 -831.568237 -29.081720
299.850464 -876.436646 41.709190
407.989410 -982.637939 145.206390
393.494629 -887.184204 37.320217
331.150330 -939.783936 217.932922
296.327820 -878.367065 34.857285
594.503479 -799.282227 -67.490395
149.818115 -889.082520 61.310207
147.066483 -781.734375 -127.120506
528.852844 -886.921082 29.669943
360.307892 -812.481262 -73.966072
177.772675 -870.290710 -1.761673
464.499481 -1000.250610 163.416702
439.831299 -839.220215 -27.873674
581.049866 -836.373596 -42.032291
401.477356 -810.484924 -84.129654
569.461853 -937.608765 121.282188
528.631958 -901.316040 57.269646
262.686249 -778.302734 -85.243126
111.440971 -828.529846 -30.125935
214.781036 -896.095581 61.810440
533.261719 -807.054321 -86.223465
393.896820 -995.508667 167.536682
234.995972 -882.739502 34.946354
514.339661 -895.235596 45.712654
528.272644 -931.218933 123.706192
160.577286 -906.069641 53.565422
282.438232 -896.399475 31.541695
425.013489 -925.207825 88.029320
533.096985 -955.126221 137.252594
158.108871 -791.515015 -126.130333
262.426727 -954.053772 136.964371
388.615021 -970.544128 191.529648
406.187225 -985.808350 200.277863
424.777740 -872.335205 22.223429
377.070038 -859.349548 28.831324
225.612976 -832.656372 -41.752350
278.985321 -904.063110 75.995811
224.211105 -810.041626 -74.689156
583.862488 -812.370117 -41.142944
539.338440 -851.752258 -23.918720
595.345703 -809.443176 -77.924965
518.653259 -901.837402 58.780315
346.221710 -792.743469 -91.148697
338.529419 -897.713318 38.654957
294.446625 -868.769714 9.741872
215.710342 -1002.713074 139.995026
178.541718 -832.876221 -64.589935
510.219574 -879.562927 20.840054
469.703888 -801.576416 -79.479630
255.375717 -856.703003 -1.402174
451.609375 -934.518799 100.509613
284.325958 -979.292297 137.011017
389.874084 -909.465698 62.391994
393.117920 -923.243408 83.043594
509.710785 -806.780823 -85.584229
403.873535 -959.447021 218.095917
302.935150 -809.206177 -91.763657
443.644135 -850.306274 -30.105328
404.290436 -834.807190 -32.996670
560.961731 -899.978577 54.881905
491.958252 -812.609131 -72.395317
557.947876 -809.900024 -80.104767
419.821167 -887.636169 29.918518
307.020264 -835.817383 -52.632881
290.303192 -906.428528 66.589066
467.115814 -785.832275 -87.273415
525.417175 -859.232300 -13.247129
311.040131 -976.427795 171.301132
408.240692 -813.739807 -81.848389
173.488678 -849.933167 -10.181886
248.156998 -935.490906 130.397690
430.186188 -905.415833 99.013931
293.684204 -929.599365 118.128899
378.558258 -939.831787 105.742195
611.681580 -821.568237 -46.219067
455.992004 -808.862854 -78.647667
352.014496 -913.250122 66.842934
372.816101 -879.319641 37.904297
437.868347 -1009.828430 178.300110
367.999542 -945.617310 215.243805
504.854645 -820.223938 -24.242149
349.029449 -883.448059 38.548779
420.511078 -879.591370 63.158627
579.412476 -992.168396 152.694641
588.944580 -808.096680 -58.801884
154.198044 -781.791504 -128.175552
531.732788 -829.076233 -51.209988
343.856232 -916.624573 72.241486
447.645752 -903.185242 96.252426
333.890656 -971.735779 182.697266
514.229553 -824.462646 -61.227211
309.816895 -904.759338 49.941448
337.691742 -856.580017 -4.805390
452.735138 -961.357483 124.803970
166.423187 -949.718628 117.014069
451.354034 -901.873718 47.248402
319.713043 -886.949951 48.400333
559.199890 -935.328369 104.312096
418.694672 -995.745667 171.282410
183.872284 -897.206909 31.112385
174.542358 -899.873596 56.495113
437.275330 -847.309753 -22.682987
330.442474 -795.146301 -98.455742
310.817627 -840.000549 -29.727148
301.891510 -904.014465 65.761467
448.514618 -805.024353 -49.620438
502.760437 -890.341858 43.010185
406.952820 -788.048157 -103.281570
450.585663 -832.528564 -47.879704
426.016113 -966.130005 127.752304
584.663513 -872.749329 10.034249
349.857758 -866.783875 13.952755
412.582367 -993.234924 161.039368
247.532928 -869.241455 17.375748
195.140686 -865.392151 14.560102
220.667099 -880.678162 28.304359
221.802078 -840.842651 -45.981552
311.491608 -857.645508 4.434098
320.408051 -796.407776 -93.223236
323.340454 -899.054077 58.387436
295.797821 -805.443054 -81.982704
403.545074 -824.987000 -66.547134
242.235229 -962.501465 180.410477
259.845520 -981.286743 164.910812
399.601959 -872.809937 53.521027
581.749268 -895.425842 59.854839
344.177948 -843.169373 5.797408
435.886261 -1004.888123 182.783432
428.040039 -938.349304 99.628342
132.509232 -893.539856 67.845238
203.910751 -812.771301 -32.601456
292.939484 -789.387390 -94.603157
312.175751 -813.926331 -79.161072
366.495972 -793.663452 -99.300278
298.820862 -867.127136 -6.916734
485.983948 -889.482239 39.855186
358.425140 -970.117249 174.125473
261.910706 -837.238098 -54.486691
337.060059 -897.602478 71.673569
296.407867 -971.774780 180.299606
233.690689 -887.876892 40.074997
567.013916 -843.710083 -0.808392
211.325424 -884.295959 44.339897
378.728546 -852.684570 0.795565
366.825867 -980.194275 174.766861
549.168518 -817.103394 -36.675808
477.641968 -1006.430115 187.591385
354.847900 -966.101013 150.084244
573.308655 -958.255859 133.626801
110.324638 -894.794800 72.628403
332.751038 -971.237671 195.364822
369.780731 -958.065796 217.458954
295.701660 -827.412659 -19.478275
419.573792 -884.823181 41.132927
469.204681 -1028.602539 172.765106
339.422302 -806.616272 -106.726448
567.419434 -799.985718 -85.311195
172.881912 -815.861084 -64.445656
247.141800 -964.873169 181.196045
572.644470 -875.317017 13.661895
193.977936 -993.091797 130.019913
398.969635 -924.225220 85.735703
331.967896 -906.573364 48.196560
125.475319 -792.737305 -70.664833
200.675903 -902.197876 92.709114
556.582092 -973.142822 163.080246
237.329056 -885.294006 45.867901
212.946899 -808.468933 -39.378872
176.886719 -996.000244 137.124084
495.901764 -910.484680 72.790833
409.005127 -979.195435 206.860016
157.166794 -838.831116 -22.468975
437.009216 -872.699524 18.631948
226.602173 -841.086243 -45.322021
576.815735 -877.878235 29.182978
233.242096 -947.774719 185.647369
490.951630 -803.701416 -94.821190
344.299225 -896.605408 69.157112
543.488037 -976.952637 165.486664
491.485382 -801.682373 -73.674774
301.810913 -970.047607 192.102707
359.074951 -843.572388 -35.976498
358.326843 -937.584656 103.577034
207.160583 -969.514404 125.646896
449.194580 -832.763733 -5.962855
381.494415 -867.219238 21.187637
525.900635 -887.609558 52.666161
608.937561 -876.582275 47.921577
322.713928 -902.929199 81.272667
366.292114 -831.414185 -40.465382
349.240814 -840.733887 -49.835995
277.507965 -935.285828 101.758583
249.448975 -915.874756 61.571491
127.680695 -911.550476 82.694199
93.940948 -921.648376 82.997391
291.620239 -782.779236 -102.440926
150.824554 -823.626282 -71.284035
346.515137 -958.575562 208.005569
607.739258 -821.320923 -70.945396
359.583466 -862.392029 0.913136
435.425903 -823.784363 -25.044350
545.095154 -947.712952 127.790848
510.152832 -945.403809 127.023987
327.773499 -941.612305 109.294106
326.975281 -890.457886 60.908463
474.430725 -794.629822 -64.340118
564.274048 -820.182983 -62.774204
325.965302 -789.995544 -118.664650
267.555389 -845.440063 -44.274021
257.600952 -987.825439 146.551773
296.868439 -783.008850 -116.153183
512.898926 -818.822571 -15.672879
521.501282 -1014.614868 176.421677
402.040161 -974.020386 207.863052
566.004150 -895.153748 49.523014
586.942566 -857.670654 -7.873942
279.431335 -967.976563 186.513062
286.732574 -844.898438 -8.263045
457.457581 -840.757080 -30.237497
521.650024 -943.880859 119.202744
313.943726 -889.483887 52.302959
550.402222 -806.658203 -91.479034
458.252380 -841.056885 -24.974407
607.743530 -858.790161 -12.543258
482.405731 -869.604187 0.822272
438.782928 -815.738831 -69.065178
515.955933 -828.831970 -52.120441
555.702454 -980.598267 151.942337
208.838196 -904.384705 97.677925
404.117035 -977.851685 211.574158
235.584320 -842.496704 -4.105211
535.312378 -857.648621 -4.757088
187.992767 -852.999084 -6.272181
482.645081 -824.419922 -52.723145
260.664337 -893.670593 32.875202
290.989014 -797.294739 -125.140213
605.985718 -865.928833 4.899055
214.900284 -831.545166 -60.141827
225.353165 -887.783691 64.249474
532.401184 -851.189758 -23.944916
548.418518 -805.210938 -83.843872
525.818176 -821.003174 -57.038933
454.305817 -864.905762 -5.974910
560.638062 -845.536987 -9.687734
401.024872 -978.966248 173.182220
449.882446 -908.251587 61.112869
282.366180 -850.226624 -1.220234
586.809143 -878.851379 32.371315
100.653000 -898.500061 54.265491
292.975800 -953.637512 210.993729
454.934967 -912.477966 61.039639
211.328140 -888.766418 29.332850
179.811493 -869.096436 -13.062775
216.874420 -841.787537 -49.899208
455.686127 -907.236877 72.945175
351.492981 -863.893738 -10.651121
298.668182 -869.077271 21.010153
630.805786 -801.300049 -67.549843
528.925476 -911.816284 77.910667
281.657104 -804.048157 -67.275833
534.630554 -894.228210 34.248859
404.847626 -880.668518 24.309376
262.214966 -880.837463 30.073736
529.627441 -871.652588 14.423972
532.534851 -939.577209 117.651764
358.152130 -815.954712 -81.408958
259.592224 -868.218445 10.522918
309.473083 -807.290894 -71.343086
412.389709 -985.509766 182.032776
509.760986 -921.467285 87.884857
513.123108 -1045.544434 162.295105
595.917603 -835.741516 -28.371790
347.703583 -943.925415 126.748894
218.346283 -931.885254 124.997612
595.101929 -845.175598 -34.559696
300.300323 -942.445862 103.771095
258.210358 -846.541016 -37.814674
553.097961 -964.371765 153.981659
347.909851 -882.870972 38.347298
557.982422 -952.468506 147.421616
287.524048 -868.593811 20.032759
554.346802 -962.631775 150.523636
313.820526 -938.161682 116.298149
417.550812 -857.558105 7.428408
550.863464 -846.295715 27.093842
366.343994 -790.418518 -97.052963
219.249985 -867.724854 17.373363
216.418915 -908.003784 79.570656
420.846649 -838.389465 -2.220063
297.098724 -844.594177 -23.456312
559.335083 -843.940491 -24.571266
166.198242 -919.044739 95.240608
569.711304 -820.811768 -66.828011
308.650513 -771.373169 -108.804459
575.839233 -966.206909 156.409805
338.450134 -826.115051 -52.200241
300.330963 -909.482178 75.640862
356.102448 -891.306274 25.258387
536.111328 -833.571045 -30.428608
145.665848 -782.507385 -111.544212
301.058807 -849.323792 -18.407539
529.116760 -927.430176 106.096893
468.082611 -852.254456 -26.925087
246.678650 -810.935974 -67.878090
431.991577 -1012.466492 155.814621
210.476318 -914.315857 62.472221
499.619781 -825.527405 -61.059597
511.411346 -798.808899 -94.715744
370.639832 -869.546814 19.876120
528.115662 -969.134521 159.487610
399.764862 -803.077515 -79.965576
417.337677 -1001.162964 183.868866
411.613586 -790.895508 -108.774277
549.905823 -844.177673 -28.386583
129.503815 -840.398499 -17.187155
122.377251 -816.918030 -57.963196
382.956848 -982.202393 151.120636
396.893890 -806.332336 -72.495590
216.155991 -890.293213 23.297512
440.170593 -1004.741760 183.093811
598.856445 -895.479553 57.231464
263.086426 -948.189209 198.455109
164.845688 -920.723450 101.706635
330.932739 -927.410034 228.565308
125.301163 -782.974670 -101.037727
596.898987 -836.335266 -41.827007
289.202972 -926.434937 108.154297
236.636322 -803.956055 -62.947800
387.795685 -922.791809 82.254280
410.824615 -823.312256 -60.293827
295.454285 -960.947693 175.391891
304.149841 -956.838745 187.770432
521.740417 -940.404907 121.045700
432.619537 -841.530029 -31.432943
585.888672 -897.372559 56.279335
345.111115 -834.251160 -59.430248
279.558319 -884.249084 50.934284
220.954712 -788.047607 -100.649483
547.086365 -808.738220 -57.384155
364.027130 -784.095459 -110.310646
378.908783 -852.549805 -22.486374
223.230042 -923.543701 103.400856
237.392502 -986.301453 142.875427
414.370514 -895.936157 55.777092
124.304642 -783.670166 -91.698250
349.997314 -829.934998 -45.660942
145.665009 -780.209106 -132.052536
306.378693 -869.414063 30.609808
357.969574 -789.704712 -72.043236
540.980347 -920.781677 116.879295
488.766479 -782.891296 -71.469116
306.959137 -926.354065 85.137131
447.659393 -933.052063 112.803406
249.903839 -828.393677 -64.356392
389.691223 -962.090149 165.835480
396.196686 -861.644348 -15.272757
293.149384 -792.865784 -89.545135
374.749664 -933.084961 114.778206
532.387512 -940.374695 122.025513
309.552368 -978.733398 154.054565
324.278351 -944.090027 220.325089
400.652252 -817.760132 -59.573669
584.671814 -972.991333 133.036743
367.920593 -976.311584 204.709732
127.084473 -786.291931 -79.531975
575.684937 -900.026062 56.219711
454.942322 -900.755798 52.000759
218.960129 -884.596436 22.838774
536.474915 -1003.835388 159.615265
510.031158 -844.570313 -22.898176
413.876221 -948.081238 133.070587
356.301636 -959.971863 214.639984
588.398132 -877.379578 32.494049
412.549744 -912.012268 75.195404
332.874817 -922.699524 86.194275
133.807297 -897.252258 34.584244
248.356369 -834.978699 -33.153461
451.169525 -853.108521 -28.552740
506.677826 -892.110229 65.193535
427.888367 -923.993530 101.612206
517.234924 -892.756165 66.979141
154.349625 -801.093079 -74.887703
178.564224 -850.109070 -9.881255
145.388931 -824.910339 -75.490234
503.508881 -812.794800 -85.684547
250.831589 -909.714050 80.508156
479.897919 -938.754944 103.952759
471.541138 -833.955566 -25.173864
435.938385 -1009.564148 156.165253
528.821228 -917.662720 82.945915
227.071274 -859.808960 -3.875673
498.097107 -937.596069 107.695145
471.877228 -928.847961 104.733177
318.639191 -962.025818 202.852951
109.553787 -851.897705 1.963362
126.368355 -918.133667 65.924118
335.972839 -917.570007 68.068535
182.922104 -808.912842 -94.466286
526.225830 -908.337219 93.673416
582.968750 -847.708618 -13.595654
381.395477 -968.274780 147.671875
134.205170 -833.805237 -49.912182
293.972046 -962.333191 178.601074
207.768570 -830.504761 -36.789005
544.758728 -854.543518 1.758072
492.809082 -915.017334 63.330956
186.646942 -851.050903 2.015932
234.913986 -879.394897 15.952552
472.629852 -884.076904 34.824997
311.206146 -960.463440 193.210342
421.545135 -943.352356 124.038895
398.867706 -962.300232 218.559891
476.984131 -932.947449 99.218819
428.579590 -819.666931 -64.240410
488.360046 -847.455627 -7.860562
254.856277 -788.197632 -90.967056
209.422073 -966.177917 148.255493
533.582336 -911.065979 77.794029
608.357056 -889.605591 38.353912
315.444580 -795.621155 -113.412834
586.214478 -869.357971 21.748611
299.324463 -835.493958 -7.402810
240.038483 -963.701355 176.814896
310.081543 -976.353271 155.992416
204.386978 -824.411987 -48.333424
123.659492 -789.918579 -133.636719
215.163544 -850.770996 -37.408901
215.464706 -893.984558 60.050568
568.235535 -942.910339 117.194984
603.388916 -812.559143 -84.591064
389.194611 -838.092041 -34.660862
344.246338 -840.512329 -50.003899
405.565826 -845.636414 -17.390415
367.203552 -859.569275 3.428730
248.968307 -831.061279 -36.905159
316.098816 -839.846008 -27.396255
180.160950 -827.972595 -22.489246
226.038269 -819.618713 -54.948845
346.801788 -832.820068 -58.269028
269.047668 -861.387878 0.808157
531.636475 -872.342102 23.858419
517.275879 -893.434143 31.747923
392.565643 -884.262634 45.994434
520.380493 -813.566284 -81.632484
208.065353 -896.952148 88.301437
275.969971 -839.977783 -47.389160
552.522888 -832.045532 -49.709789
563.459473 -900.669495 50.567612
254.146805 -782.388550 -79.287323
139.237061 -824.340210 -54.495071
442.322052 -799.439880 -108.913696
210.107269 -891.953369 55.693428
431.795349 -1003.442627 186.708344
335.348358 -939.079529 128.266479
559.380981 -944.521912 119.554245
493.909393 -863.901428 3.094689
308.003204 -869.979858 21.139280
409.356598 -974.639893 188.721710
146.771942 -834.550293 -60.775909
598.929688 -815.281555 -76.909409
574.944946 -811.977478 -20.914679
