ply
format ascii 1.0
element vertex 1368
property float x
property float y
property float z
end_header
603.503662 -414.005524 -377.682922
537.126526 -424.072388 -450.865631
642.916443 -685.246948 -330.248657
750.007568 -552.018066 -289.171326
761.812622 -714.038513 -211.743454
536.614014 -443.379059 -443.315857
822.855957 -423.222290 -280.736908
817.004333 -523.677246 -260.045532
646.775574 -636.605469 -314.147919
639.338379 -600.329651 -336.283997
776.149536 -425.049591 -301.599030
663.467712 -574.411743 -329.528595
884.780334 -428.205261 -252.728210
957.795654 -609.598633 -176.145538
713.201477 -436.080902 -347.160583
722.781189 -716.799072 -249.784073
819.531433 -708.082153 -214.514694
611.526001 -743.769836 -372.970215
898.939026 -574.424011 -198.135040
567.103516 -567.813843 -378.197876
662.216003 -670.924805 -315.278259
702.365723 -484.407654 -326.002380
904.086792 -601.649170 -188.832306
794.763794 -509.297791 -281.912445
693.620728 -387.697845 -360.355774
673.109680 -610.536011 -324.399963
794.139404 -482.630188 -281.633881
705.000366 -498.456726 -324.686035
601.847168 -517.801453 -386.763214
676.001587 -487.032745 -354.476685
788.009155 -701.978210 -233.060669
809.406128 -583.079773 -243.715378
653.806946 -731.955200 -256.109802
798.428101 -515.663025 -261.790161
595.426636 -396.188568 -407.186035
573.019775 -552.034668 -378.978455
867.427490 -577.374146 -216.061127
547.013000 -478.382782 -410.136993
555.423828 -512.883850 -419.837158
850.697571 -460.233673 -261.581970
786.013550 -690.871338 -252.148544
705.136108 -458.462280 -341.853668
897.225952 -542.380737 -212.067963
728.471191 -506.898987 -307.905212
886.445984 -592.514526 -211.261765
550.060181 -427.214966 -422.884308
850.774719 -428.088837 -267.691864
871.732422 -565.760010 -222.837189
874.549805 -463.352570 -246.588272
754.279480 -696.726379 -242.023331
670.660400 -498.096436 -341.008118
830.179626 -384.482483 -258.002838
893.615356 -572.906799 -194.324524
769.200867 -588.713989 -274.088440
860.723206 -488.556396 -248.830307
729.418640 -583.762451 -288.544983
815.142090 -414.328186 -294.093018
898.091614 -438.985809 -239.642090
918.380005 -363.869476 -241.402756
550.208801 -512.049072 -422.379303
794.909119 -389.443359 -274.925507
856.621216 -602.017944 -215.204651
783.128845 -708.227051 -222.065186
674.296814 -464.847015 -364.533325
927.774231 -371.257080 -217.712753
785.346375 -700.747192 -187.833710
774.729065 -533.897827 -255.741562
645.667175 -730.975342 -319.100800
899.345642 -659.782166 -194.465790
800.896545 -433.143341 -293.781219
545.513245 -676.603821 -380.220551
575.655701 -547.612366 -393.462799
888.911194 -502.584473 -226.565063
719.434509 -471.784210 -331.305054
741.611938 -546.867065 -301.152466
552.182312 -536.805298 -382.570953
731.226868 -521.429016 -305.353516
567.404114 -735.005432 -378.934387
883.456177 -429.379364 -250.811920
810.543579 -621.026978 -238.787704
635.920105 -395.420685 -391.717102
907.144714 -355.850098 -263.109894
713.370605 -599.657837 -303.146393
781.217102 -448.966949 -297.838348
653.150635 -410.206970 -368.131439
513.199158 -410.599091 -444.774994
602.119568 -442.546356 -406.500397
753.639526 -670.247559 -264.080780
951.631409 -638.824585 -172.411377
700.757690 -447.481140 -350.668488
612.575256 -644.557556 -332.870331
890.445129 -352.054321 -254.420349
819.596985 -652.537537 -218.829681
796.370789 -706.857727 -218.001801
877.419617 -474.952026 -239.505692
706.473083 -450.587067 -308.372498
887.603516 -534.952209 -224.155319
848.836182 -445.779663 -250.757339
617.535583 -412.577087 -406.099091
732.202515 -459.812775 -320.903259
541.009644 -418.442078 -448.742920
635.364868 -666.636780 -327.663422
583.451355 -536.242310 -379.526428
702.114746 -529.946228 -321.597504
664.057434 -525.745789 -335.461273
720.678711 -503.408783 -309.359924
730.403320 -700.338318 -239.797806
725.609802 -420.703156 -328.456512
828.902527 -392.418549 -288.547485
752.882507 -534.307495 -292.185059
704.081726 -548.143311 -324.814056
920.316101 -410.388702 -234.931625
780.174194 -686.093506 -252.243652
897.584778 -520.996399 -199.657089
733.586853 -597.504395 -288.695404
883.971863 -459.736877 -223.420959
504.110901 -612.541138 -399.292847
621.727173 -409.942413 -418.853271
792.196655 -442.567047 -302.557007
792.922791 -505.332794 -267.424927
721.558105 -712.439087 -232.417007
700.692261 -581.924805 -307.494598
924.238892 -350.864716 -226.712234
643.794922 -461.083893 -367.250763
806.718262 -455.409454 -271.595490
823.772705 -606.530762 -236.618988
700.179626 -591.401611 -314.052673
879.485168 -524.063538 -226.725601
725.078247 -718.465454 -214.858398
621.983215 -642.382751 -328.300995
696.377441 -716.385498 -241.835464
531.918152 -416.657532 -440.800690
890.728638 -589.780090 -204.070801
559.413086 -416.463226 -424.142670
587.899231 -498.640045 -360.026184
814.531494 -548.110596 -228.482254
857.004211 -574.862488 -225.400848
677.969788 -465.315521 -328.698303
531.783813 -589.851990 -396.197418
648.103882 -572.984619 -349.922699
512.070251 -662.985962 -403.039764
733.077271 -434.178070 -327.718811
511.961639 -416.970367 -473.574310
880.260437 -463.418671 -234.114609
588.979065 -713.386108 -363.700836
587.996704 -479.420593 -401.375397
765.146301 -567.652466 -280.901489
712.359131 -407.570038 -337.468750
780.918823 -715.250122 -221.537827
813.096008 -474.843597 -268.793884
816.078979 -389.168213 -300.438995
903.322693 -403.511139 -224.293671
803.269409 -712.645325 -208.229279
684.073608 -454.820557 -334.716583
619.732483 -424.270844 -395.115875
630.611511 -665.091858 -318.738678
728.943726 -474.875946 -314.998138
749.850220 -586.324646 -258.392700
754.925842 -534.171814 -297.292999
609.249878 -600.133301 -337.400391
566.349426 -517.115051 -392.096191
601.678345 -444.619263 -388.818146
754.412170 -467.368103 -303.720642
506.349609 -507.733185 -445.552826
575.962708 -491.529846 -405.288757
554.810181 -440.229828 -416.106171
809.266052 -482.523773 -269.275269
811.497925 -554.891907 -251.589905
950.940063 -532.335938 -191.125259
709.822754 -713.506042 -271.175293
578.034485 -561.918030 -374.806427
682.918945 -384.729736 -363.107605
500.099396 -600.866333 -423.394684
588.901611 -656.475220 -358.377716
876.439880 -612.324341 -213.006897
742.728821 -626.660706 -260.842651
900.537537 -542.253723 -184.424927
752.398315 -446.135193 -309.197449
653.604065 -402.296448 -368.325806
874.549316 -608.343018 -208.164200
868.874146 -561.539368 -221.623657
736.779968 -681.216553 -253.300690
560.119873 -403.245087 -428.627136
487.291229 -565.790039 -421.125336
825.027405 -642.379211 -231.957230
932.880981 -412.047058 -228.997055
664.416016 -712.342896 -209.579391
729.867981 -718.317871 -266.663605
647.436890 -732.565979 -289.140289
676.206238 -436.650208 -349.803986
802.318726 -511.408417 -275.451385
631.006592 -727.558228 -294.812439
688.726135 -392.660217 -361.265015
902.345581 -410.494568 -220.310593
918.194885 -429.689697 -222.809433
777.109314 -370.631378 -317.049500
887.644592 -385.081573 -255.251648
819.226868 -387.196259 -291.164307
575.816101 -620.406494 -358.283508
832.187622 -362.275269 -286.307129
837.955627 -571.170044 -242.560089
641.089172 -714.092896 -234.334091
810.646912 -518.854187 -259.820068
690.096130 -515.112183 -326.249207
765.775696 -491.440643 -304.645630
668.684814 -480.381805 -336.697968
827.295166 -392.352570 -287.358765
536.794067 -578.134460 -406.433746
865.646057 -524.681946 -242.350235
656.545166 -537.283875 -351.036957
820.141907 -479.213379 -269.651794
641.109924 -389.527191 -392.460602
637.751770 -740.607361 -346.374390
828.178101 -601.339539 -240.212433
932.008728 -584.148682 -184.313934
700.441650 -534.609253 -296.849792
798.847290 -494.908051 -284.812988
860.017456 -542.917542 -226.836777
714.511353 -559.369934 -305.829193
741.763611 -696.148315 -269.286224
878.091614 -417.804504 -236.216125
907.004944 -617.653076 -180.247070
710.381531 -592.226563 -299.358246
660.508545 -475.677246 -368.609283
575.135498 -466.642670 -403.582764
715.761169 -704.695068 -187.455399
841.773132 -461.854767 -266.696777
683.691956 -485.163635 -338.256531
596.750793 -565.357056 -375.765625
883.088074 -432.394897 -247.304581
747.072876 -509.033508 -298.952026
728.107422 -476.178925 -311.846161
896.921753 -560.365295 -200.443298
711.919189 -487.440247 -335.040466
588.752075 -493.304688 -392.698792
870.515442 -391.129425 -264.125275
710.092712 -714.339966 -230.926712
796.223511 -436.772064 -302.464844
868.951111 -504.556122 -241.087738
684.666687 -514.634155 -340.905090
669.667236 -433.574036 -361.875671
713.367004 -536.646179 -305.366180
622.114258 -427.623016 -399.126526
526.793823 -439.857330 -418.899261
520.174255 -739.269592 -419.896942
846.975342 -552.498291 -244.522064
855.276978 -606.518616 -210.514359
869.851196 -353.012299 -270.140961
722.629822 -566.348938 -299.451752
708.843201 -634.436462 -282.573425
527.799072 -539.772034 -425.596619
849.596924 -694.494446 -252.442841
703.528320 -507.169434 -321.839508
664.569946 -714.681702 -267.065033
751.339661 -711.673889 -209.724319
622.829834 -534.294861 -370.336609
907.906006 -413.264771 -241.478241
763.996765 -625.915161 -253.038330
764.262695 -468.306854 -298.358246
648.182434 -731.505615 -270.020599
748.266907 -487.315308 -304.493958
694.968140 -707.471741 -192.658310
678.221863 -713.677673 -259.098572
765.649414 -679.081055 -257.995087
769.335938 -610.856628 -242.237549
678.102295 -712.162720 -218.261871
488.710419 -492.820740 -440.180695
841.356506 -462.943329 -267.031494
960.118591 -616.940857 -174.923004
887.001099 -563.502258 -214.450226
832.940125 -527.873596 -222.072769
545.243958 -556.010193 -396.545441
706.575378 -486.139648 -338.988831
827.396973 -707.624939 -250.683716
627.911682 -480.049744 -379.447784
613.445129 -660.757385 -328.762421
512.752563 -656.821899 -403.068207
605.581543 -501.192780 -380.999634
643.084106 -740.698730 -336.049927
742.477417 -523.512512 -311.752106
911.740662 -365.851135 -253.233536
930.300781 -665.992554 -200.180237
544.806335 -641.153381 -371.672943
804.776855 -632.153503 -223.217880
625.194214 -693.984741 -335.596008
636.797058 -506.136505 -346.813934
661.756470 -397.012787 -372.378998
664.221985 -625.556396 -323.763733
691.919983 -707.207153 -273.853790
737.420532 -684.643494 -287.094635
709.443176 -472.554962 -330.652954
792.005676 -402.590363 -313.424622
594.812012 -561.068604 -356.338165
803.030884 -517.861938 -264.258392
786.283508 -703.387817 -212.991577
807.477966 -382.961670 -286.493439
551.842468 -475.769135 -425.714355
765.525879 -676.047302 -266.703522
575.699463 -691.996765 -360.851288
830.248352 -417.941986 -274.815338
579.428772 -562.571045 -380.063416
859.667603 -705.435364 -234.621689
843.651672 -521.966919 -221.884247
829.071167 -471.782043 -275.522705
692.900818 -389.170898 -365.387634
758.192444 -560.238159 -286.092194
542.731201 -510.480804 -405.223877
861.801941 -713.438416 -229.039307
679.518738 -428.291290 -354.203888
729.205383 -590.360535 -289.621613
601.234924 -517.270386 -379.235291
804.340759 -711.697510 -222.454651
654.229736 -388.844055 -378.321686
740.643982 -704.098877 -195.667603
623.514038 -514.740662 -375.494995
651.388489 -472.459015 -359.923828
682.148560 -583.780151 -317.042938
718.730591 -466.256897 -327.828094
756.459412 -578.335510 -274.441376
876.638733 -556.499573 -222.302856
790.195007 -376.187561 -311.286591
706.587158 -681.780945 -300.794189
781.922363 -404.767975 -316.053375
650.420410 -639.222046 -328.185608
565.838867 -405.848816 -423.548767
690.663574 -643.149536 -289.475128
606.843506 -612.344727 -343.621552
571.187378 -458.933228 -419.878082
861.539978 -385.553284 -250.922684
676.768127 -678.298401 -316.355988
838.505737 -461.105804 -250.690826
860.495789 -447.143341 -258.158661
911.209839 -514.411865 -213.741501
677.774536 -730.367493 -266.406921
640.497864 -639.712524 -318.087402
876.747131 -397.024597 -259.552002
628.694702 -606.011108 -334.066681
885.130493 -465.495422 -241.215775
751.233398 -713.504700 -196.433655
861.019104 -487.613678 -237.965363
491.885834 -457.222443 -456.121979
599.882935 -466.624023 -386.153992
659.558533 -394.569550 -373.548401
626.239746 -723.636902 -277.760468
684.591919 -438.325378 -347.839966
676.793030 -610.633118 -307.180695
684.979309 -713.159119 -258.687592
691.294922 -603.523071 -301.416168
619.443726 -437.742401 -385.765442
599.833740 -446.795685 -377.752472
634.187500 -423.543762 -379.150238
756.877136 -715.274902 -210.050781
837.108948 -367.954071 -275.922729
851.259338 -398.079620 -279.971130
950.085632 -569.596130 -181.020828
732.916321 -718.909607 -258.835266
799.992371 -551.658386 -266.346771
555.733887 -428.185364 -436.807251
540.651184 -494.290588 -400.599365
829.430908 -396.868958 -281.633514
614.260132 -601.239807 -356.014069
822.138977 -703.028198 -255.850220
853.370300 -555.513855 -236.811310
641.130554 -431.978760 -371.820831
490.544617 -480.156372 -427.074463
826.671143 -569.138123 -237.341202
877.438354 -391.817963 -260.383240
551.237854 -483.444427 -410.737244
747.661987 -714.922791 -200.962738
777.825989 -599.790771 -270.110229
864.778564 -470.759979 -215.329819
501.294250 -446.993988 -425.916840
590.949158 -502.702393 -401.480713
697.471497 -725.479858 -248.002319
900.054443 -605.661072 -189.288422
809.727600 -495.889496 -275.249115
705.963806 -410.721771 -348.778076
666.914429 -503.376892 -332.539032
824.851135 -479.430542 -241.593735
769.844482 -437.083862 -306.235840
810.889709 -531.087708 -271.201630
740.650024 -604.388000 -287.470001
588.346619 -495.918854 -378.514221
754.067505 -455.289581 -306.246979
770.253784 -701.574341 -218.988708
741.445923 -382.911011 -333.469208
500.575012 -678.056458 -403.993713
698.741943 -484.052673 -344.272095
707.652649 -408.320435 -341.321655
691.987610 -448.723907 -355.083527
613.880920 -541.661377 -365.142181
626.910950 -740.387207 -299.040314
674.489014 -647.005798 -294.688721
835.760315 -347.611755 -273.649109
741.940125 -465.727570 -305.261139
763.068909 -556.112122 -276.393860
925.165649 -695.903870 -222.411011
604.581177 -549.842651 -361.828735
868.973389 -469.391510 -247.170654
817.726746 -651.487732 -222.464798
592.292786 -722.890686 -377.617188
931.841248 -618.029358 -178.340546
850.255554 -364.049835 -268.666046
733.475464 -578.634583 -290.601074
579.464661 -543.329468 -379.855499
706.019348 -463.379486 -340.403442
771.895020 -410.757996 -302.058990
719.781067 -534.023926 -309.770203
683.134705 -594.435730 -306.399261
767.948242 -598.372986 -276.599365
817.099060 -371.784607 -299.891541
727.392273 -621.837036 -281.255402
582.776367 -508.739746 -384.892120
827.749451 -476.846863 -263.347382
853.611572 -401.051361 -255.021225
796.180054 -409.721588 -280.972717
835.990417 -540.322571 -221.623825
861.799133 -580.186523 -218.971069
563.899109 -442.300690 -412.809265
603.819824 -688.674805 -351.212860
825.024170 -559.451965 -239.629776
767.286743 -597.338013 -265.798279
555.959351 -613.374084 -378.114594
751.496765 -619.167847 -268.728363
532.816162 -486.291779 -430.789063
764.799438 -633.017395 -258.390289
702.999146 -624.111816 -293.437164
560.546265 -640.898987 -375.216278
807.126648 -711.775818 -202.297104
745.372864 -468.833252 -303.892792
845.475464 -522.755066 -237.431992
726.569885 -415.727661 -335.303528
651.238220 -501.822540 -354.499939
735.119934 -611.454651 -276.134338
546.136353 -489.011078 -430.472351
721.524353 -401.098602 -353.647247
875.824036 -525.259155 -227.521667
715.660339 -547.783936 -316.907776
727.656921 -399.301758 -345.994202
763.211792 -465.573669 -312.405090
564.214600 -505.030273 -416.495544
536.850037 -604.722656 -394.473328
533.923096 -531.690918 -409.716492
703.811462 -519.691711 -330.001373
677.532532 -720.313660 -229.716995
817.270447 -371.850708 -268.322571
853.339661 -691.751343 -246.277786
586.992676 -648.253479 -365.605804
880.833496 -629.762390 -207.116089
689.868286 -725.108459 -251.652313
814.612061 -580.538269 -241.919052
811.060486 -655.606750 -223.400055
887.068054 -377.174438 -243.490356
754.703247 -528.750488 -267.922211
560.061157 -590.163879 -376.846100
928.656189 -474.674927 -206.312775
871.749207 -491.112091 -232.818405
754.768005 -413.300110 -328.423218
646.660217 -415.273895 -398.407471
623.453247 -650.597046 -317.119202
494.062988 -574.206482 -411.860687
537.549561 -583.533264 -412.636505
878.191956 -648.635071 -200.860611
768.696777 -436.924652 -303.898590
715.991394 -498.638641 -313.151398
876.486877 -465.490936 -241.646667
742.274841 -468.622681 -318.890167
834.742554 -571.766479 -223.950409
806.315491 -533.696411 -273.189819
725.781616 -495.872528 -324.940948
797.118652 -618.692749 -253.134415
565.476440 -400.687714 -423.868164
593.902893 -436.537476 -417.961243
652.494324 -707.978760 -334.020905
736.962524 -475.166718 -307.227478
810.940063 -447.433563 -289.398590
543.515198 -621.837524 -389.022125
900.455078 -475.606659 -234.573013
716.642883 -492.015625 -331.230957
683.661316 -726.569031 -231.522110
853.885803 -606.683228 -197.766434
822.137878 -441.176971 -252.777145
792.250061 -646.155334 -248.097321
699.240234 -521.862854 -316.791351
861.513123 -518.175842 -239.521606
634.037048 -539.822571 -364.594421
596.685425 -549.433533 -373.290070
644.374573 -465.213898 -377.708466
769.726624 -567.064941 -269.708923
716.558105 -618.604431 -287.201935
662.163208 -646.459106 -319.055756
584.796387 -474.826477 -391.769073
869.440063 -386.925507 -265.496277
738.976990 -433.511169 -318.956421
807.362610 -384.042023 -310.047119
660.131897 -569.360291 -330.943604
812.944946 -365.955139 -307.936005
555.753052 -457.757172 -411.506042
867.470276 -373.350372 -255.089874
612.435852 -445.573883 -384.718811
651.062866 -428.886932 -372.465515
683.948364 -708.470764 -250.010468
854.770996 -495.349396 -247.959671
693.901550 -565.283264 -325.127350
879.630737 -533.425415 -219.770935
787.601685 -635.617188 -258.754364
802.248108 -557.066467 -256.122467
703.962341 -718.609863 -254.855881
909.180237 -615.700256 -180.563721
694.577148 -394.104126 -344.936493
649.302063 -660.024719 -310.348541
869.514465 -419.358002 -241.457474
842.095459 -570.543213 -230.326355
657.621765 -429.680328 -362.917877
767.955872 -708.237732 -186.421356
780.811035 -530.217529 -271.901398
634.044800 -629.906372 -324.906311
843.011414 -479.583679 -261.000366
646.351563 -396.663391 -374.612579
727.485229 -421.779968 -328.926727
683.277039 -734.580261 -231.824097
837.160217 -506.389465 -258.937469
568.450684 -622.402344 -367.520966
521.049438 -548.816040 -412.910645
578.561157 -616.353699 -357.932190
551.856445 -459.425079 -429.092468
531.783447 -726.942810 -395.632507
654.213501 -604.983276 -337.557861
865.441711 -421.342957 -266.904358
928.221497 -668.190613 -198.052551
691.637634 -719.118408 -272.722595
925.647766 -491.989563 -197.131088
886.062744 -437.627014 -236.667786
793.406494 -463.849121 -297.589691
911.821594 -389.264587 -237.604370
774.422302 -486.003479 -285.108826
517.398438 -700.794983 -395.305328
667.883057 -617.566406 -312.787720
785.920654 -710.623230 -213.370804
553.528198 -552.157288 -405.474335
723.890442 -702.113647 -245.427094
652.175354 -472.476807 -368.455170
537.216431 -538.222473 -422.304413
514.664856 -508.764893 -426.576721
775.613831 -695.601868 -206.350113
636.919617 -416.202148 -394.298859
501.627930 -695.852417 -390.372009
555.545227 -429.147705 -445.260590
833.479553 -518.672974 -261.890594
921.630554 -530.598328 -206.674576
773.137573 -475.173279 -294.387054
579.150330 -484.126648 -393.437469
884.077332 -521.107910 -229.321060
802.737732 -485.083252 -277.784149
905.986572 -381.586395 -232.961136
744.880188 -705.002319 -182.526489
656.690186 -679.833984 -311.913391
691.708984 -390.159119 -354.348175
560.866028 -559.191223 -384.745392
779.673584 -523.257263 -277.698364
742.492859 -563.396240 -296.146973
511.268768 -592.902222 -408.396698
894.177185 -662.977173 -192.589600
732.694824 -474.051392 -327.758453
916.366943 -404.242615 -234.455856
583.313293 -592.827271 -351.989197
770.587463 -659.543945 -262.201996
530.780945 -675.070496 -382.080963
781.736389 -673.204590 -246.602707
798.878845 -668.774597 -256.643829
839.438538 -628.937622 -217.893784
718.618225 -705.070862 -224.016724
578.478943 -519.539001 -384.658386
830.293762 -550.865784 -242.840805
650.701965 -526.902771 -339.045654
855.251282 -392.094635 -258.699158
634.551514 -482.251984 -375.885895
543.038147 -539.176453 -414.792908
731.450684 -526.774231 -315.457489
742.075012 -399.660370 -328.622559
816.051025 -707.719971 -235.427307
741.568481 -524.023071 -307.052795
861.595886 -650.228821 -211.499298
651.342957 -715.513550 -254.868103
818.751770 -460.452332 -280.823486
888.794800 -465.841797 -205.758957
892.075012 -413.381348 -223.367218
543.566406 -474.740021 -417.534698
692.191772 -588.893616 -288.916992
585.019165 -447.859375 -418.346710
693.353760 -639.001648 -309.284882
659.746155 -714.642639 -322.138275
892.095032 -446.212738 -240.817215
496.478851 -687.467224 -402.329834
728.696228 -511.656342 -286.740540
679.433716 -503.039795 -333.970184
858.526001 -534.170654 -205.676132
586.257507 -493.583221 -406.518860
837.452087 -374.666595 -277.356293
859.325073 -367.766846 -272.343750
813.061401 -500.907898 -262.975708
755.730774 -549.734436 -281.430664
881.971619 -403.620331 -246.760712
714.958801 -392.024078 -342.504303
728.998474 -511.389374 -308.616791
700.467285 -689.390869 -280.821075
892.511536 -479.986511 -219.774811
841.199280 -595.726990 -236.088028
840.328186 -370.894806 -272.500305
761.382568 -441.445740 -321.554382
793.628235 -702.146179 -198.703094
886.850647 -523.873108 -217.098129
884.809753 -353.705139 -246.457413
624.911133 -594.469971 -338.991974
803.843933 -462.233582 -274.605774
554.995911 -446.402588 -420.110352
696.504211 -704.857483 -261.013458
741.914673 -425.397369 -334.133575
785.730835 -372.146423 -317.872650
884.167542 -637.822327 -196.293121
518.028870 -664.970947 -377.211426
778.104492 -551.456482 -264.641144
667.378296 -404.828003 -362.433777
905.504150 -451.244019 -214.092300
904.089050 -531.958740 -209.387680
769.124146 -713.627136 -207.236176
820.068970 -452.804321 -250.916397
865.300415 -517.571289 -210.762665
705.685242 -633.390015 -299.268616
558.818359 -622.601929 -366.343323
588.578369 -423.553467 -395.284698
793.577026 -688.155029 -243.348679
593.479675 -458.229492 -406.686462
684.787720 -714.434753 -281.824158
891.279114 -430.631470 -236.387436
799.289978 -449.553986 -291.151276
717.508057 -465.221558 -326.651215
656.387451 -636.944092 -324.383392
786.427612 -629.393188 -236.533722
544.090515 -601.454407 -397.394135
865.774048 -385.182770 -256.401825
663.588501 -506.604401 -347.383789
842.415894 -426.594238 -274.559540
730.133240 -714.611328 -203.264267
776.643494 -698.463623 -244.110641
632.911621 -413.273743 -381.033478
768.646790 -395.129425 -294.842621
556.015930 -423.898560 -420.841339
701.083069 -428.553253 -345.839783
606.367188 -640.252686 -335.968750
849.651062 -406.919342 -262.112122
522.657104 -430.892639 -440.109985
718.245789 -517.898743 -314.487427
842.970764 -659.455811 -221.251404
629.131226 -541.597656 -366.793701
639.466614 -398.730347 -404.963013
640.506042 -554.799622 -347.083862
871.307007 -440.127350 -255.880768
574.661560 -557.254822 -365.711548
554.910828 -476.473724 -428.788361
514.691284 -565.644165 -407.088776
579.455261 -642.501526 -368.864929
754.487976 -416.861176 -309.528748
662.279175 -484.380493 -338.884613
650.189880 -436.352936 -381.915100
778.191650 -694.600830 -247.783401
903.397522 -531.819031 -216.878433
938.771484 -349.454285 -220.126938
678.239685 -421.927002 -353.009827
629.794800 -529.559082 -347.717316
523.599670 -473.589233 -445.158661
789.881104 -694.271606 -256.075836
934.846497 -473.850403 -210.477951
494.427612 -461.520386 -439.409760
913.037109 -595.560608 -194.971863
637.591492 -450.483063 -373.916229
661.411987 -526.019348 -356.605835
629.516052 -639.872070 -327.586060
814.410889 -406.729340 -280.125824
719.346069 -683.025696 -293.200287
529.142883 -558.769470 -406.481567
580.471924 -408.410492 -435.571960
748.475891 -644.569336 -262.183136
915.721863 -694.941650 -217.204269
911.218567 -453.465118 -219.234085
739.758728 -538.047913 -294.653992
724.128296 -719.714600 -230.698380
706.258057 -697.928223 -298.669861
871.149963 -467.092194 -229.548355
509.263367 -556.314026 -389.145721
839.866821 -597.943909 -210.563293
719.186462 -715.603821 -230.404114
526.988464 -406.845795 -445.376160
768.608521 -619.610901 -253.155716
527.333130 -486.930847 -424.194611
629.165527 -548.794983 -352.643890
607.467468 -481.604919 -379.510742
819.289917 -716.829956 -240.318283
508.576904 -481.014069 -413.723175
852.955994 -710.790955 -251.801697
679.521729 -422.317078 -337.096344
781.987000 -490.217316 -289.513702
820.903198 -509.741058 -255.706940
506.158356 -518.302795 -443.722656
753.641907 -480.893188 -303.586639
655.068726 -726.802185 -280.736847
804.476013 -394.760468 -309.182861
493.527435 -536.804321 -441.789642
748.404846 -703.911072 -251.415924
753.127869 -513.347717 -293.414673
686.799072 -692.610840 -312.101501
898.446167 -448.375000 -226.613968
812.811035 -565.988037 -247.867844
497.125641 -532.038635 -425.689087
802.141907 -712.910095 -202.734589
743.132690 -402.859375 -336.306335
565.284912 -629.369873 -351.310242
808.913330 -501.019318 -240.714951
872.406982 -393.230072 -230.030289
765.953796 -699.821655 -225.169937
498.735077 -469.245605 -436.074432
832.924622 -360.891022 -293.625427
682.624023 -447.681732 -350.268280
816.023804 -631.805908 -240.427017
552.625671 -655.047485 -363.227905
694.569763 -599.375488 -301.086975
572.776062 -722.843567 -386.396057
853.153625 -695.308411 -229.331406
731.606506 -441.759613 -304.334412
522.843567 -624.441956 -382.610840
540.317627 -431.951782 -410.419739
647.580078 -606.906067 -326.419556
803.450867 -377.728638 -294.596985
860.341492 -388.084869 -256.327667
765.615234 -629.915222 -265.469330
683.181763 -725.091919 -265.452362
758.074097 -526.112488 -282.630646
505.570465 -648.753235 -412.745209
628.930969 -405.343903 -386.165527
605.054932 -675.753235 -324.066742
762.748657 -710.885681 -194.512573
563.866272 -626.662170 -362.452972
861.181152 -497.640778 -232.225449
504.145874 -657.422058 -371.318481
848.175415 -698.956543 -226.863251
793.069092 -690.814636 -238.921234
857.314026 -524.310242 -240.194031
754.187866 -568.649658 -286.439667
523.280273 -466.673889 -403.937378
522.871033 -627.685730 -405.641510
801.847839 -595.212952 -247.231720
616.549072 -512.681274 -370.393494
590.612305 -635.790771 -331.799042
749.044067 -702.199036 -225.437103
933.290710 -597.046875 -192.555298
728.105286 -702.030151 -253.403961
803.675720 -622.708069 -247.250320
918.283569 -401.455475 -229.534149
798.199219 -420.681519 -302.470215
829.354492 -553.275757 -238.909882
506.973663 -433.422607 -448.712646
623.973511 -561.405579 -353.499054
751.511597 -447.040955 -291.590485
687.518433 -512.532288 -330.776123
650.539063 -495.430634 -354.622772
554.794495 -491.901398 -417.548401
760.169922 -513.416626 -295.184357
709.630920 -392.865143 -328.717590
661.985657 -410.684326 -384.614746
504.522888 -557.997070 -426.942596
780.266052 -528.653625 -275.958588
538.060608 -620.143616 -382.094177
520.156433 -625.550415 -389.395905
859.531677 -411.411774 -254.828278
867.464844 -440.028290 -240.450455
496.734070 -534.135376 -442.987915
583.751831 -687.101868 -358.236267
705.505310 -451.989075 -347.171814
723.503540 -402.650726 -342.991913
707.300781 -554.675232 -310.872650
652.029724 -560.533447 -350.627563
774.564087 -716.243225 -198.224182
795.802124 -640.083496 -251.019928
599.863525 -433.938782 -385.813721
796.235657 -703.838135 -189.391998
685.663025 -517.845032 -325.078461
923.178406 -595.020386 -162.765030
760.157471 -482.855865 -310.109741
775.157471 -592.135559 -269.554016
778.016174 -643.586853 -234.649582
775.583740 -696.870972 -215.642090
588.119751 -566.742432 -380.584717
788.714294 -447.393982 -294.567505
722.488708 -652.664307 -262.349426
756.731018 -449.508911 -308.565521
810.520386 -531.302307 -265.577118
646.091370 -668.019043 -319.971497
837.918579 -456.594513 -263.217010
734.883850 -558.679321 -302.447021
881.307800 -663.767822 -225.142166
742.890930 -592.736267 -260.748718
687.863647 -584.557983 -316.225891
561.373718 -506.979126 -396.661652
872.727112 -508.024597 -225.645447
719.181946 -496.577271 -317.919464
503.869598 -532.673950 -417.408386
808.598389 -572.417847 -248.034317
537.955444 -543.501465 -378.839661
491.527222 -439.388672 -463.931458
556.792847 -539.481323 -391.278931
572.169312 -554.192749 -370.245178
504.243317 -500.777649 -453.308746
757.704041 -432.816284 -317.383087
761.497864 -445.845367 -309.766479
533.417480 -588.033264 -406.970276
722.624756 -666.522644 -270.345734
935.309143 -529.402466 -192.479568
611.385315 -499.976410 -361.045319
632.358337 -418.247650 -379.342285
532.849304 -489.019836 -419.403137
812.538574 -422.734283 -286.893036
910.124451 -597.869385 -184.613571
685.240906 -531.572754 -327.684814
571.483521 -469.238739 -416.869263
927.620117 -383.141541 -228.396851
865.725342 -468.942352 -221.277664
812.622498 -391.336884 -271.288879
619.095337 -435.395874 -399.524139
622.236572 -635.881714 -350.171204
841.722839 -420.582458 -247.377457
868.799622 -510.915436 -239.881668
816.453003 -712.448730 -220.547943
707.336853 -568.804565 -314.910400
497.279572 -739.412903 -423.087402
613.609070 -595.867737 -350.445496
836.994995 -486.611725 -264.048859
907.820007 -495.247833 -201.205093
793.424255 -520.708618 -273.735748
833.663635 -493.760529 -263.912598
724.541077 -397.485748 -335.244690
651.188599 -717.638367 -272.972687
899.521606 -544.483337 -200.165359
701.530518 -504.119476 -325.819275
679.835144 -470.996582 -356.417206
914.688354 -460.084717 -227.205490
790.846802 -420.572296 -299.085754
648.606140 -722.960083 -333.992340
816.748718 -708.498291 -221.706955
916.349854 -372.318787 -246.394043
775.247192 -534.280884 -273.592804
833.034790 -385.947998 -293.234680
767.745544 -695.315979 -230.177948
877.165283 -386.073334 -242.239883
730.615845 -657.628723 -269.890533
806.698975 -562.419678 -250.467484
885.544861 -513.265015 -228.101990
876.387695 -360.211182 -259.396210
518.860657 -608.888733 -393.854523
635.969055 -716.692383 -254.580307
770.153625 -411.194611 -311.300568
609.803345 -591.598999 -351.406799
545.894409 -576.921570 -379.522064
509.843445 -407.516418 -460.379211
897.736755 -514.604248 -221.666321
863.119690 -696.792114 -218.007599
924.641785 -597.719482 -184.881607
893.416931 -595.053284 -195.457001
850.107483 -504.052704 -256.407257
663.481689 -535.528015 -347.582947
625.059204 -429.529968 -374.573364
816.101013 -377.178772 -283.663452
630.500244 -478.722107 -369.143433
502.436066 -490.119324 -442.403168
695.230835 -406.178436 -345.993469
710.191467 -610.366333 -274.763184
611.742859 -476.485168 -376.618042
997.288696 -650.268188 -180.915771
496.653412 -573.230225 -432.017761
850.733337 -420.428314 -273.190735
677.792053 -547.169983 -336.731812
649.218872 -548.201965 -343.729706
826.125671 -373.669586 -294.621216
560.923889 -685.943176 -354.108521
661.638977 -443.715149 -359.275635
875.735596 -466.479858 -227.013031
566.491089 -628.371521 -382.717804
919.593201 -391.363586 -226.584869
683.661072 -405.997589 -362.038239
773.865173 -701.927185 -191.627853
837.664368 -434.911987 -259.952179
715.806091 -508.615021 -314.716003
744.130920 -700.756836 -266.808838
638.120117 -615.462708 -328.598602
595.500244 -582.513794 -374.542938
509.118317 -616.815613 -395.713348
536.175354 -430.478149 -427.854980
660.145630 -647.676514 -319.543945
582.048462 -650.016235 -360.078857
581.181519 -674.451111 -332.393097
793.459106 -377.390533 -301.290192
569.989868 -497.092773 -381.989441
870.722900 -545.005859 -210.419067
899.010559 -595.284851 -191.193542
672.014282 -578.933350 -318.017792
895.041077 -357.838837 -260.883698
891.020996 -568.510010 -182.192368
888.313904 -661.294861 -218.328888
686.097412 -423.527039 -323.751099
744.883606 -597.842712 -286.516266
774.384949 -566.949951 -281.533630
850.392517 -373.438599 -285.436981
807.078003 -510.706055 -278.190887
676.641052 -523.105225 -330.702576
554.922974 -490.349121 -394.947632
532.271484 -476.454407 -417.570923
678.251343 -536.221985 -326.196350
635.816772 -597.652161 -352.224335
502.340942 -604.567139 -410.383392
570.953918 -558.166626 -392.276581
688.244324 -510.962463 -331.228790
643.092041 -466.983582 -379.395172
632.178833 -657.917480 -318.713257
734.140320 -713.858398 -188.713364
713.016235 -521.176575 -312.020355
811.497192 -382.851257 -307.860840
722.186523 -416.226166 -324.382690
554.261169 -499.072571 -401.831512
781.165466 -569.904297 -272.101257
784.656921 -697.635254 -242.630615
778.243164 -549.286743 -284.937592
618.930359 -640.543457 -343.041687
800.934814 -598.359497 -227.865005
697.931458 -697.668518 -274.257843
722.633728 -691.688904 -286.432312
567.758606 -407.837158 -417.712311
710.644592 -624.822327 -280.969177
560.347595 -464.602112 -397.447998
899.622559 -474.767578 -231.192764
655.245789 -718.253906 -291.941742
540.032959 -494.482910 -410.410583
626.426147 -635.423584 -327.643707
618.060059 -502.539032 -380.097565
672.814880 -590.011292 -319.939850
745.404358 -549.987671 -283.515411
700.911194 -706.796021 -188.059250
753.405151 -706.054199 -242.230728
563.726685 -425.109253 -419.521240
864.924194 -493.269745 -218.275345
517.280579 -424.930481 -443.084106
682.601379 -538.612000 -336.399780
540.663330 -572.619690 -395.258911
913.063904 -396.880676 -230.990814
549.693604 -584.478516 -400.209839
842.045288 -446.323730 -254.703171
522.146790 -523.039185 -418.844757
627.476013 -728.155151 -310.523865
879.971680 -385.918671 -226.919617
689.128601 -723.686218 -228.502716
756.322571 -493.813477 -301.778381
634.509094 -586.396301 -355.942322
682.147827 -646.080872 -309.352051
756.634216 -450.654480 -306.598175
591.474670 -523.652954 -395.754028
722.347656 -511.231995 -314.154388
753.384705 -691.430298 -251.261337
877.508972 -431.602264 -236.278244
831.980530 -488.139343 -255.106949
924.844360 -528.173767 -199.050476
851.049316 -409.127838 -266.400360
894.259399 -447.139252 -242.562454
562.533081 -506.609619 -397.739532
794.235718 -426.801422 -298.584534
570.213684 -526.941589 -393.700256
770.775330 -512.798523 -289.856506
902.620483 -508.790466 -218.638870
587.657776 -659.297546 -352.523621
697.012024 -720.256836 -208.446289
802.461182 -420.939972 -287.143555
834.844238 -498.500000 -262.421967
608.441711 -502.502441 -373.822815
855.745911 -387.381165 -266.928009
753.372192 -552.228333 -296.898834
916.103638 -427.280090 -232.825760
637.485779 -569.770203 -338.629913
719.623352 -507.100006 -314.817505
518.149475 -625.368469 -408.779907
697.868652 -408.994781 -350.494568
789.253540 -711.960571 -205.948227
903.318909 -411.082062 -246.915909
923.300293 -498.228577 -206.718674
837.169678 -527.083008 -246.611130
732.276245 -709.474243 -267.194702
769.017517 -668.051208 -264.939301
776.785767 -693.031433 -236.023605
785.711121 -444.375793 -295.629181
491.743805 -499.103638 -457.667267
572.262207 -465.435242 -405.325470
778.691223 -493.012695 -298.624359
622.361206 -612.194885 -350.425507
492.729248 -597.817078 -426.506287
590.014221 -424.510834 -426.300323
539.983459 -614.897034 -389.824005
843.081177 -498.803162 -251.339645
891.852112 -378.789917 -247.712402
863.647827 -438.896973 -256.473022
862.453491 -386.351440 -266.157471
825.182373 -388.724609 -298.158112
843.576782 -560.057983 -244.121811
730.758545 -444.862885 -338.393463
807.611694 -393.261353 -296.894440
860.900757 -434.065216 -250.955414
638.576477 -736.419006 -322.854553
875.110229 -355.841797 -272.276001
554.479004 -546.951416 -378.878265
933.159241 -687.927185 -213.535339
552.815063 -415.663361 -425.948914
822.277100 -502.308319 -266.969666
507.239014 -678.581116 -392.541382
706.024231 -659.965820 -279.335724
731.195740 -445.120392 -326.156342
688.636719 -432.381287 -348.834747
926.242004 -611.081604 -184.879089
762.901489 -395.694946 -324.729401
723.702942 -399.628296 -340.980988
814.828186 -659.029785 -235.294647
738.027466 -580.686035 -289.592072
532.046509 -461.625488 -427.256042
636.224060 -485.948608 -342.278107
795.897400 -513.544373 -268.312164
497.526031 -537.573425 -424.141541
567.618713 -421.233978 -406.390900
676.331543 -613.480896 -304.061554
671.620972 -513.764709 -336.284943
840.015015 -510.556976 -249.981949
638.894714 -732.756958 -269.317291
841.624207 -525.109497 -245.031219
918.844604 -359.468323 -248.530685
883.472839 -630.948669 -200.135635
495.080109 -688.218445 -376.470367
737.749207 -504.895355 -305.374329
746.674988 -565.538513 -286.277344
837.238159 -371.385742 -275.167206
522.110046 -692.725647 -378.692841
771.476624 -626.913208 -256.147369
527.328552 -494.421356 -436.904602
658.088013 -735.154114 -275.203430
623.673462 -416.289063 -381.208496
802.487854 -559.420166 -255.612640
726.302856 -422.179413 -343.182007
739.335022 -696.580627 -246.129135
659.124817 -494.930237 -346.084869
751.986450 -513.863464 -294.986145
569.098450 -734.911499 -379.306854
897.759460 -608.460632 -192.901123
526.578247 -568.836670 -409.711731
679.703979 -436.432495 -340.285034
569.057800 -520.519287 -390.236267
777.601074 -482.483826 -266.766357
645.943604 -732.533569 -304.514343
911.564880 -396.582581 -233.339920
560.865967 -631.351624 -379.227142
624.227173 -563.946045 -351.348450
780.231384 -697.869995 -188.726746
670.619019 -720.237976 -208.586090
923.344727 -541.018616 -202.705963
574.067810 -541.026733 -382.061462
656.209534 -509.832520 -348.173798
830.575745 -406.054993 -286.427368
909.727905 -454.747681 -226.167053
808.323853 -447.797577 -283.207977
697.680725 -497.386475 -330.479706
890.928406 -672.018799 -179.611206
664.033264 -485.873230 -350.164917
575.494263 -558.252930 -390.736938
542.198975 -441.601318 -407.476318
719.356689 -433.342834 -331.898560
645.611389 -714.937317 -209.854370
740.618835 -626.173706 -283.019348
746.237305 -556.062805 -293.416046
598.321533 -513.653992 -364.394012
671.719360 -723.848145 -222.680664
652.671082 -501.961945 -349.332916
682.205261 -594.744568 -313.592773
689.570557 -708.087158 -202.387955
731.693298 -712.350708 -195.507065
734.026794 -714.670044 -210.022644
807.667786 -513.750610 -271.527466
816.490417 -702.457703 -242.177551
868.733032 -681.208008 -216.865936
675.758179 -702.436340 -289.107452
610.217896 -426.771027 -394.571289
702.665039 -728.314331 -224.726944
480.782440 -682.506836 -421.780121
547.155334 -525.954956 -410.276031
895.738586 -474.772003 -213.875916
919.215515 -526.051819 -200.378571
850.570129 -697.834045 -207.260483
781.379272 -492.900757 -291.961700
871.675964 -556.010254 -222.806671
878.257263 -476.886261 -210.733490
769.548218 -447.858612 -296.238312
697.481079 -440.257507 -345.407440
698.104858 -495.357819 -323.815125
613.889160 -517.452576 -384.541687
766.227722 -374.320679 -324.668121
677.095032 -698.405884 -292.464050
860.189758 -429.758667 -235.274063
666.852173 -511.290710 -354.017212
880.960083 -403.618317 -231.406174
820.682007 -471.454102 -270.563141
792.756226 -523.303589 -245.321014
832.009033 -404.538483 -267.441925
806.651001 -409.967285 -269.892487
726.869934 -527.186707 -314.987183
731.030029 -445.246918 -318.278320
644.543579 -725.774048 -294.216187
677.858337 -458.656830 -336.927155
908.616211 -575.325684 -203.995132
934.953735 -459.110535 -215.555328
924.165955 -490.875427 -210.374756
672.914734 -693.695984 -289.996857
720.382996 -434.999023 -329.195313
654.522217 -393.723724 -377.365814
708.587830 -720.411377 -234.593307
882.707581 -486.731781 -226.970520
842.926697 -658.799011 -211.377945
799.541016 -402.948517 -299.550140
682.430420 -607.956726 -319.843933
597.138245 -471.742798 -393.114777
555.411926 -668.115173 -374.576904
568.700623 -450.464203 -385.943451
659.771912 -636.583008 -316.394531
884.053955 -588.790344 -207.968155
808.581421 -549.456543 -263.199707
791.009216 -704.526001 -190.613419
691.147949 -401.389191 -365.187653
673.948669 -462.426941 -351.048065
556.304382 -645.714783 -348.207703
708.339844 -708.494751 -280.910706
904.631653 -529.417358 -215.653122
662.096375 -470.509216 -351.178650
910.757141 -602.342163 -186.578857
597.367126 -460.942078 -386.535980
686.822144 -665.241577 -303.055450
757.838440 -683.083862 -274.132843
655.655701 -576.210693 -331.132935
717.874878 -698.483276 -300.750153
720.998047 -426.129395 -328.003632
829.104919 -589.543823 -230.284012
663.877502 -469.058838 -366.139954
579.582764 -509.081451 -405.986755
869.575439 -391.278992 -232.438583
612.382080 -514.528137 -359.935364
774.814758 -676.106995 -248.381531
853.940063 -401.525543 -271.712952
652.874023 -547.405701 -355.691315
700.405823 -715.000244 -260.392578
571.315002 -430.694916 -407.709900
600.079468 -481.728790 -399.835083
794.047974 -415.818878 -288.236572
684.948364 -639.960999 -308.457642
737.226318 -387.455841 -331.008118
713.386292 -608.835449 -288.014862
490.197723 -574.508667 -433.713379
665.813965 -731.895752 -268.090149
778.102173 -379.795502 -312.455902
893.671082 -522.072998 -209.706192
759.192932 -536.662537 -290.830841
818.895264 -377.303223 -294.186676
673.721008 -568.148254 -322.433411
814.967834 -376.933594 -307.188416
786.730103 -565.674683 -269.977295
756.531372 -403.837585 -299.600861
683.378235 -556.460205 -322.455505
499.155182 -650.244751 -393.377228
860.080078 -374.068024 -249.718277
516.500122 -636.000549 -408.698944
883.033630 -360.593597 -243.455795
728.807373 -579.154175 -293.070496
656.734619 -409.950439 -367.334686
682.143677 -611.099243 -303.940033
559.286987 -628.658813 -370.479340
740.666321 -461.397919 -306.927032
631.833618 -388.886780 -399.454865
761.044556 -629.908203 -270.767578
668.146179 -723.128052 -307.459839
580.013062 -414.348267 -414.682251
749.395203 -565.675964 -292.070190
610.268066 -435.080322 -380.321289
701.186951 -601.105530 -297.458466
518.753723 -504.802795 -438.665222
777.227051 -698.702026 -176.593353
779.341431 -470.859680 -289.037445
734.878357 -610.916626 -277.327484
500.054108 -590.856873 -432.888336
654.265503 -568.215942 -316.888123
500.515015 -664.951843 -378.607574
693.697266 -610.239502 -312.168610
698.382507 -553.677856 -293.542694
693.249268 -492.072205 -322.787384
782.659912 -597.891602 -237.851288
725.675903 -706.879761 -192.806198
830.663391 -545.075928 -250.056763
768.398926 -647.263733 -250.603546
708.451233 -724.866699 -234.647842
663.793823 -721.346313 -276.276245
900.473877 -417.689423 -247.102356
897.773560 -481.714813 -227.554901
925.968689 -556.846680 -196.719879
728.405579 -633.317200 -277.597382
822.797913 -472.621918 -260.653534
906.275146 -356.816925 -256.094269
890.920959 -422.595978 -243.265060
759.634583 -405.453400 -315.106873
789.820190 -548.986267 -273.842834
834.726685 -507.739441 -247.999695
838.368347 -455.436646 -272.361725
697.115295 -419.232239 -345.634857
644.993225 -482.933899 -375.178741
778.306885 -705.430603 -236.482727
562.433105 -565.074707 -389.689667
583.044739 -598.119446 -361.132385
639.899048 -496.992767 -361.350861
713.618835 -454.291351 -345.142334
677.561951 -627.644226 -294.452911
907.388794 -385.056458 -231.391327
744.744202 -489.519714 -308.848969
924.593262 -340.383331 -244.145416
796.961304 -717.141235 -225.879379
837.469788 -590.834595 -241.473129
527.236511 -499.572876 -435.870239
851.386658 -527.660156 -248.457428
844.599243 -680.998047 -247.818512
777.951782 -431.769287 -280.296570
573.339966 -558.348145 -377.040710
815.884583 -514.947205 -258.208801
683.551941 -543.652832 -334.501495
805.210022 -409.681824 -287.156921
703.638000 -442.355988 -340.719330
718.902588 -399.084259 -338.972961
894.615295 -363.644257 -259.513031
706.816284 -700.278442 -287.575775
812.415588 -589.145752 -237.787445
652.171448 -511.502594 -359.728058
570.382263 -608.745850 -380.359009
762.559692 -686.048950 -273.722168
672.669739 -485.440125 -345.540863
867.928223 -379.570374 -262.281799
817.556030 -427.940155 -271.929932
517.807190 -733.012024 -407.681427
699.497559 -590.682129 -301.117004
591.104187 -606.526001 -369.206604
595.509460 -455.906403 -407.237579
614.667297 -445.467529 -398.711578
700.954529 -697.161682 -261.924011
758.578064 -467.153717 -296.779846
864.902100 -463.163940 -252.303085
745.196289 -380.897125 -334.690796
753.249695 -703.595581 -246.218597
721.290161 -690.329102 -256.327942
715.759338 -702.964539 -266.597412
923.700012 -413.584808 -230.901993
798.904053 -591.479675 -256.561890
563.708740 -451.969025 -410.571808
802.530212 -661.257690 -254.116776
719.180786 -612.384338 -284.658447
509.972900 -444.466949 -457.482666
889.459290 -580.241577 -201.082184
572.873169 -536.274963 -383.747223
911.982849 -369.691620 -250.613586
794.780151 -399.847046 -306.439819
515.914307 -602.293579 -418.256256
936.947632 -493.746216 -198.037216
709.168945 -497.949158 -313.826111
692.375183 -403.524078 -340.641541
723.600708 -478.007111 -317.168335
723.710449 -719.105896 -237.322235
544.712952 -437.732361 -400.148651
663.341248 -568.860107 -331.034576
787.456482 -498.029907 -278.336151
808.410278 -462.732269 -248.683731
673.673645 -642.589661 -292.094330
947.873596 -661.064697 -193.873123
510.335663 -504.720459 -435.471924
806.523010 -446.653900 -284.835663
878.957458 -423.853302 -252.230743
884.702515 -599.144348 -202.411011
600.026611 -669.124634 -325.811096
598.496216 -689.962402 -342.155304
870.841064 -568.552673 -192.478302
851.951355 -434.855530 -261.199799
765.964233 -624.093689 -247.750214
543.440613 -511.076233 -416.287811
660.704712 -619.903076 -308.975098
899.954407 -409.571808 -230.189957
830.812561 -431.897278 -283.132019
785.534180 -419.711884 -313.429413
681.833435 -532.707642 -325.276001
781.733948 -486.717102 -284.187317
614.754456 -717.132080 -250.061279
552.031921 -454.634277 -430.389526
744.154358 -493.412872 -304.844879
880.553589 -357.904144 -251.279617
731.243591 -705.441833 -278.527313
903.870605 -466.434784 -195.031860
624.619202 -476.899200 -363.254822
550.880310 -513.960999 -421.871552
874.740112 -555.317078 -220.910355
896.480652 -651.597717 -207.752151
842.449280 -357.839020 -290.560028
764.551880 -575.954224 -280.196747
712.054382 -443.249237 -330.976105
841.371643 -505.772797 -257.797455
693.063599 -391.095947 -340.461731
504.164551 -551.708130 -438.806000
937.844543 -400.636047 -208.573029
793.335754 -395.944885 -292.292969
609.695374 -590.576050 -361.210754
755.680298 -467.172302 -298.404114
855.103088 -407.265503 -264.569733
916.743896 -490.519653 -209.597946
880.216248 -352.152618 -260.760651
631.945313 -736.423523 -274.662598
594.077759 -455.624084 -411.590637
520.135559 -702.600525 -394.881989
899.296692 -554.057983 -216.698471
920.080872 -683.808289 -215.600800
557.975769 -462.796021 -428.471619
718.326843 -425.445221 -307.704376
798.143005 -385.424286 -296.698151
907.370850 -385.165131 -227.140335
754.933960 -489.180206 -294.468231
648.412109 -412.069641 -373.536896
835.535767 -610.034485 -218.985291
918.605530 -596.854858 -187.331451
680.963257 -426.564453 -335.625885
832.642090 -463.293060 -271.607239
847.103271 -489.367218 -261.700470
529.416138 -632.720825 -384.648895
547.672241 -524.853699 -408.011902
609.204712 -718.977966 -314.996918
920.563843 -557.259766 -192.054123
754.494263 -457.657684 -311.118164
628.384094 -618.580994 -332.748444
789.811890 -681.445984 -243.638550
729.587585 -479.749603 -327.355194
834.196716 -388.207916 -279.888855
908.437683 -592.112183 -192.375031
574.464844 -593.782410 -386.745911
632.703003 -482.784271 -344.268280
791.786072 -593.870850 -263.558441
622.114929 -736.492065 -362.807190
538.879333 -603.499023 -399.858002
723.867432 -381.427917 -329.522125
795.679077 -627.806091 -252.280823
749.259644 -565.874268 -297.601624
656.558289 -414.865814 -383.677734
555.676270 -666.143188 -375.064941
732.945007 -414.301727 -323.572205
669.352844 -649.101868 -290.829742
705.459717 -677.441956 -293.004059
564.290100 -589.657593 -374.480072
586.920105 -426.216705 -405.153290
822.103699 -516.188232 -230.530304
810.971863 -660.379211 -244.214935
825.917419 -369.682587 -292.092865
867.087891 -382.465393 -253.405289
529.858276 -640.804138 -398.889740
