ply
format ascii 1.0
element vertex 1368
property float x
property float y
property float z
end_header
-795.265625 -278.500946 438.399872
-746.612244 -278.599091 465.099152
-669.606262 -314.367371 491.450317
-688.892212 -257.959778 551.527588
-870.527466 -171.949677 501.671326
-773.757019 -314.230835 365.372009
-752.385864 -220.253830 593.028870
-574.885559 -305.223175 596.606812
-680.619934 -274.233032 562.629578
-686.177002 -133.996155 784.292908
-657.090210 -200.229233 715.501831
-592.199646 -337.330902 486.269562
-876.255615 -188.062225 508.063324
-779.502136 -144.236572 727.483887
-803.441467 -246.589920 457.598389
-681.952637 -192.960632 713.562988
-561.482544 -237.208221 733.240417
-601.430786 -190.044876 787.858826
-566.676636 -210.785645 750.036316
-632.512268 -305.985992 511.007965
-725.085449 -337.400146 350.393738
-624.694885 -278.141724 581.637024
-666.764343 -179.673492 752.516296
-622.469727 -183.839233 785.986572
-700.970459 -323.789368 386.984894
-795.574890 -109.092010 757.785583
-718.849548 -314.648315 441.690979
-768.752258 -308.912415 383.331665
-785.737793 -162.986603 684.256531
-593.977722 -285.103058 588.805847
-572.747620 -194.137085 808.668762
-674.405945 -158.329697 766.337402
-613.252625 -180.091232 756.684143
-707.313782 -271.566650 507.997345
-632.295593 -251.494217 652.118958
-669.827759 -334.347473 459.589813
-754.502075 -127.655502 775.309265
-864.071960 -208.947784 536.007446
-761.905212 -248.880661 527.984070
-897.954102 -138.917664 714.453247
-879.077820 -138.827194 593.451172
-815.526733 -104.533669 801.865906
-679.330078 -168.761993 703.880066
-617.984680 -149.460068 779.660095
-643.557068 -312.559448 514.445068
-871.979248 -156.516006 606.356995
-706.610535 -139.469498 796.704834
-872.906982 -136.909058 717.250610
-871.161011 -218.273773 476.484283
-613.802185 -172.291061 775.706787
-702.305237 -251.984039 580.248169
-571.800781 -211.283981 753.153809
-887.574280 -290.001556 427.646484
-857.767944 -289.116180 414.551544
-692.660889 -303.078430 496.784760
-668.725098 -279.326416 543.451965
-779.464417 -246.190933 465.860809
-579.852539 -288.248718 623.378601
-810.683350 -171.176773 604.226807
-687.831360 -175.869049 753.302979
-722.942383 -144.296066 713.180664
-569.848572 -289.977173 612.740417
-556.266968 -374.485352 458.682739
-872.287170 -175.012985 589.347961
-746.168945 -208.575378 603.814514
-827.914246 -238.856552 490.035004
-816.158630 -209.083237 539.302795
-878.006287 -128.824097 608.213135
-735.384338 -304.733978 428.236328
-775.905884 -143.374054 717.123230
-597.492310 -380.143280 376.086487
-587.590759 -260.453247 661.186890
-740.409302 -237.734406 541.281860
-872.616516 -156.167313 639.219727
-602.825684 -352.756531 420.412598
-833.684265 -220.867783 519.692139
-899.094727 -166.759384 676.597168
-720.842041 -148.496613 764.630127
-614.857239 -243.913864 603.858582
-873.930237 -205.570877 482.028107
-873.142944 -215.259613 519.508789
-844.566162 -156.541229 638.475342
-668.752869 -156.314407 784.931763
-877.736023 -114.382248 762.552734
-579.947510 -401.210632 427.274780
-746.106018 -247.858200 544.862732
-605.876343 -328.149963 526.768372
-762.995972 -189.220245 587.420776
-874.193909 -158.486801 589.621216
-665.277893 -302.286591 486.460419
-587.386169 -208.076874 740.344116
-554.476074 -372.112152 460.576111
-843.773987 -189.499725 593.648132
-871.540527 -168.427750 485.295532
-747.705750 -318.464355 380.885376
-875.163147 -167.461182 608.199646
-755.765198 -288.333252 466.992584
-804.762390 -278.672821 427.647949
-893.194397 -146.156906 704.324280
-665.857544 -292.125732 472.935028
-646.799377 -190.843262 729.115601
-789.640137 -117.792122 762.249817
-658.155212 -272.429932 564.783691
-882.230713 -141.919189 506.502808
-736.971558 -241.711136 566.993225
-563.179688 -323.068024 545.382385
-689.501709 -293.359802 481.308075
-652.304443 -242.070450 652.256897
-783.938599 -275.702759 447.920837
-864.266846 -210.642227 461.027374
-784.155640 -168.598373 667.107483
-547.491150 -256.994904 670.914917
-773.365417 -279.879730 438.975555
-823.990845 -287.760742 394.046051
-719.284912 -131.126022 802.832214
-646.210449 -384.711243 368.204987
-717.422852 -286.287170 495.290344
-883.602173 -148.558044 545.223328
-750.808167 -342.303406 355.585266
-612.172119 -205.101410 757.546387
-829.531433 -208.395157 507.397095
-758.235657 -151.895172 665.553833
-629.196960 -244.696793 649.712097
-816.789185 -268.098389 447.679688
-574.040466 -210.534454 766.093323
-639.006653 -319.679840 514.282227
-654.901123 -323.940704 433.773438
-584.744934 -245.017319 691.626282
-769.897644 -236.080536 523.907532
-702.704163 -146.337646 787.946045
-724.977722 -262.346436 507.971375
-803.023010 -110.578178 753.945190
-556.581543 -329.483459 508.777374
-718.099426 -200.024445 676.365356
-693.456909 -280.393555 532.252319
-723.709900 -198.629181 645.489441
-801.395447 -189.552826 583.089355
-724.722656 -303.774658 423.044128
-877.957764 -108.718681 743.426453
-757.158386 -281.437622 449.226929
-556.610840 -378.853424 466.097809
-699.933533 -133.185913 812.970520
-636.938416 -291.579132 574.358032
-844.155029 -123.573242 707.316162
-591.107483 -352.823608 433.071442
-563.968079 -220.297379 716.312195
-803.021851 -156.343277 681.352905
-593.437622 -184.785477 812.869446
-562.262695 -402.623810 372.961670
-708.777100 -268.671021 551.660278
-762.165100 -180.278397 644.786194
-877.059265 -135.119308 613.246521
-846.359924 -217.795181 525.013611
-827.141296 -165.316269 621.426086
-628.197815 -268.642975 598.765625
-863.822388 -196.228760 537.745483
-679.444153 -204.632294 674.354187
-657.797852 -187.021683 757.812439
-735.856689 -196.642273 655.986023
-816.469604 -91.722374 749.398743
-606.551270 -293.294403 601.110596
-882.434509 -163.569916 494.490692
-688.241150 -270.223022 512.065918
-741.460571 -242.722397 525.116150
-743.843079 -286.581726 441.034271
-645.150696 -307.769379 478.358765
-566.731079 -426.472046 392.933228
-682.923035 -331.905945 443.584167
-602.558838 -397.907013 389.224945
-746.319275 -185.750610 648.290283
-670.685242 -228.807465 658.953674
-707.086304 -191.066513 693.719360
-790.763245 -264.622192 405.473145
-782.831421 -243.644424 517.927795
-876.939758 -224.641556 447.715424
-716.441345 -148.921967 771.991577
-791.731079 -164.186310 674.041748
-691.436829 -180.793350 719.552429
-565.857666 -191.935410 827.634277
-849.293457 -241.192368 433.246277
-774.218079 -189.819000 604.636963
-801.199646 -286.003479 425.036774
-744.481079 -266.928741 459.414185
-620.893799 -204.448700 725.362000
-672.025940 -336.628723 444.715088
-565.933289 -234.949997 717.360168
-779.435913 -100.306244 794.774597
-805.006287 -209.316437 577.292480
-649.824524 -254.967468 630.270569
-655.753113 -266.241699 537.903564
-617.133179 -186.553482 753.920715
-599.609375 -240.745056 674.893982
-719.754089 -234.926315 597.803711
-632.382263 -334.894073 432.179443
-573.847961 -337.187225 478.968170
-717.043335 -226.840378 615.664246
-719.427490 -286.951538 497.960510
-684.563110 -321.136536 463.629944
-687.762390 -313.703522 423.086670
-874.858276 -167.041946 655.959656
-647.147827 -175.204407 788.708374
-608.579285 -364.059601 423.319580
-712.731445 -191.789368 686.205627
-868.592468 -154.734955 538.598450
-875.461731 -158.866577 560.510315
-676.901672 -205.626083 675.123352
-713.811890 -301.541718 470.091492
-626.680786 -340.240021 446.757538
-574.140320 -231.323761 695.758057
-606.316101 -360.541260 384.330048
-656.388977 -164.910583 789.560852
-625.787170 -338.873535 454.071442
-875.253540 -184.385010 526.001953
-611.775513 -352.932098 441.470978
-831.714355 -273.957123 425.636169
-654.399292 -155.048996 792.839966
-603.741699 -178.863190 771.855469
-657.522827 -285.613129 527.099548
-584.021851 -295.764893 610.659424
-897.132202 -138.485672 657.898438
-598.361572 -185.927338 782.930176
-708.514526 -192.830780 675.450928
-823.083008 -186.918549 565.340881
-782.989685 -100.838654 763.203003
-871.362549 -178.537460 545.839172
-858.998413 -145.444168 513.057373
-744.980835 -158.361465 721.992920
-583.199097 -367.778534 470.642609
-575.420654 -345.487823 486.228912
-723.442383 -174.631882 697.977783
-870.301331 -138.184082 496.048798
-755.226196 -129.732773 776.358643
-592.982727 -322.227417 500.906464
-587.905457 -178.782684 789.112183
-686.236084 -312.148590 445.393127
-609.698181 -276.578461 594.166748
-616.000122 -355.849884 461.632477
-772.685486 -175.285202 642.831787
-799.806702 -114.809853 781.363586
-576.068359 -309.499908 588.679993
-590.861755 -335.242493 501.694244
-866.066162 -190.663773 454.482422
-599.052368 -194.783295 791.269653
-688.749573 -190.266083 699.202515
-875.545715 -222.576950 478.904541
-641.008789 -370.289886 416.239166
-721.610962 -330.785461 369.014313
-857.934448 -180.263916 587.389954
-827.016724 -169.742340 622.349731
-762.454468 -230.950836 535.180725
-716.447021 -159.819122 711.356873
-897.962036 -145.061539 665.305603
-754.155151 -274.128174 459.573730
-703.758240 -253.540024 558.286987
-608.476074 -353.388489 449.226593
-614.209778 -253.822983 601.479553
-644.498169 -331.988922 449.343536
-895.686890 -134.600723 716.177490
-627.255432 -209.346481 719.443542
-602.238953 -377.656891 438.272095
-566.899170 -230.249908 715.634949
-849.232544 -90.110466 540.746277
-575.242615 -216.656296 759.583252
-783.470825 -286.746429 404.821320
-882.034607 -266.026398 446.425385
-594.180176 -214.007065 709.623047
-869.071899 -182.171173 583.888184
-881.166016 -162.848495 506.668915
-691.128235 -160.733185 767.252563
-718.044800 -147.339996 742.804749
-641.289490 -275.398285 596.788086
-880.662659 -227.166260 457.362854
-884.501648 -149.988937 616.301697
-592.260132 -197.550354 787.995605
-786.076416 -175.365677 637.302063
-624.915283 -367.986298 401.755920
-818.466003 -256.025696 452.130402
-655.208069 -305.473389 529.092041
-715.854126 -281.682556 479.528717
-761.459351 -133.416061 747.073181
-714.361816 -295.672180 453.632538
-737.032898 -222.647186 573.922607
-685.248047 -292.031281 487.398468
-689.837463 -248.497162 569.216919
-561.879395 -196.659515 794.015381
-565.518860 -380.609100 427.680725
-587.958862 -299.480499 608.316650
-686.470032 -333.203339 436.696045
-611.801819 -341.620789 409.870911
-873.903015 -125.841599 569.149353
-616.310730 -162.777878 781.178223
-846.832336 -158.652374 633.164490
-758.305847 -210.446411 618.210938
-655.933838 -163.812134 797.271667
-731.576050 -275.418579 434.829285
-700.566833 -327.818054 400.217072
-663.839966 -181.466934 692.987976
-873.912354 -189.231644 528.915527
-834.954773 -191.975403 580.202637
-762.153259 -241.809189 479.578125
-571.139343 -414.598572 380.853638
-822.608337 -97.087822 757.760193
-677.909546 -244.303116 595.368896
-874.530334 -139.285172 701.675720
-768.640625 -298.172577 391.662415
-782.854675 -171.019073 656.070923
-701.477173 -123.413605 775.480957
-654.830017 -185.229431 734.636536
-755.919617 -143.119354 739.505127
-648.670044 -170.857635 716.325745
-668.712280 -293.720886 537.435242
-695.177368 -241.386017 610.472778
-719.778625 -182.654755 701.068726
-778.702698 -286.594696 410.718842
-567.092346 -374.439087 452.987366
-590.363403 -379.125427 383.759705
-715.580078 -208.131927 653.630920
-799.757751 -238.647537 471.520142
-796.452209 -278.781982 429.487427
-654.921509 -205.268936 700.369385
-873.386963 -258.754181 462.782623
-589.229431 -359.222443 438.956482
-694.788574 -294.560638 514.060120
-805.979187 -236.428345 478.061707
-668.384155 -323.226379 443.322815
-580.687256 -364.983124 485.106415
-729.442871 -184.465958 667.824829
-668.408630 -164.550079 777.180298
-591.895264 -381.355072 377.130493
-700.007813 -174.824539 715.528931
-865.114136 -141.475830 609.400208
-767.200378 -162.192642 656.421936
-772.770386 -232.095886 521.482422
-582.197876 -263.950134 588.749390
-702.912415 -318.124298 422.289917
-650.460510 -220.172455 687.079163
-834.770142 -94.784195 816.789551
-659.118530 -320.170105 457.085144
-604.332092 -323.954865 536.581238
-762.597168 -199.661560 633.757996
-592.418701 -239.708252 697.872192
-577.345032 -300.189240 613.496765
-807.825439 -212.737900 555.135193
-691.332031 -321.831421 452.666656
-878.374939 -135.528809 627.432007
-677.159668 -293.904114 497.497559
-881.146912 -217.887878 488.336456
-823.541199 -194.490479 565.470154
-741.973633 -233.240387 579.185608
-795.314087 -146.296051 668.804016
-811.562317 -119.113174 712.287903
-782.626099 -180.843292 621.840393
-861.845276 -117.338127 545.702271
-682.259399 -322.407745 458.635040
-633.420959 -297.191895 528.023132
-883.093933 -119.610970 714.438477
-657.414001 -313.554901 475.091675
-560.217407 -208.626175 798.280884
-775.913147 -270.834900 409.637573
-612.705627 -200.024719 760.872375
-885.862915 -274.772980 426.444824
-863.541809 -166.033844 550.102173
-595.954346 -244.319870 670.476990
-701.088257 -173.141663 745.235901
-773.753235 -225.637711 574.033752
-617.270813 -240.569611 685.127380
-654.665894 -224.486710 658.515686
-561.588135 -311.797791 586.896362
-776.587524 -178.870377 648.631104
-791.781677 -105.799393 781.812744
-561.081787 -185.433151 806.415039
-800.309998 -128.246292 722.015808
-597.832581 -224.884491 732.189331
-705.811768 -155.500076 765.463196
-698.729492 -205.130661 644.842590
-586.654602 -338.108612 539.384094
-797.610840 -261.007050 459.187714
-634.444946 -317.560089 518.240967
-866.185364 -174.751572 573.866821
-567.523987 -258.502075 637.955627
-777.098816 -247.589554 518.791870
-777.951477 -222.028168 547.527222
-889.283875 -132.743088 654.157715
-702.034424 -217.125458 626.324402
-690.172058 -220.040466 597.276733
-630.826904 -292.120453 550.134888
-559.940491 -352.209045 483.608795
-690.219421 -287.051727 477.646820
-855.295776 -160.001068 561.278381
-658.737427 -149.671005 809.544006
-677.662842 -193.586807 709.599365
-874.139526 -164.239609 670.586304
-884.077820 -254.780365 449.799774
-636.385193 -209.691605 714.476501
-780.267334 -227.862518 525.397095
-870.581726 -186.881058 527.097717
-880.811584 -111.550034 751.187500
-629.212158 -371.267181 370.236542
-666.804138 -329.218353 459.809937
-838.283875 -250.475906 472.453705
-690.755005 -164.716049 771.494751
-823.815613 -93.680656 745.321167
-718.377625 -193.347473 677.857605
-575.614929 -340.026550 493.866943
-670.995300 -227.607773 639.332703
-878.334900 -156.140488 528.059814
-781.334167 -224.973358 522.967163
-685.450195 -146.236908 797.437012
-634.696716 -188.491180 768.445007
-597.294983 -369.370911 410.976624
-622.761841 -316.336090 500.634064
-811.454529 -254.834671 459.764099
-683.920715 -213.014191 659.425171
-598.206238 -227.902924 651.965454
-565.238403 -199.092712 790.303833
-697.612122 -187.921204 712.038269
-815.103333 -103.143234 758.480286
-559.755615 -277.569458 650.429443
-779.395142 -170.030319 649.835754
-874.566406 -162.727829 483.945129
-605.953430 -327.872040 489.976624
-734.889343 -259.216675 533.053528
-772.208923 -128.610977 752.450745
-700.390442 -195.955734 691.976685
-786.308533 -130.427399 699.761353
-571.335815 -191.810593 832.292969
-874.510010 -126.508324 600.048218
-684.567139 -186.910004 734.824646
-625.909241 -168.044785 818.896973
-600.904419 -201.381485 779.445984
-842.491516 -250.880325 480.308441
-802.960815 -129.815125 671.917480
-634.495728 -229.652618 668.767456
-667.974060 -209.393082 684.451355
-590.086121 -312.107025 560.960632
-605.132202 -311.402374 560.145691
-730.041748 -256.587341 543.277710
-719.155701 -195.167343 664.753662
-873.026062 -187.713089 485.631683
-886.477722 -229.017349 463.537933
-689.452332 -189.471161 656.517456
-670.897583 -157.277405 769.907166
-602.211670 -239.915146 686.814331
-676.709961 -304.936432 508.889740
-708.150330 -178.626129 726.261902
-572.445984 -196.194550 819.410889
-879.292053 -187.522552 602.994019
-782.988464 -224.285736 555.531372
-758.731323 -305.912933 387.448212
-634.832886 -145.609055 829.964050
-810.477417 -215.943924 530.003906
-700.314575 -209.469025 646.171692
-653.293823 -359.880432 385.718384
-768.885925 -302.376221 382.067322
-663.845459 -264.963379 548.671082
-712.420410 -269.623993 506.896179
-879.868835 -121.031281 622.985657
-644.158691 -151.761581 787.063660
-883.467651 -126.809677 565.972107
-657.010620 -181.658264 750.254272
-874.824463 -106.248329 584.002869
-712.484314 -316.615570 412.018066
-746.024536 -323.641357 365.724335
-666.413025 -310.450226 457.948090
-643.175781 -370.710571 370.515717
-877.833862 -282.758484 429.204651
-688.934021 -304.662109 459.526276
-631.902405 -327.455902 483.250214
-739.058105 -269.709503 521.020569
-569.789917 -366.495972 494.005310
-694.216064 -313.283936 439.526764
-794.972168 -282.543823 395.121643
-866.159058 -155.880035 593.109802
-761.837280 -105.668465 768.083130
-572.779907 -321.830078 536.449585
-552.183289 -320.787659 530.697205
-872.009521 -180.012314 490.824158
-905.318298 -138.138962 747.543335
-610.629578 -362.238281 411.535309
-825.090515 -179.669388 580.251099
-576.417664 -375.330872 432.133362
-633.811584 -206.398880 711.515686
-857.000244 -183.295837 582.736084
-646.167175 -362.182159 428.987061
-584.346191 -392.786896 419.031189
-528.174866 -343.435822 483.333710
-863.657654 -205.859695 540.487183
-624.109009 -247.118332 642.883972
-738.329834 -258.903595 535.225708
-800.978271 -148.011307 658.244324
-800.333862 -119.314095 732.337036
-558.103027 -304.381836 591.090942
-578.901978 -263.254791 667.153381
-804.648987 -268.842590 381.658051
-845.818054 -226.841156 520.782959
-649.100098 -282.495392 535.268127
-578.206787 -216.366196 763.179077
-840.386169 -191.170181 586.172424
-671.289795 -210.720016 671.635010
-766.537048 -93.620667 795.196777
-901.731079 -149.331802 736.380249
-693.135193 -238.346512 602.349182
-605.885498 -240.934738 701.829590
-763.450562 -276.852722 415.301117
-764.839539 -162.928955 673.381775
-793.572144 -283.310425 422.502625
-714.578308 -190.914612 663.827026
-616.307007 -291.609985 522.456787
-857.749084 -137.532318 474.830505
-576.763550 -324.208069 527.088928
-699.749268 -250.991531 566.648438
-573.291138 -333.330414 506.660370
-568.548096 -383.816040 398.877838
-624.291321 -211.047089 708.347534
-587.743469 -209.453613 751.200745
-767.785950 -125.874062 756.728577
-813.153137 -250.405426 473.090454
-578.950684 -348.673126 447.893097
-675.093323 -236.953094 625.741333
-658.338562 -170.788361 708.238464
-590.758972 -172.329086 807.096130
-646.305786 -228.324356 661.219543
-762.229370 -245.001205 490.713837
-867.832336 -208.556702 437.315887
-722.758179 -123.455620 820.995300
-788.368042 -286.978394 398.944916
-743.713501 -195.877655 633.271729
-648.115112 -329.837555 480.483978
-792.817383 -210.147949 538.726929
-696.826965 -200.069534 696.598816
-606.940186 -241.700516 682.607483
-713.549988 -153.256714 735.429382
-697.977905 -150.794525 783.562561
-654.443237 -269.092102 548.446899
-872.899841 -123.660133 541.782532
-608.327087 -226.475616 697.290344
-607.560425 -363.873871 453.359711
-722.057251 -293.132568 482.221680
-776.355103 -120.395554 771.338379
-600.134644 -229.485977 705.722107
-604.498962 -159.094940 808.246826
-789.279236 -233.314087 501.512878
-622.333069 -328.601990 489.562500
-633.064270 -194.003799 752.535889
-593.099304 -299.012878 592.528442
-859.954529 -139.659775 690.140015
-637.525940 -307.537537 516.299683
-689.247070 -243.523682 598.411377
-603.110962 -235.565399 712.779968
-606.855225 -268.532440 649.540039
-876.253906 -149.280426 515.654785
-639.041504 -343.515106 425.945679
-789.180481 -192.896835 589.359680
-625.059143 -254.483871 637.338318
-778.889038 -199.231125 574.301758
-567.703979 -300.791016 565.690430
-627.805481 -280.317078 574.070679
-569.901062 -183.106018 822.913879
-646.329773 -309.038086 496.028290
-750.605469 -175.240326 686.961487
-874.657898 -134.189056 590.340393
-855.545593 -131.672287 497.408600
-668.899841 -297.752197 526.256104
-850.942993 -203.136414 524.360535
-655.423096 -303.087402 472.219177
-668.874084 -368.421143 375.328094
-607.153564 -373.128784 417.261200
-795.139465 -207.801056 589.019043
-867.702148 -203.566895 470.094055
-859.168640 -119.628197 560.292603
-733.514832 -294.752594 435.565582
-868.043945 -123.047379 509.206726
-631.668213 -296.642975 496.944733
-731.264282 -227.583649 600.815918
-754.398560 -284.346100 431.939850
-675.197998 -261.948181 597.025330
-759.636414 -238.687546 512.313782
-858.445618 -181.495010 532.289429
-779.491028 -128.378860 741.404968
-771.461975 -245.772308 511.540924
-680.213501 -147.081863 788.587708
-578.532715 -264.943207 653.640076
-826.647034 -135.156174 707.502808
-724.507385 -257.143982 548.579102
-673.134583 -179.031677 746.187988
-861.064575 -111.121880 553.886841
-749.185242 -144.401794 757.909790
-626.762390 -259.726166 607.164978
-612.940308 -214.883972 663.127136
-698.648560 -183.197388 691.565125
-627.664063 -230.136780 687.127808
-667.170166 -195.847076 709.224365
-584.078857 -275.076019 619.049927
-742.958679 -256.981750 507.952759
-638.259705 -335.483459 478.295013
-788.601868 -228.722366 511.146790
-566.429932 -340.606018 537.797791
-669.190063 -128.613007 787.279236
-597.778870 -307.422546 553.530396
-780.282410 -286.519409 368.064117
-730.049194 -148.741913 728.814819
-742.257996 -208.188080 615.333740
-650.831055 -157.988434 804.925964
-664.459045 -203.727844 687.754028
-865.172974 -161.303375 599.838623
-577.494202 -348.852112 543.406128
-874.388489 -202.950867 488.891846
-580.536377 -271.720428 635.360229
-879.167847 -260.366760 465.681610
-760.330750 -119.150154 781.559387
-745.179688 -221.633392 560.205811
-873.886475 -178.730225 525.773193
-574.016785 -367.095581 447.680115
-662.052917 -174.988892 746.589233
-635.066467 -237.611969 660.552429
-570.050537 -333.908752 493.119141
-616.462830 -370.680603 439.806793
-608.678223 -311.363708 547.725952
-870.525879 -177.925842 493.878723
-805.906738 -271.565216 419.543915
-681.074097 -240.363113 603.867920
-644.315735 -327.647430 435.442657
-594.703064 -225.495331 675.214844
-621.233643 -238.844696 686.982178
-670.943176 -215.712692 608.552673
-744.993958 -135.212570 752.498535
-738.180542 -161.027191 736.438354
-659.240417 -259.412872 614.425415
-857.878235 -240.324310 502.343811
-677.606018 -285.123016 544.975098
-668.351501 -263.624512 530.915710
-773.487793 -204.108688 584.477051
-784.646240 -271.773987 426.337433
-581.936707 -272.833466 597.689514
-558.948914 -260.876770 658.462585
-869.222656 -162.158768 587.401245
-875.377686 -163.544586 512.892029
-600.548523 -216.074265 719.101807
-617.096130 -268.288513 600.307434
-626.252625 -335.850067 457.104553
-560.805969 -224.024628 749.602295
-598.794067 -226.115311 701.885132
-824.225464 -293.077820 385.090454
-875.706238 -119.644920 614.213867
-716.920105 -136.337982 794.019714
-744.709351 -143.078156 760.736145
-581.269104 -229.744141 711.321472
-701.123047 -316.864838 455.403595
-717.340942 -283.502167 432.510376
-624.774292 -212.203323 657.085815
-605.539856 -272.656952 623.784363
-585.794922 -343.979401 514.448669
-1162.091553 -225.522324 244.254837
-661.860107 -255.434952 592.795776
-679.926453 -181.623795 719.583496
-708.768250 -259.423279 541.575073
-706.499573 -213.312958 593.763367
-728.718506 -176.814102 687.624207
-676.159607 -169.866425 764.223389
-813.410034 -177.081070 612.784485
-719.044739 -188.211609 674.453003
-565.858582 -302.449127 595.812561
-572.144775 -365.679321 454.161774
-670.568604 -341.525604 423.695068
-687.602905 -270.678284 562.586426
-613.005737 -190.410370 787.585815
-862.860413 -183.697800 457.897217
-828.467041 -235.600021 491.558746
-843.443237 -281.091064 376.782318
-581.762878 -264.649902 639.842041
-754.714661 -266.631592 502.127899
-616.629822 -333.368774 450.490021
-631.799927 -266.235779 628.566711
-562.643188 -234.066071 740.370605
-665.265747 -274.777008 581.963745
-573.327148 -236.286819 702.363281
-878.663086 -111.777718 582.007629
-582.576172 -247.761917 713.039429
-833.035034 -205.807632 526.207031
-620.893005 -308.833710 524.035767
-781.251221 -210.127151 558.390320
-653.456482 -174.161911 780.527710
-746.500671 -184.659485 667.200623
-790.632507 -207.792374 577.897217
-719.139587 -258.111542 523.014771
-708.244629 -189.830948 675.511841
-873.164124 -186.619614 468.395721
-791.664185 -181.160522 616.171814
-590.324951 -392.606140 412.380005
-729.891724 -285.093109 458.475708
-751.150635 -200.802567 615.464172
-626.963562 -270.742096 600.792786
-556.207031 -414.758636 398.156616
-644.878601 -325.532257 413.169830
-571.297729 -339.845795 514.285828
-878.364929 -156.426071 516.812439
-886.578247 -163.971283 677.121094
-605.323059 -290.091248 572.951660
-875.209167 -162.661438 494.105804
-807.506836 -97.599274 794.287354
-729.358337 -193.922607 649.468506
-786.548706 -194.106552 577.560852
-602.288879 -267.510101 631.288513
-581.866943 -199.491241 778.368408
-717.560669 -203.774902 656.296082
-602.440613 -290.382416 602.423218
-615.430908 -261.312408 625.047546
-623.690735 -344.617615 390.579590
-611.583984 -170.345963 786.229065
-721.279114 -234.398483 595.917664
-663.775574 -214.744110 669.194031
-530.004517 -339.104980 489.693451
-566.738464 -362.182556 464.710968
-639.351563 -233.068237 664.392700
-861.763306 -157.786728 500.997253
-674.663208 -198.354980 720.889709
-664.883118 -283.793335 556.516846
-850.937683 -189.384933 591.231445
-728.702454 -303.635864 399.604858
-758.987000 -206.848434 621.825256
-681.603638 -283.225952 508.960510
-881.221252 -114.372604 592.104492
-673.245300 -140.927963 824.836426
-590.098145 -252.542435 660.962585
-660.643555 -301.859497 491.825958
-618.575317 -206.930267 748.583557
-633.282227 -350.621216 453.947845
-858.181702 -156.406921 679.044495
-674.091248 -308.699799 467.142548
-791.417603 -159.769333 656.985291
-726.755493 -187.591995 664.059143
-635.886169 -243.678085 637.152527
-864.070801 -178.312668 482.686310
-747.471924 -150.675430 697.354126
-789.088745 -210.877487 556.943481
-682.071533 -305.255157 465.496887
-661.371948 -271.703186 566.489380
-579.088013 -400.469086 380.520508
-865.864380 -136.736969 537.579529
-632.100830 -358.819275 398.632385
-794.511414 -165.328735 640.392456
-572.118225 -344.088104 495.394318
-866.307190 -207.940796 562.205811
-813.853333 -173.448792 600.999390
-712.082825 -240.123871 564.896667
-654.048950 -190.321289 691.104675
-666.337830 -248.743027 610.005554
-1177.070190 -77.646942 574.545105
-671.546265 -164.475586 775.160034
-578.048035 -287.491150 595.918030
-677.392578 -166.469254 763.495667
-653.729187 -273.966248 581.788025
-860.829346 -207.347885 532.820862
-580.973206 -193.914642 809.974731
-581.984802 -206.213486 777.405762
-863.959473 -169.213669 520.494141
-766.298340 -270.314453 452.418854
-857.296387 -309.687622 366.787933
-696.653564 -181.095261 717.415771
-622.452332 -172.166656 738.027954
-583.183899 -202.970276 786.324646
-807.150391 -247.845276 485.115753
-578.036560 -175.275574 798.959229
-629.652649 -380.517975 383.566284
-684.787048 -262.691559 574.833862
-644.455444 -304.927368 533.707947
-882.491211 -134.205368 630.097107
-627.364685 -243.937927 670.673279
-778.779175 -278.636261 418.949158
-683.609863 -372.451385 372.983398
-802.922302 -157.908813 654.688171
-645.909912 -168.136703 794.114014
-571.504456 -189.713242 816.882996
-865.631531 -168.082962 605.540588
-617.111816 -185.118195 780.944519
-632.542908 -384.655212 358.194397
-854.252258 -139.875732 471.923950
-660.725159 -356.803772 372.770599
-765.516418 -201.838730 614.585999
-678.281067 -145.652573 781.232544
-711.826843 -135.781998 794.578003
-657.986694 -319.399261 491.252472
-800.619019 -177.140137 623.671692
-656.265259 -201.710632 724.138062
-678.473511 -315.127411 449.261261
-803.595276 -141.376892 710.511963
-621.962891 -303.288086 532.617859
-610.300537 -267.487122 613.478027
-609.606079 -273.542145 612.611511
-865.979309 -191.368393 460.327209
-647.776672 -288.495941 558.005310
-709.849060 -329.628967 385.949036
-611.661499 -313.745148 549.718262
-891.958496 -130.760788 666.933350
-621.003296 -246.245010 657.714050
-779.406128 -286.177856 430.936249
-724.250122 -294.203613 446.854034
-859.941711 -149.028351 498.153046
-796.906067 -236.318298 486.093689
-600.079102 -372.880951 440.851898
-809.842102 -233.370499 508.286255
-672.986084 -310.435211 439.270233
-784.128540 -242.739929 491.564148
-579.315735 -281.481750 611.209106
-706.052979 -235.357834 579.849915
-774.130493 -241.987930 497.027374
-807.245178 -203.283340 570.655762
-812.308960 -278.441772 386.642426
-650.851013 -190.478760 736.899780
-661.725159 -200.970642 708.047546
-716.943665 -279.096222 494.603546
-758.194519 -201.376312 602.583435
-596.311890 -237.161819 683.228027
-696.303345 -289.311951 494.660858
-659.707886 -260.183289 574.779480
-752.614563 -199.528198 613.009521
-840.543457 -295.630066 389.746429
-882.176208 -116.089836 735.404480
-583.770325 -301.851624 609.136475
-620.364197 -337.540833 501.444275
-715.397766 -228.410416 556.092102
-577.711670 -348.661346 524.562317
-633.240112 -311.458862 536.667847
-568.086182 -251.164093 684.881348
-601.968628 -366.833466 423.724091
-615.553894 -236.990448 701.125183
-612.059143 -324.192352 498.041565
-707.164978 -250.332626 589.583069
-669.055176 -342.430511 436.118378
-766.610229 -146.987747 667.372986
-796.280212 -100.238792 780.343262
-858.892944 -190.132248 518.502136
-882.438782 -124.572845 754.952698
-723.394470 -121.911133 803.037903
-689.188293 -239.257065 620.379517
-812.224182 -275.713654 424.956055
-822.872681 -124.004845 705.703674
-793.184326 -235.070740 494.710114
-660.461609 -204.911865 721.100769
-653.863159 -355.587372 361.288483
-681.149597 -197.652435 690.069641
-723.652161 -220.980713 630.538757
-615.277771 -154.748871 817.455994
-621.525146 -182.421021 743.631775
-651.044678 -231.064377 651.414429
-621.612122 -206.985245 714.940369
-856.956970 -97.243233 536.889343
-558.548950 -376.232971 462.717102
-650.743652 -199.099579 718.861206
-615.209717 -174.770599 813.472717
-560.013855 -379.346497 440.205048
-684.784424 -132.248840 791.529602
-721.968445 -157.971268 736.275879
-869.550232 -213.057709 510.869202
-874.510986 -157.904877 504.115662
-818.761719 -141.495895 696.397217
-880.900330 -138.164825 536.061279
-643.912659 -324.264740 495.910217
-606.057251 -395.198547 402.178253
-757.777405 -156.883057 701.578857
-794.741028 -109.984520 776.600159
-605.552551 -384.501434 386.796631
-675.180237 -206.457001 693.275330
-626.459290 -211.734558 708.524292
-793.560547 -280.869446 427.003845
-831.616699 -290.232513 360.569336
-657.465149 -290.851990 529.528503
-712.418274 -314.296600 387.859314
-599.142090 -282.518494 628.289001
-574.779663 -262.600250 677.183228
-653.530334 -279.943573 548.087036
-597.439697 -421.360168 387.077576
-591.800354 -180.333435 768.832886
-681.060181 -234.561478 633.438110
-875.298828 -113.156944 726.225586
-636.769653 -236.138321 614.258118
-879.566589 -136.428665 622.978638
-700.021973 -339.848602 368.753845
-655.483887 -160.813858 794.565796
-622.668640 -275.651642 550.219421
-769.308289 -263.773346 496.593262
-865.682678 -170.541870 594.721863
-663.695923 -129.075714 787.672913
-640.206055 -336.541260 447.450470
-563.490601 -269.983307 683.783203
-566.101135 -190.542114 803.639282
-869.292725 -326.431610 342.539978
-718.406860 -176.882355 698.153687
-690.464233 -340.941956 428.601135
-583.770996 -281.794037 606.038757
-763.136353 -243.463196 495.567719
-699.497192 -212.301651 643.428955
-852.333801 -164.267410 631.164612
-861.511536 -164.019043 448.386810
-673.200867 -311.650757 441.946136
-702.554260 -268.686707 517.757935
-845.017761 -289.356506 370.251465
-630.717590 -198.247665 692.195740
-667.516663 -284.715851 531.893066
-633.185364 -267.416138 611.670471
-744.391418 -182.160599 685.464172
-582.090637 -223.509766 732.508789
-873.323792 -159.561600 479.819946
-882.368835 -117.217987 616.367432
-662.038452 -315.943726 463.481506
-871.056885 -176.082657 529.347839
-877.668640 -158.387253 616.556213
-743.928833 -132.603958 772.266724
-602.857178 -237.219910 704.863037
-660.716003 -234.175735 636.316223
-627.295715 -327.029938 488.592682
-792.398010 -124.895569 742.785522
-570.398743 -286.465729 608.440857
-614.793457 -342.176270 487.967163
-832.555969 -178.782974 610.165222
-767.848083 -235.400818 489.655273
-885.174255 -132.450943 707.039246
-606.081360 -274.747406 603.841492
-592.694336 -336.346954 523.113464
-770.157410 -264.786285 457.438904
-872.704834 -129.879730 700.760742
-858.613098 -163.725418 614.589355
-849.874573 -235.943146 449.132660
-654.630371 -173.119568 778.476257
-586.981812 -293.486969 554.886108
-576.636108 -254.770981 677.303955
-829.625671 -177.537674 572.562073
-784.660034 -240.356491 492.920227
-569.900879 -264.241730 681.190796
-680.039368 -196.102249 694.811035
-873.349792 -123.520493 571.809143
-759.724365 -225.866913 554.453613
-689.051392 -139.680161 810.407837
-859.471619 -157.955215 601.814636
-864.119446 -157.401566 563.393738
-869.714111 -146.191101 660.941284
-590.327515 -215.997009 740.699768
-667.006104 -209.974442 700.100403
-873.773499 -174.551987 510.288483
-860.078308 -166.693100 557.825989
-644.282288 -268.723999 585.089233
-564.838623 -330.554718 531.524719
-653.899658 -273.763550 554.006775
-718.528564 -223.486938 613.673645
-596.506775 -291.657928 589.489136
-605.980957 -326.027893 528.360962
-796.993835 -345.435181 322.791321
-684.833679 -192.211304 716.443054
-876.880371 -196.839554 514.435791
-625.438477 -276.294067 590.190552
-618.870117 -193.496490 779.689941
-599.424866 -228.077408 723.542786
-697.303833 -275.149841 521.154724
-664.935425 -149.984955 775.826904
-854.349121 -137.186707 476.301331
-751.346436 -130.898987 771.779541
-626.335632 -236.381149 663.887329
-808.226379 -207.106094 570.598694
-679.531982 -136.088730 799.390198
-865.293701 -201.896088 512.136658
-643.682739 -210.657471 684.190552
-838.515381 -306.648376 347.720123
-708.614075 -288.623322 475.410980
-556.984009 -374.907745 474.363922
-574.395996 -246.561890 664.809204
-859.166931 -129.308853 582.533264
-796.376648 -149.193970 697.344177
-700.221130 -251.945450 550.527161
-873.705933 -147.387680 600.876160
-830.095764 -294.935028 365.909821
-630.856934 -186.774796 770.230286
-657.083618 -203.588501 719.593079
-620.235291 -371.786377 399.039703
-761.321533 -266.478485 465.741028
-598.018127 -236.956924 712.831970
-707.840942 -178.894440 715.127380
-708.458862 -306.850525 437.820831
-629.517700 -334.196625 493.152496
-690.112854 -285.097504 502.844940
-689.988586 -324.444366 435.436951
-797.378906 -155.316849 681.798828
-879.197937 -136.204102 659.749084
-616.810669 -194.542953 766.283936
-799.397217 -115.422791 733.493164
-855.981201 -106.833984 729.427917
-687.967468 -330.700623 413.759125
-870.049316 -190.641357 518.765991
-693.431763 -257.779388 559.748596
-575.831787 -339.152802 498.418121
-790.601501 -298.263733 363.535889
-634.556213 -285.219604 558.275269
-876.657471 -130.476486 645.502319
-621.751282 -339.638824 468.487488
-676.928406 -156.675430 719.820679
-770.733398 -154.385925 696.686462
-829.136047 -198.519714 569.508850
-615.879944 -196.265823 746.017822
-694.321533 -279.283020 504.033020
-836.855591 -167.884720 628.229370
-779.433899 -297.873749 379.542542
-870.620728 -215.080902 505.340759
-624.117310 -208.885452 704.380920
-735.973511 -223.073776 604.813416
-821.731812 -89.927223 806.835815
-714.872375 -247.818481 558.731750
-732.660950 -152.100464 740.173340
-857.916016 -116.913544 557.414001
-854.920349 -206.933899 567.474243
-802.671021 -276.971558 398.595367
-877.296448 -141.534653 537.584351
-678.745667 -201.004333 670.398682
-743.835693 -180.896667 678.351807
-566.694275 -270.943512 649.374329
-829.690247 -206.632095 563.834290
-795.373779 -301.709869 368.063019
-703.918335 -142.183884 786.877869
-659.535583 -272.060516 554.554932
-593.456482 -260.809418 633.865112
-780.375244 -225.602386 557.964722
-671.582275 -194.345016 711.874390
-762.309570 -153.978348 707.718933
-601.859802 -300.953552 563.922180
-859.750000 -120.422539 534.901794
-762.657715 -188.107376 626.083801
-871.173279 -151.681396 576.803284
-721.447327 -337.616364 390.530884
-880.934814 -138.570389 651.425598
-788.841431 -201.987701 605.747925
-821.424438 -246.135468 488.808197
-796.588562 -266.765747 418.065125
-671.958618 -234.872681 646.263489
-641.946228 -318.065033 481.536377
-780.599548 -143.984695 681.521057
-725.658630 -227.733444 606.256836
-710.006531 -337.798187 365.985168
-671.838867 -165.864899 716.747864
-678.174438 -166.763947 713.546326
-789.619507 -178.297394 635.044434
-585.825317 -368.511597 391.806885
-879.217285 -145.006561 616.289795
-807.594543 -106.244049 743.934448
-860.395813 -156.629089 467.870117
-625.053711 -314.479279 533.173523
-852.769897 -103.483772 528.149048
-711.457581 -199.598221 672.345886
-695.462952 -139.787628 785.584839
-871.449463 -210.969803 516.453308
-707.418274 -172.285950 740.642700
-604.066711 -280.781219 627.816101
-723.403931 -136.139435 762.779053
-754.361816 -173.815125 683.521790
-578.195129 -290.751282 608.272827
-576.428406 -392.673431 413.418213
-583.986633 -318.012634 538.090454
-850.080322 -311.627228 351.937592
-581.978333 -260.670471 662.404175
-712.915955 -127.345390 798.443909
-703.406067 -179.194000 699.477112
-673.638306 -162.316284 777.032532
-796.810730 -165.562592 668.596497
-615.737061 -191.843109 768.060547
-828.270264 -163.400421 657.134216
-749.517883 -267.204498 477.869446
-580.640991 -332.545288 506.470184
-565.996704 -308.554413 575.779724
-667.517273 -348.003601 429.025970
-776.328125 -209.505981 590.929138
-556.634644 -356.056030 483.379822
-727.786987 -158.300552 674.219482
-751.037476 -160.793213 710.351196
-869.261230 -182.729248 470.063385
-560.320190 -370.946289 466.538635
-705.328918 -301.907318 461.736786
-849.666870 -253.600601 459.827667
-667.310425 -210.492859 691.973511
-558.608276 -268.168365 672.337891
-766.016418 -292.141785 361.310669
-787.764160 -168.184448 636.687012
-618.368408 -303.449524 518.266541
-602.081238 -276.312042 631.940247
-557.515381 -188.163513 799.161560
-555.130310 -236.335754 737.658447
-644.298401 -212.250687 703.017822
-620.568604 -173.057312 780.672058
-728.136475 -175.683151 680.586426
-605.320190 -259.982147 634.905884
-641.802734 -208.165833 725.180725
-570.101746 -274.547424 619.242188
-790.287048 -213.174820 525.728149
-766.123047 -150.905807 713.510559
-680.179504 -323.392212 446.389557
-849.517639 -167.556808 615.880737
-638.006775 -232.386978 688.599609
-873.650269 -166.891205 627.318481
-630.306702 -301.538849 554.060852
-699.968262 -343.268860 403.960388
-797.926514 -141.509476 692.719238
-582.718262 -242.420227 706.888977
-681.025696 -238.167130 597.724731
-572.609863 -247.707733 687.778564
-606.091858 -220.061081 705.453735
-822.251526 -137.613770 678.847778
-591.774658 -366.805450 476.696960
-557.130066 -413.620819 391.959808
-837.446228 -258.269623 458.671112
-883.239624 -136.577408 575.925659
-693.064453 -310.996552 471.480255
-828.738220 -161.695770 625.694824
-743.804321 -133.047455 780.872742
-728.445923 -237.504959 543.930298
-757.322693 -258.176727 517.047607
-652.987183 -146.456573 801.220215
-607.674072 -314.969086 515.308655
-626.965210 -277.026611 526.901917
-728.800964 -294.423035 441.189026
-784.750427 -186.281784 591.467896
-726.540833 -330.886627 363.853699
-600.115479 -329.364655 465.211731
-752.246887 -203.837158 604.949219
-594.328613 -208.063980 729.019836
-791.146362 -130.316467 693.805603
-685.811646 -176.810333 721.767273
-667.097961 -235.647614 650.600403
-872.997559 -192.447021 462.528778
-878.850525 -287.338257 416.698853
-583.017334 -302.163391 593.288269
-750.437805 -160.804688 655.457031
-692.931885 -334.296417 390.220764
-610.962341 -227.207016 691.872620
-874.053101 -206.727081 496.485138
-701.951599 -264.421509 555.722534
-865.010376 -184.383255 521.895996
-653.671326 -189.249557 742.618652
-690.985046 -340.202576 359.986053
-869.114319 -235.058197 489.019592
-814.763000 -169.507950 618.861206
-651.667969 -264.735535 608.768188
-593.270020 -182.158661 796.780579
-596.722534 -353.919220 484.010620
-614.642273 -239.686646 674.214478
-589.731506 -219.297546 745.260864
-783.354492 -147.097244 708.343872
-651.972717 -222.210693 682.659607
-875.906616 -109.052803 571.979614
-867.565247 -104.263496 578.006836
-851.844116 -249.082993 483.357361
-658.260986 -227.526535 666.740356
-882.912170 -133.464188 669.364563
-676.798584 -288.839417 531.585693
-805.485901 -112.030907 757.499878
-649.743835 -317.643036 471.629700
-572.632813 -223.944794 731.712463
-861.111511 -174.223907 475.980225
-636.083984 -314.450653 498.260406
-728.421204 -132.268311 791.560181
-599.921387 -192.896317 764.773071
-686.750244 -332.460480 401.433990
-797.509644 -207.844696 554.295532
-797.415894 -282.714600 387.592407
-659.208008 -309.016052 489.746552
-868.526550 -121.729286 588.426025
-602.529175 -271.173035 606.776123
-747.090454 -244.385452 488.097260
-842.160950 -197.880844 564.525024
-645.653320 -150.483368 823.732727
-758.324280 -302.961884 423.390259
-612.983032 -338.132782 500.570770
-692.248352 -343.043915 374.761475
-622.829956 -229.060471 704.721619
-765.669861 -299.827545 430.775879
-807.126526 -273.692596 434.892761
-661.469910 -177.898422 760.214355
-780.211731 -237.814957 533.778137
-739.459595 -145.745514 694.178040
-659.008972 -376.154053 374.376099
-769.602234 -260.322235 467.012299
-582.835571 -356.370331 492.248596
-766.038879 -276.197998 467.064941
-712.394958 -164.093735 721.913513
-649.497131 -147.062592 791.415710
-656.444519 -339.883270 421.927979
-631.118591 -275.703644 608.449890
-653.103943 -289.942535 503.558075
-604.517273 -229.532700 705.906006
-658.176147 -158.726471 797.424194
-563.007324 -212.540741 793.800476
-562.970581 -359.987061 473.996521
-620.407471 -367.404694 407.013519
-797.926025 -241.621490 515.551941
-875.401062 -176.693924 539.014282
-618.052368 -160.255600 822.827393
-624.417847 -214.300308 710.452515
-814.015442 -77.916367 759.244995
-788.552979 -276.755005 416.485718
-647.298767 -257.113190 610.644714
-903.270508 -146.980743 686.403259
-741.411560 -186.070740 671.600159
-596.207336 -341.262146 478.990417
-671.027283 -242.794022 609.956848
-880.034363 -193.037827 532.694946
-876.419678 -147.234177 550.405640
-607.962402 -191.295349 728.576721
-615.279480 -254.932037 632.538574
-659.755066 -183.917038 745.061829
-801.882751 -261.603546 473.767670
-635.116394 -185.333954 763.672729
-646.927551 -315.949127 481.102539
-716.742249 -333.304413 418.290955
-873.373047 -128.954269 519.688232
-703.417236 -308.666382 439.060394
-631.936401 -235.087112 659.528137
-799.294800 -261.859894 424.582550
-583.493591 -281.891632 605.912476
-708.305237 -220.019119 646.648315
-704.078064 -175.571945 717.505371
-568.263489 -258.143799 683.005981
-684.714722 -371.756531 362.986603
-793.354370 -188.800949 595.934937
-731.274292 -268.921295 488.206329
-849.367737 -127.686760 686.831177
-582.380554 -309.830231 549.076111
-604.159180 -371.244110 393.848663
-785.281677 -194.324554 618.579163
-805.958984 -308.378174 373.812073
-662.968018 -273.529846 551.003357
-821.924988 -289.871307 403.010223
-809.879395 -261.328278 466.830536
-731.571533 -170.429871 714.838684
-816.408020 -230.414444 507.188080
-809.866760 -255.332535 451.344940
-572.596069 -217.920853 774.969788
-873.318359 -138.406097 536.667725
-877.995239 -130.152267 609.930481
-747.750549 -346.860016 348.843292
-832.805786 -266.488708 451.091461
-882.014526 -118.406624 653.408691
-556.718262 -366.309174 474.978851
-761.318420 -193.204926 610.779175
-607.358093 -297.451965 592.177612
-554.770203 -311.756104 550.683655
-658.308228 -153.641846 789.006409
-580.245056 -192.097702 814.139404
-605.826050 -241.145554 670.217346
-642.245361 -172.352310 790.072815
-724.660583 -184.563354 700.780457
-628.782104 -341.311340 476.250885
-856.797424 -135.847244 593.533813
-626.220215 -316.006409 522.070374
-739.593506 -311.012634 436.479156
-573.618042 -296.248138 579.451233
-775.351929 -284.152710 441.052216
-877.072388 -141.993423 523.448303
-686.265015 -283.582336 503.512512
-657.064270 -186.542007 728.102112
-771.622375 -205.982651 610.476257
-559.214844 -190.816330 832.079224
-631.881226 -242.289581 644.214844
-767.600708 -132.039642 693.275208
-797.245544 -298.382202 356.939636
-763.662842 -154.641861 697.418274
-826.727356 -92.502769 747.748230
-619.818298 -304.140594 503.453278
-635.367188 -209.037903 703.291809
-875.553650 -156.924377 514.108826
-620.935913 -210.550995 738.848572
-845.313782 -161.820847 637.795898
-752.565430 -302.015015 443.360870
-815.036682 -262.101654 424.876007
-618.834106 -149.362488 834.701172
-833.956726 -120.268440 733.667114
-573.813904 -329.597504 555.581421
-559.156799 -368.357483 476.087494
-551.855896 -351.177979 502.456512
-728.785278 -259.494202 516.168396
-759.431702 -305.241058 417.888947
-876.597168 -139.598648 617.190735
-619.425171 -327.443268 460.737976
-570.518677 -178.177795 797.808960
-680.895081 -333.515869 411.557220
-859.813354 -215.918365 519.640015
-617.524536 -261.365479 613.285156
-574.753113 -341.703827 482.672333
-559.122131 -222.261093 720.424377
-577.855713 -340.622284 545.677612
-686.750916 -136.574585 803.516052
-687.098633 -160.618805 712.963745
-783.317200 -136.371231 720.053772
-563.059387 -198.996719 777.654663
-595.814514 -272.211609 617.963928
-612.290710 -261.321167 650.018738
-669.203186 -295.915680 532.833435
-686.897827 -239.223465 584.949585
-780.320007 -203.968231 579.070007
-715.929626 -349.943939 370.055420
-731.852722 -130.643799 763.133728
-709.647888 -298.550110 456.827087
-707.788147 -245.910400 569.445740
-793.784912 -106.207840 776.576538
-560.453125 -209.458847 776.462646
-569.777466 -279.200623 592.042725
-873.660828 -142.307526 546.578918
-881.644714 -123.373886 626.247925
-667.168945 -322.946259 476.908417
-812.018555 -228.581161 511.303894
-559.472595 -407.907562 393.809692
-650.107849 -160.402939 799.369568
-693.663269 -258.177368 557.930786
-882.617371 -132.122498 636.987610
-749.573120 -310.432678 402.297943
-718.849121 -255.910873 527.698547
-836.882080 -231.164871 494.471436
-775.281250 -268.810181 442.273376
-636.702087 -251.174759 614.204956
-757.214783 -168.496521 697.089722
-890.086426 -125.163361 648.781799
-780.427185 -311.822327 337.497345
-651.621643 -201.240601 705.680603
-841.779480 -245.817429 470.277679
-653.971802 -223.871338 670.952881
-679.359741 -254.707016 566.613281
-640.949097 -188.018280 759.086609
-636.770447 -211.911850 709.995422
-591.621765 -365.987457 464.040070
-789.948242 -205.429886 582.687073
-639.690552 -204.386887 704.084839
-678.448059 -293.572174 522.133301
-583.576416 -219.297699 753.216492
-810.750061 -250.487076 460.437500
-775.293213 -120.251839 780.616272
-607.110168 -253.017609 643.811035
-712.007202 -244.087082 575.248901
-611.505676 -233.160690 696.721802
-760.104858 -190.612244 632.219910
-617.431335 -279.780334 578.768188
-598.199463 -386.790863 404.214386
-703.022034 -258.241486 539.675110
-881.172302 -262.327484 467.795746
-636.385925 -344.953583 435.015503
-626.720276 -236.176361 653.584229
-684.895203 -299.153748 456.665710
-652.822449 -195.149826 741.336060
-720.822327 -151.206726 742.344055
-861.147827 -230.004074 510.569580
-868.063354 -169.397888 574.469116
-611.164612 -195.816406 702.958374
-599.473328 -188.286667 792.245117
-570.362976 -183.382675 820.397949
-680.854248 -358.481079 359.614899
-797.456177 -237.162704 514.659973
-874.014404 -133.935303 737.134827
-623.285217 -352.370911 469.674652
-586.461487 -375.236084 453.246948
-558.385986 -287.463867 636.826233
-598.371399 -313.440796 540.119812
-722.012146 -277.028168 493.429688
-673.286865 -154.021301 784.916565
-874.210999 -139.904694 599.620422
-666.650757 -357.143402 420.048187
-803.753540 -275.170135 424.710114
-590.863037 -226.367752 736.215881
-896.175720 -126.408073 778.866333
-667.518372 -179.663300 731.729126
-681.008667 -233.576477 613.005859
-646.745422 -192.919693 750.436829
-866.404297 -120.196091 553.231995
-572.332336 -229.662308 733.597229
-791.710327 -101.040855 787.906250
-758.318665 -307.034607 374.655518
