ply
format ascii 1.0
element vertex 1371
property float x
property float y
property float z
end_header
-217.163788 910.490295 -267.349945
-130.126465 968.209839 -237.582947
-75.228821 978.128845 -199.983078
-133.298386 1033.126953 -378.810760
-424.401306 776.330200 -296.447174
-315.234131 895.084351 -360.093048
-334.988892 764.483582 -81.804123
-308.524963 898.437317 -407.484589
-345.353882 890.378296 -420.907471
-169.542496 980.666504 -317.926117
-473.676270 743.787842 -248.440384
-80.098137 1037.777344 -316.848297
-222.134140 862.229431 -168.111084
-70.203362 984.481506 -202.483444
-364.027527 802.763916 -262.034851
-70.010597 977.720093 -175.419556
-220.199814 931.515076 -305.599792
-326.712921 827.306152 -440.760345
-314.121704 824.417542 -195.787643
-279.687897 923.593445 -438.465607
-305.336975 897.873169 -438.591888
-349.588776 879.950134 -379.206970
-326.149597 788.596558 -213.146027
-396.336639 723.397278 -94.996529
-210.658936 863.059448 -117.050346
-175.940826 1024.028931 -422.728302
-194.735809 888.252930 -183.501892
-170.993225 917.246765 -206.719482
-117.346352 1017.352173 -333.600433
-253.096100 882.075684 -232.490387
-271.666168 967.840698 -436.420654
-294.322449 935.114990 -425.210785
-419.782135 764.048645 -269.782135
-404.823334 739.004822 -190.599518
-298.505615 942.391785 -409.256592
-362.922424 740.528931 -90.224113
-372.955383 871.578369 -396.268738
-333.892914 908.348267 -395.098419
-60.841850 1019.371704 -255.903625
-37.275799 992.924438 -189.458282
-384.976440 827.694397 -352.760895
-137.378250 915.627258 -169.928406
-339.265106 788.129028 -156.359222
-342.972321 882.423279 -380.794281
-242.484985 824.685852 -121.039200
-317.574402 802.999817 -188.546463
-124.713501 998.181458 -303.197876
-201.116547 867.936218 -113.393349
-67.744881 1006.708557 -256.830444
-272.508972 923.615051 -446.774109
-260.570282 873.304443 -226.894485
-289.115417 849.825867 -238.999741
-346.805389 761.207214 -149.987778
-183.670227 1021.901550 -446.772186
-231.321686 915.633789 -287.878723
-410.486023 765.901001 -231.052246
-165.575562 981.683777 -319.057739
-333.337921 731.844788 -56.720627
-229.733582 925.113281 -315.152924
-241.828247 914.146790 -276.904999
-269.924774 816.779419 -116.086212
-240.073959 870.518677 -211.123459
-47.949478 1015.861755 -214.066818
-206.411972 898.169434 -224.541367
-194.692383 872.883728 -146.534500
-297.168365 808.663330 -136.490768
-340.299164 896.708191 -397.436707
-73.312988 960.218445 -153.650299
-127.886169 928.111572 -162.829178
-341.362976 825.523682 -243.094147
-42.862217 990.494995 -162.015198
-66.178040 980.524475 -185.583801
-358.175446 890.597900 -385.723877
-126.346024 909.950745 -129.262558
-378.135925 797.831787 -261.537323
-282.038452 928.375427 -442.326508
-281.987091 870.159607 -288.792236
-7.725154 1009.848328 -202.988922
-276.892212 832.441895 -185.990936
-63.614796 965.319397 -167.161835
-479.261169 761.734497 -306.278198
-369.207520 728.983215 -80.781067
-303.644714 906.909851 -439.263702
-276.760651 956.977295 -427.923096
-385.685272 806.262939 -302.367828
-259.007294 864.250000 -225.417831
-508.108429 747.538818 -289.919922
-151.026245 941.867920 -238.920258
-205.606628 948.265869 -334.401459
-269.209503 933.781982 -435.015228
-87.747002 968.899231 -180.942612
-197.271194 866.642517 -121.550400
-341.688538 787.144714 -194.388077
-275.176605 884.492310 -288.630035
-63.032684 1025.375610 -264.506653
-163.445175 1000.300720 -366.652985
-73.443207 979.824280 -225.622879
-52.775436 992.662231 -208.167175
-328.380981 848.515381 -314.248779
-294.084106 829.338257 -178.188354
-163.727661 877.303162 -113.249969
-341.413727 843.193420 -273.287384
-169.716400 957.459961 -293.145844
-73.196526 988.858215 -213.410751
-201.886200 972.695496 -363.063568
-379.630035 784.168884 -244.401978
-93.726044 977.198975 -214.783432
-358.435791 753.547729 -101.964340
-300.374115 783.461365 -77.117752
-421.254761 766.827881 -256.232269
-216.221634 936.109375 -318.511047
-67.469925 990.995300 -212.501556
-107.888878 940.069153 -155.875565
-256.231598 936.322449 -365.006226
-294.359344 926.548401 -427.888367
-432.342468 747.521362 -255.208038
-301.376068 901.078308 -435.147522
-352.853912 840.772949 -327.783844
-66.666748 1013.697144 -267.681213
-53.217209 995.993408 -231.463043
-241.710724 879.667542 -238.670090
-96.924561 937.954956 -133.489777
-196.565964 873.967407 -151.213013
-140.641541 925.232056 -172.384949
-88.577484 943.384155 -181.495117
-233.627228 927.486511 -325.401794
-109.150398 1071.880371 -396.080139
-303.521210 894.157776 -332.821320
-77.660629 985.119446 -203.932510
-320.683136 837.747070 -256.447784
-54.573288 981.758667 -166.334686
-440.787567 832.332520 -346.629181
-466.869202 842.841492 -355.725067
-451.757324 765.103271 -285.572876
-146.576279 917.693848 -154.646240
-376.528961 770.616821 -226.586609
-99.333954 1038.537842 -340.736053
-279.695679 762.988464 -101.672989
-322.070221 916.425781 -401.126892
-187.023819 1031.317383 -420.066467
-260.302307 873.231323 -246.034164
-408.779724 761.057068 -187.303665
-298.317169 920.423157 -360.908112
-242.642792 906.980957 -259.537201
-90.630554 962.490234 -185.344772
-461.279114 720.529358 -212.552429
-434.927795 739.150940 -203.617859
-378.157196 731.270142 -136.511383
-160.622971 956.256897 -268.679443
-263.007507 990.713928 -415.552216
-85.703392 991.729065 -232.539322
-299.104858 786.068665 -119.032585
-28.762903 1002.204102 -170.447906
-447.268677 859.535156 -370.313293
-321.814026 910.015137 -369.085968
-316.231995 862.513245 -438.931885
-370.921173 872.186951 -384.797943
-143.699661 1007.972595 -347.092407
-233.273865 890.882813 -244.310104
-268.580322 794.676453 -91.806000
-282.889282 882.156433 -449.827332
-426.524200 759.507874 -302.643646
-144.212219 1002.504822 -325.674316
-35.068478 974.723145 -164.412552
-137.867920 985.371826 -315.825500
-413.825867 731.500122 -235.820984
-116.870895 954.393738 -234.047424
-101.654503 977.570190 -216.139221
-365.474579 872.860352 -360.987305
-94.903244 1037.561768 -336.942902
-361.069916 814.627625 -252.359161
-49.263268 981.785217 -213.566406
-397.760681 846.098511 -386.720734
-278.494293 940.747986 -445.817841
-241.171982 957.787476 -362.540619
-358.193420 803.761536 -264.433868
-253.416580 1045.029297 -434.949005
-119.424286 975.175476 -235.568695
-135.674149 940.739502 -193.865082
-262.095093 943.037170 -373.653198
-232.001892 936.703552 -322.395782
-414.245911 791.101990 -281.644684
-281.551971 903.790955 -349.354614
-106.757790 1034.405884 -353.883972
-159.636078 936.227051 -208.908478
-374.735779 878.108948 -379.256317
-345.851257 729.338074 -80.627388
-249.757568 921.005127 -464.582458
-94.433464 1029.874390 -332.732239
-239.589935 816.703552 -150.826401
-310.032532 784.169678 -144.226105
-317.956665 891.025513 -334.808167
-83.918129 953.970825 -137.238922
-268.043243 884.080750 -284.971069
-83.029282 955.963745 -166.899689
-223.196945 834.565002 -109.433281
-126.390816 1021.223999 -363.354889
-299.789734 755.918884 -64.411705
-415.494293 704.732849 -169.871155
-244.064926 929.829285 -325.286530
-168.249039 933.058594 -216.101501
-176.778656 944.199402 -275.902161
-169.498276 948.606750 -255.865051
-266.389099 987.480286 -402.083862
-160.014603 941.577087 -264.767273
-52.240269 1006.718506 -214.419357
-251.665588 783.086670 -96.859688
-363.950592 746.985596 -106.901039
-221.975235 876.709106 -250.147858
-222.914719 928.726929 -309.179077
-201.400970 863.654358 -121.059845
-95.292534 952.195496 -224.942551
-416.953796 715.183594 -111.176117
-238.717850 989.735901 -448.471527
-114.988503 967.722961 -241.500534
-324.841858 896.576355 -410.481720
-265.701477 880.135071 -259.216919
-373.281342 801.593201 -271.786499
-258.887878 919.328979 -321.956390
-162.093750 1059.920776 -432.980682
-299.924438 798.573914 -192.790192
-203.257935 908.412231 -210.994095
-360.099091 837.071838 -296.399139
-266.853912 797.294373 -74.588516
-387.938354 875.441406 -363.533691
-164.007294 948.482056 -261.406097
-321.718109 888.917419 -434.632080
-386.822113 717.693604 -72.280991
-241.032455 838.465759 -122.228470
-50.505348 1011.890930 -251.966415
-58.024559 953.719482 -165.381943
-125.895294 924.874939 -227.485107
-154.293259 1025.107056 -392.180908
-132.211395 991.297363 -324.104889
-309.360199 938.924866 -409.642181
-256.111938 966.904175 -450.797211
-425.534790 818.698792 -374.489136
-280.716736 845.325073 -229.863083
-258.652313 825.292419 -119.213120
-393.276642 791.852661 -250.694885
-125.086571 981.436584 -270.697754
-227.961761 896.902832 -251.768036
3.151420 1013.432556 -168.660278
-382.376923 810.082581 -312.603607
-65.635429 975.346497 -186.305496
-314.200470 778.779663 -124.394127
-427.668945 753.060608 -295.031311
-96.338211 937.584900 -145.117599
-252.063446 861.506836 -223.484772
-473.317749 759.580811 -288.000580
-233.483017 867.199036 -215.124512
-321.859619 844.812866 -248.371704
-165.959564 973.010315 -318.527954
-123.903168 922.735168 -150.649124
-321.471008 807.393433 -208.040787
-131.093048 971.905579 -273.929565
-507.690979 734.198120 -280.600098
-191.572113 877.074402 -149.904465
-250.864822 818.659729 -118.067551
-153.238541 956.981689 -258.955261
-218.782806 829.892944 -132.560150
-302.801910 930.406860 -376.626129
-48.756737 975.978699 -167.429871
-258.174469 812.431824 -116.349159
-285.390320 927.800354 -437.641052
-238.555008 984.401794 -391.988037
-351.381256 832.280334 -420.798584
-386.615295 840.378906 -373.699066
-234.290192 833.238342 -135.238312
-355.799438 787.978455 -241.861038
-203.644760 898.216003 -229.784866
-325.077301 902.149658 -365.053894
-290.714142 879.656921 -447.876160
-237.543884 873.453796 -213.391281
-305.773651 868.411743 -269.399963
-266.467316 842.639465 -200.580185
-25.983555 995.376587 -187.044266
-119.568214 1005.788513 -293.155792
-298.199280 777.112610 -152.654861
-278.595062 891.087280 -454.539886
-82.163109 1017.252563 -272.777435
-262.342041 961.230774 -455.282379
-267.008942 980.542358 -433.811523
-146.281448 1047.142700 -416.393768
-456.628326 749.845520 -286.253540
-166.943420 1015.329651 -401.356659
-378.115112 767.112610 -157.064117
-111.131104 985.229858 -253.554916
-109.030479 996.543335 -278.047180
-193.972107 928.235535 -281.988861
-218.212952 947.551941 -324.831512
-52.286774 1022.248657 -240.357529
-367.325104 815.551758 -297.495392
-324.242798 766.348755 -116.300171
-276.524414 807.386169 -132.289719
-216.416458 847.057861 -156.682861
-225.642059 931.361877 -319.116577
-175.809753 894.843994 -184.507629
-446.427307 840.111145 -357.382690
-342.680969 781.373108 -203.329025
-236.224243 844.213684 -136.224854
-244.153519 825.936523 -125.636116
-269.135925 815.465393 -140.588715
-209.733963 879.295959 -159.574844
-94.742653 1031.589600 -325.060455
-364.973907 815.014099 -292.272430
-200.612198 911.657288 -223.373672
-231.229446 955.828064 -372.792908
-279.425140 889.492065 -279.907745
-208.189957 854.293518 -129.881638
-63.889915 960.747070 -148.743256
-374.971741 745.815247 -110.675896
-66.283195 1031.939453 -285.955597
-55.227531 1012.052612 -223.637405
-286.143433 904.117432 -324.168640
-382.456207 796.979431 -231.222946
-341.823730 825.093872 -269.837189
-311.364227 909.584167 -379.607330
-109.416550 993.917542 -264.637878
-256.819061 803.984497 -93.570091
-318.496216 901.658081 -359.954895
-379.898987 717.355713 -159.983170
-334.743042 760.262756 -125.551399
-176.962540 951.041321 -259.687927
-392.658630 717.116028 -88.075012
-287.812683 844.481934 -202.860031
-370.721771 727.571106 -58.027462
-197.221161 867.819763 -153.867477
-115.830528 1034.751831 -351.830170
-57.006210 1006.725220 -214.938080
-272.300812 956.040161 -448.866119
-262.087555 912.902222 -316.703125
-238.223984 815.319641 -93.358055
-162.129669 945.072083 -255.658234
-306.969879 837.001282 -249.238815
-163.886688 933.536804 -236.252380
-325.453674 852.914307 -310.593414
-298.766083 800.891968 -162.020615
-165.362137 978.420532 -330.422241
-205.347046 905.337097 -237.787186
-158.527100 964.963318 -271.596588
-191.642014 874.820557 -126.279823
-340.454437 820.966553 -218.909546
-275.790619 959.134338 -412.181702
-490.870239 805.274780 -337.508575
-46.775024 1000.816956 -189.802505
-136.932510 1026.170898 -401.358521
-176.163895 889.280701 -124.063324
-336.096100 843.268738 -301.633392
-147.740906 915.211365 -189.236969
-97.963013 931.464905 -132.630905
-488.051331 803.481506 -327.495941
-409.845947 726.638611 -122.267769
-266.133148 810.946655 -136.852692
-432.601563 1040.743774 -693.330688
-326.178772 749.104797 -88.096420
-250.811417 965.614441 -437.781403
-205.501205 1007.700989 -410.064453
-339.209106 868.786682 -416.476044
-137.152374 956.179016 -240.489548
-347.993744 878.842896 -350.813110
-279.639832 956.104614 -446.572784
-410.056335 847.378296 -405.185364
-310.825653 741.640198 -106.626228
-267.546356 971.188965 -446.818909
-400.954865 704.750671 -163.520248
-281.485474 860.760376 -249.317902
-287.530609 891.871155 -334.055267
-63.704525 964.272827 -224.288788
-161.230804 916.918518 -212.186066
-109.438789 926.533752 -157.772644
-261.471466 931.433594 -352.657135
-154.087341 870.457886 -125.864265
-224.071518 810.023010 -107.241951
-319.246155 794.719543 -175.000473
-339.093323 834.454956 -260.681427
-84.962555 1007.084167 -256.822601
-59.872875 979.084656 -214.278366
-90.459045 959.405640 -197.314438
-72.714951 1002.798889 -224.639847
-255.808914 912.480530 -303.955566
-287.880920 915.625366 -425.966339
-407.592682 846.814636 -395.292023
-368.919830 733.320618 -116.077240
-134.104950 917.536194 -177.548569
-368.980042 778.925659 -180.013519
-417.855896 764.313110 -258.223450
-70.262009 987.959656 -202.909363
-258.713470 813.947327 -130.625900
-406.332886 837.680115 -337.069641
-220.209335 849.812195 -149.778839
-260.550537 800.856384 -100.734962
-115.113258 940.147827 -156.665955
-314.339081 840.304932 -276.023163
-189.178772 939.411743 -284.407288
-191.096985 884.089661 -163.250671
-364.966400 731.323181 -95.942101
-47.543949 989.203979 -195.253296
-224.104980 915.655884 -287.979279
-84.666130 990.350769 -228.212952
-129.190796 973.231262 -276.471466
-362.179138 791.226868 -256.307281
-179.251892 980.481750 -362.689301
-348.999908 835.202820 -296.369812
-93.748398 952.225342 -162.190750
-94.385727 988.072876 -281.526764
-127.575821 930.815308 -170.077454
-281.079926 962.516418 -428.064728
-300.063232 863.451782 -261.862183
-379.833557 729.065491 -62.789722
-123.211700 996.730225 -298.192749
-266.933441 858.782959 -224.120682
-182.473083 881.386536 -148.231384
-333.499664 858.022644 -341.957581
-262.477081 862.275024 -220.213898
-305.535217 896.385559 -345.669098
-309.214691 771.931641 -73.256081
-252.840363 903.242859 -278.284515
-371.351227 819.053650 -417.920624
-313.672668 895.587158 -345.859833
-146.869858 996.839783 -317.241028
-262.215454 969.033325 -454.611176
-427.746918 737.508545 -184.514343
-347.669525 817.466187 -230.796143
-38.349400 991.233582 -148.751602
-207.380371 927.358337 -265.816071
-151.357254 1016.292053 -402.167664
-385.282440 769.445068 -183.894867
-385.170471 820.178894 -417.224304
-146.179871 930.863892 -190.017838
-453.708588 726.167053 -281.855682
-261.806000 991.442993 -421.621399
-382.901459 685.912170 -83.439232
-365.363770 709.553589 -101.966911
-381.335632 871.917297 -352.780640
-88.415840 1021.043396 -290.546204
-289.983826 803.682007 -177.682602
-367.488647 787.828247 -259.171509
-144.258850 969.716614 -263.612000
-129.328094 916.252441 -134.389496
-166.801575 949.033264 -270.560669
-64.900421 983.089050 -188.845673
-368.126984 848.844543 -404.659088
-147.780380 890.369385 -141.374893
-186.441376 910.450012 -187.840851
-163.195923 920.059998 -207.414703
-304.389679 806.862549 -202.880630
-226.125046 940.220947 -338.008057
-201.192047 925.617188 -264.059845
-223.727386 844.576172 -162.103424
-115.011208 1017.518127 -348.788818
-137.676498 902.143616 -120.910896
-118.023033 1013.690674 -336.156830
-366.061768 859.191040 -402.623901
-58.476612 966.419128 -141.985107
-336.203674 853.543396 -327.074829
-63.484913 1013.398193 -238.953110
-58.011589 1006.185547 -240.279465
-158.375488 927.505737 -191.235077
-32.732845 1013.190247 -191.807648
-366.337830 878.131775 -397.903320
-328.937714 859.748413 -432.144958
-219.651443 896.002930 -203.470703
-200.117569 943.082581 -276.364258
-126.449074 913.614807 -122.133057
-126.039917 1011.908020 -325.444000
-257.129974 895.644836 -296.570679
-224.344238 906.685242 -233.269455
-142.954849 941.020569 -191.117188
-81.231445 975.826538 -184.478897
-420.620697 868.809509 -387.318207
-164.212509 925.541016 -194.867386
-99.627693 986.221741 -234.980118
-117.548828 1010.436890 -361.023926
-86.158615 980.127563 -232.946487
-413.316162 767.321045 -252.411606
-119.469566 1029.639282 -365.338928
-250.379288 807.188599 -143.568542
-272.015106 971.473083 -439.828156
-184.268677 861.572571 -122.943451
-240.064865 964.543091 -384.039307
-28.883516 993.690430 -172.032990
-38.212543 984.835632 -180.009964
-325.891083 856.490540 -282.336548
-316.929779 874.067505 -346.361450
-405.900513 726.753845 -160.175339
-69.231606 992.658020 -217.470581
-426.590088 767.358887 -271.559326
-328.086853 773.915466 -106.459335
-384.552856 876.867798 -380.151215
-333.914093 777.132690 -121.376556
-275.169342 860.140076 -240.327682
-143.232956 916.569031 -137.360397
-222.766541 826.535217 -99.012283
-261.807312 1006.237610 -429.388000
-134.460602 912.700256 -118.078384
-143.537979 891.769104 -117.798058
-121.006668 1041.655640 -368.964203
-108.440331 1000.661255 -347.937286
-533.089844 758.204834 -314.762604
-161.090958 926.648560 -187.787598
-51.855350 988.806274 -183.322281
-407.151337 802.322510 -295.627014
-93.384834 1036.387085 -331.538300
-165.237503 984.986816 -367.794495
-287.682526 879.957825 -298.466705
-85.032822 1039.021118 -320.389130
-80.187149 1012.387939 -261.634888
-316.787201 910.968567 -403.859955
-374.580902 868.105652 -391.118927
-375.697693 881.848267 -374.710602
-236.021072 935.534851 -354.401154
-107.660347 1039.516357 -345.331635
-275.591003 910.643799 -460.725830
-101.808548 1035.060181 -333.196136
-295.448792 966.857605 -399.091156
-108.163956 943.009033 -154.213379
-18.548573 996.619568 -173.829834
-280.243805 918.494934 -444.858429
-322.024811 816.753540 -222.634903
-224.665543 869.066650 -199.694305
-93.360695 968.061523 -202.516953
-386.084076 751.549866 -233.773071
-375.249664 860.746338 -395.533386
-179.039490 865.684448 -118.584251
-410.769775 850.922058 -396.172180
-76.768684 985.330994 -196.554245
-143.448517 928.055359 -181.163605
-195.520370 954.800537 -301.311462
-270.279755 788.461853 -91.926392
-293.699036 902.390625 -354.096527
-401.735718 768.685120 -244.973999
-64.886528 975.209473 -191.604065
-443.340302 740.977051 -213.946594
-45.505939 978.207153 -177.327942
-74.534271 964.736938 -191.441467
-335.568359 739.021667 -83.088814
-309.504639 850.523560 -284.457336
-445.692078 746.105530 -263.893280
-386.803955 725.953064 -156.899765
-331.876953 733.351563 -64.090225
-169.423355 904.136414 -158.882858
-217.526978 931.042358 -290.944977
-198.143402 861.668640 -132.801590
-419.509369 869.799377 -370.146027
-308.907135 810.489075 -181.497894
-358.228851 790.267090 -226.449829
-174.512573 916.227295 -223.028168
-365.650513 863.417297 -352.620605
-187.655975 1036.263672 -437.927887
-418.295685 781.120056 -313.366608
-277.696960 859.199097 -236.403839
-158.851669 908.312073 -155.120712
-118.582298 916.807068 -124.425140
-110.321007 958.403259 -187.405701
-420.437439 713.616150 -156.625534
-299.308014 768.919250 -96.506012
-205.903259 908.421204 -224.114639
-203.376755 906.231934 -241.359131
-197.616074 945.036621 -312.516907
-301.897797 910.820862 -447.979462
-261.351288 954.886902 -448.577637
-399.480103 771.594482 -247.421997
-322.025513 745.570923 -78.253357
-336.681641 790.205627 -147.653214
-344.660309 838.156738 -296.634613
-213.909332 868.713562 -214.505554
-179.153397 872.135681 -109.316010
-60.775379 1013.601563 -274.951263
-116.043388 956.868347 -221.844208
-302.078644 922.626404 -366.638672
-379.367706 721.454956 -120.415306
-431.173981 749.037476 -286.035400
-278.880951 895.346008 -327.595428
-279.901489 933.255493 -446.323212
-142.153641 942.242188 -234.653763
-264.205933 934.742371 -463.306091
-91.483902 942.644287 -143.177368
-282.246979 806.835083 -184.419006
-41.816254 977.152100 -151.912064
-6.222373 1001.095276 -186.878510
-263.062561 826.072937 -151.979492
-176.614883 965.162170 -332.344025
-404.096008 864.665588 -368.989807
-133.337479 919.804626 -145.683792
-327.183044 860.729553 -336.045441
-173.953247 999.578979 -384.256348
-47.332401 977.826721 -185.573074
-188.099823 862.020020 -136.538757
-126.558159 982.861633 -258.490540
-150.985657 948.626953 -245.622757
-190.705353 953.020447 -308.595764
-229.372986 856.865417 -170.559204
-334.635590 821.273987 -437.681519
-302.900848 859.600159 -305.866455
-315.493011 828.402039 -254.973785
-297.069336 861.739502 -291.220367
-59.597595 995.141968 -199.251083
-398.430725 842.468384 -374.455933
-267.255402 945.208008 -456.257904
-368.745911 722.797119 -106.727188
-57.571754 975.600159 -216.789047
-363.464050 852.782593 -340.337585
-227.361710 862.245361 -151.544022
-248.652802 854.595520 -192.343307
-109.019409 922.787720 -159.258621
-250.964310 840.484802 -163.759964
-286.060455 887.968445 -459.592743
-168.349823 888.539856 -145.303711
-422.993866 705.880798 -145.213959
-19.747335 999.766785 -168.726425
-330.054688 873.043091 -433.854614
-356.779297 756.241638 -154.474014
-327.918579 894.298950 -360.003479
-396.761841 766.052307 -198.557510
-297.335266 890.036499 -337.256165
-303.109833 811.808044 -190.545242
-312.183441 831.345947 -230.378342
-99.980927 997.911377 -300.305084
-330.096191 796.625366 -198.104355
-348.523865 773.854004 -173.614914
-125.248222 909.804321 -135.872467
-77.766426 937.072327 -141.159973
-315.713501 765.271057 -109.409996
-423.341370 809.795410 -323.257263
-212.047211 897.634521 -211.288483
-227.811188 917.145447 -278.130524
-226.111511 915.196106 -291.681458
-387.634735 819.408447 -312.602234
-50.830418 984.480530 -209.882919
-322.582245 893.725586 -398.540314
-184.692108 915.385376 -218.587280
-304.530182 848.378906 -450.610687
-245.636414 929.870911 -367.829773
-100.503502 950.688171 -245.200851
-159.013718 898.530029 -162.499390
-78.179070 960.065979 -215.878922
-202.886230 862.444702 -150.205719
-274.804169 850.815186 -200.020920
-353.437408 770.990723 -159.750412
-344.498962 913.572815 -382.140930
-376.223053 755.678467 -138.927963
-170.383652 879.065063 -130.460358
-100.624229 1040.605591 -352.915131
-141.579590 1022.476013 -395.521851
-347.742462 858.567932 -431.481262
-188.193146 922.324890 -248.557724
-227.649063 1023.172302 -440.605530
-84.521782 1013.301025 -274.764313
-418.671783 762.044922 -214.606659
-146.229431 1020.563232 -395.575500
-132.311935 997.345337 -300.833374
-355.153473 794.318115 -192.066940
-355.875793 781.851929 -224.294434
-189.862152 905.429504 -203.666443
-244.759750 873.521606 -229.042633
-155.427582 895.117188 -189.998917
-228.849686 915.537476 -270.710144
-268.904144 915.047852 -353.839630
-253.358078 946.643555 -376.412415
-347.447510 835.308472 -422.394012
-413.960236 766.948853 -208.484375
-350.270294 835.399475 -326.432953
-186.553040 896.242065 -165.243958
-441.230988 712.254333 -191.762268
-281.606659 981.525574 -438.581116
-155.751236 945.923035 -219.841736
-359.058594 755.322266 -148.876480
-346.695862 778.402222 -169.878647
-114.995102 1061.537964 -416.720795
-395.827423 710.073242 -103.162697
-84.927559 1004.872864 -291.119843
-364.110077 889.344666 -369.506378
-403.628052 845.744812 -373.651428
-481.999969 755.071289 -318.503082
-148.099899 935.014771 -190.754364
-301.746155 769.856201 -100.844711
-414.017334 775.676880 -284.193848
-184.007156 895.001282 -175.144318
-414.585785 717.473877 -144.518845
-367.311829 837.507202 -309.611053
-83.506920 967.793152 -212.669678
-214.497162 937.938293 -289.462250
-275.332336 893.574402 -291.157257
-462.350525 766.888428 -295.783478
-304.734924 909.713806 -418.321198
-361.166107 724.346619 -76.752975
-101.277901 1044.862061 -355.378082
-327.754242 809.270752 -183.891266
-290.085480 770.940063 -80.676865
-82.289146 981.522095 -275.803162
-368.970551 780.409607 -185.552124
-167.355377 953.542786 -263.341187
-340.334290 898.569641 -383.636047
-366.172089 794.599670 -198.845016
-192.498016 861.849792 -95.166939
-422.775055 811.753906 -317.810120
-90.484428 986.855774 -247.266037
-112.144531 923.096375 -155.951096
-159.104599 957.056885 -283.636688
-334.558838 815.661499 -244.105392
-178.386520 906.741028 -184.937927
-215.331390 851.472351 -146.632721
-250.768005 927.771729 -316.894012
-346.070648 774.477905 -138.171936
-369.160278 874.220703 -363.805145
-369.430603 737.981934 -135.846939
-204.324081 949.563049 -307.878174
-241.243729 1037.491821 -428.031586
-172.358994 994.469116 -344.556885
-73.505623 989.507324 -197.725403
-379.062500 784.525269 -285.820526
-416.248566 808.554138 -318.837189
-334.251190 811.933777 -199.317108
-68.382332 986.221069 -198.200424
-300.013916 869.558716 -447.661438
-378.880280 811.320862 -409.730835
-320.310272 846.518188 -435.016724
-311.816193 860.059814 -323.194672
-151.740021 1043.110596 -406.771271
-112.406395 943.207642 -156.681122
-151.607635 929.834961 -217.883255
-310.858398 767.953003 -63.111591
-268.632996 862.844666 -248.510956
-351.841400 822.173462 -316.150482
-317.741455 848.362549 -450.398834
-380.206573 796.240417 -226.026184
-394.457611 707.383606 -118.245613
-199.738510 846.030396 -150.805145
-354.988251 734.695007 -62.338036
-309.455322 840.618408 -253.911560
-171.182999 917.855957 -204.853958
-323.689819 878.153870 -424.564026
-122.203369 978.616089 -248.161331
-227.061188 856.367310 -176.428329
-247.599396 847.522156 -150.079102
-274.226318 960.324890 -432.724823
-301.370789 810.647339 -185.657272
-372.100189 800.432556 -270.710388
-54.401161 988.165344 -193.664520
-219.362442 875.996399 -207.325317
-358.774109 759.056824 -182.650131
-145.222885 892.997498 -124.230621
-129.856552 1020.343018 -345.684082
-129.984344 1053.074585 -411.392670
-181.962128 951.743652 -275.340393
-237.314041 919.301514 -292.003326
-462.500244 830.165283 -343.964050
-276.664551 894.987732 -314.260101
-106.984879 986.055176 -244.463348
-200.231201 952.078918 -301.088562
-412.811218 766.283203 -236.075806
-263.586945 921.653870 -466.344360
-382.057037 772.167603 -219.222610
-159.814270 1014.751282 -375.607147
-110.210167 1032.889404 -352.318054
-384.474243 734.852173 -172.069717
-267.182404 783.344299 -98.266411
-94.121613 973.907837 -230.166382
-260.234375 796.617493 -96.048012
-268.222565 825.793945 -203.712921
-52.317574 992.298035 -267.414490
-310.842194 927.460266 -378.375519
-105.733383 1014.115234 -357.213623
-200.955368 972.768677 -348.693329
-394.196564 821.692078 -395.902252
-462.155731 847.705200 -352.182404
-389.281769 779.033508 -240.353668
-245.790237 821.272583 -83.814232
-145.046432 968.477600 -281.974335
-275.398163 834.494751 -155.935898
-121.349876 1002.984680 -331.044891
-300.721527 767.553162 -62.944508
-110.352783 1022.654724 -331.581390
-105.651352 1061.103271 -392.900635
-358.835663 811.899292 -240.491104
-306.304321 897.554077 -438.207062
-181.440109 886.994934 -127.927383
-184.131119 846.802185 -117.353729
-319.956573 812.977112 -218.456375
-101.753426 1003.022278 -282.566101
-325.335663 813.456177 -189.430908
-163.462631 1034.912109 -410.365021
-186.545868 857.899231 -121.693512
-240.338028 968.555237 -451.218658
-56.583157 955.926636 -151.021896
-370.975098 775.382019 -180.515320
-364.839691 883.611206 -356.524658
-117.510422 996.012695 -313.458679
-397.987427 880.843872 -378.641815
-409.821869 724.820007 -160.466049
-257.433136 923.625610 -458.563751
-363.996246 814.174927 -417.788971
-205.305649 945.347107 -303.387512
-134.382217 1030.339966 -382.238312
-432.659363 743.819946 -187.253403
-478.393890 736.671631 -297.880585
-362.709290 769.662476 -186.600174
-226.537018 859.920166 -178.226151
-440.988861 769.813110 -260.233521
-113.398758 1044.141724 -372.884705
-355.403473 779.043213 -159.996475
-462.729858 741.606201 -265.818817
-201.110413 950.339417 -305.228546
-380.456604 724.480225 -101.145905
-257.296021 900.472839 -318.083893
-284.874817 925.589355 -440.884155
-285.495087 921.579346 -395.073792
-179.639740 865.229126 -104.875282
-159.185059 984.441467 -302.283783
-265.522797 890.367310 -294.032104
-102.800430 956.608276 -178.031631
-53.380283 985.128357 -230.092880
-281.745972 935.639221 -441.439209
-248.463470 871.365845 -199.811508
-428.908478 719.945618 -117.280281
-68.600067 992.847412 -208.128098
-160.771988 987.323914 -343.397491
-279.417938 841.799194 -183.284271
-291.246674 821.447327 -163.522308
-162.242874 881.990906 -118.619400
-240.616074 950.139648 -372.160217
-388.295624 797.496704 -255.229309
-422.826111 763.659241 -249.757813
-154.767075 922.557190 -243.676498
-93.855751 944.353088 -159.368912
-97.208786 987.366272 -228.463776
-270.374542 978.457520 -427.009308
-110.283867 987.500183 -250.455643
-413.438599 773.957214 -236.813614
-129.198441 1000.877441 -294.672974
-272.023193 858.144592 -204.878616
-304.410919 852.998779 -265.680328
-366.772522 739.593384 -135.961105
-42.350365 988.864685 -148.758636
-86.875458 957.469543 -156.715057
-230.433884 1022.781372 -421.573120
-244.259583 929.094116 -342.629486
-371.549988 865.071533 -411.328674
-288.764557 926.311279 -423.083954
-400.020599 750.768372 -203.792465
-154.217514 885.432922 -113.700157
-263.176941 824.150574 -147.869354
-245.555206 958.309631 -390.203125
-298.606293 956.797729 -419.758942
-141.149612 1038.835815 -407.763153
-380.137634 771.642456 -181.747971
-80.876328 982.770264 -196.942841
-136.951355 1025.332520 -386.027344
-239.413620 814.809204 -97.850624
-247.127350 816.357605 -144.888733
-289.041901 889.265198 -458.526154
-137.273804 922.208801 -163.726898
-100.252480 960.929321 -181.971024
-311.586151 861.856995 -277.173401
-381.490509 782.400940 -194.025162
-321.264099 910.671143 -390.498199
-72.590416 976.776001 -217.735367
-279.098907 814.899536 -162.469162
-389.563354 862.621399 -348.072388
-384.648773 703.191956 -33.810513
-48.320240 986.395508 -176.548477
-162.589233 898.189026 -208.251282
-316.419159 845.592651 -282.340759
-296.779846 829.796997 -176.626999
-440.267731 745.462280 -201.968536
-438.581360 727.323303 -241.815445
-328.691559 855.886475 -316.552582
-220.920105 840.456604 -135.368088
-119.453148 973.116150 -262.117432
-110.394859 1016.028198 -318.878754
-205.296295 926.485107 -252.578201
-169.617310 916.767700 -177.927536
-191.840164 1028.540283 -416.059113
-347.208252 823.369873 -431.982635
-424.077759 749.158997 -284.022095
-193.421600 951.350037 -295.310730
-233.282089 862.609009 -181.450470
-378.583984 784.500000 -243.481064
-134.132339 1026.965576 -379.296875
-212.399918 921.130798 -278.387726
-363.046143 733.943054 -75.927254
-367.372955 855.161133 -417.923584
-87.843529 995.763550 -248.790863
-348.804321 918.168762 -387.560425
-91.771103 956.514038 -167.174896
-28.962376 975.939392 -167.870071
-341.081696 911.046021 -370.391418
-124.600388 936.211365 -180.755875
-281.594696 785.620605 -144.974808
-204.171112 907.235962 -241.971649
-369.880219 700.974915 -61.937866
-206.488693 853.260376 -121.646881
-366.435944 840.472900 -341.939209
-198.513687 847.429565 -120.297264
-319.503693 856.850952 -302.509064
-447.759399 732.115295 -246.114731
-357.466095 720.728821 -92.191368
-78.228630 986.497742 -235.746490
-49.869797 990.096436 -193.745132
-296.618561 903.130066 -448.955414
-308.745697 811.538940 -217.521088
-93.414703 1007.772400 -329.505219
-452.905914 739.405029 -262.954254
-51.664280 1008.856750 -215.313202
-80.442291 958.855042 -205.101746
-135.572800 989.106873 -302.627350
-370.456665 775.843262 -198.243408
-140.192368 956.766479 -254.017380
-371.336731 701.991821 -51.006195
-299.242126 877.129578 -284.134735
-295.155640 886.382935 -334.014587
-171.727127 892.789978 -174.966034
-180.694199 875.576538 -136.449020
-266.170807 911.312500 -318.330444
-120.123741 1001.769653 -328.779877
-460.749664 771.516479 -323.297760
-367.767029 737.396301 -121.587715
-338.657654 824.371765 -231.525482
-53.237442 968.593994 -146.331772
-120.140495 949.501770 -183.621826
-334.268433 769.486023 -139.824524
-260.271027 970.883850 -420.398712
-306.302429 763.805664 -91.586975
-191.125778 893.506287 -183.993927
-127.822807 910.106262 -143.208832
-277.018402 894.087219 -322.128204
-442.288361 859.457581 -353.315918
-73.163689 992.395996 -218.333405
-164.933075 903.600891 -169.069290
-384.108551 733.946350 -109.729965
-375.250092 796.700012 -232.396179
-363.718353 752.502075 -155.548523
-395.997894 783.203918 -215.992493
-432.542664 772.162231 -250.364395
-453.818390 741.621826 -222.711838
-390.637878 709.931335 -147.210144
-449.901794 738.117249 -221.921295
-438.560486 769.660095 -278.370972
-364.087830 849.681152 -317.764099
-387.130859 822.773560 -334.171234
-399.140930 704.358337 -117.600029
-393.692963 769.071899 -235.788315
-103.112411 1042.015869 -351.565979
-435.715912 714.864563 -191.978973
-161.432617 1058.194458 -422.724915
-100.871445 1036.255859 -341.693542
-109.157585 993.655273 -256.045593
-111.241127 994.223206 -266.546265
-158.252289 903.563782 -171.690094
-107.570427 995.105347 -273.170441
-396.906525 735.177795 -164.632645
-138.746918 911.500000 -138.061066
-262.845062 904.318970 -313.423340
-3.641728 1000.419373 -177.292801
-122.425705 952.155945 -206.034439
-347.432526 879.691467 -379.344238
-378.988678 767.654419 -208.192184
-406.445709 727.482361 -132.145737
-369.922882 841.189697 -421.095245
-206.295471 942.694824 -338.469147
-286.840851 940.862610 -416.493134
-249.556732 914.658936 -299.940948
-229.825974 960.279602 -381.675659
-329.608368 760.477234 -152.123367
-286.696045 913.296875 -362.204559
-420.272736 786.645447 -289.981628
-290.038177 772.987671 -97.763039
-290.939209 823.562805 -189.361847
-22.300285 985.914551 -170.782120
-198.717163 881.968323 -226.196808
-218.003479 918.714722 -327.421234
-286.543243 909.950562 -453.207336
-116.038071 952.217102 -184.029541
-209.254166 1003.220764 -408.136200
-323.179779 853.402771 -300.973450
-374.843475 797.481506 -235.354034
-131.154373 950.723083 -195.343124
-348.903748 737.592346 -58.130466
-355.525696 872.713013 -402.262085
-307.326691 852.362488 -448.085327
-328.642181 783.817810 -152.081589
-119.720650 939.578430 -192.858017
-358.577942 793.716858 -275.076477
-148.242493 1003.436340 -358.492645
-134.075241 898.283813 -135.029800
-388.504181 877.116516 -382.398773
-299.436829 790.064941 -165.793320
-127.341179 983.752075 -269.300476
-329.793335 741.346252 -79.460831
-61.233032 961.586365 -181.261520
-360.308289 840.491089 -431.792938
-334.451416 767.459778 -141.628021
-277.924957 826.133179 -202.372086
-232.695145 900.989746 -278.892487
-438.685760 731.412354 -162.968704
-424.687347 767.075989 -236.040237
-168.939987 1003.387756 -389.103363
-333.943970 833.046082 -242.885101
-158.890930 1027.759033 -421.854889
-336.303223 743.877014 -98.729362
-113.187660 986.423828 -282.351837
-240.738678 958.410522 -383.768280
-274.626190 933.209900 -369.146118
-40.806347 967.023376 -157.061844
-413.861267 752.457031 -200.869125
-61.546394 1013.959351 -258.254364
-213.842392 835.360779 -95.543892
-51.051933 1020.864136 -287.754333
-106.975929 1003.082764 -307.713226
-430.663788 755.081726 -271.356598
-299.188354 759.427795 -122.135689
-436.408386 738.817871 -269.483307
-178.317688 970.230835 -315.269348
-334.439270 845.013062 -260.878571
-261.162842 874.471619 -221.713623
-94.507790 1031.160400 -320.057190
-349.156525 850.447815 -306.520020
-406.990845 763.737671 -245.373550
-263.771790 941.467834 -390.875641
-319.243103 790.366699 -169.210449
-171.600067 951.747620 -292.955292
-382.742676 769.891479 -218.695450
-130.776001 918.445923 -193.069946
-208.763504 906.150391 -252.633209
-500.822601 803.820374 -335.769257
-240.081390 868.380432 -206.856064
-279.740387 848.276550 -220.964508
-207.102066 826.103210 -114.070541
-184.880402 979.775940 -330.125214
-101.036797 1009.302185 -297.045166
-139.174393 1005.247986 -339.105804
-265.433044 834.028198 -182.140961
-123.448425 921.849365 -201.953522
-261.138000 897.206848 -316.522919
-363.095398 778.439697 -252.084763
-335.316925 817.347168 -242.878845
-258.344940 928.531982 -341.980804
-285.539368 929.587952 -386.931946
-211.356750 912.786072 -236.222107
-352.231232 797.882813 -224.726578
-161.591934 930.073181 -217.734146
-206.904572 978.786438 -406.436127
-335.365906 800.498779 -201.549088
-345.295380 841.774231 -314.685455
-188.087433 914.513550 -231.413574
-297.194427 953.386658 -390.311584
-322.879486 917.147095 -409.053741
-194.051941 990.945862 -394.475922
-321.566315 875.447327 -442.940247
-362.042084 786.613647 -186.044525
-326.417023 753.774292 -95.380096
-265.405975 871.163330 -221.347961
-379.757996 798.924744 -276.705383
-144.807922 924.915955 -168.230286
-345.641724 841.852234 -319.656616
-245.604980 868.655151 -196.745728
-290.714905 849.968262 -455.629181
-415.827820 821.263672 -385.811615
-177.896835 967.957764 -320.941498
-279.923096 947.234497 -408.423004
-240.517212 976.136597 -384.202515
-332.042633 859.211731 -298.840942
-90.697830 940.243591 -153.252640
-322.034119 917.485046 -381.876892
-164.797028 921.353027 -212.193146
-213.279175 953.934326 -360.457947
-177.511932 987.416626 -350.328064
-155.533646 1012.396606 -384.874207
-106.877930 1059.064087 -381.217285
-389.450439 817.234619 -306.535065
-201.030518 901.520142 -223.812149
-354.695190 746.278748 -119.505196
-140.839844 902.251343 -147.408524
-99.309113 932.383362 -158.419022
-133.044022 1030.027832 -390.792816
-371.926392 728.522217 -121.487686
-228.891022 822.954102 -106.662048
-190.071518 846.996460 -119.645966
-391.439758 806.679504 -312.638916
-110.909081 934.126953 -160.581238
-278.127441 884.209778 -262.106537
-235.149887 829.393738 -135.296188
-61.077263 1013.952942 -247.869232
-230.183640 886.376160 -229.583664
-198.634155 948.761353 -318.167419
-262.222595 984.466064 -403.682129
-344.564392 858.206116 -319.084747
-124.994873 973.414978 -268.547272
-437.169617 742.108643 -250.315247
-282.297241 920.857910 -445.237793
-186.307037 932.091919 -311.812958
-212.527191 859.334167 -195.196808
-364.175262 820.794983 -300.932037
-410.649048 824.766846 -343.617188
-244.397461 850.092712 -140.355225
-458.285400 769.356628 -291.985504
-269.594574 892.101501 -266.647217
-343.106995 860.003845 -412.814575
-187.073380 959.463806 -321.902954
-379.930603 768.975647 -235.269272
-324.989166 785.352600 -126.464653
-61.092117 1005.178711 -230.177841
-459.169067 722.148865 -241.859436
-145.989944 936.902466 -186.566986
-137.276489 993.188843 -309.026917
-285.649780 947.150757 -401.308105
-29.383101 1001.677734 -201.835327
-259.413330 891.104980 -260.152069
-309.320251 837.792664 -254.318130
-410.962219 853.241638 -357.228577
-316.129761 802.177429 -153.857559
-146.444305 970.313171 -297.911285
-93.212044 953.565552 -140.976791
-257.518250 966.038513 -436.003784
-35.122704 995.401978 -194.673874
-357.740295 737.754028 -76.076439
-311.758636 864.630432 -446.507965
-326.009308 832.822510 -223.461624
-400.933228 728.636536 -162.828293
-277.389832 967.379761 -402.772003
-78.621376 1005.631531 -271.894928
-348.830933 906.034546 -395.199707
-194.682846 881.196960 -173.949051
-149.156189 886.591919 -128.679428
-190.093887 891.718384 -151.283524
-297.167755 837.404846 -235.095718
-239.916626 977.772095 -417.218262
-104.348122 1005.674500 -292.358948
-204.595047 841.402344 -99.750137
-358.260803 745.370239 -81.913101
-73.656914 1019.289246 -268.240784
-48.103424 967.764526 -179.157715
-70.252167 999.535278 -250.384583
-294.594147 853.857117 -221.879074
-247.939392 807.698914 -98.821709
-133.305435 915.187073 -190.084824
-277.523315 890.741150 -454.160553
-441.267609 759.809509 -292.863892
-296.020599 899.988770 -333.897461
-258.434204 785.397888 -78.094398
-138.599930 984.310425 -305.229034
-94.869919 1000.758057 -276.877930
-231.697037 825.317566 -118.776245
-204.593658 955.686035 -340.315216
-68.822456 976.689514 -189.075760
-202.460693 883.996643 -181.322449
-459.289307 717.053711 -247.718796
-199.675659 942.993347 -307.265076
-434.454224 712.369141 -172.740891
-261.239563 914.728149 -465.730042
-208.071671 833.124939 -96.175339
-289.217560 935.991699 -387.167664
-316.844238 868.906189 -294.199249
-263.362366 792.163757 -133.176682
-107.850296 941.393799 -137.959015
-384.126312 704.686890 -30.636808
-254.165924 952.984924 -418.913330
-413.154053 762.426880 -242.292526
-419.578400 861.920349 -362.342377
-107.966377 969.179443 -214.814346
-171.051407 952.526855 -291.361511
-395.240936 847.680359 -410.792145
-260.886414 984.499512 -431.458496
-224.794113 915.537170 -256.483398
-308.326263 822.595276 -221.197235
-242.949783 1016.806824 -438.871277
-212.750046 976.013611 -364.529602
-342.616302 777.850708 -217.412994
-282.014954 947.449158 -428.743591
-156.175842 910.174194 -165.229340
-213.975922 842.240723 -99.591652
-241.000916 925.185120 -336.148102
-235.080261 844.862549 -126.914063
-200.111420 896.522522 -214.421127
-163.099960 916.835266 -174.360794
-344.372620 740.859802 -58.737526
-236.925903 931.656738 -318.929199
-53.893738 996.086670 -188.301819
-165.960739 894.578613 -161.273514
-287.088043 837.153564 -210.944717
-275.137421 977.636414 -403.373474
-137.802063 926.934937 -159.939087
-152.615448 1004.410950 -335.883270
-421.529694 733.655884 -187.019775
-299.173126 787.442810 -86.301414
-57.567986 969.954895 -157.747055
-313.736877 915.539856 -361.494934
-339.381256 732.131775 -76.315933
-340.018860 823.063293 -286.613312
-71.451744 1001.396545 -220.060242
-265.264404 893.909790 -275.939850
-285.417419 782.566589 -94.895164
-247.664627 915.987854 -301.947235
-286.389923 860.798279 -305.365356
-248.298965 930.934082 -382.469666
-244.754288 908.082397 -461.476654
-287.417145 796.744019 -85.245453
-332.285400 862.758545 -442.201324
-360.643280 834.814514 -327.735138
-248.991150 935.251831 -337.225952
-359.676758 783.755676 -234.921799
-257.360992 993.419373 -414.914001
-242.147202 853.682800 -176.036041
-175.033997 995.252625 -382.740417
-431.549805 769.384338 -258.134613
-280.855438 847.162048 -200.691559
-33.231804 1012.141907 -215.046509
-385.736267 723.689575 -87.748459
-362.501343 814.320374 -287.043396
-85.778503 946.536560 -184.245590
-232.666946 888.943359 -233.684647
-116.933846 925.695679 -165.961945
-283.229980 836.490662 -210.602249
-87.201324 994.055603 -235.965164
-177.140991 963.107117 -301.137268
-311.481476 800.869141 -176.792419
-325.197510 807.072388 -198.254807
-102.683296 1037.877441 -347.213928
-248.162994 897.428711 -275.023224
-168.231064 874.967712 -130.958145
-230.369339 901.375183 -259.530823
-132.944931 937.926453 -184.969116
-396.975891 832.592407 -330.578857
-295.037415 932.725769 -384.322174
-152.967758 920.190796 -201.978134
-243.339325 1017.069153 -434.512299
-167.115860 929.458618 -237.942810
-102.235611 972.475281 -235.460052
-341.645813 840.450928 -303.734833
-293.635986 780.468140 -70.395889
-271.140656 949.990417 -377.898315
-345.767212 792.607788 -196.428207
-428.567810 755.645203 -234.172150
-265.791962 829.360474 -166.242691
-182.648285 1029.702393 -439.662292
-123.840454 1018.435181 -345.261292
-187.357880 851.146912 -118.540024
-355.172760 735.735596 -93.974609
-253.417526 924.098633 -326.104492
-211.351318 892.440552 -188.214722
-289.836945 858.746948 -257.188934
-325.462097 736.593689 -67.223717
-455.015198 727.874634 -275.690125
-244.059662 891.321350 -274.387268
-132.858887 1026.876465 -375.949829
-214.001083 960.535278 -363.865509
-402.061218 743.608643 -146.781708
-114.435516 1034.696289 -356.778992
-314.282471 757.825195 -88.117073
-137.198654 1018.971924 -367.616638
-315.439453 809.534180 -204.555069
-156.331802 902.446960 -156.757996
-277.630707 806.990967 -132.318130
-309.396942 802.367126 -164.530746
-88.968513 993.046997 -279.515137
-68.529053 985.130798 -221.825439
-339.243866 726.876648 -93.132263
-122.481056 979.658386 -296.937378
-185.498047 983.448914 -385.146484
-80.289314 957.190979 -138.095612
-179.465469 886.746277 -120.554016
-251.420776 915.888794 -319.188354
-325.944336 929.248291 -413.208862
-184.686096 882.825378 -136.543442
-77.072975 1001.120178 -259.574188
-274.736206 964.861084 -426.683746
-430.805420 854.309021 -369.903198
-173.943085 929.409302 -297.095276
-123.521118 967.972107 -226.523209
-273.901428 872.721985 -240.645401
-383.999634 762.062317 -203.700485
-322.748993 740.505371 -61.734409
-240.805710 928.849182 -340.464539
-307.934967 825.575867 -194.003113
-299.818115 922.065552 -384.267517
-96.135757 1024.929199 -337.463501
-303.379761 930.532532 -382.310516
-250.630829 942.267273 -348.413269
-64.210869 945.080261 -164.054321
-311.446594 800.810303 -169.077438
-323.174072 762.950623 -162.294647
-303.255554 915.914673 -425.551147
-167.683777 869.301331 -113.260910
-346.139648 778.804443 -179.050720
-238.349930 868.121948 -254.703857
-386.913727 785.721619 -247.049896
-286.388336 848.977112 -205.396652
-376.002075 776.372620 -184.755554
-192.333160 920.528992 -255.793152
-286.062500 910.539307 -343.877533
-190.689529 968.371094 -387.949158
-318.470276 898.550598 -351.891907
-458.262878 733.857117 -229.467758
-235.955795 872.721619 -217.639984
-115.182610 937.659424 -195.299622
-159.445694 1018.496277 -405.722076
-139.695587 907.542908 -156.550278
-269.549713 972.878174 -430.854523
-293.162354 767.676147 -71.047501
-497.699921 755.436707 -304.387878
-430.801147 719.281555 -187.807007
-219.748123 923.862427 -267.525879
-314.767761 823.922852 -271.958099
-139.351974 946.176880 -231.524628
-413.128876 806.114929 -306.346313
-128.071182 1060.606079 -415.683594
-305.668884 906.940674 -447.041840
-302.014679 766.725952 -100.411079
-49.365051 984.078918 -157.824432
-300.785522 826.743713 -175.836823
-378.969482 810.564453 -302.247772
-244.076279 928.848572 -351.262543
-322.424957 881.187012 -420.048096
-333.630890 870.944519 -358.703796
-35.660572 983.679688 -233.239120
-299.626526 859.462524 -448.524017
-161.416397 893.426025 -130.626663
-268.195862 843.862244 -205.384415
-176.971420 855.178772 -114.538116
-246.225113 972.084473 -401.606323
-193.626801 960.656372 -335.430817
-269.896698 853.295837 -238.993805
-32.767868 992.083496 -168.537842
-316.494293 814.951111 -181.485519
-298.426636 909.543823 -368.433716
-386.454315 737.726318 -153.838257
-96.196770 997.357544 -259.616791
-74.001717 976.576477 -185.751266
-278.187012 951.587402 -401.642548
-385.789551 853.787231 -412.208679
-369.133087 710.371399 -71.357201
-332.122986 797.811401 -203.126053
-141.319412 932.749084 -172.628464
-297.591888 868.671692 -307.880615
-338.143738 757.394043 -124.291725
-58.923157 973.473572 -176.027954
-22.657305 991.537415 -194.814026
-188.616226 979.273315 -359.406433
-266.357880 972.267151 -391.568481
-309.868317 916.631592 -371.957367
-235.620041 1023.299438 -431.598206
-442.214539 727.446777 -250.172699
-142.779556 885.709351 -123.379219
-135.009445 945.861694 -198.977249
-227.818390 884.016479 -193.325729
-97.635483 923.945557 -168.452469
-290.354309 859.421997 -271.070496
-314.342468 819.275574 -185.156342
-369.348724 823.125732 -323.947479
-278.971619 777.859070 -90.597595
-134.961456 994.737427 -314.385406
-240.245392 879.313538 -229.860977
-212.254456 867.111267 -166.067703
-352.627014 784.214417 -168.847717
-311.135529 758.015198 -78.431992
-188.476715 881.595642 -154.139160
-399.070190 716.247864 -129.685074
-105.185005 926.192078 -151.555786
-294.113861 848.654175 -238.228989
-272.777954 853.884460 -273.682159
-239.574524 863.193909 -216.474640
-364.914398 808.608093 -272.767273
-394.722107 811.476196 -323.509003
-448.651367 854.382507 -359.208710
-251.469040 845.636475 -188.047882
-239.341782 979.090759 -390.756134
-305.090759 864.419006 -321.150879
-336.132935 858.789734 -308.935425
-171.015839 939.746765 -242.319962
-230.261536 884.236755 -225.337341
