ply
format ascii 1.0
element vertex 1375
property float x
property float y
property float z
end_header
-350.953918 778.831055 -578.421509
-228.778397 825.372681 -576.503296
-248.075363 795.167175 -402.641907
-59.845734 968.436401 -384.003815
-167.752289 865.192505 -319.758118
-68.610779 957.277039 -280.335999
-52.153446 1013.744446 -537.048157
-267.858063 803.610657 -570.969666
-66.942932 956.110229 -405.502930
-102.755966 908.061584 -257.283417
-61.793804 946.230896 -271.636810
-308.565033 781.670593 -562.737305
-188.671326 835.484619 -240.796387
-255.971130 777.554626 -259.562531
-253.249924 781.445007 -233.194351
-36.391785 1000.119629 -342.045593
-222.225739 820.092163 -347.602081
-245.224426 784.426086 -245.652740
-235.111710 825.051758 -530.960693
-67.202423 942.128174 -294.493622
-395.514984 679.521057 -416.160706
-170.022827 895.034241 -591.234314
-153.963043 953.956421 -595.150024
-176.973343 860.813721 -319.258118
-83.285774 947.285950 -330.237091
-364.032593 674.156494 -277.494995
-124.141914 912.903320 -395.382355
-289.451111 744.759216 -304.625519
-191.598923 862.964050 -343.387299
-191.657639 846.640320 -339.427704
-297.650726 768.192810 -516.333801
-91.945313 950.730835 -404.458252
-398.232391 653.603760 -236.179001
-296.144379 763.830200 -350.053467
-398.543884 682.536560 -386.447388
-51.464024 960.182861 -324.441132
-305.264648 755.789795 -311.305054
-317.602570 794.170532 -543.561279
-306.366180 739.745911 -308.649689
-154.959579 907.624390 -438.256287
-159.391327 867.687073 -454.595154
-195.931931 859.744507 -482.785217
-319.219696 765.670959 -489.625336
-223.994797 809.445618 -319.901764
-394.215698 654.187866 -264.441650
-141.333038 941.032288 -549.906128
-224.343597 770.864929 -604.884705
-150.575104 878.667358 -468.948456
-280.440491 771.072937 -375.113525
-387.014008 689.178101 -418.291046
-197.209473 866.078369 -454.615479
-70.502167 958.128357 -486.600891
-410.664154 647.772888 -283.730591
-191.247726 843.973145 -297.349152
-178.998306 804.968323 -598.539307
-151.846298 869.515930 -607.890503
-58.790394 980.478699 -389.205719
-246.439514 788.913025 -274.361389
-320.335083 801.118103 -550.402161
-96.722626 949.839600 -368.457977
-71.122002 953.068970 -354.271667
-329.980408 710.063660 -388.922760
-265.803070 785.430054 -435.786224
-252.855927 793.588745 -269.641449
-329.462860 730.267090 -504.165985
-326.871338 705.745483 -230.477753
-117.141747 936.427307 -389.715729
-49.722240 982.227234 -350.774261
-319.833618 732.297058 -382.722778
-347.694519 697.083069 -464.298248
-93.395386 925.203125 -346.645233
-389.383728 686.486145 -425.839111
-381.695526 649.602844 -336.720856
-96.799599 950.164612 -454.866364
-20.878746 972.829834 -276.696167
-227.078720 826.156494 -305.413391
-167.146606 889.880249 -434.649200
-340.809540 724.692383 -463.601135
-226.388031 758.139343 -600.045532
-333.231995 713.551331 -344.961212
-188.855957 840.653076 -451.536407
-394.080322 681.121277 -393.076599
-267.462341 796.997314 -383.240875
-58.181992 930.038330 -298.130890
-245.429810 805.953003 -447.419495
-239.879440 814.406677 -466.999939
-127.844887 1002.563538 -575.317200
-285.637207 780.936096 -542.324890
-338.390167 712.466919 -286.234131
-165.868484 913.722229 -548.837830
-322.592987 737.349915 -511.180115
-266.023804 741.584778 -229.666702
-103.552254 907.677490 -256.186127
-359.482117 701.013977 -489.648804
-249.047638 797.086609 -356.113495
-317.349030 729.245911 -464.057068
-404.037872 663.341614 -492.370880
-397.275543 668.489868 -365.136719
-83.680466 960.956116 -355.538422
-421.779114 663.550720 -483.966827
-197.862350 854.461060 -449.231567
-347.404541 715.957214 -407.853668
-218.542267 840.311768 -584.178101
-100.625290 949.656799 -424.064697
-153.229095 882.794189 -380.257965
-222.522888 796.885193 -599.724731
-73.070984 992.596497 -525.865173
-164.037247 878.789612 -265.128662
-164.381424 820.893250 -601.198120
-196.523407 873.606201 -580.381958
-402.210358 668.134521 -391.450867
-94.381134 956.687317 -430.129272
-236.604858 856.413818 -571.690796
-370.616669 666.489014 -253.610229
-334.842804 724.705933 -338.984039
-180.150757 857.960693 -234.414291
-224.388168 848.664124 -568.101929
-151.213272 923.810059 -521.231323
-51.851749 989.855591 -437.878784
-213.822189 889.632874 -570.526062
-231.070206 795.363159 -276.859772
-380.261688 676.603882 -236.213928
-397.715393 662.292603 -322.579163
-164.798828 851.144409 -261.924164
-172.627380 842.099182 -607.451050
-231.261368 813.218994 -265.920746
-379.364716 661.778870 -327.948090
-207.810043 826.777039 -278.103943
-233.472977 823.498779 -572.551086
-250.553268 799.507507 -250.994202
-263.691772 792.608276 -414.462219
-104.107628 927.496277 -368.682007
-283.126007 731.960327 -308.972504
-112.570351 941.177368 -424.720642
-136.590469 901.067383 -450.565979
-338.946625 715.713440 -416.610413
-78.827103 957.134277 -346.591644
-266.268524 806.707764 -480.610992
-49.381241 987.324219 -418.768860
-410.445740 678.841980 -494.184509
-76.299652 978.853333 -510.652283
-213.558197 840.907349 -476.618774
-286.666779 756.636780 -405.629486
-63.899658 994.932861 -534.646851
-299.717133 758.918457 -462.165924
-184.820068 826.036255 -588.439575
-62.611092 965.479492 -322.489105
-155.177277 863.414856 -267.006775
-64.740852 968.802246 -330.186829
-175.199448 848.521301 -282.412994
-192.927353 910.643311 -584.404724
-54.928879 972.948975 -465.566956
-213.911484 843.817078 -394.069336
-66.291466 992.099976 -507.572052
-107.297890 898.787781 -384.848511
-254.862061 799.911987 -469.539978
-203.622971 828.354309 -336.617920
-56.493366 964.101746 -409.884857
-91.791832 939.532654 -455.269958
-303.782227 735.620117 -392.152527
-89.858116 985.816528 -570.878662
-90.643463 948.192383 -442.326508
-174.328964 865.049744 -349.365875
-57.580708 973.787903 -340.250916
-282.987701 765.069397 -398.988831
-153.131683 941.544189 -591.787231
-365.179352 725.471313 -526.661194
-79.723434 942.691101 -293.357910
-105.162933 943.117798 -449.772064
-64.232452 968.484680 -353.670868
-195.959991 899.029785 -583.637085
-342.363678 712.101196 -411.133240
-371.617645 683.712708 -276.172668
-177.334259 848.414734 -259.905487
-100.692032 921.962097 -242.703903
-126.236679 912.145691 -287.060272
-63.378853 961.846924 -366.261597
-172.536942 862.389832 -292.245422
-305.003662 736.274780 -297.003662
-353.050995 714.287048 -380.291046
-159.027969 915.899780 -599.593079
-132.204086 914.593872 -360.050018
-336.410278 721.474731 -459.497375
-154.079086 967.791992 -592.147156
-99.947884 905.002930 -339.937683
-175.477509 911.261292 -589.860596
-60.820732 981.803894 -430.823486
-265.296661 815.069763 -497.417175
-320.850586 717.836304 -294.237305
-381.260223 668.993286 -281.126740
-66.657295 979.756653 -448.436737
-177.825241 853.795959 -316.973846
-166.620987 844.705505 -607.454773
-284.352753 764.966431 -484.247070
-98.790070 909.291016 -247.307297
-223.148773 815.573608 -312.307281
-95.501984 947.864990 -363.264740
-145.074478 897.277039 -317.664429
-264.070526 762.652588 -258.961365
-224.166855 803.447571 -599.063293
-37.551125 979.113098 -254.524673
-74.164040 944.661133 -370.469879
-93.595352 925.900208 -352.153564
-111.213295 936.791260 -375.392181
-238.691803 792.712280 -243.295776
-173.957336 945.163757 -589.001892
-196.656860 843.802551 -380.579742
-422.565094 668.661255 -542.476624
-137.534378 907.039246 -324.227600
-160.677826 872.802063 -331.046692
-198.455948 852.747986 -320.305725
-197.124573 841.888489 -364.612396
-260.187988 795.555115 -351.150391
-375.994720 688.811768 -493.703247
-325.487823 720.232300 -339.342590
-141.230591 903.478882 -492.676483
-332.197632 772.591370 -585.084961
-263.962860 766.516052 -241.746857
-94.403542 929.662292 -361.747742
-234.386475 835.677612 -483.605621
-287.643494 753.184265 -343.826599
-217.853012 823.109497 -353.107697
-281.237030 759.969971 -349.899475
-371.453674 692.676636 -292.858246
-297.356689 740.382629 -315.678802
-429.238800 712.215454 -549.263794
-97.767632 935.662476 -329.959900
-412.528900 665.458740 -393.299042
-74.572243 932.881714 -250.425293
-238.545853 820.049805 -444.489349
-175.499649 871.720520 -390.664673
-318.408203 737.974670 -450.142303
-240.178497 812.940796 -317.309845
-258.799164 826.055237 -566.038269
-38.442673 995.757080 -357.997009
-121.760719 943.333374 -481.667358
-226.004837 832.862793 -511.053802
-197.263275 780.379761 -605.540649
-207.352676 834.243591 -336.157318
-141.158813 920.999817 -470.346008
-294.908783 732.087280 -242.174713
-45.469147 1011.864075 -480.202271
-386.148865 752.368835 -550.869141
-342.739960 694.988953 -392.141144
-268.849152 798.076050 -584.136353
-162.759109 904.664551 -540.320129
-300.686127 769.357971 -444.456390
-322.279205 684.264587 -268.678986
-87.504738 951.848206 -365.575989
-280.913513 762.700073 -341.435333
-46.164143 1007.392029 -490.545197
-115.116096 948.987427 -479.487854
-330.888702 726.654053 -305.496582
-154.261276 879.635620 -315.597321
-123.886200 911.993530 -515.743347
-162.476471 885.965271 -368.738373
-191.191940 850.755615 -366.942566
-115.341080 919.132874 -266.046356
-112.961395 926.683105 -522.443481
-372.749634 696.900085 -428.316864
-181.431290 856.155212 -394.028107
-385.240448 679.346741 -416.071899
-158.328842 874.528381 -336.776093
-115.641563 931.210327 -419.431061
-82.250229 973.294495 -491.630524
-46.332970 964.879150 -325.499664
-239.864685 796.417114 -233.396561
-230.741470 808.065308 -314.679108
-160.021164 856.472839 -366.344727
-108.301323 943.751831 -542.472900
-129.722733 870.393494 -339.503540
-406.094177 668.490112 -370.270142
-310.561859 745.359314 -457.484100
-168.469482 929.416443 -590.217529
-87.510307 964.724121 -477.816284
-277.893372 793.064331 -429.253693
-230.476654 826.903503 -450.837463
-234.355713 827.934937 -369.392059
-185.549194 804.440125 -605.541382
-139.933670 918.151184 -444.884521
-266.588837 748.317444 -261.250244
-410.344666 670.366272 -360.202454
-35.017372 966.252075 -356.665955
-75.006081 961.955627 -372.174530
-357.567902 699.889160 -309.176208
-379.266785 687.932007 -403.628357
-90.468887 960.933533 -435.560059
-99.055984 956.656128 -480.600677
-145.294525 908.441467 -374.140381
-192.652176 836.721130 -449.283539
-71.367920 985.937195 -528.632324
-226.394608 814.197327 -342.513733
-71.798759 918.174500 -294.825287
-305.801392 727.459106 -348.487762
-100.170280 974.910950 -572.925049
-369.983582 699.572388 -368.872986
-329.341736 758.960510 -534.058716
-83.021690 946.704285 -328.880188
-120.939507 934.884033 -519.309631
-79.983955 944.485901 -267.503021
-431.896576 720.150513 -552.465942
-364.622101 666.962463 -268.987793
-322.802917 775.660156 -582.650208
-257.953461 814.166504 -473.207825
-281.462433 813.688965 -567.731079
-70.402466 981.682556 -535.854858
-212.287094 817.343933 -285.782166
-93.723740 938.038391 -303.962677
-191.351990 823.896484 -604.167603
-279.703705 748.043213 -250.261795
-350.336731 665.444153 -267.487061
-391.998718 664.635681 -263.696655
-120.574516 901.485840 -338.990387
-296.843506 734.894104 -340.513489
-147.607559 911.773010 -475.186951
-368.158569 786.957214 -570.080444
-195.046127 890.822021 -540.640259
-234.365860 817.381287 -452.985199
-255.081284 799.732727 -418.418945
-267.584717 779.088074 -366.502960
-216.767273 877.312439 -554.399292
-312.815155 754.908997 -365.145660
-220.636124 850.966980 -448.762939
-86.488121 1005.652222 -557.287170
-300.150024 758.024963 -479.911865
-142.679840 885.623596 -290.141541
-82.453278 921.284119 -341.536072
-89.552963 965.220947 -470.396973
-395.926605 653.419128 -278.713226
-31.813831 997.564148 -330.648193
-114.686501 911.726868 -253.998917
-110.597382 912.963867 -338.764343
-210.791412 833.710510 -572.646362
-260.917786 795.882629 -484.931152
-72.864380 963.674255 -339.601501
-247.511871 826.873413 -454.011444
-61.838642 998.882202 -498.923065
-285.495941 719.877625 -245.297974
-248.672440 802.095215 -305.798340
-65.925018 961.218506 -372.663025
-216.400818 825.840271 -261.641663
-80.750359 932.772461 -292.884125
-313.044586 755.375793 -397.376495
-80.334106 943.685547 -376.162781
-77.159943 940.893250 -469.177277
-88.602928 949.892456 -535.135620
-78.386963 959.786133 -378.542755
-265.056183 806.487366 -466.358612
-187.985947 815.281433 -599.066833
-37.741528 983.400940 -258.687683
-126.294167 890.809021 -254.400085
-115.577148 938.641174 -509.397675
-305.899872 749.441040 -302.085144
-358.011688 713.546326 -417.620605
-83.849785 948.024353 -398.784912
-317.379120 736.057739 -310.445038
-294.618927 777.492493 -445.588165
-212.645294 828.738770 -372.069580
-188.452164 888.552246 -574.278442
-281.648071 736.811157 -584.135681
-256.708588 804.280518 -452.969696
-148.290482 871.360168 -276.363373
-334.326843 727.567871 -331.512848
-162.163208 884.624939 -422.110596
-349.247223 674.076599 -313.934692
-412.916718 674.572693 -393.548004
-287.223022 815.046387 -561.442932
-116.335609 893.946045 -370.916229
-108.565460 935.974854 -401.585571
-199.096085 824.617676 -259.268707
-123.558128 927.368835 -430.619537
-231.169235 816.254272 -488.990570
-191.530670 889.672852 -560.043762
-285.490723 779.158997 -401.114014
-84.578300 966.364075 -448.296417
-246.255417 798.006836 -384.850952
-78.679939 965.428772 -391.497742
-156.369598 976.255310 -581.123718
-154.167953 883.461426 -338.649963
-282.705597 767.152222 -410.691711
-302.822327 756.971619 -344.176697
-210.046844 854.841736 -584.935791
-279.339996 783.400513 -589.556763
-262.903717 774.500977 -363.144318
-90.931656 935.101501 -347.213745
-204.347961 860.641602 -466.592621
-257.088287 839.879700 -542.104126
-341.909698 773.425598 -567.744995
-164.402481 919.818420 -592.219910
-111.108955 952.475891 -476.939758
-248.799347 844.384033 -557.429993
-80.013664 922.376099 -330.418213
-282.735413 790.454956 -441.309814
-278.883026 794.438782 -569.677856
-205.452667 820.840027 -595.991699
-400.739349 669.361816 -448.088928
-382.646637 683.775391 -311.647888
-300.385559 770.095886 -442.915558
-295.624939 767.174133 -336.846710
-284.195160 760.940063 -376.675110
-315.889832 737.095703 -266.634583
-94.363960 928.929443 -379.917114
-160.147125 929.938965 -537.751282
-53.232048 954.703979 -322.479095
-101.636826 923.996887 -270.391174
-139.215424 883.896790 -243.046082
-251.810089 790.534851 -398.252838
-179.245102 842.602966 -272.226379
-100.911247 939.700195 -431.540649
-380.569305 705.384216 -479.065979
-363.983521 722.195251 -470.608276
-167.020233 887.039673 -418.265289
-267.810211 789.218201 -303.346100
-125.462959 905.048584 -308.088562
-308.461945 735.893982 -451.077667
-352.881073 692.665649 -314.268188
-90.905266 945.909729 -363.474884
-291.134613 738.064148 -251.983383
-242.672256 829.194763 -457.810059
-319.234406 737.759033 -428.161133
-135.150177 896.004456 -345.407562
-126.508102 1003.627441 -581.590454
-364.980377 651.359375 -262.939972
-129.820953 914.536011 -334.062958
-364.297028 696.074097 -516.178772
-99.842072 933.036682 -471.805603
-165.570435 852.686707 -260.391907
-263.528381 803.511230 -489.234711
-141.527023 898.871948 -333.600342
-168.749298 934.726074 -581.937744
-245.035995 822.256531 -423.283813
-376.888947 693.366943 -433.431763
-243.539169 767.525330 -599.422546
-93.235329 931.008240 -330.167175
-192.048782 802.302124 -599.317871
-50.524307 983.511658 -381.186768
-120.677292 901.666138 -444.807648
-284.474243 774.720886 -471.347778
-197.909317 911.536499 -577.538330
-244.108170 791.049316 -452.038391
-64.431488 977.809753 -358.198120
-139.168152 897.319092 -367.311920
-295.346436 801.538757 -571.136902
-178.472473 878.718567 -493.778595
-236.635239 815.538147 -590.960205
-86.049728 935.552979 -248.681793
-52.035782 951.370911 -268.365875
-276.170654 752.237427 -400.681915
-299.143585 760.553650 -446.373810
-69.242050 951.033325 -368.756439
-191.360260 868.858948 -436.981812
-229.960388 808.898438 -330.379059
-278.525391 783.521118 -340.814728
-171.424240 965.569641 -586.309937
-230.917252 807.310730 -328.685577
-250.190689 766.099915 -600.963806
-223.673126 837.571228 -409.776489
-307.865936 753.884033 -359.844482
-182.713165 844.164490 -599.137024
-160.741699 898.218628 -401.810760
-161.685471 864.198914 -261.204559
-181.397415 881.446045 -415.633728
-95.537865 924.150146 -240.851669
-271.678467 775.856262 -372.584595
-193.723038 872.007507 -435.056122
-243.106110 823.000183 -573.249207
-275.344299 775.621765 -281.182129
-348.369812 706.116516 -411.899445
-83.339897 944.888489 -362.788422
-262.885651 830.152588 -554.818481
-369.628937 682.351929 -336.454865
-260.668274 794.036072 -507.376556
-204.298355 847.990662 -469.773010
-181.201981 836.402832 -356.736755
-132.080719 911.814514 -338.756897
-116.773911 905.971436 -276.263611
-234.506195 819.308716 -300.866150
-310.900879 761.523010 -443.187195
-186.973923 838.711487 -605.201111
-218.969604 845.521301 -512.931213
-107.071915 935.975525 -348.092255
-169.192184 856.368164 -289.302307
-239.582916 831.386719 -486.545441
-240.110565 839.688171 -573.565186
-334.763763 687.050354 -255.874954
-372.673920 679.484619 -398.907959
-181.096832 886.106323 -472.547333
-259.991180 788.074280 -582.412964
-301.949371 752.265625 -574.217102
-102.263634 922.039978 -379.162262
-159.051102 864.886780 -606.879761
-263.862000 752.224915 -254.687515
-374.041412 702.849915 -467.793060
-180.367279 879.333618 -578.484192
-323.100922 746.756409 -424.806305
-46.746292 975.426758 -357.762939
-151.207870 883.216614 -323.060028
-35.121784 968.313721 -268.657532
-22.035835 986.095459 -312.855438
-248.234131 843.798218 -573.237549
-252.528381 815.573059 -562.474548
-320.521973 732.560852 -275.709625
-202.630005 863.558411 -503.731201
-389.053162 696.223083 -443.258667
-254.218430 789.125000 -342.378876
-160.498901 880.645752 -342.424713
-44.710548 981.218933 -444.127838
-67.894485 928.437988 -260.032593
-217.491531 872.468140 -564.987183
-190.183594 859.001648 -441.760651
-126.644493 890.997925 -290.576813
-97.685448 933.128357 -285.742584
-176.962967 883.479126 -450.345276
-98.785416 947.071655 -423.159241
-243.848145 807.608948 -472.465485
-138.876587 951.666687 -586.478943
-231.685989 825.865784 -358.338776
-37.561470 967.723450 -318.431366
-298.238708 763.109253 -457.421204
-274.349091 754.253662 -248.814667
-77.506821 980.467529 -459.645569
-303.049438 753.251831 -299.978973
-79.532867 950.886047 -332.803162
-214.247528 810.259949 -271.475861
-153.936249 891.222412 -354.421539
-209.430466 834.662292 -445.320313
-113.622383 915.240906 -344.658264
-152.418457 921.630310 -561.280151
-177.572159 901.651489 -560.478394
-67.528191 934.120239 -268.685181
-185.896164 915.915588 -559.258545
-170.372955 875.028381 -309.677826
-377.236572 684.127197 -443.636688
-68.599464 949.522827 -302.031586
-332.912445 734.320618 -390.618011
-220.390717 820.935425 -382.741364
-204.997742 889.226929 -542.661133
-110.628159 940.849548 -458.705261
-70.245651 975.571777 -450.610107
-49.146217 1004.851746 -502.557800
-309.227600 801.342957 -561.608704
-226.553696 845.912598 -477.690308
-38.108334 986.209534 -320.560181
-400.485260 657.538452 -432.036041
-118.933815 928.182007 -466.807922
-82.707764 993.118347 -531.271973
-51.112877 955.984436 -408.682220
-109.787033 925.571289 -306.106628
-215.688248 836.553467 -464.208527
-344.522888 698.809753 -410.543518
-117.219040 896.222961 -265.031219
-243.441483 799.211792 -334.893707
-189.516510 815.236206 -605.637817
-147.925476 886.747559 -316.741150
-174.346542 828.358887 -264.569763
-207.897720 846.546387 -465.248260
-325.398621 734.774597 -262.142181
-347.018616 683.775879 -327.366333
-225.939468 834.792603 -411.115479
-141.620209 884.461243 -593.626343
-12.642467 983.563232 -280.070068
-246.777725 805.392090 -430.321014
-131.770004 926.869385 -460.109161
-403.361816 745.213562 -561.877625
-131.590408 927.816956 -457.252716
-152.019089 907.018005 -458.178558
-134.913025 886.045349 -311.192810
-364.456207 699.652588 -456.647705
-255.360855 826.108276 -524.177063
-347.286987 687.976746 -289.129913
-234.004456 839.425049 -454.304260
-288.909058 764.122375 -238.348938
-392.547638 678.190613 -504.269104
-276.596771 772.384277 -484.821899
-79.387268 948.583130 -319.235565
-83.823273 919.826782 -384.465179
-226.813843 849.749512 -508.141266
-255.700882 748.974670 -250.473007
-225.304535 871.933960 -541.455994
-183.178055 860.690491 -390.161987
-56.027828 988.941650 -430.780243
-128.898590 910.345459 -401.422729
-319.071381 727.416138 -355.041870
-213.140503 844.395081 -378.555542
-183.148361 874.513977 -584.490479
-182.337952 859.579346 -399.207001
-343.662750 711.577148 -415.669281
-223.544891 764.431091 -594.824890
-55.904964 988.199646 -393.350006
-325.921417 727.270752 -389.492737
-160.908920 878.085449 -287.192474
-90.926956 963.077637 -505.695557
-105.204559 908.759705 -391.977570
-169.145538 865.352661 -383.979095
-188.563644 868.103760 -502.463593
-277.859711 775.125549 -387.310181
-182.222580 824.261658 -287.592407
-299.407867 728.692505 -319.818634
-351.277252 720.657532 -357.595306
-263.455566 826.732422 -581.528259
-374.960968 666.204224 -421.356628
-404.530457 666.357239 -263.399719
-133.467560 904.848206 -324.943878
-363.794983 677.917786 -288.702850
-101.242043 909.704163 -384.194702
-269.628723 776.416199 -338.086456
-170.045715 962.401489 -572.705505
-250.289536 797.312195 -284.896484
-136.240952 916.975342 -493.523407
-44.511940 973.289001 -271.102875
-147.681885 893.668701 -408.283203
-231.266876 838.507690 -494.758881
-258.050201 802.130737 -380.325256
-216.917725 842.571899 -554.199280
-356.578735 687.487427 -273.586365
-160.205521 884.689880 -382.611084
-156.470734 873.825806 -363.066498
-227.590790 774.123413 -603.958740
-34.840195 987.396851 -269.423615
-403.177002 661.916016 -359.032257
-231.715271 817.705017 -388.612549
-346.795044 694.361206 -423.172333
-157.061539 818.871277 -603.034668
-83.152802 921.743713 -262.868500
-177.939377 874.482178 -370.076996
-321.473114 710.061584 -254.111954
-332.750427 743.070923 -398.926666
-361.413666 663.591614 -253.026855
-248.244598 805.903198 -424.914337
-63.978683 988.855957 -529.377625
-246.295761 811.240967 -343.418152
-230.869934 797.278381 -425.931213
-73.181198 940.365845 -298.742676
-190.229233 829.076050 -260.074646
-131.569885 895.192505 -319.959045
-110.866348 903.590942 -265.105103
-246.586060 786.558289 -326.296021
-270.016113 765.231201 -354.389221
-291.844482 755.468628 -465.382202
-195.437027 827.448181 -279.866150
-340.892181 698.267090 -408.352997
-72.059036 986.663208 -523.791504
-231.258347 795.346558 -247.029892
-57.232281 975.563477 -333.766235
-260.453827 853.739563 -564.086792
-255.344498 789.710388 -344.610931
-140.534821 897.334290 -438.741882
-45.470242 1017.547180 -490.811798
-36.453075 965.779724 -289.396332
-407.395508 664.137512 -436.667877
-338.281738 730.197083 -345.630493
-160.940384 898.044128 -457.505646
-252.212952 793.394775 -350.347046
-139.563339 888.549866 -255.289948
-407.298737 656.491211 -401.792633
-224.102997 824.818420 -387.401489
-259.995789 797.250549 -361.814606
-175.176422 886.591248 -471.752991
-86.704010 952.111084 -355.395142
-58.179562 939.380432 -296.794037
-51.848690 969.395752 -282.923096
-195.786072 846.293640 -425.188171
-133.915329 934.088684 -528.328125
-210.429703 886.903748 -550.752502
-139.549484 976.783569 -588.959351
-82.553551 955.136536 -353.288330
-169.086288 852.986755 -253.162674
-312.751099 755.080994 -391.633392
-180.824982 888.197205 -496.099091
-172.879959 959.019165 -592.818542
-261.027618 796.401367 -479.397583
-370.337219 675.536499 -300.054596
-102.202179 936.796997 -327.552673
-267.020538 779.069702 -264.527527
-407.154144 659.920959 -353.995026
-156.266968 895.647461 -478.170990
-184.066330 869.431458 -410.372498
-286.403381 768.375061 -515.416931
-195.644623 855.110718 -591.283997
-136.156448 917.589417 -427.942841
-39.392647 988.790039 -319.827026
-77.908180 947.566406 -273.270691
-236.844177 830.976624 -487.160278
-180.725677 866.213623 -413.482422
-158.079178 883.748413 -593.895447
-394.245209 654.473694 -346.878082
-153.751434 898.092224 -356.136780
-149.708160 886.497864 -313.073181
-328.985474 756.291748 -487.473907
-259.604431 792.045654 -379.497192
-190.259186 818.979065 -606.185364
-67.809334 955.047607 -302.570251
-153.255692 869.199402 -250.871689
-153.613953 858.716370 -607.398621
-154.744080 865.359558 -404.803711
-358.274841 700.596008 -412.828918
-215.792816 848.837402 -450.270660
-148.567368 875.440979 -260.417328
-123.291534 908.205933 -405.761810
-314.611816 749.296936 -358.291687
-195.573639 885.772034 -574.562988
-74.892204 931.666504 -254.775604
-276.761200 764.273865 -348.899353
-234.480591 806.220581 -249.101364
-151.005371 878.221313 -314.232788
-225.837769 828.732361 -318.068390
-43.522644 979.588928 -362.493744
-87.576508 934.879395 -262.835449
-347.906586 669.478027 -287.471283
-226.808395 799.651855 -596.397827
-251.711670 790.590576 -428.628510
-132.413849 947.902405 -589.037415
-154.125763 870.989014 -445.117645
-169.112640 857.004333 -318.727600
-62.690067 972.911926 -338.081543
-319.249420 740.004761 -494.547607
-207.615479 839.643677 -291.517273
-132.241562 894.971802 -254.943787
-366.120300 686.987854 -264.803070
-317.042664 701.262817 -289.091614
-263.214172 794.712280 -501.518005
-71.619576 981.777771 -527.079285
-224.195923 833.338989 -377.652527
-235.613144 870.993652 -559.317871
-70.879547 959.906006 -247.266754
-107.691765 939.008301 -368.680359
-151.945114 888.534119 -392.992676
-120.711151 919.114380 -375.599030
-36.870239 976.589478 -280.731079
-65.070549 952.758362 -253.473389
-149.604095 887.450012 -317.923767
-129.423325 916.545959 -368.869720
-265.056183 814.770813 -574.545288
-245.777618 784.190247 -430.706726
-129.801254 940.109924 -557.943848
-119.467918 892.149536 -352.977600
-300.374786 748.749268 -363.722961
-212.153122 839.901062 -314.542816
-118.742737 924.369812 -351.785156
-77.552818 983.331726 -528.271912
-306.253052 742.204773 -392.564087
-277.367401 772.118103 -245.590912
-227.581711 847.846680 -580.603455
-286.101379 767.775085 -298.979156
-30.441101 987.360291 -300.672424
-174.389297 894.529480 -583.369263
-317.197479 743.125061 -485.592896
-244.049011 806.780640 -266.006531
-210.148712 860.678650 -473.798737
-63.155186 964.769409 -362.997223
-139.460739 887.120422 -305.831726
-143.818710 889.016174 -310.879913
-243.738052 829.740540 -492.983063
-329.275360 728.441772 -381.590546
-142.525284 866.640198 -296.244141
-215.899231 848.468384 -562.103394
-243.985764 794.142395 -310.018372
-63.375111 973.193665 -450.003571
-147.352753 878.099548 -331.442108
-81.297157 924.606934 -258.552704
-82.410187 952.351013 -336.991302
-370.018524 685.488281 -394.726807
-376.306915 658.752991 -268.300293
-236.029572 825.630798 -458.936462
-100.932312 941.437012 -426.683838
-357.540009 675.210388 -252.812042
-60.638824 964.960205 -355.939209
-47.568676 1007.966736 -465.659668
-331.904938 726.151184 -457.599640
-34.155861 983.122986 -402.713104
-338.017578 741.037109 -424.358429
-293.071198 739.681885 -434.726044
-125.143517 908.494019 -347.206696
-187.864594 846.997253 -309.818604
-77.649879 938.031921 -295.857361
-48.815807 988.473083 -359.495300
-68.449341 960.958313 -329.633514
-352.085632 713.021118 -474.173981
-199.388046 853.773926 -376.373352
-273.767120 757.552490 -595.413574
-308.833038 719.348633 -393.586243
-71.164238 964.231812 -305.859619
-90.118202 962.436646 -506.637970
-212.628677 820.564575 -316.680664
-269.007019 777.163086 -426.410126
-196.741913 856.643372 -357.810272
-39.460995 1007.897644 -433.232025
-312.840698 746.205872 -346.515656
-205.637833 834.440674 -598.741455
-407.652100 659.356079 -282.420746
-301.666718 786.321716 -514.732605
-104.209129 934.219727 -454.918579
-396.770935 659.459778 -309.452881
-36.697720 974.171936 -271.288208
-414.074066 669.817383 -490.181396
-85.991035 955.824768 -348.654327
-362.908569 710.516724 -437.926483
-164.270493 908.381470 -504.708588
-398.771576 675.541260 -425.561920
-233.634201 865.923889 -545.528687
-197.995041 855.749207 -590.097534
-315.195068 757.658569 -444.129395
-217.905685 839.096497 -578.546082
-286.463928 772.914978 -442.357605
-386.627014 684.244934 -354.242279
-166.956955 888.049866 -423.617126
-186.136108 874.535706 -395.348877
-110.427383 917.198181 -340.187134
-45.398594 994.132629 -395.696655
-87.463112 950.560974 -486.390961
-238.992462 939.497314 -885.736328
-275.403168 761.890442 -296.002319
-286.516968 738.867432 -325.666229
-176.609497 925.808899 -547.166931
-101.900352 928.555359 -258.362488
-185.760239 818.445740 -330.490417
-126.763145 902.198181 -336.654358
-81.299896 958.122803 -367.238342
-102.154549 993.253296 -560.080933
-120.735001 912.212769 -266.650879
-370.700897 711.780396 -491.156830
-221.152084 767.378662 -593.402222
-48.073463 978.706543 -375.554810
-226.887817 840.886475 -476.507538
-236.118271 774.056946 -288.568512
-29.897875 985.211121 -279.755554
-196.948303 814.697632 -596.577698
-47.879944 992.680847 -386.166626
-216.624023 803.556519 -602.295410
-229.396408 815.802185 -278.767944
-236.473770 824.464966 -386.053314
-371.174835 737.440979 -549.364075
-296.573914 742.160034 -281.313202
-203.256577 836.895752 -408.644409
-169.279144 842.962769 -342.769989
-261.602692 755.349915 -317.135742
-181.172607 863.538940 -468.830322
-259.021606 837.840942 -543.727722
-289.358734 775.612488 -480.784515
-193.579529 819.629578 -270.593445
-143.186340 870.917297 -273.540344
-284.232422 799.209961 -511.803131
-318.256012 738.985352 -453.379028
-310.706116 792.361877 -557.331543
-55.383026 966.583252 -252.363205
-362.402557 666.807190 -231.996414
-270.052917 778.580017 -274.477173
-238.876511 821.315735 -475.659424
-163.505112 888.393555 -366.677460
-230.666183 849.684753 -561.772034
-173.708786 870.702515 -504.671539
-341.177582 732.155518 -564.370667
-195.991562 859.950317 -477.055756
-237.854874 813.237549 -447.198730
-48.999474 991.390564 -401.503693
-328.985931 743.810852 -489.656525
-171.676010 938.974915 -592.950256
-64.792053 932.849182 -233.741272
-325.023132 743.313599 -388.410950
-406.415649 650.040771 -393.381104
-281.859955 781.960693 -400.477173
-84.245346 957.952881 -340.481964
-196.136826 883.547546 -529.511597
-117.538399 943.599243 -520.802490
-121.817123 881.082214 -302.951630
-199.412460 823.319153 -257.800507
-198.433228 837.797485 -587.393921
-223.952850 883.367432 -559.408386
-325.064148 737.136169 -465.849335
-360.722748 701.280151 -317.283142
-285.616882 784.137573 -426.162354
-171.200165 883.409302 -420.313629
-337.378876 785.668396 -575.208191
-362.681244 696.896179 -466.620422
-141.016663 918.950500 -514.510620
-313.633759 725.949707 -471.944916
-395.932068 670.137329 -294.306976
-80.062531 1002.254211 -555.271851
-233.582489 808.406372 -230.884308
-212.788345 828.255005 -351.322296
-386.422119 661.284058 -341.279907
-175.161819 855.878235 -266.657837
-261.684052 771.407593 -335.873505
-140.959229 975.305176 -583.781128
-296.529541 812.542603 -543.088379
-355.567108 694.086670 -385.039032
-255.127808 816.802734 -514.597900
-147.061066 888.160278 -354.129425
-223.568741 842.396790 -474.467712
-94.080887 936.238525 -285.082489
-321.928253 732.880554 -429.348938
-247.536438 812.874268 -392.275421
-112.351433 931.916992 -396.728668
-241.125809 797.118530 -582.772278
-85.566864 954.592651 -427.486450
-70.544662 987.719299 -484.262909
-164.014206 896.572998 -512.341187
-192.235489 847.443237 -237.734024
-163.708954 877.956909 -260.049530
-273.435913 754.912415 -276.759827
-104.382675 995.370117 -560.074219
-260.168610 780.387695 -233.281265
-329.209259 723.309082 -255.601044
-178.732208 916.997131 -585.441895
-127.564217 923.061035 -418.793365
-256.892517 813.144836 -411.360413
-59.521374 979.634216 -381.576721
-399.948090 656.531860 -395.197906
-250.210526 806.909241 -419.461243
-208.074295 854.737305 -567.938721
-384.879333 649.229858 -281.814209
-122.997620 926.330627 -454.203888
-148.162109 884.855347 -311.317322
-353.231567 716.561768 -336.268311
-233.560440 804.304565 -268.793213
-73.396896 940.505371 -337.305145
-209.746582 862.797791 -533.551758
-255.200424 782.993469 -366.268402
-163.607651 938.205627 -586.807312
-349.523804 688.923950 -395.748352
-410.597015 662.123535 -363.041260
-344.611084 664.067383 -279.319519
-120.361069 916.493713 -391.877411
-177.426926 866.654724 -599.425903
-139.255005 920.723450 -426.023712
-158.742905 898.387939 -497.962097
-159.926254 971.073120 -575.031677
-107.417686 948.549805 -516.295898
-213.282425 836.915161 -318.870728
-281.320526 781.587219 -351.746765
-378.441284 676.033936 -289.537750
-185.304916 849.074646 -334.336334
-133.157776 917.185242 -388.392181
-246.326965 800.374146 -280.048157
-96.216629 953.729858 -544.810791
-330.590240 727.855469 -472.866394
-175.495148 880.734863 -415.266632
-337.549652 707.865295 -354.863617
-312.621857 744.636230 -335.512756
-173.076431 907.414978 -564.259949
-330.162964 708.912476 -307.319580
-241.712646 847.765930 -572.227966
-109.998634 924.994934 -515.396423
-143.025970 910.696289 -504.490540
-159.319916 855.607788 -589.634033
-182.489685 853.802368 -494.841187
-216.472321 875.134216 -536.354126
-319.623596 738.638733 -473.652374
-388.114807 646.357910 -355.151428
-220.223114 853.294373 -466.096039
-274.040497 748.802551 -276.754547
-6.530093 994.008423 -276.467621
-350.202301 739.377258 -502.475922
-286.026703 761.559631 -393.059357
-143.539520 865.449463 -384.732788
-358.006897 701.016357 -440.596008
-393.261200 659.810059 -338.697876
-307.463837 783.089600 -568.870911
-276.027618 784.652954 -373.288757
-250.901199 822.059509 -480.198486
-97.561203 996.375977 -559.519836
-411.376465 675.343689 -414.741608
-334.132599 719.641418 -261.153931
-105.170113 946.113037 -458.793457
-52.073177 966.970886 -390.291046
-56.257210 980.906006 -471.265045
-365.502106 677.142273 -331.847412
-157.830811 894.723572 -357.646820
-116.104355 922.980408 -328.066132
-49.117825 937.448669 -295.660553
-125.791191 923.504089 -486.123138
-298.803833 765.187195 -371.895538
-34.823505 956.968262 -361.770233
-284.647278 782.694092 -402.995148
-131.310989 871.150940 -290.324524
-110.156166 902.579651 -270.236847
-153.752625 892.205322 -433.569427
-234.976288 792.917297 -252.136826
-261.770935 782.693115 -333.362183
-224.863266 833.556396 -498.288452
-141.880096 977.472290 -574.190247
-245.131775 795.771362 -402.364929
-293.632629 756.256348 -590.394714
-344.950012 729.767578 -433.003754
-292.148773 767.138794 -478.409698
-403.127350 660.153687 -327.904388
-177.621033 803.514709 -602.827026
-339.198425 713.938538 -297.146851
-141.303696 903.230286 -319.307373
-42.336071 1007.887390 -437.590302
-399.417480 690.832520 -516.674988
-191.933289 896.298462 -544.756653
-108.758919 926.099365 -279.756317
-91.972534 947.240662 -336.049500
-275.786774 780.362000 -475.118896
-122.827332 913.334290 -339.033325
-263.831360 768.008972 -236.662918
-305.507111 757.299255 -376.199585
-393.639282 715.352844 -527.181824
-220.372742 835.088257 -494.222870
-172.664383 891.095825 -591.069397
-341.215271 709.263672 -370.411774
-381.356659 682.366577 -345.778931
-355.477112 707.695801 -289.245789
-225.963593 856.985046 -518.980408
-303.965424 755.211975 -316.386200
-74.371086 972.088806 -498.649567
-232.139008 837.878784 -502.305542
-265.153687 794.401001 -586.464355
-187.362839 864.169678 -420.539215
-262.042084 810.814575 -485.567261
-341.809204 731.617310 -373.182587
-330.311371 722.225464 -404.933289
-181.110336 870.769775 -480.837891
-308.848969 744.633362 -281.831757
-292.817871 778.240417 -413.498718
-213.477325 809.378418 -397.760529
-31.829527 1000.971130 -318.941193
-206.772003 875.832825 -575.502747
-260.412018 746.047913 -262.501770
-124.469147 916.283752 -381.311035
-121.643555 923.878235 -430.961365
-332.237549 715.480896 -318.819092
-91.496628 951.693115 -368.296600
-115.179581 951.120239 -514.587158
-222.648102 878.570007 -552.835327
-235.967987 806.078003 -346.881622
-203.143845 846.858826 -601.450195
-343.161133 712.157288 -342.651825
-205.734390 766.868896 -606.524963
-249.781937 808.842285 -458.640961
-187.046341 846.021545 -286.530884
-204.737198 844.488586 -444.446136
-358.443970 697.727722 -427.941772
-351.769073 705.165955 -426.036041
-27.987488 965.387817 -363.676239
-95.594582 959.517944 -474.002991
-140.111908 910.600769 -470.320679
-173.448837 903.518494 -574.818237
-360.745789 664.642334 -304.087311
-352.871338 676.574768 -234.305618
-41.160767 1008.808838 -449.502777
-71.103172 957.546875 -463.285431
-220.435577 800.870422 -248.169922
-358.956177 670.577393 -325.147797
-110.968033 898.848145 -402.794678
-63.164307 952.871643 -433.091522
-307.771881 758.939636 -400.142883
-284.452240 754.198547 -304.429749
-404.137817 663.678406 -480.582825
-298.234161 748.795410 -386.651154
-148.883240 902.119934 -529.664307
-352.266968 736.079895 -505.422180
-268.721558 776.709351 -344.902344
-345.527985 730.331970 -456.657684
-298.674652 745.161377 -324.015564
-135.187485 909.629944 -318.438965
-262.972107 751.555420 -274.805420
-111.336769 1010.084839 -572.805664
-196.464478 830.018494 -258.483337
-356.529480 661.317749 -255.944016
-63.715878 986.246582 -439.178619
-310.821289 746.242920 -308.579102
-359.749573 695.285339 -233.215042
-180.187469 905.227356 -580.497375
-101.800652 948.176575 -520.358704
-122.907104 923.035461 -379.146729
-377.756470 685.466431 -346.053894
-269.469086 785.177124 -509.105164
-315.049438 739.125366 -291.119202
-346.444519 706.461792 -380.854645
-259.595886 814.181702 -576.338684
-314.769470 780.600342 -563.986633
-204.016769 824.057007 -241.642914
-189.093750 849.430603 -394.302887
-344.175323 696.453796 -287.197174
-322.666199 739.058228 -247.421631
-373.351074 679.715759 -404.693146
-324.408783 721.556763 -504.406708
-375.223785 726.158508 -527.804504
-37.110020 974.940063 -251.974045
-90.118767 919.363220 -380.614960
-87.640511 958.991272 -429.979370
-97.514412 911.733154 -406.049072
-205.930695 832.389771 -327.462769
-220.748901 828.582703 -398.741638
-209.366135 780.017151 -260.622803
-200.635162 824.829651 -270.669830
-185.961792 865.662964 -349.202209
-312.309662 744.060059 -408.105560
-213.589508 835.688232 -493.929565
-104.698685 927.387024 -320.575684
-57.538452 973.719666 -401.364380
-150.218307 887.956482 -398.661072
-13.868633 979.847900 -267.406403
-138.535217 919.462036 -441.516846
-134.235748 994.314941 -568.465881
-335.205780 717.298645 -234.649796
-236.255630 820.842651 -589.334534
-262.058441 823.702698 -573.823425
-127.856697 917.627319 -426.688232
-176.256409 847.848206 -281.297699
-252.908844 788.359192 -318.084442
-134.072006 895.836304 -247.633743
-409.460785 651.511719 -314.315826
-131.870956 923.361206 -436.049469
-348.631073 706.619507 -397.074615
-272.152618 775.426270 -470.103516
-186.618027 868.373413 -477.594818
-300.211548 764.612732 -398.789642
-341.192413 697.702209 -272.723389
-234.975739 813.713745 -411.697754
-274.305969 742.426880 -347.123962
-125.910713 894.145935 -291.739960
-184.990585 875.277039 -597.721619
-232.618454 816.076660 -442.764618
-281.751434 705.967957 -233.238831
-391.193512 692.818604 -460.643311
-141.666626 877.202087 -271.964172
-327.670990 718.202515 -347.159149
-197.858566 886.692749 -564.260071
-119.978889 907.265381 -289.509888
-340.546204 721.097107 -288.143585
-59.599483 950.540039 -307.455566
-315.204681 742.812561 -314.688141
-285.859802 772.827271 -498.211761
-117.576530 928.717529 -456.883514
-108.810974 938.872559 -467.336395
-77.469643 944.575256 -499.004791
-206.146988 884.358582 -535.874268
-29.322741 989.496460 -311.454407
-382.709412 653.723389 -390.752686
-172.651962 836.163086 -305.569366
-178.045517 907.098450 -542.581055
-124.645210 955.146545 -545.896851
-81.170578 945.470642 -345.792603
-67.635208 965.996399 -435.289001
-384.213684 679.680786 -458.833801
-111.748833 922.079346 -384.916016
-140.865723 898.460938 -496.559906
-232.013123 808.971436 -330.523346
-171.961914 889.086182 -510.842743
-190.171219 866.301636 -398.595825
-331.756989 713.183777 -290.847443
-358.054199 662.932312 -282.262512
-276.909760 788.536316 -484.228516
-82.446770 970.243164 -452.296448
-358.437622 723.536072 -431.919037
-189.775467 833.399597 -600.708130
-108.858437 905.227539 -390.164429
-71.136536 977.671143 -475.693909
-57.384842 964.796631 -450.009979
-369.117554 656.108215 -306.236725
-208.128571 853.343201 -381.745392
-186.867020 850.714905 -323.833984
-233.574677 816.862915 -260.403625
-100.330666 922.540283 -470.403320
-203.044067 822.894409 -327.285706
-57.658142 961.142395 -429.784790
-219.204178 838.005432 -421.586792
-144.035370 981.171143 -574.714661
-41.835663 1020.866638 -479.149475
-254.424026 797.058655 -290.510223
-222.489380 813.875671 -283.810669
-328.057617 730.075134 -310.886902
-176.251938 899.521912 -554.307556
-346.549103 683.021057 -252.633377
-36.639610 994.204956 -317.643463
-323.454559 758.100952 -460.761688
-210.650787 794.914063 -255.499588
-99.234985 944.199585 -407.062286
-42.340649 985.809448 -333.965118
-172.092560 872.001343 -402.601196
-351.655670 687.825439 -378.472992
-212.681503 836.857727 -447.254211
-310.148804 801.439148 -550.954346
-239.674561 797.984192 -476.810089
-74.388443 932.800293 -258.738342
-163.148758 898.553955 -488.352905
-292.088074 751.805908 -343.023071
-48.997707 977.557068 -283.697113
-192.777954 836.912476 -285.201996
-306.620239 737.916931 -322.655609
-239.254745 830.862854 -483.681793
-197.497894 847.019531 -592.863037
-54.445358 956.233276 -257.672241
-386.901520 726.785461 -541.463013
-154.923264 901.971863 -586.272034
-380.194031 685.662292 -362.052368
-276.988831 787.725708 -478.345215
-214.363312 849.002014 -440.419098
-184.122421 856.063721 -268.490021
-388.001984 647.724792 -238.686340
-344.149048 700.789429 -287.016205
-231.156601 829.164185 -480.197235
-198.463089 862.692749 -438.914734
-296.210358 741.903625 -400.006592
-301.306366 727.238892 -246.746994
-213.652145 844.606689 -395.218994
-267.044678 780.588196 -268.833282
-234.848602 824.605408 -469.086243
-210.552200 836.156738 -595.360840
-288.122040 770.427551 -340.052887
-49.187214 956.151184 -247.565292
-148.369736 909.188110 -512.163086
-244.666382 818.436096 -397.868073
-120.791862 920.972839 -471.156006
-172.743362 868.021973 -318.189880
-211.648193 859.312622 -450.813354
-264.997192 768.042480 -294.314301
-206.296448 838.430054 -394.930756
-169.634079 947.106628 -590.412415
-362.954865 688.856323 -374.009918
-249.765381 839.511536 -543.402283
-291.638763 771.701111 -596.134766
-205.972916 836.172607 -267.292847
-177.659805 873.950928 -359.161163
-128.299728 996.150940 -581.348145
-227.159882 820.688965 -596.231323
-131.851669 936.041626 -496.553955
-383.300018 731.992126 -535.976379
-32.721344 973.233276 -259.510742
-302.743378 722.717102 -239.767471
-112.292900 945.748840 -445.497528
-379.158875 659.799072 -283.742065
-386.728851 668.037720 -262.811371
-332.737640 719.113525 -387.714264
-365.322937 703.367798 -379.706146
-374.118256 678.270813 -387.758636
-216.280502 822.944153 -246.283798
-181.642776 913.220032 -558.495667
-103.729431 891.806274 -324.518616
-297.711060 787.467468 -538.009888
-234.594131 819.993286 -316.296539
-246.738541 783.276917 -593.452881
-230.887039 824.002014 -331.603760
-59.755604 981.096619 -372.168274
-230.102631 837.871826 -587.726074
-166.189651 903.107666 -578.461182
-287.589203 734.132324 -342.246857
-82.323700 943.005615 -272.863403
-323.040558 734.997925 -305.394806
-290.816040 766.430908 -577.112793
-133.100998 885.247864 -252.116760
-287.116730 747.050293 -255.701065
-48.193428 975.310364 -255.315506
-327.032898 725.554565 -408.835358
-81.633537 941.120178 -367.548248
-329.156555 716.819092 -339.485626
-204.955429 833.910156 -361.705353
-147.584579 882.841919 -254.666672
-160.006119 955.345154 -569.043213
-224.295563 826.486938 -309.157440
-286.698853 786.127197 -461.496307
-278.900757 765.323853 -593.525696
-71.752083 943.206360 -243.820374
-189.572540 849.181824 -361.172882
-53.341606 955.498230 -327.904419
-336.288177 744.880554 -498.456177
-242.270355 783.490051 -602.670166
-101.605759 940.662903 -384.031738
-58.779156 951.429688 -278.774048
-141.979004 918.625427 -591.019226
-49.656593 984.388550 -361.905823
-260.390503 783.139587 -588.576843
-270.362030 768.263428 -376.564819
-86.449257 962.349854 -437.156311
-211.873886 845.356079 -480.983032
-284.067963 768.806274 -298.322296
-383.604095 707.242004 -515.939514
-310.590271 738.721313 -230.969955
-353.679260 717.220093 -516.555725
-229.313446 795.671875 -275.377716
-143.434067 922.034180 -510.217896
-380.846924 667.992676 -220.446365
-153.586868 860.032349 -259.391815
-154.432220 842.967102 -605.213379
-242.337158 810.619812 -459.162659
-329.881836 691.164490 -259.859039
-35.845776 986.483215 -280.139221
-162.442291 864.744324 -297.432556
-167.426453 865.730042 -238.469162
-213.230438 825.494812 -326.785461
-43.127045 988.225281 -381.519348
-234.453079 780.518799 -280.931366
-231.585114 805.676819 -339.805847
-336.917603 705.811218 -293.105133
-172.626495 858.976868 -592.470276
-250.735229 782.862244 -450.923248
-342.582703 706.010193 -223.441818
-265.079163 806.305969 -483.303101
-397.188141 671.557678 -282.425903
-185.180710 828.652466 -337.696991
-236.408554 810.936279 -290.921753
-155.776733 895.482483 -379.177124
-349.146759 686.358032 -256.832794
-37.622650 946.354126 -305.458527
-36.162895 966.572327 -333.276886
-385.425598 684.117737 -478.124451
-128.207642 914.725037 -398.290344
-170.138153 861.813354 -282.287384
-91.923508 940.891785 -398.073456
-178.387817 882.272400 -590.236023
-278.771393 714.370728 -218.306290
-339.089539 726.057129 -351.836334
-167.942917 900.821594 -525.174744
-83.674492 941.884644 -258.570984
-375.559326 662.523315 -304.010345
-368.056702 679.788574 -337.333862
-182.849228 842.620178 -301.774841
-58.019848 998.100708 -461.574646
-252.710678 775.025513 -296.770844
-247.467896 759.826355 -281.869812
-256.764526 778.400208 -232.956879
-78.308502 968.917297 -479.725403
-202.609558 825.166870 -336.856812
-59.587982 956.947632 -357.585846
-76.161278 957.479614 -317.138611
-58.904846 987.197205 -436.384949
-390.981201 656.460938 -269.291565
-53.560173 984.534790 -379.109833
-321.216827 747.466858 -393.344635
-265.539429 789.540771 -342.768280
-225.605728 822.955017 -264.618469
-211.229034 845.090759 -478.944733
-184.318710 867.611633 -583.992493
-54.759983 1001.183411 -527.775452
-238.244019 806.924988 -585.265808
-178.171432 825.412659 -256.939392
-362.928406 698.287659 -377.800110
-355.886841 768.388428 -568.585083
-251.133499 785.569580 -337.101898
-54.197392 998.329834 -494.777588
-131.890076 905.999695 -375.495728
-186.667297 890.311401 -548.899353
-288.102966 759.584473 -473.628784
-60.297081 970.219421 -346.929901
-51.975811 982.767639 -437.766510
-262.376007 781.109314 -336.305084
-371.204559 675.627258 -305.083282
-75.270081 975.563477 -544.462280
-330.384277 686.875610 -279.560852
-339.176300 697.707214 -291.514648
-137.449005 904.606506 -347.362915
-206.149307 854.216064 -416.902618
-173.774292 860.941040 -298.218567
-48.991070 978.345520 -374.163116
-197.365494 856.051514 -355.490631
-195.815918 851.596313 -583.016235
-211.028503 824.724854 -594.642151
-174.868393 879.562561 -391.791351
-347.360413 712.731140 -493.469299
-167.054749 873.652161 -380.290497
-332.202026 712.934509 -343.431488
-171.159088 884.061096 -402.628632
-306.887115 761.842651 -432.128845
-381.841278 671.197327 -385.138092
-38.475788 985.420837 -317.408020
-294.159637 769.296204 -514.925598
-188.854065 901.844788 -591.270569
-54.981834 962.943054 -307.114380
-54.480690 959.609802 -450.440277
-353.293793 666.704041 -275.874451
-59.846947 976.056458 -453.837769
-125.747002 940.762695 -476.430817
-231.250168 799.745911 -243.893341
-217.136276 877.585999 -545.668396
-244.822708 837.418335 -574.890320
-353.514557 699.502197 -509.958893
-320.933777 733.657471 -273.294312
-254.399536 806.785645 -391.905762
-379.710358 676.057678 -272.217590
-342.599487 695.421692 -231.514557
-246.694351 850.219727 -547.000854
-67.385536 957.022522 -285.391602
