ply
format ascii 1.0
element vertex 1385
property float x
property float y
property float z
end_header
-629.703186 -260.662781 529.707092
-800.129822 20.887156 538.919739
-823.500366 -131.014969 512.613892
-841.310120 -77.193443 513.386597
-1030.570190 -193.652939 493.005615
-891.353394 -295.605377 480.592865
-791.539551 -301.580170 503.197601
-825.541260 -353.353424 432.715363
-952.091919 -95.090240 476.975098
-616.960938 -136.573227 572.329163
-884.982666 40.562355 491.355743
-681.013062 -388.307495 506.887421
-887.786316 -211.996323 472.992096
-903.949951 6.758275 488.335266
-615.395142 -132.695374 559.910767
-706.370667 -320.062714 509.984711
-933.027710 -35.666561 497.963318
-888.448975 -109.287804 492.140564
-788.922119 -69.472092 533.738586
-971.709351 -16.073206 482.905121
-888.898315 -164.737061 488.391724
-821.852112 -1.133384 532.241394
-864.711731 -148.672241 473.353882
-936.769897 -24.473124 490.126343
-877.344604 -303.415039 407.574890
-861.163696 -113.360497 490.323273
-824.313477 -75.533096 510.811615
-810.110779 2.343156 500.137787
-809.264099 -216.807449 498.793762
-958.548157 -79.878578 475.686096
-537.460815 -251.777710 559.473267
-622.186584 -127.809799 565.540222
-620.623535 -330.486572 544.340576
-756.363708 -277.933685 512.185242
-628.381592 -149.061676 556.831848
-824.553223 -107.006706 512.499695
-565.094360 -245.489090 554.629578
-772.119751 -359.575439 507.250122
-679.698242 -329.207062 527.110535
-822.632629 -207.761612 506.471802
-855.723999 -207.772018 494.128448
-778.918640 -123.399330 501.525574
-984.239441 -86.592369 471.896210
-767.164490 -145.237686 513.610718
-712.874207 -95.969925 550.311890
-647.121155 -149.673782 548.869385
-841.189087 -31.309666 503.951324
-643.773254 -269.336731 531.833191
-816.453613 -71.162010 516.329895
-675.261597 -175.689087 552.299744
-823.053162 -160.318237 499.828857
-561.623718 -235.143494 556.406799
-930.411743 19.977974 493.746887
-830.032166 -86.954613 511.522980
-956.870667 -107.574982 471.893890
-903.659485 -77.170906 485.268738
-1048.217041 -121.563164 462.595367
-695.854736 -394.322906 502.930634
-837.213867 69.670815 527.681091
-692.044678 -132.271347 541.213989
-973.219055 -9.018135 485.044922
-696.695251 -218.741440 540.878601
-845.223022 -290.723907 491.462097
-796.717590 -98.773483 516.014771
-843.974915 -338.287109 441.920654
-869.861877 97.392624 522.003296
-811.214233 3.518119 534.428406
-597.895752 -191.446686 570.139160
-671.553528 -139.730621 545.478210
-796.305847 -30.494474 522.914795
-578.577881 -229.234131 570.007019
-627.394165 -93.940239 564.139343
-824.034912 -68.584976 492.729767
-698.679749 -36.908596 560.800354
-740.475525 -192.219803 516.648254
-610.623779 -135.893829 574.523376
-779.270386 -113.153603 519.698242
-610.280151 -126.632545 579.826477
-901.703491 -1.070298 503.731903
-838.684021 -53.196331 513.514221
-665.926147 -258.497192 540.704590
-781.271973 -199.247452 490.107330
-765.183044 -106.756828 522.226929
-664.533875 -284.203766 525.842346
-805.018066 -80.697296 526.116516
-927.854004 -73.382469 460.486847
-679.570496 -66.140114 554.369324
-775.977966 -289.965851 492.342255
-925.533997 -258.861328 419.874268
-791.306458 -31.221321 529.169434
-659.462097 -369.139893 525.420044
-789.672363 9.739442 525.602539
-682.528809 -174.635406 550.809692
-719.367676 -267.225983 529.509338
-702.437012 -222.014008 527.820129
-834.729919 29.890450 502.895844
-781.811951 23.977812 532.856995
-711.788147 -311.449921 507.263519
-942.830750 -129.731598 478.143158
-870.731506 -180.524902 483.963745
-731.612366 -404.716034 526.331909
-652.384827 -240.971451 548.429443
-899.431641 -124.568253 491.915710
-967.715576 -236.145340 497.239655
-561.744934 -282.798157 569.187317
-906.440674 -286.074432 445.633057
-929.124573 -32.985836 493.141174
-768.929565 28.650858 538.067383
-648.119812 -146.176987 550.013062
-807.531799 28.570698 521.618896
-708.622681 -356.256561 488.556000
-673.104919 -144.451965 544.220886
-686.928284 -254.757690 523.769287
-772.038879 -137.798615 521.467712
-646.719299 -276.185760 513.118774
-713.680237 -95.752876 535.026184
-835.494568 32.084732 510.349487
-584.522583 -322.473602 562.960144
-832.126099 -310.056763 486.568298
-941.121155 -55.067707 486.211792
-879.491821 -91.414894 500.224915
-917.149048 -269.157837 422.882721
-839.750305 -104.438774 484.247375
-679.012939 -241.428497 529.958923
-686.172729 -366.930573 510.102081
-699.545959 -144.959961 535.752136
-651.962769 -204.498077 540.210083
-929.910095 -23.791334 493.531860
-991.782227 -42.717064 472.001984
-611.802856 -147.037582 576.228027
-912.026855 -26.814877 498.996552
-648.298096 -110.370667 548.116089
-843.412476 -268.137390 478.342194
-893.498718 20.992060 507.382690
-728.118469 -264.021301 514.568604
-655.454224 -357.994659 516.888916
-666.659973 -182.519302 554.615662
-575.452026 -286.353363 534.409180
-811.658875 -159.440994 517.231506
-745.600525 -340.252502 487.205780
-662.083923 -75.455620 539.426941
-796.552246 -195.566711 511.906647
-789.329895 -41.050175 519.347412
-867.552551 -205.260223 490.388489
-905.721619 -286.149506 395.011902
-791.448059 -267.180634 491.339630
-982.421814 -70.261215 456.268860
-922.836853 -20.992426 498.270264
-794.284607 -17.431824 531.537781
-985.922180 -100.446861 466.453125
-753.427734 -343.501221 494.084229
-938.881653 -244.510956 492.596741
-904.407837 57.484341 512.475525
-605.396667 -349.244873 540.383057
-779.531006 -259.237030 495.895691
-882.388977 -92.628578 501.589478
-589.747009 -182.187103 576.541565
-862.900574 -312.090149 479.508911
-677.623901 -348.821808 500.892334
-627.939331 -330.821442 539.186462
-809.384766 -188.300186 496.003937
-844.110352 19.634506 518.633606
-669.575317 -55.045204 557.482605
-877.234070 -322.458496 425.350769
-839.321838 -268.064331 480.212311
-683.788147 -179.464233 549.822937
-871.115540 -295.350342 461.547577
-815.484985 -137.630386 514.175171
-701.480408 -290.209137 513.349670
-790.942017 -260.298431 492.854309
-947.953430 -61.750496 486.024475
-844.301514 -38.927349 511.172668
-660.584717 -214.931503 535.155151
-803.497070 -248.593979 491.546753
-775.068298 -154.195969 512.072632
-671.562561 -83.536133 562.708923
-822.128784 -175.628510 504.955475
-648.511902 -395.928528 527.075134
-860.923523 -315.372040 406.684479
-947.216858 -254.371078 450.413757
-805.209717 64.783340 536.032166
-704.764221 -335.074982 507.926331
-691.178284 -119.615921 549.262268
-978.836487 -136.127625 460.976044
-716.225220 -365.099396 507.773315
-638.650330 -212.432587 542.113281
-834.578796 -39.734116 493.646301
-719.230103 -222.051895 530.026672
-879.113464 117.996231 509.439667
-763.661499 -83.135918 525.805908
-753.488342 -129.014099 534.952820
-878.990417 -48.927418 497.523468
-948.506592 -216.388947 474.851379
-892.794250 -249.707428 470.063751
-755.308472 -319.435883 493.143890
-770.846313 -237.807755 513.780823
-849.912354 -105.481308 501.620605
-701.318481 -33.242805 537.018250
-689.729919 -122.601753 537.553101
-550.523438 -156.878357 572.277954
-808.248352 -115.287987 515.282715
-824.346802 -42.846600 495.935028
-791.701233 -139.722672 509.961121
-905.138794 -34.451817 499.761810
-891.822815 -240.648758 485.133728
-849.248291 63.614918 515.193054
-816.309631 -376.129730 488.427185
-889.748840 -283.751923 493.892761
-666.658936 -296.918427 523.220825
-762.966919 -163.206329 515.969604
-535.821655 -241.102951 552.140076
-962.257996 -25.232176 484.363708
-718.023315 -22.107643 554.230774
-691.686218 -390.775299 517.016296
-809.707397 -229.732635 489.742096
-850.173889 -335.621185 407.053406
-934.499084 -81.246368 461.179871
-761.436279 -259.237030 500.181946
-560.211670 -293.444275 565.310547
-985.298767 -225.215073 459.877014
-545.417603 -250.479172 565.985535
-820.330688 -259.618347 494.118469
-888.648865 -65.968407 494.416992
-820.882690 -347.242859 465.047089
-766.050964 -149.505127 502.152496
-863.352722 -325.562561 398.974426
-873.026550 81.450798 517.287903
-990.787109 -73.468910 467.973297
-762.103821 -302.492828 492.233948
-950.854614 -104.261391 452.198853
-787.544922 29.258905 526.489807
-962.011414 -123.985573 465.650360
-731.670532 -35.734692 542.132935
-846.931030 -336.023895 434.253418
-605.664795 -194.775696 553.782715
-928.246643 -136.613647 475.066589
-605.375488 -136.010757 578.634460
-957.255127 -126.874374 453.341583
-863.696716 -169.218353 471.624115
-779.060425 -232.225861 498.952393
-634.765564 -326.920013 528.057617
-878.804016 -43.070835 502.900665
-938.035950 -72.793793 470.194336
-739.175354 -230.344055 507.317932
-954.613220 -27.931585 478.060089
-861.295166 87.061455 523.038147
-853.974854 -19.648849 503.571930
-698.837524 -42.891670 559.170593
-582.582642 -293.707489 557.042664
-821.111633 -166.661438 506.460907
-958.539001 -39.886631 486.541107
-825.156433 68.908691 535.389832
-934.546875 -117.172592 463.821869
-599.791504 -334.483704 535.737732
-572.597168 -157.484436 574.422302
-886.697571 -294.585449 408.385193
-835.021790 -129.474960 501.407654
-904.904114 -136.704483 488.890717
-646.424622 -189.955826 556.441711
-796.334473 -368.288940 438.023376
-940.221130 -8.448814 495.378113
-899.821045 -152.845276 480.930939
-787.283752 -64.967445 525.863647
-821.330139 -322.444427 505.395935
-666.580078 -311.189789 510.868378
-949.091003 -248.445251 446.312225
-721.497070 -31.158516 538.482849
-967.078247 -159.838455 449.276520
-699.343445 -212.644333 524.963989
-666.459656 -190.178574 553.801941
-767.136414 -103.157822 517.709595
-702.630676 -107.854454 551.443665
-681.611389 -238.497238 538.359192
-641.997498 -208.030151 558.703064
-648.040039 -235.608749 528.496826
-839.555725 -227.929443 479.929474
-836.286804 50.354500 529.449097
-683.935303 -63.520874 539.147522
-743.442688 -186.503647 522.350037
-936.374329 -146.406662 461.451263
-969.350403 -2.404531 485.740204
-658.076538 -236.218094 550.369995
-533.499084 -216.195297 579.152466
-958.390137 -197.172104 460.149780
-939.964722 -165.656158 469.385742
-1004.622925 -144.026443 463.173096
-730.745728 -51.839943 543.829407
-836.510193 -335.987762 482.014923
-778.218567 33.101425 536.476990
-754.074097 -156.636551 521.213135
-829.871582 -91.286797 517.592041
-691.964966 -195.274673 529.332764
-578.238342 -146.930710 584.804749
-860.492615 -320.442383 406.548462
-945.676941 -96.074921 472.999054
-752.390442 -312.727234 508.246765
-882.909851 76.869850 511.781952
-824.295410 -112.557945 484.508392
-702.982239 -35.784760 535.129883
-553.400574 -171.841110 574.853699
-819.608948 -349.608673 497.981689
-630.217773 -304.588898 533.537109
-533.969971 -171.049438 579.893677
-947.637512 -219.354996 488.249542
-787.411987 -44.454842 534.576172
-639.072021 -226.978699 551.819885
-670.547546 -285.236115 540.514526
-819.654846 74.816772 523.861633
-804.711182 50.368671 544.652344
-950.946655 -231.091949 457.365143
-748.886047 -113.911911 526.698364
-884.895325 -314.021271 417.258942
-614.431824 -269.912872 542.080200
-600.165466 -164.306000 555.607178
-569.597961 -303.778870 570.843506
-677.462097 -142.014267 544.990723
-726.021790 -157.396713 523.900574
-677.863098 -193.869690 537.081116
-944.025330 -247.690674 471.221039
-800.320374 8.542740 509.783264
-815.576599 -25.097221 517.397583
-961.300781 -237.425018 437.914734
-918.492126 -188.868439 467.393677
-874.153320 -94.548653 491.688477
-567.856995 -137.220001 575.413940
-544.393127 -195.928696 590.638428
-979.921631 -232.686478 458.985352
-528.563110 -238.332809 575.783264
-716.214172 -301.477997 519.487793
-903.899719 -278.783325 425.323730
-827.858337 70.747414 526.231140
-535.113708 -192.794418 575.202209
-1004.567505 -94.594055 463.148163
-598.674255 -272.663208 549.058167
-613.812866 -146.039169 571.149414
-904.684875 -102.493950 492.712463
-869.404175 -320.815796 456.867798
-919.609131 -78.681290 491.581085
-954.072510 -88.148346 476.863251
-597.002869 -254.022476 551.099487
-781.865173 -167.380585 509.702423
-723.949402 -139.210831 526.650146
-773.610046 -376.529510 516.697083
-629.607544 -261.354431 538.001648
-920.330872 -273.524139 463.855499
-795.028259 -161.834976 519.942200
-717.825439 -137.905273 523.097534
-1016.811157 -99.444374 455.586975
-795.958252 -346.115051 502.206848
-597.609985 -336.313904 536.839050
-862.504700 -315.173492 483.126434
-903.088806 -176.114685 472.639496
-788.609741 -35.627251 538.073059
-852.883362 -322.620361 450.619354
-753.946045 -72.861969 531.308899
-774.554504 -242.340027 512.391418
-671.579041 -62.465233 525.179810
-999.258850 -88.482681 456.471497
-837.661804 -215.005356 482.607727
-813.167236 -366.035126 451.863525
-866.111450 38.274792 522.241943
-792.678833 -35.336792 527.343750
-833.311829 -272.993286 490.464203
-790.072327 -214.421249 502.194427
-953.925293 -71.127159 477.380798
-813.855469 -303.379883 497.851440
-811.704407 -3.635312 534.063782
-743.400269 -85.605705 530.718628
-747.669617 -156.095505 523.821960
-549.996887 -266.127258 558.901428
-952.566101 -256.999725 419.663300
-887.002380 -183.900208 470.908997
-924.151306 -44.039440 483.868866
-694.895020 -273.745270 517.862549
-572.508179 -262.263916 563.517883
-963.925903 -99.522240 468.320587
-836.408569 -21.995680 489.593018
-942.276489 -239.562988 475.570038
-793.744019 -150.950882 508.329071
-713.607178 -148.394760 529.639343
-825.930603 -343.195557 422.305237
-729.713806 -91.321274 537.651733
-855.544800 -331.843109 442.462128
-689.523132 -367.676819 519.952332
-986.903381 -220.699326 479.011963
-773.050110 3.334022 529.715881
-646.145813 -233.551056 537.051697
-607.947998 -285.824829 554.898743
-845.757385 -51.705608 506.134857
-761.240173 -161.104080 527.046509
-932.013367 -48.072891 497.196533
-697.170349 -145.970810 532.010132
-770.684326 -236.378830 505.035309
-757.725464 -108.831673 538.561768
-694.579895 -117.680588 539.545654
-622.190247 -282.086060 556.258972
-736.005554 -307.086212 512.807312
-708.699097 -222.887558 513.514160
-652.537048 -345.485443 519.823608
-769.499573 5.482036 530.948486
-963.954102 -32.855110 482.922394
-706.084778 -103.945320 551.161072
-589.003174 -312.595337 538.260498
-858.717407 -223.538910 468.210236
-540.578552 -155.288620 583.958679
-819.494629 -344.675476 481.473785
-748.242676 -248.545029 510.944824
-852.750061 -333.983490 411.612762
-882.941162 66.838600 501.741211
-686.072388 -133.205414 518.006836
-626.145752 -283.225433 524.925171
-785.810425 45.003178 535.002869
-975.653931 -18.675776 485.990570
-968.216125 -92.175919 479.221893
-871.395752 -46.471485 510.015167
-597.179626 -153.619507 561.709656
-787.128357 -400.563141 530.129333
-699.103455 -450.861542 539.216980
-847.599915 -139.539520 507.932373
-627.594543 -236.079483 531.208313
-947.243835 -168.007599 465.951019
-853.036926 -92.777718 482.029938
-834.720337 -359.029358 459.611145
-889.662170 61.245655 518.881653
-911.271667 -259.796661 495.739319
-691.544067 -370.971283 504.652008
-749.302795 -220.913742 512.412476
-523.708496 -226.212830 595.815491
-739.661804 -166.612366 518.762085
-849.996521 -188.947891 488.802094
-567.984863 -259.983063 571.104553
-856.270935 -221.303406 492.081024
-796.739136 -264.050873 502.919495
-713.140503 -295.017334 508.899933
-990.773682 -236.992111 462.098694
-843.952942 -348.021362 433.799011
-591.495056 -266.496704 564.930847
-586.785217 -178.435272 578.124329
-826.064697 54.663219 522.978638
-774.153076 -42.844280 527.435425
-720.057068 -160.934616 527.535217
-568.121155 -229.428101 576.676270
-892.005737 -73.801949 498.592682
-864.784485 -117.468605 488.630554
-850.675659 -179.241043 490.166382
-906.586121 -221.606766 474.009247
-649.976929 -303.444733 525.248352
-987.394165 -58.904507 472.304504
-800.713623 -324.378448 499.889984
-711.614441 -209.141769 527.161682
-911.879272 -26.507048 491.029816
-718.082214 -238.156143 533.617371
-836.064148 -240.486710 495.556549
-957.679443 -28.217897 479.766205
-754.007874 -115.576057 526.350891
-811.323853 -91.760834 511.962036
-941.597900 -189.623077 478.794464
-570.266602 -296.352417 571.328247
-708.482178 -149.707321 535.124756
-878.208252 -183.781799 481.288757
-763.199585 -257.988678 506.290253
-768.626099 0.123745 542.454712
-942.975830 5.889829 493.037537
-863.066772 -105.725182 499.870392
-955.820374 -20.118059 481.229156
-847.028625 99.429573 533.067017
-973.218933 -242.564392 489.613892
-808.837402 -147.471313 501.901306
-940.039124 -237.355820 484.749969
-988.661377 -119.471687 464.858032
-808.940063 -34.987831 523.205261
-710.240906 -318.866669 492.624115
-855.533447 -187.299194 481.134888
-699.261963 -58.503380 555.579895
-931.656738 -223.270493 472.566437
-612.394104 -290.698334 558.608154
-914.061890 -9.146614 501.645660
-800.467407 47.255772 536.369202
-841.587830 -323.508942 502.702362
-867.486328 -203.404251 495.715454
-616.604980 -231.738647 527.098633
-883.446045 -304.050201 495.433044
-810.636597 -83.208961 513.260498
-940.860352 -246.714523 444.731812
-652.343811 -149.045013 550.624695
-885.161072 -75.940910 502.529877
-822.040100 -357.069031 470.260376
-749.740784 -19.935804 530.772766
-910.976318 -43.666626 503.236725
-859.470093 -316.690674 420.053802
-653.274048 -280.058289 546.664063
-792.092224 -203.957321 500.786835
-701.903564 -36.537956 545.839966
-758.550232 -163.800293 519.091553
-651.718079 -285.801636 520.170532
-981.849426 -232.169174 448.310028
-729.813904 -122.355286 531.349121
-903.450623 -269.989685 464.761780
-826.015259 -265.845276 500.059723
-1002.658386 -187.156281 475.508484
-869.150208 66.117302 514.250610
-802.002258 -58.373177 524.125122
-881.458374 117.978821 508.419525
-685.012146 -327.390717 516.578613
-586.331482 -295.559753 550.109009
-792.649170 -207.012390 507.759033
-735.313538 -273.605225 522.700623
-891.519897 37.964397 509.507477
-945.711731 -122.329796 474.421173
-820.174377 28.750793 523.941956
-985.727966 -241.450363 501.901642
-585.262085 -231.872894 562.745911
-805.490479 -369.734131 482.247375
-957.589478 -111.826172 470.923706
-961.479614 -45.702660 487.880310
-651.585449 -161.694977 538.422607
-930.679810 -116.126442 479.547333
-646.272156 -289.434113 543.729553
-927.632813 -165.756805 482.381683
-725.106873 -60.105789 537.767578
-669.022766 -317.613037 517.787292
-871.922424 -315.528625 443.691925
-859.600220 43.155933 520.532837
-647.646179 -141.248337 562.579407
-685.431641 -81.879387 549.306885
-831.926453 -50.222359 509.852020
-875.336853 -300.060730 428.614716
-942.748047 -257.813293 428.069305
-839.406250 -64.145271 520.029297
-893.989868 -280.039642 493.538269
-625.510986 -289.674713 533.626770
-937.935425 -56.338215 494.206757
-890.165100 -250.883041 486.400848
-922.729309 -250.955093 455.950195
-849.885193 -181.393600 489.208588
-731.654968 -365.285553 502.292145
-881.866394 -296.659851 408.852203
-836.713745 -158.900085 510.031219
-776.176392 -80.025620 536.180237
-866.511963 29.535683 510.181213
-808.527039 -56.991158 522.926270
-748.485596 -282.346222 494.313843
-688.492859 -377.647186 520.144897
-922.621643 -83.924416 489.994507
-577.837280 -175.142654 582.978455
-714.995972 -272.136963 508.903381
-614.820740 -293.527588 535.916382
-859.972900 -327.023407 402.400970
-576.760803 -158.869293 567.199280
-981.516479 -63.935955 476.618439
-692.068115 -175.462036 531.897522
-796.009644 -186.840424 516.309570
-568.538574 -206.019806 547.180847
-784.609680 32.668049 532.128601
-911.691772 7.776449 507.273895
-971.055420 -216.567551 475.075226
-896.179321 -113.450882 478.768524
-731.075073 -129.764999 538.132813
-851.898315 85.658180 527.808350
-748.648743 -314.953003 510.915833
-864.491211 -52.168041 510.103577
-961.070557 -10.138738 480.454132
-929.794739 -87.280334 458.877350
-937.146423 -214.750626 476.998657
-968.784912 -65.765877 454.619873
-728.841187 -405.724457 521.471069
-980.518005 -126.130089 460.103271
-922.915344 -119.876015 468.079651
-603.661926 -240.973114 566.667664
-986.742065 -68.075157 462.756744
-973.441223 -118.385895 474.872742
-852.221680 89.183899 530.838013
-783.719299 -234.985382 496.319427
-619.200684 -91.259933 573.531860
-862.550293 -22.138800 509.322449
-721.512451 -113.184738 545.300537
-698.266907 -251.075439 523.783203
-1015.533447 -204.794998 489.918671
-837.797852 -157.425674 503.299347
-621.813049 -283.668732 537.911682
-837.028503 -66.277718 508.900696
-910.888489 26.372982 507.172089
-858.584045 13.849092 514.835266
-921.847412 -121.466911 482.345856
-808.639526 -315.603424 504.595551
-792.075806 -335.812012 497.940704
-793.239380 -208.269028 514.329529
-576.068787 -326.018097 556.456421
-750.688293 -26.288948 533.076233
-495.235687 -212.276642 573.815552
-727.607666 -230.050232 519.859924
-928.542480 -128.039276 488.196228
-923.162964 -265.352783 467.002686
-850.130554 58.853897 506.681183
-823.348999 40.955795 531.745911
-799.982971 -105.189049 521.692200
-923.725891 -273.274353 489.834076
-979.816711 -234.110870 445.550507
-892.495605 -308.601715 439.376129
-843.528503 44.015446 528.255920
-592.111938 -166.808289 574.484436
-551.155884 -224.381561 547.213989
-955.398132 -38.060516 482.627472
-769.421997 -245.149170 497.632202
-635.523743 -357.667755 542.153870
-759.016296 -315.235229 492.863708
-878.867310 -117.073448 473.107788
-797.975891 24.588140 535.718994
-774.766541 -279.397888 508.031921
-966.682068 -168.708862 459.391205
-536.344421 -222.329895 583.137512
-825.739990 -146.048004 498.058777
-563.546204 -266.154724 542.926575
-752.756104 -48.129189 538.455566
-747.751282 -249.874115 491.919434
-680.302429 -302.444000 531.836365
-756.048523 -25.357586 532.594238
-688.108582 -257.656189 536.044678
-688.161011 -248.832047 537.173523
-856.746338 46.055195 517.863281
-679.167358 -315.637878 521.519409
-798.343384 -301.098663 502.212524
-1028.877686 -187.634628 466.232117
-726.361572 -80.695511 539.946045
-795.767334 -13.135541 508.295837
-994.116516 -108.828415 464.320923
-780.355652 -225.016098 495.480286
-956.799622 -246.888000 415.373932
-845.513306 48.620953 511.514313
-573.861877 -250.540207 568.177185
-622.617798 -314.258759 533.973022
-946.779846 4.515880 493.875366
-721.223083 -184.688644 523.215515
-901.831055 -163.512848 490.214600
-651.738831 -279.234314 518.770264
-563.702454 -286.397705 556.439880
-778.381836 -46.374702 525.427429
-854.826477 -301.959045 490.313141
-760.674011 -229.860168 519.409485
-956.288452 8.346412 491.460907
-814.549438 -124.005089 505.652374
-802.033936 42.372849 532.754150
-771.286560 -249.211914 503.533569
-962.769165 -255.683395 433.490479
-812.435913 -28.445625 505.349884
-864.756226 67.311829 521.247864
-583.727966 -186.237106 557.414734
-648.418518 -171.483246 543.643616
-903.388672 -301.101410 413.016235
-704.151611 -248.600250 503.283936
-904.835449 -290.981506 472.877319
-807.838074 -22.207273 527.980347
-654.351807 -63.136539 562.089294
-797.660706 -138.356461 510.082153
-672.026550 -278.878143 523.282532
-743.968384 -81.596222 545.356567
-834.554565 50.404408 524.510803
-953.329102 -241.201660 481.425201
-642.408752 -74.857224 551.952698
-733.385010 -5.206061 544.239990
-590.804810 -315.720001 541.315674
-837.562134 50.163799 531.464905
-727.680969 -289.307678 522.501953
-921.845276 -23.506098 495.335266
-757.117798 -234.286819 519.797729
-992.697632 -13.388228 478.249298
-715.316833 -164.810150 524.841797
-681.011536 -245.896729 537.615540
-831.094543 -76.481209 516.414185
-728.532715 -60.104523 542.271423
-838.632263 -82.644196 513.617371
-875.247925 12.450281 518.116394
-726.193787 -314.948761 514.445923
-891.981689 -164.271622 479.122040
-647.427673 -285.896271 531.515808
-851.021118 -338.685608 469.240631
-813.323975 -354.873779 440.460724
-497.541931 -200.944321 588.691467
-889.827454 -237.474228 473.358612
-891.940735 -69.421677 488.928375
-744.597107 -115.523476 535.772583
-604.088806 -148.452377 561.472107
-728.279724 -113.767220 535.200256
-934.356262 -163.750885 481.329651
-898.647766 -297.356415 432.213715
-813.349121 68.096306 536.169678
-771.078003 26.734453 535.129944
-736.144836 -198.796509 517.075439
-742.431580 -260.376678 499.845245
-545.000610 -272.493225 546.181519
-816.255493 -245.802505 489.105377
-897.741638 -66.271400 504.347168
-821.272034 -173.682297 507.956512
-922.038879 -228.933823 473.187317
-954.413269 -114.685699 482.947144
-993.471191 -69.619408 469.852509
-667.334595 -256.412140 528.619995
-635.383972 -206.419006 559.961914
-866.861511 -266.195068 483.836334
-811.019043 -173.555313 501.358734
-677.345642 -175.969879 549.418701
-1037.245728 -167.793945 481.417328
-784.428589 -312.872864 482.310699
-848.566162 24.075615 508.610413
-816.254395 -361.147095 500.886230
-659.027588 -321.803955 539.907349
-876.643066 -258.565491 484.100159
-607.715027 -268.025726 559.212463
-872.220886 -283.384583 496.758698
-901.688904 -15.631138 502.565857
-1073.222778 -153.453857 497.744110
-881.975952 -92.542160 490.836853
-700.157349 -222.920380 539.412720
-929.305847 -267.038239 439.780151
-571.256409 -188.971725 567.225098
-918.033081 -285.282990 433.296936
-793.405884 -326.679291 493.537231
-785.860413 36.747738 530.295898
-545.170532 -202.974960 583.759583
-938.276123 -91.834030 484.361572
-638.277893 -99.952171 555.255859
-897.644409 11.434863 504.503448
-930.656311 -38.374134 484.540283
-953.202026 -59.633541 481.759033
-859.841614 -321.687744 479.770935
-724.024780 -317.892090 514.282166
-949.744263 -81.037270 473.193817
-723.327271 -63.612549 540.071472
-641.880798 -269.843842 534.727539
-828.904907 -357.515930 439.845428
-564.671448 -264.098755 572.382996
-870.915771 -9.211135 511.062653
-848.039429 15.781846 521.194580
-861.121826 -247.492722 474.369812
-879.163757 -133.745239 498.696533
-956.662048 -206.503143 485.349457
-833.626587 -252.800400 481.768768
-907.523132 -50.100300 487.895905
-825.102722 -170.241425 504.999969
-898.914124 -96.748451 493.260498
-757.124939 -133.063660 518.077087
-652.413391 -149.262863 530.952576
-668.545959 -234.850067 521.348389
-784.034119 -188.448639 509.835327
-759.415710 -171.463501 515.841675
-601.922485 -205.868134 570.933105
-887.485413 11.473778 511.414093
-848.576172 -211.198395 485.750122
-804.672119 -384.416199 499.265717
-796.059570 -304.594055 495.498444
-758.651489 -35.637894 535.759888
-879.215759 -182.873764 473.729980
-776.450806 -172.491196 493.582367
-929.181458 11.015907 495.905945
-784.410095 -157.331299 516.125854
-865.077026 -323.906555 430.581268
-653.518250 -427.352112 518.386353
-874.205139 103.608467 516.127075
-817.420776 64.254303 541.557495
-857.581909 -154.385773 504.143066
-919.008545 19.013336 478.169769
-987.710388 -102.283432 455.251617
-912.339905 35.854897 473.625763
-923.789856 -153.788086 461.482758
-897.467468 -174.025375 474.518890
-812.733948 -69.058311 526.964294
-836.503113 -182.764755 494.358978
-994.953979 -143.736557 455.751495
-721.035156 -400.803680 519.353455
-816.304382 -196.801773 492.565338
-898.936096 -152.202820 485.233673
-893.337341 19.712210 483.094025
-711.600586 -40.426498 543.671204
-758.355652 -13.205063 539.082520
-637.323608 -168.323502 553.296509
-750.268921 -152.977432 518.617981
-847.976746 -63.554298 504.531769
-788.798828 -89.687668 494.891571
-983.382446 -55.254459 474.004456
-911.225586 -108.021774 483.603119
-713.377441 -255.642502 514.855835
-993.940918 -143.113449 464.264374
-690.535217 -170.871765 528.794556
-922.412598 -164.949188 474.268829
-825.805664 0.704252 516.343018
-565.136597 -245.598907 558.739563
-860.954956 -181.098663 500.026459
-712.568176 -80.213783 551.612427
-705.981323 -99.396126 543.585510
-875.554077 84.467773 513.158630
-931.018677 -201.294434 487.266937
-722.693542 -61.974575 543.301636
-1002.426147 -230.583527 486.986786
-783.330688 -263.837646 507.168213
-830.550964 -76.506195 517.986572
-823.261475 47.153202 517.453918
-709.896606 -137.244156 530.865601
-608.710693 -208.571182 541.502380
-722.762268 -272.528320 511.483887
-696.822327 -193.091965 541.177979
-577.716797 -218.117264 560.219604
-623.542175 -360.262695 525.528259
-723.810608 -141.802963 513.500427
-766.135864 -109.943840 523.584656
-968.997803 -244.493912 435.482819
-661.481812 -100.370827 550.045471
-764.826416 -263.661652 498.547852
-937.070374 -128.415146 473.754059
-620.693420 -190.214279 565.246948
-752.055969 -182.065186 526.481750
-862.031616 -58.402782 511.424377
-712.883240 -160.376190 529.385498
-550.473083 -152.096817 559.765625
-871.663757 -128.917313 494.088135
-744.610229 -173.651031 518.433167
-853.731689 -323.125641 389.772034
-869.981262 -2.748901 509.765717
-537.511902 -176.787674 574.931885
-691.663696 -166.419769 534.519043
-929.700073 -264.851501 447.047882
-886.083191 117.909424 506.621674
-740.451050 -157.640991 524.981873
-843.177979 -88.867599 503.463348
-938.433167 -253.009201 442.824829
-930.883728 -20.739315 495.330109
-778.299072 -32.089455 541.679688
-783.477661 -114.462494 515.778381
-804.941467 -21.421677 516.485840
-905.671204 19.261782 496.071838
-932.503723 -152.752060 475.198120
-687.409729 -288.170471 501.183289
-752.509888 -21.982162 533.717529
-691.865479 -383.780273 500.393982
-733.632935 -198.626205 516.981567
-701.112488 -48.870869 548.083557
-934.673035 -269.511139 478.432770
-875.092651 -192.523804 482.817810
-880.638550 -299.106964 437.531250
-931.744751 -28.213503 494.233551
-1025.070435 -170.719818 473.082947
-890.242981 -292.260559 411.587921
-935.562561 19.643904 488.308105
-684.156738 -119.940285 532.243469
-886.121582 45.993103 514.895203
-841.514648 -340.151642 453.317657
-923.600159 42.071083 503.313629
-834.631287 -39.249058 515.788452
-873.058350 -163.013748 493.711365
-510.344391 -234.595245 580.098450
-725.187317 -258.103363 515.431641
-693.386475 -339.691986 505.232361
-901.389526 -170.510788 473.321777
-742.486572 -85.394020 515.272827
-702.619629 -216.942291 510.816864
-633.206726 -311.372559 531.137512
-973.012390 -115.129539 469.309265
-854.192017 60.692776 517.897034
-651.061890 -261.314148 531.201843
-869.310181 84.824844 503.920654
-966.618896 -153.106735 464.073853
-838.783813 -88.683861 499.267242
-751.653381 -170.954147 501.182098
-964.794617 -246.541428 426.732635
-672.576721 -199.088120 533.778931
-882.113342 -49.837234 506.644043
-745.988342 -278.188904 518.370056
-692.497131 -310.729889 512.771973
-573.489746 -164.559784 566.028931
-701.689575 -215.826080 519.234680
-655.841309 -95.208786 564.284485
-626.489563 -119.612038 560.710388
-717.984863 -209.647064 524.853149
-822.873352 -14.717567 516.335327
-912.508667 -221.071411 480.755829
-815.126160 -120.095856 488.933746
-582.510681 -201.351273 560.237427
-771.489075 -272.449036 495.066315
-826.321045 -367.639191 487.375244
-620.134766 -345.985504 527.416809
-937.096252 -275.051544 423.872467
-863.202209 70.991760 520.244934
-718.732544 -294.354767 498.903198
-698.346802 -194.401184 530.339600
-791.162109 -10.505860 526.069702
-768.916321 -319.785797 488.439545
-822.535461 43.958271 535.148865
-875.283142 78.420189 507.767090
-820.639771 -37.786491 517.037415
-605.091125 -261.982788 563.867188
-783.056458 -206.152527 519.281860
-964.838074 -240.640121 436.502472
-938.726501 -14.818456 484.877380
-815.312622 -285.716827 490.301514
-712.267883 -146.586746 534.348633
-703.124084 -237.266739 520.713684
-650.017090 -194.094528 557.036804
-827.878174 -127.082802 512.136169
-823.401001 -267.221222 481.205780
-699.341858 -265.600372 517.873413
-780.907349 -179.037979 523.544678
-649.916504 -184.776581 557.934082
-753.995117 -174.241470 519.003967
-716.971741 -133.358887 530.880005
-1068.274048 -154.227966 491.569916
-772.315552 -203.061890 518.500427
-670.808167 -420.108765 503.213959
-691.651794 -270.873138 533.227478
-959.348694 -247.283417 438.858337
-943.043579 -125.944916 476.538727
-601.234802 -351.591522 540.388428
-665.813232 -185.567947 531.631897
-859.556580 -292.228729 492.984497
-884.848694 -194.898422 484.212738
-796.503174 -136.041748 515.727539
-844.014221 -73.457863 482.691406
-715.314636 -104.418633 536.892517
-1011.043213 -224.405380 496.961639
-1022.484253 -87.232552 463.376617
-838.460510 -1.138832 513.653198
-834.340149 66.343086 530.300598
-745.998779 -323.117920 485.383698
-851.044373 -320.920990 481.244507
-913.920227 -168.942291 483.814240
-907.993042 -30.062553 491.665344
-959.111755 -257.053284 438.496704
-793.528870 -199.377731 517.151245
-711.287415 -58.226624 526.361755
-898.697021 -39.696255 485.519012
-799.756348 -35.069626 518.887024
-867.779663 -94.200218 503.718384
-883.923096 -89.045364 504.945862
-671.287720 -312.753357 518.008057
-992.933655 -55.837540 484.582336
-718.278259 -11.326074 544.922241
-666.709290 -61.861664 562.801331
-986.951965 -127.363846 465.287201
-848.094238 -42.356079 509.909790
-884.867004 -172.096405 482.955933
-935.463074 -42.145691 492.385651
-935.809448 -43.517303 494.398529
-986.683167 -105.899300 471.677246
-998.187622 -234.332321 485.354309
-876.865601 41.170773 512.819519
-648.455750 -200.622849 542.436035
-838.049683 -292.370789 502.441040
-727.099854 -193.895172 536.582947
-714.188049 -357.011078 499.927582
-804.153931 -363.155762 505.560303
-955.149536 -37.343357 471.474731
-700.394409 -91.966888 525.697144
-824.842834 -110.281296 514.488586
-783.689270 -180.862167 505.178894
-709.834412 -117.305649 534.588013
-554.620178 -248.780884 556.214050
-769.901611 -51.895836 532.379456
-1002.970825 -107.752319 456.770752
-710.544434 -46.989452 542.317505
-746.983154 -342.832123 504.677002
-719.476501 -189.390427 515.886414
-864.715942 11.906099 507.578644
-915.632141 -241.919983 471.428162
-749.353760 -186.488922 514.006836
-727.452698 -209.660843 529.901489
-706.120605 -228.990311 514.990601
-774.525146 -235.011047 501.229736
-624.092041 -130.460815 570.953491
-873.404663 -302.221283 456.133911
-746.415710 -246.774994 506.549713
-539.911743 -195.981430 586.420898
-774.589172 -82.729477 534.411377
-543.587097 -202.845398 588.974487
-709.674988 -46.878441 539.798523
-849.940247 -145.102539 502.827454
-996.070374 -89.459961 463.860840
-796.027588 -241.539307 497.769958
-848.629028 -10.895124 515.244324
-620.342346 -258.825287 559.843567
-820.470520 -210.632675 478.475708
-806.303894 -189.973480 483.910675
-794.705444 -270.485626 497.483612
-756.681702 -293.280121 490.907990
-542.887634 -219.783859 573.894348
-820.060791 -86.543007 510.404968
-809.303528 -365.507202 474.969635
-839.554016 -330.725952 410.749207
-788.738403 13.143599 508.413147
-540.670227 -212.622574 567.899414
-778.471924 -289.502075 503.874908
-773.935364 -320.818115 485.164032
-674.425476 -152.831818 556.310242
-936.212769 -116.048912 486.880585
-773.996826 31.342676 535.041626
-863.349670 -56.296391 501.585663
-752.472229 -311.164429 510.484375
-900.860840 -300.378845 435.066345
-946.517395 -144.181274 469.271667
-857.805176 -28.138990 516.729492
-835.373657 -88.066994 505.739075
-839.295166 88.149231 522.165771
-573.110901 -161.450500 588.816528
-671.378479 -419.131409 520.451294
-686.123779 -228.077835 538.541321
-972.092468 -104.228455 468.692719
-810.837891 -93.652191 488.891968
-772.737427 -331.284698 492.723724
-580.181763 -316.068909 543.679199
-866.751038 25.781054 521.810364
-617.153870 -173.040970 562.737732
-820.461060 -193.691681 491.809143
-717.468872 -292.194550 512.559448
-541.511108 -197.157074 571.641663
-896.503113 20.198946 506.808472
-989.940796 -95.738380 466.246979
-591.515930 -256.215363 550.767395
-649.487854 -210.991058 553.086670
-1030.650391 -109.814255 458.381012
-836.307922 -189.220688 500.700745
-566.757202 -273.811737 549.585876
-727.145142 -135.404099 541.142212
-988.098877 -239.962723 469.786316
-928.500977 -42.186005 497.949402
-677.215149 -249.037537 538.362244
-928.221130 -275.181549 442.164948
-816.438538 -78.548164 522.576904
-594.682312 -270.773987 563.593445
-526.838562 -188.377975 579.259033
-643.146057 -394.013000 515.688965
-743.853943 8.953023 527.851440
-554.492554 -276.811096 566.879333
-778.275879 -103.753197 519.561890
-837.119995 -57.875805 490.592316
-890.491699 -53.598793 486.827118
-922.946350 -150.662216 473.078827
-866.696106 42.887802 510.420593
-886.931396 -42.359589 489.006775
-854.018677 100.577087 534.981445
-867.079468 100.718765 516.292908
-660.028137 -366.696991 530.941467
-630.475769 -275.491272 550.741455
-566.557434 -261.162903 532.942139
-816.659851 -196.754089 501.660278
-888.950806 -31.789433 510.660675
-660.915283 -326.934204 535.033142
-934.026611 -207.507095 460.851746
-696.150940 -447.920441 535.141296
-773.727783 -144.198929 525.917786
-720.182556 -77.579506 552.875793
-670.411499 -171.338730 554.948975
-795.338989 -92.966003 527.740295
-764.445374 -24.586317 541.550659
-789.248413 -192.577316 498.839600
-624.720886 -186.437088 562.543213
-909.567993 -119.297638 489.968018
-872.438782 -69.426430 501.105560
-743.009888 -30.238855 541.543152
-797.361450 -160.962372 509.505737
-799.579407 35.309742 531.612000
-905.182922 -279.710785 472.276031
-1008.782471 -116.830315 459.874420
-1015.728394 -100.527344 458.636749
-691.082520 -210.070496 529.601135
-799.045532 -89.385803 526.656189
-971.708313 -232.110764 444.364716
-836.838013 -352.986725 487.308960
-757.770630 -173.104462 513.168579
-767.685913 -93.451096 531.392456
-824.912964 5.107028 502.031372
-734.851624 -79.114105 547.427429
-872.836975 -320.977112 425.244720
-762.191101 -113.969162 531.137207
-816.920654 -16.553036 526.825684
-878.266479 74.089722 519.702087
-942.288757 -109.069115 473.822662
-731.119080 -399.212006 517.820068
-885.417908 60.481289 498.014160
-868.821899 -27.383793 509.480988
-845.553345 101.027809 525.406677
-671.858948 -368.486969 526.454651
-816.727539 -100.631340 519.349609
-769.165894 32.102249 545.913330
-910.406311 -194.986496 484.838623
-931.250549 -123.388229 468.910522
-944.892639 -208.161804 485.473907
-850.718750 -226.682831 493.035278
-830.767029 -344.202698 497.712830
-620.226440 -248.955734 550.165283
-910.913696 -90.244873 484.169647
-935.495972 -98.216454 475.322357
-633.064880 -181.186371 549.830811
-833.626648 -40.614685 511.266724
-640.116455 -263.174347 553.028381
-885.575562 -317.678741 414.744141
-647.278687 -192.900177 526.793579
-766.645447 -249.016403 504.178192
-703.941101 -203.441040 540.549866
-798.082947 -288.948792 498.230072
-849.960083 -9.496214 516.203796
-678.622864 -83.203438 550.432556
-922.858521 -273.545746 466.793762
-713.970703 -187.128448 524.585327
-996.904785 -207.575577 477.902832
-730.237671 -248.049805 513.969849
-649.951050 -414.878479 504.360291
-916.080139 -101.778397 491.901245
-753.714539 -313.838379 488.350586
-982.371582 -43.498268 476.433014
-998.000000 -123.277451 438.893402
-938.877380 -249.736252 467.942322
-973.407349 -66.943100 474.747894
-1061.511719 -87.497505 462.953918
-904.756042 -3.693106 506.888641
-938.635559 -243.236420 479.750336
-582.151367 -125.784760 573.440735
-1020.097961 -195.718445 467.037628
-889.937317 -291.346283 394.240509
-487.935547 -201.444550 583.797668
-933.960388 -90.131752 481.518524
-591.245056 -203.101730 555.189087
-750.324524 -85.944298 528.258423
-697.992188 -232.823990 522.845703
-847.126465 -271.247864 492.000702
-841.153687 -348.410248 464.441376
-713.510864 -139.159607 530.974915
-704.561340 -351.255219 489.886078
-990.181946 -106.021332 466.078552
-848.123047 -53.162968 514.135498
-902.209595 -40.984665 505.065430
-771.876770 -120.109222 520.628418
-886.593201 -33.045883 497.790375
-942.208923 -7.095707 486.982941
-866.195496 -295.572662 489.555115
-933.575256 -166.718384 481.267365
-862.476196 -132.655579 500.268097
-807.517578 -34.987701 519.595459
-664.317200 -414.070404 506.888824
-940.168152 -271.067810 422.250122
-831.502319 -356.459320 436.018921
-521.420715 -198.034515 595.177063
-652.856262 -136.978256 560.584351
-997.158813 -70.974518 469.490479
-600.214050 -294.286407 555.083740
-616.462524 -297.604645 537.878601
-846.171570 -230.291992 493.401001
-599.873901 -258.201355 549.775818
-664.476135 -277.000763 515.567200
-596.421631 -298.919189 555.620239
-936.561584 -185.540497 469.584351
-760.309143 -159.331604 528.608398
-1011.667603 -77.528816 463.597565
-861.689575 -306.928772 383.281281
-936.304810 -273.162354 459.539703
-890.211731 36.297794 507.918304
-843.427185 -300.561096 491.330048
-876.456360 -11.659398 502.756531
-711.848999 -27.490980 556.977905
-871.186096 -11.400873 509.499054
-601.659851 -150.879349 556.641541
-797.566589 -156.758820 510.995392
-702.636536 -323.337036 511.059204
-538.498474 -265.306396 586.014282
-801.036499 -82.299355 515.935364
-775.291260 -109.681625 531.746643
-948.089233 -92.385590 478.272614
-725.485352 -5.168684 543.266663
-718.584106 -310.003204 505.454346
-548.035522 -210.661774 550.481140
-951.250244 -18.255011 473.447632
-905.600464 5.139522 505.483887
-707.392090 -27.003170 549.166260
-968.830627 -76.109779 476.883209
-731.447205 -89.427193 535.306885
-906.348206 -280.828583 468.966614
-608.422424 -345.561157 538.479553
-924.745239 -1.897099 498.017090
-658.978455 -69.479828 559.887573
-916.543030 45.396057 505.104340
-918.470581 29.257746 494.080322
-835.016785 -339.369873 446.066040
-847.028442 -152.546234 489.691193
-980.362366 -219.979614 495.848022
-871.861938 -315.728851 460.456848
-823.477417 -247.167267 482.440979
-863.315796 -178.403214 486.660919
-932.223511 -140.123306 473.734375
-681.131653 -153.019577 554.139709
-892.890625 29.616104 511.699982
-606.732727 -191.850327 552.543091
-858.346619 -284.488525 476.626190
-678.105286 -105.095757 543.694153
-582.805237 -208.666763 571.765503
-516.548889 -199.277008 578.163757
-732.919556 -17.903116 540.699951
-650.734009 -146.404266 547.097351
-582.533813 -178.586868 559.533875
-790.453003 -237.127609 508.698242
-670.505127 -251.546616 527.492737
-685.996948 -318.039917 503.600281
-1043.031738 -168.291290 468.054718
-528.773804 -246.390198 577.315796
-805.371948 52.127346 534.274841
-989.979004 -22.161552 465.616211
-940.116272 -162.806442 480.355164
-870.879578 -81.308113 506.268433
-825.621277 -208.380981 486.670288
-713.321777 -126.557182 545.855591
-828.806458 -363.519775 491.654022
-928.523315 -139.199249 472.722778
-739.595764 -220.780594 517.756104
-992.174866 -140.700058 463.106262
-909.848938 -73.863785 479.036255
-659.032043 -407.840271 509.297668
-777.424072 -76.279068 527.264465
-711.690979 -355.523468 513.060303
-954.510437 -105.927826 471.352264
-885.952454 -92.568047 473.708984
-533.490417 -240.999573 567.768005
-621.059387 -220.060196 559.741333
-866.425964 -312.811401 444.743744
-752.823608 -88.811699 542.216187
-657.227295 -325.236176 523.087341
-616.335938 -186.046524 551.534302
-833.809875 46.231503 529.685486
-807.473816 -273.557800 503.093872
-682.598022 -269.044647 534.542053
-602.375366 -109.748711 565.700439
-691.160339 -277.321381 518.397461
-621.368652 -200.921524 548.234009
-662.014526 -249.468048 530.438782
-537.940430 -199.807663 572.013977
-866.677185 -3.279987 505.500793
-877.098938 94.043999 512.486816
-1031.717285 -119.318291 467.059753
-772.267761 -105.584419 523.010498
-565.316467 -206.896774 580.174683
-817.996521 -376.724213 469.997009
-749.563843 -17.553827 548.874512
-941.197144 -200.327026 469.498993
-876.536438 48.573002 519.637878
-762.221252 -301.865082 495.028290
-679.666870 -54.422165 555.950012
-877.168274 -298.958160 433.665955
-945.807434 -52.631248 460.765564
-776.332581 -320.913116 500.151245
-783.962463 -268.339935 486.922150
-1013.513916 -47.955631 469.818329
-795.469421 -27.980162 534.700012
-711.437012 -304.375122 498.747101
-867.990051 -306.667511 475.268646
-735.246887 -224.831726 513.472229
-911.616577 -264.562531 470.659088
-978.950317 -56.981777 475.636719
-746.663208 -54.744305 534.101379
-758.374634 -335.293243 502.298828
-515.147461 -239.231964 567.359741
-880.626099 -49.651840 508.607178
-937.217285 -109.820168 482.676147
-853.467285 -117.561943 504.897339
-1007.726501 -157.670593 460.056915
-629.668884 -268.692535 535.364197
-771.189819 -92.535110 524.467285
-574.559753 -229.070526 572.472778
-929.853027 -13.774052 497.212646
-978.038330 -76.248940 455.707947
-605.366699 -353.795563 529.773560
-882.412964 -8.352066 501.604736
-810.480530 -359.915649 513.959106
-799.530579 -29.346355 499.049805
-858.862427 6.824594 513.757751
-681.722168 -285.353699 538.303040
-708.620789 -181.878113 523.089722
-817.503967 -105.575516 506.030579
-648.605286 -125.886703 549.884277
-997.078003 -158.441162 461.546661
-527.134460 -224.713440 586.588623
-808.375916 -85.504723 519.101440
-909.012146 8.618785 505.441406
-1065.312500 -172.871521 502.050385
-990.237122 -65.781761 462.163452
-758.397522 -122.436615 535.321228
-619.396851 -152.831146 555.598999
-633.840210 -295.354828 532.823547
-728.926575 -334.304077 496.712219
-667.988403 -403.006348 524.164978
-727.207825 -39.958008 538.147156
-804.346191 -264.561890 486.220764
-812.665955 37.828068 535.190796
-852.770996 -53.321087 507.389679
-916.890442 -197.721161 467.464386
-926.652954 -128.604797 474.337372
-961.881836 -181.383469 475.567261
-683.814392 -56.454243 549.617676
-901.944519 50.687805 510.144104
-956.684570 -230.581421 467.630585
-865.096802 -151.141281 497.308868
-626.460999 -262.311676 557.381042
-692.002014 -290.823578 516.153259
-641.323730 -277.205139 534.302185
-1014.426208 -119.464539 458.668243
-804.384460 7.217419 532.296326
-782.853210 -66.626030 522.501709
-598.750183 -226.870300 558.870911
-922.246765 -142.170792 472.664368
-965.469299 -254.258667 432.757843
-926.855957 -108.636833 478.922028
-752.565735 -315.775208 491.970947
-873.474731 46.640728 514.110657
-824.276978 55.928501 509.375458
-600.498474 -151.383804 562.093933
-705.884399 -63.779358 541.942444
-909.949524 -292.269135 414.375793
-794.189758 39.030987 526.919250
-877.384277 -308.326691 411.631287
-921.471008 -171.517365 471.595703
-715.422729 -333.514343 518.777344
-863.324280 -305.766388 492.024719
-1015.183960 -204.931015 497.481384
-710.679810 -410.096954 526.860535
-950.786560 -3.768337 490.033661
-685.106140 -259.227600 513.533936
-767.802429 -214.544815 519.787415
-944.293640 18.520908 477.532501
-953.589600 -26.475513 471.530792
-845.868591 -64.796616 508.852997
-856.544434 8.426060 520.283630
-717.155579 -274.499573 525.019897
-699.186646 -176.276947 543.747925
-691.761169 -162.995346 536.903381
-570.090576 -254.897751 568.588501
-961.964111 29.591991 489.754974
-593.613098 -203.964493 561.378845
-977.095703 -121.577560 464.886292
-921.076721 -18.624001 484.443451
-758.792480 -115.508499 522.552795
-962.746033 -201.039230 467.897736
-737.328308 -146.913406 529.128662
-624.159607 -252.931641 559.211731
-581.171387 -219.674164 574.839050
-766.513672 -144.342667 516.965271
-835.936523 78.378090 518.933716
-621.471130 -93.660789 572.778015
-706.475952 -93.722565 543.099976
-979.416321 -67.000267 454.100464
-818.988464 -91.841156 509.797729
-704.892273 -328.859344 523.389709
-722.161011 -245.422318 514.199158
-815.513733 7.025209 519.444702
-812.619812 -6.487451 534.170105
-593.216248 -335.065033 535.304504
-888.059875 -67.026321 490.247437
-599.094055 -267.795166 556.136353
-706.423096 -365.189667 497.743927
-999.500671 -174.650604 480.812134
-886.321472 -64.226990 487.218475
-805.518250 -388.824829 518.210205
-824.405090 -116.280663 514.404541
-632.474121 -257.656189 543.813477
-739.893677 -107.572998 531.325134
-807.452332 -204.183945 508.300171
-854.284180 -320.186737 478.193756
-863.400391 110.980736 524.053284
-850.710938 -63.435661 503.874817
-805.713928 -138.203552 506.806030
-682.369995 -41.801140 555.266052
-825.971252 -33.926357 513.652710
-865.854980 -182.407562 492.359222
-757.983276 -97.626389 528.015869
-893.310425 -301.642181 397.161469
-586.243286 -185.681229 577.006653
-578.619141 -307.430481 541.075195
-929.244080 -269.283905 454.210693
-832.947815 -15.839533 510.382629
-668.743469 -245.864609 529.277832
-676.623169 -410.489471 521.176392
-648.140137 -141.693130 542.481506
-675.321411 -100.643143 559.205505
-806.872437 -170.673050 502.753540
-575.504639 -266.610352 562.455261
-768.531738 -45.605743 528.228149
-837.366943 36.840225 516.336548
-882.325439 -310.377045 402.377747
-603.141541 -257.267761 555.463745
-950.687439 -23.962597 479.849548
-642.665710 -262.678314 546.320496
-577.189209 -191.787384 575.566772
-794.117981 -7.295450 503.683838
