ply
format ascii 1.0
element vertex 1412
property float x
property float y
property float z
end_header
-639.931458 821.726318 151.699127
-696.417969 389.900269 294.919800
-645.924866 486.047913 253.312149
-777.688721 566.274231 174.312698
-827.024963 660.485840 86.812584
-556.859802 735.563110 253.795517
-616.818054 819.644043 177.314453
-636.271423 818.507019 177.249313
-634.703552 691.309204 222.467865
-680.248596 476.987701 261.950989
-754.135559 420.111572 254.854034
-574.821716 620.974487 281.448029
-853.902649 542.534912 135.665726
-843.133850 549.085876 103.039917
-738.100647 521.932068 208.395920
-817.048645 764.648743 90.241898
-520.745667 847.941040 243.815781
-818.281616 649.532043 72.527008
-594.064331 632.664612 266.378937
-817.384460 719.141479 82.692566
-580.357056 692.635681 255.899002
-567.468384 645.301086 276.968964
-575.366699 637.513123 281.731323
-707.834900 424.147156 263.084381
-542.263611 659.761597 293.628357
-657.749207 428.782440 302.725159
-536.320007 809.704651 242.502518
-746.670044 628.140442 160.290924
-678.095276 620.392883 209.742615
-813.053223 680.210205 47.153881
-696.924011 791.585205 152.274429
-582.480591 657.736023 269.772186
-636.671204 748.345093 188.355240
-576.079407 705.352417 253.168427
-776.705139 845.988770 94.357437
-670.831421 410.305420 312.330353
-831.168091 759.068420 102.343475
-688.943420 444.975616 289.987732
-751.855591 620.912048 172.592789
-750.853577 827.793884 95.020592
-518.058533 806.162903 245.027710
-706.703491 839.696594 116.056671
-539.725403 785.954285 251.951904
-524.351563 828.546326 238.355316
-659.671631 645.855713 228.801102
-696.866333 695.221375 173.228897
-614.492065 592.735718 268.590515
-841.156921 774.761902 122.646584
-672.396912 772.906128 161.775894
-693.543762 463.669403 273.518524
-646.583313 829.901306 137.195526
-565.433472 825.100464 205.621201
-805.226318 630.391174 62.338085
-616.316223 432.621887 331.858185
-671.330200 378.479797 310.856995
-717.469360 707.007751 162.828842
-669.313721 718.847900 160.642944
-553.928650 595.289001 308.316071
-765.052307 629.173401 134.066498
-817.206360 693.505737 104.823418
-738.726807 425.942108 259.469971
-707.702332 698.375183 172.580856
-582.701965 865.732788 191.590118
-546.289063 738.389832 249.618851
-589.592590 691.106262 241.853973
-593.234375 740.042542 234.617966
-825.794067 740.928101 81.233543
-612.224854 381.713348 341.445923
-675.524841 586.766785 205.713867
-617.877808 837.137573 174.196228
-639.790100 864.939331 154.806152
-598.423340 854.431458 184.314545
-828.766907 407.787415 189.387817
-641.168457 607.985291 237.988693
-553.447510 771.651123 234.444336
-612.016418 515.476074 291.322754
-595.566895 761.207520 227.094131
-562.855713 582.129333 316.586914
-578.170776 733.759827 235.303055
-692.307983 694.441772 173.962296
-697.019653 783.559082 125.719406
-606.308105 524.803894 310.701721
-752.657593 695.191406 124.158081
-820.712158 680.597046 102.415306
-830.654419 624.788452 73.480446
-686.302429 838.743347 126.350700
-811.866821 697.757568 95.875412
-777.641357 639.580566 148.955078
-591.991699 819.764404 195.083755
-728.720764 711.668640 145.421066
-641.649475 608.416931 239.559204
-527.184692 786.836731 259.752625
-707.597778 452.214355 229.396545
-572.724060 678.676636 278.313507
-694.766174 526.683472 225.612869
-728.603088 448.864990 238.546783
-810.615112 850.059082 100.204002
-616.941528 607.958435 262.057434
-681.183472 496.800781 254.097702
-604.505798 421.462555 326.433075
-681.035828 819.192200 130.127838
-812.280029 678.097534 43.949726
-620.888062 774.387756 206.483200
-762.163208 392.982635 260.249420
-676.980347 771.380371 147.440170
-558.546997 667.226074 277.135315
-646.225281 616.855591 250.786087
-595.228455 704.180481 249.875092
-701.234497 410.573669 271.891937
-601.161194 402.330048 326.645874
-628.151062 421.204865 324.425140
-736.050354 409.407074 262.753540
-717.519592 729.021851 151.358231
-610.894653 389.830933 329.411926
-871.697388 526.042969 169.367233
-553.092957 619.958313 288.696472
-658.145691 825.722534 164.539917
-642.148560 640.632141 234.993073
-820.870178 714.182007 70.533707
-780.653748 475.229370 180.647400
-583.363831 613.992310 286.020844
-767.595947 466.638916 203.034714
-752.331055 752.881287 115.679947
-677.108948 377.140778 313.737671
-671.692932 492.507782 268.658966
-798.145813 443.486816 182.842484
-678.652527 509.872498 239.177704
-621.226379 420.037018 337.288788
-703.877319 410.314178 286.030396
-619.895447 728.488403 184.162155
-556.725220 766.231384 253.850662
-630.049500 398.591309 342.819885
-731.212646 854.089844 97.297066
-703.205750 568.066711 207.804718
-626.496582 685.323792 227.045074
-710.893433 693.987122 164.322693
-620.085571 809.450073 196.176392
-861.527588 522.573486 172.547058
-606.541016 367.750488 357.532562
-780.059448 394.744019 222.920624
-587.821472 631.196045 268.230011
-731.615601 670.367493 171.706604
-745.740112 782.716125 117.995819
-588.053894 496.722992 315.737823
-633.438599 662.323303 243.752487
-552.424438 663.612854 277.014984
-664.916077 574.305603 237.015060
-761.994080 439.220520 225.358902
-700.186890 649.996338 201.315063
-815.750305 441.653839 200.709808
-607.065735 819.610229 159.459717
-611.759155 462.073212 323.658569
-806.680542 392.797394 191.980103
-770.348328 671.872742 145.906189
-577.372864 742.122864 236.365524
-667.135864 826.970276 155.142136
-823.452576 603.875549 152.131210
-558.979797 567.373108 312.893250
-549.626282 638.110596 289.650055
-526.488037 749.349121 265.322418
-734.423889 628.816345 181.884003
-639.429016 824.355713 173.057892
-540.201782 716.690613 278.254974
-677.801819 415.935364 259.994080
-603.703247 491.969147 325.819275
-744.969604 562.414307 191.476089
-598.067139 410.793915 346.958374
-690.109009 406.514069 293.244659
-728.177063 777.168457 123.776154
-669.281433 437.110870 302.193024
-668.585815 398.291077 309.255829
-699.516785 705.750793 166.768005
-711.087646 456.623016 245.621765
-521.676697 851.250061 237.869110
-587.387817 620.591797 271.821991
-589.472717 510.443634 296.221039
-635.423584 522.838867 292.942719
-624.492981 520.419800 285.618195
-630.183044 546.003723 288.277008
-565.038086 515.194824 306.821716
-663.426086 572.469604 241.782394
-605.238770 858.640930 183.038467
-601.200562 770.330750 206.565079
-705.084961 805.263977 129.518402
-626.494385 824.841797 175.258347
-825.988586 701.390686 68.897606
-681.844299 819.252380 122.709167
-649.565308 404.711273 308.977875
-700.259094 815.690674 124.551834
-828.837280 708.544983 110.354012
-643.977295 647.808044 240.339401
-635.877747 404.074280 333.839722
-556.329163 816.084656 202.678711
-696.230896 599.514587 221.248413
-542.436035 735.178894 264.259583
-840.119141 584.174133 147.015045
-572.337280 828.603516 214.442932
-609.343323 654.743347 246.247574
-547.948181 841.397766 221.679825
-628.820313 580.527588 263.374329
-553.393311 516.166443 317.476807
-775.306580 642.279907 137.197052
-664.932190 536.809692 252.491211
-817.537048 704.775879 99.876472
-555.795532 829.090881 217.465195
-787.818909 668.749390 136.354813
-792.855103 432.425537 201.885391
-757.487671 603.014160 161.398895
-639.472778 429.766205 328.225372
-815.641602 657.769165 85.230270
-698.127197 780.895508 154.877396
-802.530090 593.665344 147.530289
-622.853882 692.215271 232.478394
-651.030457 452.170410 303.849854
-699.913635 801.743652 133.249146
-579.600098 777.089172 213.042282
-659.346680 727.643677 197.641907
-578.431519 549.795105 299.978485
-681.690308 567.275513 227.231689
-743.642578 823.993835 106.285423
-607.996948 437.121521 326.276001
-526.837036 814.543152 244.452805
-678.083008 529.921814 249.352310
-718.416870 641.827026 171.171097
-629.646912 716.964539 224.877625
-689.793213 785.120667 149.263855
-749.276611 758.017883 127.575188
-696.969971 718.398560 176.005173
-751.857544 589.820007 178.851364
-635.123169 409.144745 325.449585
-714.548950 563.963318 201.126648
-595.634827 706.756348 240.046463
-808.837646 719.797852 99.958496
-637.607361 801.785645 179.685028
-828.635803 617.922668 80.183037
-636.882813 387.247223 324.576294
-570.662720 521.358337 334.659637
-695.986267 401.464630 265.541443
-650.269165 761.762085 189.883102
-631.029846 785.500977 172.482773
-673.255371 447.136841 268.486267
-637.561340 580.933167 257.272522
-666.094727 689.505188 195.691315
-777.999023 407.735657 195.246307
-613.810242 520.493286 289.101807
-690.915894 524.290649 236.122849
-676.783752 631.124939 226.249359
-735.558777 719.531982 143.832504
-726.669434 647.195007 162.634567
-656.221741 577.017395 246.196320
-729.578552 384.951508 259.899841
-597.902222 745.987671 224.770126
-840.599915 597.070740 114.248825
-688.057678 852.087280 128.225266
-556.882507 793.697998 226.298798
-819.581970 678.068604 65.472206
-736.835754 627.027405 167.344986
-831.963684 559.881287 165.194244
-608.245422 613.479309 260.838806
-834.450439 607.815491 72.715149
-597.483704 811.635315 200.703857
-677.064697 714.589111 176.198959
-722.561035 635.160339 187.551270
-693.373596 706.456482 179.366394
-840.368225 545.110779 97.649803
-643.888550 565.263367 272.689056
-561.040955 862.713562 197.720612
-771.323181 763.327026 114.928391
-845.875000 565.637146 132.710373
-734.079651 403.937500 263.332397
-792.853271 694.260315 123.953308
-630.080688 779.820313 192.926636
-627.591248 835.854126 143.649918
-579.454590 667.622192 275.103790
-658.540466 604.466553 242.796539
-824.081909 629.777832 126.659508
-574.482666 707.752441 247.506851
-712.919250 615.060364 189.519073
-733.316345 700.039124 142.787109
-734.905212 625.834290 177.905197
-714.766113 841.424194 108.460876
-733.703796 627.208008 187.032089
-529.109985 753.478210 267.385132
-834.290222 762.671143 114.426056
-593.669495 824.296204 182.283493
-713.949463 416.279816 260.946716
-705.280945 471.852966 252.299942
-691.506042 689.312805 177.264420
-838.575134 474.066925 178.386414
-706.358521 850.296631 120.732117
-545.494080 806.973022 233.952362
-629.969666 408.154175 300.185638
-841.000732 796.148560 124.880104
-616.153503 743.604309 218.001877
-824.144897 723.503174 111.901039
-571.770996 822.877136 176.565689
-801.200134 470.752228 191.441010
-591.120667 653.500854 273.913574
-783.596924 416.080139 196.719437
-670.528687 424.388000 285.084381
-765.582031 821.407166 89.875511
-728.512146 792.418457 104.614395
-712.967163 372.808960 272.271057
-769.756836 518.972473 172.223404
-661.635498 689.937866 195.747467
-785.588440 630.025940 148.544586
-777.770874 439.565125 206.276505
-847.656372 567.980530 155.034882
-791.101501 650.594604 144.261200
-718.525635 670.729065 175.169922
-547.332764 774.543152 215.313461
-742.894775 464.012177 221.980576
-601.719849 422.967468 333.453644
-640.029114 657.104675 224.205872
-708.799255 655.190247 183.012741
-592.118896 497.032532 306.250427
-787.725281 569.261658 154.500610
-645.333008 551.793640 247.578781
-741.707031 480.582642 196.957123
-533.432068 712.908936 280.935120
-569.576904 835.723938 209.746185
-600.630737 668.323425 246.761307
-598.922119 711.676147 232.741257
-814.560120 492.628937 166.860825
-673.080383 424.042267 284.917725
-706.984314 534.154236 216.379974
-679.109558 438.133423 287.310791
-876.639465 528.131836 155.336609
-604.972473 826.165405 187.183746
-677.964478 629.446716 220.544662
-634.336487 593.580139 233.113388
-814.523010 591.450500 74.284409
-699.815857 721.383667 163.867401
-606.525391 763.512573 185.479904
-685.056091 464.987518 279.226410
-804.275818 701.214966 74.584221
-566.217712 817.375916 193.545898
-604.931824 706.441406 227.305283
-706.473755 858.643494 112.586082
-671.717834 515.721069 259.320251
-595.637451 509.675354 333.566833
-759.463379 399.931274 219.914627
-681.420227 473.677002 262.128815
-731.406433 609.631714 185.044968
-575.266174 686.691650 263.305450
-667.348999 817.334167 141.344025
-702.097900 456.291595 252.345810
-862.961609 523.461426 136.048080
-592.685608 398.531006 363.813507
-630.775208 571.552856 262.956421
-714.547424 463.947784 243.517746
-554.007446 807.745361 206.714203
-725.815247 535.389893 193.742828
-822.106384 618.234253 103.572250
-634.963501 552.299683 266.213959
-743.234070 707.192688 146.379578
-548.069458 659.661072 285.302338
-810.847168 630.957397 85.985031
-806.672913 568.637939 158.080490
-681.743286 832.918701 144.377762
-661.094543 581.423157 253.931656
-592.416016 630.322510 267.463470
-822.880066 383.924011 196.774536
-706.958496 512.435364 229.000092
-692.774963 794.896301 140.008514
-604.164917 765.580872 218.273590
-655.982544 633.570251 223.317352
-809.728149 712.099670 84.370491
-710.437866 691.926392 167.925797
-592.090820 531.592102 302.649658
-617.874390 758.147034 192.998611
-554.642212 715.020630 252.042450
-843.419373 576.273804 103.886505
-829.736938 577.577881 149.084579
-695.395325 687.620056 185.377274
-768.866028 686.384399 136.051834
-708.609314 514.145081 249.032852
-592.674133 502.296814 320.802551
-601.861023 784.440369 215.006134
-670.287903 606.239502 221.423141
-813.368835 797.353882 96.356758
-871.255127 454.922974 188.131851
-556.169861 792.186340 236.877625
-795.877380 432.380859 193.449860
-526.832275 856.599609 227.231781
-827.797729 593.390747 84.639282
-583.717651 547.303467 323.344788
-740.926514 739.534790 108.902428
-716.484863 727.929138 135.056396
-682.630310 555.527954 213.014282
-819.044556 813.677490 110.249077
-706.285522 459.600464 250.935730
-693.361267 583.820435 217.718445
-760.562805 466.367798 230.022125
-707.351379 649.678040 180.356598
-646.918884 383.582611 321.807007
-563.095032 788.635010 237.787354
-669.878784 687.337646 204.635086
-698.994873 539.814880 230.909927
-631.282104 618.531006 236.979767
-555.042603 591.718811 305.014893
-630.872253 470.293396 298.370453
-839.997375 591.277832 108.392220
-762.814453 479.698181 201.970276
-651.384094 673.524475 212.968170
-732.038086 632.439209 186.626343
-679.219299 553.451172 216.243668
-692.522705 448.228546 264.672577
-809.696350 661.563354 129.693054
-834.821899 582.569641 85.265793
-771.497314 509.917389 184.528610
-505.266876 835.273865 236.612350
-717.359741 702.691406 146.609482
-518.931091 763.825989 262.339722
-666.255249 607.677917 227.282516
-760.139587 407.017883 255.449738
-818.851074 650.103760 52.330776
-721.237549 720.488831 154.464188
-507.888031 818.868164 255.813919
-699.353149 504.704224 242.875916
-645.374390 562.215210 259.137512
-723.882324 441.183594 247.347198
-657.905945 521.193481 249.349655
-755.251587 582.266235 170.160019
-523.613281 765.305481 237.406021
-582.293152 664.655884 273.249084
-617.485168 727.112366 225.816422
-706.546204 483.269012 234.155457
-793.824097 618.724487 35.392857
-719.198975 543.996521 215.304916
-746.276611 465.548859 219.612564
-761.781006 530.584656 199.280975
-559.594421 674.502258 264.417542
-853.944336 547.348999 120.182022
-572.685120 706.197449 263.869049
-626.080444 824.333435 181.784943
-557.641846 691.254761 284.457855
-781.173218 423.400360 225.164673
-602.417725 553.302063 286.488281
-839.178101 596.264832 71.440331
-598.768799 823.572998 193.325928
-535.988037 759.970276 258.309113
-594.763733 836.488953 198.467621
-720.977783 509.462372 242.503708
-558.216614 620.498596 298.817932
-831.817871 619.090698 109.038216
-628.145142 505.094269 267.198242
-727.585999 816.471619 112.540894
-568.868713 530.081665 297.436737
-821.089966 662.021729 81.525276
-758.652710 585.941406 186.154892
-591.831604 631.568481 281.353119
-589.619080 501.741791 299.242371
-804.637817 587.059875 140.432602
-750.809570 548.744019 187.926941
-726.909424 827.507324 96.940620
-688.094666 551.104370 228.113846
-713.095459 410.505554 279.212006
-662.006592 651.404968 228.442093
-621.156677 695.759583 236.739380
-708.260498 638.902466 178.352783
-678.738342 714.664673 186.314240
-570.842712 583.132202 301.034332
-700.688293 783.394531 128.825378
-536.023071 801.807800 224.537598
-841.413635 551.308960 156.397797
-630.321838 781.156189 200.568680
-806.345093 450.315552 181.580917
-876.955750 530.296875 137.724426
-602.343384 582.695618 274.308350
-758.249939 632.848389 164.657440
-598.306641 816.541687 191.851120
-822.300598 571.897278 89.117615
-670.745178 754.023560 175.871201
-540.446289 766.461243 257.402618
-614.122437 643.792664 262.831512
-652.744568 685.424011 217.533768
-543.326172 647.347961 299.306335
-742.465576 435.760376 235.942368
-561.321716 701.896240 258.065582
-831.030151 564.146851 133.510483
-744.976074 822.380859 94.514938
-747.109680 763.607483 107.286926
-753.695435 601.577576 179.807053
-839.681580 551.354858 153.884460
-529.640259 794.225830 255.027832
-655.092224 724.742188 198.915726
-772.499390 497.195496 196.969711
-619.550598 440.722443 298.415283
-556.806946 790.688354 239.023987
-598.902588 403.216797 346.563538
-837.053162 564.578003 132.809204
-576.030884 831.683289 204.185303
-608.732300 592.113647 273.281372
-605.816162 594.090393 275.390259
-641.711243 547.949951 241.814728
-716.100708 804.096130 131.962158
-802.193359 462.534515 186.554672
-581.709412 666.790710 259.128998
-686.724670 467.255219 254.558945
-664.655090 737.336426 188.943954
-572.148926 563.120239 301.549988
-613.926208 836.382935 176.264023
-743.476379 689.226135 152.185318
-694.044739 799.012878 121.065727
-585.258789 719.805725 251.323898
-701.273621 583.954163 212.987747
-558.909668 825.190063 211.851364
-653.672180 569.691406 251.349686
-796.022400 649.545349 117.431854
-603.530762 780.903320 200.470566
-509.068085 814.930237 254.487717
-820.192688 612.810730 95.340202
-774.500977 490.905457 203.828018
-557.144958 728.142700 257.065216
-558.178894 653.623901 274.213562
-549.629028 800.672974 216.538544
-833.733032 558.105835 94.369576
-508.688660 844.157654 237.326187
-817.832703 642.330444 63.232903
-550.836487 725.296631 264.160736
-825.390869 720.324097 82.148407
-543.151123 663.370483 285.412689
-743.155090 812.909790 96.520515
-867.114136 537.819397 143.301926
-734.070740 832.650757 105.904778
-589.241943 830.017883 181.295242
-619.431641 579.808899 280.772858
-582.589355 753.265991 218.668808
-732.030396 546.729919 218.550873
-709.058411 387.589325 293.572693
-826.765564 621.614563 115.186394
-516.799072 813.982178 254.221405
-633.221924 615.281128 225.002518
-557.554321 791.494812 243.542725
-599.451050 483.809875 335.149384
-801.228943 679.095947 77.111832
-593.645447 562.667786 268.722870
-800.878601 691.923584 116.873482
-817.716064 667.025879 62.365005
-750.781555 757.642822 128.965256
-749.891724 439.292511 227.173889
-585.683594 525.815491 311.738739
-603.973999 417.366974 316.931335
-732.353882 463.508484 230.046951
-609.887268 823.751587 171.185623
-723.906494 667.720825 167.763824
-570.556702 535.593384 309.652466
-632.895752 614.845276 249.146652
-626.037231 694.414490 214.474915
-633.209717 860.790100 164.502686
-703.482117 732.430298 164.146194
-551.948120 710.687073 265.943237
-592.822327 545.605103 281.643982
-696.750793 511.985901 236.756943
-651.033569 804.569702 177.790588
-683.257751 688.561096 184.823654
-780.689636 452.064056 203.543442
-726.301453 599.538452 189.539093
-812.122131 476.627869 182.769867
-513.886292 719.147156 276.582916
-595.485901 720.511597 235.820999
-602.982422 383.674438 350.368317
-700.393799 784.745422 134.669128
-695.569458 699.170593 186.934601
-736.174683 731.958069 131.809891
-674.961487 791.669922 154.787766
-749.241089 441.598389 226.548874
-798.775757 641.115356 133.099045
-647.196045 579.609680 249.089142
-647.862183 553.763489 268.807800
-733.580261 541.737732 219.515747
-681.136719 700.081909 175.151123
-660.945251 405.959320 309.700073
-731.070190 611.650574 196.618576
-597.103638 541.446472 293.611572
-646.512573 836.594666 150.794312
-800.677307 768.866882 102.814659
-600.536194 855.325012 185.119247
-808.587646 697.575684 125.454041
-798.861328 608.637939 42.522141
-637.794861 486.150116 305.575775
-743.281860 868.229797 81.820168
-803.556091 724.009460 92.814072
-566.711853 754.431030 231.365295
-659.409180 458.507477 299.245575
-829.676636 599.785095 121.394531
-607.343140 822.189941 195.423798
-666.075195 532.280090 240.546387
-682.049988 740.234314 174.656601
-588.353516 764.593994 234.168900
-591.418335 393.237915 364.679199
-696.348389 548.654114 223.788849
-578.073792 735.667969 245.895508
-539.627686 786.887207 234.585297
-759.288757 490.467896 199.630890
-622.106628 828.631836 146.499557
-694.359375 457.634003 237.014359
-686.284363 670.188904 183.610275
-664.669067 646.166077 224.351013
-772.752991 719.952209 129.754547
-753.776855 565.944763 197.684906
-737.900696 732.225647 145.204559
-528.513794 739.900024 274.521118
-817.059998 596.686279 106.188469
-598.807190 563.790710 280.884430
-642.207275 802.958313 157.996368
-666.245178 727.178833 181.218353
-634.746704 844.505981 165.684921
-545.937378 642.789001 295.126343
-812.159058 581.061890 65.914131
-818.170044 637.334839 55.638401
-528.123779 766.926270 279.711395
-682.114685 751.826233 158.364334
-638.261475 540.507446 286.728943
-612.893066 644.580750 243.259399
-813.865967 716.829163 114.865639
-875.533386 506.745605 169.085358
-593.544739 649.890259 259.838013
-523.589111 761.932922 260.819946
-744.938965 807.945007 109.682381
-815.244812 657.892212 90.890694
-719.093567 483.014587 254.708282
-616.979248 614.491577 258.691223
-636.849548 418.262726 315.580200
-724.724915 651.522827 169.157410
-575.895813 740.280457 245.868240
-602.466492 396.872070 326.600983
-831.785156 595.363342 88.292915
-815.331848 599.773438 60.990860
-587.296387 501.113739 314.635437
-616.661194 449.204834 302.754425
-632.368225 716.522339 187.633041
-850.142090 379.767944 217.155365
-745.157410 748.433228 134.600052
-827.573425 640.562134 105.077934
-732.455750 401.839905 227.607788
-563.124207 790.165466 223.864639
-713.402710 487.940582 233.879471
-769.951599 556.044373 168.382858
-754.943848 386.490112 255.300583
-725.859802 389.429565 261.559296
-732.284241 660.426270 141.620956
-797.143738 482.652435 194.442749
-701.751587 438.112671 250.570755
-515.375244 828.132996 236.207382
-612.357666 461.141632 310.939789
-566.250366 734.001343 231.063370
-820.794983 631.579956 131.533661
-539.241943 783.377319 225.253967
-818.067017 382.378265 228.867828
-713.237610 415.444763 281.394226
-746.466003 811.312744 82.747169
-569.940613 527.928345 327.524994
-747.784729 575.146912 181.602600
-648.785522 825.778564 145.617661
-773.409302 388.297455 255.866837
-698.203796 433.155792 276.874207
-578.754761 835.280823 206.731476
-524.422607 791.574890 257.125977
-665.446228 436.517975 285.468567
-701.661804 778.154785 130.317001
-809.303223 680.201904 90.735275
-703.056030 396.954529 272.247955
-755.975159 668.507141 140.101974
-649.109009 422.153839 306.415436
-811.358337 605.734131 53.758331
-799.614502 651.122559 39.017773
-791.543030 396.100128 237.481110
-633.768555 736.746277 178.924606
-690.162476 725.194702 164.188080
-742.791931 648.697815 157.901077
-751.246460 430.043579 248.436111
-608.511658 782.167969 189.191452
-565.588684 849.868591 206.745377
-748.339417 657.595520 167.567749
-802.598694 698.143372 107.567146
-559.104492 590.905884 299.676575
-813.372009 624.553528 82.557640
-566.303284 812.630737 220.820709
-831.883240 639.753845 71.796295
-734.227417 538.761841 199.910355
-547.945984 689.593018 268.268066
-724.010986 682.455200 173.636749
-609.905640 587.626343 267.180634
-730.878113 380.078888 260.881195
-837.847229 588.309387 105.740349
-770.349243 843.029663 98.617195
-605.531799 460.182556 321.434845
-807.959167 477.714142 187.895828
-746.387085 765.408386 126.544205
-566.153259 616.587463 292.501526
-539.041565 778.992432 240.516312
-704.629578 492.075348 253.723877
-708.761597 482.633820 227.362686
-637.117004 631.780457 231.589661
-525.055237 810.290100 225.904282
-824.347961 597.621826 90.181267
-839.773560 591.427979 121.813774
-615.609802 532.406311 283.445831
-798.879944 538.980408 161.472046
-628.067139 718.844604 182.483719
-826.326904 548.687988 87.040718
-644.614685 385.887817 343.221802
-748.288269 723.071472 141.802780
-829.081665 607.172363 84.983887
-634.995972 745.707092 197.994339
-629.527161 395.327881 324.550446
-818.680420 689.771057 70.163170
-847.996704 528.074524 168.910126
-837.079163 536.195557 94.928101
-648.994263 636.265869 231.971298
-712.201538 667.917114 188.059738
-664.047363 444.754974 282.171051
-783.357544 475.251678 188.910126
-882.649902 527.771790 158.416061
-671.216919 604.868103 221.737549
-707.191956 626.011292 203.102539
-631.145325 456.776367 307.086121
-671.575134 478.267151 266.688812
-825.647034 388.892181 191.775284
-632.787781 729.286621 198.875214
-571.312439 638.619202 276.794464
-727.170227 579.588074 205.100021
-600.047607 688.066467 236.053864
-527.963745 745.575073 251.620605
-805.941528 652.980835 48.295853
-618.363342 757.462769 207.918610
-687.685486 478.562408 263.282776
-577.502502 587.261963 288.285278
-760.376831 839.107422 78.519028
-729.083557 839.325500 97.488953
-746.725098 473.719696 216.105621
-691.274292 419.237579 276.801636
-592.922913 811.415466 207.315536
-639.345215 819.864929 171.481522
-635.809509 485.228851 292.092407
-661.677612 803.857361 161.609650
-749.004822 408.786682 244.744247
-674.575562 508.977783 255.030243
-791.916931 681.833069 122.793854
-708.852173 473.795319 248.690430
-806.821777 682.750000 41.607899
-659.402405 487.960938 278.938171
-603.936523 747.233765 187.346115
-536.551331 734.373352 257.193848
-579.472290 538.161133 307.131653
-578.563599 710.587402 244.103882
-621.174133 822.863953 182.676331
-803.480042 731.778931 98.868134
-629.163025 720.376038 207.014252
-751.780579 710.396484 135.390640
-553.679321 832.513184 208.765305
-582.467041 718.344849 212.163239
-736.703735 802.016479 104.326218
-601.800354 731.694336 227.713669
-628.870361 428.667511 311.530823
-793.268433 691.470947 128.420364
-885.651550 540.297119 171.993912
-776.859863 625.595520 141.329742
-640.520813 682.232178 217.967712
-639.017212 609.789429 247.685211
-680.169556 433.661255 288.652466
-665.499329 478.763824 278.393127
-830.519592 617.645874 108.627235
-784.291321 466.107147 175.610794
-579.321533 847.756653 197.661880
-672.992065 486.202148 279.739777
-540.913635 772.901489 256.950836
-669.412354 598.666687 229.078430
-809.416504 671.859802 91.662727
-587.244385 655.498047 267.424988
-612.754578 593.943420 276.326263
-635.769165 799.793274 180.317596
-806.860474 718.072937 126.634644
-547.393494 722.657837 266.797729
-591.337097 407.167023 361.923492
-621.537781 836.247620 158.028381
-602.963318 678.250366 257.810669
-592.380310 564.821777 287.049927
-616.743286 761.806030 216.507095
-541.747498 700.600525 271.368439
-570.733643 834.608948 207.362839
-679.210510 708.583740 179.080719
-691.995239 554.441772 227.914139
-776.164246 386.897949 253.676514
-672.833435 380.820557 314.521393
-573.132446 622.428528 277.384644
-661.627625 411.714325 319.200592
-533.386658 739.168335 260.188690
-659.692078 677.116821 214.519516
-602.273010 390.208282 331.724609
-622.907410 743.404480 209.806885
-762.156433 450.853790 199.079117
-667.057007 405.915894 316.101166
-675.158997 827.752625 145.602524
-639.746033 644.282349 231.663681
-729.908997 567.858276 191.876495
-696.699585 591.441711 208.058197
-662.540222 462.051880 280.807587
-817.041138 668.730469 69.663620
-678.366028 773.244202 155.153397
-804.775940 456.829315 199.122559
-596.002319 674.478943 252.694946
-813.078552 546.706970 63.578926
-535.726501 687.799194 284.971985
-619.081970 486.496979 320.443359
-695.556519 506.360901 246.106842
-736.839294 824.221252 104.724419
-513.243774 802.937317 250.586182
-521.966797 833.597595 222.479401
-600.125793 481.556274 342.280457
-654.313110 755.504028 182.094467
-631.606201 790.173706 188.595871
-785.469116 555.192871 170.271759
-671.787598 386.327545 304.276550
-655.022339 729.659790 188.821686
-689.506287 480.415405 253.572250
-648.446655 565.713989 249.409271
-744.417114 670.661865 158.473495
-835.152588 556.805298 163.868210
-592.291748 597.605225 283.748901
-567.001831 595.793640 294.292053
-736.299133 507.352234 213.994156
-700.671692 721.151611 158.557999
-566.664185 799.133301 234.470993
-654.681335 632.705017 222.338531
-623.411438 860.168213 161.466156
-590.987671 530.400757 307.274048
-688.150696 762.874878 150.409576
-823.360229 615.024475 98.746590
-694.697815 437.803680 282.794769
-567.625549 788.805054 228.051163
-675.469116 444.752655 299.206421
-673.470886 565.532104 233.746719
-703.749390 729.695496 169.176559
-661.683716 827.572754 153.237961
-683.632996 707.251343 155.667847
-722.430298 557.756653 208.828018
-570.878784 526.936829 335.256958
-619.716492 532.838806 281.758942
-574.555298 731.328979 248.958969
-651.870117 388.692780 306.518341
-585.583862 775.450623 223.518753
-673.607422 749.542969 146.643280
-808.781311 410.182098 214.748917
-704.785522 433.770569 260.848846
-630.870605 619.174866 247.470764
-588.711731 609.723206 272.693817
-697.215820 470.991699 268.728088
-620.199097 652.498657 241.724838
-692.864929 558.276978 229.109314
-582.352905 561.325562 292.882050
-610.649475 630.000732 253.702301
-565.375549 799.773743 228.553848
-744.118958 465.040619 208.377563
-548.586060 855.907715 212.355881
-623.728577 841.325806 165.933395
-752.813538 461.113068 237.904404
-708.154236 697.909241 172.393417
-605.664612 803.130249 191.502472
-674.081665 380.727264 329.764496
-597.361389 428.078522 337.951172
-731.201843 583.804504 183.446701
-594.751282 696.236023 235.260284
-619.083496 472.233368 326.169556
-718.551758 491.204010 243.602005
-768.327332 602.319336 169.163193
-806.158386 702.852600 47.878803
-678.823608 661.326111 203.943146
-658.156006 494.833679 289.417969
-722.251038 522.015808 232.491760
-721.593018 754.433044 145.917618
-597.255249 570.193420 283.743500
-512.971436 745.458008 261.454651
-596.818542 676.817688 260.602722
-830.748596 766.337097 98.012840
-815.386780 516.430298 175.166916
-597.951538 527.538147 301.554901
-704.966797 550.299927 217.176483
-818.007446 727.539551 121.485481
-717.537598 467.339630 237.898163
-806.188599 603.009766 44.435860
-615.264526 777.547729 205.705093
-651.650269 529.543640 267.918671
-528.814270 749.271790 258.399139
-800.852478 643.957886 40.921951
-750.298218 454.208801 220.618790
-680.479919 509.897003 263.508087
-715.072571 424.781891 266.158051
-719.968384 509.471588 223.470001
-662.228516 789.491821 169.978561
-817.049622 708.085999 74.186935
-633.863464 812.351990 168.461273
-762.578308 393.595764 220.496460
-652.586243 567.078613 263.104401
-810.515930 423.204315 174.305237
-589.127014 432.778473 315.513306
-667.142517 846.511230 139.463821
-583.289795 481.189514 346.275665
-653.907227 725.483521 199.531403
-816.985413 703.625366 56.508644
-636.831482 714.369446 213.671402
-779.984009 475.611786 192.738678
-632.002380 448.829376 303.104004
-800.359314 628.962708 41.232647
-663.665466 737.622253 177.302505
-748.594788 596.495789 189.759552
-591.187622 634.383057 270.627319
-797.365051 525.581177 173.554504
-546.394775 688.066589 275.032410
-658.613098 538.985168 257.943390
-601.201721 685.963684 239.710220
-646.148376 495.864746 281.521484
-643.459656 825.062073 157.074585
-719.738464 464.234619 228.382385
-803.773071 389.255493 207.660294
-614.562561 499.657654 295.654877
-608.990601 435.403992 342.334320
-777.247498 822.076599 92.190071
-730.105347 689.734497 166.489761
-604.237976 390.736084 341.276367
-631.912598 785.237061 190.758499
-600.792053 739.780396 231.340302
-808.249695 677.839600 118.218788
-678.138977 717.382813 176.645752
-815.167664 606.638245 63.911930
-820.907227 583.730408 58.663330
-787.434509 476.809875 196.056717
-644.157349 669.460388 218.677048
-740.510864 671.625427 164.290115
-680.426575 464.793732 282.481903
-748.761292 726.538208 138.960480
-800.182312 464.642181 194.615341
-552.822083 727.976440 236.394424
-566.537598 602.328430 292.857727
-702.271790 697.017883 147.625381
-764.872681 485.670746 197.724655
-615.265808 667.059998 216.604477
-581.083069 763.613647 203.203918
-805.826355 465.642395 176.706589
-575.002136 725.209290 239.310699
-508.255951 855.108948 224.382980
-711.925049 629.475525 183.975998
-611.034973 820.410583 188.027252
-706.847412 460.106506 271.143646
-509.054321 847.732910 245.780289
-587.234009 726.870605 238.771103
-818.285278 646.834900 74.409164
-689.539490 387.613068 306.264099
-551.131409 704.261108 253.278351
-840.189514 788.720581 122.676918
-847.003235 523.869873 167.890198
-773.651978 563.731384 160.333725
-835.496277 793.424255 108.803528
-822.599304 620.150696 81.134453
-643.607300 587.356567 246.027939
-599.643066 704.769653 246.814041
-696.084473 839.385315 126.019302
-666.071899 737.437439 179.098587
-612.539429 597.092468 261.772888
-714.963196 837.404541 105.916077
-817.385681 690.113525 109.539597
-801.228516 387.771332 194.770447
-627.170959 500.324860 301.195496
-609.949524 705.936768 227.476089
-794.128479 379.256104 218.523544
-710.536560 587.409363 204.317490
-596.412048 854.363037 188.489243
-604.806946 480.724396 307.487762
-689.106934 750.813599 152.956482
-604.900818 757.037048 223.713913
-627.195068 605.580750 253.752762
-679.232117 848.823242 132.391296
-715.142944 562.750244 212.442856
-751.276672 514.520569 196.364838
-601.210693 541.510681 290.749847
-642.242004 706.068176 198.858047
-648.016541 772.647461 166.802902
-640.088318 404.694336 309.719452
-605.338806 647.746216 256.086914
-831.921448 457.779388 185.093796
-748.489868 493.916901 228.991318
-814.784607 599.179016 59.701569
-799.135193 428.409515 208.524261
-791.871155 635.228210 119.469742
-769.881226 847.497375 100.332756
-787.894409 445.082458 219.908875
-531.793152 730.563843 274.579956
-732.459045 758.586548 128.987961
-825.380737 682.972656 126.216621
-763.595581 375.045715 236.945450
-637.504333 741.123596 200.841217
-831.991821 767.969421 114.567085
-705.167053 557.378479 213.898422
-734.403931 686.972839 162.606750
-877.904358 497.223755 184.879959
-604.040344 438.543152 337.233551
-726.892578 443.078430 241.140503
-611.006226 699.236084 225.514465
-878.454224 526.562073 165.727005
-717.274902 399.701660 263.824707
-698.132935 567.313599 215.187576
-563.931030 776.391907 210.655365
-728.973267 430.794006 242.507706
-777.482666 692.591187 109.795898
-659.026855 713.328003 169.180420
-558.492493 715.049438 274.594269
-753.821716 384.739197 244.146179
-590.054749 780.575439 220.907974
-820.468079 767.240173 116.983025
-654.297546 509.864716 268.145782
-538.578430 800.319580 230.164536
-747.792236 551.474243 186.160599
-545.343140 790.856750 233.282166
-788.999268 740.543640 107.573860
-527.591675 781.015198 244.442780
-816.704163 672.372986 62.379448
-594.118774 709.615906 233.215652
-560.952820 586.963562 315.650726
-600.155151 445.905029 331.573181
-598.286011 638.286011 275.291229
-597.931824 810.691528 204.584167
-646.386780 803.428223 174.466034
-816.152710 634.025146 95.510292
-569.030151 533.294006 320.151428
-713.973511 591.053711 189.688202
-694.974487 679.611023 180.955551
-579.608765 672.380249 259.173737
-659.592834 796.462646 159.937103
-510.981964 837.983337 241.681122
-835.453003 610.518311 136.637283
-547.949646 748.103760 254.305450
-637.570129 703.453979 216.423080
-706.545654 800.078186 131.841629
-723.519897 568.640259 197.254028
-785.578369 388.733459 228.322433
-569.536255 522.590576 339.619873
-839.186890 441.973206 186.069275
-633.605408 482.557190 307.451813
-759.942383 485.161255 201.730759
-641.929504 428.944672 302.527985
-550.259888 749.666504 262.561340
-742.203735 538.404114 216.601608
-701.053101 655.708740 194.747238
-615.305420 499.681549 298.362762
-606.941406 832.201233 189.161194
-709.912903 742.059082 125.382561
-681.394287 605.117126 218.632156
-596.352600 674.983276 247.007950
-768.604309 618.771790 167.984146
-704.553162 476.857147 261.318970
-647.891296 859.387878 155.093338
-736.506348 835.512573 99.002525
-748.468445 400.291565 260.593597
-701.938721 860.056519 109.082657
-826.268616 587.814148 102.241989
-690.613098 415.436737 297.057831
-580.554016 861.989929 186.228714
-583.487488 590.823853 283.134949
-767.455200 422.892548 236.564865
-850.932556 549.876709 97.723534
-766.173462 694.303040 122.985199
-809.641602 602.987000 146.097336
-703.704590 438.647308 260.000214
-625.438232 790.297791 200.071579
-784.871277 587.298340 162.078842
-712.460632 491.690155 233.536591
-579.560059 493.195313 323.037659
-557.619568 815.017944 228.049911
-639.892883 579.646667 270.094177
-731.819824 708.841553 142.675201
-547.746094 654.438965 292.431610
-540.721436 842.752808 223.223389
-585.212341 724.338318 252.033295
-785.594421 608.986450 161.383209
-566.498779 625.082336 302.374512
-848.233765 545.362366 100.094978
-811.902832 692.437866 45.966087
-710.183105 823.848572 107.717766
-594.464233 679.700500 246.809174
-599.603516 574.641296 277.479919
-594.034973 620.917908 282.926300
-801.145752 712.128296 58.676579
-818.706604 669.407593 60.304550
-597.993469 629.803589 255.035614
-592.650940 577.933228 285.870819
-814.165283 582.180420 47.416508
-575.613708 679.503540 253.996277
-581.831055 659.623962 269.538574
-584.229675 624.635986 274.228546
-659.553345 437.272430 290.518799
-672.368835 560.673401 242.059998
-828.550903 665.717590 97.645187
-675.825439 646.014709 204.723618
-736.330505 550.240723 216.136505
-604.510559 408.558838 329.477173
-833.352661 730.638550 101.670731
-614.931763 383.632874 334.362915
-607.086426 461.567200 326.442871
-811.808044 698.085876 120.842323
-596.152405 429.318390 357.097717
-782.240967 534.104431 185.269791
-841.918518 557.535156 149.009720
-540.415649 762.059387 264.382446
-689.961182 437.677490 286.032318
-643.306702 442.379486 319.382416
-579.376404 850.118713 201.367081
-541.846191 749.292664 257.742462
-822.523621 655.579285 95.387314
-561.149414 626.857117 301.960266
-627.779663 842.639404 163.551895
-575.813477 593.600342 303.241211
-627.129395 469.648315 306.127808
-560.062317 778.760925 204.212570
-781.190369 457.009918 213.207321
-709.583313 700.757935 141.674545
-614.334839 729.387268 230.258331
-543.649231 753.980103 250.084976
-614.765930 816.495789 191.898666
-600.403320 715.901306 237.954926
-711.182739 532.646057 218.543549
-594.844482 708.510864 242.913834
-701.464355 695.052429 178.263000
-783.897400 769.164551 115.835022
-748.548889 445.877777 247.850708
-740.326904 573.556030 180.117966
-562.795776 701.414307 277.475372
-568.887573 783.911255 235.468643
-828.145020 753.638550 107.869957
-641.434204 590.211792 263.305817
-549.127258 762.315796 253.459610
-806.064331 451.524200 197.373077
-759.960938 448.583038 222.534912
-740.748413 366.706726 278.013062
-691.830688 579.416565 232.445602
-592.415161 500.349335 342.921417
-584.512329 680.613586 248.256592
-636.907654 508.324738 253.518082
-627.476318 633.704163 256.093445
-810.271851 628.320984 65.848129
-610.880310 476.948425 286.430023
-643.487610 463.425110 313.559875
-725.165039 482.168304 228.958252
-582.854858 806.642822 205.532852
-822.410156 532.615540 169.211960
-577.368164 531.985229 315.096741
-709.269287 744.643372 153.553360
-593.879028 467.241302 325.266541
-806.205139 448.025665 170.533218
-612.411560 435.654175 338.629120
-590.532654 426.911194 347.721375
-662.234009 845.017395 149.792404
-818.598022 684.168152 56.698360
-659.426880 708.666260 202.310028
-635.733704 838.980469 147.789993
-599.936401 545.277649 295.782867
-764.109253 517.750671 206.544861
-612.170105 645.885010 256.723755
-538.431702 819.350342 231.733536
-591.800354 497.223572 311.477722
-680.853271 792.001587 141.044769
-702.883240 386.622925 278.901001
-541.686707 738.826599 257.043549
-776.898071 736.701172 124.636482
-565.381714 763.913269 231.941696
-823.542236 619.446045 145.240524
-716.520142 388.355164 268.492096
-610.104431 800.501526 199.750839
-601.328430 381.336731 339.526398
-802.409241 661.415894 58.508427
-710.888672 382.599579 301.397736
-692.453430 419.994354 286.917267
-636.433655 566.333801 263.616608
-806.881226 486.079163 167.982376
-639.966553 363.457336 344.317932
-519.480835 734.563965 260.495636
-711.059570 631.092529 197.506500
-593.820251 600.369568 281.433228
-667.311768 528.976807 267.839081
-611.735962 441.948822 323.086761
-557.782288 858.318909 206.272003
-677.705505 833.392944 141.649887
-710.086121 404.634827 265.756989
-737.715149 663.786194 153.417206
-577.479553 650.381836 275.586487
-795.774963 625.133423 152.896530
-671.510376 661.997131 216.239502
-681.166260 498.778809 272.894409
-801.220459 720.682129 55.779743
-753.200195 479.366882 208.832108
-632.931274 521.970398 279.440735
-682.096863 837.931702 138.881622
-673.924988 804.152649 154.466904
-788.195984 489.201080 179.842224
-779.308777 620.457031 161.187622
-731.942444 813.385193 103.285011
-618.776978 850.589355 172.525009
-541.834412 755.044495 269.106781
-541.936646 725.795654 269.934906
-832.053040 609.373047 112.374077
-724.178589 510.349365 232.149628
-672.521729 421.490875 284.963837
-561.637390 600.237000 296.151703
-737.496887 705.255981 122.136787
-688.297363 829.599182 141.017944
-773.929993 485.866547 190.839767
-591.207214 492.653290 319.500183
-826.385132 809.514038 101.406387
-696.117126 734.256592 135.395248
-729.669739 402.498108 266.808868
-657.495300 400.288116 309.641632
-652.127625 527.028137 254.790176
-678.486389 508.541748 271.165588
-731.017517 378.705109 282.337677
-630.087402 817.156982 168.798584
-660.737122 507.657318 283.646271
-562.489014 585.908752 303.991455
-832.389832 780.125793 115.640198
-568.020813 631.926880 279.389618
-817.673706 615.654846 104.303909
-807.396729 429.153320 196.303879
-644.776306 560.889648 253.636368
-527.451477 742.316895 273.970062
-646.624878 784.540588 178.047501
-735.700928 463.812836 235.656723
-853.027100 427.159393 190.805878
-664.082825 820.277649 156.485764
-563.823730 768.789490 230.032898
-642.331604 486.704346 302.448303
-721.121887 506.713501 212.222672
-619.566406 470.960266 303.352936
-701.188660 486.304657 234.135345
-657.340942 551.176697 233.161469
-745.230530 416.658447 254.942764
-688.540344 688.651001 190.105942
-540.760071 718.444702 255.021042
-813.530212 668.452026 84.697067
-685.963501 732.236328 177.354248
-649.862732 606.204712 241.454269
-643.843018 845.194214 144.522537
-735.623779 452.902039 217.972015
-565.278748 768.705139 244.657730
-576.779175 692.567749 260.354462
-712.818848 438.781525 253.583694
-567.109253 527.721008 325.275940
-824.602966 612.143433 85.019379
-708.751526 465.191193 248.146439
-819.859985 724.474670 107.153816
-586.799927 687.703491 253.323456
-632.467407 555.864075 263.794159
-828.767639 614.713257 70.754585
-749.213196 711.643616 145.295639
-826.190002 651.533386 80.932625
-605.203735 663.247925 241.235138
-571.922302 801.210510 204.413269
-651.106689 689.748413 217.259445
-874.198975 512.218811 152.754257
-723.741455 684.695068 157.496231
-591.418274 592.453491 295.069824
-631.692078 614.355774 248.691376
-614.851685 495.572815 316.851318
-632.578369 632.354675 244.295425
-624.897827 373.892029 346.998688
-795.616577 687.103943 103.204002
-630.618408 594.946350 256.651184
-655.395874 496.519226 270.652069
-686.333862 814.327881 127.728485
-681.658447 513.556030 249.066208
-628.391724 398.680847 340.419098
-612.611206 805.416931 185.788239
-775.783569 687.816467 133.075348
-743.793274 461.883881 239.326431
-616.586121 498.164734 264.591827
-598.194397 852.429932 188.282501
-778.462036 493.652893 185.494705
-551.417603 794.211731 235.328674
-716.601868 793.784424 122.079849
-611.183777 383.586914 337.648346
-746.610840 733.105774 116.916733
-682.525085 435.070648 297.824982
-603.364136 483.779083 311.430511
-703.757813 806.505432 104.199387
-557.097656 854.582581 219.995148
-525.275940 727.105042 270.357208
-739.210632 492.527649 236.333267
-810.631714 410.324921 201.948822
-557.286377 557.496338 313.695862
-842.676697 765.322937 104.795540
-572.995544 829.338501 206.206360
-514.105713 816.958862 264.668884
-818.040161 629.989929 115.740311
-648.075623 658.779236 217.546616
-655.728271 628.472778 239.701599
-601.703613 737.815002 222.408112
-546.320374 690.920288 277.731415
-670.516541 426.198059 303.574951
-749.774536 617.778015 156.883987
-712.426941 534.004944 217.848480
-729.376526 817.150330 89.862900
-672.387695 412.498718 294.920959
-683.547852 448.046906 270.959686
-574.231873 814.468506 208.343719
-507.143036 813.885010 247.962021
-794.107605 680.159119 136.105164
-549.965759 752.410828 260.745514
-810.250549 725.833374 122.309914
-805.970093 704.368530 80.622177
-827.478516 573.747559 129.836945
-799.406799 673.913269 136.132645
-530.094604 710.249634 261.026459
-639.152710 477.702545 310.689850
-586.045166 764.044312 231.941757
-639.575195 535.723694 287.585938
-676.638611 763.642700 165.523544
-615.701721 506.849091 292.474976
-793.523926 679.375549 38.282318
-751.140503 688.542053 152.382813
-668.624512 550.977905 256.381287
-754.799927 463.316833 228.431519
-544.133789 699.895325 277.000183
-650.015930 538.907776 265.511108
-675.311401 468.639893 284.648926
-815.351868 647.359192 108.218727
-688.259277 471.338593 256.908142
-707.562561 773.830750 121.106506
-547.456116 815.437012 218.732361
-632.800720 524.283813 278.856232
-610.390747 735.352783 211.042740
-651.680115 798.865967 160.077850
-645.304321 448.176514 272.243408
-809.165955 680.602478 72.298065
-763.717651 416.453125 236.310043
-688.038757 856.099243 127.397766
-814.490417 711.979919 91.489494
-837.587769 742.618652 99.662361
-588.131653 657.326050 241.835938
-721.097900 542.418274 190.442184
-591.237122 602.351379 282.940063
-794.828735 394.480988 215.385788
-585.457336 829.020569 194.583649
-755.325806 468.550262 198.779282
-807.672729 712.294922 95.241394
-580.953918 808.832153 198.292267
-581.070129 589.201660 287.157288
-637.492981 551.329285 261.998352
-661.575195 752.817383 182.870148
-648.471619 716.126099 212.299057
-759.695190 604.470398 169.001755
-719.105103 830.872498 113.887604
-606.639343 539.850220 286.998413
-706.578857 854.525757 106.288795
-819.814575 688.083984 129.525986
-702.628418 834.511047 120.784828
-795.593079 487.803711 193.495087
-685.222656 832.432190 138.348663
-691.373413 376.676697 295.832703
-703.640076 499.755798 256.829376
-773.578430 423.761475 201.065552
-835.249878 611.745605 102.140526
-685.935547 568.103210 224.013443
-549.032532 762.761047 235.817474
-743.570984 785.458923 107.897255
-660.334839 519.857483 259.836761
-723.677734 725.907166 141.957901
-824.354309 586.202515 107.198349
-777.210144 443.448914 209.429291
-614.637268 846.311218 173.160172
-702.893677 587.608276 205.131119
-532.746582 720.992432 273.273254
-653.411560 463.728119 283.224548
-566.169739 747.564697 237.502563
-641.883484 510.815369 281.684357
-815.331482 714.227905 64.677605
-549.769104 786.845154 241.073318
-641.430969 768.335815 197.921066
-641.192261 589.532776 265.004181
-833.859863 571.526917 111.135918
-524.145508 820.975159 235.596695
-684.944214 505.558411 262.373016
-696.850220 466.089050 255.118164
-708.823669 746.696655 155.176178
-555.085083 538.580139 312.872986
-761.282654 592.473938 165.199265
-682.461243 637.548401 204.975830
-679.718384 742.342468 163.416153
-607.537598 620.438538 240.905731
-805.786316 524.195984 178.471573
-810.397339 628.703796 42.881077
-782.851135 524.585449 185.840622
-523.163513 813.251587 214.369812
-648.998840 654.252747 225.584198
-623.523376 468.859619 302.174622
-589.227417 450.795746 335.849670
-668.145752 811.959595 142.727982
-722.557068 520.034668 229.717896
-829.028198 593.829224 136.126633
-565.107666 842.092896 196.341614
-707.915710 500.794830 247.653351
-777.047913 523.010437 167.393173
-698.419739 718.009644 163.158356
-532.607727 734.829346 263.925171
-544.591003 695.308533 268.250977
-578.002747 707.125183 247.071869
-783.922363 382.340179 242.136871
-736.506226 642.495300 156.848465
-666.308594 514.846008 245.952728
-793.291260 411.164642 228.369965
-818.394836 691.480774 85.656784
-811.701904 505.756927 163.793900
-842.371155 582.841431 117.196243
-719.008118 749.180969 142.279190
