ply
format ascii 1.0
element vertex 1422
property float x
property float y
property float z
end_header
739.246704 222.613251 -597.959534
688.786438 88.742477 -705.461426
429.172089 65.968445 -772.783508
593.296570 78.574661 -733.970459
609.583984 268.564667 -596.930542
728.250488 144.434616 -641.425293
662.734558 191.425034 -643.716370
695.462097 52.715469 -725.218689
778.188721 75.326630 -709.265808
629.083191 134.364151 -698.820251
684.686340 156.880646 -672.136902
457.997040 105.167328 -751.830017
777.535400 8.414976 -766.545471
762.900208 -39.933109 -729.983643
569.658813 166.266266 -662.658264
524.425842 17.636992 -800.612427
788.269409 206.811096 -596.225891
818.455811 292.551849 -546.582092
848.931274 105.917412 -674.944824
663.139465 72.823921 -726.555969
405.511108 67.512848 -778.292297
678.823181 195.957687 -647.389893
881.064026 84.313873 -678.692627
655.559082 184.731567 -649.418884
648.400085 0.707055 -802.923401
837.547058 142.388916 -630.405273
643.423462 260.522064 -600.317810
761.711182 269.910706 -546.614380
413.292755 195.195175 -693.639038
720.278076 220.974533 -619.717407
678.477356 192.215866 -652.662048
386.728699 146.305237 -695.419678
846.810120 196.498978 -606.882996
850.731873 155.800507 -634.600830
742.698425 124.055733 -685.393311
452.446869 163.437729 -710.178223
686.629028 254.989136 -569.815796
652.624695 271.623077 -584.449768
791.532410 83.826218 -708.751770
783.985657 272.073792 -558.198792
722.058411 160.455200 -625.446411
437.372223 141.526917 -713.737610
607.486816 -34.213009 -802.452087
742.805237 -20.607538 -741.998657
727.218811 44.008438 -752.748596
674.694641 188.520752 -640.330750
732.740662 258.266693 -576.982300
597.028503 49.904339 -747.973083
770.876404 59.520790 -724.344849
680.390808 181.476074 -641.006226
389.892395 113.240463 -751.497986
575.505859 254.184769 -613.766357
724.602661 -35.203407 -761.530457
815.434021 114.641739 -678.674805
697.431702 25.763264 -762.551514
552.166565 67.277412 -747.006042
512.964294 61.015244 -744.872620
575.194092 127.048668 -715.592163
398.945160 102.625488 -749.687805
374.754150 134.154938 -727.180786
544.351013 110.196106 -716.168762
616.464539 121.342598 -716.171631
562.956299 193.255798 -657.293762
892.765381 56.391468 -722.876587
587.113342 194.845825 -652.839722
598.970093 173.131088 -665.393066
376.977997 221.046707 -680.027405
435.241669 94.202286 -743.680054
614.033142 143.766495 -680.207214
836.263489 132.443375 -654.966003
722.745239 271.206909 -564.533691
777.744141 221.723740 -606.316345
673.851501 193.045792 -646.239624
406.499786 136.710205 -716.819580
755.938232 231.978790 -597.988953
527.890015 194.832870 -673.550171
741.593506 -42.208984 -749.976807
675.297913 -52.232903 -766.125427
517.698364 180.625412 -651.470276
707.771423 205.137512 -634.949951
448.494934 172.856995 -692.101440
587.885315 68.277863 -752.826721
834.862244 172.210999 -635.698486
517.650818 204.431198 -657.543640
867.445129 139.791748 -649.314697
739.724304 212.811859 -605.785400
725.214966 30.365232 -750.834290
842.560547 288.101837 -544.840576
427.133087 145.539810 -710.951599
822.747070 193.511887 -599.450684
756.370117 21.216669 -763.396667
846.837158 163.197235 -614.482910
492.870209 2.242194 -820.098511
631.764343 -22.658009 -806.622925
566.834351 185.126511 -658.734314
760.983643 184.724335 -627.860168
801.526428 56.931911 -739.851990
589.587585 64.116760 -736.121399
741.721375 183.160950 -647.784058
700.215820 -35.766678 -770.849731
664.665588 -36.747173 -788.722778
615.175049 126.597488 -709.595459
419.674042 96.894524 -751.930725
744.251221 -26.654970 -756.909973
611.184265 207.765274 -645.741943
809.917175 153.267044 -643.479919
528.811707 181.850143 -670.631226
683.629028 252.863174 -596.226624
492.938263 198.648987 -658.427124
824.520264 260.197479 -548.859131
489.994476 192.252426 -682.226685
578.085449 79.512238 -724.817261
595.027283 112.519165 -703.169250
551.675781 226.108368 -619.291504
515.672668 218.566681 -644.030029
770.010010 -1.193037 -772.050659
644.211975 56.282120 -730.578003
585.588501 85.826805 -740.875549
707.545044 154.975861 -637.121582
652.512451 271.590149 -590.177979
784.025085 233.217484 -576.470215
646.456421 -22.262783 -798.178955
872.742859 142.190598 -651.547668
631.311707 112.077980 -682.009338
536.393005 204.707870 -653.205688
489.809845 83.098320 -760.892273
487.716156 154.578781 -695.396484
802.421631 287.609009 -553.384399
580.266663 218.511185 -613.863770
621.088196 230.054565 -603.322449
656.731201 259.811066 -608.830811
476.485687 65.376236 -759.736389
667.047119 137.518219 -674.051147
721.603271 21.502016 -772.433838
425.012665 112.500084 -750.802368
525.972656 246.158844 -629.234497
641.208191 63.376957 -717.626221
840.331116 241.501892 -566.806824
429.736023 151.149002 -716.945618
514.774719 10.626882 -805.697205
882.024658 84.726761 -695.240723
760.381348 101.485512 -669.394165
649.931335 202.176117 -648.903503
406.053253 78.710495 -745.274353
742.209106 266.824310 -567.797119
673.783997 158.485336 -667.430664
483.088348 96.604820 -742.274597
692.110229 240.223373 -597.499573
484.080475 218.618912 -646.804626
617.336548 211.681015 -628.986450
566.970703 205.842117 -632.222168
514.073059 203.918076 -657.844055
674.001038 155.813675 -662.573303
745.211548 56.556404 -738.661743
564.820923 51.154240 -746.044922
483.724487 80.464020 -769.677490
384.769836 143.643539 -744.294739
619.771240 125.967300 -693.598755
394.452148 159.251099 -701.064453
607.843994 133.809586 -693.436707
635.511475 -2.506059 -795.571533
627.568298 249.458511 -601.240356
591.676941 236.771667 -599.859985
757.479980 186.138596 -626.053528
801.849976 216.501526 -604.554565
601.007996 263.636597 -608.407104
703.975281 -5.466417 -780.903625
763.656738 181.475967 -630.065369
684.023071 111.991264 -702.694702
772.981201 6.615981 -780.715576
478.774597 109.531158 -726.713013
587.388550 213.106064 -634.560486
450.219879 139.830368 -709.196228
751.263977 169.772842 -650.004761
752.223267 251.900223 -572.003113
675.455505 150.774002 -679.462402
827.434082 129.195313 -661.141541
745.599243 80.953217 -704.047241
510.122711 70.195343 -771.394714
777.388855 71.609993 -725.003906
515.117310 159.526108 -705.765564
582.704102 264.550934 -604.028320
771.208923 268.376404 -577.548767
661.542725 120.171791 -692.698425
701.657898 253.546555 -600.914001
436.917267 120.805016 -735.593628
637.457703 10.284264 -807.306091
818.897217 113.092216 -672.738037
677.521179 -30.052671 -782.136230
851.324219 243.771088 -573.592346
535.696045 189.407211 -663.067078
632.513794 46.155273 -766.125977
503.504669 200.285156 -675.375122
668.470886 3.088402 -794.110596
838.834839 92.038559 -681.550110
439.367218 212.339035 -677.936829
422.090088 147.505905 -730.859558
491.304749 -1.611118 -803.420898
492.067474 103.949539 -728.986023
802.438538 274.049988 -565.235962
625.352722 200.044022 -655.445068
687.437012 -17.592123 -780.758301
777.527649 106.391426 -690.420776
813.176025 232.574539 -592.497559
598.361328 221.001450 -609.181030
664.766235 243.746857 -617.674561
506.298767 136.245712 -710.780884
597.407166 261.552582 -601.592407
441.693451 214.048813 -675.530884
494.023590 189.050934 -671.891785
885.694885 111.130310 -683.078247
447.692535 153.883499 -722.342041
537.101196 227.920822 -630.229980
665.664612 276.671722 -585.954956
621.397217 186.357910 -642.955322
456.349762 218.968231 -654.504211
434.662506 179.471954 -672.736633
510.172821 151.151352 -708.022644
451.094696 44.792530 -799.354065
632.837891 -29.183268 -801.209961
650.984924 -25.745842 -774.466187
741.565674 292.890381 -556.353088
540.320068 105.075218 -702.973328
797.487244 110.628288 -676.557983
738.057129 248.025314 -589.343628
544.442749 157.188705 -699.313171
747.749939 279.983124 -572.461060
554.109070 221.971588 -644.794434
616.915466 154.991196 -674.713867
521.119934 75.484299 -734.750671
404.486359 83.959831 -775.170959
611.557861 92.825554 -715.274109
675.542725 185.945175 -613.628174
634.730774 83.625679 -702.958069
850.385132 35.480247 -780.831116
605.849182 241.798706 -594.599915
392.659424 212.773422 -687.241272
771.903809 299.229736 -554.343018
551.137634 109.675903 -735.748901
543.888306 29.682755 -757.343079
656.467346 245.269257 -614.530151
768.972351 89.586601 -706.341248
815.845886 87.620804 -689.595276
591.173035 218.695755 -650.003662
388.268738 199.942978 -667.168274
782.693115 225.197586 -592.616882
480.808411 94.556984 -738.041382
593.619080 185.871353 -652.059875
603.745422 -17.943378 -838.979919
760.985229 239.957001 -584.774231
802.288696 155.273560 -621.853638
707.518738 67.215805 -704.311157
386.490875 106.984131 -745.326355
582.952087 185.777267 -629.760620
533.465759 59.173309 -758.135376
429.777039 33.767258 -788.160095
885.656006 95.890526 -679.022705
491.168701 -12.388136 -818.931763
383.330719 197.672073 -668.554565
770.917664 163.389648 -650.721863
678.522400 271.392151 -580.104858
427.180298 87.315834 -767.018005
655.926208 131.896118 -686.483948
617.785706 240.119888 -617.789795
523.265930 127.552765 -726.657837
789.347595 246.250244 -583.068787
561.113770 228.409866 -647.889832
395.162201 165.670853 -714.120483
580.842102 5.550354 -808.488831
469.437561 149.874832 -702.248047
620.837097 262.800537 -599.440979
785.005005 -23.684324 -728.758423
539.963501 168.682465 -649.623901
902.063965 69.153931 -778.532593
641.703918 55.863354 -735.367432
401.354523 155.589722 -711.076172
583.087036 202.159241 -662.682068
782.698547 128.726440 -681.371887
754.014160 3.980971 -762.948608
677.503052 260.135468 -582.771362
659.169678 90.224449 -717.466064
606.779175 142.428116 -684.291138
656.782471 -60.373119 -774.239746
734.644653 -23.038475 -743.789978
843.750366 189.637589 -615.060730
613.855835 93.383545 -733.406738
780.593872 243.090454 -591.332703
876.382446 93.651901 -679.926819
492.628662 157.442505 -671.293030
844.398865 160.529282 -633.434998
557.001526 60.978588 -731.215515
490.108337 194.916428 -685.320679
709.174866 71.597794 -727.311523
772.822388 284.229736 -542.509766
478.324097 188.365250 -672.432922
777.819092 266.560089 -549.117798
431.798035 67.862350 -787.485168
744.382629 131.506927 -649.598816
628.504700 -8.936593 -813.233215
540.987976 191.561646 -640.436401
662.329041 236.454788 -605.166748
475.742493 35.823929 -784.738220
698.531372 122.833282 -662.472107
657.977417 40.123051 -758.697266
724.857300 19.863432 -771.010315
561.991333 185.472137 -672.196228
459.386993 30.021448 -787.914917
754.783508 41.695259 -751.133545
456.847412 21.630238 -797.493225
439.913055 191.953735 -650.897583
629.952881 119.929840 -708.737671
444.514740 116.950500 -746.727844
805.623291 262.311707 -565.736206
635.525146 169.665817 -671.032593
563.015198 64.175201 -759.455078
622.649658 -6.093198 -817.702698
493.569122 250.690460 -635.259521
619.388611 189.939072 -647.196716
509.796967 248.014587 -655.044556
536.692200 61.389980 -750.858643
600.485657 152.859314 -659.684570
560.605164 14.277830 -806.463928
586.802917 257.625732 -617.957642
568.489685 213.275757 -640.565674
412.772675 55.923004 -809.291504
481.612335 46.928219 -769.489319
743.929382 -40.333885 -736.174072
389.610687 149.684494 -723.374512
828.956421 192.629913 -613.874023
864.859619 65.448730 -698.392456
440.524475 156.976135 -717.783936
750.379822 79.494972 -717.282959
810.171631 188.910065 -632.010620
883.564941 116.385712 -666.207458
757.370605 -14.577375 -752.584595
789.721985 96.842201 -680.595337
847.091187 131.226822 -647.274719
584.526917 18.358805 -802.883118
763.520935 185.088913 -639.864624
627.561951 251.584381 -598.346069
621.205505 74.764252 -726.164307
674.592102 129.306473 -678.991455
704.873230 -17.898691 -756.838928
824.259766 140.861343 -638.829529
730.325623 44.753216 -749.017090
685.199768 -71.754417 -727.044312
457.696014 73.214432 -746.448792
696.798645 166.340073 -655.481079
407.665649 187.467148 -699.115051
473.126312 88.610649 -759.516846
763.252136 224.167526 -605.336670
760.422058 14.592713 -757.019897
711.765930 56.017693 -748.297974
748.675537 -32.970547 -757.750000
685.510803 254.170715 -576.801025
485.060791 215.364792 -652.152222
813.431763 279.426453 -558.585999
723.642456 20.786060 -773.822571
617.148499 -24.669636 -816.714478
618.329285 8.593186 -771.617859
542.512939 64.239082 -755.209656
546.764282 246.639069 -624.190613
814.832031 268.410614 -540.291321
414.803772 161.717117 -698.313477
703.253662 -40.916798 -742.073608
614.731689 230.901505 -616.189148
826.285522 207.725388 -610.559509
694.246948 34.619946 -744.765930
432.759094 222.622772 -652.934326
648.038452 130.155258 -683.120300
547.319641 34.565536 -768.837708
514.593506 7.298165 -786.421387
510.340240 150.976425 -694.328918
770.348389 181.028137 -619.963562
708.810547 157.717331 -667.389099
729.517151 60.905479 -724.950684
650.564575 218.287567 -602.938538
593.251221 -28.048429 -817.766357
760.677551 84.748985 -712.720886
492.750000 131.393814 -731.053650
406.876984 99.711113 -745.927185
427.447815 161.589859 -698.928284
688.338135 16.811575 -794.603699
663.222168 253.007294 -603.536377
818.795349 190.311432 -623.540466
403.969330 96.716606 -766.585632
542.929565 101.880783 -712.911743
860.500183 114.478355 -645.280334
656.224731 121.480042 -670.789063
678.287659 265.671265 -585.868469
773.325195 137.376297 -664.449036
810.243713 199.718155 -603.967834
684.818909 219.305710 -628.630859
782.030640 289.114349 -545.632263
738.512878 -49.210510 -735.058960
778.622620 275.835754 -564.393799
585.502380 -44.397121 -802.467896
660.300171 264.002075 -586.511353
670.579651 12.043509 -771.390381
715.366821 72.977112 -727.179016
886.395203 135.042908 -634.449463
445.678131 -4.970512 -841.545471
664.163818 242.453461 -598.618958
786.487000 246.764343 -564.797791
697.223877 180.766037 -657.441345
443.941101 -3.771389 -835.059692
746.681030 106.347267 -688.362244
489.214386 119.313568 -724.983337
818.490906 128.150894 -665.758179
725.868652 116.756172 -664.194946
408.832733 60.862259 -774.048035
801.149902 45.434036 -781.081543
745.154480 236.697693 -597.807922
542.459534 161.568451 -696.516663
771.600952 -16.250946 -761.388550
594.548157 84.065239 -725.369019
725.549011 -20.569681 -763.131104
460.763092 113.401321 -726.358704
882.918152 94.916573 -680.365662
587.167786 249.911133 -621.888123
413.724915 207.915726 -663.515259
660.533691 160.069916 -658.669983
431.432281 130.505371 -722.514587
754.258972 176.862289 -641.185791
764.843079 201.051544 -627.634521
773.976990 277.905212 -541.087097
647.893188 132.560944 -702.291748
773.641052 127.967316 -647.149841
615.927490 18.039024 -799.843933
874.436768 52.177559 -705.972839
670.171814 4.049791 -808.493408
643.347351 229.515732 -628.067139
839.052246 203.822845 -607.751709
507.323486 4.413838 -814.472717
663.056885 245.662598 -602.607849
470.741486 218.606186 -653.293701
687.924866 147.881912 -670.704834
699.816345 252.481277 -599.122620
837.966553 108.580040 -675.035095
470.122345 54.824429 -774.800354
532.589172 52.167583 -748.041382
616.583679 68.222183 -742.212280
619.669556 -29.833305 -793.112061
488.557587 100.637550 -747.083679
759.524536 259.795868 -581.132935
537.699463 29.508949 -795.872009
640.944580 37.702995 -749.814514
654.149170 -64.892807 -769.722107
508.265503 221.945618 -637.948303
684.106201 223.206024 -592.948669
790.397766 176.035416 -629.390686
616.861450 169.102798 -679.080566
462.969910 135.182693 -733.486145
747.169006 112.815544 -692.840210
618.187317 62.733082 -735.452759
576.947632 203.204285 -649.365723
717.560913 56.159920 -730.990540
721.045593 290.764648 -570.739258
846.242249 234.277328 -588.489929
805.713501 194.661942 -589.004150
820.632141 128.795197 -674.481201
488.156555 79.259720 -748.423401
462.351257 170.291733 -691.205139
777.510559 189.373978 -619.738953
456.469238 96.471230 -738.733826
723.180359 8.155192 -753.294983
416.827087 166.581497 -697.027466
773.293213 50.965408 -735.140991
427.598633 54.431366 -790.879333
479.024078 56.400341 -757.181458
638.894592 45.568657 -758.476257
552.295105 33.962788 -779.310242
692.653381 178.326309 -644.920776
689.998047 171.332748 -656.915955
763.507141 196.007462 -623.928711
876.687927 118.557732 -653.962585
488.759705 19.289913 -789.255737
658.213074 67.416451 -741.201172
777.116699 -28.920835 -739.844666
705.828674 1.296974 -779.622742
788.553833 278.993774 -547.643921
584.848206 207.824448 -640.767212
604.612671 252.410995 -602.226746
682.804688 145.533066 -668.693054
538.258362 250.111191 -630.571045
844.945801 141.746140 -636.503845
507.058746 245.623795 -624.992676
595.516541 156.099808 -673.998962
854.087097 232.855652 -593.328674
583.414001 234.693451 -639.561218
582.732971 155.865509 -680.963806
484.205048 46.044048 -769.220154
607.876587 269.669952 -595.897156
758.604065 162.710297 -648.884338
650.709900 161.547775 -663.010437
742.276428 68.437134 -731.931458
434.942444 156.214005 -677.336670
834.987488 122.834381 -664.996948
720.382935 86.346375 -719.815002
665.871887 50.017746 -753.049500
694.345398 145.730469 -667.716003
445.208893 85.236900 -772.379761
527.803833 58.322273 -755.619263
794.233521 -1.518551 -767.857849
729.653442 259.430511 -571.053345
819.719360 286.720947 -553.835938
473.432404 118.050583 -723.276428
584.536072 219.990158 -636.867004
752.776245 86.551086 -701.133301
586.064941 185.751724 -659.943420
653.827087 245.225540 -618.589294
624.907654 171.749527 -662.577820
647.741455 242.418289 -610.368347
552.094299 115.442062 -714.581787
827.815369 175.415115 -612.779541
467.284882 -1.338064 -826.119995
840.179199 241.361603 -575.236328
578.555725 259.690186 -606.823914
726.757385 87.764191 -707.171265
763.496948 170.041489 -644.719727
734.372437 72.450180 -715.618164
759.900818 202.736328 -598.454041
803.036926 252.751129 -574.851868
602.461060 230.982224 -635.507263
463.661377 182.094772 -667.247925
644.220093 171.621033 -671.155884
432.788452 48.447758 -800.345398
476.264679 95.631126 -739.246887
841.054993 56.007656 -756.409607
537.249512 154.740631 -684.819458
770.183228 73.313240 -724.284424
857.435364 148.958740 -647.899719
761.223328 -11.379519 -754.311157
416.793701 143.479340 -696.695129
843.979065 104.497559 -672.596741
626.539917 151.038406 -677.968201
568.943176 205.610611 -662.207886
762.854797 -36.146667 -747.122803
856.856934 136.214310 -627.405640
557.484253 215.276382 -656.094055
423.454407 95.352959 -721.917297
816.015930 280.654633 -544.188049
614.578125 54.448757 -762.968018
511.617401 160.539124 -701.142578
817.197266 147.481934 -650.714905
694.827942 265.735077 -578.229858
573.115295 131.557877 -712.739197
772.334351 196.051636 -623.071655
429.493866 54.634998 -794.394775
509.223206 86.758827 -729.378662
371.565948 150.321167 -707.278137
431.081177 134.281082 -721.656494
406.613434 200.189789 -669.676208
545.077271 65.544113 -747.051575
503.928406 99.644684 -731.198975
823.595886 90.017441 -692.786377
511.911621 30.916954 -778.714233
705.406921 -4.255920 -767.897034
702.513794 53.753498 -733.543579
538.355103 89.427284 -737.980957
519.306763 145.949707 -696.203613
670.465942 122.581139 -684.183960
633.583435 8.275647 -806.123840
583.734741 2.574935 -828.093506
731.222290 210.286011 -586.230774
825.850342 173.853760 -620.379944
523.997559 224.070267 -642.598816
594.965088 165.776398 -673.251892
799.078857 142.658188 -668.077393
472.745239 149.017593 -708.380005
561.430725 14.937912 -782.977234
555.218689 41.023968 -775.127380
650.927673 151.033249 -670.074402
426.821869 210.547791 -680.697144
522.078613 197.547241 -643.044800
640.095337 273.203217 -603.490540
676.393555 200.884552 -631.925598
832.044617 173.790268 -631.226807
713.492920 268.926361 -571.803406
622.388550 35.516682 -775.302734
671.203674 -2.342018 -789.508362
728.480408 276.927155 -567.784363
792.894165 277.544128 -558.886841
472.849701 187.072800 -673.183044
874.028259 79.647247 -695.439392
516.438538 83.747215 -739.432983
630.389893 -5.361681 -798.829407
485.450958 191.380875 -683.495056
640.781616 208.078094 -647.144531
652.983154 163.679260 -664.604431
540.576599 186.450272 -665.677307
803.670837 141.745773 -662.090027
402.141876 80.687241 -748.464172
771.399292 249.721054 -587.990540
559.070313 197.635300 -667.396729
506.023163 127.405441 -692.877808
665.968506 221.838882 -632.775391
745.677734 180.761658 -643.387939
515.994019 112.505013 -720.289917
484.614471 191.918579 -636.752686
633.809875 93.811134 -727.089417
761.542908 19.952528 -762.484680
703.481873 -35.641354 -762.713745
535.177368 219.022919 -637.604431
820.918640 196.055954 -605.216003
761.335815 228.366821 -592.778076
470.382996 121.339363 -721.395142
848.336365 34.928791 -773.522705
482.580566 227.493362 -647.101257
538.478271 67.658684 -737.195923
381.680847 161.092651 -689.959961
775.975342 275.636658 -545.744751
382.936737 156.378036 -702.868225
611.334106 184.772781 -671.073669
793.544250 44.011475 -758.142151
712.922241 -46.726139 -760.056274
749.187805 287.775116 -558.031250
775.741150 256.590485 -569.511047
568.052063 50.826359 -753.302429
635.318359 214.852676 -641.297119
874.248291 93.824127 -670.569519
776.037109 86.885422 -706.912415
439.508240 233.910431 -646.184570
729.102905 -17.998339 -771.902466
566.318970 170.424240 -686.042297
476.824554 19.232603 -793.669250
569.289429 -9.073318 -868.864563
802.323303 117.811325 -658.978271
585.717712 -23.123516 -827.589233
489.477905 -1.164648 -810.566467
787.996765 39.626984 -745.594482
636.875244 254.759155 -611.625854
786.649841 3.581003 -770.853699
714.314880 144.585541 -666.622620
686.726990 265.707947 -579.682983
839.260193 182.761597 -626.935486
720.009460 263.020813 -584.001099
446.889282 97.349403 -765.456543
483.931427 100.458122 -734.781067
589.822693 97.828560 -717.286926
787.275085 274.626556 -566.442261
674.137390 88.114670 -713.551514
831.727112 145.322037 -621.845825
450.639862 27.581076 -775.995667
626.704041 91.842354 -735.202209
774.679688 -20.328665 -747.414856
822.174316 192.764160 -622.119202
539.487854 113.530815 -720.680786
637.333191 189.438049 -648.683289
605.815063 -27.227358 -814.393494
729.132202 254.011551 -585.323120
731.895020 222.225677 -615.433228
416.472351 149.045593 -721.578064
409.072235 116.003143 -732.084106
529.437866 162.393585 -680.503296
839.629700 226.986084 -593.301697
656.926208 145.479477 -686.771912
656.526245 218.596054 -635.993103
479.258514 68.590240 -763.733643
557.350586 74.414581 -721.545593
606.146973 -50.726730 -814.171387
397.540344 213.165878 -683.895813
840.219055 164.879364 -639.785156
415.748932 64.953003 -770.070618
473.777039 87.441872 -744.149292
651.061340 -51.277077 -781.907166
802.900757 257.652466 -553.958496
465.117096 99.194931 -727.466858
636.601868 140.806244 -660.479004
849.910645 220.684601 -592.753296
753.502930 29.941805 -752.862122
759.347717 113.106171 -689.855408
734.381104 268.061707 -562.460144
545.502747 3.277815 -798.393921
440.596710 54.552917 -793.660156
778.358398 269.067322 -544.038025
558.132263 76.910446 -729.983032
433.932037 153.781525 -701.364258
442.524170 213.801270 -682.212280
533.685059 234.786804 -650.873352
488.493317 129.255447 -711.727783
862.373840 61.264996 -726.365784
786.380127 275.521271 -567.595093
681.836182 34.050438 -777.130432
669.635681 -66.263145 -762.061401
733.894348 211.384140 -591.868225
714.311890 170.257050 -659.638245
753.969055 94.607689 -704.434021
581.265320 142.111862 -701.346375
531.080261 158.247147 -683.437500
447.434387 154.061203 -702.544006
579.565125 115.074471 -712.329407
681.660583 132.284164 -680.922974
499.151154 153.204391 -692.494751
454.967834 219.432327 -671.131348
819.177673 214.816299 -602.250061
416.748138 116.906517 -755.087952
749.911926 228.449280 -609.395325
412.853333 202.999908 -671.780579
591.300049 92.348190 -724.860474
609.420898 223.746704 -615.276672
559.617371 239.646683 -605.679138
889.080322 62.075180 -776.293945
750.412231 261.305511 -582.875427
791.560486 121.701775 -675.105774
512.184448 82.181625 -721.927002
784.097961 258.125092 -560.391907
532.319397 180.488647 -667.188110
592.851074 224.344360 -627.168152
785.287109 20.393719 -780.327637
627.597961 117.701202 -696.153320
428.049896 233.538010 -666.463867
590.130981 107.237442 -710.844482
677.616516 117.228615 -690.827148
459.241211 156.085587 -674.950806
650.747192 3.816219 -801.030640
716.374573 238.328629 -607.270874
687.579468 -24.110323 -784.062012
540.220398 92.356361 -711.584290
788.820618 274.688141 -548.310486
441.932312 93.807831 -734.302124
770.387878 273.402710 -551.966614
845.919617 33.318439 -764.601318
768.987488 123.146530 -651.278259
704.016235 62.316231 -738.986023
678.702271 186.325714 -654.581055
770.417664 138.689041 -675.698425
717.936218 -41.060104 -737.346680
700.789001 152.988663 -672.959106
534.618896 231.397491 -640.034607
731.196655 133.123581 -669.126221
671.588684 180.650970 -646.622559
580.432251 80.959091 -734.084290
368.841736 218.736725 -690.319580
410.556732 169.850555 -699.137329
641.065430 252.754837 -602.400696
413.187561 165.925110 -695.424255
644.112183 -6.567628 -798.116455
542.991699 6.475094 -791.594910
847.498291 175.854691 -625.797546
848.252686 52.363991 -740.995605
517.314758 47.154514 -746.314087
795.031006 291.822845 -549.944946
609.450806 124.527161 -700.375793
671.383606 196.746323 -643.808228
588.477173 105.955132 -726.437073
637.157959 162.110153 -667.791443
732.802673 138.323975 -671.640381
839.242004 184.041733 -595.580872
432.088013 201.336044 -690.432068
736.070801 3.262359 -772.697815
630.146851 235.876053 -625.752563
535.193420 146.646393 -693.506226
650.230042 -47.114033 -764.234985
801.032288 249.092911 -560.085754
615.588989 134.842316 -688.057007
621.625610 -72.432373 -758.752380
695.209167 141.304001 -681.370544
846.518494 143.796967 -653.761658
473.904785 197.013489 -670.611450
560.297058 80.274246 -740.676270
417.124908 170.336334 -712.256775
443.983795 144.449982 -731.085388
593.062439 147.287231 -698.401672
689.590088 -44.792130 -748.642212
703.203674 231.168320 -603.600647
790.234497 204.098602 -614.147705
581.336243 148.343643 -687.776123
727.685181 147.885284 -658.342163
577.756348 206.765533 -647.489014
632.037903 84.951981 -722.710083
430.789551 168.069641 -676.488525
471.157074 139.728683 -715.339722
417.309082 118.045082 -745.756042
600.286194 3.489014 -788.410828
707.936951 250.703064 -593.792969
769.205872 297.158142 -550.592834
649.293274 79.735901 -737.402649
489.874573 126.996880 -704.014526
649.547668 201.426849 -650.140930
715.342285 211.691010 -595.026184
625.398682 43.602283 -746.688965
764.128479 -17.401081 -748.481018
855.100159 206.906815 -604.006226
545.496948 12.515119 -784.518188
800.593567 266.186371 -545.329956
823.771973 130.850861 -645.887634
623.049927 267.542084 -594.692993
833.075989 69.650032 -718.342896
760.962219 41.327530 -742.936462
860.127563 147.143387 -646.200439
421.819427 67.942123 -779.725891
847.393188 224.432007 -591.292725
564.688965 135.820831 -690.283630
633.294495 243.285843 -606.637146
665.731445 107.198044 -700.653442
601.985657 -50.951096 -796.505249
508.229126 24.353479 -782.176636
606.873718 43.749973 -772.177429
691.257507 278.189453 -577.746033
746.304749 59.413052 -716.033936
446.205902 132.394714 -716.763428
460.940521 154.619553 -719.152466
674.231750 264.635040 -601.871521
447.833099 -3.282342 -815.732727
835.376465 197.164139 -594.580505
636.469299 178.527344 -667.586243
722.022156 -0.091500 -771.438293
480.898956 132.859055 -712.421143
497.767609 63.817295 -772.071899
641.656128 157.163376 -667.289001
518.042725 230.827484 -629.572449
550.067688 110.229095 -720.729736
818.437561 263.839844 -559.788818
739.078796 -11.733597 -765.751709
837.936829 267.384094 -542.913391
809.651917 117.558319 -670.494324
768.419067 251.924255 -580.363525
395.091370 208.395172 -688.677795
469.165588 66.796280 -781.824951
461.576416 2.493857 -823.853210
688.849670 -68.758972 -738.883789
836.439209 280.815643 -534.828857
483.280548 118.770561 -728.076538
653.077759 157.404221 -665.447388
765.473816 205.746857 -621.739075
824.278809 257.245117 -566.632568
731.108154 -4.967736 -771.252686
608.744141 113.523972 -703.579895
766.423706 199.042557 -607.587952
539.519958 103.970039 -726.353333
812.829529 298.764893 -537.062500
563.289673 86.786064 -750.223083
580.396484 51.392487 -765.180542
826.075867 211.216156 -598.018494
530.803711 206.334625 -669.743042
746.880127 285.028412 -548.392151
419.601013 61.239914 -796.936340
410.110992 168.081741 -710.551575
633.287231 147.395737 -679.286743
732.319580 233.778656 -605.304810
708.872986 8.703745 -784.519287
772.495544 211.256210 -591.171387
680.129272 -19.088573 -781.489380
549.340393 -7.962265 -830.753906
639.547668 9.052740 -810.268188
753.258118 279.853851 -561.083130
737.875427 79.973526 -715.755310
679.159668 -8.024720 -785.443054
610.541626 193.027481 -643.926270
598.510620 118.320518 -701.865540
624.020142 117.027267 -699.285889
901.621033 60.656754 -753.182678
479.480804 209.730576 -672.374146
756.876404 203.806671 -613.549500
391.440979 143.144333 -717.892700
710.432739 60.893291 -721.770996
764.183655 141.697769 -671.502869
718.419861 125.985558 -672.859863
425.338745 216.647614 -668.446655
715.083130 14.521170 -777.429626
634.804260 17.723633 -772.567688
493.311310 62.355595 -757.884216
732.466675 295.520447 -563.137939
425.200165 186.222656 -693.484253
380.529083 164.985077 -708.092651
619.190430 -63.050800 -783.901672
493.114563 156.646103 -690.951782
477.556885 106.806679 -752.303406
879.251648 90.065475 -682.873840
770.632446 52.695805 -724.455566
800.246399 74.018303 -704.672913
711.667236 262.975861 -591.403503
679.617859 -22.665915 -788.175354
598.832397 -33.392151 -828.995361
580.025757 249.458557 -623.693970
841.092834 241.401749 -583.914307
539.083557 170.810272 -676.694580
755.750305 24.963310 -768.157776
729.420715 268.259674 -562.203186
815.966370 148.984528 -651.329346
746.652649 44.478561 -746.461731
823.855652 280.895660 -546.287354
826.503357 124.872894 -658.629333
757.067871 263.533051 -578.331360
706.483521 54.342403 -739.300842
679.466736 -58.408176 -762.689331
825.446960 293.442841 -548.699036
803.201904 1.545008 -767.193054
767.753357 142.800125 -672.911682
747.561218 200.755112 -617.537659
647.179199 237.714218 -607.984619
481.789154 163.859070 -695.556519
639.715149 161.947845 -659.578918
631.495667 -31.078926 -790.588257
770.326965 166.490509 -639.135010
563.467041 240.561981 -614.817200
728.157776 16.926996 -771.746460
491.924530 238.890961 -628.037964
879.580872 54.473984 -720.397522
689.087036 247.559464 -607.906494
616.155762 179.038864 -658.894470
626.573853 -22.524500 -802.887390
386.848358 182.684875 -701.578979
718.119202 68.684334 -729.858215
828.058105 224.732635 -594.421204
835.904785 103.235786 -681.698792
666.330444 -11.034571 -793.587280
493.423615 183.770508 -688.484253
679.827209 279.218903 -582.378052
565.490540 55.298450 -750.724426
486.124664 196.155807 -668.540344
485.884125 6.254180 -816.511536
772.551514 67.399612 -694.102783
808.768982 229.354477 -600.702698
568.602478 85.233650 -729.192200
624.011230 251.173248 -597.973572
628.978821 88.777428 -720.343201
592.522217 243.878677 -611.164063
777.831604 285.378845 -546.131653
441.441711 64.481270 -788.320557
660.167847 193.397507 -655.329163
823.981934 209.584152 -597.367310
671.560364 12.543894 -796.172607
517.205566 114.642479 -722.610107
570.670410 222.451385 -635.744690
402.702545 92.777710 -747.066895
684.753784 -70.634117 -729.216248
539.129150 22.694633 -769.451050
618.654663 249.642609 -612.466553
733.747192 114.156113 -697.297058
655.736206 5.980071 -797.675598
551.328430 -13.747643 -868.073425
866.254456 73.130936 -690.037842
876.342041 129.174469 -655.000977
537.077942 149.550751 -678.818420
805.834534 180.280029 -632.468262
822.031128 179.532181 -636.937378
411.715088 122.562294 -734.292419
566.632507 54.676506 -765.502441
754.784485 208.260864 -590.747925
445.835785 192.469345 -677.061768
441.420380 198.759018 -667.397766
732.954834 33.127831 -771.937256
598.893494 -19.001741 -816.661011
774.807983 21.829655 -779.733582
727.392944 212.184235 -585.575439
381.951538 207.841782 -691.336182
500.538513 18.479033 -789.094788
648.577026 41.807655 -750.760498
521.913757 237.862167 -647.575073
795.134460 146.843460 -654.354065
451.478821 206.701340 -678.916443
620.475525 165.787277 -638.532593
631.317993 238.323547 -616.799866
864.961914 90.758194 -688.965576
378.955475 213.900864 -672.083801
376.369080 199.481613 -671.917725
456.204803 155.181839 -706.809692
511.971161 93.042068 -733.957214
689.714905 252.330872 -570.847046
642.918457 -58.678802 -782.919678
720.682739 179.455154 -647.689392
802.330627 93.462814 -686.571411
661.911255 -35.382072 -768.011230
735.420166 197.361115 -625.547913
601.827515 122.014938 -692.037231
503.869904 143.920151 -686.878357
478.574127 225.013046 -647.534607
600.139465 251.682220 -603.744019
712.526489 256.992584 -593.278320
563.667786 98.918159 -721.018127
683.062256 56.365494 -716.682373
434.378815 152.136826 -707.140808
802.317261 308.393768 -534.393127
753.099609 224.179352 -591.278503
788.679993 222.080750 -606.725952
508.541626 66.635452 -766.694092
606.631592 174.816238 -665.423340
642.013062 -54.238434 -783.592346
556.718445 9.533958 -786.680420
790.692810 9.821321 -767.493469
603.281982 0.407834 -818.843750
692.236755 4.731433 -801.368774
786.359314 68.292252 -718.879822
719.293396 -54.327896 -741.736877
538.424866 91.343712 -749.698914
906.873840 67.909500 -719.020142
705.881653 96.512169 -705.719055
878.235596 151.608871 -637.987488
482.403198 118.480324 -735.906860
780.461304 203.978729 -608.152893
797.775818 145.461609 -660.241211
535.365784 59.467934 -743.168457
808.881165 77.771980 -682.206421
424.204712 134.046661 -706.969971
596.324890 162.972244 -686.848389
604.185974 60.005901 -737.795654
512.266418 218.645370 -647.154785
576.964905 157.717010 -674.604065
865.719910 156.593414 -618.414734
482.621033 6.940349 -798.470581
697.652832 -61.764515 -725.487854
878.248108 156.997452 -638.363403
608.137512 36.405891 -757.368103
795.869141 276.063660 -553.146851
842.487427 50.200787 -707.007935
889.956970 74.505028 -699.047852
743.073242 119.327812 -677.563049
666.571777 80.804001 -729.707031
759.624634 -19.893482 -748.841248
376.930847 210.506027 -666.505737
834.712891 210.664841 -606.686523
866.326660 39.154488 -754.835754
656.813965 -61.728451 -770.299133
840.285767 250.627182 -559.776550
809.068054 285.457367 -549.326782
667.907593 170.818527 -670.513916
798.460571 76.401215 -685.439819
743.555847 267.069275 -570.366394
775.806274 183.752319 -637.217102
811.175537 277.704193 -558.110168
617.455078 198.455475 -646.044067
588.154358 68.887672 -752.299744
794.594604 263.131226 -549.282532
697.216064 -40.943409 -745.989685
736.265198 222.917450 -601.933838
653.543457 209.193176 -642.372131
666.150024 12.505069 -761.391052
655.823425 42.081329 -763.100098
647.868469 188.788879 -650.280334
695.158875 163.589798 -627.264404
550.934326 149.178436 -702.365112
446.300659 54.676537 -793.619263
590.897827 240.601974 -621.392822
544.359619 150.355621 -671.334351
786.902588 131.118866 -669.606445
752.746521 95.971939 -684.976440
673.362976 -44.820404 -776.060486
450.550812 171.395203 -676.685303
624.177856 133.514542 -700.250427
605.785767 -54.761341 -798.042175
693.935974 -57.236843 -752.077698
824.164124 143.451050 -625.410156
499.870941 166.318878 -686.968201
671.027039 267.936310 -580.932068
684.024902 26.705603 -781.846924
789.991089 193.457413 -627.701538
639.190063 224.245193 -624.447693
471.111816 145.549301 -704.768982
605.699829 216.235779 -635.859375
581.435425 183.180664 -641.122070
668.070068 -13.927548 -802.844238
646.556824 75.648735 -734.001953
434.237671 33.337414 -795.142822
603.379517 253.863403 -605.400757
587.374573 80.403908 -725.600098
774.797668 220.177612 -597.914124
468.304352 44.723007 -781.648010
448.404968 122.318642 -732.188110
770.115295 262.341156 -550.449158
676.714233 180.906250 -640.167236
425.989929 184.738083 -685.654297
721.842041 136.549011 -683.946228
869.506409 94.900955 -679.866455
789.605652 164.988235 -628.147095
691.349304 -67.401993 -722.976074
736.423279 40.185810 -757.570374
799.340271 13.766310 -771.951782
489.360504 3.290131 -799.749573
765.926392 174.853394 -629.404602
571.706116 82.832115 -745.470520
713.750000 284.653534 -580.784729
438.308411 156.615250 -700.336426
726.235474 250.925446 -564.952026
760.073059 154.020721 -650.366577
739.810730 -22.369804 -742.081787
702.188965 65.981880 -724.877136
645.306580 -67.514435 -754.728577
404.045288 85.260086 -761.138794
715.996765 231.628174 -616.757813
471.593750 195.659790 -683.842957
398.007111 180.141693 -692.484680
815.578125 299.357513 -526.561157
524.482910 219.790939 -656.553650
769.294189 107.089951 -684.852478
676.692017 110.834763 -699.368042
791.645996 152.503418 -651.992920
626.287048 17.444092 -765.548584
670.883728 163.372070 -655.550293
427.650757 149.787170 -715.577271
478.071869 34.271282 -801.880737
726.368713 -31.249073 -765.194275
801.098267 288.806885 -532.723938
624.753235 -62.660534 -780.084045
851.782166 171.182205 -633.175964
726.685608 225.876694 -600.971924
551.920776 171.376312 -672.843750
801.596436 267.190002 -570.953735
734.851746 144.646927 -663.084351
461.153473 -11.520000 -822.324585
709.344788 122.568283 -690.951111
434.824249 89.898163 -764.597839
681.995178 181.878876 -656.569580
522.698608 213.197281 -666.172302
778.395325 114.432365 -682.778748
768.038879 65.829224 -718.165344
763.805237 142.074982 -650.966614
818.578674 89.656250 -691.169373
586.388184 53.271641 -748.494812
513.173279 245.552414 -626.572266
610.841309 134.911209 -694.900757
660.180908 -5.473496 -797.222900
643.801514 54.497696 -753.800720
724.019043 -2.684645 -752.162720
442.936676 119.818108 -749.041260
589.034851 83.096626 -727.587280
599.118896 218.849304 -630.763855
782.698303 205.294830 -624.266357
484.779144 222.421646 -649.169495
762.507202 273.398621 -574.732605
665.784424 -40.136776 -762.264709
789.054932 247.478912 -586.461975
739.126709 63.659084 -723.923523
472.079956 116.895554 -723.980347
666.056213 261.397339 -590.671326
615.544617 0.156902 -814.004944
773.042419 254.551224 -582.888916
607.101196 -32.281281 -803.591736
779.450867 274.808563 -540.088196
540.242920 241.168396 -626.893494
782.224365 151.046555 -659.535767
783.653076 215.228973 -590.755798
442.343506 72.096169 -737.147217
620.658142 199.835815 -658.342834
461.279083 139.595444 -730.835693
694.201538 119.108131 -691.857361
788.364014 157.899994 -657.932373
721.797119 -57.017944 -741.043823
592.502563 147.107574 -696.355652
704.579224 84.835541 -712.499878
744.180176 264.606659 -564.308960
880.850098 68.806610 -704.816833
721.102234 -5.320097 -775.617615
728.631348 130.399445 -683.776672
783.485046 239.879395 -581.219971
570.148010 158.281952 -681.578247
611.539917 185.555420 -655.688538
766.508667 94.209549 -703.799133
722.138611 57.883064 -726.014771
583.440735 -20.132309 -816.045349
633.182556 71.150665 -743.750916
647.568970 42.559250 -769.019287
775.965759 225.743805 -600.217224
457.104492 82.050774 -761.229553
689.729980 67.262085 -717.252197
806.084473 289.454498 -551.641968
458.421936 214.635452 -654.281982
663.402588 132.137772 -694.714233
755.064270 197.662628 -618.669189
724.114075 228.617264 -614.593079
731.121521 31.229403 -750.493225
780.129822 82.419739 -679.670532
902.941650 67.531685 -769.098145
760.975586 -8.188395 -761.219055
752.269897 252.777161 -574.797974
807.721375 309.980347 -545.055603
872.526978 57.683018 -723.734741
868.247925 85.252556 -690.655457
429.549744 137.878342 -727.445618
368.302551 163.725815 -715.240662
721.035217 -7.054543 -761.982971
607.527039 165.562698 -683.097412
675.075439 -27.532104 -780.677246
623.428833 -11.760957 -801.902954
801.705139 275.398956 -546.022461
493.171600 129.629211 -725.778748
758.480530 262.308105 -565.309082
753.506165 248.482208 -562.600037
358.390900 170.748077 -697.787170
588.862061 -49.155815 -794.377075
546.002380 236.109833 -620.263245
692.369690 -49.742619 -748.734863
438.603333 65.100571 -778.911560
808.554382 172.139542 -628.525024
765.589050 -25.738163 -753.854492
834.531067 249.294754 -569.051086
638.102112 -53.397606 -776.336670
906.435120 82.173569 -709.153381
647.949524 199.753708 -639.800964
717.333069 -55.123123 -744.606628
741.187622 110.420448 -685.310181
435.538666 212.183655 -677.887512
810.233826 31.850080 -790.509888
507.826050 245.323975 -629.804871
721.513123 106.739006 -685.176025
895.562012 126.184662 -656.999512
398.895203 154.581207 -682.344421
576.559204 159.299881 -680.111511
365.924622 159.277954 -733.134277
601.292114 155.620331 -672.773499
689.572327 85.034363 -716.344421
505.002350 98.688324 -737.947815
676.110718 -67.037109 -755.832458
929.829285 103.980133 -690.046997
719.672058 238.751312 -595.905396
740.476807 -48.117748 -741.909912
632.079834 -24.541716 -813.444397
732.392273 200.141678 -626.587891
831.018311 221.689941 -585.260986
752.021912 5.634026 -757.782654
840.119934 172.333313 -611.874939
803.971375 187.547211 -629.174927
735.719116 140.550201 -673.979431
631.181458 213.056976 -632.346619
507.753662 215.165009 -650.696716
732.567932 118.184578 -675.241943
600.189209 -48.508446 -815.422546
611.071655 36.056660 -770.683044
613.923340 53.301895 -741.606445
486.143768 231.318207 -618.396057
483.353485 26.899509 -788.300903
454.434540 103.178123 -758.818237
610.861450 135.580673 -704.002991
604.695923 99.526451 -709.614685
838.658875 157.138870 -645.837646
787.677002 -16.581932 -755.614868
753.249756 138.866318 -664.587036
849.740784 96.221931 -688.702271
833.212341 87.471092 -676.881287
662.637695 135.006332 -680.181702
561.594604 168.730865 -655.218445
469.535248 223.164124 -665.323364
459.326965 195.953720 -669.257935
609.782166 187.807922 -632.528564
805.756104 220.128876 -603.699768
473.558044 6.839252 -829.618652
520.398315 245.701950 -638.458008
604.390137 123.454575 -701.784790
784.450562 30.659853 -772.613220
853.505676 188.085052 -609.796509
778.968750 165.574478 -636.736816
571.193787 181.968292 -664.752625
574.055847 165.626007 -685.376709
828.537231 185.865601 -609.470825
765.683228 53.444778 -719.997742
451.897003 191.973404 -668.855469
784.915588 49.541801 -737.394653
628.889221 181.864838 -667.104675
688.984253 139.275375 -675.020752
751.086060 136.672928 -666.802979
436.348022 138.058884 -722.851868
491.406921 -7.221325 -818.303894
734.769287 230.350128 -607.474670
795.322998 65.108879 -692.671875
745.092346 182.062119 -644.500061
610.322876 260.588226 -604.009216
679.014160 30.417150 -767.004395
794.817749 34.957508 -780.456848
736.846497 13.613277 -775.609985
824.133057 232.207916 -584.003906
598.446106 109.003876 -690.301331
688.364197 181.004257 -653.235352
407.393341 129.058365 -746.700867
628.565369 256.363220 -600.345764
691.438110 -51.322281 -759.908325
676.698547 41.314335 -744.664795
801.322571 136.720200 -669.328064
786.832336 23.759676 -762.678162
595.334961 -19.422590 -822.775146
454.796051 13.807413 -817.102295
808.707214 53.602974 -719.937866
473.286713 155.173920 -701.222351
750.721802 88.206573 -700.192017
738.184753 247.539612 -600.643555
707.468384 125.500153 -696.314697
766.812073 267.123291 -575.020935
764.121216 63.283077 -735.886719
780.922729 -20.890234 -735.526978
662.742188 273.886414 -593.293457
782.137634 281.968292 -554.908386
740.125854 159.258545 -661.379395
651.985168 -8.359585 -786.396179
793.797058 129.562790 -679.454651
445.085510 11.175860 -824.479919
810.014832 234.963470 -595.913086
599.755676 47.769127 -763.780518
583.762573 -10.295562 -849.729919
559.731079 176.808670 -671.166504
758.246826 28.658033 -758.714600
403.080566 146.739410 -725.268188
759.716736 96.005943 -699.802551
586.385498 -9.326875 -843.986938
764.360046 277.157410 -552.481323
605.278076 120.669632 -714.988281
699.831970 30.481575 -769.825439
756.195862 155.645813 -653.197693
582.882996 -24.927235 -833.113586
408.914368 192.956604 -685.085205
830.137817 200.523926 -610.667236
522.379333 223.738007 -653.638306
633.224731 108.780533 -711.698608
598.196472 -10.859534 -819.058472
822.841248 135.822189 -631.737122
817.106567 181.598389 -628.610046
795.841431 53.970581 -736.793579
578.665466 37.380970 -761.549011
741.265991 89.341576 -712.904053
696.375183 59.724937 -730.983704
569.009460 94.972412 -741.454773
864.340454 171.204437 -627.938599
806.662964 -2.740737 -741.831299
540.127319 102.709381 -738.859070
729.553833 245.118912 -592.676453
620.655151 219.991409 -642.132141
473.872955 93.439133 -761.166016
638.606628 116.044357 -715.788086
460.640350 168.122116 -666.098206
777.285095 5.239038 -753.607178
351.310028 192.380203 -678.983093
610.395447 -59.809143 -777.340393
378.644501 188.816101 -704.991821
625.243530 -55.128666 -769.994629
531.879578 81.840248 -759.331726
838.606079 218.014252 -594.747192
770.159119 -17.417377 -736.368713
405.319641 163.969177 -719.845520
787.032349 184.165848 -638.118286
594.155457 115.149330 -724.639587
785.680603 257.834900 -576.662903
825.228088 30.103476 -783.453918
526.766296 45.082561 -764.400940
465.393494 68.142891 -776.688721
539.055054 90.100052 -723.027100
635.903809 54.634102 -740.904114
426.177826 170.656433 -712.876099
684.313660 186.625275 -634.418274
748.074585 239.265213 -583.183044
816.047180 99.360397 -667.416382
765.439209 281.160034 -561.189697
657.450806 174.741379 -654.795471
631.997986 -13.411387 -803.351868
419.149780 144.568268 -721.134460
713.973022 -58.476509 -739.359558
721.463623 -30.719919 -758.474365
637.390381 -3.227196 -802.767700
661.548279 97.047028 -708.976013
727.749878 256.157288 -593.536377
720.261047 227.971405 -595.577942
558.921936 11.713293 -770.902283
660.258484 163.237457 -671.524048
788.965576 233.170212 -595.470825
822.954712 41.604572 -793.380554
745.917725 185.446640 -645.531067
518.826416 80.098907 -732.299683
742.554382 -39.930714 -732.353149
385.403198 229.045975 -679.299133
542.527771 244.039124 -635.658508
483.617493 219.345291 -649.648438
442.004547 193.364014 -692.615784
698.629456 84.186432 -721.580688
537.253601 195.035339 -660.982666
488.946014 165.118774 -652.867004
595.592163 243.543503 -624.829163
598.953308 186.592728 -634.324890
716.165344 149.806030 -671.177429
669.358215 205.006149 -624.876892
765.799255 41.901283 -740.474792
756.970947 124.296204 -675.683350
532.780396 156.531967 -704.869202
372.147522 153.808670 -691.051697
691.298950 247.231781 -606.122620
590.695190 143.118469 -683.136230
678.575806 120.268967 -684.675720
411.931152 142.528748 -736.604919
472.817413 141.245224 -707.483643
739.313904 -48.954174 -722.565247
813.283447 246.678818 -559.786133
765.187317 261.799774 -574.969604
521.981628 136.022675 -696.199280
589.863892 239.821655 -619.932678
820.270447 198.946930 -614.582947
574.577942 178.065628 -666.151062
435.913910 173.090973 -705.976318
828.359009 117.239433 -674.306396
828.839355 281.293884 -558.298462
920.610657 85.317688 -693.287231
627.876099 26.906258 -758.960449
767.911621 -35.127293 -744.843262
567.899170 4.386539 -782.658936
794.184143 111.650032 -664.749329
581.924011 34.528580 -774.345947
764.357788 93.235359 -689.737000
429.500397 50.855602 -776.999878
435.034943 8.762301 -827.846985
873.501648 97.196289 -677.099304
457.871368 199.490280 -687.170776
520.806702 -4.704367 -807.021423
396.188416 188.118515 -699.628601
692.208374 223.700195 -605.468018
809.659363 144.238831 -665.789673
673.755798 79.156166 -718.401001
743.595886 175.738663 -640.457153
642.202271 225.905228 -623.437622
719.676270 130.309555 -688.920227
775.621216 -18.855007 -749.651611
754.719421 88.270950 -714.176025
704.247253 161.414032 -653.005798
574.920898 70.741783 -731.352966
817.969543 78.930893 -698.187256
772.391113 -18.127571 -756.295837
803.493042 46.733715 -744.798889
766.724487 210.397781 -617.439331
903.737732 76.901260 -697.045715
556.339844 85.545067 -731.429504
666.272034 188.920502 -647.279480
580.463623 188.498154 -657.590576
920.330688 85.377914 -685.819702
607.624207 188.115204 -647.958069
684.143188 227.333176 -609.522522
678.629944 265.874481 -600.235352
877.749512 66.741531 -725.852966
