ply
format ascii 1.0
element vertex 1408
property float x
property float y
property float z
end_header
721.282349 579.224670 -478.873169
326.028992 646.992493 -394.443512
505.549652 563.328369 -575.148926
626.568542 776.722961 -266.571259
313.869873 646.903320 -430.485413
673.775391 550.487610 -529.899536
729.138550 626.942932 -487.317291
527.608398 562.785339 -628.539001
714.446289 633.223389 -485.067963
717.797546 721.216187 -366.399231
377.440826 599.651733 -460.126953
707.877136 595.500427 -500.869415
427.018738 509.755493 -614.823975
640.186707 532.188110 -542.874634
721.993469 580.850098 -481.722260
694.825806 655.846008 -495.764587
433.622803 585.411499 -532.765869
581.684692 585.144348 -588.617554
664.771729 620.917664 -534.306946
604.817505 560.603333 -601.015503
471.597717 732.520813 -292.351654
563.243408 676.725159 -400.015137
736.972900 643.915833 -497.165802
681.625977 706.468750 -376.946838
358.819427 551.330566 -521.434082
530.764221 757.487610 -273.205475
375.273895 647.376953 -431.819733
466.144226 702.929810 -342.641968
542.647156 601.341064 -517.117371
652.568542 601.375488 -544.778564
525.250122 710.176758 -295.069458
593.701172 694.024597 -394.088623
616.688904 539.316589 -579.642212
623.884644 750.464966 -307.825165
467.064941 656.833435 -426.887115
596.714172 743.452148 -309.295288
560.682312 772.737732 -261.475922
650.250000 586.045837 -544.993042
420.360626 566.282532 -538.614502
540.609131 740.675293 -299.266663
454.687744 599.099243 -515.087524
325.717194 601.950867 -471.754211
425.234528 675.543091 -384.561981
583.410522 595.969177 -604.218445
406.860840 649.411133 -434.764435
794.083191 723.984741 -382.776794
603.237427 701.088135 -376.500580
780.600342 728.292847 -414.208344
685.435120 570.022522 -525.986206
570.652039 585.955933 -566.066345
646.114563 590.111572 -546.235962
373.670074 606.283325 -490.914429
325.310699 562.851746 -545.981140
515.206848 578.521484 -556.164368
640.218140 714.309753 -352.019531
588.948486 747.248108 -309.159210
490.444855 654.750000 -424.875031
597.977722 636.096985 -469.301819
589.842529 716.046570 -357.547791
716.380371 725.528320 -375.227020
531.388000 637.678711 -448.440704
662.957153 553.836243 -530.077393
432.848846 588.929810 -487.693878
420.509949 602.690247 -503.359344
525.366211 686.145630 -344.503906
666.525757 528.623962 -527.807007
401.977539 572.087830 -505.847351
503.776459 738.063538 -280.909332
571.121399 642.628845 -459.234863
666.666748 542.214172 -517.322693
579.565857 658.656433 -447.336792
631.616577 771.341919 -270.672546
515.047852 783.440613 -235.105682
394.033417 629.683105 -435.360291
392.205780 522.032654 -594.589844
479.607513 710.653870 -314.985138
388.875000 604.146606 -440.837982
433.438721 723.598816 -310.431091
276.560272 565.503174 -481.283325
541.289734 660.406860 -445.813599
599.176758 786.765686 -244.177536
320.747589 555.351929 -532.183350
409.380646 600.898560 -482.247406
612.627869 737.262512 -330.213928
403.064026 538.591492 -604.391907
369.855408 658.815186 -378.746613
376.339355 577.019409 -512.658386
426.357361 674.226807 -400.029816
319.173004 584.686951 -458.720612
427.017761 676.897156 -317.718292
567.654358 595.215515 -502.674469
633.379089 776.585266 -263.319336
510.546661 555.463318 -660.786560
449.701324 711.837891 -314.773041
768.110962 705.997314 -477.671204
719.753113 753.479187 -310.930206
639.258057 792.325867 -238.462509
463.023315 511.768372 -600.595825
653.903198 673.822571 -425.739655
546.448730 789.141174 -207.253479
617.589478 616.104492 -562.066589
658.503174 645.148987 -474.565460
515.086853 738.996948 -283.035034
400.760803 643.391602 -410.135956
602.121582 753.790894 -282.847565
638.627075 731.349670 -321.300079
382.763947 614.405212 -474.570801
555.873413 783.971680 -216.216080
385.938202 597.329163 -480.252899
658.573059 635.313232 -532.335388
466.518036 638.028259 -465.604858
427.656433 643.514160 -386.279358
432.855774 690.872375 -367.709442
667.853455 763.337402 -300.964447
583.783386 708.322083 -365.668549
266.103088 602.695679 -463.512665
671.101563 579.400757 -514.266052
686.419067 721.986694 -367.565247
414.377716 657.306274 -365.654266
650.406433 708.525208 -390.174194
614.217346 769.785095 -270.362030
468.895203 552.681702 -567.121704
662.070251 702.008301 -380.531036
557.317566 711.721863 -347.734039
642.306091 728.578430 -301.416138
525.728821 644.457886 -458.526215
682.578674 756.106750 -281.342712
659.687988 692.818542 -363.873535
722.155396 751.613098 -316.793427
586.792175 787.691406 -206.148392
422.229187 657.187927 -394.959015
349.365173 637.176941 -416.856781
614.328430 587.638428 -578.171509
463.983856 566.600220 -544.848572
315.971008 602.298279 -451.626343
363.510437 630.808167 -431.953278
415.140442 636.805847 -430.242859
406.814362 654.789185 -402.574066
695.872192 621.684082 -494.887848
247.754807 594.027466 -468.822113
489.152802 750.860352 -275.191620
381.786530 594.090393 -488.280334
603.906006 707.408325 -373.530182
306.364197 583.916992 -518.572388
593.945801 675.148560 -406.437134
805.533936 776.619446 -431.970032
742.423828 745.998413 -347.683960
757.634644 730.389709 -364.475739
738.612732 702.930664 -393.478516
502.872620 748.251282 -276.995453
743.246826 710.155762 -385.137360
432.862335 600.286499 -509.158020
530.487000 708.286072 -342.312592
532.853333 625.684998 -467.060883
460.797638 658.776672 -398.908417
442.796265 723.145752 -326.392792
499.551758 574.350830 -572.169006
646.903076 734.723083 -323.830200
404.399261 691.636414 -336.383698
596.170715 644.574097 -469.975677
515.353577 753.858215 -278.469330
304.201385 569.974548 -512.759094
594.731750 601.391418 -538.979797
392.697601 626.447144 -461.587891
351.381073 648.830139 -397.995697
414.907990 661.084778 -414.710571
612.107239 628.535278 -497.765961
687.418213 713.926392 -374.640442
404.625397 530.302429 -603.804016
533.421692 671.449280 -418.283905
349.048431 636.400940 -439.437042
622.949768 700.766663 -374.846619
607.202393 773.545105 -252.614410
526.125122 675.282654 -392.292267
688.195435 775.067200 -283.761200
525.763672 597.740723 -517.883850
543.902405 615.424927 -485.884216
416.578003 538.923889 -612.646667
742.582092 690.947693 -433.334412
531.278992 674.681580 -412.160339
434.982208 714.983276 -314.114105
474.665680 683.683777 -391.672211
542.137573 571.539429 -655.725464
452.306274 672.606689 -385.036743
570.735535 586.378845 -631.071167
773.747803 723.838257 -377.108917
601.301270 753.572144 -298.505524
628.959351 628.986633 -488.396759
475.072662 701.562561 -337.161438
673.116333 766.768982 -290.257843
589.850159 669.097107 -418.626526
683.763916 580.628906 -521.317505
702.893982 572.967468 -489.037018
600.885620 715.410461 -340.044128
293.935364 640.746094 -431.768646
515.919617 586.612061 -544.231812
627.511475 772.304688 -268.946564
640.553589 755.601440 -286.908417
629.014893 672.387573 -434.775848
573.075623 720.846008 -328.605713
644.500366 716.983765 -371.521423
401.284332 671.132751 -361.754944
422.127716 620.625671 -475.775269
632.403015 746.834534 -323.864288
571.493713 711.216309 -336.043579
504.685120 573.967346 -528.637451
452.252930 648.442749 -401.708282
405.820129 661.333618 -390.000519
418.478851 542.391113 -593.188538
670.367188 744.876038 -339.078186
450.613220 665.913940 -393.081665
682.231506 707.453796 -381.823181
535.206055 673.931763 -395.949738
631.281189 727.080200 -342.614105
334.847687 625.434021 -428.822510
377.598480 663.645996 -373.463196
660.014404 745.796082 -308.747742
374.798065 617.419250 -472.801880
656.195435 642.226440 -479.594757
725.727661 739.963257 -325.076599
782.612549 744.143372 -351.382446
561.370544 636.843994 -459.375580
379.312683 557.858154 -575.572327
428.318878 662.276489 -371.484436
446.704407 735.826782 -294.866211
522.920715 657.436279 -442.750275
505.134827 633.139038 -447.131287
422.315399 650.785767 -398.998383
676.191956 680.431152 -434.198822
563.221619 763.123901 -220.784317
561.450623 713.658691 -363.223480
314.000854 621.975403 -452.446442
414.859528 536.652405 -581.031738
506.584015 717.867371 -341.094208
654.543274 727.339905 -333.170837
524.046021 641.836060 -453.278625
609.333923 597.384521 -546.154846
612.296082 689.378723 -359.088318
682.416626 792.164124 -251.579666
402.187317 640.646606 -444.814575
465.404419 631.661194 -466.658539
340.748108 571.473389 -507.234283
337.066467 625.170593 -450.711548
745.398621 714.993652 -486.676147
752.404480 747.047180 -337.187286
679.121521 736.782349 -343.378815
678.874329 764.363525 -288.247070
638.764709 745.272949 -322.527802
395.026031 552.565735 -563.182800
556.626892 808.306702 -195.268677
393.650909 682.936829 -372.683014
624.606812 597.687805 -554.133728
387.665955 625.236145 -436.621521
572.186279 610.521301 -520.557678
474.257568 642.860901 -425.522522
662.656006 666.320190 -467.666687
705.476074 676.584656 -404.342346
654.399109 573.442810 -536.431763
268.101501 597.284302 -483.670166
636.442688 762.770325 -274.973969
534.342163 756.511353 -267.899780
639.526489 769.054016 -275.597961
544.815613 757.145386 -280.787628
621.129211 741.937927 -273.884216
512.059631 634.562378 -443.622772
606.934753 793.731689 -223.409470
431.135925 535.014526 -567.534973
488.053192 594.557983 -493.498138
693.176819 773.398743 -290.747284
494.394043 645.519531 -440.417328
561.464478 781.228210 -243.993301
596.689636 576.351990 -600.242859
539.279846 796.196594 -215.298401
554.890991 762.122131 -221.815460
540.325439 666.210388 -420.124084
569.399170 640.594910 -454.169342
620.024780 666.378967 -427.984833
680.571411 717.223816 -361.573517
742.684021 756.426270 -325.371735
458.861755 675.450073 -379.339172
762.914734 701.600464 -460.420288
726.081238 609.507080 -490.295593
581.561401 778.500244 -250.384735
540.022339 780.638794 -239.544479
696.528015 627.243225 -510.179565
744.151062 682.995850 -483.579590
676.971802 560.217041 -510.348328
530.746460 621.734741 -480.104218
715.437866 705.489624 -392.180298
439.457275 519.416382 -591.968628
490.447052 639.079224 -438.980103
742.805725 671.062012 -490.616180
708.113403 698.023987 -400.501831
375.213287 648.534424 -405.257294
663.624817 667.141724 -447.044891
359.258179 554.336548 -544.671936
474.916412 538.704346 -610.391541
723.141113 767.220703 -303.670013
772.362915 754.331543 -341.263062
726.435364 668.447998 -488.146851
572.675232 783.316528 -221.702087
334.286255 552.068970 -533.884155
422.928223 623.475891 -423.387421
771.941528 705.205933 -454.877533
340.706787 594.960388 -471.873474
606.211365 645.839417 -470.258575
538.070557 691.508789 -394.840210
535.211243 786.963745 -224.486496
355.416229 565.948792 -521.107422
530.651123 569.703491 -655.920105
656.357971 742.192688 -290.153412
626.837524 610.885864 -529.912476
469.288696 658.888428 -410.656158
694.805847 707.620178 -345.272919
686.592163 733.060974 -301.319550
760.445007 729.431702 -363.113953
725.300659 680.814636 -408.052094
584.701111 793.205505 -199.569305
603.215881 651.250061 -445.110931
463.665405 632.017273 -450.566864
587.902954 775.778992 -242.748962
563.081848 663.756958 -423.214447
509.635223 702.488770 -303.690643
448.626678 553.530029 -563.734009
635.765320 690.536926 -393.960632
488.467682 621.240967 -475.307556
672.907471 570.851196 -536.684448
727.456299 641.174438 -491.434021
638.622559 764.515930 -290.917175
547.467529 612.253174 -491.962891
597.837830 684.324524 -361.655121
446.918152 730.958801 -291.836884
491.151764 750.552246 -269.619537
420.715698 588.337036 -534.680054
573.575806 794.078308 -229.976440
493.685577 758.102783 -269.529358
378.565857 539.202515 -583.682007
427.451111 525.649658 -623.682800
646.258301 701.943298 -393.220001
354.660706 671.800293 -386.583405
673.452942 647.511108 -520.238831
629.225342 760.019958 -303.813599
558.307922 760.403259 -286.607086
514.091919 726.853821 -297.997253
509.476715 620.666992 -492.070038
453.589569 732.823853 -292.203278
350.873138 576.785522 -513.757751
413.165527 621.302368 -480.121521
585.688477 793.606689 -214.111298
398.083588 590.529053 -527.926697
537.590027 631.185608 -458.253387
690.124207 695.752991 -376.302277
632.720154 737.007385 -342.274628
652.358215 660.531799 -456.970093
305.123596 640.843018 -411.666443
553.939087 578.698486 -570.651428
585.216125 776.116394 -222.707626
479.958801 611.872253 -500.288330
715.585999 632.686279 -494.712067
723.878418 626.190674 -495.181335
676.610901 718.471008 -372.395386
506.023499 746.514587 -281.435699
568.916626 641.764526 -450.859894
664.344971 614.939270 -535.421448
488.154785 548.284485 -571.434814
709.807495 751.545349 -324.416565
626.397461 633.084229 -479.267914
398.411163 662.003296 -380.579224
516.317017 615.275330 -475.644470
620.158386 648.273071 -456.837036
324.858063 597.825439 -498.170044
626.654541 764.787109 -288.516144
550.519104 570.053772 -565.772949
354.722534 657.669617 -372.581055
467.684753 728.800598 -288.597168
643.104004 691.884216 -406.170105
470.469818 614.548035 -464.458832
696.870667 752.701965 -317.750153
500.680237 549.459473 -572.633667
626.179565 761.880127 -274.131195
468.851746 647.860413 -427.031464
412.626221 640.054993 -450.935028
446.478912 579.990356 -529.420227
344.474670 584.057922 -496.827271
658.467773 679.555725 -427.891907
473.614838 573.000488 -565.879395
484.129181 630.539368 -451.311951
566.181213 745.265076 -287.377258
477.377319 606.165466 -491.243500
550.896057 665.462158 -439.659760
396.382172 596.561279 -465.842804
435.519806 703.323303 -322.062836
512.482178 640.722290 -452.280396
662.015137 672.273865 -426.782867
401.892426 527.161682 -594.740845
558.104919 795.431030 -204.790054
405.484192 529.808105 -612.073853
527.938293 581.503784 -533.587158
665.115784 538.312012 -533.332642
596.033264 632.463257 -465.131561
687.549683 595.157227 -522.308411
517.569824 655.872986 -429.954346
463.381622 683.631531 -352.128937
672.443359 761.366089 -304.978333
455.851349 619.543335 -461.539398
702.660461 680.038940 -437.833649
441.550629 689.208679 -345.297394
480.089203 567.346313 -531.145874
701.576538 737.184204 -337.852875
641.916748 742.564453 -327.490845
699.145325 584.170471 -521.937744
484.698608 535.807068 -633.108643
414.087128 617.223328 -486.763489
744.536743 717.019165 -373.565765
600.024170 588.479187 -587.164673
548.540771 790.253418 -216.280746
708.551819 612.233032 -505.285889
614.330811 557.174561 -565.510864
615.248413 779.361267 -195.830322
456.924194 684.167847 -377.904480
423.963318 670.801697 -375.370026
327.824982 648.245911 -402.782532
436.296661 581.775146 -525.297607
552.747131 727.595703 -305.051117
523.821045 606.056213 -493.105499
385.192993 599.855835 -510.935699
524.326233 583.604492 -518.443848
475.944153 638.280518 -432.382965
577.963989 598.760620 -521.924255
586.657959 680.037903 -400.437866
607.029846 556.288940 -589.480347
616.812805 752.108032 -306.652679
663.423096 752.702698 -256.689270
485.685089 564.799561 -572.978333
692.761780 634.761292 -498.343628
537.511108 738.369324 -302.422485
677.089355 664.921387 -438.646088
282.279633 615.249817 -464.998474
332.621643 597.299500 -484.813843
551.160889 802.407043 -200.044739
389.165283 541.020142 -588.122070
519.417725 610.619812 -488.591888
523.406494 665.810242 -401.217377
505.084198 721.209412 -314.299438
287.903473 595.111267 -492.783722
679.964233 763.163940 -305.120605
635.981934 563.442749 -554.218140
516.281067 617.853760 -503.919617
715.577087 753.593872 -306.021851
343.742767 647.583557 -390.893372
532.474670 562.139709 -547.302856
698.211731 613.854614 -497.772583
433.812988 679.289246 -364.630707
567.175049 694.621643 -371.095520
683.918518 640.711426 -516.560364
666.339844 762.122498 -282.292999
387.336670 621.508545 -447.653259
413.378326 693.202332 -333.108948
529.284912 728.840027 -298.614716
356.094513 594.525879 -483.256989
573.108215 753.789673 -300.515747
680.387756 669.428406 -449.657379
591.867493 800.850342 -200.946838
293.982697 619.191101 -434.315643
358.867310 649.913269 -390.341675
766.695801 717.934631 -399.859222
487.308960 559.781067 -544.218872
358.029449 684.124695 -366.621796
654.100830 638.208191 -530.038208
368.382355 622.547546 -462.613373
625.986877 721.189209 -354.825409
397.137482 592.368469 -493.640137
327.362518 576.782471 -533.148865
429.818634 565.215027 -573.724854
433.077667 653.027771 -428.235809
696.252686 680.523071 -397.828064
466.892517 702.194885 -343.576538
443.588470 623.821716 -460.124420
575.143982 781.351318 -205.383179
401.218262 690.774353 -359.051300
392.376160 549.142029 -594.544434
691.402161 544.035706 -490.119904
589.628174 610.150513 -506.602051
632.651611 618.625549 -553.730286
526.648987 736.926147 -301.732452
431.115204 684.660339 -378.427948
580.029724 674.804810 -406.630402
476.555054 574.719910 -507.306030
648.276184 705.412048 -394.197906
521.290466 632.126953 -452.576477
686.005737 659.836548 -469.174988
426.313629 648.623413 -433.896851
489.232269 632.615479 -447.662170
709.368286 766.109314 -299.839020
687.912476 786.753784 -260.618683
450.723877 645.282593 -427.335327
493.827759 533.077637 -632.311951
626.719971 707.225220 -364.227509
355.736847 639.306274 -407.963867
713.268677 648.423828 -480.666962
459.424957 613.184448 -497.379486
445.129761 527.475830 -630.189758
721.430481 623.241028 -486.397675
566.291443 590.558960 -629.910400
506.412628 599.671509 -534.311523
558.122803 591.792297 -544.609009
669.108521 754.001038 -281.936249
446.479492 620.982361 -461.612518
556.696716 644.766235 -447.769409
679.420837 749.996887 -298.087585
621.602356 594.866821 -558.262878
629.014038 633.236389 -488.339081
508.895325 760.708435 -250.536728
535.345276 617.790955 -471.733215
542.656555 755.251831 -280.415253
665.932922 734.221558 -323.751434
275.941284 583.745300 -498.236298
367.287262 628.458069 -429.625275
428.149048 605.195740 -452.883636
388.124786 603.241699 -498.164551
367.346222 564.124939 -512.630493
431.731018 706.906067 -324.531311
319.312042 573.734314 -505.540588
478.847565 654.361328 -409.996796
646.194031 565.657471 -543.934998
606.868103 718.876160 -335.380371
426.170898 527.442139 -647.307800
773.868958 715.573547 -475.814850
549.406128 771.695740 -257.600281
355.862946 636.865662 -438.625397
597.772095 697.547302 -373.535522
620.344971 770.619629 -246.707962
609.766479 639.269287 -484.917755
610.357788 660.559204 -460.051666
516.346680 706.868042 -363.066040
604.953979 758.715942 -283.767365
329.314026 648.908997 -397.674957
610.601929 789.087769 -228.279266
551.369507 710.006592 -343.133179
284.447632 613.225403 -439.030853
641.374695 520.982849 -541.400085
650.436646 792.708252 -241.743942
418.985901 668.528564 -357.632477
546.517395 697.147400 -384.458832
499.580841 632.531311 -459.093109
636.685486 677.131287 -412.819214
637.279602 580.379272 -557.740540
734.983459 637.187256 -485.454132
409.139984 697.899353 -348.282806
580.951294 757.390320 -261.808502
598.628235 653.004761 -441.900513
504.829803 596.755981 -494.682739
417.277618 543.845398 -569.277222
518.643982 655.104065 -383.787537
332.824219 632.364319 -418.771667
672.088501 762.429260 -297.567535
608.143066 544.410034 -588.239929
608.604431 761.670471 -285.893860
415.477234 630.695313 -434.682739
576.077271 770.656738 -262.781311
584.034241 615.175903 -526.906311
610.526428 547.746826 -579.767639
503.074249 701.253418 -339.714508
498.419678 695.994629 -361.763458
304.162933 598.481995 -456.514771
586.900208 652.534546 -458.228912
736.180969 748.768127 -332.813171
354.690308 584.977112 -513.016968
566.506592 679.259277 -396.873627
545.652344 722.294556 -321.411987
310.816071 618.585510 -458.429138
737.884094 646.283508 -477.511169
413.792786 546.556519 -587.864868
479.319397 557.185120 -582.327759
448.748230 548.133972 -601.824341
409.045288 560.607544 -544.341064
433.535095 581.235840 -518.891113
800.319031 750.934937 -424.664703
343.635315 588.531616 -511.219971
395.179352 655.352173 -399.667114
661.793701 772.807434 -264.774384
566.245239 590.169312 -516.216248
455.439117 706.025208 -299.996277
592.551514 761.550415 -282.882446
681.774963 744.331238 -301.458557
302.494049 632.740173 -448.163574
439.824829 720.725708 -329.392426
414.928284 617.059875 -467.583221
517.184814 612.612183 -478.890533
698.286560 647.571655 -498.765411
449.258423 535.439453 -609.611328
535.542969 671.629761 -393.030579
385.951691 659.317078 -390.581482
329.875610 632.651123 -439.131470
562.763489 774.842224 -217.920822
642.250244 781.122559 -259.736084
304.514069 639.778687 -410.093903
749.617615 735.864807 -324.224731
371.534088 649.772034 -398.494690
413.709290 628.402222 -449.202271
564.363770 625.905212 -473.539001
493.436646 577.538635 -534.739624
505.272034 678.249756 -409.497589
447.968689 665.809387 -406.842560
383.401428 637.223389 -414.847260
723.423706 740.561279 -342.650848
623.776428 665.265564 -442.657776
509.564606 595.805908 -497.655518
314.145599 553.272766 -523.115112
369.572662 654.194763 -393.980713
563.880249 744.819702 -308.115692
411.541718 618.022766 -478.127014
528.528198 748.295471 -288.375000
665.404297 650.603882 -505.016296
680.702698 568.870178 -514.954529
599.097595 723.614990 -349.193207
569.682495 757.849426 -276.861511
775.577698 738.152771 -355.172577
501.015594 531.285034 -595.549377
433.056580 663.226746 -384.632141
475.134308 585.048889 -539.393250
432.348602 546.705933 -537.192444
312.900391 630.115906 -418.822418
581.092041 777.688171 -213.564056
421.850525 538.885803 -561.701233
566.805298 775.884460 -232.289444
341.539032 665.402527 -409.882599
650.251221 661.841919 -435.881561
363.205994 671.272766 -361.871246
717.748291 589.112061 -495.159698
554.229248 666.940125 -418.573456
446.243256 520.674133 -625.870667
701.693359 639.939758 -506.773346
675.910156 533.487183 -516.621460
620.115295 760.453369 -293.147430
453.286987 535.427612 -590.039551
414.030090 678.930603 -355.059479
347.192230 629.023560 -440.010376
730.346985 697.383911 -496.462067
676.979858 735.140137 -337.125885
489.098511 616.319946 -448.221802
565.947449 806.948975 -201.935593
394.064331 548.870605 -581.771973
392.674286 658.276306 -410.341980
615.995789 730.084167 -317.637054
306.110504 585.683289 -459.461792
612.671021 747.483276 -281.160431
572.261719 772.125488 -241.518829
557.806763 590.576965 -545.711121
483.349976 569.033752 -550.317505
480.797974 567.993652 -544.973083
352.248535 670.248108 -377.206055
623.677246 580.265137 -572.532471
256.064453 584.064880 -481.994843
765.350891 733.450012 -364.660278
339.111328 616.082275 -441.109894
441.813538 671.056335 -401.596527
568.950012 595.608704 -514.992554
422.314545 593.049622 -517.765076
551.805664 683.629578 -389.883575
506.021790 658.695862 -441.002441
495.163300 626.866638 -480.131226
780.879883 765.282593 -351.524048
662.959961 756.589172 -316.076233
642.722900 735.579163 -321.269928
629.863098 579.737366 -567.272644
476.758514 568.955872 -543.672180
783.462341 728.102844 -430.452240
609.899475 742.029968 -290.532196
540.969604 769.770508 -258.056458
503.180328 634.779968 -456.255768
463.592834 656.028687 -433.567871
595.539307 774.955322 -246.951492
723.451172 695.865356 -375.570038
754.582886 739.052307 -357.702698
731.460876 717.876221 -375.676727
801.501038 750.828247 -379.436676
748.126038 719.874451 -381.245239
632.763489 552.326111 -566.081482
560.007385 744.035095 -313.230774
651.892212 752.277710 -251.045609
486.136597 675.340210 -371.545502
460.865021 708.286926 -324.500916
550.183594 801.685364 -215.221771
592.236328 780.708435 -224.740417
469.443237 660.303894 -424.500671
645.634216 757.509583 -301.964874
430.153900 592.263611 -499.770630
420.027985 606.527222 -497.003326
578.547974 761.000854 -279.903687
692.339478 624.923340 -509.422485
710.075623 752.136902 -291.817505
749.060974 728.086365 -376.266876
739.731628 693.312195 -499.334961
578.242065 765.956543 -250.695663
686.606079 681.943665 -422.545013
702.299561 706.513489 -393.765808
382.989716 677.286072 -367.982056
690.033264 709.315369 -397.808044
338.989807 618.512939 -443.569824
659.137512 524.333008 -524.796936
672.020386 604.671509 -518.692932
419.139435 675.758057 -387.993134
751.865173 718.807129 -490.772980
483.522217 718.184387 -310.616516
540.210938 748.798462 -297.754578
747.318542 762.209778 -311.575378
679.437744 576.447998 -506.029999
649.055420 706.063660 -376.828644
437.865997 544.064941 -603.547302
536.616394 665.731628 -414.251831
602.387573 680.087830 -416.498718
531.456238 761.661682 -258.234344
787.900879 719.799072 -405.584351
440.507904 689.934509 -377.928589
750.026123 732.082520 -358.862091
457.539978 602.299438 -477.374176
648.051392 787.724792 -250.632172
600.648376 777.548889 -257.252045
744.102051 656.408142 -483.339417
600.993591 614.549072 -520.018372
446.850464 657.159546 -408.854401
604.847473 593.182007 -581.946655
548.863525 730.638184 -322.810364
501.490631 631.650330 -483.552795
599.577026 788.162354 -224.105347
461.616028 679.994812 -372.329376
500.874146 559.754089 -559.875793
442.039001 691.594299 -371.904694
588.001587 815.902893 -185.467911
431.340729 520.746643 -623.965942
551.136353 680.519043 -408.305908
552.120056 573.409607 -638.075317
539.985168 661.988647 -413.971222
590.590027 786.478455 -204.560486
503.793793 631.003723 -462.745087
662.442993 802.499512 -234.908112
491.905640 525.526611 -590.042603
529.398682 553.336121 -594.596008
500.914795 715.143066 -315.641968
644.071045 693.457092 -390.483765
472.212799 552.482117 -592.244263
599.879761 807.862366 -212.521942
647.668213 587.913635 -533.810425
481.107086 624.176697 -453.010651
756.356018 720.474670 -381.793640
521.870911 711.833008 -355.628876
430.242981 642.751465 -429.078369
336.160339 633.157532 -412.809540
436.925507 567.036194 -563.542725
410.300110 666.064270 -409.605347
384.080963 686.751892 -352.644958
596.397949 751.354858 -295.039734
628.362183 723.970398 -356.848145
322.175629 614.282104 -472.848846
385.202881 669.448975 -375.422302
538.881592 697.487793 -355.259674
555.731201 792.011536 -192.486969
602.980469 610.366455 -535.637512
627.857727 620.940430 -497.312012
691.565247 678.001526 -434.607086
667.351257 761.003723 -275.956970
642.907715 760.601685 -297.709595
707.090820 682.385620 -489.006317
391.586456 637.502380 -451.081055
658.234497 604.117615 -533.402100
440.349121 612.286804 -494.676514
562.047241 645.815552 -452.607819
727.385498 693.831055 -485.240417
407.870087 609.574524 -499.731079
529.731873 558.444580 -551.398682
607.213440 781.467773 -255.061569
724.925049 594.649780 -488.406891
585.123840 663.193848 -418.050537
794.581482 741.809998 -381.954529
552.812439 569.984497 -645.752563
356.193359 564.306702 -501.863007
508.383484 688.560852 -393.357330
673.450684 568.963257 -531.186035
631.581970 557.993896 -557.618713
634.206482 611.410645 -501.823090
671.397583 613.284851 -508.891876
547.454102 753.511108 -295.367462
613.644165 778.955200 -226.135574
642.060852 582.792786 -540.844788
417.393127 594.051147 -504.820862
530.519653 722.040833 -310.754364
620.091370 752.470581 -298.333649
554.012329 622.572632 -500.010223
353.362549 652.799805 -392.382446
753.315369 743.555908 -352.808960
478.405029 658.103943 -403.961304
734.325684 594.378174 -480.360626
286.330811 577.433044 -476.272552
246.570770 587.437927 -484.683380
483.237396 549.855530 -568.219727
627.261536 561.765198 -576.720703
369.220856 555.899231 -567.154419
507.983429 699.216064 -374.093842
525.945007 776.472351 -225.393906
403.591492 583.550049 -488.694061
597.450378 562.114258 -593.558167
644.047180 537.429321 -536.527771
588.802734 785.280151 -235.259735
632.944702 808.406128 -207.863907
438.826141 678.706543 -348.623383
528.253906 734.684998 -291.365723
496.038818 644.992554 -452.183807
546.405090 727.593079 -336.998016
615.012756 701.608215 -385.333466
647.913696 728.502319 -292.847748
438.475067 554.397583 -556.440857
611.662476 696.313477 -375.655121
607.340027 608.614624 -565.315735
313.091064 587.562561 -458.852539
627.054504 700.591431 -381.874359
449.405487 717.276001 -302.890137
720.940430 643.830933 -489.599915
622.092163 746.829834 -316.896881
494.244049 746.624634 -277.172913
605.264465 671.872375 -429.706451
662.120178 735.700806 -345.833191
581.415588 589.239624 -558.586304
677.057922 638.833435 -474.482697
525.114136 702.164063 -374.710907
440.481537 603.154663 -506.147491
720.115662 738.513733 -329.464661
429.552887 608.305054 -482.035431
708.559143 779.180176 -288.572510
719.014282 663.396057 -495.943817
704.628235 761.766113 -299.949951
617.934509 669.940186 -435.955048
779.281616 732.356995 -379.596039
680.873169 622.122620 -501.861847
703.697083 631.784180 -499.491577
706.963379 750.515869 -320.428558
601.795532 724.124146 -355.112518
626.525513 735.539795 -335.634460
626.292358 744.073486 -259.908234
264.322510 608.658447 -458.055847
760.081665 718.530090 -489.793030
535.989624 725.602539 -315.785736
454.313599 525.796082 -639.480591
506.767487 693.252075 -367.748688
295.581268 594.502747 -475.542084
671.722046 574.624023 -534.411682
626.987610 740.220154 -287.286804
708.075928 583.040283 -490.608551
654.265259 569.248047 -540.025085
688.522156 574.711609 -517.760559
455.107483 532.696167 -601.170166
543.370605 585.529053 -511.325287
389.783173 620.503601 -470.501007
657.716980 660.442017 -447.844879
629.421448 665.001160 -433.150787
378.752197 578.706543 -522.751404
492.565765 524.824097 -644.020447
391.895935 618.728149 -450.540100
557.831055 742.122925 -280.867920
703.450012 640.279968 -498.407745
527.715820 579.211609 -571.092041
459.966156 706.381531 -339.211395
463.303040 548.317871 -592.698181
598.646301 780.928711 -237.433380
668.742615 679.451904 -435.237030
524.806885 712.574707 -332.820679
515.010437 610.507813 -487.046204
453.474701 735.858032 -287.302277
689.170898 725.847473 -339.668243
719.491821 721.491943 -382.293365
581.430176 600.783752 -534.184143
454.198730 663.505005 -367.058655
746.546936 709.894409 -387.895050
579.324585 711.806213 -354.671204
411.531342 651.822693 -404.283508
509.504333 743.421814 -298.645233
476.748779 704.044678 -343.676331
490.982666 656.019531 -413.469269
642.904297 654.479187 -443.954437
501.617615 610.816284 -506.624847
519.056030 738.499146 -284.874359
505.801208 717.999939 -320.592194
500.822540 745.365845 -267.312958
674.202942 568.824707 -510.873169
685.419250 549.115906 -515.181641
536.531372 627.920959 -464.283356
614.594543 773.698486 -270.130646
559.892151 792.079895 -223.977310
471.246704 743.636841 -279.333099
706.490723 631.367493 -500.619629
471.379883 706.520081 -340.726868
497.359467 548.250793 -578.646545
364.742462 629.518250 -452.220337
505.484558 626.072388 -461.597839
461.318665 600.104065 -502.541718
404.311401 682.952271 -332.023560
478.665497 506.105682 -663.109192
346.378113 600.871277 -494.861328
687.510742 739.163879 -350.746887
531.946594 703.838257 -373.135468
599.647156 721.109192 -340.016357
590.666687 716.713074 -364.865936
473.279877 518.299988 -601.737854
532.593994 617.831116 -503.474121
769.851990 703.000488 -470.257629
387.935364 688.001770 -349.248077
628.988647 593.969116 -541.817322
503.278656 708.098999 -360.990448
784.421021 716.659607 -443.484406
426.029510 515.752747 -594.674561
653.931213 661.713623 -426.795929
648.388916 575.168213 -550.559875
698.011841 776.784790 -281.393585
277.969543 607.625732 -469.632507
578.330811 751.311096 -279.085175
545.107605 718.338928 -285.721283
432.468170 709.310913 -318.146881
461.845001 704.480530 -330.026825
497.830170 549.192993 -596.627075
552.140015 679.101563 -409.796844
701.541077 738.687134 -336.821747
724.947266 639.887390 -488.867523
581.300720 810.113159 -205.462555
588.228516 730.274658 -317.555023
574.437378 779.046082 -255.137772
316.281616 586.688782 -514.787476
520.195190 679.104980 -388.904510
618.831787 719.139954 -331.193695
391.299866 638.665588 -423.678223
485.646698 752.140991 -261.750305
543.239502 568.455627 -609.449524
395.995148 576.510620 -517.520874
351.356628 569.164978 -525.657593
582.444214 767.281494 -275.156799
521.179871 620.478638 -464.211700
637.315369 642.916626 -473.843231
569.132996 772.948547 -267.608673
525.565979 598.372131 -534.608215
335.858490 601.350708 -446.421936
588.151733 748.587891 -274.912537
403.675201 648.157410 -411.496094
602.950439 670.586670 -417.200836
576.982300 696.470215 -328.711914
673.693787 524.750793 -505.221954
657.038025 586.492249 -527.715698
409.702240 689.208069 -352.539551
623.393921 666.998596 -425.993042
600.366028 775.662537 -238.335281
431.292053 679.829895 -389.262421
458.260986 567.444458 -542.536438
653.878601 622.538025 -499.652740
698.468079 756.917664 -316.898254
404.919464 693.331909 -342.823303
600.835754 765.795593 -271.700470
533.962463 699.834045 -380.435059
647.315613 698.175964 -385.243469
515.619690 765.447571 -240.409973
606.579590 594.432922 -573.997925
620.415710 659.112183 -442.988403
291.519165 581.663208 -477.978607
382.057861 665.112976 -389.967499
659.813171 539.541809 -522.928162
635.358887 585.372192 -543.665649
542.802124 720.750916 -334.870148
704.050293 575.174255 -495.350677
588.722168 708.363770 -349.521576
737.410034 635.171631 -488.737000
406.898804 626.033508 -444.299347
459.623138 724.144348 -311.395508
567.716797 675.228333 -403.245300
597.485718 641.614929 -459.607269
612.591309 719.368103 -358.291412
512.205139 677.203247 -393.308319
401.429993 604.278320 -475.777527
579.283813 813.680725 -195.307144
299.279083 589.865356 -485.434845
327.985687 608.672607 -449.437286
616.174133 547.416199 -581.595337
275.526062 620.478149 -440.168488
593.545166 552.906921 -608.419128
425.481110 645.952576 -416.751343
367.488525 633.916260 -426.660431
753.559570 733.331726 -347.899445
443.480469 665.064575 -393.154419
432.758148 594.734070 -495.475342
586.092896 646.133484 -467.498199
567.200378 772.855713 -231.269211
567.621765 633.451416 -460.277924
701.279297 744.891296 -340.592255
517.877563 580.551575 -534.158997
443.467224 567.093201 -540.948730
479.742493 555.322937 -548.583801
663.475952 556.420593 -543.258179
511.619110 631.646057 -463.484985
583.861938 605.120972 -512.857361
623.632080 675.370483 -414.372406
713.267822 730.206299 -357.280060
694.655945 694.208923 -406.028687
637.790283 807.982788 -211.171829
578.249939 804.184387 -204.676651
698.441162 575.614197 -522.759094
480.589996 742.132690 -278.734955
621.050232 744.356445 -317.158356
745.549927 700.005432 -412.531891
652.211060 741.055969 -290.443939
525.694641 613.795654 -492.613098
695.837402 614.182678 -492.263702
458.557678 679.761353 -385.810577
272.004974 591.863342 -444.469879
800.872253 755.079285 -444.735260
710.343323 747.362976 -339.792358
628.840698 651.921570 -451.479462
674.883301 673.703979 -437.024750
458.610809 539.836365 -611.023193
680.096252 574.353271 -507.457825
439.973480 535.213867 -618.511597
401.679169 638.247070 -424.724030
489.480896 755.565369 -263.601044
609.541565 542.626709 -589.133911
438.638550 520.392578 -624.426880
696.546753 672.685303 -441.834290
693.654419 758.932190 -308.967621
424.507660 571.765686 -555.325073
654.764648 782.894409 -256.195038
336.450409 604.733887 -423.213867
535.311829 663.842896 -412.260529
477.414001 526.245972 -664.701233
467.666656 695.965637 -317.092499
425.381989 655.572693 -398.677216
605.030518 711.572388 -367.290283
635.418091 620.502014 -537.162048
428.343842 620.351624 -443.547668
685.554138 686.476929 -414.254913
324.313324 577.633301 -471.125427
460.705780 695.763367 -366.572235
291.844940 591.216492 -436.495758
393.093781 622.593323 -467.636047
521.729126 651.730469 -447.343536
276.613678 585.118713 -488.501892
300.389191 579.931458 -482.343658
690.699524 726.418335 -356.856812
316.374268 565.624268 -538.504456
337.148834 642.264648 -402.518066
637.184753 728.949402 -348.013824
296.922638 583.864197 -488.184967
291.860870 613.712158 -458.849152
371.024780 646.074036 -371.477783
401.428284 607.172058 -459.652740
578.268188 579.433716 -558.399292
410.124542 542.549805 -604.823914
628.536926 570.270203 -577.048767
637.614075 745.430542 -305.161804
598.357971 781.107361 -253.561508
650.069153 765.679443 -256.578339
636.193359 669.573364 -413.782562
457.101013 546.146057 -578.058533
462.970825 695.402466 -355.695526
536.813354 761.164063 -244.133148
440.649994 532.434570 -572.233704
691.704590 734.830811 -339.209259
620.376526 749.228088 -292.122101
329.033936 598.553528 -481.040405
506.428406 568.412170 -565.573792
600.165771 752.242615 -241.076523
289.578125 574.003906 -518.011047
538.658752 735.404236 -311.720642
338.330658 605.978394 -460.488342
490.710785 637.606445 -466.007660
341.011749 658.863953 -384.353485
591.901123 672.814453 -413.740326
575.577393 594.486450 -528.627014
617.522766 671.764343 -416.964172
454.524292 639.269958 -429.136566
737.119385 700.068542 -428.221039
474.324432 556.198120 -564.538574
332.096649 550.500916 -542.960876
628.302856 611.682556 -546.807373
543.774658 663.617798 -441.240265
656.135193 662.775513 -453.708221
658.686523 587.449341 -520.291077
468.868988 644.261902 -424.419525
578.267456 640.736145 -428.823944
469.513763 668.287903 -414.214813
302.215973 585.115295 -483.001801
634.422913 587.390991 -558.993408
502.037323 544.610657 -633.347961
810.297668 752.566223 -374.992859
549.303955 765.968933 -240.764816
723.056885 765.840027 -311.245941
584.027039 720.860229 -300.256653
290.188019 581.330933 -500.634338
506.310364 687.014832 -369.938538
482.688171 746.223022 -270.272217
312.262787 575.934814 -544.428711
552.918335 793.075256 -224.591110
502.724579 743.117737 -275.042603
437.783478 626.163574 -476.687958
327.802216 570.864502 -526.649719
492.848480 558.128418 -544.654785
428.897003 716.305786 -325.328735
603.162048 766.230530 -276.429657
607.304321 755.134583 -291.843353
626.775818 583.752380 -564.395752
416.461700 601.043396 -507.328217
697.721313 633.561584 -506.463562
442.789459 607.107971 -480.537964
604.600952 638.031494 -471.443573
641.424866 675.615173 -388.274628
502.260651 581.005066 -541.817932
456.275970 521.272705 -640.810242
785.934998 754.219543 -393.529297
417.874298 626.312256 -466.404388
639.439026 806.434814 -220.119568
375.282745 630.791199 -422.172668
730.546448 674.121094 -486.784607
523.002747 736.974548 -317.494873
645.179260 661.961121 -434.779724
571.473022 647.318054 -444.383179
580.339233 781.201660 -239.265869
585.059753 739.625854 -300.920471
345.847565 576.005005 -509.725647
511.533691 758.523376 -261.049683
647.471924 618.852722 -544.752380
747.370239 689.480347 -489.848022
330.249695 590.902893 -509.218140
310.457428 611.238708 -436.499512
625.078491 777.462341 -266.798096
536.841187 689.054993 -392.555542
637.923584 656.956909 -432.543030
641.071960 670.785950 -447.879150
594.554932 806.163879 -215.897308
740.778442 701.297485 -485.634918
720.716003 738.310059 -355.685303
780.393494 731.222290 -453.890900
685.584961 765.245544 -305.352997
405.224548 577.022156 -539.743835
429.281372 600.910461 -468.979340
576.124878 638.082520 -472.822632
574.224487 752.526001 -295.508026
658.614136 608.256287 -537.870789
366.618652 653.159973 -382.384918
541.092834 793.398315 -221.476868
342.098053 596.864441 -447.861847
614.680176 674.344177 -437.601257
378.974030 595.334045 -505.108276
528.733276 564.079468 -559.357239
772.938416 726.867004 -409.504700
544.860168 700.456116 -376.601959
735.913025 699.355347 -492.012207
736.665283 715.822876 -346.474945
468.374115 690.498596 -358.514954
405.889252 540.334045 -552.329102
646.185974 617.323547 -553.595764
652.271118 734.193604 -297.735870
654.007446 705.788391 -385.835602
453.153839 714.873474 -320.642670
474.923004 605.407043 -519.326233
466.281189 602.160706 -491.654572
774.796265 703.764343 -448.816345
332.570801 551.203064 -513.354370
539.741394 685.184326 -402.568298
548.816956 572.309631 -653.133911
575.385498 768.680725 -276.496185
770.494812 709.490601 -360.840576
632.143616 686.589478 -412.461884
314.164001 625.030518 -416.801971
760.246094 720.914368 -456.822266
380.982239 639.600281 -383.863708
641.161133 582.458618 -560.193970
470.602936 631.666504 -439.707397
446.230377 728.377869 -305.879059
758.716614 686.187439 -464.482422
513.803406 626.173035 -489.997833
673.166626 703.471497 -398.836792
594.890686 571.110107 -599.912659
702.826538 585.550964 -510.310791
385.548828 597.299377 -492.181793
521.911987 716.853760 -327.685638
605.000977 562.309021 -586.970154
679.429138 766.752502 -259.481384
776.933594 733.610718 -420.988617
697.528809 684.828186 -418.174805
482.007965 656.463745 -414.846680
418.429413 664.557129 -390.920654
731.592529 628.226685 -492.270660
646.080261 710.480652 -368.097717
320.045013 611.198608 -443.058350
449.770660 670.111145 -387.302704
404.383087 614.571716 -469.845398
424.515350 648.052734 -408.842041
636.014893 731.159424 -329.701813
559.511292 802.628174 -205.269409
498.658600 733.045959 -289.511261
503.398193 756.165222 -254.739059
652.641235 718.630432 -367.267365
369.405060 591.070313 -486.745789
301.274109 586.674438 -497.231689
446.717468 560.777100 -560.590454
570.645325 773.759705 -262.288605
489.305054 738.234680 -277.525330
497.016663 688.143494 -392.242737
596.083374 783.770203 -253.330673
593.304077 771.830750 -263.919922
497.726501 610.217224 -484.339905
620.123474 633.830200 -472.114502
336.213989 595.962524 -488.520721
742.103027 703.834473 -491.634827
592.065857 588.149902 -607.308594
539.794861 687.956055 -374.960052
766.262207 706.921082 -363.817474
572.960754 624.929321 -498.671448
445.562653 513.538696 -641.687988
554.606567 658.097961 -444.862976
282.847931 611.697205 -441.153656
467.348328 707.955444 -337.859283
429.372681 672.621521 -371.881012
391.282959 563.626587 -537.539856
653.589966 709.966248 -327.032440
650.706360 727.942505 -304.595367
609.555237 621.345947 -545.494263
644.803223 673.096191 -420.518768
427.909698 511.522858 -624.678162
495.490295 569.573425 -545.916321
624.807068 660.460876 -457.219666
665.248962 562.337036 -528.845337
609.836243 754.902466 -307.347504
537.072937 769.272827 -233.917755
349.582336 653.156860 -388.223999
719.197998 734.967468 -347.182495
594.121094 768.070801 -250.733200
504.405609 697.589905 -352.500488
411.627441 529.630432 -603.698486
419.511841 558.825623 -581.616089
275.944336 615.819580 -465.637756
550.280334 547.033203 -599.408997
422.960510 676.008850 -365.586578
291.291107 570.864685 -488.010315
382.578918 654.537415 -384.743469
574.391907 588.434937 -542.619568
322.065582 595.397888 -466.969208
582.421143 775.637817 -259.311462
280.348236 577.240051 -504.627594
314.701721 588.499695 -473.102448
684.525269 651.724548 -500.992950
434.144043 611.276367 -491.837708
509.539032 681.398926 -372.841705
395.872772 579.355103 -493.021637
709.518982 741.355774 -340.428528
673.575378 756.556519 -319.986816
508.700531 756.419922 -263.491943
324.482971 560.401672 -517.825012
453.648895 681.338745 -393.004852
675.027161 617.828308 -512.721924
457.762421 621.178162 -463.660065
528.461365 765.085754 -261.189148
383.786224 636.497559 -397.550079
543.414429 579.204956 -575.727051
537.004700 669.399780 -430.585205
561.607117 703.863892 -355.826874
526.964600 656.685425 -448.985046
391.594788 554.362976 -548.482300
392.778870 534.629089 -579.585327
429.106995 659.697327 -392.503906
527.013000 636.441284 -471.344360
367.474976 679.410217 -376.269501
401.317749 662.400269 -361.772919
664.047668 761.115051 -297.686066
410.360535 541.895203 -595.653320
746.161621 654.308533 -480.897614
450.466339 672.559937 -385.189636
652.781738 733.622559 -320.733490
379.507813 600.797302 -476.147461
488.487793 694.349609 -352.442810
724.734436 586.456299 -494.482178
577.675720 797.400146 -209.893417
413.463806 618.962036 -416.725159
636.117065 692.619446 -390.697754
395.887482 632.667542 -432.336090
571.534302 564.386475 -627.122559
716.099304 648.852905 -491.641968
660.896545 606.550598 -539.484863
619.381775 647.288391 -429.063995
641.564697 777.598083 -263.225677
595.855225 816.191589 -170.437393
721.828125 716.502808 -370.642670
636.390381 704.643005 -384.986847
467.157166 612.776855 -449.825104
511.576050 570.186279 -524.628479
484.774658 722.113892 -303.214874
570.417603 583.133972 -559.108459
497.248352 703.968262 -332.592712
627.851440 788.504028 -247.988754
651.440918 743.010620 -308.096649
484.687164 633.442139 -472.901154
441.286072 553.534119 -563.060547
446.674347 529.260376 -620.468201
572.714783 714.309021 -353.466248
384.095551 562.968323 -537.270996
528.587341 747.371765 -290.356720
688.826294 693.213745 -402.694946
329.543365 592.383789 -477.309265
614.043579 538.826965 -582.634094
542.236023 771.878967 -256.284027
388.839691 594.706177 -488.300476
694.591614 620.092285 -499.395721
703.752808 729.744995 -353.007660
425.304382 554.595459 -523.528992
773.287903 701.248047 -435.205322
471.832794 607.241211 -489.665436
363.919464 544.947571 -584.361206
334.319122 624.194153 -423.295807
281.528076 626.386047 -432.312988
537.577576 696.127930 -381.691620
415.809326 625.223816 -447.267181
631.008240 679.797363 -423.031036
454.683136 509.811920 -627.402161
615.483276 611.901794 -532.701416
693.341675 726.968262 -355.451996
313.085846 586.650513 -514.637573
554.943298 739.650146 -309.497192
623.402771 707.117615 -379.825378
494.898621 547.412476 -658.857544
571.419006 611.785400 -510.445648
499.912170 597.605652 -511.974945
514.148560 773.090454 -237.131256
439.600586 626.175659 -439.479797
587.813171 588.158142 -602.978333
538.773804 787.996826 -234.495438
527.090759 759.256958 -246.162292
670.182190 715.782593 -360.764709
324.806610 568.433960 -548.835388
720.010925 601.176392 -495.336243
462.907349 662.635315 -370.755524
718.566284 716.608459 -382.591736
656.137451 724.637207 -346.493011
343.618103 625.822510 -453.542938
552.405640 723.802490 -317.593964
695.354675 658.304077 -487.825378
728.530151 614.051514 -488.716980
406.235840 640.955872 -441.933441
375.556549 585.530701 -514.597656
649.344666 733.147705 -323.904907
445.503174 659.545288 -393.705139
404.057434 704.466797 -340.992493
422.747620 646.005005 -433.185333
669.934998 618.224609 -525.965515
423.688690 699.070313 -353.388855
737.133057 710.626770 -505.715607
327.769928 613.977356 -444.620605
405.168060 699.653687 -333.154724
518.182373 770.157349 -236.797821
271.550262 595.859619 -513.836853
400.502533 690.540039 -359.168518
313.876495 600.684326 -441.895538
505.727997 701.629395 -316.303925
720.176025 584.157959 -470.974548
575.862244 663.311584 -427.730103
609.659729 636.391174 -474.555481
328.499237 564.019104 -539.846924
551.562927 675.117310 -408.976349
571.373047 777.987244 -214.140045
547.780151 789.678894 -194.077927
541.456238 715.277893 -356.185272
382.655823 554.482849 -570.816162
676.435486 750.189575 -302.579041
401.754059 703.306335 -338.801910
449.427460 722.074463 -298.141571
651.891907 584.526917 -534.255310
416.900696 677.571838 -378.981964
493.836456 673.802124 -396.118256
751.242676 751.998291 -331.541901
651.997559 665.780090 -444.880829
669.655273 577.088257 -535.897644
570.751465 738.249390 -325.164063
741.146484 672.984375 -486.556335
426.303223 685.619202 -347.244781
604.065735 592.621521 -568.856750
509.985321 727.911316 -294.753723
441.950256 552.158569 -589.787109
472.432953 721.503540 -314.635834
396.038940 542.548889 -547.006287
645.263000 752.108948 -292.442322
672.467285 629.227234 -506.529663
604.219482 763.172485 -263.671600
457.617676 560.037476 -586.668518
503.500580 634.514343 -469.445587
557.108765 775.859680 -210.921021
415.277832 597.841919 -487.299377
379.851257 660.908752 -387.284149
597.381287 571.617310 -600.047791
306.551971 571.178223 -494.873413
587.066406 670.154663 -418.750763
316.914215 627.955139 -444.124939
543.684326 581.037720 -542.915222
354.013824 654.598450 -397.567627
357.537903 671.355347 -373.303101
608.072021 552.841187 -601.770203
673.000732 754.959961 -310.235870
605.300110 669.439209 -422.091370
661.619385 687.181519 -404.893463
771.313782 700.494568 -460.255737
582.324951 649.607788 -450.615265
566.392883 776.686340 -224.845367
668.531677 712.494324 -365.507660
731.922485 737.624268 -346.935699
528.475403 627.358765 -486.387024
445.493317 533.136658 -600.873291
405.448822 581.612488 -496.049927
