ply
format ascii 1.0
element vertex 1408
property float x
property float y
property float z
end_header
322.920807 579.950073 -559.885681
587.313416 510.424805 -671.907043
314.977936 631.844299 -478.231262
279.044159 619.876221 -488.053192
282.678131 552.688354 -568.920227
542.429260 731.110535 -384.125061
480.096649 663.710938 -458.774994
536.637756 582.444641 -620.089722
581.648987 674.458557 -433.274811
642.062622 707.525818 -465.656830
664.810425 632.693359 -569.882507
339.860077 483.740631 -704.649475
498.714996 600.830383 -579.064392
449.882965 612.259644 -533.352600
562.424805 706.653870 -441.676666
470.553497 621.793091 -530.496826
677.321716 697.295105 -451.494049
636.840149 634.651245 -520.328796
519.147217 523.884460 -694.787048
356.527710 510.880096 -648.871643
446.794678 549.081238 -624.601929
601.393188 718.876892 -409.783966
693.063110 693.115967 -497.223663
740.642883 675.499756 -530.447449
549.089294 506.470398 -687.383545
478.807587 526.325928 -754.788940
261.539124 534.211365 -614.064026
391.202484 548.879822 -635.758301
236.328110 554.862305 -558.434326
346.470917 623.307861 -507.575714
597.228455 740.246460 -390.799713
265.899414 576.816284 -546.278564
477.770447 675.221619 -441.206940
722.069153 661.581787 -592.163391
590.826904 639.177917 -547.778503
247.328293 538.776306 -591.464905
537.047546 715.814880 -418.567749
333.493317 488.011536 -692.685669
576.773010 741.126709 -370.076874
688.409485 650.261475 -547.261047
441.860931 682.141235 -433.514465
533.896118 571.624878 -636.261780
448.734955 526.667542 -651.978394
379.542084 581.065125 -542.437988
571.057983 591.588257 -600.322754
378.544250 496.452240 -702.385010
580.691223 755.950134 -338.556763
659.440857 586.619080 -644.980591
403.577179 520.169739 -655.637878
638.100708 734.433228 -406.105927
438.775604 659.124207 -474.517426
366.926025 473.329376 -728.876892
366.424713 618.812256 -488.728027
725.072021 666.389893 -631.401062
451.108185 523.745422 -727.517700
340.379425 499.142242 -664.445618
534.758484 490.903381 -709.548035
588.757690 575.260498 -650.940430
617.802856 554.691040 -658.703979
364.559967 591.739563 -529.903748
488.897369 647.423584 -495.700195
601.647766 757.510986 -351.623108
695.522461 680.440979 -495.667694
368.834900 578.277039 -518.926270
489.415039 669.852417 -474.810577
485.675781 524.523315 -731.624878
607.713806 705.540710 -444.023804
598.001282 612.379333 -584.982971
659.635620 696.561401 -475.635315
576.885925 623.617188 -554.797729
299.206482 586.752136 -519.536072
589.936646 703.508057 -428.427002
397.534058 594.245117 -523.539185
294.649475 489.039429 -628.355347
458.537079 691.176819 -427.910828
387.536530 505.024078 -668.070007
296.861511 600.681580 -522.513062
250.835510 532.843384 -586.877747
354.025665 486.885986 -677.975525
681.952026 604.538696 -644.307129
347.554810 596.625916 -546.045349
325.613617 523.799805 -646.783081
596.358582 756.033936 -366.908386
581.909302 667.976074 -444.485718
466.478149 534.505066 -685.780029
285.262146 616.655762 -472.628693
365.961731 531.214966 -653.471436
438.642242 642.514709 -478.462585
438.442230 548.632324 -626.203430
589.906372 632.765991 -543.866516
438.351318 514.473267 -751.370361
468.315125 518.236755 -684.087585
399.019714 590.752869 -564.928894
587.151001 670.177490 -502.422729
298.906372 567.324768 -571.896484
496.407501 734.556885 -364.066040
296.647308 623.829346 -486.604584
647.647583 627.898682 -578.360413
613.644226 502.523041 -645.949036
293.262665 530.968872 -632.482544
688.245300 608.818726 -645.273132
495.559692 686.839233 -421.593018
387.303894 490.588348 -792.219971
660.029419 693.828430 -493.060791
339.216095 610.252625 -501.420197
558.548218 689.074097 -468.231750
261.114746 588.971191 -535.048523
327.849945 613.590149 -509.700714
491.957214 540.352356 -634.549805
509.879089 535.072876 -687.226257
608.287781 630.056763 -537.886230
269.199585 565.245117 -536.008057
457.477783 524.753723 -764.958679
574.744629 602.555542 -571.534363
234.238068 591.873413 -504.180634
402.510925 556.502197 -596.241699
660.229370 663.129883 -484.790131
237.049973 555.780701 -558.223450
635.809570 747.963013 -384.607971
199.597763 556.368103 -558.176514
647.132690 605.248962 -632.814941
627.496765 710.053284 -445.028625
612.078674 665.571472 -514.081970
249.541824 581.772278 -509.265411
423.469421 521.519470 -654.197144
663.283203 565.485779 -648.588379
648.406494 652.083923 -537.369873
595.672241 708.271667 -394.655243
639.841919 590.452515 -643.835449
299.962402 596.043945 -503.886230
406.271149 633.214783 -488.221954
588.388245 489.384949 -663.894043
461.756775 567.908142 -595.715332
490.022797 620.947144 -546.980774
312.133484 531.979675 -639.397644
600.961365 670.752686 -493.680908
577.663452 751.790100 -331.375641
551.624756 641.787170 -519.721497
529.189087 511.849091 -715.175354
435.644836 645.468628 -471.507385
421.921783 535.128662 -660.968811
546.759338 504.076233 -697.294800
587.679321 604.455627 -605.232727
575.959412 692.346497 -402.483734
342.245209 603.523560 -506.108337
584.990356 491.782227 -676.326416
551.432068 612.000549 -568.316956
439.633240 669.521240 -447.920227
552.704163 755.346741 -343.306274
525.357727 730.601318 -383.909180
413.837494 638.413879 -462.536652
324.812286 516.963196 -660.799438
472.457520 570.715759 -572.859985
529.986206 706.564758 -378.177582
725.716309 670.395569 -550.579224
376.771210 638.205017 -438.497437
611.347595 722.462463 -357.514191
574.909241 644.070251 -488.382629
399.581726 609.877686 -537.883728
364.008972 493.130280 -685.881287
591.904419 498.328583 -673.043701
478.460083 575.127991 -613.177979
618.305847 528.832825 -670.461731
566.872620 659.510864 -492.603027
431.192413 643.528931 -463.229370
231.278717 557.133850 -540.618225
497.157013 673.182251 -457.215332
654.439209 637.537170 -549.934204
408.524048 622.631531 -524.139221
604.205994 722.797729 -421.735931
711.979919 646.959045 -539.786926
688.817444 662.487122 -545.191833
455.840302 627.435669 -507.252258
546.054504 742.414673 -369.496033
476.210419 604.671204 -566.682739
646.387756 644.270020 -546.938599
564.766235 677.913086 -457.590210
274.607849 552.377502 -559.484985
326.965820 534.675171 -603.967590
237.331482 511.267273 -640.986145
298.443848 507.083405 -622.467896
313.571716 507.697815 -676.988403
373.250702 578.128784 -553.668823
613.066345 682.075256 -481.915833
512.021423 577.443115 -618.481567
574.707458 723.873596 -411.401855
493.552979 627.557129 -513.329651
585.642334 647.170593 -487.117432
616.868225 617.063599 -589.847839
511.472504 619.982300 -559.671997
597.899780 758.387451 -347.856476
624.496216 617.003784 -620.094666
665.092834 708.862549 -460.083405
307.427032 549.129761 -557.110413
533.740417 663.770630 -494.429382
493.801819 674.387817 -471.312988
594.120300 674.261108 -447.003235
545.104065 739.603271 -339.160431
259.109406 520.990295 -650.180542
611.014893 493.617706 -647.749878
587.148499 585.170105 -629.950073
422.307800 495.446198 -689.285217
413.947937 590.029114 -525.252930
554.964783 762.203003 -335.927002
717.451111 656.200806 -557.613708
496.405701 692.357056 -438.516022
381.603058 613.673584 -527.456116
626.911743 703.175903 -467.335968
457.603790 606.554077 -558.783142
394.871216 585.067505 -551.458801
594.730774 474.727417 -651.944641
452.290039 649.390320 -472.769897
663.005676 645.274170 -555.812744
332.616730 599.586060 -509.970642
466.874847 625.052551 -509.499115
258.580719 570.741516 -532.005615
378.523560 461.520203 -721.788879
495.238892 534.443359 -665.620117
517.110718 569.419678 -588.587769
649.164856 573.551575 -649.442383
481.350952 654.310547 -499.366211
417.646484 539.289307 -646.828064
626.506897 505.271759 -650.152039
531.572876 582.515076 -618.552917
324.334869 529.186951 -595.141907
583.117493 580.274536 -654.399597
221.732910 560.802490 -534.578796
588.725342 680.399963 -454.543457
645.504700 728.228577 -422.037262
606.083679 555.454102 -667.512756
351.111908 603.363525 -480.143188
698.779724 688.954102 -500.429749
615.700745 556.779419 -657.804382
593.393433 495.507568 -666.419861
590.518921 688.176514 -424.289368
455.600433 651.503296 -461.817780
693.807922 663.507813 -536.825867
762.257202 706.490662 -597.026489
639.591553 682.647644 -500.242981
367.580872 639.880249 -457.739136
487.356354 575.463806 -599.173584
323.639343 550.210876 -561.517395
588.644165 543.897400 -663.919006
321.261719 627.545227 -488.018921
449.867432 694.667542 -428.287628
625.253906 646.845642 -546.257629
415.058624 644.112976 -466.515137
497.070190 675.395996 -466.302826
591.770264 750.076172 -350.322266
435.359436 632.651123 -465.073273
371.643494 460.086731 -712.075806
322.468109 566.973877 -586.892578
733.644592 674.452759 -606.343750
418.558472 562.552307 -622.579834
432.021820 527.915833 -665.602905
640.323181 655.473267 -530.351624
599.550537 552.387329 -662.030029
247.636703 533.931946 -574.599976
659.503113 616.349365 -563.481812
273.437866 580.735840 -542.290100
728.994812 681.782898 -519.027100
627.989563 699.935852 -464.791138
632.353149 553.377258 -634.813721
610.140503 716.732483 -431.857513
606.298462 738.802307 -397.836060
432.410004 699.491089 -405.857452
600.369263 506.434418 -669.022644
331.814636 546.960388 -587.816833
531.981323 596.408569 -605.423706
609.995422 749.046509 -380.032684
295.125671 608.978027 -489.198364
364.944183 652.506958 -440.923767
295.829834 594.009094 -511.138672
652.989563 552.643494 -648.262024
594.748169 717.332397 -393.766968
359.344940 451.376617 -722.930847
414.731354 574.770996 -573.003784
370.421204 588.019409 -542.423462
536.496460 736.603088 -366.056213
406.540039 614.070435 -540.192200
443.337555 620.029968 -487.126801
391.349579 580.311157 -556.087891
530.793457 744.981750 -357.329834
501.922028 618.109070 -530.014771
525.973206 692.735718 -427.503113
556.507019 723.689819 -405.419617
329.983124 533.724854 -608.938965
507.703247 705.553894 -366.072754
269.283356 544.186829 -596.689453
325.314575 529.292358 -614.451416
663.423828 618.452881 -606.301758
542.049988 478.918365 -697.365967
555.562866 600.347778 -585.301880
458.774933 635.582764 -505.174835
416.874603 610.105591 -529.290894
321.831268 647.439514 -479.904144
310.829895 485.913239 -685.765381
576.206909 737.746582 -383.601776
598.103394 640.410645 -546.890991
673.620361 600.373718 -648.518555
468.760132 709.301270 -389.898163
664.736206 649.916382 -504.379517
678.667664 605.640930 -647.774841
440.359100 683.700989 -408.226685
369.122528 612.201599 -506.964539
329.781982 528.926697 -601.589355
697.197266 662.906311 -505.115356
534.778442 606.260986 -565.551270
545.768738 679.799194 -454.490631
555.916565 743.582825 -377.343353
638.186462 737.475098 -399.404114
322.916290 611.754395 -470.970032
602.841309 751.807373 -373.329132
657.697449 574.764221 -640.915222
553.400757 495.802460 -678.932983
511.800568 605.297180 -585.868042
613.490112 664.441772 -524.978271
467.382446 593.276001 -559.824707
573.750732 685.099548 -462.279755
460.883820 630.767334 -507.539612
601.604004 639.621094 -551.131287
538.149231 660.708191 -506.194427
423.373627 530.284668 -661.642700
669.012146 681.408447 -491.618591
625.647705 610.004761 -625.125305
370.935242 519.161377 -674.621643
505.931305 647.959778 -508.165680
519.309326 671.124939 -479.873993
495.059784 724.332031 -368.057465
584.686829 588.137878 -597.852905
450.584625 675.866272 -430.316742
694.245178 655.086060 -552.514709
352.611725 508.151031 -651.915894
422.385376 573.336914 -576.364746
391.121765 639.126526 -464.684357
315.574554 629.023865 -471.282288
471.393677 579.092712 -604.260010
632.734009 666.639404 -517.089172
293.176361 590.227600 -511.736969
313.970764 607.921082 -488.674561
687.338440 701.356812 -472.522919
599.686462 563.690613 -657.221741
501.735687 498.779022 -737.242249
188.098984 552.007263 -524.997375
464.707062 648.308655 -472.418243
292.458923 509.726044 -628.348816
599.308899 697.014893 -443.150391
406.545288 630.190552 -471.798492
392.928986 545.741272 -629.256348
515.043091 560.068237 -641.265869
242.680786 555.434143 -561.131592
304.823730 603.769958 -500.118622
415.437958 650.101318 -480.893188
462.706238 688.413635 -434.293152
551.975098 730.856384 -349.316559
642.203918 625.257507 -621.187927
719.577881 682.496765 -507.120483
319.242432 551.518127 -566.609314
420.732269 602.285522 -558.621948
592.688599 723.727661 -400.798584
525.711121 667.400635 -436.166168
277.168671 498.115753 -638.376953
231.322205 579.933350 -535.466125
535.323975 513.602783 -708.379822
577.413025 495.578766 -682.976563
581.655945 476.026581 -658.973145
241.279495 552.478455 -525.335083
618.942871 583.180603 -643.656006
445.590302 641.391541 -505.097900
574.007813 614.455505 -580.282593
280.750366 535.359863 -622.315369
438.002228 655.359436 -480.540527
555.395508 585.539307 -602.657837
675.035095 579.721741 -644.463745
487.575745 553.929016 -625.845276
383.490387 497.220184 -687.798096
543.587341 559.377808 -686.500977
462.387848 667.951416 -459.949982
373.609558 474.293549 -765.230530
422.134979 561.049072 -615.565735
310.638885 626.024475 -469.740753
475.827148 720.688904 -393.461975
443.660370 583.906311 -578.457886
517.360962 658.812744 -487.109802
566.051147 740.337891 -353.211639
392.406128 617.273682 -525.672607
264.522614 557.853943 -583.171326
263.102539 531.351196 -588.014832
571.431702 779.952942 -332.755707
550.133484 610.482666 -563.586304
259.178558 562.190491 -524.074707
367.324066 651.777832 -463.545685
658.419556 593.711670 -635.989746
348.465179 613.030579 -523.344971
570.436157 731.590332 -390.583801
441.804871 609.440857 -536.013062
655.527649 627.729370 -625.039368
452.162628 667.174011 -457.023834
465.239624 538.319641 -664.846191
560.870300 654.988770 -506.504761
599.937683 693.128296 -475.872650
595.993774 748.162842 -363.763123
697.763000 640.558716 -583.767273
609.898376 649.733643 -540.685608
669.987000 675.565063 -512.760620
519.914856 552.991272 -641.896973
775.189453 682.636597 -549.609070
717.888489 664.477844 -626.755432
579.646545 736.383118 -373.773804
369.740479 579.315186 -535.538452
507.176636 540.200989 -694.936218
511.171204 539.442627 -702.750854
685.917603 692.667725 -491.651093
404.231079 541.677368 -618.454041
382.948486 507.385437 -634.328796
593.302368 593.250488 -635.546509
574.421204 731.040405 -380.301361
451.656647 570.532776 -589.594482
486.700043 645.388794 -492.923462
558.054565 741.804993 -379.975647
379.686493 515.829346 -651.442017
700.153259 645.746338 -606.684509
460.055603 566.438232 -609.651794
594.332153 759.921631 -344.687286
559.856018 668.100037 -493.136658
569.901001 739.195618 -390.417450
506.852386 655.229065 -473.394012
650.027710 634.980530 -524.580872
318.334137 565.303711 -535.362305
616.352234 537.152161 -647.051880
601.582458 570.446045 -677.301453
250.810928 544.917053 -572.276245
324.487366 488.758850 -669.982788
519.628784 658.190735 -481.920837
650.258118 560.220215 -648.134399
440.960663 671.838440 -455.183929
532.261963 640.803955 -513.285828
500.767303 637.665466 -504.753998
504.556274 684.836365 -404.372101
315.653534 582.718811 -539.971252
551.236938 587.335388 -618.662781
228.245499 525.730103 -589.051025
508.295563 588.598145 -605.714478
654.023499 717.179199 -433.342834
636.255859 576.938477 -644.618164
246.353210 584.374023 -529.311401
305.871246 502.605774 -612.121643
367.697662 514.505920 -677.823242
668.071716 630.076538 -570.408325
337.328186 597.706909 -519.103882
597.858154 623.620483 -574.022949
587.891968 698.753357 -453.635712
649.883789 624.792236 -563.968994
408.252930 607.167847 -541.772522
395.002380 596.733765 -536.261169
615.932373 640.018127 -555.556396
590.197449 594.712646 -640.098694
357.630157 643.488770 -457.346954
481.769226 578.202087 -600.872864
549.877441 702.413879 -419.076630
243.795731 590.838257 -523.902771
379.186890 615.505310 -498.313232
526.875549 521.677124 -703.440857
458.078186 670.102417 -449.378815
360.507019 549.896362 -580.487305
680.130310 671.196167 -519.582336
682.418030 616.005371 -635.620300
367.371338 465.701935 -717.648804
591.158264 748.090454 -380.506042
664.660583 531.382324 -630.510376
523.257141 666.187683 -427.430023
405.992035 490.806396 -694.066711
567.451416 702.508545 -425.525970
614.865845 622.767151 -583.206665
516.948975 573.817322 -611.361328
705.717651 653.890503 -555.357239
584.358582 527.366211 -686.682251
327.533203 543.512756 -603.905701
591.915527 526.028625 -674.470642
451.167511 620.579224 -511.278748
528.127991 730.696045 -360.221832
427.753876 524.595215 -636.402527
657.906433 679.783203 -485.127533
619.644653 708.845886 -429.269531
616.642578 622.793701 -569.610840
316.870361 595.457581 -513.513306
460.657074 683.989502 -427.335632
609.692444 711.657471 -448.713562
382.148712 599.766174 -522.730591
617.797791 709.947388 -440.145447
436.715820 685.407593 -413.785675
382.294861 658.970154 -436.607635
538.460022 514.759827 -695.557678
529.331421 722.373291 -406.071655
481.615875 723.331238 -374.707397
689.478638 690.227600 -499.448792
593.885986 698.273376 -430.720367
477.542725 605.438721 -543.623962
613.795471 712.996338 -406.822845
564.022339 716.862732 -425.078766
358.601013 478.181610 -689.285706
380.732849 586.877136 -547.576355
544.878784 688.325439 -440.434601
550.571045 619.545532 -550.947754
231.491196 546.603943 -586.662354
423.349884 616.708557 -531.470581
544.289490 619.355042 -552.895020
626.572937 649.824036 -496.874634
353.653625 600.886963 -543.394165
223.826767 543.981995 -574.204102
341.553802 491.090729 -687.265442
590.436829 708.825989 -431.863342
262.273071 517.510681 -647.940796
338.804199 642.276550 -480.422180
296.338715 541.143982 -621.955017
650.359741 621.286072 -571.919678
320.862335 512.529541 -639.716980
679.833862 651.071167 -645.880676
472.160858 683.076294 -432.435272
475.424866 659.866089 -485.229340
404.279175 559.026611 -570.718628
602.573486 694.134949 -463.155090
434.738647 639.574768 -504.244659
436.077606 536.338013 -655.160828
590.224609 612.312073 -584.081848
520.109192 626.331543 -531.988281
204.047028 572.166443 -528.209778
381.281616 509.434082 -659.332581
661.650269 625.327209 -598.745239
637.192688 640.952698 -557.580017
350.725494 550.857727 -611.154785
547.304138 566.896362 -665.510071
602.810547 589.190857 -629.746521
512.184509 569.006714 -606.562378
566.103638 645.098083 -538.417175
514.935974 706.821228 -393.090088
573.201904 556.866455 -673.458191
261.511780 504.736450 -642.977417
616.911987 758.238464 -361.744629
373.815704 463.262482 -732.942261
452.395355 647.492126 -466.017395
667.911682 612.459229 -649.662048
488.742462 674.389832 -447.168274
634.579895 603.769104 -644.549988
230.156784 552.250000 -572.243530
312.761658 480.452148 -697.951538
638.947876 718.320313 -443.869537
510.651672 661.452087 -469.991791
511.805664 544.789124 -656.129761
663.890076 689.515686 -468.172974
321.328125 623.604431 -492.040039
697.613586 711.379639 -467.808655
574.728210 560.595398 -645.238831
563.911499 606.586914 -590.015381
321.165985 613.725220 -508.315735
565.166260 709.983643 -430.699524
581.862244 737.686646 -353.390015
611.560425 575.632263 -650.696228
700.531067 667.193115 -525.242798
383.293213 598.999878 -519.244141
578.458069 643.349121 -512.679199
344.194977 491.873383 -702.844116
458.643738 718.433105 -383.074463
281.071289 548.817688 -599.096863
587.812805 536.627502 -674.832031
585.162842 687.029785 -447.640747
487.711365 528.208679 -678.079895
425.034698 556.806152 -606.838623
543.226074 573.717285 -632.993042
358.808228 608.266663 -502.586334
469.362457 665.503052 -466.758057
358.769379 534.611877 -624.683350
550.744568 672.158752 -492.078857
626.743896 725.256958 -425.448639
552.438293 689.925171 -433.869598
381.172058 510.310150 -679.565186
279.994324 561.772888 -564.011169
410.232544 617.178894 -536.344360
659.174255 664.889160 -521.518860
626.171265 646.535828 -533.916931
597.122864 668.445251 -505.914764
494.336914 645.701782 -494.837860
533.935608 733.107178 -359.340790
580.078308 714.851013 -408.673920
327.165314 644.805359 -453.850372
408.060577 584.513428 -580.508606
532.428223 625.918335 -541.676880
416.136475 514.703247 -662.031494
631.263672 712.932983 -436.647888
536.382996 566.467346 -643.341431
387.497925 667.740234 -429.625580
452.036163 657.869019 -459.552704
667.288452 693.377502 -488.496826
672.156799 641.711731 -594.790100
629.289063 622.317444 -575.965027
350.799957 597.666199 -517.158813
547.008057 575.643311 -646.845215
335.542389 603.269714 -504.079254
608.941040 603.803101 -605.494141
684.313049 661.231445 -506.066803
608.567261 631.823608 -559.656189
589.928589 621.406494 -558.260254
386.513214 500.759216 -674.259827
197.505829 546.978271 -562.351501
622.028687 674.964417 -482.165344
706.368164 658.701782 -632.572998
518.962463 558.442139 -646.471375
642.694824 653.794495 -526.736938
381.829773 577.977295 -578.839539
625.715759 719.629883 -422.368561
602.462280 726.989380 -348.766083
495.469635 544.432800 -643.944885
311.129822 492.380219 -662.414551
595.797302 731.389648 -388.177704
482.249512 647.827454 -507.281586
549.650574 674.098511 -484.287048
509.831207 688.152344 -454.406036
586.285767 648.725220 -528.750366
397.264771 556.790222 -583.215576
573.414001 556.721924 -665.978455
550.112061 761.283325 -348.445648
555.345886 634.921204 -525.757935
552.190186 654.623718 -513.278931
461.995575 669.664673 -443.227356
413.338898 601.744080 -541.030273
326.723846 637.675842 -452.120544
600.007324 614.729919 -576.513062
276.514984 556.659241 -584.932678
581.219788 592.151306 -633.146606
389.303802 638.626587 -496.803314
463.946716 622.245300 -517.074219
503.147552 720.039795 -397.448822
639.401550 676.342224 -449.334045
531.757751 656.169800 -495.691589
407.247772 670.836853 -421.068420
493.145752 713.307434 -399.009399
292.525482 585.892090 -518.116455
404.686188 517.378601 -654.188782
458.490814 674.936279 -433.065674
591.833435 690.524780 -464.283966
662.273926 628.295288 -651.575317
244.946060 593.145996 -497.971741
671.765991 682.941162 -504.923309
285.007507 486.057617 -666.797058
603.274292 743.312805 -376.040131
567.764709 717.554688 -385.362488
473.312805 687.731140 -407.471741
233.101913 582.097351 -508.060974
586.203918 692.437744 -465.614655
369.074005 518.703796 -642.969666
425.066193 501.337372 -671.322693
473.270325 568.771667 -605.570435
421.151031 526.593689 -646.401917
527.528198 696.005005 -442.713531
667.115295 705.358826 -474.663483
446.328369 533.789490 -644.783813
396.867950 579.497864 -587.385010
585.974121 582.702026 -657.631470
411.752502 616.349182 -531.876709
252.151657 505.498352 -598.740417
383.762360 555.372986 -614.039612
585.579285 770.347168 -330.913788
436.306702 650.951355 -468.106750
575.016846 708.611755 -438.457611
505.182556 573.676575 -602.294373
483.475006 682.382751 -451.110321
539.310425 573.397339 -642.653992
354.064636 532.828857 -599.616333
418.926666 608.146545 -525.773682
532.055115 528.858215 -686.203674
413.001770 695.486572 -416.074921
624.900940 711.801819 -438.855804
432.801117 650.484558 -421.138550
209.740921 568.353882 -524.582764
208.642197 564.131592 -529.540283
429.009308 495.593903 -672.490784
416.313995 577.072571 -577.780701
420.489960 528.241699 -646.278259
623.728638 692.376282 -475.443146
234.608582 547.292847 -550.070129
499.677460 697.656311 -417.886627
566.618591 476.548340 -686.405029
357.966858 648.559937 -462.669495
431.247559 661.494995 -459.588318
523.288208 554.719971 -663.338318
340.285553 477.449371 -734.466492
624.011292 672.761414 -491.044556
367.009064 607.303833 -507.556641
697.190125 624.124817 -625.266113
272.744812 600.992981 -523.105652
488.380524 528.664001 -681.970520
556.492188 690.361755 -461.324371
526.662720 607.883972 -583.576538
347.324432 571.957031 -556.040222
633.364624 586.666992 -627.819458
527.970459 636.298462 -515.331543
542.897461 686.226746 -458.845947
594.292542 509.504028 -655.852966
629.614868 677.315796 -453.502502
406.531219 573.709045 -580.148010
472.807159 674.262695 -463.943207
639.573914 554.074707 -649.625488
383.638367 502.688568 -693.397827
509.922760 704.530151 -410.237640
449.409485 510.743164 -676.589111
197.349854 539.732178 -561.304688
432.473145 586.701111 -558.963379
565.294495 583.126709 -646.535034
628.001587 506.692261 -642.910522
321.984100 501.454285 -633.740356
583.946533 518.100464 -677.739258
467.526855 580.466370 -580.405334
604.028259 717.521606 -409.561615
722.536194 697.394653 -504.837067
510.928406 544.065918 -657.514526
653.920898 535.209961 -630.584717
300.707916 546.057007 -578.215210
471.384949 635.626038 -522.908264
418.139984 693.738342 -403.565338
605.066956 696.158691 -465.645020
501.733643 620.659790 -531.984436
643.567810 704.315613 -468.018677
653.493164 546.620789 -649.656677
544.224121 713.229187 -425.115356
579.311157 757.492798 -357.849182
617.387207 712.951111 -446.705353
351.197998 535.449646 -645.741272
589.369751 693.148438 -472.261780
463.353210 675.981201 -432.508514
523.946716 684.088684 -431.553406
262.665405 512.475464 -620.313782
285.498657 584.406494 -503.285736
248.631760 511.238129 -616.439636
462.191254 552.740906 -617.895630
466.603027 560.381409 -584.829407
246.819458 528.187317 -582.745728
590.620422 650.567932 -515.039734
424.209625 517.590515 -684.500977
661.440979 549.577393 -640.096375
544.968750 686.386292 -468.045471
493.122955 601.629211 -582.368225
553.346375 543.434265 -685.866943
266.414429 524.965881 -620.260681
365.152435 604.571228 -493.123535
506.239929 539.105652 -679.586975
449.749084 531.148132 -646.005371
626.492737 562.399292 -651.721191
377.197418 526.059448 -640.090942
460.569855 526.504456 -662.286133
482.592133 718.821594 -380.183075
554.578308 510.060150 -679.839783
610.084717 539.808655 -649.281616
323.403168 519.853455 -633.721191
653.941406 666.535583 -500.986938
513.401123 515.301392 -721.285950
482.948944 543.076355 -628.907898
485.636749 669.735535 -460.360352
335.368378 544.989868 -617.931702
321.652161 531.134033 -610.495056
512.491150 560.827698 -657.832764
582.354675 661.428772 -455.528656
572.589844 633.072388 -527.195618
550.484558 653.418945 -465.362335
559.160339 533.827759 -680.266235
375.481506 578.801819 -530.135498
496.871460 723.841064 -370.892914
456.805359 661.322205 -449.574585
405.750854 655.196045 -470.118225
494.009521 531.914490 -702.716736
256.695007 585.083069 -507.430267
482.992035 576.570801 -564.841370
565.670715 728.745972 -357.157776
339.195465 535.981873 -642.205688
312.832458 509.698792 -667.928589
299.249329 546.056946 -605.410339
566.883118 571.599060 -605.286499
592.804688 714.351257 -413.878632
621.453308 558.539917 -655.787109
563.984009 753.223022 -361.081635
412.618286 528.449341 -642.279236
285.244568 580.544006 -522.882141
713.065674 683.325439 -508.803711
464.098541 662.021545 -459.892517
592.903870 621.033020 -583.745544
307.370117 572.391418 -543.413879
679.378662 704.143250 -464.546936
353.247528 627.770691 -467.240967
540.681763 566.190552 -629.620178
492.606018 622.622803 -525.408264
579.277527 777.438416 -330.320923
619.193115 649.031433 -535.680847
622.793823 674.880066 -498.147797
287.087982 548.354614 -606.125916
483.281403 581.472717 -578.331421
629.646790 536.380798 -659.646240
555.825562 691.209290 -458.680695
608.032715 721.428955 -425.529999
706.005798 658.590454 -630.650269
591.160461 603.598022 -604.662109
609.135559 484.016235 -644.434998
648.199280 671.758667 -469.916595
494.969543 616.528931 -538.076111
561.952148 729.330566 -385.981476
280.011444 543.957520 -574.193909
598.841064 650.973450 -528.176575
259.366730 540.658569 -603.487244
534.526367 615.732239 -553.188660
618.463745 572.157959 -635.710205
378.228333 662.745117 -436.163177
484.439728 687.614685 -403.441589
666.861755 553.441833 -633.408447
398.527893 571.703796 -592.871643
453.987335 539.499268 -639.230408
576.593689 698.437561 -413.021423
617.096436 495.107300 -641.698792
677.350403 629.840759 -636.810059
615.982727 602.418762 -641.971802
420.386261 611.715027 -525.590027
552.894104 580.192139 -652.315247
628.853760 600.686523 -590.119873
402.788330 634.597107 -484.712921
470.918091 566.200623 -576.612244
746.608948 659.491699 -527.946655
420.012299 574.492004 -578.872009
371.395996 483.853455 -701.744812
359.121918 510.202759 -665.473877
354.538513 585.855835 -535.969849
714.819763 655.265747 -561.674561
437.426483 540.337036 -657.059509
621.983459 615.915466 -559.216797
634.812439 541.447693 -651.104126
345.317719 592.078857 -496.125305
543.143982 638.155029 -489.909912
708.344360 672.850159 -526.323425
319.479340 490.134613 -690.382751
462.059326 524.248230 -683.800659
394.064087 644.257446 -442.319977
192.724350 549.830872 -553.625122
392.692871 511.220764 -659.942383
218.954559 540.950073 -559.767822
420.684570 612.185486 -523.136475
623.504333 634.210815 -516.528320
403.538635 636.317444 -460.295349
661.665710 675.125183 -483.524170
371.184753 476.262360 -724.670593
392.114319 493.031555 -683.456421
640.980835 534.623474 -641.565491
629.320068 615.535217 -647.909241
357.499359 489.490021 -701.218567
272.814209 535.091187 -591.998657
582.855835 645.458679 -510.559448
328.754944 561.697144 -589.472839
317.277191 483.494446 -644.469055
625.871826 533.983093 -659.535400
717.960754 677.178101 -519.228821
395.758972 524.056519 -641.741272
592.272156 728.087219 -415.673981
556.311218 726.364014 -357.502228
732.114014 679.505981 -522.770020
328.322174 576.140198 -543.488586
494.552490 604.932739 -554.551086
708.622253 673.940369 -524.511353
679.235229 623.551331 -564.614624
395.625793 613.168274 -515.946533
576.228760 583.321899 -643.097107
369.892548 477.777954 -718.835449
649.913391 693.045227 -463.262299
581.002625 662.143555 -498.089111
652.185303 590.550476 -646.628540
370.019897 576.860229 -558.148315
615.982910 749.601196 -384.638733
427.558685 686.566528 -415.184448
652.437927 715.736450 -440.073761
382.906189 482.702576 -726.718018
393.974701 585.934265 -576.915466
435.907623 634.936523 -496.393921
275.383423 585.407715 -517.603516
550.592163 754.850342 -337.762054
629.518982 536.784180 -651.284485
297.866577 492.490295 -698.946411
294.062225 628.308777 -487.513580
525.926208 734.088684 -377.988525
292.669891 576.689331 -537.417542
361.430817 524.213867 -663.270691
400.671356 567.056335 -555.720764
618.393005 541.057556 -644.574341
609.627930 687.981384 -418.851318
492.679443 678.363098 -448.720642
551.176208 601.433350 -590.769226
325.000793 471.541534 -702.731445
549.759216 496.796448 -699.404114
329.565521 476.368866 -705.523193
444.564972 577.930237 -550.909546
266.076996 541.358887 -605.591187
587.916321 554.361267 -664.639160
212.842819 556.616577 -564.691650
296.141113 497.637360 -678.175781
567.874329 577.903015 -658.587402
586.041016 548.886719 -667.163940
503.420868 557.924072 -643.560852
490.756073 698.699524 -419.221863
559.606140 593.970337 -590.782166
483.547272 581.596985 -604.654846
462.113770 531.541382 -693.063843
567.096313 610.835632 -571.512756
385.548676 554.369751 -603.996643
661.367249 544.078003 -643.027344
279.212250 584.221863 -515.360474
699.952881 655.482971 -514.434326
633.478882 718.451904 -416.133698
416.843811 635.739258 -506.918152
493.675140 705.784119 -393.431213
442.209045 664.787659 -433.350647
578.847412 643.360291 -490.906006
382.442261 647.125061 -456.726501
311.398621 549.506836 -577.011719
343.300598 619.612793 -479.066284
648.281250 719.223145 -443.663971
304.935181 522.453430 -649.191895
599.300598 649.092834 -536.804260
571.798096 471.338867 -677.990601
388.670319 621.498840 -499.457611
405.863861 511.349030 -662.293762
498.700653 597.375793 -562.036682
599.319641 732.823181 -394.412994
564.080444 463.994965 -672.757996
586.046753 594.828552 -638.302734
541.600647 636.784058 -513.299683
657.669373 707.680847 -458.495789
320.607544 541.321899 -627.398254
494.976105 672.666443 -420.077332
334.803528 604.784241 -504.582275
394.726379 613.114746 -511.837433
636.492432 550.659241 -654.493958
250.988892 532.234436 -578.871765
440.198730 522.584595 -655.805359
399.243011 582.323792 -586.005798
327.327698 607.641113 -525.837158
592.979736 479.343994 -664.937622
531.716797 675.698364 -425.458618
362.031891 614.580750 -518.591858
742.086609 687.561096 -616.166016
352.392426 608.514038 -499.655029
544.469727 479.978882 -703.144470
552.988770 685.248962 -441.861786
518.633423 600.105835 -539.125183
407.187195 628.022278 -514.283386
616.273315 733.735840 -379.287689
279.476135 563.028992 -581.058777
425.867126 574.482666 -601.187561
368.184143 639.275696 -464.594940
567.847046 689.091125 -445.646698
548.661499 479.419067 -699.518860
315.691772 566.388245 -554.741394
332.924408 588.469666 -496.614960
568.956543 766.311462 -331.515747
745.674072 685.170959 -591.368835
665.424561 611.087524 -648.976318
563.078430 697.479980 -390.873535
706.005920 641.298279 -534.048767
527.946472 599.501160 -587.611572
555.759949 566.988708 -668.088684
297.022766 557.529358 -565.776062
635.740601 691.685425 -490.316772
570.655701 616.340027 -564.324829
595.520691 743.393066 -389.791351
446.632050 643.902588 -503.126648
466.241089 706.339172 -402.176544
665.780151 619.765625 -636.754211
497.004028 678.530457 -442.895355
289.415619 577.559570 -527.772278
605.947510 501.116058 -664.458740
536.127380 725.676575 -352.901672
614.838806 735.913635 -400.707916
598.119995 649.742310 -524.521851
496.990662 537.903564 -696.344482
432.541077 682.296814 -421.009308
573.156067 751.817871 -359.200623
448.211487 539.221680 -656.352539
633.518921 689.565857 -467.933716
363.353546 645.346924 -448.638641
521.827393 595.422913 -584.254150
424.821960 567.948669 -613.813904
417.571259 678.345093 -443.818207
613.587036 647.426453 -521.714294
314.225983 585.657715 -548.081421
427.592957 615.380554 -525.008118
722.043335 676.839783 -521.050842
621.465820 492.828156 -639.491150
311.156158 554.720154 -596.191711
292.728699 499.914703 -673.694153
412.620026 516.953674 -657.790588
425.166046 529.088501 -644.057251
231.921570 569.618896 -527.294861
652.304321 558.154602 -647.859924
415.210724 642.756226 -472.121979
453.532928 609.646362 -535.651733
493.197113 708.719543 -402.286041
312.569946 612.121887 -480.777039
571.898376 518.623047 -693.115051
579.398071 514.159851 -664.349304
186.465546 570.807312 -525.527832
489.593781 642.169983 -521.074646
476.291412 671.142517 -417.619415
301.253784 585.715454 -520.746582
503.226166 546.166931 -644.315308
571.124084 645.198975 -520.234802
469.230713 555.640320 -616.799011
325.026306 592.619202 -514.477051
362.624603 529.110291 -625.601257
325.069550 523.254883 -655.986084
620.255920 613.978210 -625.044373
435.744385 616.955261 -514.997131
544.618408 569.745728 -617.250854
735.646484 669.455688 -588.371582
504.787994 727.339233 -365.917084
338.909729 553.177429 -593.796692
607.514893 748.195923 -382.045074
410.963776 665.660706 -454.709564
517.956787 563.049683 -611.161133
370.711670 606.478699 -530.185120
565.199402 601.283203 -583.215454
451.265198 687.097290 -410.223297
427.337860 535.765625 -622.009521
383.385925 659.701965 -442.201050
615.727539 711.625854 -378.782593
489.322021 625.424438 -515.276367
520.868225 548.331482 -706.924072
508.644684 497.569061 -733.496887
501.489502 664.009277 -471.017792
518.646973 690.279541 -443.477142
500.960815 503.776947 -720.731079
428.452484 520.851868 -655.400269
640.511780 744.482971 -396.285950
548.470703 673.354431 -465.132690
516.366821 689.048157 -426.154877
568.479370 529.998535 -675.552612
213.552307 557.986267 -529.234863
263.318512 553.542175 -578.952576
337.932495 635.304199 -469.032074
288.541718 519.571594 -640.555664
567.445251 588.996765 -619.120911
404.561951 629.120483 -494.130432
177.801895 573.398987 -545.031311
566.601685 542.711304 -667.203308
445.757965 616.931946 -543.633972
490.527313 615.789856 -554.947205
499.669678 653.859375 -479.275604
387.361023 655.942810 -431.590698
415.360840 650.098083 -454.016113
470.746582 548.914368 -629.470093
601.580383 731.051880 -406.017700
563.707825 531.975525 -686.057983
384.242615 493.326752 -702.269409
740.528809 655.376526 -528.184021
510.352356 652.758240 -444.338593
524.728821 503.164551 -709.865540
284.747406 508.086609 -595.097961
658.725769 689.865601 -437.796783
571.400024 735.688843 -351.134888
324.697540 515.438354 -631.963440
361.836914 630.908630 -487.057068
367.084106 597.296143 -552.132507
587.241699 779.605042 -336.776062
722.744141 652.461792 -558.060181
266.940063 551.844177 -582.986389
336.216583 514.177734 -625.316223
448.697327 519.204895 -716.662964
349.090576 545.442017 -588.855896
675.592224 661.231201 -531.247742
425.489014 524.794189 -669.236511
389.137604 585.348450 -557.736694
526.491333 601.791748 -585.671387
254.080963 581.082642 -537.593811
397.287323 645.226440 -432.817413
471.223480 703.258667 -418.824921
680.787964 628.159546 -654.829956
568.171997 609.139465 -590.891357
340.782166 614.179138 -493.786469
551.868286 520.277100 -697.189270
483.843262 505.084412 -719.391296
530.308167 719.611938 -378.744324
414.302521 510.165466 -699.601196
382.285614 612.390991 -524.648376
334.883362 478.866364 -711.388550
349.175415 608.901733 -506.543671
365.428925 653.675293 -446.336456
260.499146 580.804749 -538.955994
558.206421 579.832703 -605.947937
560.692200 744.733276 -348.876160
730.281128 688.306519 -519.055542
532.443726 680.427124 -449.101776
544.897156 621.494263 -567.755493
255.469788 545.238708 -598.832520
353.438843 580.302368 -566.140015
625.716736 533.600342 -653.460938
256.117310 527.022583 -629.720032
212.062927 557.804199 -567.350647
723.157471 697.773376 -497.343475
553.537720 610.622681 -534.487061
333.645844 609.892517 -517.240051
596.093567 678.328979 -472.352753
326.597961 478.713013 -701.211609
643.790466 698.519531 -484.591614
671.157349 673.230286 -508.805603
592.423340 722.583435 -414.552643
638.668152 671.305664 -466.510712
321.824005 553.380005 -601.220520
486.872498 605.805542 -570.570618
520.951965 705.784607 -412.766541
371.080170 640.639587 -442.468323
640.325439 529.492188 -647.016968
422.343964 553.876526 -614.756531
601.950012 518.023926 -667.639465
440.325928 636.167603 -493.969391
333.746765 566.797180 -591.216797
325.061707 488.649445 -672.840210
623.966248 699.601868 -411.178955
414.494415 568.873413 -590.154297
588.851624 488.292389 -672.776245
646.674622 560.192993 -650.532043
710.526245 676.234985 -518.177490
514.422852 539.876099 -675.654297
676.608521 555.924988 -619.994080
289.588898 542.863220 -611.428345
459.436920 574.826111 -577.126404
268.864807 549.603027 -539.198792
514.926086 673.730591 -456.172089
362.434631 594.466003 -516.442200
266.744293 581.301514 -519.710754
550.323486 604.343201 -575.749084
462.656281 707.919739 -393.717896
665.332031 700.008362 -478.046265
370.385773 659.606079 -435.754639
436.932037 500.795807 -702.041565
336.786896 623.964844 -473.567352
304.867920 551.466614 -576.556519
370.641541 575.802734 -578.835205
586.245178 632.580383 -541.149536
548.405457 741.844666 -356.358795
688.012573 617.856201 -639.350891
250.267395 526.430908 -586.900269
684.727844 653.677612 -547.104248
365.034576 618.434509 -461.235748
564.012146 755.961548 -336.583740
405.124023 532.558594 -632.262085
331.784241 579.651062 -518.998413
509.947174 726.475708 -387.386230
301.825592 510.258026 -668.601929
440.276886 651.489685 -469.982819
467.544250 579.976440 -581.329895
356.313904 547.186035 -596.230408
431.890930 558.500183 -601.611816
589.573120 656.821167 -527.400940
316.333984 607.569336 -515.771545
511.969208 494.203186 -706.187134
428.085266 600.532593 -547.818542
347.847443 586.554993 -514.875671
232.478485 568.762024 -518.936768
570.804321 753.108704 -331.347229
584.085266 752.972290 -369.572754
650.064697 660.288208 -526.003723
387.997711 646.695251 -477.506958
641.616943 710.678894 -442.259460
567.876282 614.067932 -584.007202
517.507263 644.219788 -469.583557
293.191040 574.042542 -511.057800
451.891632 673.500000 -432.258667
330.268829 626.293762 -467.148865
544.333923 690.512207 -461.241364
599.234680 627.186218 -575.606812
655.646301 702.859985 -465.915131
670.863159 566.060181 -641.830811
407.948059 603.312622 -533.163269
597.360107 597.226990 -639.745605
528.338684 680.655334 -466.816742
587.757507 665.926819 -513.451965
517.926208 693.371826 -438.362518
368.656647 603.447021 -496.518402
656.533020 600.723694 -650.896790
462.665466 533.839600 -666.378479
324.091217 510.628967 -639.247070
611.615234 699.954102 -454.035065
660.766602 615.178406 -573.679443
482.162964 584.786011 -579.662231
562.613647 544.585754 -685.516907
609.384216 518.116577 -651.945435
244.022064 598.944580 -494.724670
432.838074 656.090393 -453.395782
544.290588 730.559387 -365.544983
410.244781 557.836243 -620.744080
502.373108 611.187134 -565.153137
529.212280 573.250122 -587.300659
626.180908 521.934509 -662.321655
493.244202 659.348755 -472.821381
338.721893 574.312866 -574.261963
318.204681 575.274475 -542.534546
497.899017 611.840637 -539.795654
225.987747 545.254883 -550.822815
617.007324 562.346741 -656.736755
568.130737 668.745972 -485.610016
609.431702 614.367004 -559.940796
597.411438 645.057922 -494.854218
392.772980 652.793640 -459.382813
216.810959 571.785706 -538.800598
457.625183 625.556091 -530.903564
548.710693 690.587524 -444.095093
680.641174 699.089233 -459.067780
515.929077 605.780457 -554.051575
555.137329 591.804260 -592.917236
526.546448 693.364868 -450.991333
607.639709 506.484497 -676.165649
583.020203 630.746765 -545.370056
266.001465 586.113281 -511.565796
505.959198 652.582642 -443.259033
639.767944 705.637878 -465.115295
383.285889 620.442017 -500.287628
695.266113 652.178650 -621.630127
606.500122 587.960999 -619.480164
618.411011 743.914856 -390.141937
655.234192 534.164673 -634.285217
435.100494 511.751678 -764.374390
521.893066 663.796143 -468.924469
605.243774 654.913696 -519.125732
355.937714 505.624512 -668.716858
327.240601 602.300110 -472.712555
604.437073 638.277161 -560.714294
451.824310 517.258911 -692.001038
584.429565 564.619629 -673.015991
478.299988 496.933105 -735.575745
336.738739 593.317871 -523.519653
647.897461 668.323486 -489.760895
500.630310 579.411560 -613.183655
618.526611 698.286133 -447.909027
469.498749 542.474121 -657.848938
355.129181 641.048584 -439.673187
514.797546 646.258972 -455.761780
367.864227 616.518860 -518.759277
538.146606 739.099792 -368.189240
660.834595 573.513000 -651.169373
453.571228 630.234863 -506.057343
298.079865 577.602173 -531.781189
712.140808 659.001587 -640.351990
519.359985 706.208984 -396.842194
677.841736 635.689331 -573.103760
620.966553 681.322327 -461.441376
348.230621 610.061218 -468.292084
385.146729 521.227173 -644.166199
634.435120 685.434631 -475.518250
458.394714 701.477966 -398.762421
289.039368 545.009216 -613.485596
541.721863 563.766235 -645.383179
443.288849 713.162415 -394.632538
379.498779 661.655090 -433.911438
352.650818 591.709595 -526.447937
537.384460 461.022003 -681.099243
482.969391 709.991882 -383.136780
213.940033 575.822083 -541.681519
508.868835 601.630432 -561.741089
366.839539 558.992676 -602.851440
304.243286 542.795227 -621.975464
539.748779 712.205505 -364.785797
587.554382 733.583313 -398.965424
623.386230 596.823181 -633.612244
621.612671 530.639343 -641.394592
272.183167 595.933594 -527.939758
405.244873 605.428894 -485.465088
587.764404 772.763672 -329.586334
295.510864 510.728271 -659.213562
373.089142 570.159485 -566.467041
723.085144 673.288940 -625.981140
283.286865 602.364685 -514.417053
435.354156 579.828918 -592.481506
528.070374 554.096924 -687.738831
591.197266 739.679749 -372.963043
623.855469 707.453430 -436.903229
350.314941 582.701599 -565.227417
573.395508 624.561096 -572.098633
333.753479 518.782837 -600.396545
587.988098 739.631470 -378.280731
534.607178 672.453918 -461.163269
541.967346 741.759888 -368.587067
517.751465 579.178284 -617.912903
554.690430 567.692810 -607.309814
539.393066 571.495972 -619.303650
220.289581 562.521423 -526.830139
618.725647 624.562439 -589.564331
441.910522 641.416809 -482.952362
540.346375 542.801331 -683.777710
367.571747 649.370728 -443.160461
486.603943 617.314331 -551.571594
500.111084 656.143921 -499.055939
597.336365 544.260742 -674.994690
714.530457 701.934631 -491.471710
528.045715 517.469055 -699.550415
407.703918 629.840637 -485.737244
537.581543 748.053406 -343.817505
491.578796 574.278687 -602.507874
386.351074 618.648743 -504.187439
480.456360 535.136353 -694.439758
341.762756 613.034058 -508.967316
485.837219 616.663208 -531.885864
589.521179 703.490662 -420.295807
342.811523 613.695313 -481.055023
392.451965 570.280273 -571.907898
670.247314 640.487183 -623.958923
534.631714 692.724060 -449.745087
500.934052 715.385315 -373.347839
465.524567 663.369751 -426.451294
455.257690 699.294861 -409.534912
376.143616 652.912781 -449.548859
302.082489 519.161072 -643.195313
216.270020 583.606995 -540.800964
312.990356 497.270447 -636.538452
215.426682 539.322327 -581.550293
628.894470 616.862305 -564.946411
331.743805 518.348816 -646.086670
485.851563 650.242676 -504.089508
560.823792 573.385498 -623.820923
639.049988 665.550354 -511.283295
343.665863 484.435852 -688.199646
370.258087 580.049622 -549.670349
347.959778 600.216797 -518.009583
316.320740 558.523499 -598.840637
267.575256 543.194946 -548.438049
332.363068 568.811218 -557.875244
570.733521 711.784729 -401.479095
500.638763 565.467957 -641.678833
450.562256 636.513977 -496.542847
473.824646 616.252197 -530.891968
654.117249 680.619812 -482.225494
483.818939 651.644714 -438.078430
660.390747 737.284851 -423.655518
448.073608 557.397217 -607.466370
252.653854 584.886353 -506.463531
667.320190 551.633118 -624.415833
448.597076 678.921143 -451.744568
322.375275 527.476501 -600.883850
611.366821 506.165283 -663.235718
606.409973 628.912415 -576.247620
442.817413 541.222351 -634.145325
458.268677 697.850037 -397.319702
612.931274 671.533997 -484.206055
393.005402 543.945679 -642.006775
564.776001 699.086060 -429.808868
624.321472 649.576172 -530.811462
610.230530 662.311646 -523.301331
569.451721 505.017273 -687.186157
520.960632 613.704773 -566.004883
547.485596 528.583435 -692.556946
587.943909 530.248840 -675.014832
542.535156 742.069580 -368.778992
633.209229 540.672974 -654.828430
547.034607 557.483215 -651.169373
276.187164 541.379272 -577.033813
300.581146 579.191833 -536.049255
462.890869 649.996582 -490.479919
706.468079 698.593079 -512.236511
504.265381 537.690369 -656.556274
328.017975 607.710083 -497.262421
271.593567 539.245850 -588.753052
708.635132 686.613525 -515.319214
467.117035 591.138794 -588.774414
332.305389 586.685120 -532.945251
459.814056 589.170593 -589.218140
465.833221 696.952026 -406.568024
602.271790 637.805603 -538.171936
621.815491 601.577393 -616.215210
420.535065 668.517456 -451.393341
645.633179 729.334290 -415.289063
534.793396 730.930176 -393.393311
396.196320 584.952026 -573.161499
580.014343 746.002563 -367.778931
257.079681 575.889404 -522.195251
422.817871 573.014832 -586.126099
477.638489 663.191711 -468.692078
515.358704 633.108215 -519.390869
485.302338 675.865173 -443.138428
306.824249 600.323792 -516.687256
242.903244 599.703857 -496.233337
657.733337 565.192749 -646.117676
408.605621 514.530396 -660.265869
258.753601 545.264771 -586.679749
305.468781 591.769287 -512.064575
462.751984 629.633362 -506.700714
620.835388 676.668274 -499.468536
306.406677 513.269348 -655.608032
384.914185 646.421875 -468.530731
500.873260 700.116882 -420.878937
337.856384 634.450867 -465.104370
738.945190 672.416443 -572.294067
294.622131 569.077576 -527.199463
517.597168 625.004578 -530.800476
310.889191 584.420532 -520.788391
424.674744 524.324829 -650.532959
516.470093 688.816223 -439.674164
364.741730 642.231384 -454.679810
523.958252 681.552856 -445.654388
636.321777 627.159424 -587.177185
575.687622 767.680115 -332.831970
709.751587 633.062195 -620.148560
405.733734 491.402954 -671.271179
544.140076 711.900269 -383.919403
534.074707 506.496948 -706.565063
393.740265 500.154205 -676.221252
204.017319 562.451111 -540.565063
473.765350 533.173218 -657.173645
418.568512 543.742126 -640.640747
