ply
format ascii 1.0
element vertex 1408
property float x
property float y
property float z
end_header
-640.294006 594.564026 456.083740
-546.114380 685.365173 538.150757
-858.449768 383.213135 330.824738
-749.290710 401.543274 373.937866
-771.293335 332.602142 349.402100
-694.946655 705.042114 432.867889
-635.652222 490.748566 458.458527
-673.723389 579.564087 445.377472
-705.693848 398.790070 401.624725
-670.739868 492.972412 410.374298
-832.860718 565.797546 291.955353
-536.123901 556.421326 511.703979
-651.036194 319.137665 418.420349
-559.121216 617.394531 525.561646
-661.477966 291.561340 443.166046
-783.887329 273.751465 335.395325
-824.725281 403.406891 319.684113
-627.049438 623.978088 466.124146
-771.246826 649.935059 368.140350
-600.838745 531.103027 476.101746
-594.114624 711.876282 490.421539
-560.634155 529.245544 508.805176
-793.834290 343.679840 346.435760
-612.186951 283.160400 479.424225
-837.582764 508.663452 331.885651
-838.738892 679.537842 357.347992
-583.693970 391.249359 497.385681
-727.730896 284.261383 396.292877
-644.950500 572.290588 453.555084
-830.295471 545.604004 252.271881
-663.375916 625.643372 457.656250
-763.479797 358.114624 355.181427
-587.599792 620.125977 501.398163
-752.627136 624.569763 380.843536
-584.340515 556.614502 479.005798
-698.051514 489.296631 426.137451
-545.737061 587.755920 524.849976
-739.739929 491.568909 381.803284
-836.312927 589.020813 327.044891
-629.456665 669.684448 473.734680
-688.704712 607.053345 422.645935
-829.168091 520.672424 349.753845
-833.325195 630.845886 318.975189
-619.768738 209.500320 454.476990
-637.196167 408.200409 458.962830
-682.300781 588.846863 407.084534
-604.148743 473.795654 488.369232
-772.589294 368.650879 339.206757
-874.657166 419.246826 316.868408
-542.906555 656.052063 508.262604
-843.109314 537.806763 290.384308
-735.305725 632.475769 391.438446
-682.520874 256.302124 423.114685
-683.694153 528.212158 437.682770
-689.648376 653.416748 435.012604
-828.393982 538.261963 271.914581
-590.090149 645.407043 505.328522
-752.530212 335.049072 363.107330
-586.856445 552.500366 485.840485
-618.553955 658.393921 479.777130
-674.682800 349.129333 417.727051
-595.887817 363.290009 488.896667
-822.992615 487.471466 330.490448
-847.624878 614.302063 366.416321
-822.444092 536.666992 263.377319
-702.869873 665.711365 423.093903
-757.701904 461.627167 369.789032
-860.204651 469.540405 290.198029
-668.559143 591.489380 434.050354
-608.872253 425.153625 450.657776
-855.258484 488.805878 315.285339
-829.343689 578.223083 340.843231
-602.507202 712.358582 502.749939
-606.804749 389.467590 483.069946
-598.023132 605.877014 489.791107
-690.136597 319.187469 413.779266
-614.339355 253.349899 457.027863
-760.974854 446.939575 360.776001
-835.888916 592.746887 316.139496
-698.308655 374.645599 402.768250
-649.770935 440.265656 432.330841
-725.898499 642.602295 388.510284
-698.003784 720.683899 422.658051
-656.091431 491.393860 440.455963
-570.258972 568.567993 507.312012
-757.829529 521.618713 373.227753
-830.704285 540.193665 334.539307
-622.316772 671.053162 477.689728
-639.574707 540.422607 433.714294
-788.407410 579.969360 342.020325
-725.143860 421.332458 368.990936
-774.335022 508.961365 372.316132
-577.678223 624.710938 490.405884
-581.618958 584.981934 491.076111
-606.315125 413.123810 451.187592
-591.490479 557.059937 502.854492
-704.432800 630.710815 414.224182
-705.326233 262.686462 407.770264
-656.069580 470.802856 443.757660
-896.490540 311.393188 318.750854
-635.583557 258.231842 458.310944
-560.033325 697.615662 484.108276
-843.735962 502.480927 337.990417
-581.296082 583.622925 495.515991
-836.876038 616.425415 336.486755
-819.719360 472.334381 338.256836
-725.978149 648.249207 401.540100
-815.592773 576.480835 326.327240
-587.088440 635.938782 490.249390
-623.843323 526.897156 459.948059
-690.771362 297.288727 402.238647
-597.834717 521.471497 488.341583
-836.677917 547.171936 263.461975
-602.682861 621.196716 494.829102
-829.429321 560.104553 351.038361
-810.048950 694.145081 369.158325
-723.962891 645.046082 416.320923
-755.537903 590.521973 378.585327
-778.792236 526.293396 358.663330
-830.744507 493.663300 262.480865
-819.422974 335.315887 326.662415
-659.804077 266.895782 439.722321
-829.558044 587.519592 310.167633
-833.710327 502.432739 350.415588
-543.227600 679.933350 495.715881
-601.106567 286.773743 479.298431
-730.306274 618.084961 396.849579
-578.551270 490.894012 465.978455
-571.859314 481.652832 497.007965
-806.786011 332.832062 341.913055
-599.818481 341.873169 465.347260
-858.106018 467.456024 263.225342
-671.653442 468.744354 429.437622
-830.118103 502.581818 264.831604
-725.612671 560.225586 398.041382
-714.261658 529.677490 416.956543
-589.978699 690.780701 497.436249
-623.779358 411.715851 473.585205
-634.361023 726.241577 473.981232
-566.762756 687.159912 520.572632
-720.984009 461.286499 411.098633
-740.825806 393.034546 378.379730
-566.284058 516.038269 503.005219
-653.848206 398.513733 440.783447
-854.526611 471.350555 292.986877
-729.297363 415.901550 388.916901
-832.146179 529.284302 252.228897
-533.230042 628.443665 523.991638
-617.376099 305.250824 476.320313
-860.263611 443.215790 287.733490
-844.085938 636.565979 330.023682
-588.917053 504.284363 460.683533
-718.154297 242.558655 385.851837
-744.250000 290.512299 375.467743
-838.501648 553.023682 304.925323
-769.484924 256.809570 362.517181
-699.564087 493.260132 416.824615
-755.664001 513.880676 381.345947
-771.063232 422.384125 367.799286
-752.960022 450.604950 364.774170
-740.917358 345.315735 371.068481
-819.949585 304.139008 317.726501
-589.320496 475.454895 475.703278
-661.122131 617.851563 447.392029
-554.404785 668.088562 504.023560
-613.014832 453.273743 475.998749
-630.408569 358.338226 465.843170
-611.791626 628.974609 481.795349
-695.961792 235.470001 378.859619
-636.090332 411.980530 445.254425
-742.039612 378.695282 376.351563
-808.338867 344.534851 340.763306
-726.131287 582.317810 406.516663
-666.773315 577.150024 448.178955
-855.712830 468.014801 322.655579
-787.550232 348.778076 357.075775
-865.149902 457.354279 312.996094
-580.683411 495.962799 489.471832
-670.063110 211.969177 418.300354
-771.227722 736.630920 385.778442
-839.344238 550.066345 292.635956
-619.849304 662.726074 480.904358
-764.691650 715.054016 379.706665
-805.768799 342.372589 336.409882
-617.263123 668.609009 482.180115
-607.407532 569.251282 457.393005
-672.150513 615.130371 445.711884
-841.186096 387.460449 321.630219
-788.065125 642.691589 365.948059
-663.056885 293.290741 430.842773
-696.484924 597.237427 411.786407
-720.474854 471.062134 391.680237
-832.875610 601.053772 333.468231
-616.874756 418.009857 481.159241
-848.024536 495.769348 319.821838
-730.101563 399.477966 374.484131
-842.711670 537.047546 308.239716
-619.557190 294.943787 481.116364
-579.312073 541.352356 492.750946
-759.691467 648.521790 384.518951
-688.771301 630.842041 435.599792
-617.340393 334.727142 466.332977
-637.140686 235.754745 440.008026
-657.490967 600.918274 454.971710
-561.314392 503.864258 507.905853
-659.042480 604.802551 444.163666
-558.786072 647.946960 505.995667
-690.884705 508.859558 431.972046
-569.362854 519.877625 498.851410
-782.186829 279.458405 343.477905
-564.074036 489.639526 505.757507
-615.697510 277.436554 453.862976
-697.538879 556.573303 413.429932
-693.467102 358.782288 410.914215
-779.316772 344.612732 350.901733
-590.528870 559.418640 502.026245
-670.948364 550.096985 443.482178
-676.475159 390.674255 434.767395
-734.927917 442.698914 377.279541
-709.226196 639.009460 420.432922
-805.570740 334.933990 317.829651
-587.413757 685.009338 509.992310
-741.189575 329.830383 370.275421
-760.938171 339.573883 356.629425
-610.975342 678.279358 470.841827
-622.367798 256.331879 431.714630
-789.336487 350.499695 334.569061
-777.815247 298.474396 345.136749
-673.913025 226.897217 432.228790
-826.776978 530.834656 245.626038
-854.735107 480.867767 275.363983
-625.977417 323.506866 449.272156
-818.193054 454.172241 339.008698
-691.126648 523.661682 397.116791
-629.434875 371.529358 454.724243
-664.320679 370.243958 442.519592
-768.685364 366.836517 340.613647
-701.840454 640.784668 413.020477
-680.546082 537.437073 426.826599
-774.630920 551.779114 377.484161
-677.745239 606.139099 441.196075
-716.052856 428.987335 393.518158
-784.783264 392.747528 330.581665
-826.474670 545.783264 339.066345
-741.261414 439.628632 371.978943
-554.888489 563.423828 514.326660
-852.052368 496.120056 299.448120
-593.477417 411.257111 492.293427
-647.425903 213.480545 427.504181
-841.867249 461.031006 320.737610
-633.853821 218.071533 442.384613
-852.985901 488.557434 284.155945
-764.401245 510.541931 364.427521
-876.233276 451.503387 315.318146
-550.520508 629.459534 526.788025
-656.130310 636.863342 458.345184
-584.545959 679.870056 505.619293
-576.895813 485.041077 505.262421
-616.637207 713.785461 481.212372
-754.760681 265.730927 333.471222
-534.479980 664.335999 519.196167
-701.958618 320.102417 417.943146
-638.288940 650.464783 460.099579
-652.522461 416.950409 441.149872
-583.454041 438.163727 488.700623
-590.771790 597.197144 494.032715
-760.261536 664.518799 379.535950
-840.233459 544.118896 305.108215
-631.962646 711.229553 462.692596
-746.980896 593.994690 392.721558
-553.187073 603.653259 524.340698
-650.316772 445.818237 416.784424
-629.308899 575.051208 464.853210
-780.078247 469.273529 349.209167
-726.958740 421.817993 379.997498
-835.981384 605.959900 309.608582
-765.878784 719.603638 390.287933
-793.031555 546.402344 344.708923
-829.325195 583.787903 304.858063
-727.891724 519.837402 403.256500
-577.738220 674.582642 501.308105
-832.711792 536.184021 352.241089
-626.792053 472.861542 475.685150
-539.800842 674.409729 532.239197
-552.959717 629.873047 504.781464
-593.654907 621.221558 499.933655
-832.788513 575.385437 278.900299
-723.800598 647.611633 411.574036
-658.510742 412.874695 436.507629
-590.711060 668.615112 498.436615
-711.753601 519.556519 398.494690
-741.892883 323.099152 384.776947
-592.524658 479.838470 481.270996
-756.480103 581.748474 379.644409
-691.277954 706.268860 421.918549
-570.624146 654.675659 513.562378
-604.627075 348.635315 464.620850
-827.497314 371.800476 306.667236
-646.926147 237.694504 448.520752
-862.510742 432.801880 301.033691
-635.264099 421.593536 460.893494
-844.965515 301.513000 313.834747
-625.253174 456.657990 458.422729
-591.903259 442.060913 480.471222
-784.316101 397.352966 361.193878
-610.247375 290.552948 453.037994
-554.227112 647.747498 519.309570
-764.595703 377.229706 358.044067
-721.975098 542.880981 397.508514
-604.234436 475.540710 466.950928
-702.225037 642.431763 423.294067
-758.932739 515.314636 370.365417
-599.510254 367.377319 448.715576
-685.529724 389.212555 411.996613
-711.064270 710.650269 418.457184
-834.384094 269.989655 322.902863
-738.463074 678.617737 392.472504
-783.041565 600.200073 360.952423
-568.056580 487.993469 503.704285
-779.709412 387.861847 360.024109
-679.302307 403.632538 437.213684
-624.732178 359.176788 474.519348
-810.185730 551.191040 337.225006
-791.639282 521.741394 360.804596
-657.483643 334.343658 432.038361
-834.617249 566.822876 290.002533
-787.476746 304.419342 357.614899
-804.909729 578.134460 355.689301
-768.603882 605.634644 379.622314
-647.406555 473.472321 450.585236
-766.359863 666.035400 387.086517
-594.566528 535.994385 458.260437
-644.116943 386.484009 424.567291
-647.186768 697.272034 459.028076
-808.301758 376.807739 323.442413
-819.452881 533.641479 353.187744
-774.208618 289.656586 355.151428
-714.991028 395.636108 410.576904
-726.098022 248.309143 392.248077
-696.972778 310.643646 393.690399
-691.747375 652.415039 440.060242
-685.024597 585.116028 423.185211
-564.096619 507.933228 508.906250
-666.090637 608.077881 445.538300
-600.779541 414.526306 486.351013
-735.912903 413.931427 391.994904
-722.378662 652.651794 409.193634
-645.330994 384.294800 439.780670
-628.305115 685.038940 476.293152
-854.788208 481.859619 318.564697
-578.531921 445.590363 494.184723
-586.826355 440.784027 468.718475
-735.276001 692.533142 378.877472
-602.654175 356.813385 472.949860
-658.255981 645.276672 461.987793
-752.442749 762.208252 393.594788
-602.176270 523.198669 460.151855
-724.743591 601.783264 399.705353
-798.781250 397.073212 349.408264
-663.038208 263.648438 424.956268
-650.886169 506.245300 450.748962
-703.105103 428.191010 402.350159
-754.409363 628.003357 369.608765
-845.619202 622.122437 366.562958
-836.586060 607.035400 295.885895
-640.338806 667.135559 458.825684
-616.721069 341.112762 462.042358
-663.256226 356.155396 408.578217
-899.392883 392.932800 332.110657
-678.933167 495.909607 425.156769
-719.095276 382.493317 393.327087
-846.988953 516.037231 288.630096
-732.525757 718.760498 402.635712
-597.362854 451.464111 475.531769
-689.702087 487.254639 413.499054
-802.355042 360.781647 335.954895
-605.295227 349.823456 482.534271
-595.858765 724.261292 499.296112
-809.809448 455.159027 338.477936
-828.300842 617.216736 285.670227
-750.635864 432.822296 374.366760
-725.281128 482.338257 372.479309
-725.112183 706.879395 409.833466
-794.521362 419.838989 336.672272
-637.380188 417.163757 437.651123
-699.889954 511.944855 411.901398
-813.826172 408.714081 335.771606
-586.059998 583.614014 500.463165
-652.351318 283.882446 436.007294
-601.243958 694.201477 489.229523
-587.025940 537.892822 471.430023
-834.524231 291.169586 311.855347
-627.713013 619.440125 477.873016
-633.412109 704.161621 473.836823
-678.717773 318.248840 412.933289
-615.530212 583.822754 486.731812
-839.627258 439.111115 337.191986
-761.056580 368.774902 373.892334
-634.639160 358.865631 427.537659
-697.791687 330.027069 417.128387
-677.746033 411.901947 418.470673
-693.060242 442.599976 414.825867
-602.098450 473.653412 494.047363
-741.488831 624.216187 385.436859
-831.275696 493.002258 339.068176
-876.835388 437.330078 323.254547
-530.472046 652.261536 531.291321
-693.195007 622.377441 434.499847
-782.731812 716.059326 378.154297
-831.248169 482.015594 336.625854
-529.202637 654.063477 520.289246
-736.801636 519.089417 380.833160
-695.083618 738.149170 440.811859
-814.750793 509.305481 352.028992
-732.519714 385.423309 397.898651
-790.994202 737.350586 382.129303
-719.852173 408.905457 389.606018
-641.142334 530.641846 452.081451
-691.626770 670.854492 420.477112
-773.361572 455.805237 340.331360
-706.865906 547.290161 409.614105
-693.243835 608.892578 419.469452
-847.152649 317.125153 311.235413
-620.694824 428.775299 474.600983
-802.358154 321.547607 325.271179
-548.954834 610.953430 512.778198
-727.576050 703.673096 410.395355
-827.660645 378.257751 333.161255
-743.853516 593.192810 375.525452
-693.681396 301.572144 389.277496
-661.102905 690.164612 452.743134
-715.239075 235.087112 382.408142
-754.713562 451.466644 381.077850
-716.520325 428.553925 385.536652
-735.449097 662.551208 399.280853
-760.761414 468.391266 368.057007
-847.774963 588.659363 358.946716
-538.375061 663.303955 525.312073
-849.203125 437.113342 262.655579
-752.268250 558.618469 378.321075
-703.718872 389.294037 399.432861
-545.408630 627.348633 537.438782
-736.029297 540.601013 396.932037
-678.523132 699.819092 432.311127
-639.950562 345.437653 457.617706
-840.852905 268.930115 307.659882
-770.124817 572.895264 374.228851
-760.452637 462.595520 367.964172
-692.322937 614.144714 420.172607
-676.855164 360.689667 432.808746
-617.986450 219.187683 454.278961
-784.616028 332.436584 338.682068
-594.476257 567.660156 483.447601
-671.837769 569.985229 432.548523
-641.278992 604.306091 455.453827
-791.950867 744.070679 388.813782
-788.602844 734.770447 395.148926
-577.067932 678.345581 487.965210
-589.009094 643.151306 500.948212
-834.845032 530.565796 254.000031
-777.630676 422.886200 363.343048
-845.532532 500.519226 267.235657
-616.502563 334.875305 483.324829
-685.435059 354.681274 429.755157
-682.484192 322.011902 412.739532
-835.555115 588.619995 290.752655
-838.812927 389.703827 329.725708
-834.257690 412.104370 323.407074
-689.786804 228.264297 394.456818
-775.433411 598.599365 371.107208
-724.251404 298.476685 397.907227
-617.173767 616.224182 477.059509
-718.275696 323.256195 380.116577
-603.717896 604.207825 496.455017
-865.316223 662.875732 373.071442
-825.921204 541.239075 300.383026
-559.247192 554.656006 509.109619
-677.556641 691.820007 440.599030
-841.558960 261.577484 321.430237
-615.389221 473.869141 484.807281
-830.107178 548.215881 282.382111
-829.507385 534.368591 328.759918
-831.839417 541.712524 349.098145
-769.049377 577.186096 366.240875
-741.454590 567.544067 385.795410
-588.796448 615.228699 500.803528
-788.920105 715.105774 362.631866
-681.443542 281.686249 412.680328
-707.231079 669.094116 402.544159
-741.133911 396.662201 377.128052
-838.209229 566.820251 325.113556
-706.469055 290.453583 382.166748
-667.390625 603.441345 444.096680
-834.564148 668.813904 351.233948
-869.458801 424.375183 290.493500
-563.265991 485.596161 506.450134
-593.194336 660.555664 500.624664
-723.628235 722.027649 391.753540
-588.814209 453.499695 500.714569
-686.167542 302.312836 397.147827
-827.766296 611.418701 353.252441
-714.889587 240.397812 384.129181
-603.110657 703.268799 460.177612
-847.073181 614.953613 348.818085
-849.203003 502.526276 284.324402
-843.711853 478.063263 250.846710
-543.231689 599.424011 529.382996
-747.726868 678.945313 401.277985
-687.525818 305.536652 406.899597
-580.795654 643.334595 491.333527
-713.914856 642.078369 412.026703
-749.005310 633.443726 379.686371
-762.213867 436.829102 359.372681
-681.653381 240.218323 426.163300
-702.575195 567.255310 414.300751
-700.595398 693.809326 429.270203
-740.896423 389.441956 373.576447
-706.343994 709.513367 426.998840
-822.212524 546.939331 317.514008
-547.906738 653.945435 506.719238
-564.757141 558.053650 515.253235
-681.650513 279.601654 430.775848
-682.345398 458.840027 434.872864
-619.636108 339.200531 440.901825
-755.372559 605.297913 392.276337
-693.520020 469.109802 412.259186
-803.013855 266.875366 322.680054
-706.978516 332.896362 411.015198
-636.643127 584.654114 470.267487
-637.869568 439.821289 447.180115
-672.021729 419.496277 443.066193
-830.152893 291.545471 310.325806
-812.203064 275.756500 323.245819
-661.765198 686.320068 460.779053
-844.965149 699.766785 388.136597
-698.594360 588.462463 417.082367
-603.925354 415.678864 452.867462
-571.018127 549.008118 497.702087
-844.519836 597.605591 325.741364
-687.921509 456.119537 429.199280
-777.588074 384.018219 348.444427
-638.046692 601.437195 451.177551
-709.293762 690.891602 426.883972
-786.308899 261.784241 349.468140
-620.622070 704.239563 481.451263
-824.653992 299.966064 325.802551
-636.255066 272.655273 457.220490
-826.653015 662.206726 352.722870
-843.954834 562.190796 322.875702
-632.773438 695.982666 465.214844
-808.455872 258.353058 319.187317
-762.915466 536.763245 363.965210
-702.019043 706.114319 426.136169
-619.608521 475.501617 482.177216
-523.741943 682.897461 532.760193
-595.852051 495.000946 481.949615
-835.063782 608.487000 333.967896
-622.630981 523.993713 480.512665
-649.883789 210.276154 436.422607
-854.989075 461.164581 304.780548
-763.483459 511.621216 368.017395
-622.250183 536.738708 461.385956
-558.079956 654.371277 498.388123
-655.713806 496.716278 443.288910
-846.553650 733.169495 403.285492
-826.332520 619.889893 363.491119
-767.005127 570.100586 367.384491
-764.954895 487.200195 376.555420
-764.965454 557.796570 366.200836
-725.886963 548.024414 404.926727
-1116.839478 680.594482 201.146027
-569.004150 549.864502 483.907745
-562.542969 662.787231 512.364807
-721.087830 650.257507 412.088989
-579.217773 567.107971 510.800934
-574.650513 652.384949 490.252655
-645.987000 218.766266 425.568054
-851.000610 697.146240 382.573669
-697.684998 704.282043 405.461334
-737.674377 510.582458 400.330719
-665.055786 595.360840 439.760773
-600.943054 634.769348 465.315887
-630.035522 299.843292 429.753693
-811.682617 531.936951 355.450165
-854.989441 495.561401 304.533630
-707.423401 283.888092 406.318085
-679.317505 420.390503 436.366119
-538.121216 633.147644 533.512939
-825.015015 597.675415 361.515594
-785.392517 348.936523 338.533447
-804.492493 384.487671 326.038116
-743.093079 571.192749 393.363342
-863.033020 458.674438 286.691132
-543.346069 611.171204 520.041504
-595.748535 292.505951 469.097656
-639.759094 476.046906 464.816071
-854.731323 474.893127 260.147247
-790.795593 613.902222 360.028442
-745.853577 732.519836 398.206268
-537.348999 653.460876 532.430786
-722.438721 342.087463 386.744690
-581.105774 673.894470 492.013916
-828.214844 566.382080 257.806152
-773.055664 565.156555 362.387695
-617.460999 427.878815 463.146027
-571.421326 447.117432 498.643372
-589.653687 473.457489 503.673615
-838.609924 551.643311 305.853271
-681.089539 698.122620 444.040466
-801.320251 370.042206 346.844940
-828.178101 630.691162 329.981873
-795.297302 436.357666 356.590790
-585.527100 481.921448 507.907166
-761.565796 496.015961 358.211426
-616.792603 371.901886 457.261261
-680.475403 678.205078 442.702820
-722.184753 342.361633 391.468384
-781.716553 302.536438 361.611938
-644.023682 366.474945 443.152802
-827.001587 607.256592 302.864410
-725.214294 669.525818 405.260223
-834.339294 616.141907 308.082520
-827.873779 663.300415 335.249786
-785.424255 273.725098 358.323761
-760.136963 511.426392 379.413239
-581.568481 547.601685 491.937012
-764.234314 496.915344 364.411560
-701.205994 243.661667 398.658264
-556.638367 605.635925 507.257080
-707.022705 328.288361 385.100922
-636.492798 346.703003 445.847168
-652.492615 215.414444 433.894196
-701.723267 574.248169 412.837860
-734.052612 732.977112 407.337677
-823.079651 599.675049 310.790161
-629.219727 314.335388 471.365753
-695.828369 621.227173 417.598022
-682.634033 631.283630 428.873840
-620.451538 654.217896 478.261780
-847.706360 479.845428 328.450348
-585.715759 556.433472 494.825073
-842.193298 581.670410 340.926025
-834.504639 610.717346 301.120331
-730.711060 495.575531 384.633698
-636.719116 536.744385 455.151550
-669.412781 571.471741 446.879913
-713.088745 527.758118 405.638275
-627.887573 590.419189 470.502014
-684.281555 625.755188 443.361420
-747.275146 762.186035 399.891937
-583.650818 700.226196 513.556030
-653.683777 446.143585 440.864105
-622.565552 362.757416 452.654755
-716.978943 694.958008 408.543915
-678.691528 277.004395 431.633270
-742.378052 650.426147 403.147278
-588.028015 478.279633 483.655334
-840.542297 419.987610 325.060822
-617.773804 246.733658 445.391022
-663.323303 494.841644 440.704865
-573.640564 587.086731 512.677612
-595.575134 686.002197 482.759521
-786.585266 274.147522 347.581665
-645.708984 630.910278 459.565857
-752.003357 552.540344 374.931549
-590.450317 668.033142 504.554138
-647.106445 305.612610 455.412903
-550.119385 585.220764 515.502930
-706.623596 371.615295 396.331177
-667.011536 542.689087 430.785034
-792.670715 350.544098 347.865540
-577.852905 607.072388 501.398499
-691.384583 379.964050 423.221344
-593.579529 627.874207 486.273804
-761.769226 333.976410 362.016968
-683.589661 600.342834 406.685364
-657.862427 254.412094 426.259125
-665.401733 592.531921 448.918396
-893.731689 391.841400 321.341034
-683.084778 529.856384 423.303955
-669.745605 317.927094 398.431183
-690.269836 559.246948 418.924072
-615.796143 331.422699 474.307709
-870.726196 441.665070 293.487213
-763.181824 336.411743 368.825439
-650.528992 373.370483 453.411957
-795.459717 405.194489 348.959900
-815.124878 348.325378 310.494995
-789.610474 426.318329 339.731201
-749.145874 280.239929 362.117035
-762.075439 265.279663 358.586639
-730.060913 721.236755 385.977386
-574.607117 672.917542 516.335815
-847.240601 543.561279 330.845520
-755.523560 705.870789 382.079041
-701.943909 707.210266 407.696198
-588.425354 643.701355 497.812683
-647.084778 720.154602 458.849915
-635.150757 348.945068 461.268951
-829.638367 575.055481 321.729523
-820.906616 278.910004 307.529022
-625.774658 251.593445 445.350861
-671.182190 444.074829 445.197723
-719.835632 671.511475 398.464752
-839.610291 520.690308 274.436554
-627.066101 700.821167 459.867249
-688.115173 400.780945 416.106415
-566.021301 657.335388 515.531250
-762.454224 484.855225 367.727081
-692.587158 568.352112 421.642548
-662.727844 346.467957 432.900787
-867.889648 342.013458 319.587219
-594.403259 450.433228 476.983521
-826.320374 545.402405 291.645386
-546.464722 596.443115 514.830383
-545.848145 631.118958 530.818481
-593.501282 483.578918 489.154541
-627.756653 450.647644 472.314758
-668.348145 669.789368 450.785065
-710.261414 400.342896 398.626526
-830.675110 267.964020 304.272400
-851.983337 417.536133 323.835663
-765.682068 707.212585 389.073700
-824.467712 622.085938 292.337067
-736.527161 596.030579 399.419464
-751.133240 556.936279 391.763336
-852.394653 312.885162 313.647522
-615.553101 591.345032 471.518677
-590.776184 468.860291 502.537994
-695.983765 749.935364 434.385468
-611.223755 281.685486 461.887848
-618.924805 325.574036 481.152710
-744.727356 729.064331 400.062134
-668.032043 536.883118 431.880066
-677.576050 448.397827 424.568604
-817.076050 333.751007 307.796082
-576.163330 640.239380 475.121948
-612.823669 396.713165 474.098511
-612.617493 593.716675 481.065948
-603.698425 707.832886 473.800873
-751.325134 588.288940 381.341888
-622.667969 330.715637 470.840942
-839.901428 553.637878 284.217346
-664.272156 237.598450 419.768646
-629.334473 723.734192 476.512665
-709.505127 716.372742 401.258026
-630.655884 197.229141 469.254883
-825.956543 561.764343 256.941406
-583.180542 572.690369 497.995300
-627.762207 541.782532 469.321075
-643.003967 597.975525 428.966766
-594.991882 415.645233 476.771698
-839.658569 514.207458 332.240997
-787.429321 543.567139 353.049164
-649.444946 566.708008 422.855927
-647.016296 591.804932 461.709625
-846.715515 687.301208 379.863068
-713.576782 227.066284 407.902008
-659.385559 313.267731 438.899719
-597.660706 478.779633 492.267365
-846.614075 541.568604 302.410065
-736.835083 497.552795 388.421600
-847.685791 321.289978 308.875336
-705.877563 376.482788 402.016174
-722.899963 426.600922 393.110229
-742.047119 734.349976 406.167969
-850.737732 450.790253 265.050934
-605.077576 671.821838 480.788177
-587.251709 481.813721 492.133209
-673.537292 256.101654 395.321960
-675.073059 274.625244 397.543274
-636.884399 709.548584 468.966034
-752.124878 724.132385 391.837158
-582.600220 673.635742 509.921173
-571.832397 577.622742 513.913269
-795.416443 528.982056 350.161133
-671.431885 349.728119 421.265839
-792.632874 485.200165 354.071014
-776.399170 287.043945 343.480804
-630.574829 326.602722 464.476013
-844.271057 285.813416 300.956177
-690.896301 529.068359 419.408478
-784.061890 616.209534 374.316376
-820.545776 421.110016 323.591980
-727.841919 339.697540 379.998474
-616.097900 530.163818 482.640167
-742.817261 342.669525 384.168732
-679.373779 611.901794 431.755249
-716.645508 281.166779 396.967804
-620.552185 524.511353 471.786621
-829.703918 521.687317 284.352325
-883.791382 325.819061 319.680054
-690.947205 510.116241 433.734161
-759.895264 626.226563 378.473022
-825.500427 369.269897 323.843994
-582.272400 413.417450 476.749146
-758.736267 346.835327 365.540192
-693.511902 581.820740 417.616150
-564.992004 554.826843 501.458618
-637.286682 347.550507 441.296722
-629.777527 554.688904 467.132446
-774.993591 735.715881 393.610565
-759.968018 660.211975 384.223328
-633.433350 412.057556 449.848267
-663.864075 346.316437 437.897400
-752.547546 634.958374 385.781677
-702.955078 558.772461 425.601044
-611.656616 574.837219 472.452026
-730.751343 572.992737 394.815735
-662.583252 363.304688 426.508545
-811.112976 513.504517 349.862091
-778.307312 318.641266 343.748383
-775.646667 474.279541 372.758423
-821.579041 349.060760 329.963684
-746.575806 539.431213 389.394592
-837.034668 367.247223 324.285187
-586.615479 465.686493 458.318390
-660.109009 378.089569 418.682037
-609.899658 207.286713 448.073822
-852.527954 450.539703 322.616028
-585.719849 442.912140 499.873627
-694.601196 327.951385 403.110260
-740.364502 656.974548 381.055542
-637.149597 214.339844 419.537720
-784.243286 623.347595 378.062317
-840.583374 520.570618 329.537292
-882.015625 396.704712 327.307251
-848.377014 497.391571 279.667572
-686.325317 377.272522 411.041656
-850.232300 608.874207 336.805115
-609.572021 251.676544 457.513306
-688.122314 748.306152 427.424255
-592.690735 340.834534 489.118439
-806.791077 578.341064 347.009521
-572.378845 548.424438 504.739105
-776.867371 280.030731 354.409180
-678.306946 284.869995 414.625641
-732.400696 573.341980 395.837250
-641.593872 474.285889 465.268921
-650.060974 706.506470 431.002136
-745.552368 410.052338 362.892059
-806.643799 563.954590 351.698944
-791.417786 436.085297 353.912994
-667.535034 494.098785 443.160278
-807.780334 430.336609 328.350739
-803.116821 250.487289 326.181183
-782.154785 534.848083 366.631409
-766.667969 619.031921 364.455475
-828.733398 611.036987 363.397064
-580.044556 629.006470 510.654114
-642.521667 510.225098 424.389771
-560.015442 610.159607 521.305542
-690.353943 247.012695 416.904602
-560.397400 499.149414 495.186646
-692.077576 222.732056 422.285889
-762.301270 704.426453 383.158875
-785.485168 604.425720 372.140350
-766.093018 310.718231 353.084167
-672.558716 392.915375 423.539093
-829.158813 657.774902 334.753174
-730.049805 254.963486 395.969086
-715.836975 365.038788 406.120453
-715.530457 539.473145 401.443970
-775.636169 411.423126 349.070923
-644.202271 359.346191 431.387909
-825.160828 493.229401 249.462067
-716.397339 479.176392 397.875183
-744.414368 732.406555 403.257416
-721.310791 605.526001 415.740356
-619.767151 698.083862 448.495972
-658.750610 442.937805 436.680969
-678.450256 631.340820 442.875153
-721.051575 578.154541 409.660400
-725.937927 465.919403 393.403259
-816.531311 618.134460 278.662140
-832.023071 570.760498 287.320313
-595.303894 539.794373 495.964722
-632.828796 302.820831 454.884766
-690.547058 598.857178 419.838501
-576.405945 472.657501 464.965485
-540.556213 680.921143 543.499695
-654.095764 389.058990 449.808624
-641.275818 278.419220 458.577148
-655.797302 673.047974 460.289673
-664.585266 557.531616 436.310394
-797.750427 574.858398 364.310730
-602.359497 320.942780 464.131378
-668.851257 218.480606 422.996796
-562.488647 520.480225 516.545105
-841.189453 498.278137 328.735413
-567.946472 680.804077 519.317871
-616.658325 240.848007 441.255737
-640.208008 510.324219 452.435547
-579.601868 567.173889 470.550934
-602.151550 363.557007 455.446411
-596.665283 397.847137 472.571350
-579.105469 485.162476 491.279541
-661.128174 660.065491 459.966583
-679.855896 603.464600 429.062103
-821.885620 550.969055 306.413055
-849.463501 520.552307 266.138580
-594.916809 653.683411 502.553040
-741.024231 411.610657 379.839294
-563.578369 540.400269 499.870331
-873.742981 437.330933 335.787231
-835.105530 497.103149 256.010010
-566.061768 557.441833 502.657562
-652.949036 384.546173 454.718079
-836.424744 606.852661 311.763000
-663.124023 478.454773 431.221893
-625.214783 549.607300 468.504761
-746.759888 518.624023 377.913544
-719.048523 305.771667 372.033997
-609.930115 643.786499 478.159271
-807.685547 592.717896 337.262482
-832.080139 601.331421 291.763336
-681.342407 617.662598 429.327423
-806.081909 520.140808 327.952484
-756.801147 455.243927 382.249115
-653.898071 224.714340 424.209747
-644.200928 256.028992 429.266571
-829.841553 641.363098 319.072083
-796.299988 473.423340 348.768677
-616.340088 719.517151 466.109283
-838.729919 526.432312 327.808533
-696.182373 376.352020 419.222351
-756.469910 342.291473 373.847107
-851.031921 636.386169 358.442810
-580.622559 423.140594 485.183533
-742.829163 434.218781 360.535706
-832.421082 582.369934 323.308929
-848.922485 378.042084 329.552917
-754.866943 671.135315 383.048889
-702.394165 496.737976 405.045410
-833.486877 632.416931 344.477234
-813.955688 290.318237 328.444275
-760.256592 576.955566 362.379364
-780.615234 521.296631 357.232910
-572.646667 436.696747 486.091644
-585.280640 442.848602 482.639496
-861.337952 417.049225 291.758209
-777.074036 249.279053 359.306824
-837.994263 504.192871 339.858978
-697.463196 398.635132 424.496674
-748.070862 401.431915 387.678650
-873.230957 441.026764 294.557953
-729.916687 465.435638 405.121277
-749.463440 591.601440 386.672302
-572.619690 543.422546 496.382172
-737.544983 564.315735 390.332001
-606.287354 631.048584 486.089813
-789.289612 246.323608 362.406128
-778.592651 466.318726 364.138733
-602.501648 373.984802 470.248566
-724.877258 364.322815 397.316376
-616.592224 515.390320 483.833374
-640.310974 250.723145 450.840149
-671.888062 331.940094 418.925262
-693.808594 488.005371 396.714539
-656.466125 663.202515 454.866730
-821.224609 684.285217 354.681244
-856.730164 390.116394 322.326355
-555.865479 541.079041 516.103149
-861.917725 461.641693 317.031769
-620.735962 301.928680 453.004181
-715.274231 325.103119 395.033234
-833.241455 362.226898 321.519409
-745.409241 290.337067 366.987946
-665.539856 579.765869 432.479065
-572.532349 591.944885 513.337646
-754.373901 343.681030 381.406189
-681.352539 448.943939 423.561798
-699.657288 668.018921 435.726959
-732.025879 352.885101 397.437927
-843.732300 566.934753 281.167450
-788.081970 258.469360 333.524048
-884.795044 417.625427 325.154938
-690.223755 521.528381 417.419037
-582.874390 406.113922 480.507416
-602.360718 545.140381 487.306335
-824.135803 529.325195 271.298431
-547.523438 585.424988 520.768372
-832.888245 527.571594 283.200073
-625.560120 599.596375 481.630951
-693.099121 735.103210 436.492249
-758.813782 769.529846 406.284760
-669.880981 691.188293 448.373322
-731.564087 302.566010 378.559021
-661.956665 373.318695 431.787170
-623.523865 267.900360 458.648865
-598.635071 670.202942 459.313843
-670.515930 256.791321 426.059174
-696.777100 548.462158 416.918884
-602.278442 640.780701 474.548492
-642.983765 298.268066 455.395599
-663.762146 393.692963 446.871979
-591.877808 523.200562 489.249390
-723.126038 530.337158 404.431519
-601.901611 641.015930 494.961182
-613.006897 407.732239 478.762726
-660.100952 315.070374 430.731689
-746.418091 463.297516 387.880493
-589.537964 608.516541 464.687042
-669.227356 375.310699 425.670990
-792.966980 473.946716 338.224976
-762.913025 466.707428 359.767517
-680.439148 254.064072 420.169250
-676.781982 314.417664 435.554230
-705.449219 345.253723 396.229065
-797.992493 726.996948 362.056610
-643.786316 232.367966 450.553497
-716.020386 524.795227 415.426910
-843.616821 531.730652 280.496246
-777.212708 480.674561 356.200562
-691.671570 676.932251 431.985474
-682.423340 286.108917 411.589478
-835.812378 550.221191 321.689636
-716.392883 234.908813 400.905670
-640.112976 367.288605 430.692383
-639.022827 374.633301 459.487061
-537.524963 553.208191 497.558929
-762.631775 257.492401 350.368530
-735.253357 332.939606 375.774109
-805.339050 536.161926 343.178833
-567.738098 472.067566 503.199951
-700.258301 464.101807 407.424927
-768.871521 524.076965 377.313477
-674.886353 493.940948 427.753784
-835.243774 548.639832 291.455994
-701.068176 634.806824 432.523773
-697.951538 495.246704 408.145813
-648.854309 331.610413 436.028290
-750.278320 597.300110 392.481842
-850.370544 482.998962 269.906555
-709.390076 265.057098 385.734100
-709.871521 645.668640 415.728149
-530.510681 664.296326 526.091614
-655.803284 379.561798 448.265747
-834.631165 609.633484 323.005402
-845.539001 481.589294 274.155396
-668.232727 474.988007 427.587555
-838.428650 542.795654 280.794006
-721.964294 436.184418 406.241821
-773.893799 738.477783 381.611176
-855.911255 370.541260 328.092377
-829.912109 500.309967 263.108826
-719.494690 519.114563 401.101440
-540.657654 656.119324 531.517883
-759.008911 317.834656 355.359070
-832.870911 695.812317 378.157074
-758.863281 406.448700 364.135071
-680.235962 625.454407 436.614044
-596.821777 589.197998 500.879364
-634.551392 502.047699 438.366821
-662.991760 444.535553 433.746338
-757.605103 368.377319 349.509186
-666.248413 657.328918 432.360596
-678.469543 688.814758 429.120422
-583.157593 436.502808 500.338562
-657.988831 509.975616 449.811310
-766.988159 386.057617 354.286102
-744.891296 502.237274 387.332092
-607.311768 534.717468 480.394379
-831.665649 372.462708 322.993134
-637.497314 670.573730 471.154663
-573.725037 465.884399 477.678253
-729.202087 448.945862 390.756836
-750.158691 298.163513 360.732208
-627.998901 626.301147 445.636169
-799.949036 310.979950 306.821136
-707.402283 592.742432 411.516968
-640.568420 656.178162 457.996552
-708.673523 534.382019 417.376404
-660.267334 618.402649 443.590546
-678.590515 356.860016 435.256439
-581.113159 628.083435 505.397278
-768.203735 651.182739 372.628113
-600.581970 491.595642 484.859497
-733.147156 480.353119 386.605682
-701.531494 486.577637 406.518616
-619.098511 562.421448 474.758545
-610.679749 654.563354 485.277405
-637.853821 434.330750 463.835419
-710.137024 554.167358 407.577667
-756.160706 424.611755 384.926605
-834.617493 482.896820 342.544586
-817.601563 555.186523 252.747345
-633.106201 521.261230 463.785828
-704.579285 658.178528 419.232361
-662.457825 512.440796 439.904724
-840.653015 688.822205 385.840240
-632.132874 427.301758 456.811523
-848.400146 499.733948 268.271027
-825.628540 515.113037 259.703064
-652.313782 493.133087 453.010529
-696.192688 714.858459 421.230408
-817.119019 547.276978 252.493301
-576.973206 559.556458 500.923645
-755.864197 311.308777 357.069031
-562.445618 629.525208 492.497864
-609.007507 704.087952 494.480133
-732.498291 667.862488 375.164215
-820.399963 552.151306 250.365524
-669.990540 281.056641 433.965149
-745.121033 329.061615 382.147797
-844.248657 642.493958 329.246002
-817.655823 566.348816 277.664185
-845.484924 479.973969 291.171082
-585.383179 468.862366 468.507935
-721.574158 320.044464 400.071045
-720.054382 703.461975 391.780975
-744.655212 677.634155 390.941406
-807.351257 277.591003 340.316589
-664.875671 471.579468 444.073029
-551.725464 655.839172 514.932739
-854.455139 465.116882 311.061798
-560.150818 583.969360 504.723328
-697.950134 670.883972 410.186401
-828.026855 608.776245 360.543915
-607.394348 411.568298 464.604523
-839.187012 552.201965 327.521729
-623.461853 273.308655 471.821259
-622.749146 207.649353 436.476868
-800.301147 685.262451 382.501129
-610.314026 334.917145 478.632477
-655.152649 697.763672 441.209137
-623.124939 586.730286 476.712646
-853.808289 477.737274 270.179443
-579.227478 654.524475 505.597961
-695.728149 311.533508 408.125793
-612.165771 608.836548 488.531403
-574.874512 590.943115 496.669922
-649.876160 601.455505 465.443451
-608.357361 582.455383 462.129913
-755.748169 520.641907 373.274567
-739.910583 321.722168 379.007141
-651.057983 481.404327 446.188995
-733.473816 600.428101 383.790161
-840.679871 395.150970 320.359039
-683.550964 730.168152 442.335297
-795.762085 731.213684 383.220612
-652.317078 373.531128 437.339966
-692.547302 562.857300 414.111938
-801.604736 521.827576 347.911194
-677.716431 240.367645 409.629150
-837.366699 633.721436 352.402832
-663.797974 589.954529 433.799408
-750.628662 314.301605 371.477386
-786.792908 566.820557 354.398773
-791.005188 273.634888 317.135193
-684.880310 424.088348 413.889832
-674.611267 355.961945 419.888275
-698.503723 475.529419 422.355927
-625.187866 411.130493 454.949158
-599.868347 331.450928 470.447144
-707.005981 445.528992 396.088013
-836.536377 309.083893 307.243500
-657.839172 404.378967 428.285583
-608.954224 341.205017 442.450989
-725.630310 595.268860 405.988556
-725.828918 510.432617 396.506683
-860.171143 438.507294 295.275970
-647.398438 637.202942 463.148254
-778.079651 363.233826 360.113220
-680.471680 326.764740 418.372589
-599.450500 318.181885 469.987244
-658.562988 309.562256 427.892242
-812.139709 509.413910 342.580658
-681.979797 624.750305 421.856323
-834.248169 604.013306 345.158691
-804.084839 663.293945 365.042542
-747.967468 277.359772 383.332611
-801.966858 322.569733 329.500122
-542.720093 662.551636 529.328430
-713.469482 400.248718 397.445007
-652.142334 520.134094 454.286316
-864.693726 436.913696 278.401733
-684.747986 326.458618 397.402313
-840.662354 619.525085 332.350128
-598.904114 300.174713 481.642456
-728.481750 522.268738 390.749939
-704.695740 708.230652 420.686035
-554.268311 548.556763 517.719177
-649.343079 547.511475 446.396759
-622.837952 627.794678 463.998932
-830.862244 600.831482 285.762177
-659.756714 350.450134 429.990051
-697.533325 446.570282 414.411682
-603.401917 657.669128 473.421448
-851.265137 564.793823 339.077820
-854.045715 650.675598 358.027832
-697.317261 414.732086 419.907501
-602.826111 475.343109 474.790039
-659.429504 589.063538 422.271912
-650.368042 477.460419 460.934540
-625.438660 647.562073 468.849213
-822.630066 510.062378 244.538544
-684.286560 256.558136 407.807861
-859.527832 277.528351 309.329651
-628.058716 343.187103 451.070953
-750.010376 394.137329 357.897949
-609.888794 599.353943 472.603210
-700.222839 531.541321 419.660492
-792.492920 561.992981 349.615417
-728.742310 275.692413 391.705353
-590.168274 496.498535 495.278015
-792.973022 384.237579 322.309235
-665.936218 640.619202 440.388855
-661.052124 707.179199 424.180145
-599.669495 700.744507 497.588257
-652.411926 668.831421 450.893646
-647.682373 232.891342 429.174530
-704.338745 334.451416 398.455322
-659.469177 307.038300 442.055206
-575.955200 655.904419 506.720642
-629.703003 221.188782 452.475983
-643.982300 445.835236 461.304291
-612.797180 431.955872 463.713043
-615.923340 599.820618 483.861542
-646.782471 636.175354 465.292419
-803.460999 276.447998 332.220795
-621.025269 708.113159 479.683380
-592.674866 554.934814 500.497040
-735.803894 391.805420 376.860535
-567.826843 590.846375 512.208557
-664.828003 279.452911 437.797516
-707.869202 697.065674 420.842773
-678.831299 411.073364 423.979523
-606.010559 628.319885 492.341187
-831.343994 545.635376 341.905365
-693.384949 523.451782 421.297058
-742.164673 636.416199 393.310425
-751.547302 640.348511 386.508911
-837.617249 528.074707 334.101471
-882.876831 344.880981 318.395508
-647.132874 336.145508 453.029327
-850.526733 698.689819 381.605072
-650.625183 338.398376 440.525696
-748.229004 269.975098 359.437592
-636.458801 493.131378 469.603699
-688.618896 459.449738 415.128113
-685.745605 466.104889 421.099884
-802.262756 713.718567 352.992004
-614.400940 317.586578 457.510071
-619.059631 730.094238 479.702026
-749.309937 496.389648 370.746124
-791.708374 263.668518 324.596039
-811.798157 302.719757 317.328217
-773.421387 541.215271 362.971100
-809.306580 735.345764 391.621429
-836.766968 568.155212 306.506012
-743.534607 321.211334 368.072693
-693.842407 442.340363 407.558746
-743.227844 341.057037 369.207123
-672.750061 328.795990 438.770844
-570.573853 520.242737 498.786316
-692.248535 405.306458 399.783752
-612.118835 417.013367 470.958496
-564.894836 551.186890 497.796600
-741.241211 372.076324 391.360474
-823.452759 681.301819 382.792755
-593.335083 620.772034 483.150421
-540.500916 604.610229 522.144836
-752.979492 656.330872 383.814545
-582.964111 530.243591 501.272858
-659.066467 492.106567 452.541748
-633.960571 537.328125 462.458618
-595.022339 607.318237 499.281525
-692.676941 505.948181 428.436829
-621.150269 334.749146 453.654846
-786.674438 280.445221 333.436005
-641.394714 531.337708 432.272369
-670.742737 401.439514 442.041290
-761.738831 369.218079 371.464874
-599.705994 531.787292 487.780792
-607.029297 640.891357 474.036102
-684.579956 226.859802 415.723877
-710.172302 545.988647 416.445557
-563.223267 588.207764 521.341187
-824.973816 542.216553 304.712341
-854.996216 482.530823 302.715363
-818.408569 518.474121 345.914429
-806.367493 600.358582 359.969513
-720.734558 392.168182 387.146759
-671.160522 582.989014 446.223602
-747.463135 688.372681 392.934357
-580.103333 417.735474 496.007721
-672.472595 546.601868 443.607361
-770.590149 495.196838 362.265320
-697.955933 698.367249 428.333679
-567.672302 607.588196 506.886169
-644.925537 451.489624 448.882263
-620.677673 505.639130 478.707550
-789.272766 370.195404 358.831665
-728.869568 569.120789 394.405273
-850.309570 447.577423 274.027893
-635.707825 654.462036 470.885620
-671.909119 637.306519 443.820801
-840.243652 510.431427 304.550201
-818.422241 558.845154 350.150208
-581.536377 395.092407 502.981598
-629.668518 330.673096 448.592499
-542.846375 662.447571 509.290100
-728.096497 665.135010 415.044006
-566.895142 604.503174 501.817291
-756.995972 357.688873 365.359222
-673.383362 675.934143 453.362061
-690.392578 709.294312 441.042419
-657.055908 272.935455 442.420990
-692.260742 680.935913 441.101471
-689.976746 390.442749 409.112762
-593.627808 603.843384 492.289490
-544.329956 691.791687 539.490417
-760.108154 348.392517 371.346375
-708.023682 617.609070 421.172760
-598.454712 333.408112 448.786621
-840.860657 703.545227 384.310394
-577.347107 575.353088 501.148102
-802.102966 576.599487 350.682465
-611.404358 288.343811 442.132446
-606.394653 399.530762 468.417969
-647.728394 573.260010 455.809509
-720.209473 343.727997 405.710327
-829.671387 606.487671 346.858521
-605.639709 322.104675 481.724854
-643.454041 512.985718 450.221710
-631.398315 251.853302 465.179077
-806.609680 249.004654 332.366333
-686.022888 638.786255 429.407349
-633.452942 494.079742 458.650208
-831.346680 633.032593 310.663239
-797.806213 681.427429 379.319580
-844.782471 661.926941 377.775909
-618.189636 542.921753 484.154755
-727.872864 548.538391 388.241577
-622.937927 527.216614 470.168884
-630.293274 565.989868 470.015228
-681.835266 533.024231 439.059479
-728.157715 272.036560 375.299103
-549.708557 670.500793 530.172424
-650.137329 600.077087 429.185486
-739.250122 605.078308 388.897858
-737.361084 602.823792 401.818359
-617.239502 455.055206 473.687592
-758.375427 750.645264 395.606018
-842.799072 702.657349 379.916351
-809.832336 712.768921 379.196350
-628.835022 441.955078 453.568604
-630.003540 644.109619 476.890869
-846.529602 647.997437 334.935425
-819.352600 278.093506 309.850403
-702.998901 487.694946 387.614441
-710.835449 513.565491 420.398041
-835.622192 629.324768 363.052063
-694.864563 718.994324 417.162842
-684.571045 440.531952 422.551483
-629.067810 305.375977 450.632446
-618.603149 391.429016 458.933105
-776.576904 603.570190 367.484131
-685.923462 509.753174 416.295746
-760.674255 318.507690 363.130798
-770.816650 487.953369 356.917633
-661.628052 518.737366 417.384033
-694.404541 416.648834 427.652588
-688.539246 600.988953 400.651489
-642.831848 542.245728 450.753632
-710.477417 625.068787 401.106354
-684.460938 634.773499 436.275299
-730.882629 517.103638 394.374451
-606.217102 488.625977 481.422791
-766.195923 558.039429 380.208893
-838.007202 514.010193 266.284363
-635.855469 675.480225 462.004059
-692.352234 698.106934 434.543671
-609.230286 703.567810 479.913605
-630.708984 366.802216 453.323914
-683.297058 347.594666 427.369293
-771.327637 439.542786 352.730865
-574.461487 518.501160 500.067047
-695.230042 463.799255 425.821136
-846.327576 601.309265 331.062164
-640.391235 463.229889 466.189972
-621.861755 688.842957 462.929138
-842.700256 534.443298 278.232147
-745.270996 451.428833 377.839081
-737.736328 633.380188 390.496552
-843.561157 484.210266 257.586487
-854.984009 545.062866 327.233032
-689.106323 380.358398 423.584534
-733.420471 530.041199 390.144806
-555.635986 560.770630 487.028748
-717.710571 341.205200 394.505310
-719.750183 271.555573 397.859497
-777.771240 469.570435 366.824707
-838.764648 474.174011 289.716644
-657.860229 455.742126 440.215424
-623.345459 304.003998 435.642456
-727.300293 444.551117 390.572266
-608.498169 704.138000 458.653137
-631.606140 480.422577 473.649933
-641.223328 328.796997 451.599609
-668.836670 667.722961 448.048828
-689.008606 341.337616 388.887146
-743.395447 547.735718 379.839325
-790.265991 407.183105 328.646149
-636.832031 419.580780 447.269653
-745.253601 596.849060 390.023010
-798.845764 315.120209 327.542725
