ply
format ascii 1.0
element vertex 1372
property float x
property float y
property float z
end_header
-393.852509 732.048889 -399.380676
-120.802254 959.814514 -328.428284
-200.460327 915.272461 -484.743866
-141.508270 957.248718 -510.019440
-196.545532 926.434998 -478.482880
-90.903915 976.203857 -335.504425
-113.748314 983.534729 -438.704407
-245.634857 853.288635 -428.742950
-224.003128 856.227539 -322.818329
-364.647095 723.842896 -257.835144
-28.314667 983.386230 -177.513901
-244.213516 815.323242 -224.182846
-250.331375 834.422791 -379.640106
-219.134064 823.981750 -195.991470
-118.507431 940.699524 -205.629257
-298.793732 798.030945 -405.828064
-226.453735 850.197632 -359.750916
-195.993774 908.772095 -505.042969
-374.082977 715.651062 -247.626617
-91.269424 953.764404 -267.057953
-337.250549 760.631958 -424.138702
-181.784546 889.826965 -232.163849
-398.444214 713.752258 -355.201935
-367.515320 737.973694 -443.493561
-250.069199 886.625977 -480.728821
-318.495819 752.050537 -275.410400
-120.874435 999.254395 -451.325073
-54.694347 972.703857 -201.223297
-255.881302 803.990784 -246.930710
-218.143265 817.173035 -208.648209
-392.759460 702.465332 -258.500732
-363.064911 708.452332 -341.615448
-277.216888 776.644775 -223.264130
-94.414680 1003.265320 -376.472992
-173.294205 870.294067 -199.148911
-79.979301 963.741760 -186.842911
-159.016891 892.959595 -516.318909
-137.577896 947.249146 -322.951691
-416.245087 717.094849 -396.088013
-38.228363 1023.599670 -393.127472
-293.828339 800.400085 -319.243958
-142.162888 891.596069 -289.740723
-102.327271 919.838013 -221.099609
-198.780563 938.049438 -466.707275
-73.129501 969.353882 -255.416870
-320.072266 774.373352 -279.264465
-357.520752 702.958801 -213.682327
-85.556946 982.879944 -300.982178
-204.182632 878.277527 -510.518982
-326.574005 748.530884 -215.600815
-162.600266 884.433899 -519.226379
-92.024574 977.901611 -409.088470
-18.818724 1001.182190 -150.145828
-262.686615 813.088623 -285.986145
-173.811798 934.048645 -511.035828
-202.906372 917.966003 -492.108002
-151.481277 928.632446 -352.087830
-387.127533 687.172424 -179.765854
-109.298790 921.516052 -167.553207
-156.441315 970.330566 -466.163116
-334.822235 737.033691 -191.532211
-199.333389 897.920837 -518.472717
-166.047913 996.559143 -482.898834
-381.310486 726.009460 -365.402985
-291.570465 814.512878 -350.153900
-257.128601 872.016052 -490.935455
-256.487823 829.983459 -504.290863
-65.639381 1018.925781 -400.372711
-179.683960 941.417969 -492.629517
-84.121117 1001.492310 -343.624268
-225.789780 831.488098 -249.506622
-379.870575 681.476013 -205.936127
-151.487366 918.799194 -252.047791
-327.966248 753.831787 -217.791702
-199.679184 869.421021 -245.851181
-356.486328 739.919434 -393.285004
-344.072510 709.333984 -181.003418
-375.608276 772.764954 -459.803711
-80.918564 986.091492 -345.900848
-184.629684 865.389832 -317.334656
-302.021851 824.563721 -515.723572
-258.069397 815.762207 -290.122833
-217.812576 837.875427 -152.726761
-454.031403 739.190796 -482.497253
-202.260757 876.522644 -499.104004
-400.627289 702.503784 -283.863434
-262.688965 854.011658 -500.226776
-293.577576 764.858948 -222.449539
-23.835346 1016.482605 -182.478409
-337.870087 760.024292 -314.527649
-23.610825 996.708008 -171.170074
-179.281021 871.899780 -227.975891
-188.293503 873.844910 -252.608429
-283.617188 827.464355 -409.544373
-190.532562 846.593079 -283.874786
-278.630798 827.654114 -345.389832
-377.193420 735.477844 -427.276764
-54.033920 985.668274 -259.984497
-246.770935 849.322388 -430.782867
-127.613205 936.439819 -268.355682
-354.611328 713.718628 -309.937439
-109.306259 902.497192 -205.006271
-70.553619 984.515564 -238.651398
-307.201050 767.640076 -331.107758
-233.003769 893.148438 -484.460388
-52.957813 1033.985352 -362.988495
-169.162476 838.830261 -522.445313
-272.301758 810.552856 -316.826752
-134.056122 919.971008 -251.300278
-53.622612 1037.927979 -373.462708
-248.478867 807.118103 -204.228348
-199.702454 885.902222 -516.969421
-194.506485 896.257751 -394.416809
-190.253708 883.499268 -303.354095
-53.928810 989.020752 -302.801239
-401.932678 707.142822 -431.406067
-251.412796 817.140747 -524.576843
-203.190826 855.343079 -242.595139
-101.611137 967.427673 -340.160370
-102.990723 965.785217 -269.294739
-391.430908 702.638306 -399.734680
-411.816284 709.053772 -346.380127
-22.426437 996.537415 -161.694382
-131.518646 958.876465 -413.671967
-139.202667 917.818848 -288.851227
-203.750076 894.623779 -369.577698
-273.266479 798.236389 -327.440491
-348.094940 759.164307 -442.093903
-71.792442 1004.688049 -294.707611
-275.503235 809.184875 -279.724884
-237.049927 806.859619 -192.884949
-132.648819 973.345398 -409.614563
-40.721703 1004.884949 -260.872864
-209.671463 877.383240 -503.888855
-440.332245 727.358276 -458.594238
-346.927307 748.416687 -293.423187
-350.595673 833.208801 -499.463776
-391.856628 726.015503 -408.115265
-257.198730 814.023438 -211.746552
-61.846718 961.254822 -185.740677
-94.295418 958.313416 -261.874939
-219.931641 872.582092 -335.476563
-316.247711 771.340881 -351.281647
-93.425400 971.559753 -322.975861
-314.581207 777.035278 -271.568207
-301.688599 784.670898 -351.728363
-264.134338 804.088379 -265.045044
-161.756378 918.701294 -331.151093
-3.543318 1006.511169 -181.662094
-240.061569 863.049683 -375.414581
-120.495529 925.146973 -168.679260
-80.419174 945.373535 -185.136963
-170.166809 900.968140 -303.938171
-199.478210 930.941223 -471.329865
-396.434082 694.620422 -285.130859
-185.264877 871.969177 -216.163055
-42.381062 1066.985718 -431.701935
-371.754303 685.067627 -272.754944
-320.381439 751.992371 -329.932739
-39.036461 1001.775269 -180.640564
-223.669052 825.350830 -215.068100
-62.010910 988.999817 -228.525650
-66.425117 990.868408 -240.154724
-68.105179 991.524109 -322.098389
-128.807846 951.385559 -362.419312
-270.142120 816.347046 -333.564972
-400.071442 684.080078 -271.212585
-346.254822 725.376099 -185.168472
-188.097305 848.519958 -172.357849
-126.294167 977.732910 -445.763092
-200.979767 840.395325 -179.728882
-86.489723 1012.860168 -403.701874
-323.716797 765.707886 -258.900818
-237.095306 886.329468 -506.548828
-333.319672 748.860474 -323.072235
-10.269830 1032.510986 -239.484299
-77.752228 1029.381348 -452.428589
-128.081650 923.598938 -256.502167
-285.498596 773.620850 -235.222351
-304.355194 835.933533 -468.447998
-139.383163 947.379211 -369.819031
-148.425476 934.425171 -520.633972
-248.329575 816.827759 -247.916656
-304.104370 840.252991 -506.946899
-207.451813 922.080750 -478.354431
-320.820435 756.765564 -342.246918
-313.056763 775.950500 -288.287781
-120.212517 920.291077 -178.738159
-26.941696 1003.589478 -194.046539
-162.160599 904.432312 -280.075806
-309.961060 785.528076 -361.117493
-67.635033 970.329529 -278.314880
-90.610458 962.221863 -242.052597
-210.287354 885.793091 -486.419983
-156.342957 898.142212 -179.763443
-157.260315 913.449463 -339.008453
-125.509079 903.982483 -185.394318
-354.422119 734.565308 -328.988281
-51.963230 1033.553345 -364.522827
-392.885040 756.338562 -463.102875
-210.460983 849.258789 -522.246338
-73.128349 971.039490 -328.361572
-53.228619 1011.832947 -427.566101
-174.391968 905.677795 -384.265533
-360.434937 706.103394 -234.206848
-398.208862 670.299683 -176.185333
-232.311462 896.996277 -470.027008
-101.800949 944.289246 -165.622299
-342.770905 730.873413 -333.284058
-380.157623 723.254150 -334.142395
-223.769760 856.150452 -320.371582
-187.303680 881.742493 -268.620148
-362.323547 744.504211 -307.890381
-196.518127 902.781311 -345.722656
-401.281281 723.678040 -394.279236
-321.264526 771.906067 -273.393616
-264.270752 772.802307 -234.605850
-347.419586 743.077148 -283.397888
-381.869293 694.757141 -275.459595
-52.781361 996.727722 -272.058105
-169.638428 921.079712 -486.231415
-210.256653 836.530640 -527.828552
-160.509277 900.256470 -203.574066
-188.130798 889.358948 -310.518829
-100.212685 962.332031 -250.293945
-64.849525 1017.370117 -362.294281
-380.078217 720.788391 -281.307007
-44.515175 1054.601196 -414.150757
-69.059097 955.258728 -186.512924
-308.258331 764.196228 -276.577942
-88.309013 931.723511 -252.699753
-195.370346 878.828064 -288.185669
-313.570496 785.101013 -335.847351
-202.624329 885.019226 -380.951721
-104.897697 983.658386 -362.576050
-133.616791 913.275208 -245.886047
-134.271866 947.397705 -355.730042
-269.010193 818.445129 -347.858368
-44.699722 991.906799 -199.931564
-38.293690 1048.258423 -385.362549
-395.338135 729.593933 -462.836121
-120.014458 914.129089 -204.081039
-167.868027 912.796753 -277.885803
-59.097176 1028.658447 -401.899689
-152.899551 969.214844 -486.211365
-322.766418 768.428833 -361.866638
-198.858231 839.164429 -210.783875
-93.751831 986.722412 -369.470306
-350.582855 715.358887 -316.926147
-381.609619 714.104309 -339.629456
-183.114136 883.546875 -278.694733
-129.639633 966.486938 -437.429047
-165.910324 876.898926 -198.993927
-79.019646 1011.413330 -377.056610
-208.323654 869.216125 -317.307129
-182.656174 909.201843 -513.656372
-250.377304 795.385742 -163.597977
-138.894943 903.406433 -207.735992
-159.183899 880.681580 -520.784607
-375.822113 710.108093 -341.222565
-145.930527 889.313965 -183.182343
-345.859650 735.603027 -231.590408
-204.337418 871.456421 -353.983063
-370.042511 702.562500 -266.136139
-205.316696 888.399719 -386.950653
-147.205856 893.250732 -198.553116
-237.173950 823.758240 -158.381668
-352.687531 775.087708 -446.718414
-261.389587 790.362122 -186.089951
-300.281555 768.391418 -166.036697
-167.312561 882.300232 -240.658829
-77.090523 982.503052 -305.867920
-258.470764 797.175964 -158.330643
-117.549210 949.213501 -345.376709
-303.604004 763.337158 -320.429230
-301.347046 763.654846 -169.206436
-76.261963 981.252563 -309.251129
-159.250381 906.153992 -290.745239
-87.053696 974.389465 -317.756958
-140.979782 893.930725 -174.162079
-172.625351 910.004761 -353.845337
-323.615906 727.141724 -186.258591
-354.643005 705.640991 -216.036377
-320.721924 754.383606 -204.693192
-296.988586 821.956299 -491.422241
-185.972809 982.838318 -478.132538
-248.409363 839.428833 -290.546783
-52.509590 983.436890 -167.071136
-208.969360 869.944214 -516.996277
-330.028503 758.978882 -271.947266
-126.579384 923.870911 -231.583710
-307.690460 813.793884 -406.555756
-222.340668 868.796265 -382.473572
-118.630577 929.386230 -330.203400
-52.962704 994.774841 -260.666046
-168.517090 907.493042 -257.289246
-201.665710 910.290710 -486.438873
-147.422745 919.078857 -305.730377
-224.429947 902.724426 -468.324554
-101.241882 988.525452 -336.095581
-74.190826 980.622559 -225.939743
-282.969452 758.456665 -184.161835
-170.603806 908.602356 -343.153290
-29.711533 1023.506042 -229.754944
-80.142067 978.948792 -249.541946
-49.361732 1028.450562 -356.188751
-242.260666 887.010742 -494.922058
-118.139351 953.624084 -340.275208
-40.440025 982.945374 -264.529724
-398.717773 708.462524 -383.501617
-380.805664 712.054321 -290.780273
-97.985817 975.760620 -347.058685
-314.941895 781.542419 -293.605835
-322.584564 728.430481 -198.024902
-92.667915 994.308044 -394.755707
-51.867451 1002.468811 -313.455780
-142.464645 953.245911 -414.179626
-213.997879 840.322937 -206.984985
-302.631531 815.327881 -392.039459
-153.919464 961.660461 -509.816559
-34.855038 987.600281 -213.135941
-343.666687 709.938110 -168.249252
-245.874863 857.878296 -347.070984
-323.059875 798.137695 -426.874847
-63.954258 972.695129 -213.203644
-340.490173 825.257019 -499.729279
-379.800293 709.716187 -351.081482
-180.796982 889.163513 -523.846008
-129.031662 924.911682 -214.735641
-134.316269 905.668152 -164.426605
-35.052761 998.297485 -205.685822
-392.670380 729.854553 -390.710571
-63.357784 977.002991 -172.715164
-405.133636 693.705261 -366.043915
-225.692749 848.727051 -308.838989
-52.513042 991.074280 -249.884613
-143.091064 1043.016235 -483.774384
-127.599281 965.019592 -359.563965
-221.345535 865.428101 -333.917694
-42.880661 1007.099426 -361.034119
-180.250473 904.363708 -312.589905
-39.053329 1006.916138 -255.868195
-52.720577 988.526428 -196.452637
-201.315033 892.923706 -352.435791
-176.429428 950.864990 -489.672913
-123.810898 974.738037 -387.131927
-64.807732 986.220337 -267.750824
-195.974075 896.943298 -344.173035
-324.151855 759.789917 -251.061081
-230.235306 869.622864 -363.682404
-212.152283 841.913208 -266.668732
-181.213882 986.328918 -480.409454
-185.426834 880.960449 -213.583893
-216.250580 874.888855 -368.116760
-123.669662 920.572266 -169.206711
-275.976349 776.913879 -210.303085
-277.756042 794.344849 -297.587158
-133.791824 914.189697 -251.155487
-363.936707 733.937744 -337.294922
-93.757721 943.334167 -164.683548
-280.357910 800.842896 -266.368927
-365.137390 692.423279 -196.254074
-67.714706 970.787598 -171.606171
-54.484406 961.777405 -167.722000
-95.491890 953.036926 -192.269104
-244.900589 892.360107 -483.435669
-130.565018 954.578796 -505.179169
-245.996109 829.604370 -236.555084
-382.082153 677.805908 -185.466751
-200.688156 860.239685 -235.174973
-169.116882 947.347412 -497.909637
-235.300491 850.293091 -368.408386
-303.308350 834.739441 -494.834290
-53.209194 1038.308716 -405.548523
-257.298523 818.038269 -234.391815
-244.020920 801.824097 -166.566254
-375.339935 686.921265 -225.928650
-287.045624 833.098145 -493.829773
-345.126801 784.723938 -453.307556
-289.165192 760.976929 -163.122284
-391.247345 714.427673 -412.538788
-207.284637 885.714478 -392.778625
-45.707554 1014.957153 -342.753754
-292.006836 819.848145 -412.249390
-35.115425 1013.074158 -242.137558
-101.837677 965.125549 -310.899414
-267.146088 832.622375 -399.311035
-284.371216 823.243774 -360.241333
-72.888000 998.709534 -274.713562
-181.918213 916.442993 -492.626923
-389.101257 703.853638 -253.213196
-71.453384 1012.414246 -374.634277
-355.863831 681.416321 -199.313126
-60.411774 1015.053162 -356.833618
-63.764301 1024.598389 -398.743500
-231.922928 885.622864 -459.754364
-398.562073 716.210266 -338.464783
-156.930222 934.315186 -405.464081
-36.400620 1076.882568 -456.048950
-290.246429 758.285217 -167.451736
-401.193756 704.216003 -411.307312
-196.809143 911.956909 -497.958618
-310.650879 741.053894 -184.339035
-114.341484 931.493958 -189.181458
-49.911480 1011.673157 -314.567535
-229.161682 808.224548 -214.858612
-351.989380 735.033569 -254.454193
-73.232452 998.567505 -294.911072
-59.524807 1024.765991 -392.234497
-133.558456 978.003723 -429.512177
-272.446228 832.860413 -462.378571
-298.125824 797.364746 -310.457550
-291.686798 803.307922 -372.529541
-68.480705 991.119507 -345.998138
-177.009903 935.858765 -493.416290
-131.571198 1036.683716 -478.186188
-146.263519 931.456177 -396.499115
-384.652069 721.872986 -436.329559
-56.730251 964.616638 -155.566971
-223.984283 866.328125 -357.531433
-335.182434 755.837463 -254.816910
-102.795776 961.740295 -301.935730
-223.409515 862.663208 -508.806183
-242.085159 847.734131 -284.216492
-116.010551 956.568909 -288.717896
-99.396065 961.274475 -237.141861
-350.526978 703.428894 -186.617355
-353.904114 735.429504 -358.199219
-131.401398 936.893005 -285.211304
-166.890121 1002.848022 -474.810059
-372.699463 809.797546 -476.061005
-190.525223 975.774841 -479.672729
-236.733337 839.922119 -524.053955
-69.272942 1016.741150 -335.558411
-111.407097 1042.545532 -464.832733
-176.564880 992.313232 -474.129181
-93.766609 945.652832 -199.680466
-237.771515 826.205200 -280.351196
-357.916656 731.711182 -359.223785
-243.853134 816.513916 -238.179123
-138.300461 884.077515 -205.183380
-96.367401 951.834656 -201.528183
-216.492844 840.060547 -225.817490
-341.710083 756.917542 -314.656738
-167.241592 893.889526 -522.575500
-135.046371 931.169250 -275.503326
-92.298073 932.316772 -188.224380
-196.572266 897.570007 -427.199402
-281.102081 780.950928 -221.747955
-250.693146 796.185364 -184.724777
-39.352520 1016.393005 -223.851318
-192.626083 879.897217 -306.846039
-171.633377 925.504822 -501.894714
-280.409210 867.346558 -477.800964
-220.226624 848.695435 -507.093353
-126.206230 930.599243 -256.488159
-241.698868 824.698547 -292.609558
-273.980286 806.009277 -367.172150
-331.674591 748.302429 -188.681259
-337.879700 741.746521 -307.341858
-167.041611 980.368896 -466.434937
-237.678650 818.244812 -224.883026
-358.045929 789.813293 -460.308594
-98.326172 983.923523 -307.926086
-394.848572 730.887268 -411.097961
-96.062164 946.169861 -148.870453
-194.048874 874.438477 -217.028870
-237.195084 829.368225 -368.908051
-193.804977 905.455139 -435.091431
-105.134178 980.580200 -394.603546
-183.068787 888.957520 -308.419312
-142.214615 970.591492 -433.957001
-388.487091 735.440735 -390.722870
-190.488937 849.211426 -160.236725
-263.729675 818.021179 -324.197144
-192.413345 851.983765 -201.834122
-42.410439 994.336731 -181.928436
-176.706253 885.632874 -275.050842
-83.459007 958.309021 -196.459549
-212.964127 838.554871 -184.643417
-214.738846 840.598328 -207.266388
-245.990417 835.170654 -347.976532
-172.878387 888.311157 -182.330612
-198.706909 882.271423 -425.317017
-217.434677 909.335999 -487.337189
-246.564758 840.796570 -389.481567
-136.289383 1068.596680 -486.511353
-166.473236 937.089905 -503.610931
-221.936859 914.712158 -457.512360
-180.800613 918.102783 -515.967285
-68.883835 1008.922668 -321.892731
-309.065643 804.235413 -376.090942
-320.470367 728.106934 -171.755630
-357.029175 713.739868 -245.546722
-323.573730 765.673218 -252.850128
-118.518990 959.192322 -310.460022
-338.701355 717.475464 -277.227325
-218.633698 874.835876 -400.173401
-55.092186 993.978882 -354.661072
-151.730804 906.188416 -519.562256
-243.013138 849.462646 -375.137604
-230.214417 800.726624 -519.486023
-175.880661 908.832581 -292.160736
-254.745178 873.788208 -482.099457
-106.512489 939.071411 -205.277740
-221.521179 857.596069 -256.390411
-158.628510 938.385864 -387.393860
-33.806023 1019.598267 -210.384644
-262.151764 823.631714 -390.756165
-117.691269 954.174072 -313.876434
-271.340027 799.826965 -269.256195
-318.265350 776.468384 -299.614594
-85.984016 928.715088 -153.738739
-146.649414 888.673462 -251.003006
-302.973175 783.630310 -345.267609
-157.658371 892.083557 -178.668137
-158.497223 907.117798 -258.792114
-252.253510 852.365051 -408.003845
-305.757782 765.905518 -172.870956
-378.267212 712.092102 -347.834839
-367.537262 699.787842 -242.384476
-165.894379 869.244202 -252.642746
-189.200745 902.672546 -511.820282
-109.181885 982.285522 -449.295898
-31.599485 1005.622925 -175.656204
-52.575844 1020.189453 -302.800781
-153.426056 906.338440 -364.978210
-324.557281 735.526917 -183.835068
-185.994904 857.588623 -199.711395
-93.727264 985.138000 -364.365082
-176.677185 946.002075 -489.608032
-193.041107 871.142395 -293.743622
-240.397720 801.913208 -253.627716
-394.248474 692.610229 -326.306641
-262.682770 876.334656 -465.373077
-130.163803 1026.551758 -482.599091
-236.276535 866.297302 -368.537048
-339.344666 773.131226 -358.583618
-313.467010 740.637146 -165.231964
-240.181915 868.312012 -504.906311
-105.804848 957.211548 -253.329819
-323.205933 753.952515 -239.532623
-108.996140 955.178528 -304.262054
-85.488564 970.820435 -220.543198
-180.583511 878.007141 -216.773636
-143.811386 914.001953 -519.642700
-236.469254 830.675354 -318.567383
-360.280884 706.535645 -193.077240
-233.323227 884.677734 -468.153870
-332.373779 717.638672 -163.255661
-235.434509 888.872864 -467.622589
-189.178833 902.976746 -392.878876
-265.338104 828.239502 -306.625549
-73.623634 982.518250 -229.778671
-106.023674 933.862610 -235.080673
-357.845093 766.117798 -400.665253
-232.395264 836.611755 -276.346710
-188.733231 900.197754 -303.457947
-292.895905 834.262024 -498.458679
-57.340565 1016.246460 -430.960266
-126.239120 921.537231 -326.509003
-207.197784 848.026611 -178.077988
-199.512054 905.868469 -505.067230
-33.246655 1014.599182 -234.893997
-44.114162 991.802734 -179.560593
-101.615097 945.892639 -221.836823
-198.192413 894.666931 -484.894775
-191.106201 930.973267 -439.725830
-225.279541 883.632874 -420.336060
-254.820068 816.360901 -275.034119
-371.959229 717.478638 -239.527313
-256.501038 900.084106 -474.449432
-310.342163 787.189697 -407.293823
-247.788788 859.812561 -516.570740
-304.029449 829.078674 -459.218201
-371.731537 731.422668 -407.385223
-188.540649 883.875854 -236.452011
-152.317505 957.552734 -442.265167
-207.821503 827.462097 -207.264771
-160.148483 982.077148 -501.353210
-202.814331 888.175964 -504.538422
-148.964493 969.390686 -429.676697
-395.087463 736.201599 -432.671661
-158.089279 899.792053 -174.976593
-261.986206 800.245483 -174.529953
-297.124725 802.505615 -434.436554
-44.371258 1013.014404 -341.099091
-286.330658 757.763977 -170.284363
-170.835403 866.623657 -261.045624
-94.626572 999.211365 -421.403687
-66.719193 985.342041 -219.503769
-346.441101 749.467041 -381.144989
-258.477448 850.545471 -404.647949
-247.866760 812.859497 -232.575531
-204.154602 869.946594 -263.288635
-170.589310 928.789307 -367.350525
-348.134857 701.906860 -242.906464
-236.063629 827.995972 -276.961975
-140.155197 919.281982 -267.499390
-62.938324 1030.097046 -387.865906
-162.049271 1007.623718 -476.725647
-299.897461 773.639282 -258.115845
-91.538200 987.107544 -376.499817
-112.593071 943.946045 -272.558807
-198.361282 871.452393 -315.668762
-281.695587 744.507568 -169.915466
-113.731194 926.554016 -229.976120
-227.730148 828.520569 -276.838287
-31.197565 997.946899 -239.711441
-116.728500 975.372437 -372.232178
-391.821991 671.402344 -210.602371
-327.705872 764.158813 -370.648712
-38.989662 1000.582214 -151.603851
-309.912323 761.927124 -174.411636
-325.131866 818.423767 -464.617096
-384.036743 679.490784 -223.449738
-405.692322 702.496887 -414.450104
-275.107849 807.072144 -341.482117
-331.685883 755.078186 -434.304962
-80.174553 987.295044 -297.922028
-260.014130 791.963196 -216.805283
-59.553345 994.888000 -221.077332
-378.955597 713.045044 -368.452179
-358.292175 744.058838 -428.987885
-222.475800 851.414551 -345.868622
-88.806046 942.818970 -295.528595
-56.101002 1034.025269 -420.426880
-82.119743 1024.161865 -442.261658
-242.524857 843.334961 -411.944000
-284.632599 777.728210 -221.798141
-120.616714 1036.216064 -479.717194
-89.203239 969.925842 -392.030579
-249.460251 864.316284 -395.277802
-161.553772 887.634094 -223.589432
-317.132813 763.829956 -284.482239
-79.446495 1012.042603 -411.031494
-152.117722 900.990417 -255.634018
-307.747894 823.817993 -493.117218
-146.632172 929.370422 -291.973145
-491.437469 759.545349 -801.596863
-303.313843 755.867798 -206.910522
-77.309807 952.541077 -240.289230
-91.281677 933.258301 -168.876984
-301.464783 745.129822 -226.333878
-105.965401 909.490417 -225.654678
-304.409790 746.986633 -168.220215
-396.516144 761.577759 -462.170441
-366.075165 689.794006 -174.322205
-161.474930 925.379822 -384.708191
-311.901031 766.534668 -222.351212
-95.557587 983.771667 -320.912720
-348.548737 697.980286 -196.338806
-233.541748 848.503113 -284.141907
-111.697922 1025.039429 -464.837402
-63.346931 1025.061768 -418.205139
-236.749146 893.560242 -471.386902
-204.512177 857.475220 -199.945038
-211.560364 848.529419 -231.793167
-234.494553 868.406006 -397.184265
-384.976776 718.717529 -343.717926
-265.821350 811.710510 -352.257385
-164.042969 907.655090 -312.459839
-201.668213 867.025391 -293.821472
-315.431000 753.909607 -316.801392
-323.233612 768.056946 -373.035919
-181.210541 913.587341 -428.261414
-107.801659 892.749817 -165.159683
-116.840858 972.781616 -360.889557
-233.338516 846.525024 -316.529816
-367.994507 768.309570 -458.151672
-236.483749 835.413879 -301.452271
-235.512665 802.228027 -168.719406
-352.447815 835.162476 -489.920715
-203.508911 900.388245 -372.302124
-272.361237 800.839539 -188.819000
-268.970459 804.067688 -514.287476
-179.216110 885.280701 -213.419540
-287.909882 806.758118 -372.600769
-283.086975 821.231140 -336.040283
-51.763828 979.250183 -222.222549
-404.451233 707.508118 -436.186890
-103.483284 973.284607 -305.671448
-285.951996 845.590088 -503.464874
-81.762909 969.463379 -352.827637
-357.991180 730.655151 -351.661163
-53.938278 997.787720 -206.989151
-221.027802 870.911133 -512.736206
-103.963707 987.035461 -381.519623
-94.313942 963.365112 -237.331985
-56.253498 995.151550 -272.515900
-153.289246 949.875000 -402.048645
-325.307678 749.323792 -295.777008
-412.844849 732.186279 -454.279175
-123.797600 906.791260 -162.460419
-213.037949 836.843994 -528.258118
-150.469757 937.740356 -506.669556
-375.892792 710.913757 -250.086029
-345.462952 732.629700 -311.544678
-70.292206 992.142822 -270.925232
-244.623581 827.326294 -528.850403
-261.542603 811.887451 -521.394226
-304.370789 780.296753 -340.664551
-161.073105 966.878479 -484.723145
-154.182587 894.538391 -167.260834
-182.332397 958.994507 -475.121704
-89.636971 941.306763 -267.029205
-280.290100 812.455139 -361.230988
-268.269165 779.445435 -162.490692
-390.974091 711.992554 -320.326813
-100.083549 948.553528 -245.204742
-142.414139 900.824219 -158.564957
-121.918823 948.824951 -269.643158
-119.225105 956.819092 -276.265778
-138.604095 936.093933 -512.740723
-382.973541 704.178040 -302.034180
-276.948151 770.911926 -167.316864
-381.900391 700.432312 -230.386963
-144.538147 946.381226 -509.774109
-267.884735 827.530823 -407.666687
-293.798584 775.526550 -319.236176
-242.003189 841.467712 -257.409424
-372.741669 712.018677 -422.353424
-37.873470 1006.726074 -187.284897
-238.203705 808.939209 -168.286087
-224.067627 823.878845 -174.853439
-353.247803 758.585693 -431.331299
-155.687164 890.384827 -172.032990
-183.252274 876.223083 -176.190460
-109.099541 1086.589111 -479.380737
-86.682457 982.460815 -285.566437
-188.944321 864.563293 -331.181641
-285.493011 778.871643 -175.341049
-108.529373 936.880615 -189.813629
-383.667297 702.585999 -269.463257
-11.945482 1021.291870 -193.475052
-13.560533 983.120361 -202.540039
-75.994179 980.839478 -243.938324
-238.961639 903.927917 -464.720184
-133.409927 939.363892 -339.472260
-133.131439 919.532837 -219.280487
-188.064987 871.100525 -252.628860
-56.720421 1014.420593 -293.119049
-177.715851 859.185913 -181.467773
-184.110962 834.071533 -523.743164
-88.253441 990.673035 -339.431946
-161.337448 910.529297 -292.833618
-244.548538 849.178711 -404.658600
-329.266113 754.470276 -263.768219
-242.067474 827.065857 -193.673065
-212.174576 877.306763 -361.329102
-261.697876 811.252747 -523.286011
-289.216797 757.136902 -162.608078
-87.400772 983.046814 -285.716156
-325.462036 736.164246 -295.930145
-197.593307 902.698608 -382.443176
-160.148682 917.623596 -284.703369
-246.738953 791.707458 -175.818298
-83.070366 1003.433105 -413.529175
-202.030167 853.454956 -522.070313
-195.344147 873.703247 -520.495483
-85.356613 1030.817871 -461.733490
-131.445999 992.316528 -449.863007
-327.790314 744.324097 -220.719421
-39.146397 1018.375000 -281.119171
-79.494034 942.426270 -171.012421
-109.991776 965.141602 -329.822968
-83.535011 1042.960571 -456.735199
-231.366943 843.591248 -512.942444
-366.217590 741.583740 -412.781158
-145.874084 925.689392 -259.194458
-295.489410 793.756470 -269.173706
-253.698364 879.008667 -476.370270
-192.451233 949.187805 -472.387970
-352.404968 751.071472 -342.968170
-377.680023 718.245300 -369.272217
-82.087723 967.485229 -254.813278
-273.301300 816.707275 -276.050873
-180.970169 928.111023 -400.650391
-147.509781 935.522278 -368.858521
-239.097626 875.026123 -420.735168
-260.835144 821.382568 -347.490326
-176.703995 894.571594 -238.355026
-151.364304 947.242249 -410.947784
-170.075806 891.130371 -250.239410
-237.790451 892.661682 -493.997253
-93.276649 968.405029 -294.952576
-179.715881 868.026428 -191.748123
-264.860016 808.555054 -220.828476
-206.761902 822.871460 -216.119156
-291.590088 809.864258 -505.440613
-189.293488 902.277100 -502.516602
-284.851074 778.621155 -243.921814
-157.277863 912.558350 -306.210480
-335.366180 713.957764 -238.349533
-200.672165 858.872681 -230.244522
-337.781097 729.764160 -319.819702
-264.996887 801.422180 -345.674591
-313.556183 763.578674 -298.363190
-269.696075 799.080688 -203.852097
-303.708221 785.392822 -356.727753
-145.187164 944.289612 -352.125702
-205.623215 838.402100 -169.948761
-177.820923 964.419373 -468.827271
-174.976303 923.403625 -381.718201
-86.428650 1013.207092 -425.031464
-84.912491 940.073608 -193.202591
-278.178894 801.627441 -316.800507
-150.946136 879.442566 -182.514465
-192.329285 844.867432 -170.498627
-51.789227 978.532959 -288.020966
-358.811646 737.551208 -372.315796
-51.226784 1031.367920 -342.166931
-89.194672 1034.070313 -459.527374
-135.281876 915.485901 -184.040710
-157.728012 933.053040 -357.827148
-39.518150 977.194946 -156.895828
-255.715332 845.444763 -522.287109
-43.704174 1003.489075 -206.899521
-352.709839 726.493164 -222.887589
-153.625412 945.747131 -433.017944
-60.926182 1018.463257 -354.455811
-315.866547 767.820862 -335.920837
-254.993652 835.040283 -388.229950
-45.352108 1020.116882 -324.694427
-74.788475 986.542969 -322.420258
-156.315872 969.653870 -461.590454
-243.003372 846.128784 -310.640839
-176.274429 869.817383 -188.520538
-41.081696 1004.828430 -341.440552
-291.073608 823.760193 -422.448700
-231.265228 877.729187 -499.773621
-226.434021 893.351379 -456.879181
-149.977295 904.549438 -272.457489
-373.498260 743.527344 -353.586700
-247.905273 835.488403 -519.393494
-77.202232 968.059937 -174.500443
-157.798615 901.119629 -515.502686
-132.863663 973.811218 -409.214172
-163.731216 902.610596 -528.945679
-156.605652 889.331360 -310.967041
-330.723572 831.361572 -489.082092
-214.385117 855.745422 -293.241730
-187.730438 897.170471 -352.101166
-277.902466 831.557556 -393.328430
-86.395294 950.835632 -279.340759
-296.548737 815.426331 -407.796997
-116.667862 947.541138 -251.322937
-362.314972 691.384949 -163.823730
-304.300995 816.361755 -511.802002
-286.214691 830.566711 -498.868866
-316.960022 785.536194 -321.155060
-129.393158 923.916138 -223.932693
-335.756592 740.129883 -259.890961
-136.722534 956.412537 -369.415192
-110.234505 904.451477 -219.770294
-226.015518 831.605103 -214.897720
-339.891968 747.010376 -334.305908
-45.058590 963.543640 -174.364349
-406.277954 711.329346 -376.964447
-289.667603 797.072083 -415.075439
-41.269081 1035.952515 -357.760040
-218.154953 862.846008 -286.316925
-127.404793 920.909668 -184.771622
-51.172596 984.668396 -255.966827
-37.142181 1025.605835 -312.241913
-148.463791 943.868103 -412.928680
-76.191925 997.678833 -393.076782
-325.379120 772.500854 -371.887573
-346.680298 757.222107 -345.631195
-204.258331 855.271973 -230.067383
-360.183563 773.612122 -438.797272
-204.942062 877.704285 -352.665009
-124.645393 978.934631 -406.937256
-371.522156 707.813049 -212.319916
-69.619545 994.406982 -411.597443
-351.903625 732.712036 -284.933258
-44.394108 992.388611 -157.092224
-236.444153 801.183655 -523.486938
-183.614609 889.243042 -244.732788
-35.425823 1022.861938 -330.411469
-306.395569 755.839783 -238.657211
-268.016174 838.917297 -375.326904
-34.994186 1069.778442 -398.184357
-256.388733 805.162720 -240.685867
-26.885548 1028.887207 -287.696350
-213.661789 838.911621 -202.065063
-250.019043 854.639954 -450.357269
-258.869629 841.457947 -514.747070
-316.211060 783.090271 -299.831390
-81.341995 985.359070 -269.255005
-52.476910 1002.680603 -377.287079
-110.875969 928.910339 -217.196121
-59.946953 998.238831 -259.705322
-299.692169 751.848633 -186.896133
-273.598816 788.373230 -236.141479
-150.197281 856.073608 -183.224091
-298.918060 790.484314 -292.280396
-265.201782 851.327881 -435.207550
-369.549927 708.142395 -286.080872
-329.356293 765.366821 -303.579590
-380.075348 685.816772 -303.083008
-378.037445 709.648254 -181.567917
-162.256897 894.141785 -521.931213
-283.530090 774.665710 -271.872986
-302.562927 774.638489 -362.350708
-61.858906 1005.625671 -264.389282
-250.919678 868.123718 -497.936462
-132.205734 925.873779 -267.348328
-182.272171 884.429810 -526.100281
-255.013199 802.769348 -211.527878
-197.606735 869.071472 -512.909668
-50.926029 1027.639893 -346.999023
-130.932068 915.506287 -172.926743
-377.811188 731.530640 -432.664001
-246.114395 842.718750 -358.813568
-318.295807 771.670959 -353.636200
-209.909470 829.189148 -180.223694
-75.091957 967.278076 -159.632401
-265.205627 827.197205 -306.403412
-184.417480 847.429993 -521.911560
-367.385498 739.247620 -304.277924
-351.466217 710.605347 -217.904297
-159.033844 900.171509 -256.885376
-220.820908 850.728516 -315.145599
-241.563339 853.873779 -311.397156
-158.341827 982.539856 -501.227203
-62.788105 986.617859 -213.674011
-323.473328 759.060791 -245.882721
-163.539200 918.538879 -312.391205
-137.594116 905.580322 -211.061935
-151.803940 910.494568 -258.428162
-161.397781 975.020935 -499.022949
-71.600197 951.003662 -201.866516
-326.275940 776.269165 -309.774445
-406.308655 713.553040 -424.405518
-98.755096 943.819397 -250.953781
-89.040016 974.515076 -351.476807
-35.922421 980.087402 -155.021912
-160.526138 916.312683 -289.926147
-127.081139 926.127563 -257.535461
-131.918732 908.302795 -174.963974
-398.925964 720.965881 -417.831573
-267.281982 807.363831 -392.461823
-117.220192 955.440247 -396.898956
-334.997040 746.080566 -250.267120
-312.263214 800.870728 -424.678864
-289.164886 774.286560 -331.885925
-152.185623 954.142212 -507.961639
-137.717148 960.981873 -387.829926
-257.733887 861.512085 -501.449005
-57.695652 957.126648 -200.971283
-26.429136 1021.444214 -185.149948
-197.922089 839.358337 -529.001160
-302.724792 756.927185 -266.043671
-129.641220 960.638123 -431.234314
-336.527222 768.248535 -314.157288
-47.875259 1021.820435 -310.209564
-242.196655 799.584229 -516.938538
-108.694397 942.548828 -234.426437
-280.968811 808.743164 -377.708649
-163.775574 887.157715 -209.385101
-127.078583 926.431030 -226.877838
-31.686600 973.974792 -226.587708
-302.376160 777.579102 -379.603943
-371.136169 719.112244 -341.576111
-427.967865 707.743652 -429.771820
-231.945969 875.517578 -368.916626
-89.346039 974.081909 -317.276184
-271.630554 779.731445 -205.854767
-311.171234 757.834412 -213.324219
-369.612854 714.558960 -319.441803
-191.638550 894.193237 -310.066711
-324.816315 775.129883 -336.007935
-136.406967 963.984924 -402.037354
-37.613075 1056.322998 -377.819733
-269.260681 776.019470 -162.372574
-109.888008 918.886292 -167.691818
-222.991943 889.032043 -419.640045
-356.040619 742.610596 -395.940979
-172.577530 911.417419 -359.078125
-375.841949 701.642212 -287.857544
-30.725479 1045.724365 -355.548309
-137.933212 879.575439 -152.450882
-199.648346 880.158264 -318.944824
-248.873459 834.498291 -515.485596
-251.573196 863.229065 -440.071625
-274.800415 776.398743 -260.750793
-352.682587 727.165344 -381.344604
-217.823288 868.570129 -307.125458
-113.220673 972.264709 -342.849365
-212.651443 831.155090 -191.977341
-143.386993 892.345154 -163.778519
-66.923599 1021.151611 -395.019928
-195.025208 891.873901 -335.317108
-328.348358 819.502258 -468.282074
-339.975616 747.878174 -333.539429
-56.360767 1024.501343 -361.433685
-142.653061 890.036438 -237.337250
-118.753769 920.576111 -313.040894
-149.989670 960.376282 -512.116821
-228.756760 838.992004 -211.340546
-379.614960 730.312439 -446.223480
-144.951828 913.172974 -258.945465
-176.185684 840.339478 -209.939041
-258.412567 793.872742 -165.614807
-365.136200 715.377075 -226.080734
-332.292786 763.386841 -392.642426
-213.208908 854.121277 -217.134628
-167.328003 927.513489 -403.793579
-171.640625 981.693420 -478.103699
-182.926178 915.332703 -354.232574
-156.227600 1012.814697 -482.533173
-300.056000 853.528809 -463.006165
-41.100037 979.787964 -162.723541
-117.369705 1058.781982 -483.604462
-24.326811 998.204590 -184.384445
-338.553009 745.883118 -323.485687
-142.067810 903.681641 -314.462982
-159.851532 915.762024 -273.801453
-262.919312 836.891174 -339.318207
-112.599625 981.591797 -368.378601
-294.030762 797.076843 -357.576813
-273.750549 769.903625 -165.005951
-342.690735 746.794189 -355.220917
-191.954010 880.316956 -300.645325
-214.199615 831.347412 -173.539246
-343.059692 739.666870 -321.094452
-56.853222 997.838135 -217.862503
-171.932083 866.315552 -178.992096
-383.514374 696.912048 -248.779205
-126.562492 967.006104 -437.488861
-288.724365 798.290283 -341.234985
-271.255463 781.007385 -190.324692
-170.316452 897.221069 -282.247528
-56.886181 1002.195740 -250.793793
-402.825867 706.013428 -378.433929
-129.831024 948.084412 -303.409332
-197.285858 922.375305 -442.566620
-253.415131 828.247803 -347.726471
-402.765686 744.197815 -461.990112
-93.668854 928.872925 -228.548065
-122.062866 921.265198 -195.660782
-183.058884 871.506897 -256.307007
-35.713478 1006.535522 -216.254684
-110.194130 934.577515 -200.682129
-404.018860 686.735962 -287.144714
-327.919891 820.865051 -496.476196
-163.256134 943.080200 -396.976929
-186.064651 872.145691 -159.257843
-235.983643 844.125732 -332.264099
-221.310913 834.537292 -152.817825
-318.936981 735.591003 -213.895660
-247.949295 852.127380 -388.120544
-120.201866 914.516663 -192.670288
-53.681046 966.231079 -268.327545
-145.453812 920.366638 -221.889145
-166.140289 927.891541 -336.316254
-369.834900 718.879150 -239.867477
-48.919125 1048.294678 -378.649231
-75.386536 948.770996 -182.011658
-194.302521 863.588745 -524.263611
-256.378510 801.193481 -163.348343
-379.955139 732.149658 -343.342834
-185.274414 855.231445 -161.155899
-122.104118 955.771973 -380.720734
-141.353500 907.672791 -162.390640
-351.213867 762.243591 -355.089294
-162.701050 927.879761 -389.291565
-403.809540 686.860168 -230.479599
-190.218735 891.666504 -358.389038
-178.770721 862.987793 -185.561676
-57.182854 1030.095825 -408.668427
-327.816345 763.096069 -258.767914
-220.254990 847.310181 -195.050430
-234.039352 842.603577 -338.567810
-221.115662 832.599792 -229.830032
-385.192322 689.772522 -255.322021
-80.208557 1006.769470 -382.937073
-397.707916 693.975464 -223.983459
-271.483551 826.715027 -520.532776
-333.500214 777.268738 -386.802155
-295.641754 783.797180 -289.659210
-239.694763 840.557129 -306.145142
-281.462463 790.409424 -330.846619
-132.016052 931.004395 -215.552231
-297.403290 816.748901 -377.643188
-338.587341 751.725342 -365.609619
-55.316730 1002.309753 -271.919830
-353.739777 730.503967 -222.015442
-151.443726 905.918579 -524.863953
-204.087891 908.119324 -401.164459
-208.350159 878.108704 -332.030396
-183.745102 870.734436 -239.770081
-263.032654 783.096985 -190.477722
-290.608459 776.962646 -322.872192
-122.209824 905.481018 -183.681091
-188.840195 898.853271 -298.112152
-52.202183 1007.503967 -264.913635
-287.628601 827.099976 -384.734711
-286.013153 830.550415 -452.815338
-199.965637 811.722717 -527.001404
-42.306713 980.023010 -195.456116
-53.059826 1026.577026 -336.030121
-331.540192 758.775269 -361.689850
-51.880024 1006.238037 -235.031357
-124.154312 1065.897827 -481.181976
-207.036758 860.384399 -276.253326
-126.418938 1010.256592 -493.238678
-172.848740 877.203125 -245.675430
-171.311111 916.002563 -386.328094
-353.842010 773.995239 -441.968048
-298.152649 760.177734 -182.720291
-343.450043 732.713806 -283.693268
-79.915108 969.754028 -294.572052
-38.067009 992.666748 -151.417984
-108.531433 935.707275 -179.833099
-360.868469 708.910217 -203.715271
-7.153367 1026.768921 -164.563385
-315.150604 794.531677 -460.246735
-380.704285 742.447144 -441.074463
-234.651276 864.432983 -408.876862
-356.477692 733.536072 -389.256439
-270.264771 854.998108 -473.221252
-365.491272 748.563599 -429.636902
-352.627777 774.165466 -445.359528
-135.416595 923.015503 -195.914139
-66.640923 938.017639 -178.625015
-151.885239 892.979614 -522.614441
-346.221863 777.886230 -440.737274
-114.064583 918.799133 -267.508789
-133.332809 993.354431 -495.276001
-361.078766 732.417175 -306.583008
-366.860291 738.514587 -302.691040
-402.938049 688.911682 -265.296600
-414.628143 675.187500 -170.074570
-191.926727 913.148865 -473.862305
-274.449524 786.955444 -154.473511
-131.806900 956.541077 -402.066010
-21.440552 1007.153320 -171.483963
-84.392273 965.158691 -251.075684
-266.294159 802.677246 -208.655960
-193.132507 899.763123 -398.542847
-84.062637 979.665833 -258.441223
-165.399353 872.736755 -164.407333
-296.034058 815.918640 -413.527954
-415.466827 707.385254 -446.152161
-200.002060 907.034973 -425.997681
-195.062042 868.262024 -273.822418
-214.977188 839.093140 -240.532898
-26.585289 1037.567871 -394.523254
-368.070953 707.643677 -276.405609
-229.690216 862.401001 -312.523834
-186.439682 838.487061 -521.596497
-31.304848 991.870483 -288.208740
-108.931519 995.395813 -407.423767
-127.925339 930.272339 -199.659439
-223.168640 880.686523 -382.033936
-284.481140 759.656128 -179.734985
-294.420502 858.743713 -466.705902
-294.968231 799.158630 -361.346680
-87.952003 948.939880 -209.276321
-72.665771 975.035767 -191.199127
-406.536957 673.139709 -216.742615
-160.752136 927.054688 -511.356506
-129.465027 970.603394 -435.235596
-27.188026 1024.067505 -226.510956
-261.074341 831.147034 -404.303558
-218.766632 829.118164 -175.491058
-279.095825 834.889099 -471.616180
-206.967545 858.080933 -276.529510
-162.092163 890.292664 -203.024139
-181.542404 914.000366 -498.306610
-150.407333 942.868408 -368.568695
-105.238518 1042.294800 -462.910187
-168.452164 1021.048767 -482.464630
-204.154633 849.101196 -240.594849
-311.773499 765.179932 -268.634247
-144.072403 932.663208 -334.123566
-103.151611 954.196777 -225.065918
-385.619843 716.454102 -372.309204
-344.720123 712.869202 -221.970261
-44.344505 1005.601257 -257.952118
-187.494598 891.598572 -276.927826
-321.504852 748.821960 -301.029572
-59.353519 1004.285828 -386.655060
-83.859421 1005.344543 -383.807739
-192.465042 846.160950 -189.723663
-399.371033 698.479858 -260.844086
-188.893494 837.872131 -196.490646
-17.773470 1009.632629 -161.764618
-234.319839 805.282227 -244.724838
-186.277435 916.992615 -430.143555
-345.050354 859.299744 -498.423279
-111.691910 961.240662 -291.038391
-397.207123 698.972351 -243.986374
-143.791550 972.918762 -502.215271
-378.116180 728.543213 -315.253784
-160.237076 868.858337 -224.495834
-58.113209 988.969055 -193.025558
-394.653534 710.353333 -334.071503
-261.689606 842.856750 -407.850739
-251.510849 803.324097 -308.257019
-199.028931 885.308228 -346.103821
-50.785660 986.789673 -186.317978
-99.859024 945.750488 -232.703873
-108.704628 976.350525 -370.972900
-213.007248 881.638672 -398.079193
-311.017609 765.563293 -303.109039
-316.274597 804.591858 -438.536957
-276.517731 794.878235 -290.504944
-99.541626 974.689453 -323.063599
-235.042206 849.271667 -362.623260
-212.731384 880.675842 -378.664612
-368.259644 733.046814 -409.054626
-342.791138 746.369690 -250.113892
-45.137165 977.834534 -254.172058
-186.119583 920.545166 -385.971222
-218.618942 854.750305 -238.058945
-336.139435 726.422852 -188.551346
-307.368835 831.763306 -455.148529
-126.483932 948.581665 -351.846039
-128.698944 977.786377 -443.778168
-187.918304 902.493164 -337.082031
-288.084229 768.577881 -215.419022
-202.751038 859.119873 -249.250854
-170.036377 888.177246 -246.370148
-112.523346 939.017090 -223.367172
-128.405563 930.629272 -233.425674
-143.530197 913.447937 -522.123901
-17.319195 1025.638306 -250.033951
-52.634197 1015.591248 -357.827576
-131.083282 917.813782 -185.738373
-332.711945 737.713806 -268.637421
-290.160187 803.288086 -392.936157
-381.138733 733.028931 -354.378510
-79.755783 987.265076 -397.672546
-223.512909 832.863220 -193.816849
-48.253464 998.762878 -262.531342
-304.583496 760.147949 -310.115021
-370.216492 753.358337 -404.247833
-127.578163 936.673279 -295.805237
-75.466888 1008.760071 -403.828339
-49.392174 1002.367126 -254.998459
-284.781281 791.709534 -302.083282
-160.710251 934.238525 -410.709778
-390.430573 717.816956 -430.567810
-309.751648 809.179932 -422.469482
-365.933441 729.268372 -259.994446
-155.967010 879.671326 -291.271484
-232.267120 859.727600 -326.174133
-249.942932 859.184937 -372.074280
-134.809479 899.233215 -182.910980
-395.916748 720.239746 -344.051636
-76.320877 1013.984741 -350.096741
-227.076477 884.553650 -389.679932
-98.198555 990.192993 -377.009583
-132.051575 948.706360 -361.053101
-216.977448 830.888367 -200.024002
-60.747238 989.567688 -371.451019
-176.936737 941.177002 -490.582397
-296.400360 764.607666 -240.203384
-365.963135 751.985779 -418.031036
-268.188202 801.494324 -271.290985
-352.690918 757.252502 -326.797089
-277.862122 827.980286 -403.244293
-319.422455 779.757690 -322.256744
-153.467712 896.786316 -230.217957
-379.955688 715.504517 -272.569366
-202.921631 879.441956 -284.949310
-333.485931 735.551086 -255.445068
-162.307907 842.531738 -178.765091
-166.018463 935.288452 -383.072144
-190.494247 939.505066 -473.355194
-262.605469 800.623657 -168.092209
-327.963745 736.893555 -240.271484
-188.525620 903.911926 -415.683533
-196.906281 884.114319 -352.063446
-137.456573 909.983643 -245.904144
-244.540527 875.352112 -493.786102
-61.340221 978.191284 -204.100876
-26.535662 988.072021 -192.093597
-418.839722 685.745544 -306.032257
-138.545151 934.736206 -415.552765
-288.345978 812.561218 -418.130829
-265.130463 822.820129 -352.455872
-305.061127 746.315002 -188.573730
-250.010269 794.098633 -207.926697
-292.772491 777.922485 -357.548553
-407.254486 714.523865 -416.030548
-56.926632 1004.781921 -323.239380
-327.265717 744.029297 -265.747925
-283.997589 858.873962 -499.442261
-313.583252 770.725647 -336.740082
-129.077896 936.802612 -229.881424
-220.910400 830.296021 -163.953415
-213.726440 841.549683 -211.783081
-391.780304 696.268616 -400.081970
-56.958061 995.992798 -283.337738
-65.019714 1013.839294 -326.869354
-131.822952 940.143127 -321.484589
-393.029175 719.676514 -399.921692
-125.670151 918.770508 -240.553116
-70.398216 982.182312 -220.127655
-27.643103 1004.484436 -193.923828
-377.276459 718.898438 -375.840240
-249.343552 793.148987 -177.445541
-205.754669 854.345703 -287.200256
-300.806335 771.777588 -384.703522
-267.806641 792.294067 -292.216705
-144.673584 935.710632 -311.906067
-217.426208 858.225403 -240.117081
-307.428558 779.101379 -280.003479
-21.914682 1001.424805 -182.107758
-224.608246 804.592773 -209.859848
-38.593655 1011.611267 -270.586304
-57.772804 1008.131836 -262.491425
-277.616547 776.776672 -299.820709
-103.878761 944.017456 -239.903259
-289.722961 803.195007 -313.751831
-241.749893 827.656799 -327.455200
-212.433914 837.243530 -301.429047
-238.418655 859.412903 -337.506409
-103.855522 912.000549 -228.601822
-185.409897 915.734863 -494.465973
-61.397472 1030.104614 -401.098450
-369.578278 710.263611 -297.110443
-393.815002 705.530029 -275.679443
-342.191528 757.385681 -320.046600
-265.397217 818.771545 -524.080383
-236.723938 873.211182 -415.054443
-175.638840 867.688538 -525.656311
-126.156830 921.587158 -256.388428
-83.116783 975.719910 -263.969849
-95.014046 972.520508 -286.646759
-327.688660 723.838989 -246.044739
-218.147812 919.831055 -462.463654
-247.767395 859.581177 -505.644531
-347.720673 703.122925 -201.088486
-49.203884 1033.310059 -364.669739
-388.628662 732.781372 -431.331451
-357.054657 775.507629 -453.585480
-269.754211 827.691162 -341.395081
-205.415283 912.935120 -470.215790
-336.761963 740.716431 -293.399170
-82.269325 950.161438 -219.124832
-56.040653 1014.495850 -375.898163
-388.931732 740.701538 -442.829315
-318.493378 759.370117 -297.718658
-224.361877 875.620422 -491.376831
-19.037485 998.681274 -153.077042
-273.468475 850.431946 -478.426514
-232.788025 844.745789 -237.602661
-30.573771 1015.809753 -191.977905
-181.711990 859.489624 -193.372162
-204.435364 868.251831 -309.753296
-182.246582 921.576477 -451.107178
-197.980011 837.733154 -240.501511
-199.395020 822.091003 -524.903320
-274.803680 824.586121 -392.577606
-180.161240 931.873718 -493.054810
-50.846382 1015.755798 -303.455597
-224.160873 817.362305 -265.191162
-243.172516 854.821533 -409.896027
-301.499237 738.144348 -185.644333
-76.354485 989.644470 -271.797394
-108.385147 959.935669 -272.281342
-136.186569 982.914551 -502.274933
-127.462700 908.499756 -191.708801
-221.414932 906.613770 -491.692780
-201.310257 834.869263 -169.318680
-79.289169 972.628906 -287.867706
-284.216431 779.509338 -201.383041
