ply
format ascii 1.0
element vertex 1385
property float x
property float y
property float z
end_header
-54.559223 -503.825836 635.016602
-321.698700 -524.438843 811.874512
-60.681736 -284.328003 961.045959
-98.042168 -501.518311 690.211853
-298.349762 -583.863770 799.480408
-42.819489 -367.500702 837.952515
-184.047653 -453.982361 830.669312
-22.771074 -445.630127 722.912781
-0.933442 -259.065918 956.254150
-153.611496 -492.340271 772.751587
-185.148071 -454.000549 814.158508
26.658688 -303.240723 898.957031
-198.581451 -475.077423 796.820862
-198.431717 -322.412079 1018.797119
-77.838303 -302.261292 979.997681
-193.884125 -565.413513 697.961548
-32.573631 -316.429474 886.555725
-41.414368 -462.891235 690.222900
23.801674 -275.537354 932.065369
-329.154388 -450.495087 839.129639
-191.042984 -493.886444 759.939392
-21.016886 -430.830109 738.031250
-306.816956 -422.647583 967.360718
-337.750641 -411.721436 914.188843
-172.774963 -474.913849 769.446228
-67.213943 -402.587280 813.392151
-326.964722 -504.919220 786.989563
-35.711746 -412.122345 803.273132
-93.368614 -293.434967 999.626892
-40.961571 -342.965973 877.356812
-175.953888 -301.574615 1023.078369
-157.203659 -437.421478 830.755188
-179.714767 -557.848816 691.243835
-211.159073 -329.436066 1023.312866
-42.321987 -403.648438 813.483521
-244.872665 -413.309967 922.241333
-221.023468 -388.655823 912.532898
-10.505261 -255.223160 982.087646
9.818463 -358.324707 820.860840
-19.432894 -524.878662 586.575256
-183.401108 -517.860413 725.457886
-145.337006 -533.440063 677.878906
-283.019714 -457.419312 946.691467
-8.726309 -347.826172 862.628479
-111.571709 -337.954498 943.655151
-180.072281 -438.699829 833.495544
-223.932343 -522.046875 765.301697
-290.935394 -478.830017 882.563721
-162.384979 -391.400787 908.988831
-38.823822 -247.286102 963.145264
-42.485180 -372.123962 860.598267
-220.272583 -360.665039 957.593933
-41.144444 -445.462280 756.381226
-19.863762 -249.237518 1011.155151
-15.317060 -248.712311 1009.430725
-171.516617 -416.834930 865.301025
-139.776382 -382.398041 898.892822
-44.219196 -446.348297 732.516113
-73.974754 -347.149261 913.290161
-227.284836 -567.042847 709.835388
-90.229958 -256.559998 986.870972
-188.265244 -300.618927 1053.939697
-75.272270 -491.438721 671.766357
-286.325134 -583.955200 785.833130
-316.768738 -554.297424 806.684204
-73.305283 -444.407227 778.048767
-155.454178 -517.295349 732.410217
-208.550095 -415.667572 890.000000
-78.055176 -345.166199 902.148193
-106.896599 -319.380615 943.900818
-63.986835 -274.687378 1000.721680
-156.189468 -527.560730 693.889709
-232.641388 -427.843414 902.770569
-261.901550 -530.237427 769.242676
-60.158882 -478.849945 723.146179
-114.055855 -426.231934 834.109802
-339.920349 -410.763733 898.863403
-116.012070 -533.395325 638.365051
-115.160042 -497.547882 717.423035
-11.666329 -426.526733 751.051392
-206.678711 -374.205780 946.238037
-157.019821 -434.512207 855.711731
-176.450760 -505.825073 761.917786
-99.375328 -350.218536 914.034119
-176.723068 -560.821472 660.205505
-295.529358 -408.950928 959.738708
21.323940 -271.690521 935.538452
-142.007904 -560.296509 647.048950
-36.586033 -461.399078 688.584229
-154.589523 -331.354279 960.917908
-337.270599 -450.231445 857.444031
-54.734554 -318.699615 879.544495
-224.417633 -424.425476 878.306458
-293.744629 -538.505981 811.862000
-196.226227 -300.299866 1072.231934
-193.916275 -485.981689 808.560852
-188.996506 -455.704651 830.442810
-226.987610 -306.137970 1068.050171
-58.801224 -496.289246 668.609619
-222.749329 -289.065857 1058.795776
-326.314117 -448.094543 888.771057
-259.795746 -574.510559 721.659851
-106.341187 -547.869507 623.402405
-4.818936 -318.432892 893.215698
-124.653198 -342.558289 904.475525
-29.431902 -290.583923 959.920410
-64.951782 -324.526855 918.606628
-155.416687 -273.796967 1041.892822
-27.611696 -507.738434 659.770813
-145.904602 -402.051514 875.316833
-223.920990 -431.631744 898.782532
-110.832993 -416.002167 820.733704
-139.233093 -298.613129 1007.730225
-9.508551 -481.427032 662.935059
-134.878204 -468.051666 785.287354
-201.244858 -503.156616 786.192444
-335.898315 -451.987579 824.273560
-256.763947 -492.408142 824.692627
-175.645248 -528.223633 736.155396
-36.718304 -465.135437 724.782837
-219.926102 -571.816101 678.450684
-127.114067 -522.924927 680.822083
-302.123566 -540.100281 808.542480
-67.773643 -263.744263 1002.266724
-69.542221 -483.324371 707.187134
-94.648849 -424.465790 823.172180
-250.136627 -385.623627 978.132507
-238.040787 -436.773285 910.852356
-274.129822 -417.340637 1017.731873
-281.824829 -416.579956 1001.774963
-31.242468 -458.194183 682.223450
-108.082199 -477.947723 755.506409
-171.928909 -467.730896 795.112183
-346.304443 -416.096405 867.179443
-1.829567 -395.795898 771.233643
-27.604187 -509.519928 632.463257
-195.279465 -394.274994 916.277466
5.539905 -450.100769 704.438721
-319.659027 -419.634064 945.490479
-67.956398 -498.794678 698.099121
-14.914242 -518.562988 603.453186
-160.162323 -369.009949 938.787903
-27.089893 -321.807404 888.851563
-191.267670 -481.008057 808.932983
-132.030670 -563.919250 649.791382
-206.670395 -399.214142 929.268677
-234.254242 -482.169525 810.802429
-215.661591 -544.340576 689.553345
-243.418442 -548.499817 740.981995
-70.621849 -510.117737 663.492920
-247.341309 -345.362305 1032.063477
-185.621277 -566.789063 675.609741
-33.354023 -367.468445 830.715210
-25.127205 -407.066254 772.327209
-296.081726 -440.497986 976.807861
-13.335459 -353.712311 837.041931
15.793887 -233.777420 987.767151
3.728816 -391.225006 778.754272
-23.994846 -308.028015 925.337646
-127.970657 -282.701416 1007.208069
-5.972270 -393.931610 753.856689
-247.283554 -456.183105 864.329041
-57.440449 -405.406036 772.878845
-93.425179 -465.026123 748.518555
-213.563126 -436.305084 864.422485
-185.890213 -342.247559 993.471802
-57.986320 -419.323853 786.299622
-107.692688 -313.867920 973.596008
-304.368134 -411.285889 997.534851
-269.063843 -493.259644 861.689026
-246.844299 -426.744476 937.648071
-197.227951 -423.230804 879.835693
-89.318314 -282.716003 991.141541
-172.742142 -556.069092 672.215454
-72.865921 -438.099426 768.221802
-332.705261 -459.478241 823.922302
-186.341492 -577.219482 673.747437
-32.114014 -511.376801 633.609375
-219.056061 -504.702332 769.068115
-242.882996 -519.311157 763.453247
-149.873123 -511.699768 722.820801
-40.918011 -305.702698 907.854614
-31.943150 -550.318298 606.474915
-68.568695 -395.335052 809.983643
-20.718714 -486.737946 639.753967
-247.128952 -300.945770 1068.234375
-25.984369 -400.398224 807.824158
-50.752663 -275.271423 985.732727
-247.873123 -468.187531 876.556396
-48.946762 -325.829010 919.482849
-114.028259 -431.353577 803.053711
-269.419647 -555.444153 761.714478
-226.460449 -585.298401 678.077576
-138.910370 -511.279755 704.795837
-5.031147 -291.063782 926.938354
-269.068817 -515.742859 830.547607
-248.701126 -543.937256 755.618835
-154.682877 -318.115784 977.812866
-82.000374 -318.172943 947.020630
-154.467560 -341.808899 966.122620
-118.193726 -301.484680 1004.165527
-6.807594 -430.548737 751.646606
-37.089054 -540.724670 604.575073
-116.724861 -292.804901 968.431946
-21.376324 -247.960709 997.157288
-58.589882 -384.926208 854.069092
-236.621933 -410.350464 924.061157
-82.297226 -425.199249 785.909607
-46.004101 -527.265930 622.301636
-228.996399 -395.258331 939.166748
-308.496216 -447.535583 883.407532
-262.790741 -523.098572 764.893555
-207.150345 -311.476044 1050.960205
-129.285934 -381.068481 903.157654
-249.913055 -423.914642 955.738037
-76.711067 -323.617401 927.784607
-36.956219 -468.047455 697.292542
-9.331181 -260.757446 976.923950
-149.846527 -272.102234 1039.001099
-313.677917 -436.079926 909.060364
-159.047302 -587.323914 651.275818
-83.217323 -447.298950 780.813293
-314.374817 -413.559296 910.298218
-291.578827 -594.486084 800.416504
-93.189903 -310.127045 951.070679
-75.415688 -534.687866 627.131287
-112.070473 -381.432220 842.120972
-34.968544 -436.965546 743.393188
-47.684284 -382.724670 833.522888
-112.253059 -301.655182 994.358826
-69.240967 -261.406036 1016.630676
-31.948175 -300.287903 916.796143
0.290998 -433.605988 718.441162
-105.055000 -546.177429 652.182068
-208.427383 -370.893127 959.060120
-23.263519 -501.380951 662.841614
-117.559647 -372.180450 907.273865
-296.531281 -451.572144 897.357849
-30.372520 -363.811096 865.990051
-139.723145 -474.406067 778.913208
-275.633240 -420.150665 994.390503
-192.686722 -366.019073 950.720459
5.294716 -356.399567 824.002869
-217.424500 -374.975525 955.539124
-22.158735 -367.453674 854.828064
18.128843 -227.380127 1008.669067
-143.999847 -356.688263 946.457886
-344.351990 -411.060028 853.959656
-339.021606 -483.430725 810.646606
-82.884193 -381.106323 861.607788
-298.375610 -529.966003 803.421021
-106.463722 -358.302673 869.809875
-27.050604 -288.453766 946.868530
-46.925064 -340.988373 884.518677
-246.594955 -399.323975 973.468018
-172.754822 -421.097992 876.060059
-188.647812 -321.325348 1020.801025
-41.325249 -255.165726 1010.190979
-0.927603 -293.625153 919.180664
-231.876678 -445.604553 882.744934
-12.997787 -325.711395 870.025391
-182.315857 -530.855591 706.957764
-109.640190 -408.066498 841.131226
-132.752365 -410.633301 841.053223
-141.181808 -320.910461 973.481506
-239.446884 -534.331726 754.641479
-111.625847 -358.624603 905.706970
-169.752502 -517.403687 701.903931
-255.216278 -539.238159 766.785339
-273.632843 -474.281403 885.932190
-89.559723 -515.968994 696.344788
-335.786865 -437.845428 868.050842
-85.610909 -361.848541 883.578247
-138.608368 -352.814972 933.775635
-122.817558 -276.326996 1017.403015
-8.891544 -361.655884 842.161255
-12.118570 -290.511963 918.055115
-148.242828 -574.927246 655.122253
-275.941528 -468.540131 879.240112
-41.259987 -362.302429 808.391296
-316.390778 -446.818146 864.359192
-164.712402 -311.815399 1000.240967
-107.258781 -416.049896 841.667603
-199.937943 -305.428589 1053.840576
-125.426575 -399.653442 881.433167
-229.624908 -493.769928 790.008240
-75.451912 -378.492889 872.364746
-183.724930 -568.970581 677.613953
-250.857513 -470.853394 849.257874
10.271725 -380.517242 767.361572
-2.480050 -510.391937 647.121582
-93.450218 -337.383606 937.355896
21.454561 -380.963379 807.891663
-176.062500 -476.053833 802.421814
-193.087769 -478.023132 788.213623
-305.936462 -432.548187 953.039368
-130.933121 -446.517639 812.842712
-86.215462 -294.980072 961.158203
-21.603411 -371.322662 843.052612
-92.637886 -317.973175 962.440247
-82.986664 -508.603180 667.409729
-156.393768 -388.648010 894.177185
-195.786621 -403.793365 899.195496
-66.430290 -385.887115 805.527344
9.614141 -384.822723 783.362610
-178.974136 -489.076752 763.107361
-114.642471 -320.279175 984.535522
-4.681628 -278.724915 950.017212
-30.547443 -311.386841 907.177185
-46.066273 -271.978821 950.149475
-106.309975 -511.576294 681.699646
-143.882813 -497.219604 757.030945
-24.766169 -335.349243 899.465698
-124.390167 -475.922302 766.729858
-137.752335 -356.530060 927.360107
-101.591499 -285.876282 983.749512
-1.870416 -229.557907 983.895142
-31.161018 -336.726929 877.354431
-238.294678 -454.402740 880.724548
-209.834427 -321.648041 1002.242737
-216.493668 -376.541534 957.502258
-97.048294 -538.813049 666.290405
-152.805069 -444.528320 839.203308
-34.724968 -343.675720 842.970276
-31.755518 -485.566498 692.396301
-196.319214 -457.990021 820.242310
-104.130348 -290.610992 992.392456
-140.263733 -491.886475 754.106995
-0.888180 -413.859558 775.099365
-32.473434 -253.397812 953.286987
-105.516663 -479.056396 749.215332
-332.751587 -428.199341 853.323914
-157.862320 -364.762268 931.297668
-304.269012 -451.615601 911.397461
-127.543800 -493.005951 747.586731
-18.672865 -338.882874 856.394165
-89.578690 -377.568695 868.225281
-133.359955 -279.518860 1018.013794
-231.149246 -508.124451 770.775024
-14.653132 -486.657074 689.154419
-209.574875 -385.087128 931.767883
-256.808990 -595.943970 701.623474
-215.916763 -404.358826 913.307373
-122.012650 -402.334656 858.365723
-44.781433 -506.692047 613.468201
-85.203568 -316.278351 952.798340
-137.452133 -470.962982 761.024719
-178.056091 -529.105225 706.560181
-156.808807 -459.947571 812.210571
-273.558624 -381.748077 1073.636597
-277.240906 -432.697968 1021.281616
-346.176056 -452.872498 841.789185
-39.207623 -504.364624 674.336365
-240.315765 -587.841125 672.539368
-90.807693 -274.717041 1018.754333
-70.774971 -493.498169 711.479004
-56.456921 -322.110840 886.406494
-13.426563 -477.193420 664.948853
-302.642761 -468.064850 908.755127
-49.710121 -283.794952 954.226990
-18.837154 -390.259003 801.264404
-13.760467 -347.432281 875.382080
-31.326647 -367.412506 856.005859
-177.091858 -317.229004 1021.289124
-50.472977 -301.308105 939.854858
10.249233 -416.710632 757.590393
-316.132721 -405.982849 950.743347
-127.693436 -398.213776 853.675293
-96.492195 -450.341156 727.001953
-166.537994 -405.199738 891.438232
-15.623882 -259.974091 979.983276
-36.942219 -450.059113 727.369934
-1.062135 -368.565247 809.651794
-146.756943 -314.860748 1005.237854
-274.040558 -423.651184 928.207153
-75.270370 -299.511536 959.683167
-47.462318 -389.715118 816.792053
-40.358887 -265.982910 981.688599
-13.667723 -365.589966 821.345337
-214.116364 -510.036774 777.012451
-282.467682 -394.850983 1051.152954
-82.331467 -469.473785 727.164856
-114.009621 -342.258606 889.721741
-3.416073 -289.509918 909.810425
-98.080803 -407.925232 851.425049
-78.709320 -362.382751 871.051758
-201.948853 -498.509888 773.410461
-76.070671 -268.466400 1020.416260
-160.876678 -530.147644 723.559387
-176.449173 -408.570190 885.510620
-161.898453 -337.549835 966.514771
-37.019928 -501.744843 617.297241
-175.446854 -327.433075 1006.131470
-170.844360 -470.604645 793.587585
-125.059357 -318.588013 969.662659
-220.138000 -300.023438 1075.606201
-227.968231 -488.604309 784.946777
-242.136948 -416.699554 941.346069
6.251026 -526.340515 597.434998
-108.163506 -571.988708 636.362183
-64.577431 -389.233459 851.841797
-206.971863 -345.441528 997.595581
6.352820 -299.797760 924.398926
-248.157303 -463.894104 845.095154
-141.550064 -331.651428 963.180908
0.577906 -334.586060 855.190857
-210.285034 -307.676697 1050.353149
-239.626648 -323.040497 1048.154663
-153.250031 -474.655640 767.026123
-5.841382 -406.101563 766.866516
-76.037727 -416.700623 793.536499
-133.131897 -329.335022 949.229614
-12.471966 -355.041901 835.367004
-215.394455 -522.668396 738.639404
-304.764374 -474.492767 874.201172
-135.554398 -516.055054 717.544373
-116.978363 -311.577881 984.147888
-98.946167 -505.376465 669.285828
-36.370560 -372.242188 842.721802
-330.176361 -428.055847 897.060059
13.323244 -482.065460 659.765869
-194.775177 -487.673950 775.818237
-227.587982 -524.210693 746.083740
3.031723 -296.271393 929.404419
-111.230621 -321.479645 972.926331
-218.119171 -483.332275 820.463745
-0.896819 -351.487579 831.626343
-154.371979 -287.747772 1048.162842
1.027365 -347.724640 817.401917
-38.201294 -327.131256 913.661804
-323.060699 -416.018768 932.321899
-166.123245 -526.285889 690.062744
-220.418259 -430.759766 869.352966
-260.985596 -551.748779 719.690918
-273.969788 -408.178558 953.924255
-8.805665 -368.111969 836.629028
-99.753479 -532.548706 643.686462
-106.927788 -368.873901 898.814575
-92.538422 -382.569733 828.647400
-325.496155 -441.412903 880.713135
-112.301422 -297.639099 1008.827026
-16.230745 -363.796387 813.950989
0.073184 -467.232025 677.332214
-60.579525 -280.588257 986.822327
-114.151459 -492.000702 683.682861
-161.325256 -512.169189 740.526733
-149.070282 -292.554321 1040.456055
-109.788940 -573.966675 631.595032
-119.771675 -485.371185 729.905701
-272.956879 -392.897614 1061.277344
-196.971008 -410.803406 904.343994
-342.556732 -413.521240 849.466125
-153.259125 -473.490448 757.736267
-282.839447 -434.716156 1016.472717
-320.831940 -429.285858 914.024719
-68.061958 -465.199158 740.039734
-138.897659 -445.974701 805.334534
-34.539890 -252.174896 1004.098694
-189.801987 -413.621735 883.178101
17.092848 -390.996033 779.526428
-23.588108 -515.832886 639.903992
-326.353333 -425.708923 880.061829
-303.819550 -448.433929 902.268982
-50.537193 -526.688904 627.169861
-274.692322 -486.970184 870.999329
-132.263901 -477.779724 747.561951
-190.985413 -525.575073 718.225708
-91.195877 -431.016510 815.132507
-158.683044 -400.569427 894.563538
-144.184570 -418.758331 842.466858
-77.446228 -419.226776 802.003296
-58.142544 -521.007629 667.344788
-53.421295 -253.413269 984.401306
-156.183624 -434.346954 834.927490
-149.142914 -397.374329 880.460388
-88.908867 -490.677124 698.804321
-18.174704 -365.734039 846.386780
-247.786407 -472.492859 831.331787
-282.774689 -461.697083 906.521301
-127.332733 -540.029053 651.275513
19.827494 -240.082764 966.243347
-20.325184 -301.212860 926.148132
-121.158348 -365.196930 925.706848
-113.580284 -400.194000 818.202454
-250.525925 -519.229370 766.966675
-33.684368 -499.328735 665.699890
-117.045670 -311.256042 988.557922
-52.156254 -264.311737 1010.464050
-42.293728 -340.654480 873.712769
-97.888664 -541.671692 657.102783
-13.577458 -389.130737 788.031982
-224.744675 -568.599915 680.084839
7.639325 -306.166412 889.013855
-95.118813 -493.429901 723.199219
-239.056900 -533.584534 759.367554
-110.898460 -522.337280 652.491516
-205.931763 -326.966248 1017.595825
-319.379120 -504.813965 794.022522
-110.408356 -496.903290 714.941711
-139.547089 -338.670105 975.489075
-154.699738 -429.859467 839.723938
-228.578537 -427.271454 912.133484
-319.329376 -462.484192 873.279297
-229.365005 -452.953857 857.162537
4.204378 -247.212601 989.944580
-243.883270 -543.022034 765.719727
-34.232510 -277.803864 976.772217
-157.287796 -308.039246 1002.011169
-108.917198 -559.981201 648.347839
-128.638870 -306.834473 1009.250244
-49.365845 -230.968445 989.288391
-129.506516 -346.847595 951.011047
-66.488548 -406.369720 812.537109
-14.369069 -472.856262 675.135498
-16.138542 -281.051117 907.931946
-200.219284 -568.522522 692.338562
-301.898163 -494.582397 850.306946
-118.620316 -429.577148 808.704956
-7.180174 -328.384583 867.873535
-83.794853 -364.761200 846.558228
-184.063278 -309.091034 1036.435181
-92.818398 -564.497498 626.036255
-122.811806 -327.818787 972.254761
-152.791946 -493.909943 729.314087
-156.767929 -301.910309 1008.081909
-191.715698 -340.988831 984.156433
-127.583160 -562.077148 658.477478
-101.213371 -296.907959 994.487122
3.741716 -322.012939 879.824097
-143.713867 -348.267120 932.049072
-46.359257 -359.931580 878.604248
-122.695244 -424.846039 818.545593
-148.630005 -483.445648 772.888062
-112.093399 -317.572479 950.050049
-130.177902 -565.275757 641.639465
4.004612 -250.546738 994.908020
-197.382202 -410.855255 907.209961
-180.055313 -501.286316 776.149963
6.539999 -265.594147 924.575195
-330.239777 -418.075104 920.596069
-175.876068 -321.081482 1008.685730
-169.784225 -405.026855 895.437927
-50.499310 -317.624603 912.603943
-292.767853 -403.887390 1018.596008
-169.699707 -476.083130 780.898743
-84.018089 -419.830872 821.983032
-143.397232 -512.980225 714.526367
-146.133926 -565.870239 632.497131
-243.529663 -336.833527 1043.209595
-232.171616 -517.549255 758.087585
6.064378 -439.437531 714.363037
-80.203690 -516.285522 689.770447
-270.589050 -423.523193 999.213440
-33.608540 -397.177155 794.951172
-81.842789 -372.242798 858.083191
-163.406525 -365.552094 935.362122
27.687075 -273.707306 943.745483
-166.902542 -421.580505 855.074341
-115.838737 -321.765289 975.355591
-211.177979 -342.510406 1006.565430
-65.875832 -280.285675 965.655518
-224.501373 -516.834167 734.517334
-249.257828 -356.398682 1022.441650
-109.639038 -331.778687 951.324280
-307.648346 -504.455292 843.460632
-323.300873 -428.014038 903.073853
-82.694733 -413.220062 829.605347
-211.860352 -575.730225 693.147522
-180.895157 -454.689972 814.140930
-96.031609 -493.770660 720.954407
-301.081177 -541.669189 813.309937
-221.805481 -565.613831 708.816284
-208.966339 -583.089233 649.551086
-134.451782 -408.689667 875.737061
-217.044586 -333.900635 1012.438904
-262.554810 -442.851685 884.631592
-302.049316 -437.631256 935.946472
-330.548462 -414.012909 927.757813
-132.895325 -494.571625 749.205383
8.664835 -249.147034 982.724243
-21.229082 -444.295990 722.570129
-232.595108 -607.454773 657.018555
-231.239792 -316.067444 1051.536499
-179.567902 -318.650574 1020.228210
-193.895294 -593.718567 650.427307
-224.677597 -371.715759 968.829529
-222.083160 -354.405121 990.785583
-180.193695 -498.540985 736.134705
-218.711258 -317.443115 1047.312500
-133.087585 -392.517212 874.806946
-14.618543 -370.718292 814.702881
-254.330109 -500.876526 817.190735
-109.727318 -344.064636 923.605774
-155.815796 -567.308594 659.811096
-206.865158 -315.709412 1041.564575
-109.849991 -357.431549 906.636536
-116.999451 -289.734009 1014.295776
-22.030323 -304.522369 928.800476
-268.950745 -602.533264 708.939453
-239.581619 -442.543457 880.658569
-87.486923 -386.267181 864.472107
-102.214462 -420.199799 812.383423
-87.412888 -431.097137 806.611389
-41.542648 -273.092102 989.656616
-254.898743 -542.641052 721.463379
-88.562752 -417.563293 822.517395
-41.733093 -463.335419 736.129333
-37.276409 -454.353973 718.887695
-47.111572 -405.292969 800.242004
-140.392090 -496.530975 726.334900
-265.173248 -395.477570 1033.653687
-2.768820 -333.876251 877.150513
-222.168411 -294.318634 1047.290649
-153.949066 -324.312012 952.664368
-113.035919 -307.568420 969.174316
-147.478867 -290.154114 1033.434204
-92.618301 -474.816345 732.030823
-214.426346 -421.510315 903.608215
-67.594780 -393.283905 832.883484
-62.320423 -326.303619 923.872131
-140.022247 -542.615356 678.502380
-164.221954 -445.417328 841.996582
-170.774307 -425.166931 869.658081
-285.404419 -570.531555 820.861389
-313.865967 -437.692017 911.621155
-155.011856 -461.074890 808.229248
-54.129585 -389.178345 845.219666
-115.045387 -552.358093 650.457825
-93.402611 -303.830841 991.370056
-107.142395 -458.507629 756.951050
-322.713379 -437.431519 864.540833
8.299900 -388.933868 783.644958
-288.607971 -499.884613 855.255615
-71.311211 -520.447449 657.404114
-100.889946 -362.705444 909.877563
-237.067337 -323.020874 1060.126953
-64.807739 -318.993286 934.823120
-73.192970 -252.103928 980.068481
-2.367084 -322.332794 874.511475
-105.121956 -450.046021 760.916809
-6.996891 -366.736176 802.890503
-235.611679 -440.912079 851.464966
-134.462402 -451.622681 761.156860
-106.652336 -388.927032 882.966370
8.384667 -399.224701 767.028992
-172.313675 -423.569977 862.588928
-62.113171 -375.689606 854.696411
-28.822895 -372.657227 837.700928
-206.421066 -367.676910 978.802368
-182.512543 -297.561310 1022.030273
-127.405205 -455.941467 785.773438
1.734904 -273.340576 928.225647
-243.844498 -356.737305 1008.050720
-33.642357 -485.847412 665.986572
-22.360201 -412.981598 760.289795
-249.453094 -555.986877 703.039246
-337.894958 -409.731995 872.966125
-92.643845 -340.160217 924.618469
-224.604477 -563.540405 667.321533
-4.975062 -237.990250 999.303833
-166.763153 -452.308105 833.643066
-32.907516 -376.726044 822.492615
-112.489410 -408.438385 839.208252
-177.707260 -554.758789 651.404358
-16.907814 -503.101898 627.121948
-68.841667 -264.364563 1006.619202
-315.983978 -458.179840 882.714722
-283.030396 -514.630859 841.454102
-244.865601 -373.365387 973.854004
-237.862579 -478.846283 840.469788
-14.466153 -331.065582 893.792603
-326.053589 -456.286743 877.682373
-144.148712 -444.686279 811.150574
-283.069794 -392.801483 1040.308228
-91.686653 -347.328979 897.855957
-172.100784 -359.246521 948.608704
-237.015686 -392.718689 930.045654
-52.552879 -541.711243 616.737732
-43.487480 -245.646805 1029.278442
-138.653839 -418.845795 842.979004
3.675812 -306.816254 900.554504
-26.352865 -301.391541 884.905762
-150.292953 -301.098755 982.087036
-33.904194 -527.074951 618.540344
-21.533085 -299.474548 945.451965
-215.132401 -335.977539 986.139587
-289.065796 -578.690430 814.636597
-188.216934 -322.843506 976.597961
-92.350075 -330.144592 925.233154
-94.714386 -449.799133 766.465332
-43.311726 -274.222015 961.682434
-237.180954 -317.965454 1034.373047
-91.451439 -455.549255 724.961121
-149.991379 -361.138794 944.494202
-172.652725 -448.147034 814.611511
-273.404419 -418.002319 1061.544067
-164.236664 -303.339233 1022.291687
-5.185224 -272.354767 937.413696
-25.534735 -370.700073 848.694946
-216.023743 -560.041077 678.426819
-84.767616 -537.889099 662.833008
-258.801727 -493.261444 860.933472
-9.356091 -233.177780 1010.357422
-156.935989 -352.669708 949.797729
-78.353516 -517.634033 658.999878
-80.276161 -470.547546 751.197266
0.792058 -279.493744 947.982727
-11.397565 -258.292511 982.057861
-157.998444 -561.609009 640.890320
-24.117184 -327.947235 857.076782
-97.505974 -462.646332 728.404480
-113.133217 -573.342529 637.180237
-270.785400 -544.463135 792.416443
-282.727905 -577.407043 814.550537
2.917604 -507.808105 602.133728
-214.340790 -397.596954 937.976563
-46.773197 -418.035980 768.567200
-280.615417 -496.555115 867.335938
-157.772568 -481.978394 784.617371
-327.210205 -494.954651 810.406372
-97.891571 -265.417023 1027.824463
-119.620552 -532.089294 696.483887
-179.428909 -373.051514 947.904785
-209.735184 -324.147675 1010.433777
-15.558197 -540.968811 623.136414
-18.265339 -312.793579 918.513062
-231.728745 -559.847961 672.266052
-238.012787 -556.692200 727.719482
-18.831614 -368.166779 795.882324
0.302446 -287.120026 928.663574
9.827167 -254.535995 953.593323
-269.253113 -514.226685 846.606262
-259.254120 -411.758453 948.385254
-196.552780 -404.141113 901.120239
-309.924774 -546.217041 806.799438
-290.817322 -441.052460 964.124207
-161.916306 -294.843719 1037.307861
-62.743244 -449.979797 743.703003
-310.910980 -456.744385 885.096680
-141.074234 -317.827972 952.063843
-177.882172 -347.295563 982.098328
-145.075821 -303.407898 966.884338
-175.649399 -388.165802 899.881409
-241.754547 -608.447998 667.002686
-265.426758 -335.918488 1047.452148
-191.050568 -574.246277 649.743713
-67.598007 -536.069519 611.851379
-186.825119 -351.557465 969.523560
-112.168144 -352.841034 904.835510
-147.407089 -381.918335 912.491272
-285.267181 -601.059509 769.948425
-64.359039 -514.928894 643.847290
-218.744354 -547.867493 712.222168
-167.618103 -330.635712 992.437927
-211.056549 -386.992249 936.335144
-46.467545 -362.783051 855.054016
-273.080200 -422.912964 969.090515
-218.094955 -579.903381 689.940186
-192.028717 -514.104492 743.756531
-335.637543 -461.496490 806.352844
-304.968994 -510.251526 843.552490
-291.701233 -522.360718 824.049927
-294.943970 -400.014984 993.488586
-97.300789 -305.729523 959.702698
-267.995575 -406.437256 1082.133789
-118.135696 -525.728760 666.942383
-2.783999 -372.787903 825.077515
-3.475714 -457.576019 682.794861
-239.858948 -458.820770 876.887878
-53.485245 -386.077179 849.080994
-0.889410 -339.640869 856.481079
-10.360125 -291.018341 925.335327
-52.098202 -349.278503 868.898254
-140.689102 -551.267334 673.096741
-78.189766 -445.880707 764.295837
-157.378586 -544.021973 671.130798
-106.446449 -277.690033 1029.870361
-279.952728 -531.851379 826.072205
-147.859085 -465.570374 775.926453
-324.960999 -397.195923 925.577087
-12.942257 -314.468658 889.986694
-171.236053 -385.292084 923.477966
-40.066624 -295.982147 951.430481
-139.059402 -475.054382 741.140259
-40.962830 -262.787415 994.990723
-159.909500 -407.752106 869.755005
-317.422028 -435.333099 907.310608
-24.261286 -509.144135 634.054626
-120.780525 -381.695831 902.752380
-72.559273 -425.120331 779.216675
-103.429871 -474.656250 737.751831
-204.128372 -559.107605 685.531311
-106.638641 -419.157013 824.631653
-234.748520 -498.370880 809.863098
-42.665634 -390.912720 813.078308
-49.362823 -259.564331 1004.465332
-119.910294 -352.290741 934.682312
-255.589142 -530.906128 799.651794
-239.470459 -499.800476 788.828735
-92.961761 -308.193329 977.554504
20.157248 -302.325500 894.325562
-34.654186 -287.552094 961.119873
-9.629431 -248.970383 1006.758057
-7.889589 -380.791229 805.179321
-134.457611 -487.776459 735.138000
-127.259323 -327.572510 927.798401
-311.607483 -519.117493 802.163696
-73.446671 -256.663849 992.960632
19.909279 -280.729675 934.924194
-206.890839 -467.194946 819.409546
-89.460991 -399.282227 857.333801
-183.656479 -568.210632 636.959839
-247.787216 -420.608459 917.382507
-211.700378 -497.188873 761.065186
20.847353 -306.733093 894.488342
-269.679230 -493.248474 871.657654
-131.602615 -454.702942 786.680115
-231.000534 -458.981873 840.166321
-330.217163 -510.992615 800.107605
-234.102478 -472.402069 811.596191
-47.093430 -286.809753 958.665405
-228.634659 -361.211212 987.372375
-193.990509 -326.279327 1021.036255
-40.665680 -425.412598 785.542725
-75.608665 -338.006775 926.060425
-2.859167 -279.824097 925.386475
31.064938 -240.411911 980.019409
-87.354012 -446.667297 759.584778
-231.632095 -546.902649 696.989990
-296.799438 -490.247589 860.085632
-33.640907 -405.869415 788.563904
-209.633469 -326.551514 1035.299438
-164.447067 -414.588226 879.100525
-58.744030 -406.250763 806.482422
-182.613190 -414.699677 897.983704
-64.967232 -406.264587 788.830139
-35.752125 -478.271454 679.543884
-131.885956 -292.862915 1008.105957
-118.103729 -514.834106 716.323181
-30.968119 -476.724335 678.146851
-56.810459 -431.930054 765.279236
-34.911991 -304.602051 929.660034
-76.086563 -462.322510 716.379944
-326.296417 -511.059113 799.797546
-213.530472 -512.643616 755.661804
-164.307083 -339.220825 994.381897
-12.421382 -248.755905 1005.337097
-301.359650 -411.429077 944.527039
-339.734863 -413.359558 916.595093
-196.959061 -415.149719 875.835510
-22.633627 -396.472321 796.538391
-158.822754 -504.719604 713.974548
-83.208923 -450.285217 761.671631
-109.419746 -411.222839 830.082397
-73.976120 -262.189850 1018.568604
-134.571136 -349.797638 895.898560
-137.729980 -438.890747 805.554138
-176.197678 -578.467285 669.871338
-291.205658 -472.737396 899.313232
10.787974 -278.480499 903.697876
-278.598694 -400.638184 1058.610229
-300.197357 -493.419708 836.658752
-99.755424 -511.214722 675.314758
-81.587074 -269.670746 1020.297913
-137.688217 -382.871796 891.201111
-239.762787 -473.795532 863.330139
-106.467743 -526.232117 664.288147
-116.172745 -524.021423 654.122070
-106.066017 -352.693085 877.156555
-12.591662 -267.609589 932.631836
-55.552250 -492.948334 668.495483
-68.935379 -533.004028 657.583862
13.261683 -293.142090 916.223694
-225.763474 -468.359833 825.812500
-165.482986 -417.849487 864.638977
-155.176285 -467.089294 799.847656
-151.048035 -378.181732 907.516052
-313.548553 -457.190002 868.521301
-323.575287 -423.686066 919.156067
-44.981033 -297.348633 964.318481
-91.408806 -396.025360 828.179077
-207.728409 -449.038452 842.589417
-144.025620 -430.129639 826.736938
-205.860275 -502.377563 784.449463
13.164147 -413.801117 738.639587
-242.849289 -379.663666 947.738464
-4.152993 -386.927216 786.157410
-11.402214 -455.932007 699.422485
-30.598957 -253.951187 981.308960
-153.263474 -482.807556 742.588806
-81.256935 -372.613739 866.812073
-279.996277 -456.103973 910.454590
-249.295914 -551.416748 743.168152
-256.444702 -346.225647 1105.402710
-104.313438 -460.954987 760.161560
-172.568100 -384.686310 882.348450
-208.707336 -389.874084 946.512085
16.805592 -332.193695 855.074219
-7.998314 -248.958008 960.503418
-5.568493 -404.021149 775.611633
-55.154385 -526.944763 614.598633
-161.121353 -290.404877 1028.491577
-15.119861 -242.672348 996.323730
-263.796783 -405.459961 987.373596
-21.526684 -251.321869 1010.064636
-244.396866 -457.297729 864.559448
-129.482071 -520.258057 698.541992
-261.662415 -516.596680 827.105225
-242.653610 -394.486877 955.703369
-15.632406 -525.062378 614.389771
-145.082657 -479.482147 745.488037
-17.031404 -261.051117 969.931335
-8.750764 -289.833588 917.453064
-35.992836 -535.767273 625.307251
-156.823380 -465.418640 807.351501
-120.627739 -279.453552 1041.718750
-222.791885 -315.972504 1015.620056
-282.326965 -545.632629 828.940186
-41.193760 -432.803314 738.035034
-150.054321 -529.830322 699.371704
-79.037331 -478.001953 721.351013
-208.533005 -481.859283 797.012939
-134.125107 -485.112885 745.860596
-160.502319 -409.388519 883.972778
-78.354881 -447.898285 726.087830
-108.964287 -450.812988 775.328003
-97.398071 -294.705292 1005.309448
-25.338997 -269.322968 965.862793
18.729046 -406.036865 772.008118
-305.215546 -405.604706 980.711731
-142.917053 -320.579803 975.593872
-138.241730 -434.186707 843.390503
-54.529713 -286.141632 978.460510
-88.750961 -513.732544 665.628357
-286.088104 -435.323669 937.812500
-70.887917 -451.520355 723.112305
4.495221 -311.588684 881.691528
-230.117126 -327.771790 1061.367188
-56.409569 -317.141357 893.244812
-120.306763 -488.375061 728.348145
-68.223473 -463.007507 723.447144
-211.539108 -588.426453 675.375061
-7.222284 -341.987640 850.185608
-199.108078 -474.205780 803.286987
-0.069114 -346.251190 854.186401
-322.144257 -453.198975 869.257690
-278.264404 -457.397919 872.960754
-317.734924 -414.242157 931.721924
-16.350670 -334.180725 879.014282
-298.071045 -429.584625 945.282043
-179.723679 -332.737518 1002.389282
-82.678955 -334.050018 927.945435
-61.185432 -389.921875 812.517883
-44.362019 -466.186920 709.281738
11.108936 -242.934021 995.231567
-101.198517 -548.412720 625.178589
-336.309357 -409.348297 925.924255
-93.785736 -286.243805 1010.950317
9.428536 -259.907806 949.996216
-88.142647 -520.676025 635.077759
-292.127441 -471.931854 875.434448
-190.685349 -497.782867 768.825867
-62.842644 -275.934296 991.680908
-15.324347 -331.779144 870.255615
-4.337250 -435.855377 731.283936
-129.211884 -497.168427 740.333069
-37.122055 -386.901031 810.866882
-169.890808 -326.483185 1012.247314
-226.962128 -502.649597 794.928711
-59.983730 -324.296783 920.123352
-47.530865 -483.942169 685.915039
-172.944702 -386.406281 911.869873
-278.507233 -431.956390 973.268677
-133.866653 -529.779419 697.361389
-191.216782 -384.817657 937.282471
-22.357155 -369.951660 822.277161
-123.706482 -561.343994 648.952698
-129.449081 -380.111786 895.213745
-28.019482 -502.280762 612.422729
-6.956590 -463.375275 653.800598
-154.432541 -377.058411 911.953613
-118.947968 -399.274475 875.374329
-56.261063 -513.055603 674.859131
-204.238739 -313.701385 1023.268555
-341.853485 -426.764404 876.763977
-235.067322 -515.996521 758.443359
-5.876543 -520.387085 603.121765
-170.946472 -413.261261 875.062012
-128.373322 -436.771301 810.474915
-142.693390 -479.398926 758.489197
-31.336876 -249.665878 979.268738
-214.305832 -550.847473 696.833374
-73.001808 -466.856537 742.022095
-242.745972 -530.369568 765.871643
-134.691254 -288.276093 1003.251892
-228.838867 -348.759521 1008.852783
-29.446419 -246.279068 1005.116943
-316.751495 -415.155426 950.122437
6.776687 -384.275757 804.822571
-313.083527 -424.263702 972.399414
-267.053741 -477.343445 897.507263
-115.281006 -502.176086 723.928589
-114.968132 -385.296692 870.842346
-128.555511 -528.654297 695.320374
-200.186630 -477.432526 799.032471
-86.726303 -358.407135 879.971252
-313.773132 -433.333527 884.022827
-277.229645 -416.665466 1037.063843
-103.058365 -407.639313 852.245972
-63.207623 -363.009125 870.340881
-252.605179 -503.014404 807.487854
-91.339745 -372.087036 874.037231
-185.918457 -407.868286 887.258728
7.914582 -334.237244 868.486633
-250.884201 -531.195740 738.895508
-115.134521 -515.522278 679.393311
-74.660027 -324.250031 941.275879
-41.857639 -530.530212 623.481567
-7.459897 -414.466034 772.010437
-38.749271 -281.522858 971.594177
-196.898788 -352.665039 979.845764
-84.619934 -522.707275 628.843201
-266.859528 -487.110840 887.351929
-36.830391 -314.604950 931.245911
5.796241 -345.686829 844.339050
-109.903786 -518.354614 677.395020
0.612808 -335.022552 862.580994
-300.942596 -413.950195 939.122742
-33.314472 -325.869080 911.849976
-43.433479 -544.311951 607.761292
-324.394531 -514.363770 822.170227
-120.243187 -414.716736 835.733032
-69.074600 -381.299225 843.447449
-164.088547 -426.237122 864.179016
-123.351265 -404.997131 864.917969
-164.087509 -541.322815 678.497375
-196.349625 -407.005310 894.990723
-107.832458 -352.982330 881.858337
-67.733871 -463.418823 708.711182
-142.660049 -466.919922 770.542969
11.731938 -292.172668 921.744141
-178.728760 -318.838165 1024.682983
-161.240341 -424.915710 872.159668
-289.688019 -508.162079 841.209717
-140.717850 -311.760803 1004.986511
-181.869003 -434.810364 852.430420
-78.295143 -515.466553 627.917175
-47.515766 -508.258636 649.248108
-65.129807 -263.958740 1004.382080
-125.325302 -458.626221 775.533752
-139.320114 -302.675629 1010.347839
-116.091408 -389.097687 864.314453
-287.002533 -440.585327 1004.295288
-64.344673 -284.444611 963.332397
-273.782379 -406.165588 1055.633667
-158.730865 -424.882690 862.373901
-310.620544 -439.586090 923.417725
-86.134842 -350.233673 898.942017
-104.907356 -434.852478 791.809753
-82.848251 -529.254639 674.039795
-130.269318 -466.900848 761.028503
-23.267277 -375.257996 817.631531
-336.899933 -489.357361 812.940552
-310.159851 -480.979553 863.043213
-206.987991 -317.070160 1030.701172
-187.436874 -408.636597 894.141846
-51.167130 -551.274292 615.588257
-201.521393 -438.217651 877.218445
-74.880272 -294.480927 958.074341
-123.104996 -328.054718 979.836731
-129.501099 -546.572449 648.823242
-284.477905 -590.592834 757.270874
-270.190125 -428.845947 1001.044250
-151.789597 -433.440216 853.648987
-47.714493 -384.575562 821.197815
-189.215530 -328.448517 1014.801208
-291.130646 -476.539917 875.230225
-205.531662 -508.750793 754.660095
-195.834442 -315.666656 1047.335938
-117.332542 -280.205750 1003.082336
-31.050249 -279.882355 966.374329
-42.396461 -442.062164 741.934509
10.265845 -363.910980 822.223999
-215.106369 -421.323547 901.805359
-118.772888 -320.407959 975.818848
16.729584 -374.508484 807.984619
-5.558973 -371.507996 815.076660
-221.093048 -530.465881 753.069641
-77.567924 -440.687897 760.777100
-75.098961 -289.451599 964.189270
-236.905014 -325.641754 1054.288086
-0.879348 -398.483643 776.749146
-66.658752 -402.621063 817.664734
-274.780121 -394.574707 1068.820801
-71.963943 -515.035828 678.949707
-30.055565 -540.714050 624.664917
-131.080841 -392.454224 870.279968
-132.713791 -416.634460 832.814819
-242.837051 -456.644287 858.085144
-75.414383 -355.646057 892.078430
-3.489676 -259.314392 958.729553
-34.319210 -265.581116 991.204529
-178.933167 -339.751587 976.542908
-160.030533 -579.791321 641.611084
-44.113224 -474.421173 685.825562
-187.995148 -332.135590 1017.685059
-70.976723 -494.701416 705.648682
-215.228867 -555.390076 714.821167
-301.521454 -481.540771 855.464172
-58.120934 -342.650604 897.731445
-45.240555 -359.707458 864.154846
-93.936317 -285.272919 981.825500
-30.078732 -436.944580 741.505127
-47.700535 -398.385559 806.785034
8.930167 -467.367432 671.722107
-69.319641 -549.396606 614.430298
-13.249151 -327.089203 849.887451
-18.651024 -442.159973 742.819641
-61.407017 -418.226624 767.116760
-195.140442 -484.670380 779.059509
-128.306808 -380.714630 887.114868
-12.987298 -477.489502 658.977844
-203.462326 -515.301453 725.505676
-209.168488 -326.736298 1020.737366
-319.303406 -417.887451 921.790283
-240.720596 -318.721985 1060.856201
-57.765694 -400.667633 802.646179
-275.408478 -522.449524 829.235718
-237.813568 -512.380676 772.156128
-34.857998 -336.184113 890.608521
17.581898 -419.629395 746.326172
-11.167901 -404.030548 764.768799
-79.630234 -474.847137 739.500427
-213.370834 -534.012024 727.138611
13.752524 -379.639740 788.442993
-1.449116 -270.311035 951.358276
-247.411270 -421.757202 927.899231
-143.305206 -421.482666 855.640137
-47.369671 -456.595795 721.369690
-299.268188 -467.568726 904.891357
-168.047577 -552.199707 693.233521
-272.403839 -411.975983 1026.963989
-51.081760 -465.201538 727.245422
-76.686157 -352.730499 880.841003
-155.914658 -459.639740 820.242981
-120.061035 -554.296692 651.671631
-323.909973 -443.028839 895.168823
-342.076324 -426.892273 871.640015
-156.134735 -353.050995 948.733215
-98.385185 -315.037842 915.648682
-58.095127 -290.859955 982.704224
-166.238113 -388.769684 915.662781
-58.405354 -394.762238 786.192383
-196.773743 -515.959412 738.800415
-58.129436 -423.727173 771.393188
-2.998940 -293.709808 933.215332
-325.270325 -518.155762 818.071777
-168.089508 -506.350647 732.491272
-242.271347 -611.459717 663.685974
-8.475092 -276.035126 910.225037
-44.721249 -411.367371 788.187134
-299.611725 -528.274292 815.750977
17.208094 -408.479797 767.697937
-257.044067 -419.662109 982.532959
-217.765732 -466.573120 844.931519
-208.942139 -595.108032 659.658203
-62.251419 -444.687683 774.421143
-49.178001 -293.154022 921.393921
-39.081039 -476.213989 681.927490
-215.589890 -394.636627 944.601135
-216.124878 -329.990021 1029.143677
-202.328293 -365.173859 979.173157
-329.230774 -489.961121 817.509277
-257.240204 -466.735565 887.132324
-86.721161 -383.042542 852.795654
-262.728882 -506.625183 815.481934
-29.806728 -529.491821 599.466309
-265.705658 -569.798401 748.032104
-118.786064 -482.282318 734.096252
-333.127930 -448.908508 872.057922
-96.502335 -488.007874 716.729065
-92.025757 -404.706085 820.612244
-247.425156 -573.137695 686.696472
-183.147720 -411.034943 888.430359
-120.999130 -524.364624 675.610657
-38.050274 -356.450989 880.590759
-226.539474 -398.754639 923.507080
-124.282349 -316.762207 988.713257
-193.639282 -473.015930 801.691895
-11.247143 -393.589203 790.249390
-97.188133 -456.319153 775.463867
-160.720871 -326.069855 1008.055542
-211.502625 -553.332275 694.409729
-120.572006 -272.639832 1015.842041
-278.513275 -433.965912 970.836548
-75.225632 -515.050537 688.569214
-315.783478 -519.992432 810.712097
-223.026505 -424.644287 906.102173
-159.315613 -330.556152 972.134460
-100.960266 -343.160431 918.789917
-112.179909 -371.430756 880.026367
-7.089219 -446.299744 698.650085
-210.640945 -401.072479 926.246582
-193.027115 -396.255005 911.653992
-214.154236 -408.070770 920.714966
-42.295689 -340.770447 874.626282
-129.155975 -421.120880 827.911804
7.012335 -491.990601 659.668762
-337.002899 -496.710388 826.470093
-224.152435 -493.748047 796.233398
-15.254557 -355.234558 857.244263
-241.317398 -433.851715 920.154663
-48.551373 -470.662537 697.485840
-21.134142 -376.022675 835.274719
-217.416656 -492.898163 771.727356
-9.049915 -394.310028 803.364624
-141.395737 -417.994110 841.885193
-160.953415 -275.063782 1044.115479
-104.624725 -484.773102 741.511902
-82.420906 -364.010651 877.314087
-149.699829 -478.484283 767.023926
-166.554794 -381.756317 912.148193
-110.121681 -304.799591 994.621338
-64.774376 -426.256226 781.247192
-142.660995 -560.842102 667.375427
-20.286964 -446.149872 738.542542
-108.006950 -343.396301 930.242310
-106.263184 -483.306244 730.475952
3.125153 -528.298279 597.855408
-40.361012 -404.802612 796.315796
-121.588440 -397.579529 874.695496
-295.341705 -435.704895 967.930420
-6.371617 -472.885681 662.052490
-33.248898 -510.945374 640.647217
-37.168686 -276.575562 983.881531
-224.294846 -383.196259 922.807434
-232.032303 -458.579926 865.353271
-86.611763 -494.206726 695.876770
-238.076324 -583.910339 665.613892
-74.891937 -336.127869 925.814636
-34.646736 -351.003479 879.993530
-230.333862 -325.850861 1054.400879
-308.108002 -417.994659 926.330261
-58.618511 -278.082855 973.948425
-101.595993 -290.397339 970.859741
-51.562012 -290.911072 968.966797
-309.136841 -431.192108 896.642212
-209.126938 -358.685516 954.853882
-226.493835 -508.159790 788.593872
-97.047173 -411.980957 813.971191
-323.182617 -404.487366 947.824341
-240.220703 -413.158112 919.662537
-119.324501 -559.648682 623.608215
-9.847351 -297.808411 878.410645
-68.827820 -328.454559 911.097839
-331.692444 -505.697266 792.419006
-16.730970 -256.454224 952.827271
-185.712006 -375.514008 941.146606
-156.845291 -490.145935 733.645203
-134.703705 -436.373108 809.347473
-207.649551 -510.633362 754.759521
-113.427635 -317.971710 971.441284
-176.116547 -513.483093 736.826782
-226.267242 -376.767761 947.391541
-133.000885 -381.867493 889.158569
-170.785461 -451.634613 841.096741
-51.094009 -431.135376 782.220886
-214.872391 -360.592926 961.102478
-47.896187 -383.529907 819.676697
-275.085114 -431.654999 945.765259
-59.747486 -316.881622 924.948364
-196.788452 -464.208496 840.861694
-173.410873 -304.535706 1039.709717
-199.408112 -539.216858 727.384583
-68.620644 -451.765106 749.944092
-67.947464 -337.224426 917.888367
-216.981018 -451.750458 850.075317
-141.333084 -488.710571 709.461792
-297.753510 -412.949921 1010.193359
-203.095306 -378.174408 962.015625
-1.022407 -370.038177 805.400879
-296.172882 -442.841919 907.412354
-208.123047 -425.172089 883.213562
-110.093079 -318.272705 976.614868
-146.147186 -342.832947 957.997925
-64.361557 -373.833862 874.443237
-50.640820 -450.039978 728.164001
-41.460819 -482.846008 676.871765
-109.735352 -343.925690 924.341309
-94.794121 -432.302338 788.719666
-272.647888 -450.599335 885.175781
11.658721 -424.941895 689.984070
-321.422302 -408.381653 901.027649
-95.415565 -297.728607 947.020752
-271.693085 -436.096558 993.056519
13.562747 -339.811279 852.625183
-102.182945 -465.338043 743.718567
-303.586578 -439.743591 936.972107
13.492649 -479.605133 663.618591
-142.219055 -570.256714 659.047668
-145.562271 -281.907623 1015.017639
-37.064274 -304.515137 941.378967
-39.530556 -430.555664 780.102051
-334.132477 -412.354156 878.132568
-145.849182 -282.023376 1030.471680
26.015026 -258.428162 953.479248
-49.845043 -487.840607 677.889648
3.233497 -303.737274 897.692078
3.203983 -268.765411 962.996277
-157.068161 -488.261444 749.855896
-179.788910 -354.819305 963.315125
-162.686737 -547.298767 695.871948
-167.850723 -541.973572 658.900085
-37.705101 -407.030212 779.104614
-119.741119 -385.201141 889.534363
-300.642670 -495.209503 859.442078
-187.090515 -363.300476 919.219849
-47.223156 -443.201355 743.348083
-11.872293 -421.968689 739.646484
-209.685577 -422.155579 881.587952
-171.009338 -588.626221 642.179932
-104.137680 -470.870239 766.399902
-30.073172 -426.180664 748.092957
-169.423508 -559.293030 655.507813
-28.276354 -423.459595 722.128662
-15.675974 -411.856934 759.239807
-149.787582 -408.319763 862.033264
-231.718369 -594.051697 680.287415
-126.315987 -385.511383 885.633301
-185.611099 -329.312103 967.237000
-204.529739 -338.548950 1008.558716
-54.239334 -487.137360 686.418701
-320.638733 -408.257904 960.879822
-25.540037 -266.118622 982.812988
-82.818588 -349.086578 911.191833
-76.479004 -273.957581 965.915283
-80.864174 -519.547424 685.852600
-213.296890 -310.759338 1041.438721
-7.011969 -424.252960 738.477234
-156.974091 -535.651855 714.186157
-238.880692 -569.702637 716.619202
-305.719299 -407.773987 940.415405
-37.809288 -375.087921 800.468689
-8.323790 -349.688599 839.628479
-54.529648 -330.029755 912.493591
-75.657310 -284.159393 1002.773315
-104.742004 -487.620605 737.472656
-313.305450 -428.540924 914.077087
-309.672119 -433.867493 919.630981
-52.069763 -444.337372 744.763123
-306.974091 -432.380554 896.195007
-191.291855 -334.055817 1004.255066
-331.307831 -429.782074 897.937378
-273.535980 -495.312012 820.355591
-262.396637 -370.594299 1063.576904
10.017009 -500.695984 650.739380
-196.368500 -426.941071 856.902100
-232.277191 -459.801941 875.715576
-109.785179 -272.663849 1024.354126
-114.813011 -298.107269 1003.405518
-6.843783 -236.314423 976.805420
-151.013306 -318.248413 999.585510
-72.040649 -389.203735 833.577087
-213.237045 -516.390686 747.435974
4.289814 -503.655731 633.999512
-74.885262 -473.593079 713.145569
-228.614685 -433.278778 898.054077
-245.715286 -538.335388 757.079651
-300.476837 -420.816345 930.553955
-90.483719 -343.749176 925.464539
-298.055359 -427.852997 924.112671
-336.863007 -397.676575 922.092590
-112.207222 -301.228302 1001.440735
-137.913589 -306.516907 996.166016
-243.988144 -439.247650 916.539673
-279.224945 -476.577118 888.067993
-23.859657 -389.965973 798.070679
-155.599182 -451.267761 813.512146
-291.681946 -410.346680 1026.452393
-132.487152 -449.082214 787.860657
-42.164948 -302.697296 903.491394
-32.072849 -306.593262 908.992798
-159.477249 -520.216736 706.537720
-66.313774 -402.039520 833.581421
-82.184280 -303.116730 982.190125
