ply
format ascii 1.0
element vertex 1416
property float x
property float y
property float z
end_header
3.888559 715.356873 -676.950745
157.833466 806.385254 -499.707214
-103.555580 688.083801 -458.753662
271.521820 868.510864 -524.080139
-37.465775 729.634399 -453.524689
285.657196 857.362671 -533.676819
113.750999 771.785950 -428.353638
287.891052 871.420959 -458.889343
-94.816727 687.195251 -511.375427
53.424332 722.853516 -731.558044
51.754757 762.341736 -431.220795
153.277512 722.935791 -746.564087
196.165924 822.724915 -739.531677
197.258865 838.058533 -499.174622
309.646362 885.229248 -476.767609
275.402832 860.863647 -482.804138
125.438538 681.191711 -738.864441
-115.366539 698.392029 -415.622345
128.612473 803.073730 -524.428040
297.218903 863.556274 -667.357361
40.425438 741.771362 -504.008698
181.722351 742.262146 -741.635498
10.928019 716.437622 -673.567139
58.125999 769.152344 -416.504944
190.672043 839.206238 -418.149811
69.641243 782.468689 -415.976166
21.197124 730.567871 -630.067810
150.325882 803.610229 -497.152954
179.598251 801.825256 -621.617920
-72.334709 649.437317 -622.337952
132.502411 751.409058 -727.395264
-76.878082 670.403809 -618.261108
140.523849 743.736206 -723.895813
138.406189 787.700745 -687.965332
113.668312 801.485291 -417.209442
170.202087 798.429810 -606.271240
35.057968 735.986023 -590.466370
12.215851 729.955139 -597.035522
168.671432 832.223816 -401.376862
150.442841 795.382080 -614.045349
107.727440 707.640808 -729.851318
-63.472706 674.621582 -607.507385
-3.864441 720.327026 -492.046448
156.222549 817.007874 -517.599670
81.447411 742.005920 -681.212463
195.478699 839.986755 -403.747009
130.298111 766.093628 -558.396057
-69.398018 684.934814 -706.123047
-26.021389 723.806335 -474.209991
-8.641096 724.989990 -495.393555
265.425476 889.757813 -398.311768
208.935303 826.257324 -459.569885
201.699646 822.460632 -529.554199
99.922325 758.638245 -514.978333
212.352829 853.068176 -450.523224
139.687973 777.290405 -660.987976
33.286591 726.655334 -595.962341
129.157944 789.105408 -590.210266
103.197937 798.767456 -412.946503
-10.788725 725.624268 -587.061279
283.909576 872.744995 -483.440948
84.114502 774.900696 -467.180328
106.503159 790.372009 -522.692261
219.557205 848.523743 -507.639740
-40.547916 707.711914 -431.132874
-94.266258 681.439087 -505.494507
-100.134552 660.083740 -585.126953
3.177348 721.825806 -614.258118
78.669029 794.387512 -434.796204
197.564621 842.106079 -420.230621
3.896666 711.140564 -464.808258
-29.466824 690.193604 -600.870850
-9.977376 727.457642 -570.416809
-118.507843 654.887817 -444.721161
193.940598 815.273865 -565.095886
-49.485901 709.968323 -440.053802
162.635239 823.075256 -470.987366
-110.093651 683.397095 -405.287781
119.241798 792.728699 -453.006287
-46.674767 730.977539 -418.874939
210.858490 815.794800 -617.123840
155.855408 815.345032 -408.061737
219.401871 838.639404 -574.819702
92.402122 770.736023 -487.982880
-126.489700 671.366943 -437.250916
239.207367 827.982117 -637.219666
-48.356178 679.777954 -523.680115
-134.192749 642.117798 -579.220276
52.452339 711.234741 -711.734985
-1.608475 739.595093 -437.731659
28.410213 727.994568 -612.028015
169.677567 806.730896 -603.416077
-108.945450 683.505127 -538.621887
-111.264900 672.968323 -510.520782
-6.780358 690.684875 -629.244507
-30.454279 725.927124 -483.852631
221.546066 810.427246 -619.880981
286.964355 886.000244 -397.621338
-126.766174 677.450500 -386.631134
87.344215 778.294189 -441.949219
33.068268 762.875610 -469.072205
75.518974 777.685486 -416.533905
84.293343 763.290649 -619.467590
297.357513 858.968262 -641.860962
92.680786 771.815918 -610.011047
-101.914413 686.161499 -441.323730
179.682037 813.129333 -710.209961
-126.833298 682.598877 -485.471436
133.187637 805.493225 -523.344727
60.492294 777.260315 -489.249756
120.294304 792.074219 -552.586304
93.030746 783.820374 -444.232208
142.343872 675.396423 -731.067871
180.022110 847.056030 -389.643097
172.196564 813.747253 -514.230774
75.697372 766.109436 -448.322174
264.314392 878.853027 -405.511688
17.187069 746.853943 -410.759430
230.098572 854.135864 -531.471375
17.218052 731.512146 -599.366882
86.848778 737.127930 -736.299683
-52.951244 697.907715 -553.889038
127.556496 804.018982 -464.237305
249.396652 885.527283 -736.816956
302.276337 893.908203 -649.689819
143.832169 793.822327 -682.154541
112.511513 778.782227 -515.453552
-37.732609 699.360046 -470.813019
-44.734276 685.662292 -544.677979
-85.101936 699.096375 -407.721619
172.248108 835.414734 -459.542114
58.439083 747.532959 -591.630737
143.685883 749.169922 -734.684937
47.673340 736.512329 -722.305542
84.023972 778.266663 -527.987122
18.081474 734.124817 -607.189575
40.244370 761.484680 -500.839966
172.469543 836.623230 -415.890411
13.696218 720.522278 -578.354614
193.074005 842.505188 -464.934631
-119.130806 693.319092 -416.083954
106.936722 797.200256 -490.782654
59.009911 767.559082 -441.126038
-1.292956 713.358337 -671.379700
-58.795502 718.356750 -421.150940
215.638931 822.143799 -551.970154
34.053726 679.329468 -737.905457
-55.311951 705.830811 -500.189087
282.192169 893.961853 -396.220581
101.213860 777.752686 -699.880371
5.277847 715.060120 -583.388855
43.344704 739.837280 -552.212585
177.053650 807.073120 -642.836731
-148.713135 677.321472 -465.831970
115.200851 805.353699 -472.219940
-19.600658 712.888855 -732.043091
-95.303024 667.674805 -649.419617
-105.018227 667.740784 -542.704590
297.069427 879.012451 -552.714905
167.899200 786.956299 -726.656616
259.410095 841.901611 -552.725098
199.581772 813.716003 -718.577820
165.787369 762.374146 -728.780457
137.802216 790.594482 -678.939941
189.871078 832.043396 -426.256195
137.077988 823.408203 -392.787994
37.366776 729.845947 -590.664612
198.585403 830.997131 -475.310486
112.050484 779.936340 -510.797791
30.057917 721.758728 -612.643311
148.887970 816.426636 -445.250305
208.120956 855.287415 -387.171783
-147.612427 671.980469 -447.150085
262.267883 848.922180 -535.305359
174.670807 762.768433 -716.853699
194.035370 832.337097 -449.181854
85.815498 717.723389 -734.713928
-68.053185 680.302124 -602.555054
-142.463715 672.789001 -396.332367
-113.144485 648.041931 -616.111145
165.322601 828.292542 -438.350159
-1.912573 691.813171 -728.554382
-86.065742 690.671814 -575.053284
147.917480 786.875854 -663.125488
282.290009 855.345093 -418.378448
31.544800 731.661865 -717.243958
21.206083 732.910522 -690.859375
-136.581772 652.032837 -433.291290
21.875597 725.804199 -570.248108
-12.700120 753.722412 -420.890289
263.727905 836.839600 -666.601074
274.084595 872.908997 -454.382751
-114.682816 677.685852 -530.854980
-92.012680 651.783081 -656.050232
241.738113 862.044617 -467.905853
1.765742 738.024902 -432.041718
137.527222 774.367065 -612.162170
30.576000 729.206848 -596.839600
92.403999 686.067383 -727.367493
-109.020508 659.250000 -574.418518
-117.123291 659.542542 -524.043884
-151.817566 650.237793 -588.663879
-86.263710 665.619263 -546.159302
57.990421 745.292725 -579.575378
68.632431 771.146362 -426.370575
-56.286308 699.780640 -429.961426
30.979706 719.904846 -624.001709
66.420357 736.339050 -721.760254
61.742496 776.910950 -410.244873
192.190689 804.023621 -512.991638
-20.633924 732.589966 -510.260223
-141.012466 650.919861 -522.995605
-139.416534 641.792236 -597.113098
78.532494 788.956665 -396.623657
143.374023 819.175232 -396.686279
101.239235 756.018127 -655.478516
166.565887 724.556213 -738.581787
129.756516 793.043457 -594.559509
286.219086 885.184692 -476.355469
-135.492142 662.962830 -488.390594
161.770386 811.417480 -415.764954
141.172974 809.861084 -419.289734
-114.633652 665.210327 -415.315521
-66.754349 703.411743 -410.698151
-37.950768 727.804626 -401.281342
33.879402 738.658875 -421.809052
8.658876 744.235229 -522.806763
237.150421 847.301819 -503.743103
300.919891 878.020813 -563.282288
-15.482680 707.990845 -588.253174
279.089539 902.610291 -385.491547
217.481415 844.379150 -499.236023
118.115128 800.917969 -406.904419
244.294312 855.475952 -521.915039
-78.863419 681.412170 -581.331421
146.441513 776.960815 -712.418884
44.624519 699.785034 -737.862427
187.643875 843.011108 -723.324585
40.377670 738.850220 -440.104462
-87.928802 700.091614 -490.186279
-3.697150 712.207642 -749.653687
-140.867538 636.273438 -673.611694
141.661530 806.000793 -459.426941
243.994354 870.644653 -426.612061
6.063691 716.963745 -589.423462
290.011719 892.322388 -392.490143
213.222488 850.543335 -470.792023
196.511459 846.108459 -410.973572
176.237991 801.379333 -480.543671
-39.084545 687.601013 -608.987061
177.966461 825.431396 -512.302307
-78.994781 699.927124 -540.081421
0.154485 716.939758 -701.109253
250.313187 858.166748 -436.687683
-86.257248 676.749207 -649.266479
-99.365379 658.345032 -517.894165
205.154739 828.292725 -581.683167
-113.717674 654.311890 -477.100403
-119.654457 668.180237 -515.526733
-20.996773 706.822266 -508.891418
176.460571 817.188293 -589.099792
243.340897 867.057190 -405.727203
209.240005 847.898438 -477.142639
-74.747131 685.172363 -570.242004
-3.147746 701.345276 -591.501770
228.893036 833.846130 -512.709656
160.465958 813.315857 -539.257690
139.391022 729.033447 -734.432800
250.975357 871.173218 -442.349396
205.218842 820.432922 -585.480042
270.145691 833.358704 -578.460632
98.928406 780.099609 -723.689941
105.166321 773.158875 -532.372192
283.131134 861.458740 -498.005493
73.305923 664.414185 -729.513733
110.801888 761.078003 -653.309631
0.338066 742.637268 -516.179443
256.829010 863.746887 -495.006195
82.008728 768.795776 -580.638184
312.688751 884.557312 -449.689545
-76.410683 663.844482 -627.965271
-91.622711 688.394531 -533.404602
-61.019947 672.348633 -640.835815
-1.069848 732.658447 -563.373413
277.116547 845.847412 -641.346802
53.433826 705.611267 -733.684387
-107.154404 666.665771 -536.895203
48.396690 747.670044 -467.438538
189.770233 827.082703 -476.592072
96.014503 764.675659 -469.926910
171.701340 779.822083 -732.778137
113.115738 760.912659 -679.727112
-122.451683 689.552734 -444.189880
106.223473 796.606873 -506.541962
245.305206 872.589844 -393.247681
206.490158 813.876038 -613.842651
40.834946 762.221252 -403.112885
24.604418 742.729919 -591.875244
59.417171 749.693909 -624.713135
-53.838097 669.120361 -607.876831
248.142197 861.671631 -476.401825
-118.402023 657.563477 -467.574280
-11.965912 689.930298 -657.661011
184.079300 812.379028 -584.676697
120.341103 793.741394 -430.990479
57.236118 780.911011 -423.281708
151.759506 756.616455 -732.281616
-143.102066 655.904602 -451.416962
46.100109 761.948792 -411.005920
272.817169 870.804504 -720.107910
195.833008 814.841919 -745.069214
101.984612 692.387024 -733.094910
-42.657547 688.221619 -660.497253
203.838791 850.602905 -727.628845
36.412617 729.701355 -591.151733
130.731827 720.398804 -741.382263
112.591721 706.034546 -739.010925
229.676788 848.900391 -422.770355
-121.928558 672.074158 -452.493317
165.328690 717.275269 -741.610596
225.554337 837.411194 -496.574585
-14.592006 709.590515 -677.131897
220.522232 824.349426 -631.686523
134.561600 768.534180 -670.440430
8.593933 720.597717 -596.922852
-0.298065 720.397095 -610.211304
171.564835 827.153015 -497.050720
312.594788 881.208313 -621.982056
43.443077 756.831543 -476.014282
186.978180 810.797180 -457.486603
100.820755 768.340393 -593.260620
227.224869 841.830566 -428.223572
44.644402 747.042053 -508.648743
21.480688 748.358398 -425.815369
170.429184 831.432251 -420.703949
19.510744 752.199158 -401.792908
250.276932 866.550476 -449.479065
267.434235 851.604858 -585.491760
128.654892 744.104797 -736.096313
238.790741 851.418701 -381.173126
-80.204895 667.533081 -538.781067
240.718552 830.667542 -678.759155
288.327850 894.447998 -417.307556
287.998993 868.075317 -566.255920
-138.189804 661.382202 -472.704773
148.876190 792.308777 -694.557251
254.648773 854.105835 -553.679260
69.837509 751.011719 -655.997864
-19.178728 700.213074 -730.304138
200.921982 835.264465 -522.318359
-1.188007 708.589661 -644.848511
48.982952 697.600342 -734.108582
277.690643 891.190186 -722.330139
174.230911 801.057007 -476.544281
287.610901 883.010193 -420.696503
60.019485 751.887939 -612.728333
137.345245 782.375793 -572.710754
204.000870 852.410339 -433.699066
-78.917305 682.460083 -534.096191
239.724426 867.393250 -454.200256
-6.267190 729.190308 -579.064941
236.354340 853.967163 -439.295013
93.927628 738.834351 -711.361145
180.730042 809.277466 -591.097046
189.742386 847.069092 -430.737915
155.459091 819.189880 -445.697083
109.461983 760.538452 -634.017944
-16.450930 707.899780 -562.737549
73.684494 798.313416 -404.827576
121.828484 784.386414 -632.373474
-70.887497 689.779663 -553.784729
184.024506 824.791992 -544.449524
123.691727 790.255493 -505.411255
266.218567 859.395569 -561.911865
135.355942 807.891907 -454.392548
-107.842964 678.605652 -533.146484
23.902279 744.054871 -492.769592
-39.837238 720.250305 -413.527588
176.217468 847.501526 -740.073547
88.626923 798.368225 -395.447723
163.892776 803.749634 -577.301025
51.800735 731.642822 -723.052307
-49.525383 733.947144 -404.307495
247.777573 876.373596 -391.984833
231.155106 845.230469 -437.202301
1.164272 722.010620 -627.104187
-150.722321 667.750732 -444.794281
148.957611 811.416016 -493.000916
-131.376190 659.973450 -472.160797
163.244202 793.813904 -637.072510
-69.887283 707.439514 -494.486328
167.535126 827.572998 -724.722534
-108.591179 666.534363 -511.537781
155.345825 800.872131 -426.176727
-148.538315 655.132813 -648.064453
-54.684547 714.835999 -496.979218
139.643570 758.446411 -734.892090
104.970764 803.914612 -432.424835
107.755554 799.080322 -397.708679
-75.022606 677.960754 -574.734497
143.047104 787.539490 -630.491577
122.093620 779.648010 -625.074524
40.224907 770.593262 -462.382385
12.305453 738.169739 -720.984436
-96.708069 677.733643 -552.240601
-104.866287 717.155212 -392.755707
-18.417675 688.021729 -659.097229
14.696156 746.887512 -534.666321
269.227844 843.832336 -675.452209
90.402786 767.710083 -520.943481
53.693481 770.651917 -508.776520
117.046982 697.597778 -732.291138
44.982368 763.550476 -509.491577
220.959015 845.139282 -456.849915
119.913620 804.888184 -403.232208
-82.600334 668.412720 -600.011475
92.234146 747.704529 -555.592834
212.206696 821.385681 -579.565552
74.922394 748.293701 -657.286377
-113.433472 696.778198 -437.562714
-22.745190 690.023071 -644.241882
263.763550 820.848938 -624.255615
81.289421 775.462585 -458.290070
67.811562 748.008240 -489.746368
84.071030 772.237183 -423.389374
-115.207268 663.802979 -512.676025
-76.128426 683.581421 -527.908508
110.334679 786.561829 -487.677887
246.791626 860.230591 -419.905365
123.063744 790.151245 -569.164185
-19.895731 732.480469 -395.994141
100.338387 794.243652 -503.043121
276.117615 880.082275 -432.559753
117.910118 806.005920 -400.577972
301.555115 876.609497 -510.345032
82.878937 761.339722 -536.991760
44.060600 776.358887 -444.311646
11.485572 695.569031 -735.964050
198.486542 823.337097 -531.188904
105.732780 764.996399 -582.579468
93.747978 777.861145 -522.593994
128.149475 818.139954 -439.220337
105.860268 790.268616 -380.717407
215.056381 817.228210 -580.610657
261.314331 860.831604 -532.005432
105.753342 785.539307 -548.751831
216.209717 825.673889 -652.770752
-37.904221 711.523315 -714.485901
299.980530 893.057922 -443.599304
287.865387 890.411804 -405.325226
185.527298 810.025513 -666.658752
148.868027 821.950928 -458.258148
75.437027 762.757629 -504.188110
66.794258 790.026428 -394.140656
132.874954 818.391907 -436.172272
-33.709297 723.031555 -425.122986
81.677689 770.500000 -567.818176
3.423631 706.561401 -622.473389
172.330383 814.462891 -582.918274
-21.648012 713.089844 -629.674622
46.049870 746.673706 -550.739746
-4.802778 742.882690 -741.636963
150.908203 815.182190 -506.550812
95.090111 725.728699 -720.594971
121.068535 809.049866 -395.251678
-134.539703 651.737915 -670.711121
40.656204 764.927429 -460.163788
110.487709 780.363586 -411.647675
20.522493 711.962280 -642.913574
200.688797 845.075134 -392.301300
192.018387 744.006653 -736.258179
262.511810 855.709229 -594.850769
65.378738 733.617981 -643.483826
249.125641 857.891602 -521.962769
86.131416 778.068420 -478.029266
-36.771034 745.414917 -414.505371
-53.993217 690.798401 -467.129761
-62.880905 703.471985 -560.139099
100.822098 669.309570 -737.817932
194.013489 845.206848 -410.624420
183.860794 799.196472 -666.802917
100.296936 778.210754 -483.660400
201.741440 801.751587 -619.484314
105.277550 780.032227 -489.203461
262.368530 865.325806 -388.729645
-125.641380 710.092163 -407.249725
241.921570 843.040283 -600.346008
31.736929 750.177429 -485.307556
306.855927 892.264771 -389.816376
134.660461 813.826111 -474.475342
212.850586 822.491638 -637.128296
-63.014439 685.281250 -421.593018
173.641022 832.576904 -412.656097
-45.881004 730.121765 -423.865540
-12.054176 704.393066 -683.385925
235.704391 857.188293 -386.622131
-90.204552 642.479004 -600.129700
-63.395760 681.490112 -578.489990
-16.804899 688.227722 -651.200134
31.196121 752.103821 -415.251251
1.961957 711.956116 -543.511719
282.519043 866.341858 -472.668243
130.567627 775.936279 -700.404907
226.474777 859.544067 -477.385986
163.597916 808.166443 -537.557800
107.515877 776.116760 -593.114197
204.794495 850.626038 -438.380707
-1.436478 736.105347 -420.666351
295.435913 849.596191 -614.601379
149.699677 793.020447 -400.220398
157.981781 830.447998 -389.727417
234.113754 829.365601 -620.475708
139.184784 797.317322 -542.064331
28.917736 723.350586 -644.364746
150.016006 772.462280 -730.184509
64.710732 752.565002 -536.360901
109.726006 702.039185 -735.574097
235.844498 849.293884 -483.561005
18.361073 744.317932 -446.016785
130.613770 774.742676 -594.940430
-1.653675 730.997925 -465.667847
-61.373489 707.177002 -450.752502
-8.376852 719.717224 -594.732056
165.474594 835.456238 -402.113708
266.831818 862.804565 -708.601807
89.541763 783.230835 -441.046997
-29.387318 719.885071 -437.932007
268.261963 860.444580 -511.570190
158.020859 802.776672 -621.889709
153.428925 793.519592 -581.448608
21.853392 758.640198 -391.290955
141.758408 715.981628 -740.077209
293.042725 849.555298 -657.861389
104.916527 766.997803 -688.802673
8.998971 739.074158 -444.762024
178.769196 807.411011 -473.919281
62.846851 737.890076 -634.476929
-118.512466 689.168518 -473.364258
-43.609344 693.630188 -575.542664
301.573151 859.548462 -678.613770
171.641373 797.960693 -649.588989
261.430023 872.534973 -440.488403
237.445984 854.452637 -511.003967
-100.632454 685.403809 -524.943665
287.437653 876.232483 -483.260773
253.291519 853.345276 -514.249023
237.916534 829.385559 -640.213745
174.922653 800.975037 -673.033020
226.040955 846.296753 -429.817596
-9.151051 736.628723 -405.978088
215.103516 853.286255 -441.294769
-53.590382 698.198975 -508.631775
177.319687 824.673767 -486.989502
-47.545540 738.421753 -397.137299
-75.638885 695.675598 -547.543274
229.899567 842.489746 -472.641205
84.579353 736.794312 -731.313049
31.575726 712.677734 -727.292419
272.777954 860.879517 -584.762207
297.234253 889.778748 -423.541351
165.252975 684.728516 -724.955627
105.386467 796.706055 -488.632294
223.429306 866.446960 -390.688690
237.883850 851.423645 -546.835022
256.829865 867.240356 -395.168121
137.519165 813.553955 -412.194061
216.254074 835.732788 -512.066711
35.057362 765.572266 -476.459351
-102.407990 672.944519 -622.517395
288.284393 880.597595 -469.674255
284.378693 866.243347 -580.256714
186.033783 823.932983 -555.583252
161.655136 769.729858 -716.109436
-145.341934 662.198486 -543.970032
31.965620 724.493103 -528.006348
-133.821136 645.344238 -543.095276
275.965942 871.175049 -473.147614
16.441637 735.391785 -607.534485
30.705622 692.594543 -747.572205
-117.825630 676.160706 -431.210022
178.715652 817.728333 -725.654053
157.115479 810.713806 -573.616577
56.159534 745.210083 -574.570496
91.273315 730.121948 -722.757141
-128.712875 646.383484 -637.101685
168.781662 792.129822 -629.030518
228.058167 854.934875 -414.106995
133.451141 809.829712 -495.203766
110.200043 727.825439 -730.479431
-39.743740 730.840637 -444.314636
71.212532 753.886719 -583.556580
-87.009789 653.521118 -661.821716
179.243179 778.031494 -723.867737
98.490807 701.509094 -741.147400
109.290085 779.514526 -625.360718
82.834282 768.130798 -586.298584
-84.693153 694.869812 -450.647034
252.725830 849.612183 -428.419159
164.079346 804.361633 -696.190918
-107.999260 653.317322 -546.635559
169.756699 793.759033 -623.142700
9.440244 755.002747 -389.002869
112.193245 758.877014 -719.392761
36.323181 734.056641 -713.166138
-72.671890 691.303955 -500.114105
26.064867 734.408752 -425.843140
13.770056 706.650574 -720.298584
304.583191 875.528320 -550.143616
118.196709 793.393494 -442.503967
119.907288 725.538025 -737.747986
102.318054 753.840820 -655.942200
-1.475636 743.738647 -397.087067
-110.119072 642.207214 -653.369812
19.743723 759.452332 -463.420319
52.078625 739.358276 -716.169739
282.636047 849.115356 -453.487701
6.753619 721.730957 -446.758667
198.890656 835.496643 -525.945862
-48.155300 719.111328 -406.371613
10.589765 717.437683 -551.583435
96.246994 799.587219 -385.452423
66.093460 741.868286 -612.351624
185.023666 824.497925 -478.890442
279.000977 851.677307 -553.649170
-14.753177 721.612122 -728.919617
-13.189104 714.727112 -629.048584
266.179779 841.740845 -669.646484
167.583755 830.270386 -421.915161
-69.443039 697.870728 -475.049042
223.264114 822.562134 -665.163940
97.735252 763.253967 -596.412415
72.793854 704.647583 -740.962769
151.264832 754.363220 -724.374817
79.443413 732.066589 -688.436401
125.514183 809.174255 -414.061737
-40.929039 698.622498 -638.261475
247.437943 849.513794 -582.292236
211.213303 821.583801 -485.913696
140.348022 710.217834 -743.806824
146.817566 792.776367 -576.775574
-32.275135 703.659607 -462.640991
-27.194429 674.229797 -646.005615
103.749825 728.979492 -722.027283
57.348461 782.709351 -408.748413
104.765999 767.366272 -591.512817
-108.173904 659.248169 -468.834747
-154.685379 666.255371 -513.915344
87.150627 776.816223 -501.416443
265.513000 871.193054 -502.207062
207.921860 843.214172 -505.218506
121.880951 746.743469 -724.369263
-60.328701 679.196960 -695.047607
29.150288 762.420349 -393.501373
166.781677 819.120605 -464.596954
34.131111 739.514282 -604.591248
-68.424927 714.876892 -455.496704
47.163990 742.404175 -551.238159
-16.244757 727.071594 -554.066406
190.358063 837.819214 -727.105103
272.621948 867.280701 -459.017670
-122.563316 677.291931 -544.718262
114.275642 756.211060 -736.042725
175.600983 750.930176 -744.382507
255.049789 853.356262 -562.898193
-42.218132 680.402710 -580.431152
42.692162 736.865540 -707.844666
130.930588 755.664063 -724.790405
56.556740 754.702271 -506.292664
257.551697 848.925964 -634.444580
-10.924145 725.955383 -480.147614
134.029922 788.597900 -684.983337
34.235088 722.500000 -551.697754
267.328278 876.573608 -469.171478
221.299484 829.778076 -592.765991
38.451572 734.541687 -572.232666
-129.582108 649.436096 -651.387512
158.036667 834.649170 -391.214478
126.944969 685.149963 -732.130798
68.123047 745.538635 -446.987488
204.657318 827.461914 -704.138794
78.568748 729.781311 -655.076782
8.445893 761.684631 -403.410706
245.303986 858.060791 -514.773865
198.060074 827.194519 -463.815247
119.395073 813.139404 -408.617828
153.516235 708.647583 -727.512878
183.146881 825.375793 -505.541260
78.173103 756.370789 -608.104492
-126.044945 667.243774 -594.376648
211.174713 848.150635 -713.458374
221.556396 856.327637 -445.768036
87.030891 779.378723 -401.865265
-81.325012 700.464355 -711.654602
226.348221 813.890076 -666.896240
87.630760 763.760193 -602.793579
44.280205 730.767212 -731.230469
288.950562 868.427185 -571.470703
75.479233 773.189087 -475.286194
224.247330 821.076416 -642.219543
282.660400 878.540283 -422.168854
279.525085 865.820129 -554.694336
175.092026 726.721130 -729.847717
149.458023 790.967102 -573.035767
184.995102 731.547119 -730.543640
270.362305 861.573608 -573.748840
250.311340 834.676453 -627.577698
-28.495125 739.497864 -423.022522
291.472107 915.993958 -392.152893
172.874100 731.991760 -744.065796
-130.800690 662.241943 -596.821045
74.882523 674.222351 -733.990845
-102.679749 673.231628 -537.316956
82.028740 742.414978 -695.455872
10.694823 732.965942 -716.097595
109.968323 788.804565 -502.925354
222.160370 860.283752 -426.262115
188.883133 831.494080 -521.625916
204.326416 729.546692 -727.304810
-89.922562 671.544434 -563.638123
107.577141 768.364624 -610.854797
-126.972153 661.517395 -575.114990
38.535103 737.013367 -635.658508
189.828018 807.101868 -615.955994
158.784653 788.074097 -629.195190
177.545151 814.065857 -585.259949
133.546738 810.735413 -388.302887
217.958191 859.421204 -731.801270
-96.372253 664.364624 -642.072083
-65.069008 708.783264 -426.869049
140.379532 718.190552 -736.154114
-99.468651 716.144958 -406.907898
156.735626 820.478943 -468.429169
177.871597 788.785156 -707.737061
253.763153 838.519653 -662.559021
-105.745590 703.012573 -392.521881
-97.729675 680.338745 -466.285767
251.551178 853.247559 -602.553284
-97.444496 677.104919 -614.135864
234.283646 865.856873 -713.482666
245.958557 850.833435 -442.236572
213.089096 855.778809 -422.858215
97.859718 791.255554 -444.197906
-84.721329 710.950195 -454.399475
14.354193 741.395813 -475.908020
-145.762665 672.365112 -443.950195
149.867508 788.308716 -602.498413
79.272034 761.662354 -563.285400
-110.074242 705.421692 -422.167114
177.207611 726.691895 -739.702332
118.277130 799.460876 -506.650574
201.948486 821.657471 -646.238953
126.501984 780.528137 -464.585663
225.975632 819.421204 -699.600037
294.159760 890.519470 -475.334778
98.539711 784.228394 -455.849365
203.141266 841.043945 -469.230621
87.880959 782.847900 -462.496735
104.780518 798.222534 -430.327850
260.341095 836.203308 -587.123901
279.144012 876.901611 -428.689453
-89.342018 708.000610 -428.950439
176.786346 797.754089 -712.603149
204.516617 825.810608 -557.695313
217.022400 833.639343 -533.500854
39.999653 726.163940 -628.041077
-68.138405 712.328308 -494.633759
242.091385 843.218811 -430.774170
242.704529 847.015686 -608.162354
223.044785 830.254822 -548.047852
81.294365 775.167847 -491.436188
282.575256 854.441345 -635.775146
-0.653822 738.033691 -464.240509
191.924973 780.450317 -741.974792
39.761986 755.344727 -426.669678
-74.096001 687.148560 -420.611023
202.742081 824.444885 -495.979523
314.352478 894.734131 -482.364929
51.696419 737.934814 -613.072327
47.119305 700.884644 -729.095703
98.900581 745.104004 -664.092163
-8.327162 693.015686 -663.521118
274.911499 898.963989 -392.618317
116.402161 767.930054 -594.309082
286.872589 899.962769 -393.467651
61.801384 692.585571 -740.901428
231.380768 829.274597 -683.660950
169.341644 754.953918 -742.789795
124.372017 807.013306 -494.015656
147.368408 823.918152 -432.160583
255.824768 853.783691 -559.388245
64.055321 778.738831 -469.261597
237.967651 826.241455 -651.488770
260.053741 879.154419 -448.455719
207.950958 822.945740 -638.596375
-104.149597 683.747498 -549.319824
-95.046219 684.976807 -581.909119
175.409775 768.517761 -725.635986
220.565079 857.988770 -398.120209
274.140137 910.909851 -732.173889
113.542969 751.236206 -730.548889
78.575226 791.532837 -438.344666
66.481270 758.442566 -503.944885
224.425781 807.125000 -636.799133
40.196255 748.128601 -586.158081
212.601273 797.955566 -633.563538
194.166061 820.836365 -603.328796
173.522308 845.934753 -392.511322
-102.553497 704.066711 -419.770844
153.185394 821.900635 -488.836884
300.146667 902.041016 -455.189331
-135.555542 677.405579 -496.212433
54.638714 667.591492 -735.911499
263.191528 863.701477 -541.326355
63.479504 758.680725 -449.122070
-96.118690 684.782288 -472.130280
93.492577 775.081543 -518.581299
179.378250 775.192444 -735.323059
133.436111 811.551697 -414.724060
146.407791 802.839478 -529.254333
-19.939028 721.748230 -505.812653
195.413040 780.570801 -742.791138
221.826065 859.437866 -430.668976
150.675720 825.378906 -395.777527
-116.850822 702.240662 -411.878387
-47.669575 694.389587 -565.098816
187.203949 854.706116 -383.301544
-41.716679 716.222717 -528.440735
189.956848 841.117859 -480.472260
24.001650 711.359009 -729.811768
113.071190 769.924805 -616.894653
56.910015 741.326721 -605.488342
60.782963 751.348083 -530.787720
88.246315 778.201721 -460.192108
-27.829483 705.137207 -493.721649
220.363556 850.403809 -448.266968
-28.614046 709.168335 -399.878265
123.474426 670.317139 -736.562988
44.093723 708.000000 -723.319336
129.017258 800.532715 -416.379791
-129.147278 643.547791 -590.396118
248.929642 878.174866 -382.718353
155.893158 787.541260 -668.723389
-127.034073 656.731689 -526.935791
36.493595 768.570984 -392.149841
125.913879 697.666748 -728.008301
95.483955 803.524475 -427.542786
73.287369 734.417603 -719.312134
176.893677 810.548401 -547.945007
-29.597944 710.034485 -515.390686
29.616402 709.083374 -735.018982
315.782471 856.455505 -680.957031
115.452797 770.550171 -709.413025
93.229607 786.969055 -412.459869
48.159653 722.994202 -670.388367
11.125346 752.814575 -466.558960
63.185032 767.400391 -558.191162
-84.964569 655.105774 -630.365784
14.767797 740.236694 -495.669312
126.853722 768.520752 -531.381653
-47.394882 696.610779 -576.047058
162.738525 703.798462 -732.055237
127.114723 698.338318 -743.342957
-96.635368 673.955444 -530.902771
-25.089472 720.108582 -372.334351
132.685837 798.335815 -399.993622
180.133041 819.039856 -503.153107
-41.152378 699.811462 -536.438782
-68.307175 650.067444 -640.149109
141.163071 807.124207 -714.143372
-141.589218 672.790588 -535.570435
-30.482994 708.316101 -554.161377
-111.957382 683.320679 -505.285004
159.408173 795.472900 -583.201599
-33.701214 697.845520 -569.448669
234.312408 854.118103 -496.338348
47.940212 752.098938 -401.610382
57.864876 725.480591 -687.364502
192.763199 799.028015 -681.833862
62.442722 768.698486 -442.860291
198.727768 798.017334 -583.266174
125.894768 806.813110 -424.759918
96.367165 774.412781 -514.159424
118.440582 796.794800 -454.338043
288.224640 882.991699 -471.590973
116.171173 701.393982 -739.359741
227.962387 857.307129 -438.034210
-5.617390 739.360901 -479.402466
-130.875336 684.301575 -454.448059
-8.007582 716.047668 -563.781433
54.581707 769.531372 -433.931030
-5.243109 701.018921 -627.497559
70.833435 774.355713 -418.581055
256.497925 844.043945 -605.347839
247.388138 864.348755 -455.639923
54.170639 711.877380 -728.717957
107.970047 772.385315 -623.932434
157.868912 713.199097 -731.800171
-130.942154 652.204285 -543.935303
112.757935 747.390686 -688.142944
39.077503 752.932007 -494.468842
245.604630 843.154541 -609.824463
168.328674 825.879456 -443.335205
30.700626 737.188721 -568.030579
166.554932 830.980774 -452.644775
-77.675163 661.828613 -574.777283
144.188492 809.378784 -532.030334
2.241446 742.147522 -435.474365
136.608841 769.360840 -648.545959
-103.758575 681.387390 -435.306580
-126.708786 655.897278 -508.504669
121.966362 788.509583 -607.194458
47.151516 766.987915 -420.754852
-2.201802 699.165588 -669.027344
276.126465 859.889832 -541.463440
251.536713 841.277893 -623.246216
81.799477 758.232117 -593.528381
249.930145 853.182861 -492.321381
-101.490639 682.032104 -553.480713
234.788956 840.851257 -578.872559
-48.177414 675.626404 -590.145813
55.509995 764.208252 -437.109192
105.895035 775.822510 -565.533264
112.655014 704.508362 -736.052551
-128.387787 668.143005 -587.610413
-12.834774 742.903625 -456.951355
-2.719326 743.866089 -493.749451
240.138962 846.233459 -556.825745
258.388611 841.729370 -627.982117
239.401703 870.585938 -384.198608
68.614754 778.963318 -503.387085
116.762337 779.784058 -574.993652
41.075027 752.182007 -552.014893
242.107300 849.977234 -500.466248
-93.549637 693.662476 -408.780518
-115.207603 689.199036 -397.978424
276.112396 899.310791 -705.713379
98.308128 756.884766 -622.968628
32.791492 710.493530 -661.040588
104.929291 768.683105 -472.544495
143.806870 809.289001 -409.209595
211.732437 812.965698 -655.717041
37.876324 747.524414 -598.788208
-109.964424 656.294006 -613.205078
211.568130 839.504761 -462.420013
122.272194 764.533813 -663.141907
-23.857922 710.190430 -597.838135
198.667786 819.906677 -623.433350
37.954456 740.810852 -707.877686
213.147446 855.932922 -409.570557
12.891543 749.739807 -421.853851
191.242264 840.704163 -410.667511
233.810104 808.367676 -669.291199
50.840843 756.264404 -475.967560
152.421844 812.184326 -480.038879
89.533569 681.364807 -733.971802
212.208786 842.283936 -494.727325
287.104187 879.447144 -520.121094
77.972359 785.111755 -474.654846
-86.994995 653.132813 -668.379272
56.260441 694.897583 -741.751587
201.311157 823.902771 -584.515076
270.331207 876.106750 -451.229034
-136.267960 663.391785 -568.187805
268.256256 855.469666 -540.005859
-2.488840 720.899841 -547.535339
236.114212 859.014771 -517.656250
-54.938362 700.502502 -599.464905
-139.877823 674.790955 -491.523773
22.141602 714.655273 -629.327942
165.285660 802.438843 -445.584625
82.900093 744.840759 -610.873596
231.709747 834.179688 -656.566528
156.481186 815.759888 -520.139709
-92.258125 668.820862 -629.338440
24.483763 742.954224 -471.403076
68.975372 757.587708 -522.611267
146.978821 801.410095 -571.824890
16.664061 722.474121 -593.665894
-117.235603 671.758728 -577.496277
180.931305 807.714417 -576.731445
223.657028 862.886597 -400.674652
220.211060 832.655701 -567.428650
45.785732 744.499146 -714.373596
101.843414 771.202515 -558.395996
232.060272 835.314697 -592.247314
-23.113739 728.114624 -512.872131
-55.940571 699.421814 -492.404755
-42.174423 673.862122 -656.620422
173.437653 833.505005 -404.773651
262.493866 868.488342 -508.185577
-10.378368 714.778992 -614.793640
125.359215 811.357117 -453.231812
-85.464172 694.000549 -425.989410
-140.128159 650.529419 -485.410400
227.676224 859.593811 -456.775665
-98.706581 653.865479 -626.856018
80.652870 790.271606 -388.921997
-104.640373 687.019836 -502.288574
145.252167 767.507385 -715.351379
225.928024 839.805054 -480.469391
7.491768 738.912903 -461.997223
-110.759377 686.889038 -426.952789
98.006752 771.053040 -670.885864
56.871777 769.543091 -525.003540
-4.036470 746.671204 -386.434387
305.512878 865.381042 -536.332581
-60.786507 724.591370 -419.229706
-111.659836 689.567688 -396.218872
-93.989723 680.230835 -503.631470
296.756012 868.513733 -635.953979
-15.192948 723.107239 -511.180145
268.887329 870.693054 -443.284973
310.125763 882.145752 -567.950134
158.452087 799.817383 -611.174316
-128.838913 674.638733 -479.108521
178.959564 820.152222 -473.895691
66.090584 740.954529 -584.553406
201.996964 802.211365 -669.726685
213.676727 837.543091 -403.896729
46.869656 766.133606 -438.927368
-123.815887 668.931702 -473.183533
51.437843 752.387756 -612.145020
132.794830 795.466125 -517.655640
31.283943 706.512695 -671.582275
114.555099 790.094055 -428.808441
83.060143 786.669495 -432.151337
197.861923 817.397949 -599.192688
135.684082 803.473633 -492.637756
113.111626 781.653503 -530.113159
225.129211 841.913818 -495.148254
112.384117 737.263062 -733.675110
33.753826 758.111511 -436.149261
-43.216564 693.189148 -569.134705
-95.234154 695.937744 -400.655304
249.417511 866.712402 -480.627991
7.459787 726.011841 -605.780029
175.242935 825.138489 -432.548035
279.439301 873.636169 -517.775879
-91.251244 667.403809 -640.910828
-6.999215 709.685242 -728.560059
-82.726204 682.896729 -557.300598
0.076181 711.805054 -548.915833
164.210205 756.760132 -733.768311
103.382149 727.537781 -732.400452
91.708794 802.447021 -397.236115
290.556335 871.582947 -565.173523
33.886978 728.640503 -549.428528
96.319687 765.629639 -596.768250
122.821739 723.565063 -739.325806
-159.193359 653.984802 -543.169617
-2.683053 694.438538 -735.348755
-41.453419 718.202454 -419.959259
214.306122 798.381348 -638.431396
138.058273 802.709717 -495.605865
-157.185898 677.145325 -424.377228
-100.925056 704.752563 -413.251678
-98.816193 685.304260 -576.929749
-10.204931 733.885925 -442.530060
-113.960121 680.111267 -424.991486
-95.930176 667.352478 -495.984955
-20.896149 700.079895 -593.074219
157.494843 800.302307 -605.319580
-14.640431 729.396484 -417.001862
-69.307724 716.286804 -397.552765
105.187332 769.721252 -686.329956
-93.423180 672.188660 -595.742920
292.676361 869.200989 -545.811584
303.556671 882.712463 -400.590210
42.896797 718.632263 -723.684021
-106.498367 645.710022 -644.840759
250.600418 859.540344 -409.433929
0.536863 736.702515 -424.937103
73.194954 782.614075 -441.131897
278.506927 868.011719 -450.427612
88.105179 775.833618 -556.846924
194.695816 829.241394 -520.062927
195.767899 827.509277 -733.303467
-34.518726 700.851624 -668.365845
-112.308815 659.583435 -559.297668
258.874908 860.599121 -484.262115
111.615906 793.270020 -470.922607
106.591545 776.156494 -587.413940
158.124176 805.040894 -581.923706
195.852463 837.358948 -463.566650
-148.444092 664.731567 -700.078857
108.658974 785.993713 -553.877991
-38.152515 720.096924 -739.313354
36.575909 749.354065 -512.629883
114.393654 795.608459 -499.275330
62.592312 716.501892 -720.852234
104.829102 775.721191 -541.759216
115.375275 799.613098 -447.969513
221.721710 823.698792 -637.480408
159.051361 798.796997 -696.541626
166.689880 807.391785 -736.314270
282.101532 854.412292 -586.535522
133.206711 775.503357 -727.946045
-132.171631 659.043152 -701.024475
173.614609 791.032104 -743.716125
226.687790 810.591797 -589.931030
-6.368738 712.765442 -459.320923
50.606712 738.654358 -605.004333
264.472229 856.357666 -520.718018
213.222260 828.896057 -521.445679
122.204361 781.867676 -570.364441
199.513580 810.305420 -496.667389
-38.027431 713.013184 -477.385040
45.273968 706.863586 -734.372620
247.452667 872.050842 -450.872253
188.647552 814.982361 -684.712952
248.860321 868.098999 -439.105530
10.662631 719.759216 -649.343872
155.270355 813.206665 -540.683899
165.372910 822.978088 -454.806183
-36.294880 726.791199 -473.929413
105.171249 718.169495 -731.498169
146.274292 726.191833 -744.605469
291.193817 867.113037 -558.070740
109.222908 752.658020 -732.307739
81.583519 763.719788 -537.734558
29.099852 756.194397 -523.572815
282.958130 863.852600 -618.024475
179.021713 833.685425 -495.691742
187.495789 827.710083 -504.709564
246.294327 854.627747 -533.213867
82.979675 686.096558 -741.433777
87.094254 693.706726 -737.415894
26.159258 707.588928 -725.476379
173.246796 759.343079 -729.449463
87.043137 775.316284 -569.180786
-139.461365 665.082153 -544.376587
-51.755421 690.741943 -427.174530
24.827423 724.478088 -542.665894
310.023773 873.716675 -637.928040
-96.304245 648.356079 -662.428650
72.700165 719.319702 -736.354553
-60.749424 699.830994 -471.127991
-37.328472 717.326660 -522.139343
32.976707 747.564026 -570.153625
279.650055 843.030518 -664.385193
97.200951 759.637634 -721.682800
-117.376549 644.940613 -567.737793
-133.527191 646.827515 -525.397644
1.963384 710.114502 -600.757385
-99.148308 679.110229 -408.555908
231.498550 832.539368 -529.476624
65.694130 685.137207 -737.348022
209.115372 843.483582 -457.057251
269.481964 847.890198 -433.455902
-15.251319 724.721497 -474.755310
-20.856316 723.931763 -489.981598
144.866241 787.392517 -713.688904
-39.873543 699.387939 -460.590027
101.238319 781.498413 -555.650818
11.149834 702.520752 -631.828491
150.758789 794.229980 -705.538879
123.467545 810.801331 -466.713928
169.570679 801.224243 -660.902161
135.917297 762.911255 -729.780273
96.291306 734.579468 -726.589905
178.075333 788.929749 -735.358154
-155.275803 665.443359 -390.049957
-124.833061 649.655457 -577.089478
178.758041 819.476196 -519.677490
-101.566345 642.734619 -637.353088
234.425400 811.559204 -637.067993
139.137497 787.422974 -632.152039
42.210545 769.894958 -472.844055
75.041275 736.969666 -578.714966
98.636711 780.145935 -468.059998
164.010925 791.905762 -617.681396
-150.749435 660.784851 -443.292358
67.913948 771.734131 -416.133820
144.544693 803.756287 -518.477905
105.385880 769.521057 -575.644592
284.537842 863.533997 -623.236389
13.700473 719.086731 -697.155151
47.545361 755.302307 -485.957001
76.036446 772.216248 -538.814148
52.605038 740.343628 -642.002319
246.902023 834.757385 -451.730682
137.993469 781.802979 -578.473206
-13.810818 706.702820 -658.066895
166.254395 811.440979 -526.066589
-111.403259 670.489990 -504.849152
-45.095238 694.620056 -626.083862
56.779461 679.141663 -741.206604
178.276413 754.891479 -742.054565
312.270264 888.853821 -466.184967
182.160690 826.770874 -551.308655
155.161240 765.850891 -730.330017
206.636322 827.083008 -490.620056
-122.903137 659.485474 -526.873840
90.399307 798.579407 -422.530457
-131.096603 652.896484 -538.338623
180.120712 728.724976 -729.809570
-52.439293 714.993530 -421.625427
74.431816 788.283875 -442.744598
184.876343 797.247742 -726.145874
145.027359 799.415710 -519.877808
66.457558 767.669800 -394.223236
115.956955 797.846069 -432.181000
199.443085 838.672241 -495.944641
31.679602 758.294128 -402.226685
234.677734 843.990112 -553.106812
236.031662 861.151184 -410.941040
-91.312057 697.956482 -400.205475
282.289246 868.423279 -564.578857
138.351227 794.002808 -500.550385
-114.879501 671.432068 -487.056061
-151.385529 671.086304 -496.179321
296.526337 874.678528 -437.038574
172.297974 812.911499 -725.231445
-125.606560 645.443176 -533.835938
32.223671 750.415955 -391.028717
199.533447 780.481934 -735.454468
166.444992 836.278503 -421.758881
109.831024 792.536621 -459.893768
66.512901 768.798279 -475.176147
199.802872 852.224792 -723.481995
166.061874 799.394043 -424.439880
-67.225609 690.596436 -504.802185
-28.121254 734.991150 -410.197876
-94.296806 673.401733 -520.529602
123.699646 779.601624 -574.340454
-87.035522 696.162720 -516.406616
-111.791550 676.423218 -548.356384
-31.608824 686.890686 -631.376160
-58.864445 700.798157 -521.447205
172.700363 819.121460 -727.101624
162.307968 805.446289 -609.674805
153.007401 781.393433 -543.762451
25.489470 712.280273 -670.521912
197.538925 845.933472 -429.157562
218.105270 850.566467 -455.845734
-108.323708 651.339111 -610.499023
164.236893 812.220276 -479.818359
224.744095 818.737549 -486.164124
-17.660990 679.754944 -639.286621
-47.542030 726.925598 -465.406433
-20.551693 742.650940 -391.764465
70.964622 719.421082 -732.580505
-7.625018 716.154419 -634.111938
121.302574 785.062195 -580.255676
-74.251625 722.297058 -403.850952
75.026512 765.523132 -572.175354
47.044563 715.743103 -681.094177
149.826172 812.296753 -541.264709
115.261383 777.109009 -568.973816
146.132889 823.190063 -437.084198
116.575508 798.604736 -410.958252
81.834389 793.256714 -419.462769
60.075344 744.756287 -540.230530
179.428299 739.120972 -741.701050
172.200195 841.429199 -381.904663
48.928978 672.224915 -729.632446
58.263874 781.399658 -439.615875
178.324219 815.800598 -519.309753
44.392670 723.178406 -653.019592
237.192551 855.292542 -437.326965
-58.759911 681.879028 -587.967712
-5.801941 738.531006 -402.999146
232.171143 847.815430 -530.002014
164.245651 807.275635 -582.758972
141.149963 793.422607 -526.411255
264.583740 874.178955 -434.140564
211.816437 847.843994 -423.749329
-66.932968 691.748596 -506.557892
198.894409 845.635864 -404.962830
-67.173698 676.809998 -462.966522
-36.376537 716.751465 -449.961578
293.483398 886.828430 -398.824829
158.814087 805.033813 -705.335754
147.016617 797.227234 -527.216370
188.006256 800.728577 -622.539124
99.229736 748.353943 -728.971313
-115.294708 659.905762 -622.276794
-53.526047 698.511841 -502.549164
212.749008 848.195129 -478.425323
101.027512 736.632935 -728.965393
40.581448 753.624084 -456.604614
190.256149 838.168030 -502.432465
170.535385 788.848938 -716.672485
-114.351089 651.302307 -536.516602
-121.519707 667.867615 -589.739563
-88.054604 660.954224 -640.096497
-81.812935 669.512817 -538.942627
-55.989380 700.186157 -604.730652
143.125565 816.172302 -397.515015
48.951252 727.940735 -715.472717
263.367218 868.907471 -436.472015
246.177109 826.214417 -666.652710
66.716087 778.845154 -414.526062
68.420128 773.726379 -511.762573
271.754150 847.252625 -670.913940
116.501122 768.431702 -712.034973
-13.704980 726.063660 -419.343536
255.373825 881.429993 -404.570953
196.038696 822.561157 -713.678650
127.467964 801.314209 -454.461853
201.231354 817.459351 -655.139709
320.253265 882.166016 -615.704468
97.367447 797.222046 -468.744415
112.739922 792.111938 -491.486084
89.089745 786.490112 -501.446075
128.994949 808.502441 -443.833893
118.820587 719.832214 -739.556885
127.711212 787.055847 -545.332397
138.837723 806.975647 -438.710815
193.539200 806.189270 -632.885925
58.467030 768.943237 -421.700104
122.262085 784.974243 -592.075562
-48.882931 693.008484 -553.906067
133.628067 672.815735 -730.868896
70.252098 749.966675 -590.171082
-60.045788 698.737000 -594.188843
190.736130 833.745056 -411.041382
312.380615 880.220032 -605.150696
270.167664 852.320740 -603.558899
183.084183 845.704651 -411.187927
38.128220 663.934082 -726.229309
161.547913 805.745789 -614.062317
-2.160269 719.903320 -533.814087
-48.914482 686.210938 -618.852234
-135.507019 674.231018 -484.895996
239.093048 853.970764 -725.846680
68.424583 741.166382 -623.421082
22.338509 735.810913 -602.371887
218.249130 830.224487 -462.684784
-129.479736 644.614075 -490.108551
209.645035 854.699585 -386.273407
269.498810 828.115967 -710.907959
67.414833 766.861389 -544.181335
61.697063 752.929871 -700.256714
247.196640 828.187866 -617.182068
-76.214493 708.798584 -392.309570
13.637188 753.834473 -388.322510
51.197693 741.173828 -571.851624
141.977448 817.010742 -417.429016
258.616608 846.671448 -502.783997
233.760406 841.603149 -573.189941
62.874760 750.352417 -541.559448
-105.646820 655.331238 -670.310791
-82.166168 715.158447 -386.849701
176.381241 839.927063 -426.577423
237.201263 825.479370 -665.713989
279.682831 864.638306 -700.145264
106.362190 764.160645 -588.189514
269.720337 829.898315 -571.360474
277.611969 879.429077 -416.772644
57.652554 771.359375 -495.746765
280.281891 877.512451 -491.765930
-56.614315 681.407532 -532.726074
42.165806 745.790588 -622.292908
284.988922 860.603943 -624.990417
116.138496 774.231079 -643.761597
-134.554108 639.377502 -610.314087
100.189384 771.418762 -516.994751
-20.636780 700.265259 -688.998901
-27.259979 688.833191 -678.072693
20.278912 755.582458 -474.245972
67.005379 775.055298 -521.199463
-22.144024 731.937866 -401.454559
-2.128131 698.142029 -563.510681
233.178772 833.000183 -565.324890
-9.899105 716.643372 -527.947693
-85.403435 698.762085 -416.278595
282.835907 882.919617 -417.556213
-40.324635 713.928284 -454.831360
197.519470 826.524231 -509.403870
-19.757097 695.152344 -630.699219
-32.907669 722.832764 -515.004211
43.729073 730.730774 -724.209473
302.187256 862.604126 -631.094421
91.012802 796.707275 -459.402527
51.152866 735.847961 -601.881836
65.477547 761.746948 -711.514404
55.986801 721.783325 -693.618225
234.090088 867.370850 -382.569611
286.303802 854.264465 -484.454132
168.742722 794.313660 -617.229187
-73.159012 705.442078 -411.397064
211.615814 828.880127 -397.183441
117.653496 793.787537 -536.097656
-25.312630 713.325745 -607.195862
149.209518 823.884460 -448.056549
122.324623 801.486206 -514.578247
-49.733356 672.981689 -673.861694
151.168564 821.921265 -413.388031
198.326782 838.874084 -412.557068
294.675690 870.183777 -555.483032
296.293427 900.455627 -433.925598
120.236053 772.952393 -720.313965
235.027252 823.268311 -534.693176
296.346954 880.215515 -517.196045
-94.684319 650.185730 -649.925659
117.530273 798.345032 -415.788483
192.444489 804.383850 -591.202820
47.926105 689.290039 -732.808044
88.205025 769.821655 -519.669373
267.119080 866.411133 -423.872711
36.505100 742.747314 -544.823547
302.787994 860.359924 -622.858643
-31.442480 729.479248 -475.170654
-93.274887 695.449158 -479.854279
218.498032 851.933960 -743.060669
290.763580 880.706055 -505.220703
249.396378 856.575134 -580.598572
-69.336212 703.895508 -468.804901
126.006721 760.093323 -593.826294
101.006538 741.062439 -670.674194
216.899200 844.713745 -523.534668
197.771500 818.394653 -741.749451
168.584351 780.724792 -740.831421
93.788193 794.197327 -393.326538
203.485428 842.602051 -494.899567
