ply
format ascii 1.0
element vertex 1408
property float x
property float y
property float z
end_header
-622.470642 586.299500 209.639236
-525.603149 888.791016 220.776398
-426.351379 638.737122 438.475708
-516.017517 694.612366 315.335999
-347.367004 897.527649 463.739441
-412.287048 952.944031 368.372955
-410.500641 757.381592 426.933289
-531.883301 888.225891 236.219955
-354.844666 904.602356 453.976135
-603.954163 591.644714 264.784607
-560.132874 545.056213 279.907471
-358.711243 895.546265 454.043457
-361.341888 869.811096 451.140015
-337.802124 792.093994 490.226257
-439.608185 880.971313 357.559174
-417.290894 990.986877 395.415131
-460.851105 653.895569 407.281799
-464.189758 581.399963 412.221802
-516.581482 669.902344 305.421509
-517.304749 759.492493 290.586700
-340.317657 871.778625 475.453339
-441.425140 898.311340 354.535950
-502.146759 658.237854 344.527222
-514.721252 929.731812 253.939056
-538.261475 677.505737 276.445526
-560.899963 810.940308 254.643921
-394.949188 950.367065 391.676910
-409.637054 663.253418 411.248840
-541.258545 523.418518 362.017609
-586.887939 620.211975 244.750443
-360.274780 763.121582 493.398102
-413.113220 922.568848 380.871948
-351.378906 806.683289 481.298187
-518.590820 969.948914 307.059418
-489.778412 858.068176 298.934265
-528.244263 506.364197 345.257965
-394.691895 683.036743 435.688629
-563.524048 576.744934 286.987061
-328.061981 795.031738 493.773926
-454.707214 718.101685 382.517944
-543.746643 534.800903 343.884552
-449.599915 733.899048 381.673553
-374.050537 936.046997 400.407959
-508.743195 612.860107 368.796204
-391.716492 834.065857 432.287170
-570.894226 665.220276 226.810196
-523.807251 712.306946 286.053558
-507.215240 632.267273 342.829926
-510.858063 566.536621 354.640228
-339.827087 807.533691 497.173340
-539.967407 730.959595 292.006378
-505.494263 652.649963 359.978271
-537.467590 881.540466 217.363876
-349.601013 802.677795 483.851898
-327.860870 890.379028 486.465515
-327.198120 868.086731 490.553284
-391.812012 774.506348 452.905334
-460.590790 740.211243 383.059662
-531.963257 884.973450 219.492035
-444.048126 614.051392 415.400970
-569.324951 850.036987 219.790176
-556.692078 469.692017 311.235077
-539.295837 639.951050 284.515167
-453.556335 668.483582 371.812744
-437.183929 723.759338 418.936218
-362.247162 888.090027 450.213104
-645.335022 584.783325 209.066010
-495.610107 732.083130 325.236023
-552.754883 816.179321 251.819778
-562.428284 852.355347 187.848587
-578.560730 636.258179 235.220963
-613.493103 800.373596 188.772461
-495.194916 905.979675 294.257904
-447.000427 703.254150 396.140320
-459.851746 602.463867 407.563232
-514.188354 886.647095 251.906403
-457.695099 816.768555 359.498627
-547.609253 861.416504 197.071564
-578.227234 814.486328 155.317520
-387.361969 695.248291 465.047760
-464.091339 784.200806 351.131775
-621.104370 565.124023 251.263397
-621.411865 781.772888 185.575607
-443.271698 996.707397 352.061035
-359.879272 838.940857 474.069183
-482.494598 745.023438 338.552368
-579.416931 713.086182 225.966370
-554.660278 607.408203 307.171814
-517.922119 601.274902 318.780365
-550.182678 851.705078 219.528992
-511.779755 637.277222 356.690521
-571.444519 510.589447 302.155579
-486.329620 682.158813 349.874451
-604.403076 575.215454 239.713989
-501.392548 541.618652 364.451599
-521.641663 814.191345 265.366852
-566.511414 821.570068 192.262039
-492.152222 640.654968 361.780731
-500.860840 903.327209 272.615662
-515.781921 538.047974 392.659058
-374.134125 711.334290 482.550110
-532.615234 879.934998 203.516037
-327.009033 792.210571 506.199432
-528.959900 921.280884 289.234161
-519.358276 644.675598 312.473511
-511.296143 559.800781 388.611755
-438.761261 719.248169 409.492950
-571.078369 803.844421 163.153107
-348.633484 843.357727 466.413727
-524.177734 778.730103 292.627563
-372.847321 829.557556 435.405670
-453.403778 671.729797 395.392639
-514.399658 940.620667 255.072327
-488.716644 555.014771 385.676819
-489.517792 612.854675 381.084839
-494.225281 1003.501892 327.494507
-599.899353 706.517639 202.248444
-534.925964 815.993652 271.779236
-475.220673 982.897522 332.312439
-428.475159 671.080750 431.539124
-652.574280 747.108582 187.656189
-403.137085 900.476379 407.071320
-492.318329 556.042908 385.947357
-462.299530 640.072144 388.183014
-410.733185 786.758667 410.274963
-515.051941 739.268433 309.057770
-618.559875 706.740601 197.835251
-414.950836 736.208130 440.931824
-428.317322 628.474426 436.363068
-365.447388 736.447327 454.590027
-558.026367 863.456665 222.635773
-470.039154 829.478333 329.110504
-470.566223 767.106750 347.507721
-371.307983 773.523682 475.127563
-571.120667 797.571472 159.236725
-399.904419 714.986450 437.595306
-533.188293 862.412354 276.870789
-530.941772 703.658813 311.399475
-315.131073 809.967651 497.170135
-435.122131 675.371765 412.582428
-507.594452 883.782837 201.942810
-527.741333 841.540527 167.138519
-573.409546 588.663208 293.555450
-434.227631 901.768433 356.511719
-515.488525 963.892761 284.505890
-558.692139 858.114746 256.869934
-317.976410 800.707581 538.877319
-400.330780 984.972412 382.177307
-419.139465 927.811707 371.040344
-497.821106 709.931641 328.541809
-619.004211 536.949463 261.563019
-525.501282 780.878784 274.230927
-595.559814 690.813843 231.182968
-428.935822 765.978455 403.139679
-450.837524 793.517090 335.458649
-593.865295 558.917664 223.712250
-583.367493 533.140320 277.124115
-506.333466 822.239929 289.594879
-427.176941 762.004639 372.286560
-512.420227 939.319092 252.300293
-408.544800 915.461731 387.351196
-402.899872 756.570374 444.542297
-428.441162 882.530273 363.910095
-525.517639 788.812561 284.876404
-419.550018 896.723022 372.163422
-453.950775 729.817749 371.610413
-543.279480 583.088501 319.715485
-395.062500 918.890808 405.266083
-556.069885 836.161743 161.477982
-353.358002 892.022156 459.528198
-403.567749 723.675476 452.959869
-597.304321 515.956665 291.997650
-509.620483 921.891785 234.299530
-525.630981 620.742981 321.058929
-523.342651 902.257019 232.757156
-349.475769 923.666687 448.158936
-624.007446 593.236145 207.265213
-510.687256 892.780823 199.924103
-574.265015 538.479187 281.808807
-367.450989 933.916199 438.676880
-521.354187 882.969360 239.043640
-455.251404 861.734924 339.938477
-545.248047 499.327698 359.530273
-563.989380 487.419098 311.695709
-417.883209 767.047180 405.939117
-551.335022 748.256470 254.166046
-575.677185 630.596680 283.197205
-583.779236 734.432922 241.489227
-467.354218 710.584595 380.074493
-512.315063 568.918457 332.439545
-462.770355 686.662720 355.393768
-503.794556 853.931335 279.222961
-523.318298 890.665466 267.250946
-485.033752 705.449524 351.743225
-597.064270 770.847290 211.870285
-464.084778 718.699524 367.993805
-465.088654 876.065369 335.073059
-604.588318 732.979065 196.705673
-518.230103 875.385193 234.729446
-630.894897 700.435059 186.391876
-351.362518 826.153442 469.744080
-586.719727 769.384949 225.966278
-445.420868 871.974426 354.373047
-329.549774 773.372437 503.396149
-496.437531 598.134338 351.929504
-416.770447 644.933350 449.788910
-415.892395 765.485168 411.740326
-404.904541 771.233337 414.999847
-357.404999 833.016846 468.002808
-620.626953 663.669067 191.176178
-544.220886 553.885864 316.116211
-535.090942 662.809570 317.761749
-393.886230 900.038574 416.587524
-414.650574 731.666138 443.744141
-541.141479 758.732910 257.062317
-404.421448 923.867981 384.168549
-558.242188 866.232422 230.696548
-321.244446 811.828796 498.668579
-525.695190 596.227356 347.832214
-539.390503 871.833862 227.683807
-455.499237 801.116760 352.343323
-547.349670 863.326599 207.864639
-442.963165 908.167419 351.660919
-607.007629 629.393494 221.037415
-330.215698 789.847717 503.705200
-449.702789 680.573547 395.249939
-344.581238 753.519104 504.622650
-486.053589 824.973511 287.987640
-471.413300 578.899414 398.860291
-388.194916 680.110962 448.554230
-522.359619 573.800293 338.925049
-713.905518 684.433167 157.861710
-508.842987 793.318481 296.699066
-447.256226 615.066406 435.670288
-566.255249 708.017517 243.417770
-520.654358 892.372559 215.991211
-407.560181 793.023010 412.541718
-481.293976 791.506775 319.770966
-375.825226 763.053589 456.221405
-383.986053 928.004761 418.071960
-474.532074 885.963562 326.325195
-414.868744 835.616394 394.012421
-625.837891 659.379883 173.055771
-449.133575 842.061890 369.124725
-544.242676 540.726929 300.663422
-615.641235 721.505737 202.623932
-447.483521 877.166504 349.399353
-568.843445 501.373260 282.017365
-504.036224 884.061096 206.809540
-566.741699 825.267090 179.630280
-417.138519 944.469421 372.413910
-633.937622 665.572205 183.455719
-514.054932 629.395996 339.636719
-359.383606 771.471741 470.668884
-653.267273 769.863403 180.366058
-602.779297 610.830872 230.417252
-503.090668 618.094910 363.740173
-591.472534 673.085388 223.046448
-508.349518 574.505249 375.089508
-543.162842 631.166504 296.076935
-515.383362 511.501160 371.272003
-565.433533 698.094299 248.213120
-454.368225 645.011292 407.298553
-466.418457 987.661865 319.630890
-375.641113 902.430542 421.067719
-695.479553 656.461304 150.599991
-442.612671 859.837891 349.119293
-343.602631 768.377441 486.559387
-541.897217 673.625366 303.295349
-476.018372 613.620056 374.835724
-472.153442 881.528381 312.593872
-382.088135 789.169128 443.005585
-475.633759 635.382935 383.351440
-392.090057 798.312866 442.083801
-607.446838 620.650330 242.244873
-486.777649 587.057129 378.378021
-550.328125 516.719360 323.545532
-447.237549 721.572937 361.982513
-439.777222 797.907288 374.701874
-448.625519 602.130371 427.398621
-609.480774 811.502869 200.931519
-325.566559 858.189392 508.726166
-524.215942 798.725220 269.563873
-465.189117 838.333679 344.547150
-444.089355 866.800537 351.845581
-413.699341 733.947388 422.773285
-656.872070 645.057434 165.950958
-551.321655 485.820068 337.035889
-580.174438 465.056244 312.763458
-611.181885 571.086365 216.323227
-351.652466 808.199951 483.549286
-597.112244 799.739014 153.504257
-526.832581 603.307373 349.907715
-343.755585 851.727905 483.555817
-532.033325 801.478149 259.216034
-321.089325 765.689331 511.139618
-606.410400 716.866760 207.965973
-340.584442 822.305542 468.657562
-589.917297 611.015198 215.881393
-612.947632 593.686279 248.119110
-491.006592 717.944702 354.065247
-580.538391 492.807007 316.224701
-465.438812 611.060059 398.941467
-486.719452 694.483459 350.703461
-573.868469 576.860779 244.856094
-407.243774 656.351807 451.676697
-325.849884 838.578735 509.010101
-635.392639 603.876587 219.475571
-471.618683 897.955261 311.538452
-559.217651 734.864563 251.877838
-364.168243 864.658386 431.029022
-359.918549 735.824707 474.239075
-382.477753 709.295776 484.729492
-358.141296 749.696716 494.052979
-532.928345 848.229797 175.072861
-556.405151 656.060059 291.973602
-476.748840 680.554810 367.485504
-448.944763 854.535828 360.857574
-341.194885 769.591919 495.462128
-524.917053 880.994812 192.976440
-407.555359 728.386719 431.750702
-569.007996 592.535156 287.457947
-576.795288 577.796448 271.226868
-424.758179 912.714478 369.067596
-513.204468 811.495667 295.534180
-444.006287 680.781494 405.002533
-504.784180 618.059631 350.296844
-430.541992 869.535522 366.625610
-520.239075 770.347839 273.323456
-374.639313 750.524292 480.544098
-334.557434 800.588013 510.841797
-409.952911 814.352417 419.335419
-685.860657 726.906799 178.841019
-567.010681 762.001221 244.904251
-449.804779 701.636841 408.008972
-541.612244 838.566162 267.569244
-581.057617 705.893127 245.387222
-571.683411 644.092590 278.824371
-541.928040 734.968506 288.268585
-458.082733 918.619324 322.485779
-553.036499 648.827332 285.015656
-529.819458 946.882324 304.056122
-462.198120 812.004028 361.674103
-541.438965 544.423523 320.905670
-593.021729 587.026184 272.320709
-431.814484 958.908569 353.393829
-435.474182 683.299255 414.960266
-472.283020 676.767090 391.644897
-378.008606 761.408569 454.661682
-564.816101 650.942932 285.121765
-462.266876 882.884094 330.597260
-431.334839 704.511108 403.631500
-561.567322 502.694305 305.253265
-370.976349 789.729553 422.454865
-631.127563 749.714661 195.618744
-483.707642 916.121155 299.796753
-371.425049 711.642334 471.510162
-450.412781 880.553650 357.562073
-439.357178 926.754700 339.211273
-600.326538 512.604736 289.556030
-560.306580 635.188782 262.493622
-520.188538 888.987488 199.685059
-395.816772 922.714111 396.636505
-384.046539 701.919861 474.477173
-351.517731 835.263245 475.180603
-528.029358 941.047546 272.508392
-362.326324 890.994507 436.244171
-586.215698 559.016968 271.578003
-507.925110 753.380615 309.757751
-445.368378 722.683960 389.646027
-502.584045 993.854065 318.310242
-573.311157 681.537292 250.540482
-553.809753 721.371643 263.316650
-333.929749 836.245728 501.098053
-395.960083 733.688965 453.220917
-570.854675 560.598206 268.715363
-416.055267 709.896362 432.716492
-382.110504 748.094788 473.037201
-552.811707 721.665527 260.466553
-429.133209 758.503967 399.362549
-659.197083 613.286194 190.548431
-526.571106 685.756958 305.265808
-562.278748 826.444031 244.406113
-531.469604 887.371765 216.355423
-542.984192 830.549561 153.324051
-300.981018 855.464783 511.792908
-543.342773 845.814331 166.734528
-624.200134 626.146912 227.346802
-406.216949 858.750977 415.058014
-374.393463 931.857727 414.964722
-346.243256 868.373596 431.575226
-605.474854 805.053467 208.312119
-551.842590 492.370789 350.314514
-450.444824 907.565613 348.566925
-351.785431 740.986389 486.919861
-565.845642 750.337280 250.889297
-628.128784 576.478882 238.753876
-595.383179 681.947021 195.497498
-401.639221 773.133911 444.140900
-570.622131 824.593689 183.341782
-556.128906 640.306335 296.140778
-542.068848 552.253357 328.750671
-441.982147 618.137024 428.758820
-337.864868 858.202759 460.688660
-352.424255 868.445007 465.425690
-490.771515 777.146484 323.682159
-657.070862 690.166382 155.890366
-592.923523 687.991028 236.183655
-377.680969 766.118896 458.181458
-393.190216 686.013794 465.011139
-524.472778 576.748413 342.298737
-487.720154 618.677551 387.402222
-354.105804 824.379089 483.182800
-445.335327 922.650513 339.522522
-352.233673 832.699951 479.207092
-327.887146 786.665466 539.193481
-423.405212 642.919739 452.493164
-474.510345 892.262512 301.305511
-422.427765 722.675110 410.562012
-397.302124 963.674927 372.381470
-558.488037 509.453156 332.411072
-385.533447 930.688782 373.026245
-424.971802 711.069641 424.367432
-467.725830 740.630981 370.988617
-433.612213 770.542114 390.163696
-359.225372 878.122070 438.558319
-615.939575 607.327209 215.601807
-479.394043 702.740845 357.694122
-393.202057 756.172424 433.731232
-536.493652 813.775574 257.809052
-537.809937 531.747131 333.345978
-592.294617 667.806152 225.471375
-532.363098 857.817810 166.701416
-531.047302 557.906433 317.863983
-523.522888 702.666626 298.964355
-646.417664 620.438293 184.290009
-568.904297 678.095581 251.756470
-319.652893 801.479248 522.865662
-551.799438 727.652222 255.495789
-397.501740 767.077881 439.593414
-568.488037 571.264160 285.792938
-549.638672 801.313171 238.897232
-544.474121 786.076172 267.017212
-512.796814 908.596191 266.683044
-490.429810 599.643555 351.661926
-390.640076 858.973145 422.345886
-457.906616 591.485229 419.805817
-483.508423 761.621033 347.893860
-530.738647 530.218323 344.235107
-417.805786 838.448853 408.212952
-530.623413 773.536072 273.770935
-559.832642 559.475769 314.236725
-333.859802 881.752686 447.784424
-527.894409 737.374146 288.666077
-490.570465 633.340149 352.705750
-383.407776 957.127319 406.673889
-446.648041 864.362244 357.932220
-332.848938 869.840576 486.916504
-613.256348 553.571411 255.047501
-651.671082 585.458557 199.772644
-625.500427 578.774414 210.801178
-493.524506 919.252136 209.186020
-509.784058 735.833191 282.893799
-414.357330 750.226196 391.473389
-670.463806 614.831726 178.437515
-590.822693 725.577698 225.639160
-403.786804 695.868469 444.265656
-504.437134 716.224304 318.621796
-433.318634 895.463989 343.488678
-534.562744 819.117798 146.033646
-506.052521 545.501404 354.488098
-502.448364 587.579407 363.697540
-394.829865 807.734680 391.020569
-519.249756 833.746216 145.958328
-399.460846 958.374634 369.679321
-582.711609 601.308716 240.208176
-623.508057 562.613831 247.877426
-620.573364 787.318420 174.105728
-440.531708 626.624878 428.126465
-564.606445 573.210083 287.944763
-404.135864 780.489380 423.852905
-643.316528 778.928955 209.282013
-563.722473 555.069153 303.059052
-599.426208 546.216431 277.608948
-362.145233 700.202942 486.343231
-619.479614 659.954834 200.388977
-510.449249 869.702698 277.424072
-529.034973 924.309631 293.586670
-485.375092 831.939575 307.463348
-423.630798 675.901123 424.984985
-492.257935 580.912537 393.173218
-479.924377 644.312866 374.334717
-521.019470 770.847839 288.654816
-348.012451 805.390808 495.221985
-530.634705 814.109924 272.522858
-454.281189 881.711548 339.570007
-430.954468 815.916992 394.889160
-351.340240 886.431519 451.124908
-562.681396 681.449707 251.547882
-487.899658 920.011353 233.000732
-566.100952 653.051758 253.156586
-397.878021 811.543518 419.277069
-515.132751 682.657532 335.834229
-588.298096 481.449982 308.970581
-441.183594 728.965088 392.242218
-602.572693 692.133057 200.145523
-501.153442 879.727478 304.602722
-520.045959 662.695251 338.488098
-625.104370 793.991821 186.064438
-349.829132 856.994812 471.927887
-615.646301 662.592041 174.071304
-429.178894 772.912476 409.538605
-516.640320 542.302551 382.084686
-507.275085 737.302979 300.872284
-369.401550 812.192322 450.053711
-432.755280 797.316467 395.411194
-405.824280 928.153870 380.456604
-392.083099 883.612610 425.874237
-551.208801 815.807434 245.668640
-492.709839 902.862854 307.387695
-435.580109 863.526978 380.271118
-516.425598 886.571899 282.450531
-405.776611 834.675354 415.376465
-440.151062 628.605042 426.643188
-444.816498 648.141724 409.589294
-440.090118 594.815125 416.943054
-573.349915 758.978821 215.101212
-500.643219 622.772217 357.260620
-568.687195 507.462006 323.082153
-544.740234 695.856445 292.589844
-425.886902 893.019043 370.168030
-555.287781 499.659424 344.314545
-488.030640 748.848755 326.431183
-359.480438 788.532715 484.698639
-562.303162 765.417114 236.662430
-481.942566 866.870728 313.041748
-547.172119 686.593567 274.483734
-546.906128 727.267639 261.830383
-328.896576 831.772095 483.608948
-596.662842 603.674866 240.664581
-578.662170 813.585205 214.953964
-600.204163 498.114380 297.930511
-467.955750 628.239807 386.545532
-455.043732 859.017456 340.028931
-655.709839 598.165222 182.937103
-443.797729 641.463806 397.306488
-585.455750 758.422180 224.505936
-555.484802 647.494019 294.497131
-534.535889 873.876709 237.764328
-412.690369 666.253235 459.294586
-355.599426 732.533813 486.912750
-659.198669 747.818604 191.381760
-489.236511 759.065613 347.997498
-588.205750 602.942810 250.323929
-602.307495 798.565125 175.525726
-319.977692 828.096924 488.870026
-509.867767 913.850952 220.621597
-393.725952 928.562378 388.624359
-509.069977 893.590515 226.775238
-617.242493 596.936707 216.983551
-395.454803 715.375183 472.614105
-430.231689 815.278870 353.949127
-425.796448 911.091980 338.699585
-562.492065 840.097229 163.709595
-420.246185 962.819763 347.573792
-547.366760 567.666809 308.912476
-517.640076 643.554138 331.173523
-387.738586 758.302063 420.518768
-429.152008 720.719238 419.806030
-534.716675 550.808228 344.241333
-462.002686 851.110168 320.641998
-494.221558 733.462952 324.324280
-518.123352 697.725098 324.813843
-383.353363 686.482605 480.376251
-527.639465 712.711670 267.997498
-461.283691 618.219360 395.157135
-608.351257 576.070862 263.868011
-585.784180 488.436890 308.223358
-537.386414 745.783936 289.604156
-390.321106 848.834229 435.864105
-523.151978 758.331482 300.699127
-451.848969 797.891602 333.265930
-463.372314 673.417053 369.801758
-546.395386 745.912476 263.581116
-436.285553 650.355774 396.034027
-615.463074 782.793945 174.610916
-511.424927 584.339661 353.600189
-470.347443 712.165344 381.049652
-517.996521 553.759766 372.098328
-454.595642 844.091187 342.836853
-373.162781 922.138672 404.515869
-506.385101 726.602661 330.458374
-368.578094 733.568115 470.490906
-566.156006 454.156311 342.495697
-400.040161 906.440125 407.729462
-482.131042 583.590515 347.253021
-431.957733 714.483337 425.685608
-557.555298 751.469910 234.236465
-450.689056 867.844116 335.258972
-521.520752 863.772583 272.624664
-696.173462 702.937378 162.971695
-398.336456 784.945679 445.866821
-526.862122 878.310120 178.224625
-607.213501 596.471069 257.988098
-554.438965 704.618896 258.822479
-529.306274 496.571045 353.986481
-517.283203 937.442444 292.813049
-573.729431 797.146057 225.336960
-316.318817 748.426331 513.786926
-419.677399 748.950012 412.126953
-459.790344 651.137207 414.207214
-472.885895 614.265991 357.187439
-543.420654 484.467407 341.849487
-453.883118 725.613464 381.104980
-451.838287 829.849426 362.032745
-627.401306 703.903992 189.043030
-397.715790 756.143066 428.405212
-455.779236 691.962158 391.935394
-548.245911 781.258362 263.187836
-402.555664 790.234192 393.088989
-597.177185 810.223267 203.497375
-592.277771 816.729614 211.325195
-386.810883 862.002686 414.896423
-600.084656 675.725525 230.533478
-547.456177 465.410248 329.267273
-540.982361 558.429077 341.944550
-581.374695 819.569214 192.167496
-410.291992 907.857483 368.071289
-568.427795 650.908630 264.292480
-608.937439 798.134949 158.234268
-483.794189 894.221069 193.374939
-523.323242 890.109985 243.055222
-388.929474 842.441223 433.262787
-496.080688 936.884949 301.407349
-395.053925 704.447266 449.043854
-547.556396 881.488403 249.009506
-355.587189 742.337097 480.865662
-569.385010 836.281128 245.395859
-542.410461 869.199158 247.444016
-569.178406 586.162476 280.352600
-477.430054 765.641663 353.369202
-443.231415 632.126587 378.673981
-505.459381 769.379700 319.171356
-548.061829 534.428650 338.488617
-407.013550 991.385620 362.512756
-542.203369 705.682617 274.514832
-497.461029 623.964478 352.535034
-503.012115 644.777100 357.298706
-453.585846 746.079407 376.310852
-455.985016 827.434570 337.953888
-405.406036 872.834473 405.638428
-333.002777 809.070923 497.559998
-346.704376 740.805054 504.651886
-464.523499 714.619934 363.610291
-522.714417 806.268799 267.394714
-493.085815 756.233582 344.365662
-434.541748 781.350159 400.860748
-489.294739 917.557129 298.649048
-415.070068 642.208984 407.938629
-546.092407 761.956604 278.613068
-612.002075 547.965271 253.609283
-395.233795 803.917725 439.606537
-547.775085 888.799744 231.964584
-335.472260 789.872864 510.764618
-426.453186 905.076965 357.429596
-559.686279 858.003357 234.821838
-597.292175 690.924316 208.629089
-395.307098 871.627014 413.511353
-512.919312 941.458984 262.242371
-378.335297 804.716003 417.962006
-357.423767 812.090637 473.238983
-412.097961 862.956909 394.914459
-495.795074 758.786316 309.714966
-550.626099 854.860352 204.690750
-386.022369 911.617859 398.192017
-414.932587 735.448853 386.571655
-460.959808 824.770447 342.734100
-369.427246 755.530884 484.764160
-541.390381 798.629517 252.886688
-428.847839 929.725708 336.548584
-495.813782 628.713867 369.298187
-402.509552 671.837097 470.115540
-604.213989 600.403687 243.563553
-472.557220 829.242004 302.048431
-327.035126 782.633911 503.231781
-310.646973 808.146790 502.925720
-525.233337 591.748047 303.416077
-403.007874 746.555176 437.869690
-490.877106 713.861877 359.575012
-429.739716 747.970337 407.535278
-415.962006 971.890137 362.582733
-486.312683 869.089417 311.745392
-364.402313 738.686951 476.354156
-553.876465 874.596313 245.125214
-463.937225 887.213440 326.857544
-498.630493 855.123840 302.772583
-601.279297 636.503235 224.608871
-403.757813 883.239075 407.178314
-343.946625 904.850708 440.628387
-370.441986 821.097961 447.406342
-442.652679 737.760803 406.564972
-471.473480 602.489624 384.216583
-607.924255 589.307373 259.133118
-495.306641 584.504639 324.951324
-349.874725 821.392029 490.173126
-449.725189 866.784729 328.486145
-556.307373 596.766785 291.114349
-459.821869 1001.240417 337.667267
-562.833618 786.527344 139.015289
-322.489349 819.057312 495.046051
-603.160278 541.177612 257.017303
-568.397644 549.664734 315.640472
-513.879639 861.784058 167.084274
-404.498505 984.508789 375.597687
-307.814575 860.609741 503.883942
-584.925232 672.090332 232.051331
-590.256409 797.055237 165.354218
-360.896027 815.934387 449.303589
-449.261169 941.988281 339.930450
-587.993286 820.173889 181.703979
-496.503510 753.189392 319.073059
-507.284088 926.382751 242.770493
-367.111816 891.285889 430.596344
-395.726349 928.369873 371.211914
-478.251190 707.090454 355.746033
-542.972046 876.504578 220.651840
-501.475708 729.500427 316.508636
-451.799591 903.789368 346.257874
-556.308594 642.470398 277.300049
-516.185669 883.959167 190.045364
-406.890594 931.589600 380.183533
-575.304993 523.591736 311.772156
-396.439026 678.802856 454.878052
-477.060272 849.266663 313.546814
-390.159027 684.364624 462.015015
-557.764038 487.781525 319.713867
-470.787445 857.629089 320.742798
-505.920410 763.419739 327.006927
-347.436829 756.606018 507.473846
-448.124756 890.844177 336.599731
-595.043640 545.138733 260.411499
-362.148346 860.260681 434.291656
-580.605347 641.128662 268.683075
-442.227844 811.986694 379.612793
-420.631165 857.823242 386.770569
-511.922821 918.314453 272.757996
-548.328674 809.687622 253.908493
-434.687653 761.590454 407.735199
-525.901794 887.472595 241.491638
-507.286407 733.538269 319.613342
-404.335175 678.488892 445.486298
-421.440826 739.322510 419.582855
-347.078552 758.322266 515.013855
-589.972290 789.576477 219.685623
-592.231079 814.577576 177.788422
-514.229004 583.835327 347.249390
-569.837280 816.176025 222.406433
-568.795410 700.162048 269.000885
-586.438538 708.690613 217.834442
-530.201111 944.956238 281.075134
-442.524475 848.271057 354.747772
-570.593323 476.304779 306.341400
-528.489014 700.017700 299.638092
-471.144379 607.907043 389.985260
-329.006622 833.897278 511.673706
-359.158875 811.992615 452.601837
-465.819214 894.932983 318.854797
-551.271667 804.212891 254.745087
-394.548462 952.872375 376.438538
-510.200500 933.471313 258.711517
-418.320953 898.027649 391.842621
-523.834534 807.722900 292.678253
-489.609100 935.398193 290.984589
-349.402161 880.872498 455.290588
-560.912964 560.729065 317.075562
-453.063446 632.675171 403.841492
-560.060059 710.824646 257.722443
-393.640564 679.992432 426.075470
-502.441315 704.961426 348.772003
-603.777832 787.975586 189.611313
-512.631042 575.980347 350.369385
-438.235596 882.496521 349.788513
-570.086670 585.202698 277.812897
-431.864044 851.814026 343.213989
-482.158386 742.752319 313.274750
-426.771820 755.387512 407.535736
-316.971466 814.789246 522.956421
-479.161926 686.784241 377.779999
-401.280365 709.355042 437.690674
-501.976044 589.225403 354.939606
-560.771912 615.425598 299.032166
-627.127808 564.626526 213.633636
-448.034973 933.412903 329.640961
-564.688049 740.144592 233.846985
-502.878235 614.420593 353.639923
-495.509613 654.838806 353.487335
-378.936066 770.827087 427.246002
-464.273682 641.263794 412.877594
-394.050568 669.026978 446.752441
-610.996033 791.511780 172.790176
-492.383209 852.478210 290.869293
-545.667847 867.273682 211.338333
-512.463257 806.834290 299.325287
-508.486450 624.962219 338.705536
-536.546204 574.381165 320.343964
-539.885193 883.000305 218.749573
-496.693298 909.186951 239.420319
-336.059998 796.243835 510.571198
-398.698212 734.488525 439.021851
-402.647522 712.320801 457.163696
-542.729309 869.491211 251.437073
-495.333191 683.994690 316.611023
-541.111267 688.628601 280.509552
-583.204529 496.636902 312.784180
-490.797638 778.576416 329.335449
-519.230347 569.606628 364.089172
-419.681854 864.793884 393.539459
-359.446320 905.152100 425.277405
-626.625305 570.354736 232.277939
-628.341492 569.919128 218.520309
-521.682983 645.578796 338.001129
-443.996399 939.748291 330.330231
-488.383636 785.074524 318.237640
-515.229370 646.849243 326.091461
-648.307373 643.554626 166.985001
-414.489990 701.171753 424.379364
-374.263489 712.889038 482.378296
-364.912872 734.213135 476.254547
-539.384766 543.914612 310.791260
-443.109772 937.948486 347.000000
-309.802673 802.746643 548.470703
-539.769958 664.202515 314.403992
-460.494598 962.559937 339.051636
-445.282593 846.303650 357.251678
-375.174255 827.919250 454.875122
-371.697021 720.088013 442.946136
-431.752930 899.770752 375.483582
-659.851196 768.004089 181.573822
-560.002563 822.833313 206.500504
-338.614014 800.810974 499.360840
-465.240753 679.873108 399.947296
-664.484009 634.558838 171.191513
-459.506744 645.443481 412.020905
-651.217407 757.745422 189.926590
-339.584198 815.160217 485.549927
-457.520020 903.003845 338.683990
-396.450775 965.534058 379.807922
-532.462585 859.051453 225.119659
-433.950409 646.353271 421.852814
-573.355896 792.426697 238.904984
-375.015320 878.133972 440.711426
-546.761108 597.124634 301.796204
-375.381653 822.647949 415.964996
-570.616455 834.845337 243.256119
-584.131104 554.511108 297.358154
-461.021606 601.622437 401.124237
-566.271912 809.652832 227.651306
-504.676636 565.621765 357.649994
-497.464050 628.573547 355.152283
-526.641541 702.277649 288.833496
-358.870026 780.612549 485.001434
-470.128113 813.156006 336.670685
-553.773987 697.706421 270.497864
-524.977173 500.192993 369.299866
-477.758392 902.034790 302.643738
-573.424683 608.988586 292.706757
-424.611115 640.381287 440.089020
-592.344543 651.286865 230.734451
-498.534943 886.691711 304.730927
-542.505737 637.755432 316.410248
-405.408051 946.135010 348.470612
-361.128845 812.669861 461.866455
-572.414612 555.843262 301.224365
-532.814697 946.231079 278.719055
-417.976807 963.636047 358.305939
-471.378571 911.502380 306.175293
-505.745056 950.195801 274.397644
-513.102966 949.178772 291.524567
-511.848816 931.005188 290.996826
-479.463470 958.845398 318.839813
-591.853455 684.387207 220.264236
-551.202332 843.660889 174.303299
-532.414978 882.703369 251.282867
-607.132324 769.167603 173.890839
-378.950348 742.127014 465.368683
-458.164520 808.928223 350.820831
-399.085388 666.754944 457.341064
-491.824738 797.643433 316.766357
-469.833435 656.529968 375.146027
-519.049683 940.428284 274.598846
-335.488434 844.288269 488.196625
-545.009949 826.007019 257.550415
-527.462891 656.044800 327.272949
-585.846497 560.192566 290.194946
-523.631592 733.787354 289.211029
-363.152832 766.652771 468.850098
-364.770172 759.223938 486.681549
-477.537079 887.378540 323.170715
-507.074646 621.019104 312.826355
-460.981079 748.572327 365.706635
-518.027771 842.865601 161.241501
-529.854431 837.930176 159.811905
-341.902344 847.379272 486.395905
-544.795837 632.077576 293.540039
-481.480225 854.708923 318.891052
-462.237335 888.789917 313.138153
-482.167938 848.897461 310.557709
-527.726013 533.626221 365.952332
-453.399078 731.112122 377.587250
-605.092407 605.630371 212.915527
-385.321014 934.950317 405.479218
-360.601379 782.143433 468.374573
-654.677612 588.246826 189.206924
-616.195740 710.799744 201.273071
-553.482117 852.415100 199.299347
-355.745300 883.664429 439.566925
-529.017334 591.402832 324.801788
-508.124786 592.623901 332.594208
-453.887665 769.236084 367.886536
-567.209351 559.710938 306.101501
-594.840149 803.560547 195.256363
-444.466156 1004.846008 366.252350
-543.189819 750.810242 262.953369
-632.056824 586.331787 232.213760
-613.787292 682.723083 221.815338
-543.175293 872.730896 228.455124
-569.670410 553.449646 287.964569
-414.046173 945.520081 377.293335
-504.909027 853.331726 161.163086
-427.022949 921.331665 356.143555
-577.525513 539.538818 287.238647
-429.957306 780.700562 406.655029
-592.240417 523.826721 282.272827
-349.670624 737.211609 502.993958
-408.817566 914.151550 348.755707
-457.654663 758.077637 366.401611
-575.451477 838.200073 247.494293
-490.751068 679.034302 345.476868
-468.666473 640.158630 389.158325
-446.735168 652.993408 423.223938
-481.593353 997.949097 327.927612
-500.499481 689.716125 352.118988
-474.817932 588.785889 384.063873
-494.058746 726.542786 337.141083
-454.745758 706.200500 349.592316
-615.905579 787.200684 209.050690
-392.148438 693.184021 457.181488
-560.859802 828.725281 187.359360
-431.738251 753.595764 408.473633
-575.394531 548.537292 295.825439
-368.459259 905.046997 430.971649
-669.585938 593.504517 194.300308
-646.039551 604.553101 204.685455
-567.563904 775.573730 248.067596
-476.404480 861.515564 321.457581
-333.567566 779.551880 520.220459
-589.818176 561.765625 276.495087
-498.591187 612.004578 361.736267
-418.590729 742.440552 422.197144
-549.227905 639.075867 286.397644
-464.922974 679.401367 383.744446
-495.406128 940.050110 253.770859
-436.867859 662.198853 431.084503
-427.883026 693.151794 435.831299
-376.679108 886.124146 426.866241
-439.966217 754.001526 386.813812
-313.490540 813.291992 528.143005
-459.997894 872.667175 340.815308
-405.304199 803.231873 412.544403
-464.058075 758.368713 370.570007
-527.661133 894.054871 269.404968
-508.080536 531.325378 361.336945
-522.947693 747.664856 308.019897
-357.144470 737.508240 495.960419
-530.907104 722.880371 301.567474
-591.803101 554.045898 261.803589
-348.430817 749.424561 512.125793
-524.155212 578.547363 337.636353
-372.320343 838.752014 455.658203
-541.220032 606.193787 323.101196
-441.593353 735.487366 397.002136
-419.911865 918.586548 370.169403
-316.545380 801.549072 510.962952
-400.709534 677.171204 454.841217
-617.257568 574.546326 244.259308
-516.731262 808.258972 296.465363
-404.209473 955.846558 377.875549
-449.672211 622.536499 429.724976
-508.196716 903.226746 240.419754
-594.685852 703.272095 207.418259
-572.234558 462.858734 314.390442
-353.855743 913.561951 442.623596
-386.822571 911.989624 419.544434
-409.444214 870.600769 397.872253
-450.690308 655.078674 407.325043
-486.404755 593.980042 388.608002
-535.299133 713.091064 280.070709
-543.335327 713.400269 278.692413
-485.469940 922.944336 220.558731
-588.362610 830.014404 226.563248
-628.735168 644.590149 214.052933
-608.779297 640.288696 214.105026
-497.883148 626.278564 359.165955
-506.120789 970.851807 316.024872
-557.523682 587.214844 317.642609
-589.026550 624.205872 225.077087
-356.927917 742.966980 479.726227
-512.904663 815.033813 277.887787
-589.633240 620.448792 269.257538
-479.490448 810.014099 343.571594
-588.026184 816.322815 235.470840
-385.913635 752.023621 448.238251
-381.863403 822.511169 444.629211
-645.126526 777.497070 178.196594
-419.499786 895.226624 354.563934
-434.688660 616.902649 410.885284
-481.160492 817.424927 330.848694
-448.683197 641.630432 403.499634
-442.838135 639.869263 418.270966
-518.474243 561.917603 348.160400
-435.069275 774.575378 387.063873
-398.379974 873.385254 408.254303
-545.673950 531.386353 336.880676
-509.176697 648.677917 319.250000
-516.974487 565.779907 318.145294
-565.042847 598.077332 300.391449
-390.888794 936.632996 395.168579
-440.466858 817.885132 369.084259
-478.742218 615.015015 405.434113
-632.714783 600.284424 221.610626
-388.130371 774.740906 432.935608
-378.933167 917.006470 403.291260
-562.044678 639.247009 258.861694
-604.574707 662.571472 210.472336
-592.787170 740.504944 229.629959
-517.019226 724.525574 306.122803
-418.039307 973.106262 355.826691
-404.712311 663.237183 461.655151
-433.025391 859.649719 360.937439
-635.348145 645.663574 195.913055
-473.205353 744.693970 352.366333
-357.400940 774.939880 473.126862
-368.657715 702.993164 463.157104
-570.208130 742.890869 223.371170
-364.582062 877.994446 405.437958
-539.122131 635.466553 324.693512
-321.039612 860.816956 487.408051
-569.789795 484.846649 346.039154
-368.175232 853.762268 440.503204
-504.207886 880.788940 204.972733
-449.198456 794.029541 381.432617
-385.805298 696.434998 478.677673
-588.264526 598.031067 280.751678
-545.127319 844.315491 187.149200
-382.961639 966.768127 372.423981
-597.226257 602.571594 236.693466
-510.154633 676.907227 330.676697
-472.175934 721.257263 364.914063
-433.811096 810.650818 397.349091
-513.771179 664.787903 300.283508
-515.167358 950.021729 271.563629
-439.010834 916.895325 349.680389
-621.406433 590.274170 240.634079
-553.507080 764.072205 261.738098
-458.443054 800.122681 353.201080
-469.811462 681.500427 367.482819
-664.654724 665.651001 168.874115
-505.946747 849.130066 276.835693
-435.487152 731.260925 399.012604
-481.302368 564.256348 413.487305
-593.166931 589.935791 248.314957
-586.407837 743.229553 219.715027
-390.393127 874.707520 420.028778
-392.002686 853.676758 402.845306
-396.325745 710.224426 471.997192
-546.972656 703.893616 276.908081
-342.832855 818.586548 490.183685
-599.944397 796.240845 181.930405
-403.475677 685.501465 463.444183
-544.840210 486.817139 342.352386
-602.296997 656.169617 244.712402
-519.807678 670.408386 331.329163
-491.498749 840.175781 296.780121
-565.497803 809.311584 170.165039
-523.084900 699.195496 305.386780
-413.085693 758.071350 382.360138
-467.041687 695.616455 384.602631
-359.391876 863.420410 466.226776
-587.519104 814.634766 222.357605
-544.990234 863.403870 238.194870
-496.283112 950.111938 278.090118
-435.820862 644.620605 417.284363
-554.395447 680.427246 255.698456
-558.670715 537.002258 302.136963
-520.307983 644.876770 343.961029
-307.732758 813.368774 531.379395
-501.875977 943.772156 264.483185
-524.149170 675.312561 299.046234
-500.549957 735.064331 311.395905
-551.301758 512.422485 295.046692
-564.216309 822.666565 219.773529
-416.839050 650.488281 405.087219
-587.780823 524.224670 287.742340
-366.040009 848.139221 433.494598
-632.669434 607.837830 192.333603
-591.505737 700.997620 215.029053
-375.507355 850.911133 401.185089
-534.612854 491.541626 350.628113
-458.075958 765.516785 377.042450
-624.544617 739.044861 190.940079
-579.226746 807.710388 206.452805
-422.814941 799.733704 407.475311
-468.777130 806.694214 357.254059
-527.981873 775.784424 275.762756
-565.404602 577.201233 312.732941
-532.980347 543.027832 364.741394
-474.656982 681.093079 367.934052
-497.418732 803.742615 296.538116
-575.634399 517.010925 313.201355
-491.319794 644.292297 349.659912
-551.411804 540.553284 317.441833
-388.682831 896.773621 420.409088
-594.960571 795.087524 158.842880
-497.903809 869.084778 289.303436
-403.453461 778.905762 387.941833
-551.606140 852.912720 254.347092
-478.641388 731.254211 363.683533
-624.495789 598.486694 224.420731
-406.683105 696.050415 453.870117
-368.776947 917.289124 432.960938
-408.863983 671.461853 465.302582
-480.560547 790.700256 338.269165
-644.934631 587.275818 186.618958
-467.944641 734.967529 366.619598
-306.963348 788.687866 533.820313
-426.249664 927.518921 357.935669
-567.243225 647.198242 253.188599
-658.936829 669.096313 173.624771
-482.164063 699.025146 355.693756
-592.946716 766.196106 214.142975
-423.927368 779.751465 396.338806
-505.378693 517.832825 376.666473
-642.308777 781.325684 181.517349
-353.707672 793.652344 480.945709
-397.702332 882.124756 395.253204
-362.163696 747.190857 472.534668
-370.976440 704.004761 487.338989
-583.831055 807.832886 177.728394
-461.022034 624.135742 404.040741
-626.945679 672.151917 197.187485
-568.890076 631.302917 266.123901
-594.229004 592.076843 260.006866
-525.137268 875.242188 178.227341
-511.363831 786.126831 306.330170
-561.439331 455.186829 334.533325
-533.450623 591.077332 319.444580
-431.266327 657.715820 399.780365
-499.255707 990.343689 325.720764
-453.739502 916.185242 317.071259
-338.251343 744.361206 499.601196
-464.041229 696.293884 370.036682
-424.215271 768.048645 402.525909
-465.912537 584.984436 425.282043
-480.113129 614.491333 396.548004
-533.651123 904.616943 250.374130
-426.525116 780.198853 401.989532
-590.466553 806.371216 188.535858
-504.065643 987.677856 310.945068
-430.109497 758.885498 403.703583
-468.599182 775.710754 344.961151
-675.539490 611.292236 178.114655
-430.219055 911.235107 362.340179
-481.479980 551.498291 367.707703
-466.043396 1018.693542 346.444275
-588.670166 808.997192 174.148972
-507.399780 564.134033 381.711884
-405.556030 791.812256 429.279724
-525.473694 893.084290 225.188446
-562.401062 748.233521 236.201462
-333.727295 816.492126 484.703888
-558.809387 712.925354 251.892044
-507.805664 856.846191 288.884827
-413.184570 971.867676 362.067932
-340.552063 851.858521 477.373718
-478.011383 922.588867 223.240601
-574.393494 450.200348 330.089661
-521.511047 732.587524 313.199646
-555.132507 504.069153 353.914185
-522.904968 890.447937 284.835907
-315.808594 819.674194 508.287079
-368.872742 961.825378 400.020599
-596.607666 805.391541 183.761719
-666.061768 595.248596 194.197556
-418.761505 929.472839 367.063141
-334.483429 870.745422 468.741943
-487.956909 769.056946 330.492310
-408.527649 969.103394 363.812714
-557.957031 628.032593 300.519623
-524.443909 569.794861 351.439026
-613.711487 607.534180 246.671768
-546.914795 483.366241 340.334290
-671.510986 635.317078 165.466843
-358.415924 923.551697 436.260071
-560.742432 735.026123 261.695221
-406.213440 831.789124 412.593262
-478.803192 697.872192 370.559479
-462.598938 989.349792 334.828156
-561.125244 681.106567 261.524780
-471.021790 743.187073 360.679474
-347.826965 751.297974 507.648407
-423.999146 877.821899 390.881134
-595.992065 813.795837 208.455811
-568.255859 666.879761 256.406921
-559.227661 820.491882 240.652542
-645.920776 639.872925 175.175323
-490.898560 560.102295 361.687134
-469.663055 659.207520 364.762177
-598.290344 791.905212 192.676987
-615.530579 682.678284 208.812225
-383.201508 778.094971 450.110199
-519.039856 524.589539 349.992157
-365.356903 790.966797 455.493134
-537.573975 865.439453 216.303970
-567.363342 613.689514 273.297333
-554.458618 836.626587 177.151260
-337.393250 769.411682 512.915100
-574.962830 598.701721 254.628418
-502.012268 914.258423 223.611740
-356.704895 880.585022 456.220276
-510.422211 652.924988 316.549683
-354.890686 897.363098 431.094788
-647.771484 624.657104 168.083618
-545.209412 766.518921 255.387115
-330.284607 735.130676 501.553223
-531.681580 774.873901 269.356140
-533.974548 736.149109 255.314362
-619.900757 592.248535 215.734573
-452.742096 933.508179 326.916260
-489.726074 850.792603 312.106659
-301.225586 791.685364 528.949646
-355.163361 911.908081 411.551422
-661.906921 610.964722 188.261093
-480.171600 840.042297 315.338043
-415.626099 653.716064 458.664032
-471.402130 846.128784 325.895264
-561.847046 660.539551 264.328400
-522.972656 520.010071 379.955475
-358.059845 878.167175 459.792694
-395.586853 829.047058 416.611237
-421.414398 911.718262 366.073822
-445.665771 668.130371 422.503235
-512.619141 711.834717 315.452759
-581.164124 749.884216 230.652878
-534.460327 646.723694 307.983429
-376.085358 913.067810 412.774170
-552.742065 548.329773 293.506683
-479.016815 730.304932 352.650146
-519.613220 594.476379 337.052826
-513.773132 902.373718 248.123657
-517.847351 643.859680 326.344879
-494.768127 712.787048 324.368927
-473.680481 892.312073 309.804596
-507.771088 943.903992 295.178711
-537.503052 655.017944 294.990112
-439.417603 847.418152 372.640533
-493.237793 569.348816 369.356110
-382.141357 698.087646 473.086761
-395.411621 799.335510 430.128174
-450.518280 605.985962 437.268127
-467.757843 615.736694 411.442932
-496.529358 844.802185 301.957642
-609.456116 578.182922 238.994949
-568.686584 730.224182 257.454010
-437.011017 901.739197 346.031677
-342.496521 866.460266 470.274017
-480.843201 773.552673 333.647888
-585.494019 780.162964 233.857025
-361.915192 862.565430 435.847900
-625.598267 581.705627 234.160294
-549.015076 629.533691 264.613220
-541.859619 491.917023 328.926483
-413.689209 882.863525 384.621124
-448.713715 825.554626 369.152252
-484.512787 919.280518 227.094696
-511.098114 953.580811 265.734314
-389.460541 943.771667 404.734985
-405.948578 719.972839 411.838623
-469.536377 636.127441 402.322998
-531.722351 885.635803 255.769577
-326.809692 832.056885 487.877594
-414.997467 658.264526 450.892639
-545.714172 895.434631 242.943497
-481.821564 703.176331 346.806183
-585.455566 514.311279 292.648529
-485.518127 765.718323 338.620941
-441.838135 935.456116 335.090942
-578.756348 716.241150 210.568680
-441.387299 976.354553 338.959595
-639.805176 800.318542 209.759277
-386.494537 856.483337 433.195557
-483.319977 593.849731 419.805695
-405.465454 862.708862 410.330780
-423.266510 672.866455 453.146393
-369.432526 757.958984 472.381134
-531.262695 615.568665 316.455994
-548.362549 471.044464 354.447693
-574.898010 476.086975 300.545441
-393.340057 757.147949 456.925079
-532.948364 861.398132 179.278000
-348.783813 830.046265 479.002167
-562.009644 485.135101 321.473206
-528.351990 869.512268 182.619308
-388.010559 794.278870 449.358551
-582.094238 808.322998 188.446457
-563.687805 835.931946 179.378571
-621.103210 663.150696 204.353622
-417.541809 891.511780 346.101105
-547.752197 486.291016 329.765747
-522.309265 837.541565 275.019928
-434.241791 851.563660 362.635284
-422.276276 890.872620 369.258240
-559.326904 820.815491 181.108368
-549.636292 703.874451 285.101349
-557.849976 472.805634 329.314240
-513.046204 705.361877 313.913086
-580.953064 823.779602 166.414963
-436.087738 618.367432 439.714050
-558.713989 472.247803 302.663239
-590.777466 718.544922 194.862045
-605.727783 563.154785 219.649567
-550.968750 735.135803 280.892822
-378.435486 870.946411 424.279327
-585.159241 500.925140 295.456909
-402.513000 659.313660 438.575134
-508.561676 949.899597 260.563354
-360.170685 847.401367 462.311798
-358.739288 751.618225 475.225769
-477.724335 574.900391 391.612823
-484.231628 563.210815 409.430817
-487.794739 625.167542 370.408417
-526.228210 880.160095 214.161255
-417.332275 648.028381 448.248749
-567.403320 463.555237 314.132965
-468.652924 782.510498 345.419800
-511.407166 843.213074 288.700745
-620.927368 542.770264 245.570679
-487.493591 681.417542 370.760803
-616.734558 552.665222 258.932098
-423.414886 839.052124 372.631226
-308.842926 811.059448 512.396973
-545.165833 547.026855 316.788910
-549.657104 720.766602 284.384918
-521.648499 825.408997 251.735046
-513.440674 898.325745 223.090820
-456.829620 621.244995 408.739105
-593.688599 526.156860 279.354218
-554.155701 852.664124 219.754227
-484.298309 697.084229 369.886200
-540.752502 488.044830 332.105652
-526.912476 964.655884 298.712158
-403.654663 1001.880676 378.270782
-355.627899 742.115967 486.061188
-536.729797 685.347290 309.443054
-513.163940 668.991394 328.510101
-508.813385 822.660645 297.492340
-407.197784 884.056335 408.428223
-383.018982 728.343018 475.038208
-550.356445 508.644440 329.779724
-384.760834 841.326355 439.939178
-638.159180 600.984619 172.967331
-524.157532 847.215393 274.574738
-532.247864 883.595215 219.389603
-400.065857 769.247375 447.316956
-450.636353 736.501709 391.728180
-625.739380 688.925110 198.856934
-614.789124 587.331848 242.568024
-602.210693 794.117371 195.622681
-565.847046 505.950287 331.580261
-538.371704 490.641449 349.513611
-488.054840 846.225403 288.581818
-454.676117 662.919678 402.581177
-484.402008 797.862000 340.544312
-419.857361 950.100769 367.056641
-583.271057 547.233582 275.116791
-650.818176 585.308228 201.733093
-446.243591 706.357483 413.298981
-535.646484 593.793457 325.571869
-542.067200 651.702515 280.859131
-603.094238 700.669189 216.735275
-382.615051 845.425110 438.583801
-330.464478 890.333923 476.172211
-484.125336 815.290344 328.096527
-572.900452 588.612732 291.010254
-446.435944 835.626953 357.341583
-539.161316 543.830383 331.164764
-348.490631 818.880615 490.995514
-468.552185 675.835754 393.297943
-496.803467 984.667175 322.959900
-398.061707 789.816956 437.536072
-665.643982 686.473389 173.996323
-595.665527 626.847656 262.906769
-376.093506 792.057251 469.567902
-419.184509 968.883423 359.789764
-326.913208 766.073547 506.404816
-507.782043 854.373352 165.601212
-630.978882 609.801392 176.487854
-539.904785 867.883606 259.240021
-591.908264 623.685242 224.771805
