ply
format ascii 1.0
element vertex 1409
property float x
property float y
property float z
end_header
-521.714966 775.118835 -31.761555
-577.480957 661.858398 -6.521555
-582.689392 679.067993 -7.004885
-539.494324 830.490845 -238.636703
-493.258575 716.642212 34.091694
-454.142548 924.709778 -114.112350
-403.861938 1006.695557 -143.164612
-432.672607 855.762024 -36.584599
-541.379761 913.448669 -161.886276
-417.947144 997.085815 -151.934433
-327.628326 972.676697 -38.468777
-369.754272 888.616638 6.933352
-356.508636 892.666992 25.800570
-553.943542 658.712891 53.215946
-336.932526 863.807007 57.785160
-550.717041 876.254639 -220.889389
-497.517426 1039.535400 -201.755814
-531.946899 775.298645 -68.420456
-569.789551 680.849304 -8.187582
-380.244110 821.734009 49.111546
-561.704651 791.697449 -117.720421
-509.666290 765.188049 -58.568268
-621.196533 701.783264 -94.229279
-394.517120 818.975342 47.167873
-407.201904 888.254517 -38.211674
-545.945984 824.934204 -124.922211
-588.112915 767.553223 -103.373795
-305.150757 920.511658 47.601807
-494.991821 766.253845 -13.482833
-414.529144 989.277283 -133.004974
-413.216156 852.171448 10.032983
-516.857849 861.431458 -106.379623
-481.785400 676.828186 95.333344
-334.833160 873.971802 60.031818
-550.674561 945.894409 -177.661499
-413.970276 853.542419 -42.691269
-559.351318 622.266602 57.062168
-395.446991 843.246765 35.721157
-386.815796 906.460571 -35.594666
-559.987183 597.158081 79.246956
-383.075378 818.154785 55.017803
-442.407654 929.128601 -94.052689
-533.609558 744.274963 -40.224312
-493.843140 809.320740 -83.327354
-414.435394 945.056030 -92.947083
-329.873383 967.636108 -35.279434
-543.170410 595.389221 70.494041
-437.786957 726.273315 87.311562
-684.175598 629.976135 -53.489445
-539.641541 857.671021 -230.687164
-347.292175 889.419922 16.846853
-455.249756 943.616150 -144.766312
-603.599731 721.035950 -96.025398
-514.654114 880.968567 -124.453964
-621.284912 638.759705 -32.777672
-540.911865 655.022827 69.989166
-447.858063 811.833923 6.296835
-400.778503 891.772827 -65.380035
-463.492798 826.737061 -40.434521
-348.979706 1007.334290 -85.940254
-575.206970 849.554626 -145.098831
-300.834259 921.907410 30.438974
-543.877686 907.511658 -209.982330
-415.255432 960.587646 -103.575401
-565.339539 870.150696 -154.255325
-338.182861 998.382751 -61.471394
-565.555725 848.732544 -215.890152
-396.831787 967.238220 -110.313828
-361.365356 970.545715 -93.439697
-459.542450 1037.931152 -198.454910
-562.365723 787.339478 -234.428665
-359.771515 910.541565 -39.699890
-527.546692 1008.596313 -195.022949
-343.961884 916.479553 7.349946
-338.095184 933.534058 6.218948
-447.929230 941.699768 -121.822975
-619.665344 815.527466 -159.274216
-539.713562 805.400513 -76.925720
-463.128540 875.788208 -65.761147
-353.076935 849.444580 69.673859
-484.574707 656.725037 125.858398
-675.344360 622.125977 -74.958595
-508.291840 895.585632 -243.468872
-328.641418 928.268066 1.648734
-384.261597 921.648804 -76.046661
-374.936096 859.126343 21.426374
-426.786438 798.960938 14.246133
-478.640350 772.859253 20.812893
-388.283203 869.304810 -39.278450
-598.073792 681.281555 -51.166191
-556.857178 838.612183 -138.533920
-280.854950 967.708984 31.421913
-504.089813 985.767273 -182.654984
-561.686646 736.162292 -56.636391
-561.301453 614.083740 56.894703
-534.155701 661.624207 39.135456
-286.151367 1003.532715 -28.206223
-550.926941 574.163391 125.091034
-434.501709 971.931274 -128.307037
-511.484467 783.586182 -59.093044
-524.442444 950.552612 -173.563354
-415.150970 1003.766541 -155.466293
-493.107605 638.008484 115.967377
-348.429169 849.212769 52.114174
-374.649567 871.964233 20.901394
-569.038818 821.658569 -222.900284
-273.798859 986.598572 20.318163
-460.470825 731.215515 56.794743
-293.003784 955.598206 31.464916
-596.668457 817.503418 -205.312393
-348.625549 1005.145325 -83.896118
-592.386292 747.375488 -76.959808
-662.614441 643.779785 -63.903725
-410.610962 947.279053 -99.413536
-416.284424 803.729370 51.946972
-542.690186 621.583313 63.571281
-653.778687 752.939941 -157.280212
-445.345642 954.955505 -137.226974
-505.131348 785.448669 -70.808739
-590.730774 766.273315 -108.916573
-378.962433 799.424316 79.454361
-666.871277 754.448853 -143.383881
-412.844116 805.150940 24.159889
-372.405609 870.332947 24.845280
-496.804230 875.877136 -107.916985
-504.596100 745.861877 -16.713078
-476.926178 663.012207 99.014030
-466.980560 766.799805 33.564941
-375.480927 935.800171 -33.882607
-421.395874 944.980469 -104.750809
-409.636017 807.029785 35.675186
-531.637573 818.227417 -103.695839
-404.334625 1000.809326 -133.512360
-313.368683 981.620422 -16.102005
-624.515991 675.125793 -41.124519
-351.995148 942.682678 -12.420815
-530.159302 693.318298 37.579834
-381.913483 861.728333 30.807407
-448.967926 776.953613 46.968391
-462.184998 879.404114 -97.323090
-468.817413 735.674744 63.662842
-464.939056 720.136536 81.232033
-724.551086 665.360291 -99.540672
-386.963165 886.252441 6.475619
-595.757202 820.510254 -137.654724
-548.945862 904.815613 -200.196320
-615.498535 702.892334 -91.159126
-492.108643 753.385071 24.741535
-519.107178 612.469910 93.288536
-425.393494 773.997742 50.507832
-567.355713 772.079163 -104.468773
-543.674683 719.835754 -40.928696
-425.433228 884.819092 -38.027393
-448.807434 1007.341248 -191.454910
-374.592072 977.911560 -124.827248
-493.324402 915.502136 -135.182877
-553.488586 617.597778 83.381905
-508.960663 954.810059 -178.346237
-376.757660 890.885925 -1.497204
-423.019745 892.895142 -52.380726
-546.246826 702.975403 -3.229674
-561.835815 823.770386 -129.353439
-595.285400 696.967041 -62.290668
-388.241699 945.948730 -73.077515
-414.152466 775.849976 92.761497
-417.310760 925.435120 -88.212646
-546.663635 767.298523 -76.721863
-580.532959 810.591248 -137.343445
-335.907501 926.786865 14.852605
-525.868835 749.984009 -7.596855
-277.323181 952.320068 30.020155
-561.935181 715.375610 -56.780209
-399.006317 819.779419 60.412609
-421.075409 939.716858 -98.475693
-563.058960 772.312622 -102.632706
-607.155090 654.905212 -9.055654
-592.522583 694.595337 -26.379164
-618.037292 818.838135 -146.998138
-412.921417 755.407715 56.456818
-524.933899 675.013489 60.946075
-504.541718 646.274536 112.504410
-581.420532 665.483276 -17.509447
-379.050079 1026.353638 -128.582077
-395.971802 1030.797729 -148.642548
-371.996307 891.176697 -1.863354
-480.166870 724.924500 21.380426
-435.643524 916.360657 -92.802940
-538.222107 863.558167 -241.090668
-542.322754 739.754150 -24.865688
-453.653717 1016.059448 -197.542572
-329.758545 990.635986 -56.823772
-541.629822 776.559753 -81.791245
-606.059326 793.109924 -215.178406
-532.514954 662.432922 11.305063
-314.298187 977.548218 -32.927845
-647.259583 776.846008 -165.699280
-462.481110 805.089844 -20.221218
-428.100372 772.581848 34.410404
-307.362946 925.243713 3.539841
-418.184570 768.017578 62.473782
-364.474121 974.441711 -67.372719
-528.735046 700.661255 37.167408
-558.387695 824.989258 -233.983047
-439.999664 765.648132 39.809063
-560.802795 757.501770 -55.250374
-435.409607 967.379578 -123.530006
-392.410004 892.653381 -27.232561
-430.973785 652.445557 119.459198
-455.237885 864.956238 -51.962070
-359.375397 880.191956 29.681496
-416.234283 875.585266 -17.298916
-343.200073 915.146545 -36.093964
-505.894684 864.840759 -118.576164
-455.059906 788.425598 7.420636
-411.745331 881.561157 -29.656164
-454.929199 815.986328 -19.735771
-542.754883 876.140015 -241.809647
-381.108154 812.610535 64.367165
-427.958862 728.135376 111.203072
-437.895996 771.002258 25.617809
-651.566650 617.400269 -25.725430
-530.922241 658.805664 46.512001
-620.157227 738.759094 -98.773407
-511.901093 654.404968 73.007133
-543.639038 926.760620 -194.341553
-450.140778 924.781799 -103.891495
-381.922791 910.759338 -44.249077
-607.382751 826.637939 -147.243774
-325.807861 969.725952 -22.514538
-435.097992 736.919495 80.903412
-609.572205 643.433899 4.208142
-398.815063 871.475769 -8.535301
-454.235565 941.523865 -133.154129
-403.635468 1001.340088 -138.435089
-343.962952 956.254639 -69.960220
-536.604675 884.477966 -241.467148
-462.940399 698.754333 79.857193
-633.919250 695.687134 -77.788780
-342.916962 857.864563 55.860336
-420.015625 876.738525 -23.802691
-345.936768 834.603027 55.815510
-476.957611 851.574890 -78.084801
-331.555908 889.033875 12.417365
-587.280029 646.213745 10.884942
-541.993896 764.507446 -59.946701
-567.411011 623.575623 57.432610
-469.576630 849.185669 -63.968845
-382.744598 792.990540 86.919868
-387.790039 818.578674 56.364517
-445.491425 994.774109 -181.517990
-533.453796 761.838867 -80.417152
-597.643799 832.593506 -163.024429
-554.556763 977.321289 -194.565857
-620.260925 758.590332 -117.012306
-458.428040 895.606262 -99.362373
-612.278442 684.846680 -38.217922
-522.357117 787.809692 -48.225872
-507.446381 621.716492 97.921005
-355.189850 934.112244 -18.493641
-611.817627 670.316528 -52.704628
-423.203003 818.813965 -17.117887
-321.480133 893.710083 54.264183
-518.608032 703.240906 35.809906
-535.936218 728.349487 -19.616774
-367.940887 823.238953 68.818230
-382.311523 853.225098 38.455280
-422.325500 889.220947 -55.258282
-656.598572 659.681152 -97.395172
-465.717102 810.911072 -23.164732
-487.590057 831.101135 -45.591228
-435.971863 795.030884 25.914572
-569.290405 776.362366 -117.735947
-579.915833 760.844360 -100.097427
-438.712433 883.948914 -67.432541
-568.969177 888.774658 -188.171982
-657.386047 626.267212 -59.353256
-417.514984 789.445190 52.843727
-588.624451 636.383240 35.285065
-395.489380 885.789368 -27.776648
-484.139313 828.325928 -91.166359
-312.082336 957.394653 2.280112
-640.772156 776.985046 -172.521561
-480.591858 827.062927 -60.658787
-397.222412 962.060669 -76.456276
-687.765015 753.930359 -121.625290
-542.829956 909.007813 -209.373795
-491.783661 791.884338 -38.683998
-284.267426 971.796265 26.205065
-519.306824 849.553650 -108.610573
-535.892578 629.398560 81.625656
-433.880951 721.735840 110.163902
-462.319794 946.823486 -162.583908
-584.331360 827.144226 -186.621933
-425.251007 785.157227 47.562046
-542.430725 955.154297 -184.939590
-347.436737 985.104736 -77.845978
-545.847290 912.177856 -216.361267
-501.970490 684.038452 76.941101
-265.503967 981.858826 35.923374
-331.481140 951.970947 -2.882431
-479.144867 852.221069 -78.726044
-338.331726 990.225647 -54.936813
-322.180786 939.393677 6.404332
-455.707397 885.228271 -65.089920
-571.640808 804.208801 -227.593292
-548.625183 645.333862 37.114388
-577.878601 722.909668 -68.984756
-589.678284 623.363586 46.959572
-553.362549 781.439697 -74.505867
-604.010986 664.765442 -37.018799
-493.644836 793.677063 -40.352139
-601.104675 825.435059 -181.254837
-456.891693 761.276062 25.644260
-557.876221 872.742249 -216.981125
-418.345306 902.160522 -62.099705
-467.784332 1011.071472 -207.474426
-669.190125 655.516541 -78.171402
-451.608002 713.520508 77.255188
-487.720032 881.748535 -98.787926
-501.195313 851.366943 -98.265327
-511.263550 649.537048 99.783440
-512.805420 793.317322 -65.312378
-416.301178 839.727356 17.665785
-549.247986 806.548828 -101.268677
-454.845551 770.161438 19.086170
-618.535278 744.343201 -195.264267
-526.147217 686.514221 26.855509
-564.788879 801.397827 -109.925377
-443.190826 957.238037 -158.474426
-399.773529 889.645264 -14.344816
-537.153259 937.054810 -217.552490
-396.638123 990.598389 -152.850494
-379.609833 914.923340 -65.030746
-591.830078 806.591675 -125.594421
-616.596130 785.032532 -194.741745
-449.560059 696.114807 106.755028
-596.851135 793.845520 -135.683014
-581.016113 786.260986 -113.467697
-429.573059 815.514343 1.479075
-350.195862 990.897705 -65.662910
-385.467560 837.913025 -6.223399
-268.716003 1001.535034 0.934036
-414.651154 803.257568 54.985256
-464.797729 775.946594 27.116543
-317.501892 931.537537 15.287368
-316.165527 948.494873 -19.697931
-487.057068 857.212769 -91.985275
-390.512115 863.542114 11.930287
-565.684753 873.095276 -182.815125
-584.610046 770.570618 -221.660645
-629.856812 635.978882 -42.055653
-545.626648 665.386902 22.207619
-367.478546 965.187012 -74.426727
-540.609802 723.371094 -20.177242
-526.955322 775.228516 -52.167629
-541.543640 820.930969 -120.545341
-578.984314 648.325623 37.341549
-456.390869 754.980652 57.103634
-512.907593 754.507690 -3.014263
-523.730957 878.688477 -152.706039
-612.166748 794.067444 -167.780884
-574.488647 846.890869 -206.837387
-455.413116 804.581726 -15.063580
-506.088135 612.995300 114.668839
-322.181671 888.627930 49.174934
-451.012054 952.042542 -127.050125
-623.543457 801.169800 -173.605484
-544.643799 887.006470 -229.100433
-314.933441 963.737244 4.735183
-471.325104 683.119751 73.543465
-326.758331 911.770569 10.239978
-371.126892 941.531982 -81.023163
-549.003906 747.804077 -69.664574
-577.979126 623.069885 30.663660
-370.049438 996.291748 -114.489983
-498.601715 837.683167 -76.367149
-552.820740 841.328003 -135.519318
-325.273865 911.874023 45.022156
-636.857117 701.642517 -88.444717
-551.664856 962.162354 -187.210419
-609.679260 819.459656 -151.454269
-685.007751 733.144958 -126.610222
-422.258972 764.459961 58.702164
-328.769592 955.301575 -13.292194
-457.866577 753.602661 38.804775
-381.492096 975.699097 -81.834396
-496.239136 836.006714 -59.537476
-521.706543 942.335205 -224.633331
-571.026428 855.230530 -189.859543
-409.636871 835.817139 -16.146801
-330.208069 1024.793701 -75.374092
-396.924286 964.422852 -99.564102
-643.813965 776.887207 -165.444412
-463.182465 694.424622 42.772289
-364.476959 1022.583191 -116.613686
-278.841125 953.803711 26.495316
-624.269836 603.382080 -0.571534
-312.001648 943.081482 23.392891
-386.490784 990.111450 -106.906349
-416.468689 1006.068359 -162.801331
-537.947083 941.335571 -220.741699
-470.383392 678.680176 90.929741
-514.780334 991.196289 -207.049973
-354.703827 997.219360 -118.932785
-585.452637 823.554504 -134.192688
-418.995178 989.021912 -147.937668
-521.291992 753.454834 -26.854876
-351.496948 913.674011 12.316936
-478.218628 684.728149 83.081757
-532.084656 842.171936 -134.861359
-320.250671 979.346680 -27.777824
-352.642151 873.791748 28.739597
-629.298035 699.231750 -70.673248
-465.121582 931.109863 -140.239105
-482.480591 795.278564 -13.862902
-615.768311 781.694702 -199.632553
-597.340576 645.358704 -14.494697
-624.507019 639.528625 -37.449696
-383.299957 989.959229 -131.755142
-382.578217 787.468506 56.728470
-353.103607 951.054138 -29.415752
-541.230591 865.435303 -224.635040
-480.258484 702.455078 60.590126
-491.177338 962.826355 -179.287186
-441.694427 852.560120 -38.419678
-395.205078 1040.324219 -150.478638
-488.814636 798.277344 -14.709404
-379.471527 1001.047791 -132.474396
-424.936096 821.309814 6.282815
-487.894104 778.174744 2.174558
-412.409698 1004.138184 -164.539719
-650.490784 784.221497 -149.479309
-629.425049 656.598267 -55.359150
-370.236481 982.229187 -79.881386
-617.528992 783.887695 -125.176308
-295.380219 930.263916 1.551736
-301.667206 961.775635 -23.653994
-293.687012 945.708496 4.133389
-512.894104 634.325745 120.633827
-390.370667 875.932983 -39.238754
-466.022675 912.244812 -122.337471
-465.429260 947.022156 -145.557053
-374.682251 916.020813 -68.193924
-373.954102 915.773193 -15.494739
-552.496887 843.388733 -219.703232
-531.410706 875.123291 -152.473083
-463.799957 858.244934 -58.929913
-371.181335 919.210999 -9.230877
-454.219238 691.660095 97.621422
-548.185059 717.505005 -20.113008
-435.441284 1021.764832 -188.070465
-509.762909 666.514893 83.675911
-317.820526 977.609680 -25.713604
-431.828705 970.190613 -157.695847
-691.708069 763.601624 -135.118637
-395.254578 944.509949 -92.600548
-483.698273 896.335388 -107.589561
-415.481445 871.130432 -30.319094
-593.616882 644.401062 21.520082
-454.780975 860.346985 -42.175346
-474.874420 789.276855 3.331955
-628.563171 624.776184 7.767667
-586.445435 847.977478 -183.921005
-360.169952 847.210083 31.101810
-492.122833 679.743347 38.685417
-594.114136 828.335632 -152.325729
-368.765991 874.641846 25.521448
-416.242065 980.921326 -130.177719
-537.192261 603.381836 92.226189
-489.313019 847.433594 -71.430023
-565.937622 780.444946 -89.190582
-356.025269 888.768982 30.612541
-393.523590 856.372864 24.701248
-541.025452 750.597473 -27.362673
-514.340942 771.405457 -16.043446
-486.175690 824.357666 -56.507446
-633.518860 631.532349 -41.592987
-521.833801 922.187134 -157.650833
-611.126282 821.445740 -148.791306
-425.563629 780.025085 52.222702
-588.406921 748.573181 -110.959023
-473.477783 837.405945 -61.280411
-593.089844 599.964722 23.340029
-586.196899 731.905945 -65.840530
-302.967743 966.761475 12.523256
-663.615662 663.702332 -80.738602
-431.280060 940.970093 -92.670464
-423.768829 932.942627 -91.873260
-382.474915 1022.574829 -127.845840
-360.080170 997.806580 -96.750992
-319.821381 928.657776 9.127712
-485.430756 898.244141 -114.081757
-577.001343 605.823120 78.909012
-372.955841 959.817993 -62.723183
-409.728821 957.479492 -94.228523
-502.385010 730.507019 11.506132
-555.655823 616.057678 86.893829
-545.158447 693.421387 -30.282797
-532.769165 900.290405 -234.301422
-530.128906 695.247681 -0.384296
-584.301086 806.292236 -136.965637
-593.480103 771.262573 -107.947014
-563.860107 836.353699 -213.486038
-542.308838 806.274902 -85.338463
-350.468872 956.521057 -59.009438
-319.395599 971.226196 -18.363792
-493.700531 755.017334 -17.860680
-376.318176 836.802856 34.371788
-574.314941 727.442322 -64.489899
-494.962219 923.443909 -166.497528
-503.615387 762.273010 -19.379271
-269.061615 974.764465 32.296047
-445.874664 789.456848 16.945076
-400.549988 821.577759 23.401001
-537.173096 607.805237 98.183174
-521.736572 809.374573 -87.976540
-559.768188 836.982849 -238.192795
-431.463501 831.201782 -46.373524
-483.506531 773.212769 -10.937539
-286.015686 968.719055 -0.181789
-416.047729 937.591309 -80.401031
-389.020111 987.743286 -105.696060
-335.168427 950.809021 -63.446323
-353.633118 902.062805 19.203749
-394.298889 878.044739 2.867626
-576.617920 759.236450 -101.939034
-244.195404 1001.009521 30.694489
-592.006775 811.576477 -208.044632
-656.074036 622.584656 -32.518963
-665.571777 700.159668 -115.483307
-578.088440 798.929016 -228.639343
-460.458405 727.189941 72.527695
-659.587158 720.941162 -136.136765
-339.054993 967.252258 -29.914997
-590.070435 650.590149 -8.483661
-340.284790 863.472107 59.748875
-569.314087 821.486816 -202.529053
-582.446594 796.619507 -223.910202
-659.090271 776.654297 -146.007690
-442.950867 988.723450 -154.729691
-422.208588 829.529419 1.818230
-404.474091 803.088440 45.723194
-515.284424 688.143982 8.233993
-489.044556 929.103027 -165.702057
-257.392578 1011.444397 17.672485
-416.608734 796.315918 34.492233
-480.019775 643.816040 104.917839
-396.619995 1006.624878 -122.774933
-450.862335 927.891357 -140.983353
-514.816895 718.921570 8.371947
-309.915161 929.414124 -3.093117
-566.290833 601.857910 78.877144
-584.771729 654.810120 -8.463329
-606.090698 783.868774 -166.442245
-612.816528 776.270691 -207.602905
-444.868530 895.152832 -112.733902
-560.918579 747.031250 -44.342403
-471.634277 847.102600 -69.078773
-487.632050 905.215576 -124.099228
-291.542114 937.252686 53.837128
-259.543793 967.903015 26.735470
-444.570465 805.117004 23.389164
-406.321655 1043.360718 -168.291824
-302.518463 936.798950 43.509903
-655.498352 795.134644 -152.275620
-495.065521 844.994324 -75.376572
-636.144714 689.557617 -96.299072
-331.203735 904.193726 47.403229
-598.932373 751.485229 -103.220123
-286.304443 971.457153 13.390262
-525.502930 566.519714 138.334183
-478.664795 690.839722 96.700706
-676.691956 679.542786 -92.784203
-566.341431 633.249756 54.252003
-450.903473 953.857666 -140.394318
-485.994019 686.530151 83.151474
-597.285645 682.170105 -38.999924
-455.517120 727.502625 43.362946
-419.478394 772.170288 64.804359
-458.678406 827.404236 -26.563540
-323.333405 927.563782 -16.100342
-385.915192 1002.842957 -145.409027
-456.276581 708.852905 107.367332
-392.538330 923.697449 -40.400108
-563.613037 589.748108 49.512569
-360.805145 985.455627 -68.404915
-670.290100 640.047852 -83.875046
-528.187622 851.784973 -132.064407
-376.476105 809.536926 72.104843
-552.888672 894.506836 -200.288971
-534.553650 934.866821 -197.116577
-304.420380 925.714600 36.732433
-548.632202 942.783264 -180.376953
-575.245544 810.919434 -130.604218
-560.899780 633.330933 41.526962
-245.129944 990.828735 25.890081
-453.276093 788.258728 -16.386183
-411.689819 858.427368 -19.187998
-568.788025 623.236511 66.444260
-476.438263 790.596313 -20.591272
-421.317535 990.082397 -163.487991
-565.431213 624.387756 62.955578
-315.421478 1003.045837 -56.118382
-507.604828 743.876221 -35.089706
-525.512512 591.062500 85.194603
-535.456726 605.246887 117.796097
-349.826324 860.448669 53.236645
-285.826813 965.188049 12.664343
-494.592102 738.489319 8.666427
-391.963440 978.212891 -140.178207
-281.496063 947.871887 17.321911
-452.864105 779.195251 12.494966
-441.369568 925.300354 -112.456741
-374.183472 1022.628052 -148.333038
-338.213898 895.237061 50.518589
-521.772278 766.654907 -54.130981
-456.875977 1005.600952 -185.655212
-450.304077 901.835571 -96.261673
-423.323517 874.099854 -24.687164
-544.404236 737.492920 -64.533066
-420.474884 853.706421 -6.054513
-388.528625 930.131470 -71.117050
-503.294586 790.539795 -51.605858
-366.821442 855.857361 -3.778560
-448.592285 841.858887 -29.322357
-581.678955 831.479065 -198.953827
-609.210327 780.468872 -203.069992
-616.763916 811.626099 -154.330048
-347.503510 969.428528 -66.443893
-523.137085 911.669434 -172.071350
-590.586304 795.567444 -194.075302
-327.227814 979.388062 -32.711952
-595.224976 600.781616 33.180485
-536.988220 1006.182922 -196.605774
-403.353180 915.991638 -39.853752
-646.743713 670.194519 -62.564911
-264.040100 985.519958 39.308231
-543.720581 858.355286 -219.083069
-552.710999 679.709595 32.697098
-585.039612 822.614929 -169.336136
-593.308472 600.049072 65.073555
-495.157379 692.674561 76.068451
-425.848907 854.079651 -6.417231
-370.670013 884.057556 -0.190751
-484.452667 818.463623 -62.953678
-539.457031 715.255554 -11.509117
-390.246460 837.678467 26.862829
-385.224579 1000.623718 -115.623817
-325.302094 1001.994263 -65.529449
-488.352478 843.053955 -89.750328
-312.986481 992.941833 -27.302612
-528.517151 665.145935 66.092842
-411.035828 766.862366 68.540909
-594.116699 636.033936 14.181856
-585.145752 769.334900 -218.061432
-548.499084 660.988892 22.562992
-543.952332 908.521362 -211.253021
-451.355774 837.601624 -42.911247
-316.982147 967.173096 -25.947033
-496.275635 770.807007 -23.408567
-575.956970 835.619202 -189.604401
-474.514526 825.544739 -31.996462
-457.938568 728.394897 80.218513
-342.253906 951.796692 -62.882248
-360.827484 978.990784 -66.890594
-437.598175 818.688965 17.968309
-480.915100 927.913574 -150.720261
-259.050720 988.991150 25.118296
-639.927246 658.584290 -68.987999
-453.984070 954.785461 -159.094559
-289.137512 949.021179 32.181240
-451.853882 856.810913 -48.661583
-518.020752 784.129944 -52.666340
-664.685303 738.436890 -120.567307
-479.077728 822.243469 -51.870274
-484.388824 717.989380 38.587177
-395.950806 996.964172 -125.037598
-595.651367 828.811096 -190.989731
-577.812988 713.972900 -56.337708
-348.517212 877.177673 40.559647
-341.117889 931.408142 -2.087425
-566.187622 640.452637 27.049669
-601.092346 798.541565 -188.108658
-585.762573 602.546448 21.939075
-543.242676 872.043823 -237.998047
-592.460571 689.468201 -21.009716
-353.522430 974.978821 -67.667114
-365.142273 989.589294 -123.401794
-365.838562 954.551941 -45.715164
-451.545532 886.184204 -68.972778
-306.537109 950.165100 -9.848589
-404.859497 905.843201 -45.003258
-521.622375 769.797546 -26.486708
-500.653290 986.764648 -210.276306
-533.720398 597.538391 98.624336
-398.923950 829.641907 33.938725
-524.020874 769.174683 -33.165844
-297.311157 924.339600 58.168552
-584.969238 661.458496 -10.626245
-524.174927 827.274597 -100.906487
-391.416901 887.404541 -3.934660
-503.896423 866.296692 -107.086731
-536.221497 907.510376 -235.411072
-428.167358 729.819092 92.671745
-639.937378 698.276855 -104.922775
-537.440979 621.083435 87.648178
-324.456207 884.926514 52.554344
-529.768677 994.785950 -204.295593
-550.131897 668.817688 16.823570
-595.384216 605.469788 60.472679
-299.042725 964.720886 14.677641
-625.385620 816.789917 -157.515350
-479.662933 869.570068 -107.502296
-447.599182 880.171936 -51.477291
-543.069214 901.778198 -223.059753
-396.864929 880.146423 1.992010
-426.097717 1073.128784 -199.769424
-321.217773 908.653442 34.986877
-462.372528 887.706604 -97.812836
-575.447876 718.293579 -39.755150
-524.175171 738.377930 -19.773830
-563.592285 845.997253 -179.270050
-494.448975 904.314148 -147.591858
-553.891174 901.022278 -178.012512
-515.281006 853.687927 -97.174118
-725.467041 660.054749 -98.287247
-575.212708 802.413330 -132.588257
-408.977173 789.623169 53.092758
-476.271210 820.651672 -47.562683
-674.643433 639.726990 -57.732147
-517.543518 952.140503 -174.560349
-538.155396 609.746521 90.310898
-495.478485 714.922119 59.181873
-523.368652 910.366821 -217.442169
-282.717041 1000.871399 -23.906282
-304.546631 942.858215 10.714345
-397.803009 1007.260864 -167.767151
-318.391510 973.470154 -19.623817
-569.016907 853.062561 -154.737915
-484.229523 682.059753 80.396660
-608.442322 714.645996 -66.649086
-460.644470 794.870178 -33.887737
-462.991089 900.727417 -97.643417
-435.696320 722.674927 85.669769
-489.900421 857.208679 -92.314651
-296.074005 953.584351 3.099824
-673.100281 757.218445 -145.995804
-592.643188 819.224915 -211.925232
-461.571136 824.797913 -62.124611
-402.779663 958.493713 -107.530472
-354.834869 991.860657 -97.891273
-412.901794 810.269165 54.115849
-525.035706 783.700562 -39.161236
-613.854736 609.934387 28.754074
-381.837585 885.413025 -12.322227
-474.082001 848.726013 -65.974464
-460.986938 888.579041 -74.291100
-428.455688 1003.223328 -167.332352
-475.729401 707.167419 66.012642
-462.619110 915.981201 -141.551361
-313.342773 923.247925 -1.178827
-360.977112 850.563416 36.635521
-594.903564 591.870544 41.991177
-367.351379 969.485657 -84.248665
-594.308716 817.536072 -184.926971
-384.587250 840.785156 36.432095
-462.702637 768.886475 41.607185
-656.233765 677.580200 -94.589607
-553.104797 894.452881 -200.415909
-463.040192 897.193848 -93.424065
-616.371765 787.749817 -186.499817
-347.158661 980.059509 -53.655258
-297.799561 927.316956 44.703163
-461.150177 743.907043 38.664909
-389.110596 1000.301392 -125.151039
-557.715698 716.213501 -39.117134
-385.335815 989.800293 -111.961945
-456.177307 731.594360 88.595894
-627.674988 676.523499 -46.228519
-387.077850 898.988708 -57.794556
-535.841187 625.280396 100.246376
-536.619080 884.052185 -228.138657
-405.436371 942.539856 -93.693222
-416.685852 922.991821 -82.372795
-522.710876 887.088806 -243.221512
-649.161194 792.335388 -135.028244
-439.310150 875.679321 -63.113235
-608.916504 672.721375 -29.415409
-444.080475 825.044434 -8.963736
-446.027344 904.623962 -89.290649
-582.659119 703.448853 -54.492645
-575.275452 816.566895 -123.571922
-501.447754 818.545288 -67.457771
-536.473694 736.797485 -34.776535
-411.822052 869.685608 -12.549724
-562.811890 647.748230 46.129810
-377.505768 866.235107 21.992945
-508.683838 608.706848 114.998352
-519.712036 678.641296 38.863415
-510.232361 739.080139 11.844811
-521.338745 771.947388 -42.932938
-435.867401 776.661438 59.408112
-469.159119 653.909607 120.657234
-342.657745 934.385864 -16.202614
-536.965393 728.786255 -19.412523
-638.850769 768.167542 -170.574356
-412.544189 749.807983 44.138172
-277.160767 956.892761 46.464672
-516.602783 840.591064 -112.771111
-275.661133 957.206055 26.917879
-298.403412 997.705688 -47.899338
-365.579193 938.199097 -27.113317
-405.559906 758.764954 97.580032
-448.120544 883.520386 -74.935966
-505.144958 792.060669 -53.585815
-508.312256 688.074402 68.360512
-395.839691 884.826904 -31.849201
-399.433075 842.708557 20.481356
-486.980499 696.258484 59.042675
-384.800171 906.922119 -19.809050
-444.752106 784.005493 40.611492
-408.101563 803.664246 42.950779
-653.403870 680.031006 -84.815056
-300.606018 1016.516846 -41.870422
-367.134583 862.356018 52.782757
-562.516785 702.756165 -29.914944
-506.024750 675.863220 61.997581
-465.350555 802.225098 -12.750987
-300.672913 985.163330 -14.296758
-335.800201 931.029785 16.046089
-609.155945 826.982849 -169.141083
-511.513977 799.457703 -61.330173
-628.886597 663.818848 -34.489559
-530.085388 590.854431 114.097878
-639.176086 627.996094 -65.643906
-446.611969 1004.165222 -173.167694
-576.947266 862.145752 -178.281326
-512.362610 805.941528 -54.820370
-626.936829 667.107788 -52.986225
-548.444641 972.880432 -198.924866
-363.668854 837.969543 36.491856
-547.847107 898.001831 -203.811356
-536.771179 750.487671 -74.094894
-550.825928 908.165161 -183.570526
-504.881805 819.792786 -72.133163
-526.022583 893.134155 -153.196167
-545.670166 906.305664 -196.585724
-627.926392 623.480164 -45.199001
-457.614990 679.076477 107.013763
-322.201691 907.225464 51.033203
-317.005920 942.096252 -23.239548
-478.882935 698.572571 79.437431
-422.005066 974.291687 -166.506790
-616.583496 627.653870 -17.488110
-396.656158 1031.288208 -152.520050
-520.878235 589.775635 118.896278
-291.023651 954.401611 35.632191
-481.963806 790.895569 -21.458464
-637.680847 783.806885 -132.524094
-414.364410 853.233337 9.664390
-465.204346 838.701233 -58.382416
-447.488495 847.675537 -48.760471
-589.762573 679.433594 -37.864212
-581.299683 649.894714 21.837294
-435.131042 889.331421 -54.793392
-399.248077 862.922363 3.539106
-402.075806 883.764343 -22.704819
-560.969666 852.700134 -157.159714
-500.786865 645.382324 94.785141
-556.085938 729.841553 -63.643028
-489.983948 647.493958 103.780891
-459.058075 741.779175 60.696575
-644.467590 677.679016 -79.336754
-322.043030 929.520508 4.544485
-383.564301 849.542053 -0.566810
-314.904816 981.390198 -32.833870
-508.013245 670.598572 60.521347
-344.966034 1022.400024 -98.415009
-406.234680 742.407654 77.899506
-564.802979 684.075317 -28.575354
-338.882019 992.157227 -69.497627
-550.459900 922.245422 -207.738266
-406.865112 1007.913208 -138.342590
-590.748535 746.418030 -117.110504
-499.221985 886.957153 -122.206924
-328.562836 1005.892212 -60.503860
-539.672729 897.315857 -233.134644
-360.578156 997.297729 -83.549225
-326.806122 917.166260 4.752691
-426.361969 766.092896 75.252647
-313.856262 965.234924 -21.559837
-591.650269 613.955688 46.532104
-390.620728 898.261780 -23.008638
-504.790649 743.954529 0.846534
-473.009003 958.399658 -174.566315
-573.819092 814.856812 -200.472778
-515.855835 781.941162 -47.900558
-284.616882 983.595947 -10.874937
-575.841431 673.895142 -16.336483
-654.933228 653.295959 -66.493942
-456.903351 968.404907 -165.483337
-401.680786 883.651001 -28.454184
-262.138367 998.831055 14.344287
-466.288330 1018.463135 -202.263794
-439.717102 927.353333 -89.481018
-519.457886 751.809265 -30.826143
-451.123169 979.048035 -170.389908
-386.195251 998.354614 -127.976669
-416.974670 867.615967 -7.216018
-626.666687 673.414246 -67.559937
-557.651733 748.169128 -70.287918
-361.332825 856.597107 36.712490
-602.880676 765.549438 -118.655769
-576.921387 779.923279 -102.360649
-497.968750 702.916809 37.783081
-563.057007 874.886414 -219.081085
-479.507080 685.628357 75.491829
-371.714813 967.256653 -91.529945
-536.283203 907.091797 -162.892273
-538.370728 939.034119 -215.750977
-367.275513 971.471313 -77.748116
-562.660645 880.350647 -174.608017
-610.181702 690.559814 -50.049511
-482.280548 798.629028 -37.613007
-525.841187 895.844116 -219.450516
-459.124847 724.949097 59.431175
-345.970154 925.717590 -13.238810
-327.709686 1008.511353 -87.983093
-432.152283 1027.991211 -190.526413
-576.760803 746.160950 -100.806114
-505.818024 766.916748 -2.140894
-377.735962 805.767883 67.519066
-464.257660 934.603760 -130.444855
-454.772064 938.511475 -128.354126
-468.503113 798.118530 -12.322187
-617.681091 813.940918 -155.260834
-298.480072 924.242737 24.808260
-405.229187 835.919373 18.867155
-456.282837 803.959961 -8.855667
-557.703796 974.503662 -182.408783
-564.108459 718.220825 -48.415894
-552.351196 584.787598 111.195587
-610.210388 697.621338 -75.503342
-272.807831 999.467041 -16.716225
-559.686279 700.598511 -20.806444
-577.099609 793.829529 -212.323502
-350.783722 986.722717 -76.249496
-563.502625 708.362000 -37.125797
-558.465576 737.046204 -61.107788
-382.866150 878.546997 -33.811100
-521.584473 986.431030 -204.999725
-498.938873 947.909180 -163.207031
-310.926239 909.832703 5.476066
-543.689087 844.215576 -140.216263
-493.945648 643.084839 106.854996
-349.396881 988.262268 -76.081253
-416.107361 826.149719 3.206311
-431.557983 897.248047 -66.066605
-570.879456 655.171143 7.693700
-588.317200 870.878418 -177.107178
-557.726440 855.350830 -223.022018
-590.693359 623.199707 -1.139299
-556.890259 699.262756 7.854779
-487.385223 738.631226 22.758722
-426.529053 980.040527 -160.586624
-578.499512 841.814514 -172.491165
-278.959290 945.538574 41.236961
-357.389038 833.180359 72.763603
-452.476105 718.463196 72.358536
-572.870850 709.300537 -64.151672
-411.860840 792.433655 48.066837
-414.759369 886.635498 -28.347298
-589.664368 667.427856 -12.691037
-450.571930 821.664490 -1.494248
-588.588013 717.122192 -43.586113
-497.188629 673.209351 74.446182
-582.789978 808.416687 -224.371124
-623.745117 740.146057 -114.214401
-454.200165 693.047974 123.680267
-526.326416 942.847046 -167.397263
-327.981812 990.654785 -55.295437
-536.724976 601.054260 86.914185
-511.073029 715.455505 32.332611
-478.427277 800.657410 -10.299109
-413.703400 904.909241 -53.562225
-586.370117 841.755981 -195.256577
-367.337311 1012.788696 -111.800674
-340.939423 984.818420 -47.172844
-512.472412 658.767517 67.937180
-366.372375 994.339355 -93.437790
-382.695740 870.980835 2.865283
-329.739594 952.387878 -8.205775
-558.447815 596.555237 128.707443
-433.590576 899.263611 -75.843597
-407.495453 792.953186 46.643383
-358.606415 935.902832 -17.115898
-411.267334 919.354065 -106.291130
-420.827057 900.797607 -74.036110
-558.234619 618.874512 51.836338
-547.388855 627.314880 70.720390
-519.457092 751.891663 -27.045458
-351.204590 905.987427 0.408126
-464.708801 853.774963 -51.057995
-347.711884 976.083374 -40.077148
-450.980682 879.197754 -74.141754
-510.413513 790.283386 -50.483444
-453.553009 692.584412 107.029892
-431.384491 814.538086 7.214888
-316.113037 971.932678 -10.004583
-631.800110 751.674255 -149.925522
-511.455017 682.170959 48.387665
-551.754822 872.465881 -210.876297
-482.513184 928.008118 -163.310913
-414.174316 963.015625 -127.352501
-610.418945 648.745300 -0.889277
-433.804504 763.394531 71.439911
-514.463745 659.737793 61.327503
-396.259857 812.117004 62.544144
-527.978638 869.711853 -151.927109
-488.262604 828.706543 -69.350761
-365.119751 980.688599 -74.592590
-503.287689 665.827209 94.764023
-459.500427 694.531067 93.922348
-492.509399 728.944458 48.633606
-640.251099 702.594604 -93.402290
-535.697449 922.312378 -214.653854
-410.876984 799.046265 37.351898
-519.957703 968.298096 -187.106339
-340.620605 868.262146 39.364651
-294.584442 909.353455 43.908726
-286.273956 955.418823 3.252231
-384.690491 918.915649 -72.388504
-547.801575 775.724548 -86.715126
-575.677673 642.439758 19.816198
-583.533081 658.820679 -30.267429
-422.124451 894.219971 -43.984711
-506.422455 834.986389 -69.296783
-542.800659 759.067627 -43.251297
-367.961334 976.805603 -71.982628
-399.144958 861.679260 16.679672
-423.268463 916.967468 -85.476929
-519.025757 648.768127 77.240402
-409.684845 815.342468 29.002447
-548.514343 864.328552 -232.345795
-523.299316 873.907043 -239.913544
-597.133789 645.287048 -33.391953
-666.864807 642.554749 -75.662674
-528.437927 605.478882 97.206688
-659.575073 758.911316 -150.861313
-355.699524 846.421143 44.861927
-286.151550 947.747314 16.680872
-426.407837 733.371826 107.028160
-471.057404 847.283691 -65.669159
-459.431335 668.232849 112.524734
-370.146698 828.353821 60.888870
-377.387817 867.307800 36.017960
-563.174744 656.510132 14.331948
-536.620178 652.987976 46.160046
-284.132935 961.945374 24.780317
-439.410065 849.122742 -12.396164
-436.965576 765.727783 49.054291
-278.938324 986.900513 -0.350544
-542.747986 903.649048 -202.762482
-380.806488 826.962280 39.997551
-590.472351 708.146790 -60.588131
-435.069763 994.643127 -171.471069
-481.016327 780.638794 -10.128368
-574.465332 766.258606 -107.520020
-401.382751 812.956665 36.939926
-505.399078 909.931152 -156.532959
-335.285431 947.827332 -60.431248
-461.818787 774.999084 31.369169
-401.769653 794.098877 56.835716
-356.533234 942.318604 -24.180044
-452.012421 911.600586 -104.218399
-668.466431 614.562744 -70.817589
-409.509247 1030.675171 -164.701691
-598.624451 824.710754 -155.315964
-427.443817 874.154175 -24.597353
-445.677155 824.321167 -48.293503
-559.818054 656.828674 31.612352
-452.716095 848.014160 -27.930273
-530.813782 768.230164 -53.959949
-553.930908 767.157959 -78.849327
-453.438171 896.732178 -83.175034
-539.462036 936.564331 -182.146103
-461.012909 759.653503 32.111015
-318.082977 962.910034 -7.472270
-419.398193 974.560181 -122.906052
-530.690674 801.699280 -84.557289
-550.114197 822.610718 -230.411850
-535.912842 837.931702 -125.951187
-465.633789 897.295898 -109.582649
-669.774414 753.485168 -147.706558
-393.704437 906.530090 -28.449713
-477.621429 925.761963 -128.758560
-367.629700 1001.322754 -102.037186
-345.012085 892.334045 27.924879
-430.692383 830.203125 0.285365
-356.247620 946.929932 -79.792938
-587.589172 836.601440 -148.680161
-316.389832 923.453308 41.454277
-405.918518 791.513184 28.591513
-369.816406 855.206970 30.319519
-604.630493 813.928711 -192.006027
-409.205383 965.785889 -147.660645
-590.955566 802.164307 -130.662033
-498.173523 840.815796 -74.679314
-464.601044 981.738647 -181.741348
-638.245056 702.855408 -99.239044
-319.497192 943.301208 20.214386
-537.119751 726.722839 -23.055525
-541.999695 885.667358 -232.560867
-533.227478 926.822510 -162.000900
-536.401428 962.605347 -215.368561
-412.509308 758.898743 95.506836
-535.167664 860.410278 -128.789017
-323.999847 884.344299 41.338089
-645.089600 631.335266 -17.394403
-469.103973 736.863586 36.891220
-516.696350 650.133606 74.820694
-662.690979 774.983459 -139.673737
-491.687256 721.219177 46.140621
-576.695496 746.916870 -62.664726
-547.711914 930.229309 -182.948044
-562.859680 601.142029 82.757774
-562.332397 696.060913 -37.961933
-574.392517 710.647522 -77.358765
-604.441711 813.478394 -185.175369
-400.198456 777.443359 79.528564
-547.079468 741.166809 -46.917130
-313.111511 972.719299 -14.253654
-376.410583 923.344482 -34.830013
-416.638184 949.449524 -100.282227
-477.722137 715.687012 54.260815
-433.686829 697.585876 85.901031
-540.287903 696.742554 -0.397887
-304.435791 930.267822 51.732380
-632.851379 662.444397 -48.407719
-615.373962 659.127014 -49.064251
-362.035370 1003.198120 -97.391502
-315.675629 911.263916 42.776211
-454.853729 941.802368 -138.621384
-450.949371 934.919495 -114.365448
-440.297211 847.874878 -14.837124
-459.071106 689.697754 97.794449
-462.373260 774.673706 15.889163
-276.481079 951.169556 20.425411
-539.952637 630.221008 86.451973
-324.331207 887.137634 42.039822
-484.561798 921.671143 -134.951569
-544.151733 726.203918 -9.884483
-349.814331 877.744812 27.527727
-542.233521 647.957947 64.151146
-505.581146 768.651367 -11.899476
-601.690491 831.707092 -145.852219
-332.625122 935.577759 -0.473808
-471.257690 952.800049 -165.214432
-580.581970 828.053040 -166.649185
-432.003235 970.000610 -132.108994
-607.761536 788.520203 -155.658188
-570.096619 732.588501 -47.623661
-293.927124 981.866760 8.077409
-291.633087 974.135010 4.854905
-565.619629 658.716858 -5.308787
-638.369385 663.971191 -59.385284
-571.753784 799.824829 -215.267975
-522.277039 1002.636230 -205.914246
-533.931458 779.695557 -50.579350
-485.832703 811.864685 -49.700645
-503.178253 647.801025 70.016891
-304.936859 893.837524 37.676422
-586.747986 689.203430 -23.683689
-618.883118 621.660950 24.948982
-443.516846 942.305542 -124.551460
-454.400238 755.620483 64.058693
-417.644196 750.674316 87.037399
-337.355103 940.758850 -45.315788
-586.093933 637.425476 35.225159
-399.365509 839.673523 9.914742
-456.799683 881.861633 -83.689316
-499.781921 613.436096 138.812851
-344.882202 860.593384 52.115051
-351.075928 993.921875 -101.097473
-564.449402 828.843811 -229.795990
-488.723602 637.264587 115.304443
-342.147430 942.308899 -10.260739
-523.864624 652.649597 70.983971
-423.308533 1035.357788 -162.292755
-405.631989 799.890503 67.064926
-499.899017 656.770569 59.006203
-351.501465 910.593079 -30.933674
-564.110596 683.948669 8.083965
-388.598419 978.983765 -104.878761
-457.736176 708.953369 83.185257
-517.517700 849.987549 -133.051239
-510.217163 697.767212 54.338104
-275.530365 944.641785 38.684849
-362.205017 959.785889 -61.489647
-564.713257 663.200012 6.011016
-427.425079 909.016602 -89.473373
-398.686859 832.140564 22.839743
-318.153870 934.101563 16.919634
-410.309967 940.122925 -104.094009
-370.838928 872.136536 14.545280
-574.096252 766.643311 -121.274979
-594.023376 616.342468 36.647644
-518.140930 620.787231 111.476486
-653.048889 627.730164 -18.949186
-540.357910 651.825256 46.145203
-422.565552 754.911804 69.664795
-474.933746 665.940063 102.036415
-396.031036 782.198608 72.504074
-427.228790 843.457458 -3.019148
-412.653870 995.986816 -171.306931
-494.482086 626.140442 100.318932
-447.818634 769.821289 33.042789
-603.763977 799.824768 -156.328033
-563.698486 648.474915 25.598137
-478.519836 988.945313 -186.443863
-483.608551 832.939575 -51.366302
-544.690979 915.040100 -167.088593
-478.332336 683.351746 58.308159
-517.789063 637.822510 89.698494
-597.189636 782.273010 -216.919205
-534.979858 719.144714 -16.508680
-410.890900 960.384644 -103.346230
-539.625427 749.180359 -70.568443
-587.402405 657.903870 12.211111
-502.641083 1012.169434 -196.149033
-309.042053 958.652710 2.450218
-440.434326 727.207764 100.557076
-482.642212 919.948425 -134.468781
-448.653320 972.473938 -142.118607
-498.971344 759.641479 -17.369499
-479.492218 683.639832 91.296104
-398.076416 822.369507 41.673485
-516.406128 613.117859 106.516251
-516.432068 657.345825 59.703728
-421.660034 914.703674 -72.238121
-485.051270 967.947510 -172.502197
-434.652832 845.233643 -5.920428
-389.798401 1042.451904 -146.055389
-403.859894 976.943848 -103.047112
-557.218872 951.947937 -192.486755
-298.121368 947.884277 31.918283
-478.053558 808.116089 -21.255533
-522.483948 968.724182 -191.607056
-410.124084 914.246826 -58.915070
-552.779297 700.010315 -13.307254
-552.848877 873.299377 -205.405838
-420.014252 780.101135 58.415199
-392.469025 913.464355 -47.755043
-344.252869 839.795044 47.974663
-573.449097 847.731934 -187.337952
-727.242432 648.635010 -85.615265
-432.988495 816.635437 3.213201
-604.610657 802.039673 -194.751968
-435.685944 853.521423 -42.412659
-310.544159 941.759705 -0.143568
-378.360748 943.702209 -47.765892
-552.557678 851.641418 -207.321503
-487.847473 793.913818 -13.288150
-562.031189 702.190613 -19.570086
-584.335266 821.272278 -145.184677
-429.769775 893.228577 -67.746048
-605.672302 681.286499 -25.322695
-419.050293 909.914124 -71.613068
-415.038239 943.396484 -100.371552
-441.596283 1008.910400 -182.623245
-542.714905 801.206787 -123.625259
-565.893738 783.881592 -227.488297
-427.366852 726.459290 97.154266
-516.984863 593.778381 122.766533
-511.473663 863.611267 -112.840309
-382.697906 869.434937 2.625355
-361.650330 1011.985046 -109.110825
-505.758362 884.420227 -123.173950
-414.167450 913.160217 -71.215302
-413.984558 931.637390 -69.712158
-313.715820 999.557007 -41.833111
-501.905426 834.687439 -82.761505
-302.527283 975.336609 -13.080259
-394.307526 773.303650 42.106495
-358.326355 841.920471 61.146328
-315.565186 943.575256 12.162693
-287.451569 926.986145 23.736246
-494.065186 692.789124 54.483109
-475.008667 714.826843 58.509594
-323.302307 922.007874 -2.710999
-424.581543 794.819031 33.533672
-382.683868 1010.727234 -131.216690
-555.521667 889.625305 -196.507294
-478.139191 792.195374 -23.035467
-530.995667 989.195618 -191.436890
-372.274872 833.763550 77.719955
-637.299255 771.461060 -158.186340
-544.100830 589.487549 75.025185
-427.611542 975.260071 -136.140366
-461.899017 725.046570 60.687748
-474.484924 759.513428 12.722085
-516.734924 650.489807 91.755905
-708.317749 639.623657 -82.210892
-274.638916 998.187317 12.270958
-404.590820 954.610046 -77.209045
-542.485596 958.098267 -200.973099
-402.291656 786.797668 81.379044
-540.707336 581.979858 101.586517
-357.550507 850.046265 66.252464
-436.614655 864.412659 -54.064693
-524.696289 588.759705 128.603577
-306.977570 915.556763 51.246281
-413.369507 900.989746 -40.790508
-391.660309 801.788513 64.577255
-310.192352 909.182556 40.588238
-425.987183 1034.300415 -177.142014
-395.488129 820.760315 45.586403
-394.767883 872.915894 -3.560739
-333.152130 961.317749 -43.359940
-528.716248 751.573669 -52.582504
-559.189087 766.476929 -91.768692
-463.213470 957.528015 -170.888763
-574.469666 886.703735 -191.129990
-627.021606 771.021484 -187.735718
-569.240601 870.201050 -201.674011
-346.871582 1017.570679 -87.293823
-541.472778 665.006592 60.257664
-412.378662 868.948425 -28.126930
-327.538910 877.995850 62.869183
-592.062378 827.866211 -149.000183
-471.118317 682.326721 90.513565
-573.703979 828.322266 -224.474182
-341.106232 902.293640 10.098754
-363.005707 980.801453 -70.851425
-324.474213 879.820251 46.786407
-525.713013 935.089478 -170.620224
-568.287720 739.226379 -67.695587
-400.113678 770.745483 53.164188
-484.136566 895.748596 -116.354347
-408.194977 1008.931580 -148.161682
-516.595825 615.891602 75.405411
-510.544556 816.274231 -70.160080
-415.694244 926.313599 -112.656761
-369.303955 983.256775 -91.464813
-580.267029 817.303528 -220.631500
-437.363098 961.847107 -119.896622
-533.264160 633.069336 80.484642
-430.214142 1012.989868 -185.008698
-462.965942 935.576111 -150.655609
-373.120728 948.116638 -44.902496
-556.502197 828.380554 -128.446182
-388.924347 936.325012 -101.072083
-495.944550 899.519348 -128.964294
-493.888062 721.740234 2.931000
-461.431458 799.145508 -7.475124
-479.302704 926.159485 -148.399643
-519.614014 786.913940 -56.707069
-603.393555 681.017151 -35.299694
-474.235779 749.185852 22.936625
-525.559082 607.734253 78.897316
-537.620117 864.157104 -219.802551
-516.317017 1018.310608 -202.870361
-552.121460 759.942993 -85.902489
-647.456238 632.287231 -69.044357
-602.675171 787.942017 -213.281723
-630.429321 705.112122 -84.196060
-586.808655 667.739502 -23.009354
-411.253723 898.166626 -38.657986
-416.012939 776.371094 88.385139
-386.351501 1004.984070 -108.775658
-308.005432 939.309265 10.239992
-566.021240 688.394958 -20.456921
-303.982697 1006.668701 -62.902390
-422.638672 917.140564 -86.317749
-388.453369 914.900452 -74.367310
-546.633057 732.607300 -13.165805
-618.867737 704.167908 -101.535042
-591.397522 785.208435 -210.677216
-627.692627 719.751770 -101.481842
-479.394958 708.732605 76.333878
-633.181580 790.333374 -169.460159
-555.788147 876.671814 -166.965195
-570.653931 675.781860 -11.500813
-401.542725 855.321167 11.155895
-392.002502 1016.498535 -129.443085
-417.209595 927.280701 -84.139847
-533.275330 894.875671 -211.154205
-344.365204 954.569885 -28.026327
-400.911133 1022.790466 -141.801117
-475.326141 1029.026733 -206.568054
-373.814575 974.372620 -90.044121
-538.443420 783.806641 -53.793457
-427.609955 918.131287 -75.674202
-407.945282 982.285950 -106.708923
-583.496033 831.606812 -182.109024
-405.178009 837.295898 -15.965993
-466.623322 878.773621 -70.382523
-417.772858 899.559998 -69.390427
-429.946930 865.122559 -43.022243
-548.154236 802.902649 -90.592552
-335.860291 996.507874 -59.933640
-353.672821 873.011597 35.814831
-409.707581 1023.683411 -166.256027
-358.773712 980.238953 -76.714996
-586.035095 689.271362 -32.389469
-586.071045 777.195679 -110.879242
-569.653625 805.121399 -224.349472
-362.522400 1019.276489 -115.363998
-524.186401 700.834778 12.577819
