ply
format ascii 1.0
element vertex 1367
property float x
property float y
property float z
end_header
-1014.452759 -300.244446 347.022949
-855.953064 -389.662109 235.366028
-934.872803 -368.139343 216.639053
-836.553833 -290.599609 509.786438
-994.224121 -282.074738 335.355896
-797.267578 -278.273834 573.206604
-800.391785 -352.013367 371.104553
-766.865295 -396.626526 296.250214
-765.236633 -353.552673 462.626984
-807.289490 -391.183868 256.086212
-907.912048 -338.829224 322.780426
-846.105957 -318.225555 430.861237
-815.278381 -320.568695 496.269348
-704.753723 -464.971649 138.639938
-949.751465 -262.464996 469.989014
-794.233765 -422.551117 135.784607
-862.338379 -317.425476 413.814941
-640.460571 -432.002197 334.912018
-975.338928 -293.196198 297.477905
-693.003235 -340.530487 476.016754
-851.358643 -280.523468 553.684814
-720.674133 -459.858002 153.381454
-768.271851 -385.342926 333.199219
-927.509521 -311.713074 386.566406
-833.838257 -360.058533 304.940186
-935.000854 -259.368011 523.850647
-993.288635 -279.072418 331.614685
-641.238647 -476.561157 236.855606
-814.423523 -286.452271 568.103943
-971.775330 -257.216705 468.791168
-846.101807 -274.295990 536.362183
-756.906982 -355.278381 372.952393
-739.068420 -444.343109 185.808228
-745.219299 -460.091125 162.624939
-1018.499023 -293.560516 368.181427
-749.822327 -313.117432 588.998108
-627.740295 -461.222565 243.042511
-695.627991 -410.398193 384.479248
-845.942688 -334.289093 364.460632
-777.130859 -383.219849 363.622375
-727.207581 -369.331573 422.442169
-810.913269 -400.492462 167.801056
-782.924744 -320.761841 543.385071
-684.769714 -448.810730 214.063507
-939.015503 -348.640503 200.846466
-927.014221 -385.779938 179.866776
-861.117981 -385.234741 210.587860
-693.954163 -396.642181 373.179291
-678.314636 -467.037140 222.466644
-933.389771 -320.346741 198.647354
-900.825256 -277.075134 470.478821
-668.021362 -442.281708 323.182892
-713.126282 -381.746765 423.330688
-884.829346 -423.701965 123.810829
-924.530579 -328.611084 192.940842
-677.049683 -386.074677 398.184784
-807.493896 -408.157440 180.109543
-648.700562 -421.334564 373.770172
-722.774963 -457.605438 185.068527
-910.140625 -357.902130 242.763718
-736.968689 -311.739899 602.924316
-943.639404 -292.779358 407.335388
-677.274109 -384.572479 404.669556
-796.417908 -414.065826 226.958145
-885.969910 -455.466278 99.352463
-754.839111 -394.985474 297.335693
-831.234314 -326.116425 433.039398
-927.632568 -288.325256 458.461456
-981.755432 -240.630219 512.343689
-961.710876 -272.057892 433.153229
-894.824524 -299.088959 432.330902
-678.934021 -420.061157 329.078644
-752.013062 -387.412994 333.017944
-919.820374 -275.835693 470.940796
-714.383240 -353.554077 501.023834
-859.352173 -323.793427 430.451996
-705.700378 -410.912048 330.569275
-955.930969 -283.104004 418.266174
-888.913025 -299.362671 406.505005
-601.395630 -475.506775 253.971207
-750.980957 -417.789185 229.305817
-1046.484619 -285.055969 506.166260
-773.319519 -288.993439 636.688354
-694.540100 -398.980835 363.692719
-749.200623 -334.076355 533.016235
-940.428040 -318.013947 210.124924
-719.873474 -412.766479 336.937744
-834.384277 -352.886719 382.710510
-833.335266 -271.371185 566.802429
-832.927307 -339.887115 320.983643
-916.899475 -256.737061 527.127075
-702.510681 -350.853668 514.752991
-768.222717 -359.537262 441.311432
-1016.247437 -303.135651 351.073547
-751.326111 -367.950195 397.652649
-719.231873 -342.548431 541.532349
-684.144409 -398.883148 444.143524
-770.488586 -267.056396 594.964355
-759.498657 -309.550720 570.072815
-822.464233 -381.525818 299.563721
-673.459045 -435.956451 277.915405
-753.008545 -452.659576 133.472565
-740.339661 -337.724426 512.614197
-826.792480 -393.376404 202.366058
-879.293152 -283.004944 527.257874
-852.489319 -465.177917 69.682755
-705.813477 -366.911011 450.479736
-808.633240 -379.196686 285.195831
-831.912659 -319.041290 428.382507
-941.582031 -260.531097 432.774994
-735.759033 -440.091003 228.257233
-785.518921 -333.590973 444.172943
-799.158447 -361.740448 359.836273
-711.665527 -404.893768 276.295654
-858.309753 -276.273346 520.878052
-709.267334 -354.278076 455.199341
-962.916382 -308.483215 268.721039
-812.440918 -370.864258 290.175781
-701.094421 -447.296570 205.736816
-752.647949 -346.634155 504.587738
-741.320618 -344.982269 475.708984
-616.828491 -478.336029 220.560333
-677.183533 -413.011383 361.108246
-819.388611 -313.334259 418.407654
-801.760559 -340.076599 413.671173
-751.185852 -449.501404 179.745712
-815.442871 -423.532257 185.576523
-925.603333 -279.616791 469.045197
-735.879700 -455.497925 183.919266
-816.611267 -316.464386 470.763123
-815.583496 -356.580505 337.907196
-857.854248 -296.467010 522.995972
-629.088074 -500.028870 201.859222
-1024.536621 -289.830505 372.674255
-858.498779 -275.445831 563.206909
-961.401123 -323.235016 301.385620
-829.247803 -355.957794 374.675049
-895.385742 -329.796783 327.528564
-844.049072 -297.046936 539.805298
-968.214905 -314.339203 297.502960
-771.632629 -388.869812 311.366730
-916.600708 -357.163055 239.990448
-760.092041 -340.236023 486.742523
-809.253662 -399.106445 222.574097
-744.159058 -382.738159 354.737335
-785.663025 -459.125793 98.214020
-709.755676 -401.299988 307.666626
-647.753357 -461.303986 279.138611
-698.455811 -461.899597 223.211639
-741.378601 -379.650116 418.466034
-710.992310 -405.750122 368.973083
-682.350952 -483.811432 152.265747
-787.809021 -308.076294 556.055603
-1043.006226 -277.273682 473.301910
-963.072144 -312.967621 384.035339
-922.793884 -279.724609 457.594025
-817.994751 -419.943542 170.901474
-953.675049 -282.975159 440.452515
-965.891113 -339.768524 275.451233
-751.982971 -379.318695 399.957886
-715.848633 -394.003601 369.729309
-643.007019 -470.342896 270.666718
-605.230469 -483.587433 181.778763
-870.406250 -327.889557 409.202545
-702.479797 -447.204193 250.934952
-573.943115 -498.429626 193.176453
-795.369446 -374.247467 312.353638
-952.675598 -251.651230 513.283630
-678.338501 -431.084747 334.822815
-991.761780 -251.575119 479.056854
-770.783081 -386.439392 317.895996
-849.189270 -335.605682 355.613525
-855.977417 -271.018707 560.553894
-806.087158 -353.833527 405.021606
-868.368896 -345.365051 293.989349
-867.317383 -272.348297 569.780823
-926.340332 -380.193878 204.175858
-1001.954590 -250.261032 475.185974
-630.768555 -499.842621 193.283157
-853.365173 -277.745392 527.294983
-752.821533 -372.500916 423.216522
-601.164001 -470.023834 218.268539
-756.034790 -347.031189 457.882965
-942.839478 -302.750397 393.382080
-829.249390 -354.382935 384.527069
-790.972229 -320.216003 525.404114
-665.702393 -374.724670 459.756592
-882.695129 -303.207336 448.708435
-827.068298 -283.154724 561.028320
-955.458435 -290.308136 419.373840
-769.633179 -344.903900 393.754730
-707.330078 -395.830750 355.615143
-1017.949951 -311.015411 381.964142
-656.009033 -449.755920 205.620270
-836.062378 -314.371521 446.075836
-790.488098 -388.607147 329.445770
-649.579163 -444.855988 290.857788
-892.899963 -376.058716 214.030228
-885.395935 -340.639191 345.221405
-968.809570 -263.608856 296.210327
-753.516174 -318.843994 527.656372
-754.100098 -417.751923 227.980927
-708.276062 -349.265900 525.563660
-761.397583 -293.510895 591.837585
-777.110046 -419.041382 190.243637
-877.954468 -324.300201 362.459686
-735.179871 -478.756012 129.851868
-784.776550 -322.190918 513.937378
-727.374023 -430.891174 181.882751
-980.277405 -329.616669 332.425110
-700.173767 -329.557404 535.357483
-631.150879 -433.770935 273.092041
-704.318726 -350.894592 503.214294
-701.109314 -403.972076 340.877991
-787.993469 -341.447174 423.906128
-718.968872 -408.324280 303.609039
-671.780762 -437.953003 274.041992
-721.114868 -419.707855 229.245560
-745.614502 -386.512360 346.371216
-787.073303 -313.893982 459.074921
-939.185303 -258.726837 506.998199
-810.849304 -302.290161 542.283936
-836.006714 -350.528900 382.494354
-1039.681641 -321.220886 415.462311
-772.588623 -360.666992 389.801514
-640.387207 -464.926453 180.200089
-906.619263 -288.057587 392.170593
-854.165161 -401.403107 185.562424
-776.376160 -327.251892 504.920929
-662.686951 -424.226105 327.166351
-958.028320 -318.276978 293.397858
-677.337463 -411.226227 407.612854
-786.946167 -394.836731 255.681839
-758.002686 -407.575745 251.791092
-893.380920 -275.367157 535.157104
-720.507019 -376.070251 445.458466
-713.538879 -428.768311 249.024399
-943.096130 -271.238525 423.607758
-881.803162 -356.892609 286.935425
-708.622742 -371.455109 454.006531
-980.835083 -297.221924 303.385681
-754.889465 -350.493530 448.230194
-638.330566 -483.508881 198.308884
-860.536743 -337.245880 379.287842
-1026.253296 -268.623413 464.496704
-964.927551 -311.599823 283.753235
-702.186829 -403.069824 359.864807
-696.281006 -384.642944 355.479370
-835.280273 -306.152466 495.947449
-687.034912 -369.711029 453.109528
-798.970093 -332.192078 490.047211
-753.829590 -318.947357 468.160736
-839.389465 -417.789551 147.801804
-960.853943 -289.396942 316.177734
-712.351135 -464.064026 128.807312
-751.626099 -425.942932 225.022964
-1007.132080 -280.603760 348.404388
-875.099426 -342.643890 305.691132
-767.959778 -308.136871 588.829407
-706.120850 -376.297943 416.309540
-688.795898 -407.315613 366.068298
-979.950867 -283.716034 348.369476
-858.428528 -404.312195 142.052414
-678.134460 -404.822388 385.826355
-786.154602 -443.404419 141.864548
-997.009705 -246.604065 480.497375
-1018.273621 -320.793579 376.974457
-730.576538 -315.841736 555.204834
-870.074402 -425.190643 131.021591
-918.105713 -264.305328 442.277771
-892.791687 -315.235168 404.347656
-853.144470 -330.589172 386.383575
-758.552002 -439.685638 209.423172
-752.045044 -286.195831 609.457642
-805.159668 -285.305054 603.333008
-906.457764 -282.045319 409.329620
-803.093384 -270.545532 596.703064
-687.037964 -381.182709 445.593689
-971.752258 -248.426361 445.210754
-729.645569 -348.937164 524.165588
-925.016357 -329.043060 317.573456
-690.270508 -375.806580 458.728882
-819.122986 -315.258545 454.448547
-760.928650 -375.549713 366.692047
-735.295227 -342.247162 530.561218
-720.323792 -376.868103 415.652863
-866.351379 -373.951080 204.118484
-686.180603 -425.059265 301.474335
-838.071411 -377.282410 247.851624
-760.267395 -414.974976 245.493423
-784.321350 -314.742035 542.285522
-889.928833 -319.402435 341.308838
-707.548279 -423.044495 326.221954
-773.005066 -354.555298 449.542938
-786.425476 -326.077637 523.332275
-672.051208 -451.522522 274.951996
-944.005066 -261.208862 483.612091
-978.386780 -274.121796 306.428772
-661.577332 -441.039307 230.342667
-764.855896 -353.716248 459.831879
-1044.402710 -278.820068 473.893799
-938.853882 -261.051971 506.073120
-771.597900 -403.176056 215.441040
-748.833801 -368.007324 398.721069
-758.381714 -330.785065 497.632019
-874.141785 -313.765259 352.334320
-698.844971 -480.578217 161.205353
-785.877258 -320.514709 518.354797
-597.108215 -495.824310 202.235504
-947.171631 -306.348419 307.745087
-642.468628 -421.221069 338.413544
-793.845459 -315.720276 500.744293
-752.811584 -361.558807 425.664459
-875.559753 -332.349335 339.552887
-778.419128 -311.852051 517.882080
-690.570557 -385.554840 410.229553
-812.346985 -291.463440 550.212585
-762.901428 -349.005127 478.278229
-723.056274 -370.980560 425.937347
-867.653320 -326.868439 365.214966
-635.013550 -465.840668 224.235718
-937.315796 -266.699585 441.919464
-838.309631 -297.174866 522.671021
-827.519836 -380.028076 297.157928
-873.504395 -281.476288 451.772156
-742.050293 -397.654083 365.194641
-799.157837 -433.566254 171.297638
-719.369141 -456.155396 178.366547
-787.396118 -430.402252 163.988327
-935.541626 -364.568115 258.636688
-696.550842 -421.521698 327.670959
-735.830322 -411.431732 313.390411
-648.231812 -422.528961 358.620667
-801.577454 -401.457642 172.835266
-849.654602 -286.594513 546.927002
-906.367554 -304.924225 423.578217
-868.703430 -378.029694 238.828766
-799.532410 -373.295776 295.357574
-659.017273 -420.176025 286.627106
-706.087219 -445.954529 203.558487
-772.041870 -359.224701 442.361938
-790.494751 -330.482208 489.490875
-669.669739 -479.682465 155.271027
-799.112305 -298.579895 588.773743
-667.764832 -401.169250 408.943634
-615.219727 -456.383057 322.817749
-675.523315 -431.582703 292.851227
-838.271240 -421.759033 103.282883
-715.857483 -338.938538 456.285614
-626.460327 -456.748413 216.053345
-823.376831 -289.774628 573.144348
-661.870239 -427.487976 331.284088
-865.576660 -427.687927 133.506821
-908.022156 -304.373352 384.202911
-686.619873 -385.611328 413.512878
-835.856689 -342.044159 397.001526
-731.443054 -316.951782 566.744934
-824.351501 -287.915588 523.068359
-826.211914 -257.631958 571.280640
-891.183105 -269.069794 465.939606
-965.088318 -321.273621 334.491425
-845.251343 -339.842896 375.180023
-782.676331 -309.167755 565.441223
-727.402405 -475.584167 144.435806
-795.246094 -354.646606 396.231781
-734.327026 -312.390869 604.120789
-763.045715 -381.403870 328.367310
-769.757874 -292.917114 597.706055
-758.412048 -422.122253 164.457581
-792.267029 -409.043030 199.474197
-740.792053 -405.294922 325.320557
-894.982178 -415.821411 170.691132
-956.261719 -330.386505 263.555756
-934.430908 -305.694763 398.746460
-664.304443 -445.381439 224.252396
-1018.610474 -288.405273 436.017395
-753.155457 -336.413788 482.538513
-811.245483 -311.495636 520.955566
-762.598816 -365.660278 388.214813
-708.285034 -461.810974 212.111969
-730.920532 -383.512329 377.067810
-776.535889 -327.564148 514.216003
-746.851318 -329.668121 508.305847
-734.265320 -431.089417 213.545044
-705.847595 -360.380463 528.882202
-810.984985 -381.835449 238.984818
-847.938843 -278.930389 569.617065
-998.646423 -323.481476 353.420685
-972.082397 -271.782196 282.537872
-759.828247 -344.963654 480.946777
-941.225708 -354.870544 253.096466
-681.398499 -371.636230 468.056519
-941.277405 -255.318100 536.083801
-653.560730 -433.264648 282.845978
-834.702454 -303.487610 529.108398
-691.380554 -372.536774 480.679749
-956.848755 -253.162155 266.503754
-784.869568 -325.580444 518.190918
-899.810730 -310.383759 377.092102
-930.960876 -278.010895 444.162445
-717.666382 -425.522614 299.698456
-853.895752 -332.691101 398.729828
-1033.526489 -321.093445 387.792084
-831.251343 -375.962891 297.466309
-893.033020 -402.370178 174.821457
-849.362000 -277.064972 570.309204
-880.471924 -311.373810 407.079254
-965.888428 -230.121964 487.143036
-798.016479 -410.387177 189.593002
-802.365723 -271.398987 604.142761
-1023.121521 -290.736877 407.616577
-922.603577 -281.729889 487.343903
-847.704529 -405.147552 183.433685
-730.396118 -329.279816 516.095581
-785.537903 -377.172516 317.014191
-943.636719 -257.556030 241.733078
-781.060547 -389.294556 262.128204
-742.999390 -473.930756 121.995567
-896.588867 -289.573730 424.061279
-819.480042 -395.515381 204.587311
-759.160583 -383.976563 376.135986
-731.195007 -402.632935 312.267090
-675.503967 -415.237732 386.759033
-792.803406 -310.983734 559.124084
-686.240051 -416.666321 336.418152
-833.274536 -437.213318 107.629539
-767.360535 -300.661316 611.302734
-722.329285 -395.075592 356.885620
-776.587708 -284.375488 542.843445
-823.144897 -318.304749 457.710724
-636.733704 -432.961365 338.820435
-641.759277 -422.665771 377.384552
-815.614929 -421.264801 131.909561
-771.079529 -329.430176 522.209167
-997.420288 -288.670135 340.068512
-931.904419 -281.643158 453.277954
-738.938721 -434.024414 244.043442
-694.712219 -400.769989 381.068573
-800.069397 -422.900513 186.510468
-1044.485229 -277.186951 471.055756
-978.886230 -325.745544 324.503387
-703.005127 -348.936462 519.247559
-882.828857 -276.221954 535.015503
-715.439392 -404.921295 329.889038
-672.218018 -397.234680 364.334808
-713.572327 -362.485687 474.664459
-740.524170 -312.674011 564.126831
-916.177612 -393.105042 214.005081
-794.337402 -446.281738 135.043121
-957.693970 -304.434296 224.112473
-800.258423 -306.173340 540.118042
-721.420166 -341.679779 526.954224
-988.310303 -286.767090 327.002258
-713.338013 -441.478821 198.927567
-763.885681 -410.702209 253.739212
-833.049072 -420.381531 131.709259
-795.208984 -339.715973 429.706848
-703.756958 -422.462158 284.913025
-936.853821 -370.267395 177.426224
-820.979187 -361.084991 315.655212
-673.977051 -459.383789 192.243515
-661.534668 -388.409393 403.237640
-725.895264 -337.130554 539.723877
-752.910645 -331.011200 512.444336
-814.021179 -434.523712 125.752274
-614.081543 -494.446747 211.157166
-744.375305 -339.027557 506.771088
-917.722412 -293.235809 412.469299
-692.327087 -375.966248 494.344421
-709.003845 -434.205200 289.312378
-834.119995 -324.075073 426.829742
-881.145264 -315.951172 432.695618
-951.791382 -312.293915 234.174362
-816.673035 -392.573181 168.451050
-828.403442 -278.874359 583.830261
-759.722839 -382.142212 339.685974
-739.962463 -464.681122 116.818459
-768.914551 -364.486816 425.966187
-914.952759 -261.006897 524.103882
-738.368835 -299.293823 616.083679
-810.665344 -419.558777 183.981918
-738.853027 -332.350891 526.946716
-722.111145 -340.744843 496.521332
-722.897034 -417.031219 317.635529
-815.898804 -282.592773 551.799988
-687.104370 -483.676941 167.541824
-905.301453 -265.138184 505.765228
-924.298645 -363.461578 250.949310
-811.051758 -348.400330 394.730347
-659.901062 -404.081726 402.336823
-712.179077 -446.326630 213.697479
-794.409241 -432.760773 150.074188
-853.423462 -365.777374 317.578796
-710.907837 -427.980255 251.470184
-849.259094 -442.249146 92.445427
-1027.348267 -304.150665 382.977661
-859.017578 -302.569458 466.871368
-892.539185 -358.612732 215.116562
-638.740417 -433.699249 323.083191
-586.031982 -497.477386 246.573364
-660.478699 -429.364624 327.001190
-706.265137 -374.628967 442.594818
-945.151794 -244.087738 480.982208
-760.017029 -392.279663 351.117584
-781.784729 -361.864838 317.511780
-935.987122 -345.699738 200.833603
-806.551514 -318.584656 477.633331
-713.108948 -366.208893 498.103210
-715.461182 -429.310181 289.626831
-741.265686 -377.179138 369.577057
-851.636230 -305.837921 479.880524
-632.475342 -430.039490 318.629883
-843.828247 -302.139191 525.538635
-718.226624 -389.650360 383.271179
-658.433289 -472.870758 191.307632
-770.362183 -316.030273 570.054932
-895.606140 -397.779327 146.716827
-740.102112 -376.091827 381.739838
-790.979736 -414.146179 145.376556
-943.568787 -284.459778 415.506531
-897.436279 -266.152191 554.778931
-657.925354 -496.107208 177.595856
-820.910583 -420.493774 154.552429
-679.075623 -389.783264 457.650024
-743.868713 -358.721893 481.164185
-812.986023 -314.681610 482.423340
-953.998230 -352.511078 290.570496
-718.171570 -327.923615 561.610962
-726.132690 -341.554626 517.761108
-810.981506 -417.876251 143.740128
-751.410400 -315.945282 540.682190
-655.890808 -438.434448 286.544525
-911.004211 -400.724609 189.691345
-810.063171 -290.783600 576.418762
-609.287109 -442.424286 282.560059
-906.624329 -359.394012 214.998413
-823.192566 -306.142578 494.447113
-704.673523 -372.912628 487.011078
-748.965149 -319.358887 537.080688
-942.064209 -331.833344 247.034576
-705.146851 -408.858856 332.528687
-748.004150 -352.383362 436.285980
-801.618469 -427.970795 116.938629
-580.869629 -503.115540 208.591660
-949.303406 -324.760437 234.336502
-816.000122 -382.586456 264.777527
-701.157288 -443.250824 276.095032
-749.697754 -336.369843 479.983032
-952.750488 -313.602142 203.008224
-816.292969 -275.629669 579.462585
-634.798218 -482.940765 213.437012
-710.542297 -410.656860 286.703918
-750.395081 -372.168121 411.253662
-784.930420 -321.211731 532.804993
-797.097656 -309.087463 543.916382
-856.182800 -379.016541 250.398071
-639.472229 -458.861053 315.439789
-794.869385 -359.154022 413.150085
-971.066284 -275.023804 279.796570
-988.122375 -306.482208 348.601685
-907.969910 -340.880188 308.817657
-814.862183 -338.368958 406.145782
-645.966736 -438.537689 303.492035
-913.417114 -289.081207 445.437286
-763.593445 -385.013367 368.174896
-888.117126 -268.069427 542.231689
-842.015442 -321.234528 453.367950
-837.530334 -321.328552 464.237579
-946.925049 -321.755249 218.396225
-911.056824 -289.133911 459.098969
-820.101501 -399.894440 247.496719
-736.288391 -316.856812 555.730286
-864.774048 -351.479340 300.203156
-842.486084 -353.249786 323.400787
-918.083008 -288.796356 438.677643
-783.408203 -362.550354 375.661560
-922.065186 -382.130493 166.415543
-762.070496 -445.319702 121.899902
-723.295959 -450.680145 211.020218
-670.072632 -458.939728 261.981537
-700.549194 -386.580078 415.870667
-761.265686 -308.148285 594.690247
-953.479736 -254.782700 484.793213
-737.048340 -323.838226 573.311646
-728.068787 -352.451111 469.266357
-723.970642 -361.041595 400.169586
-948.774109 -285.893250 436.464874
-812.367920 -344.209442 400.560791
-912.984863 -285.601868 490.255493
-771.947998 -420.656311 192.350815
-892.902832 -269.037384 545.025757
-984.720825 -264.954285 337.127899
-849.134888 -302.752533 515.516846
-960.192932 -293.752258 406.727112
-801.265625 -373.323669 307.337402
-1007.355957 -310.474487 377.799988
-812.597412 -390.722046 229.332733
-719.302979 -474.842529 141.240723
-660.838867 -489.389923 178.838150
-728.211060 -453.447418 190.939682
-940.720947 -330.894836 222.244568
-777.371582 -410.884277 195.436081
-734.832581 -379.424500 384.459106
-811.709106 -287.363586 591.991943
-743.979919 -395.070953 322.902435
-803.895691 -449.319000 94.707779
-924.993774 -328.712250 329.127594
-869.018677 -278.815186 552.593262
-775.195862 -317.286743 518.834351
-962.531372 -256.967743 510.639679
-791.690430 -393.089417 196.438492
-836.369629 -399.991913 222.891541
-884.323120 -287.108704 496.336609
-807.772644 -287.852997 593.251282
-992.175537 -253.054291 347.140991
-949.747437 -293.969788 421.314087
-924.435791 -271.126678 496.545258
-766.001465 -374.650238 330.773285
-907.617554 -316.128998 333.883514
-836.164795 -395.631439 225.022980
-768.994263 -326.286774 497.273834
-972.909912 -315.238922 322.874054
-824.111328 -366.081055 325.801941
-631.975464 -445.583282 355.530151
-715.396484 -452.241455 181.072693
-1015.441589 -284.908325 388.752289
-733.113281 -378.007111 402.093719
-930.311829 -287.706879 438.546112
-737.191528 -414.133972 260.504272
-837.871277 -378.372314 200.881531
-967.854004 -264.283417 300.607269
-847.926941 -309.505798 453.994507
-752.496521 -418.433868 228.052094
-918.447021 -350.206635 173.739990
-705.404358 -363.122284 478.866180
-663.491638 -481.470612 202.576172
-870.085876 -474.633240 60.487072
-765.040466 -436.471680 192.974182
-896.932251 -403.811859 171.195068
-706.872192 -437.231964 188.021362
-983.630554 -289.293793 306.270874
-982.414490 -241.017776 472.018005
-665.257446 -428.615234 324.860168
-779.232300 -423.674347 193.588089
-879.298767 -423.006622 149.318909
-745.251404 -397.710663 311.772644
-787.462830 -381.762848 311.563507
-795.139160 -415.570160 123.811340
-914.851868 -257.429657 522.688232
-846.321655 -317.967499 457.748718
-699.627258 -363.261963 475.592407
-934.447144 -348.807098 277.932983
-776.180725 -366.538727 357.282776
-628.496033 -446.777863 276.498047
-917.849670 -317.060333 381.958954
-772.413635 -435.108734 100.034882
-721.711609 -453.444427 143.456680
-863.847717 -402.644440 156.568848
-834.759705 -347.020264 399.332642
-869.089355 -355.642731 266.604614
-659.231079 -445.081726 262.885437
-881.444519 -261.177124 546.189636
-786.024841 -288.897614 572.558044
-635.748169 -453.246674 323.014557
-811.694580 -292.784973 580.710022
-756.411926 -430.391815 182.629959
-753.289246 -367.576416 383.738800
-838.134949 -348.562012 321.341431
-783.871826 -318.405060 504.753357
-801.570068 -391.927307 286.140228
-853.632874 -301.146576 517.828491
-765.875732 -306.634338 581.748047
-812.061523 -333.179260 428.097504
-794.355835 -412.286835 185.208755
-991.851624 -303.404266 335.945496
-1039.574707 -280.923218 475.063477
-857.543213 -345.466492 310.512665
-871.313171 -359.727051 299.624115
-786.745117 -290.269836 572.215027
-1009.436096 -296.671021 431.694885
-815.750916 -400.119843 195.648834
-953.399597 -303.627075 248.291550
-754.926514 -381.015503 361.975800
-1029.810059 -277.986053 478.964111
-845.690796 -369.124756 301.094177
-922.831848 -296.109863 368.903259
-720.375916 -421.992920 298.405884
-765.800049 -422.333069 216.935257
-753.343201 -389.131134 295.325378
-973.434692 -289.316223 285.123840
-654.094360 -460.387909 231.912842
-739.580566 -336.877106 531.039063
-901.739380 -300.269165 411.611816
-863.471130 -254.611115 533.573120
-731.392578 -310.787201 569.729065
-973.479919 -308.157806 376.633881
-820.422852 -344.101746 426.043579
-824.529053 -313.239990 472.201019
-787.481262 -295.515137 582.759583
-867.287903 -324.991760 386.308258
-843.627319 -338.554230 397.671051
-739.457031 -362.801300 373.973816
-680.031006 -366.807404 447.725616
-947.923096 -313.726135 252.986633
-732.925476 -465.081512 126.472260
-742.477783 -425.866150 218.785233
-820.895081 -399.680023 238.331146
-641.381531 -436.682465 293.884827
-899.377747 -342.115326 284.414124
-704.811829 -431.208801 250.111389
-724.668335 -362.805878 443.764771
-834.658691 -363.611298 333.936615
-930.755432 -354.680969 228.234360
-730.952515 -435.467010 205.682373
-787.720886 -400.495941 201.963486
-787.323914 -348.684021 419.143066
-773.776917 -298.888550 541.310852
-820.957703 -273.007477 593.084106
-944.184021 -323.341644 265.661011
-829.136353 -366.246857 317.895477
-714.901062 -337.529968 556.458435
-694.402283 -464.125305 194.301117
-855.714355 -408.888489 132.477997
-760.800598 -307.902985 493.355255
-819.937317 -345.917389 378.898621
-784.984924 -424.182037 222.488602
-953.313721 -295.615082 348.586945
-938.700195 -286.734955 451.462036
-955.030273 -247.337311 493.428375
-787.825378 -289.914856 602.944458
-901.297974 -316.115051 348.768188
-804.247314 -332.304108 378.613190
-750.828247 -374.738373 383.353149
-646.626587 -441.701782 350.255035
-756.354370 -378.916290 300.207916
-661.761292 -433.111694 304.630981
-891.721497 -292.278229 488.205078
-584.972107 -489.654022 236.740204
-801.645752 -319.018738 473.179962
-655.463501 -441.745483 294.807037
-937.923462 -291.211121 403.098663
-834.997559 -318.252563 479.441589
-778.372314 -380.655029 335.747009
-756.042175 -297.954041 567.921814
-786.953003 -358.260590 386.435608
-842.045349 -297.692108 516.346497
-925.510559 -285.569641 424.854279
-960.057312 -324.453583 260.144775
-918.765930 -281.605591 473.629486
-982.429993 -310.864929 345.489349
-839.592896 -406.596436 158.662079
-974.480896 -297.236633 294.314514
-660.969177 -436.453308 304.346130
-676.661560 -457.025055 198.305008
-720.630371 -443.717041 189.568542
-932.398865 -379.897491 227.828125
-793.705139 -286.479095 605.654114
-592.784302 -491.595215 202.579681
-755.407654 -414.399536 278.634338
-793.858704 -292.171844 576.450806
-818.445496 -414.587036 186.483597
-909.640747 -263.884521 551.670959
-946.564453 -255.093719 472.697388
-938.506592 -355.599762 179.931580
-653.794434 -469.230621 186.968796
-938.331543 -345.723816 186.841324
-984.104309 -319.265167 370.621582
-771.342773 -318.496155 520.120483
-929.365295 -352.131805 179.667938
-724.179077 -473.236847 138.552795
-600.593750 -489.206848 207.059982
-892.544983 -282.268982 512.673950
-933.807068 -275.902740 443.408020
-778.133972 -444.154846 106.463020
-824.109070 -395.724854 261.042175
-972.115479 -302.726898 309.057983
-727.728394 -356.613983 480.376282
-941.969116 -281.669189 419.982117
-977.507324 -259.445160 475.920380
-820.341064 -309.055481 517.863708
-739.691101 -307.459167 597.563538
-663.348816 -480.319122 177.509308
-668.413208 -447.905182 291.855804
-691.366333 -468.595520 186.408936
-752.398010 -331.183014 431.353180
-692.393616 -402.596832 402.917664
-947.609802 -260.503937 502.673584
-730.064941 -389.576874 403.254944
-899.957153 -307.803802 396.133942
-681.223938 -471.380981 167.724487
-698.538147 -459.533203 168.748901
-651.819641 -417.582153 371.874695
-676.918884 -425.629395 351.474152
-756.593628 -319.421112 573.896851
-701.523376 -353.451202 520.917175
-903.374146 -364.946289 235.714066
-761.661072 -297.549011 612.968750
-606.690491 -465.428680 239.307465
-878.912231 -276.974609 536.705444
-967.450806 -303.035767 249.058426
-762.987183 -388.410095 329.004272
-834.632813 -312.118683 453.765808
-834.421448 -364.852905 339.941620
-773.850769 -449.067261 99.319572
-773.958496 -426.129456 190.602600
-1027.897949 -307.080322 407.463501
-728.906250 -431.517548 274.708038
-785.527710 -432.455841 179.564499
-785.701843 -301.892548 582.620667
-819.098267 -363.988068 339.762634
-990.774536 -301.239746 388.481110
-954.196350 -320.975006 217.163986
-624.164551 -453.095734 286.506042
-655.441101 -416.335205 359.631195
-819.318726 -285.204132 506.544830
-877.789185 -298.045837 486.667480
-970.688538 -265.574310 274.164063
-830.924377 -298.140625 508.199677
-653.509766 -413.856873 386.390503
-830.438538 -288.212799 563.387939
-925.962708 -273.579254 490.657928
-666.047607 -431.164978 296.713348
-827.465210 -359.786133 364.678711
-741.430908 -395.305511 300.251709
-939.350220 -337.608704 191.942245
-805.247498 -335.783630 429.439575
-672.164673 -420.564209 303.404968
-756.303406 -459.644226 133.272217
-857.179504 -320.558380 404.056030
-743.582581 -362.836243 438.985535
-758.049316 -457.904327 115.815941
-936.815613 -283.521820 421.735809
-908.718079 -375.951508 222.128189
-788.760193 -303.293976 582.891357
-805.390625 -452.173309 105.321564
-744.286377 -408.563782 276.728271
-718.290894 -427.998230 242.417679
-742.627136 -394.305634 321.921478
-731.915161 -424.627319 291.431793
-950.110474 -254.332596 543.129028
-781.427795 -422.982941 128.305130
-678.663879 -411.078766 394.908417
-719.074097 -426.406830 302.903198
-764.273132 -278.351959 614.121155
-840.599121 -284.240631 483.875458
-938.139587 -318.341919 369.338074
-759.380127 -294.891388 637.043579
-836.019165 -414.960724 146.645767
-711.864136 -357.774811 460.624115
-933.319885 -364.874603 228.619217
-722.313293 -376.286285 421.603851
-925.253052 -336.863129 285.692352
-671.896545 -435.087891 328.875122
-750.329407 -407.798950 202.821564
-957.472717 -336.031281 273.689301
-904.028625 -429.511597 154.588226
-978.119995 -285.198822 292.178711
-955.350952 -318.931549 233.608444
-758.604736 -335.822784 485.007355
-777.939697 -375.863403 346.492310
-731.593628 -334.632446 576.537048
-751.942566 -380.849060 326.893250
-768.912964 -382.278900 270.268768
-733.035889 -324.230011 596.067017
-775.516296 -349.550934 427.762573
-846.109253 -382.800385 255.257690
-684.435608 -401.437164 396.760834
-787.634827 -301.296051 535.985107
-922.623535 -354.934570 164.369476
-874.174072 -392.950592 176.569702
-957.471680 -307.961548 246.192230
-737.336243 -418.546356 246.520874
-781.595459 -290.875397 597.758301
-640.860291 -443.616882 301.039948
-698.578735 -389.717346 385.910980
-769.429199 -435.273621 154.169373
-824.215637 -357.138367 356.073547
-745.812927 -367.951874 392.434998
-859.851929 -333.210449 362.830963
-847.479614 -333.804016 384.653992
-653.964355 -444.725891 319.408875
-841.639343 -370.359283 217.186966
-865.032959 -376.756592 240.215271
-800.753967 -281.605621 576.477661
-691.921570 -490.667358 151.907440
-756.793945 -441.848846 210.788559
-810.974854 -315.707672 463.077576
-773.549316 -395.780731 247.418350
-851.781555 -353.264191 279.589691
-771.984253 -342.845673 389.384277
-1006.283447 -227.316315 508.026123
-916.085754 -278.625977 480.281189
-776.860718 -358.462341 409.022430
-743.409058 -382.065155 407.595245
-949.582397 -296.745697 270.571747
-813.715088 -368.768555 329.494110
-795.430359 -440.176544 156.877945
-891.012451 -352.365509 281.988708
-966.436035 -251.350922 509.842987
-678.826843 -458.449585 189.630966
-831.013245 -290.779602 557.999695
-805.118774 -436.872162 151.405441
-985.567932 -265.543518 317.837402
-862.148926 -343.325836 371.594238
-815.494507 -288.483002 593.830139
-814.061279 -301.795593 546.951416
-752.045593 -327.173065 507.911865
-839.863159 -367.357361 286.501556
-687.585571 -417.749420 373.486786
-634.166382 -462.560150 248.098083
-751.494751 -401.745819 265.260315
-647.362122 -443.732330 333.413940
-916.883301 -347.322174 197.228104
-766.069824 -297.705383 594.375183
-911.681763 -369.086273 222.507538
-761.121155 -347.372559 492.027161
-736.972778 -429.535126 190.294388
-835.099426 -290.742859 470.057648
-940.866150 -306.167786 362.464050
-740.377502 -395.520905 332.703552
-829.772888 -330.828064 447.178467
-928.557922 -314.380676 202.979156
-958.923279 -304.964539 263.175842
-800.210083 -286.850281 598.585815
-772.460815 -306.578735 502.158264
-846.698669 -384.531616 207.667191
-806.869141 -321.725220 502.527405
-710.052002 -345.734802 546.340820
-679.297913 -432.718933 279.322571
-854.581726 -315.618958 428.632050
-785.865356 -417.873077 134.714600
-740.246582 -402.938965 273.781403
-869.763245 -327.248322 369.946564
-802.097961 -346.121674 437.908569
-646.957458 -434.993256 310.947296
-668.511108 -454.339935 260.721313
-874.227478 -349.921082 280.707611
-756.569946 -373.815186 377.530151
-595.605713 -496.524048 249.735168
-739.784058 -360.325104 438.559753
-666.689209 -409.657501 418.368195
-662.918884 -406.062592 344.855042
-834.139404 -368.124481 303.662598
-968.172974 -277.647644 309.744537
-783.937378 -344.098358 438.255951
-877.876221 -288.259857 525.274292
-756.097229 -404.983429 263.215881
-635.707397 -467.863495 209.531097
-721.554321 -460.692993 182.514633
-659.597046 -479.474579 195.017914
-783.323608 -342.239655 438.233551
-845.525085 -336.087555 380.255890
-759.585144 -333.112732 536.174805
-730.241760 -340.675140 487.730774
-696.975281 -413.133606 325.652252
-774.117859 -369.318115 391.632385
-978.801880 -295.801025 328.116913
-711.681396 -347.585541 526.977722
-814.509277 -355.600708 351.046143
-713.962463 -398.641876 346.376160
-892.347168 -262.988251 542.444214
-853.030457 -276.391907 546.499146
-966.624329 -273.783264 310.586609
-959.523987 -260.682739 280.396057
-751.000000 -300.241394 582.345886
-800.718506 -335.723724 458.567383
-682.625183 -434.820251 313.701019
-903.367798 -366.287170 249.426849
-919.435425 -265.046021 528.036987
-963.758545 -298.871887 245.101624
-875.599182 -267.379883 577.243591
-696.631042 -406.614685 288.661652
-824.940918 -418.169617 127.156708
-788.423767 -441.640930 83.108261
-808.171326 -290.394012 576.034363
-1027.045654 -290.094757 390.527588
-733.325745 -377.166382 403.473267
-759.079529 -300.704346 640.456360
-881.179565 -314.321411 342.321686
-1006.900818 -272.299164 345.684143
-910.874146 -292.778442 428.810394
-604.358093 -480.628082 208.364227
-963.244873 -306.110413 307.937988
-678.514038 -476.179352 199.488358
-756.322083 -321.417786 539.411255
-816.928345 -318.465332 456.561340
-793.736938 -389.178040 238.648987
-825.262695 -297.663086 548.126221
-861.656128 -271.189087 573.817139
-943.366638 -268.324158 471.926941
-834.978149 -353.706268 325.761169
-938.721313 -383.075165 183.651443
-968.728210 -264.037415 269.564545
-741.607300 -346.357178 486.424408
-814.093323 -405.809662 174.382416
-907.304443 -331.526367 351.215302
-806.695007 -369.346588 328.356384
-670.849976 -444.897614 300.340149
-791.385681 -415.013397 222.851563
-698.276672 -473.307922 177.618668
-698.553406 -399.400848 404.909546
-701.700012 -407.842468 373.394867
-673.032043 -440.971436 310.249634
-1004.544739 -290.483093 400.799683
-955.485474 -276.344513 278.422394
-636.309570 -471.483154 231.643265
-947.353760 -279.814575 457.036591
-990.786255 -253.220001 344.486023
-896.140930 -317.763458 389.567474
-931.948242 -317.019501 181.232208
-620.977844 -460.690491 294.180817
-876.891785 -350.206024 326.775879
-765.891785 -462.024078 101.881523
-790.667297 -394.514587 294.498962
-903.125671 -282.524780 482.887665
-749.188171 -386.569672 390.753906
-744.425415 -467.495789 130.136368
-882.199341 -290.755371 480.669983
-807.841919 -292.432434 558.318604
-827.877869 -301.478668 490.508423
-801.113586 -363.997223 340.819550
-747.476196 -399.205353 242.861877
-854.812500 -282.801941 549.691589
-722.221375 -322.272247 574.438599
-957.399963 -289.565826 303.712433
-824.477051 -351.990143 397.369110
-743.289185 -351.375916 500.068756
-970.656677 -263.003723 274.205048
-850.132141 -353.623779 335.145691
-917.188110 -381.185394 214.368347
-770.909058 -341.580414 457.771790
-737.193726 -400.932373 351.108734
-714.564819 -438.298981 217.518127
-874.719849 -288.531830 428.458221
-917.324585 -363.858368 253.645325
-870.157043 -351.344818 341.107361
-713.464844 -383.409790 366.757629
-918.806274 -340.685364 182.651581
-799.979736 -412.824341 236.216080
-974.597351 -270.987213 275.813202
-915.165344 -425.795837 146.602127
-945.631287 -356.964752 265.338043
-691.219177 -440.944275 296.477875
-945.553223 -260.350494 501.132629
-926.485840 -377.284973 221.061340
-837.102051 -340.336334 358.389099
-610.767883 -487.690430 252.984787
-939.734741 -259.651367 232.804184
-846.441345 -329.879425 384.128357
-615.282166 -455.193542 285.045410
-850.693237 -356.899658 308.303284
-702.551270 -452.345093 176.733459
-725.251770 -334.337494 543.925476
-851.718567 -304.590240 445.520447
-768.304077 -386.345856 283.579041
-718.611023 -391.181152 356.217010
-938.293030 -320.669189 196.320221
-676.837830 -418.137054 344.215271
-876.034485 -281.989471 524.244995
-942.102539 -273.368164 455.404694
-627.310120 -427.033661 308.717621
-654.903870 -461.504303 229.478607
-811.487366 -408.024109 235.804993
-880.445923 -333.823425 377.913849
-833.091492 -395.371155 181.847000
-823.147522 -316.912811 407.026093
-819.437683 -299.192810 552.591858
-853.870850 -325.164948 381.703064
-972.894531 -277.626770 291.551941
-914.137878 -306.627167 411.415710
-760.456360 -418.049377 185.186401
-788.493408 -293.385651 583.826111
-968.920105 -342.178070 287.890656
-737.985840 -472.382843 115.556038
-778.211548 -450.490723 143.359238
-899.920105 -352.312500 241.696732
-897.007019 -281.999207 461.449432
-641.254395 -476.039917 238.634125
-679.186279 -403.646790 293.002380
-931.887268 -288.262360 216.279083
-992.578308 -259.247681 451.314819
-785.347900 -419.332794 226.624695
-741.111511 -352.149628 458.041046
-864.059998 -288.312469 520.567322
-839.653870 -382.479889 174.919098
-655.297485 -488.687042 168.591339
-807.222473 -336.928894 360.855988
-728.328003 -472.651367 148.520447
-583.585754 -522.228577 200.988220
-831.638855 -282.655670 555.159485
-780.424927 -316.212616 504.204010
-643.186584 -481.539673 197.392593
-787.870056 -298.070496 609.905945
-626.376587 -440.539215 254.753754
-821.587219 -356.587891 337.352936
-872.261414 -349.106110 275.768066
-601.648010 -491.604889 203.406891
-740.874329 -385.971191 398.742920
-754.788208 -348.357422 469.303375
-868.442505 -371.768707 208.401825
-781.476257 -333.137024 492.010895
-902.084412 -289.654419 491.267090
-980.328308 -253.259216 291.607208
-968.368103 -249.419098 521.869263
-794.609619 -403.042877 226.910156
-856.631042 -295.861908 479.875305
-721.188049 -367.436462 383.897034
-750.046387 -320.931610 466.986359
-648.858337 -429.055267 328.819641
-839.412781 -359.509460 293.321472
-736.698181 -339.515137 426.313782
-963.675232 -312.733673 267.054688
-619.824463 -466.489532 252.721252
-748.360107 -398.278931 295.787994
-766.666077 -443.480743 108.477776
-738.130737 -329.581940 538.977600
-892.584045 -298.499146 420.904419
-685.578735 -401.052277 368.169800
-778.854736 -423.615051 172.168915
-807.353271 -311.527435 536.347656
-869.085022 -356.365051 281.117188
-869.750671 -360.260986 249.950378
-727.895569 -429.378540 225.877808
-875.383728 -314.258362 414.649506
-749.154663 -401.438477 295.960175
-723.171753 -455.268738 143.969193
-785.970093 -299.977783 575.734619
-800.564941 -354.299255 315.816772
-825.981384 -358.571625 336.639832
-797.793579 -395.475433 245.169800
-863.658325 -293.458527 482.745911
-602.558472 -437.226044 321.831207
-849.751526 -346.312164 320.026428
-938.438416 -260.930237 541.902649
-933.889648 -254.801849 449.533844
-923.441650 -268.682892 506.877594
-588.360779 -499.596649 190.516342
-765.136230 -431.704102 208.523773
-804.726074 -345.456207 431.644012
-753.097168 -355.661682 433.606812
-785.585205 -319.425720 499.905579
-860.259277 -274.697937 489.356049
-973.701172 -314.370453 339.006195
-776.092163 -361.368103 430.387573
-747.945190 -373.899139 389.853546
-1023.715454 -320.291962 381.551514
-979.655762 -309.679474 369.160767
-793.079712 -357.322876 415.978027
-606.793579 -512.621277 185.717392
-809.754333 -334.714447 419.944794
-646.944397 -420.579895 367.173645
-919.734985 -319.518707 321.415680
-762.732117 -370.383575 379.824188
-763.074280 -445.018829 120.649414
-836.601013 -282.541412 545.846008
-1030.869751 -292.302795 409.808868
-733.859497 -332.225830 511.535522
-774.641724 -294.209869 540.600769
-916.373047 -328.671051 176.532410
-712.543213 -383.063995 418.161377
-617.937134 -476.086823 218.336731
-939.220886 -293.147125 422.898926
-863.437378 -301.863586 472.030151
-699.495789 -365.331940 391.174591
-857.826965 -273.855774 559.590942
-925.251038 -332.389160 197.572525
-701.160522 -381.747070 415.360474
-761.940796 -402.442810 240.417465
-891.769531 -316.250092 380.139893
-1003.735474 -286.507599 342.511200
-798.447510 -426.040375 87.929741
-762.549377 -463.352448 125.265686
-669.706482 -400.439392 435.850525
-624.972412 -446.286926 265.726471
-937.910156 -346.893188 276.694275
-858.366577 -314.844574 427.560028
-723.551147 -343.745636 485.441925
-741.682129 -448.056213 207.826889
-797.712830 -356.876068 352.575592
-824.356628 -423.610107 111.744484
-909.041870 -277.738129 439.201111
-780.376953 -460.607666 101.148438
-736.918579 -321.758270 521.139954
-913.115479 -284.669830 451.255280
-831.856812 -298.761536 484.528534
-888.225281 -320.300781 403.290436
-921.996948 -380.331238 204.753723
-728.712280 -329.048187 524.566589
-809.516296 -370.440704 345.488281
-762.710327 -353.175598 430.169983
-647.763733 -457.316742 289.706635
-1042.217285 -279.184387 462.661072
-673.275452 -436.959778 285.725281
-895.568726 -367.362274 212.011703
-931.601868 -263.367981 510.316406
-965.554626 -296.326782 249.578003
-776.579834 -320.514618 507.499420
-897.611206 -265.841736 516.621826
-792.614380 -304.440430 556.254089
-766.234375 -424.378357 189.366684
-693.595337 -407.343048 385.829712
-866.490112 -291.189606 505.664459
-729.800110 -368.768524 437.895935
-1003.921265 -281.133026 349.964355
-743.584412 -342.945648 514.114929
-746.682678 -352.889893 491.658051
-835.652466 -352.380554 334.913849
-874.094299 -297.509094 473.624390
-766.413818 -313.229950 488.884674
-715.394043 -365.239014 476.541412
-734.742004 -368.136566 431.265564
-769.275085 -368.723938 399.265930
-826.134033 -350.526489 384.757050
-879.455872 -378.552124 216.485352
-951.554565 -328.381195 214.494766
-987.800537 -266.784668 437.266663
-812.110718 -363.199249 365.325287
-772.813049 -395.712006 323.020264
-808.147827 -285.997345 552.492371
-913.883972 -355.514282 194.767181
-747.325928 -353.735687 462.469482
-804.546143 -338.801331 420.774811
-745.548035 -307.172089 575.622498
-825.269836 -382.123383 256.413605
-646.006042 -468.830566 257.112549
-705.469666 -396.565674 381.294403
-663.342712 -414.915009 404.516724
-668.748962 -421.286469 328.772797
-762.718689 -302.209015 611.728638
-734.406006 -405.966339 270.436157
-914.627930 -340.111084 171.185394
-809.944580 -391.722137 249.141006
-853.800232 -382.253754 244.512360
-929.304565 -322.433563 188.425690
-887.772095 -318.475189 376.329102
-874.086365 -321.149292 419.445923
-593.840820 -478.118317 203.230347
-779.198242 -426.022675 227.827072
-957.810364 -286.239532 436.319366
-937.386902 -387.158569 170.178558
-625.725525 -453.697906 339.764465
-801.656860 -296.756500 493.801605
-946.378845 -252.052383 502.724487
-669.578186 -422.284546 381.313965
-913.437927 -435.450775 146.984909
-939.582703 -256.917297 515.476746
-993.637573 -238.454407 516.252625
-914.485840 -247.564163 506.265015
-986.088928 -269.779236 307.194641
-1002.239380 -299.984375 407.407715
-742.278870 -413.732819 254.650681
-933.896240 -320.854980 304.663696
-938.167114 -371.344666 220.098267
-963.883545 -273.726105 421.286835
-957.002686 -316.158325 336.533020
-607.296631 -480.982666 201.285233
-766.251221 -346.751678 447.068176
-717.197327 -442.466187 191.326096
-852.669556 -371.386047 299.703339
-695.787292 -425.436829 279.749268
-967.528442 -278.193909 244.272034
-918.470276 -386.273804 204.105972
-729.048462 -321.986725 579.150330
-679.599487 -431.953156 284.947693
-843.147095 -338.771973 399.266571
-736.577271 -310.652008 608.318298
-763.296326 -339.564301 461.541107
-795.761841 -356.550415 409.865784
-793.162109 -376.052734 330.641327
-945.376648 -343.997650 242.042831
-782.614441 -295.737122 601.800232
-957.473206 -340.581207 277.834991
-972.978455 -280.871490 287.656494
-1006.558228 -274.150757 344.623138
-804.303894 -370.972961 256.792389
-1001.186340 -301.480988 405.897308
-750.957031 -361.334717 423.816010
-978.016052 -252.332672 294.033905
-693.989014 -400.487305 407.030090
-787.311707 -407.009521 275.819733
-836.740662 -422.118164 102.670189
-920.028381 -371.921539 194.027054
-891.502258 -275.277130 526.308716
-793.117859 -288.976318 601.630554
-820.170959 -320.550079 468.325104
-937.562500 -318.190521 289.566650
-744.614563 -318.385956 543.432373
-957.221741 -312.861267 272.565918
-834.800476 -292.999176 539.713440
-838.758179 -285.926300 556.777527
-924.957031 -334.120880 222.121826
-815.139038 -407.666290 170.323395
-1022.509155 -296.473633 424.297241
-982.981384 -294.848053 315.067474
-669.296814 -462.630707 245.060959
-865.135437 -272.009247 567.406372
-845.715454 -350.773621 311.503082
-797.879150 -314.195892 443.486847
-651.963440 -459.508545 282.377625
-700.892334 -374.431824 462.358215
-690.533997 -397.192749 344.142395
-900.870239 -294.463226 460.188019
-968.604309 -246.512375 515.503601
-770.692993 -329.618713 523.328979
-945.399414 -348.295837 272.729218
-795.396484 -308.901886 551.920654
-696.187134 -470.391418 200.721741
-643.126831 -473.826447 219.186417
-762.786804 -419.377533 265.556183
-781.608582 -280.729340 588.393799
-976.591309 -278.954559 296.754974
-689.099243 -368.240265 463.544586
-928.473206 -293.527161 444.110077
-891.869629 -334.351135 321.733093
-827.177002 -339.985901 415.802856
-833.603027 -332.718292 405.975861
-828.990601 -346.256714 376.820862
-717.952332 -343.118958 462.567719
-900.732788 -374.159363 216.510437
-868.092041 -283.678345 535.109985
-955.095398 -260.993469 247.892227
-834.206787 -354.797943 377.126373
-927.162048 -301.272949 390.559631
-771.087402 -313.385773 462.012756
-617.334900 -455.165283 318.384247
-681.109863 -463.941895 160.251907
-857.904968 -300.760559 473.461884
-653.634521 -428.223297 326.890625
-750.651306 -397.986786 335.315613
-1024.202637 -305.423676 420.562073
-602.249451 -490.923676 257.494781
-871.301941 -313.368591 418.261780
-839.493713 -278.475189 569.438477
-713.363770 -448.400299 243.868164
-879.875732 -392.816284 184.014420
-974.964111 -282.571381 296.204865
-961.766968 -316.889435 276.954895
-941.706604 -294.701477 382.477844
-664.450989 -429.983856 308.018860
-754.712463 -349.608978 448.623322
-617.972778 -492.629181 179.069595
-981.253357 -268.650238 439.223572
-778.491638 -308.314972 488.203064
-608.954468 -444.509827 273.764648
-887.854858 -306.612335 437.416992
-887.427368 -292.899963 462.563751
-690.465576 -431.818634 302.633087
-706.028259 -353.918945 487.540375
-742.709045 -423.122589 233.194809
-855.552979 -397.026520 186.416122
-780.508057 -399.414490 219.994797
-892.369995 -350.301117 286.797394
-991.377686 -321.048279 377.089661
-733.701294 -422.635773 238.573959
-981.491272 -274.500519 310.553986
-928.976868 -342.763275 232.544952
-778.773987 -327.394592 483.061523
-664.642944 -443.928192 275.054413
-776.402466 -387.152496 352.365601
-986.091797 -250.730667 321.092743
-837.911499 -386.181244 209.869141
-699.610840 -394.270813 431.957855
-716.018311 -351.267303 440.280273
-880.476379 -291.207977 501.918976
-933.271790 -276.956573 221.381973
-1013.735779 -281.030914 374.156708
-767.719421 -376.983582 390.310699
