ply
format ascii 1.0
element vertex 1417
property float x
property float y
property float z
end_header
242.572922 646.949829 -796.262024
395.776062 762.578918 -670.090088
310.711365 777.045349 -542.075256
146.572128 693.681335 -532.897217
307.285583 718.220337 -703.903625
254.365356 729.339600 -589.399963
248.966522 668.783691 -718.247864
149.162125 608.302795 -810.461548
277.639862 713.247253 -669.488464
331.375549 792.985046 -535.355713
90.352669 588.235840 -692.503723
302.168762 672.743225 -781.991882
122.783577 660.568237 -634.871887
192.247589 683.479126 -619.521423
225.320084 684.813904 -660.336670
348.505157 746.594666 -593.230774
314.640594 781.716553 -538.150940
160.825760 665.308167 -613.937805
176.784073 663.882080 -685.175476
258.201050 746.130371 -538.633850
205.902420 604.026855 -806.504761
153.854736 696.287415 -578.840454
-5.964881 634.765442 -556.352600
7.497439 587.231140 -677.508667
201.003433 736.650757 -530.338623
111.732811 638.776001 -632.790955
171.063950 713.806458 -530.467651
130.567291 647.741089 -640.731445
31.729919 651.721558 -508.664581
-36.694908 604.019958 -546.984436
288.612183 794.109009 -480.131653
147.021332 714.579407 -529.125610
262.659424 711.709961 -633.304138
63.413979 601.833923 -671.075928
118.432129 606.344543 -700.524414
366.021606 781.369751 -598.090149
-39.218864 602.228333 -599.895813
332.697266 744.646973 -801.198792
63.336269 580.926514 -721.006409
131.229935 700.960022 -524.622742
164.054443 578.870667 -810.630493
203.926910 736.040222 -506.244873
27.363724 649.206787 -545.483337
348.127777 785.772034 -567.632263
124.253387 659.196045 -640.177917
300.856812 746.693970 -586.555054
443.328430 787.272095 -688.072266
370.661896 761.024719 -638.237061
345.855103 669.022705 -785.026611
14.575634 655.060974 -517.624084
143.465271 627.665833 -797.246948
287.140167 771.046021 -461.084412
276.340240 667.281738 -793.593201
130.044098 599.280151 -821.326904
179.892273 722.481018 -545.816406
-31.720491 605.389954 -559.879395
136.924438 656.657104 -617.304565
29.382324 591.030151 -707.739746
174.270874 597.475403 -802.692749
153.124619 671.629761 -611.370667
39.528660 615.628113 -646.172241
342.075745 740.938965 -664.364136
299.433594 714.830505 -693.022156
192.448776 726.225647 -551.533386
383.826965 772.784241 -653.979187
173.330429 677.843262 -619.855896
-14.716677 626.497009 -504.205658
211.660950 708.890137 -579.087341
-6.488750 614.907349 -611.162781
161.241425 684.588318 -582.170898
70.441650 646.946777 -601.615479
54.904823 666.832825 -533.210815
300.907654 656.808350 -780.987488
152.699661 653.102295 -685.299255
227.062485 588.582397 -798.262329
256.974060 626.563599 -794.481750
281.880341 595.242310 -787.156494
186.018677 674.284180 -635.377991
243.674072 757.519592 -528.662842
106.809547 676.067871 -541.223022
284.394409 692.085571 -714.046082
209.852982 749.422668 -510.302338
415.078705 763.428955 -698.445129
259.193024 680.871948 -748.735229
95.658607 661.728333 -594.568420
315.644623 704.966797 -721.084717
267.073669 651.021667 -782.346985
145.261414 599.159180 -808.300232
301.739777 714.448486 -701.641052
-1.639329 549.981812 -747.277466
241.656723 694.523010 -655.821777
216.432159 707.750793 -520.076294
319.084778 729.587769 -661.226868
140.731705 682.945618 -597.813599
370.142273 729.098022 -721.656677
4.427604 570.296997 -726.723206
225.572617 741.134949 -507.421997
335.644165 789.378723 -535.615479
179.734695 682.591675 -562.913879
-4.925114 603.000244 -625.673828
-23.548923 553.296631 -803.581482
96.325867 604.244141 -704.931274
423.031494 766.751099 -712.236267
326.315216 722.611023 -767.156799
230.088409 763.061035 -468.599823
366.786133 811.081909 -490.083038
74.446510 639.807800 -634.884277
-17.032024 563.727661 -667.425720
220.689590 599.701172 -798.440918
171.262360 633.927856 -779.219666
233.564972 744.958313 -549.245728
129.105011 604.776794 -827.342468
42.699055 598.420044 -659.680481
185.426712 691.918091 -597.204956
324.804779 775.377380 -537.590149
345.226013 787.915222 -567.900574
284.533844 624.318237 -800.688477
261.731171 758.625488 -503.900635
176.232361 620.218323 -793.273682
282.495789 710.320557 -681.714905
277.332367 752.249084 -494.180664
347.879089 770.869812 -619.845215
132.210251 615.167358 -746.116821
320.992035 780.118713 -533.631592
202.489716 719.983154 -489.748413
-16.335966 586.824829 -628.602966
136.210876 619.215515 -711.172546
243.528183 594.064636 -796.083801
343.628937 757.363342 -597.813843
62.361954 693.610352 -480.396240
112.276413 704.372864 -484.078186
308.925751 800.057312 -475.586609
-11.936439 548.395264 -759.167114
194.942001 590.757019 -813.884705
144.582870 622.094849 -767.038086
235.343506 725.608887 -598.793152
222.743256 721.856934 -562.795959
83.687218 623.434998 -641.325012
79.436798 610.692871 -717.696533
365.642365 751.460266 -602.665833
333.273071 717.057983 -654.923523
38.159828 591.433838 -705.950745
68.536148 632.272461 -585.094788
368.289490 775.489136 -608.660217
269.064056 759.120422 -481.297363
290.745300 746.729858 -598.899780
385.153381 825.615112 -514.676453
197.393082 649.992004 -792.533508
349.286865 750.880737 -657.347961
57.420341 632.132507 -623.235596
81.124214 687.021362 -486.032501
322.638672 691.749207 -800.071838
151.022644 691.135071 -505.745728
-28.324640 589.196472 -625.440125
265.384766 669.496338 -755.546265
154.171951 639.754150 -640.016663
374.862885 807.079895 -539.402344
326.281433 733.101990 -671.121338
169.507614 710.247253 -513.632935
127.243240 667.797180 -576.646545
417.159485 763.825806 -754.003601
-24.279844 556.173096 -789.514587
99.206581 610.624207 -698.573730
127.950867 702.516907 -515.065186
158.178787 664.751465 -636.890686
330.903046 781.935852 -527.534607
116.532845 650.918701 -618.705627
147.038681 603.261292 -746.980408
69.089882 654.428467 -547.111633
402.775635 760.965820 -755.387268
265.408875 779.591919 -472.978821
423.783051 788.322388 -658.828064
406.349823 766.831421 -651.902954
167.169785 579.632629 -808.497681
326.607391 725.487854 -805.973755
17.072147 560.483765 -748.073547
313.209564 672.782227 -784.802368
80.114395 582.546814 -693.665222
224.990601 633.882385 -779.939514
-12.742992 554.949646 -702.422485
151.957016 654.375671 -676.859741
182.959961 713.928467 -567.240845
14.756255 558.601624 -688.913635
241.820892 750.626160 -487.440521
319.908264 788.484558 -528.322632
-22.710003 616.579590 -531.509766
40.810955 604.814209 -634.324097
200.724854 669.772034 -662.972046
45.529251 575.628601 -718.000305
403.482544 776.931885 -609.689453
-0.680854 636.002197 -560.636719
181.549789 708.962341 -543.015808
-73.009239 624.402161 -507.298889
0.535675 621.923584 -552.151550
99.684097 675.278137 -526.933289
105.765678 606.715271 -825.957581
378.797455 798.538818 -562.370361
315.551086 799.148376 -499.886322
117.373962 610.354736 -708.693420
376.090302 793.211792 -572.145203
-12.055381 612.049683 -596.558716
4.531426 555.755981 -713.326721
411.813843 760.881470 -681.109375
364.566406 775.955688 -566.165100
333.569397 707.095520 -695.940186
8.064522 646.748535 -529.829224
60.588646 676.061340 -497.172852
295.595062 744.707642 -600.135925
251.504364 767.304932 -511.360352
203.112686 620.871643 -784.828308
72.778290 627.184692 -653.259888
305.740204 623.048645 -788.751221
147.224411 671.438843 -603.118530
278.348602 742.575745 -574.267151
160.366104 672.947327 -612.193237
42.865368 601.389771 -649.990601
144.758850 624.246155 -735.010254
122.696594 624.557739 -700.680603
275.500763 610.564331 -784.736877
9.685225 585.464783 -647.697937
411.334229 774.437988 -627.487671
360.349304 832.234253 -461.505707
257.618225 758.527954 -522.448669
296.098022 770.944153 -490.959290
226.058182 705.881165 -602.115540
142.773682 645.747986 -667.758240
417.220551 795.561096 -630.897644
243.507660 721.865723 -583.264587
171.635468 719.677002 -511.066986
101.052299 626.469177 -634.536743
224.792648 648.597839 -709.666992
289.543304 763.115723 -479.597809
241.467072 684.638916 -698.203918
95.296448 687.380676 -530.935608
124.999695 685.780823 -539.896729
238.845703 622.709900 -801.430725
119.602722 685.903015 -482.781921
194.575165 726.389526 -551.051941
132.619904 651.029846 -677.358582
75.217110 681.118469 -521.328613
232.767868 644.162598 -768.095154
354.883392 747.150024 -793.154480
392.203033 740.929688 -758.092041
249.854401 698.423218 -676.391663
122.988213 690.837524 -528.022156
64.850327 656.630676 -578.891602
58.931580 656.083313 -540.916809
80.497116 602.009644 -720.394287
251.289841 669.762207 -749.241638
358.010803 750.499451 -666.759949
321.282379 812.812073 -460.600586
281.259644 717.074402 -642.900574
294.223083 692.773560 -737.458862
133.229553 622.418823 -697.260498
191.345581 710.783936 -562.283630
159.709167 710.021484 -522.183472
154.518661 699.693481 -524.815308
246.859207 676.576111 -732.740723
382.414673 775.514832 -608.729431
145.306824 579.408081 -799.890503
221.425049 729.041992 -542.216797
425.033478 783.929749 -689.698425
274.899414 640.433777 -785.966248
375.970306 813.593262 -528.305786
83.189110 674.534241 -519.514893
138.864258 663.446167 -637.712830
164.711563 700.473755 -551.039307
-57.246296 608.928101 -517.397644
354.963562 790.897583 -522.367004
126.474258 677.257202 -566.217712
77.889641 611.354065 -619.887573
187.545227 720.035278 -558.575745
-8.836497 590.628784 -653.556946
148.783295 641.511536 -670.504883
186.616287 686.926697 -539.010803
-20.639616 571.348694 -638.356995
82.385437 582.006104 -699.075562
120.522171 676.246338 -582.701782
293.005768 708.178833 -737.460510
311.855194 725.895569 -792.246582
44.693390 568.095764 -726.962830
-38.294563 582.336060 -632.153076
314.851227 784.619995 -462.147369
-19.443588 619.619202 -504.428070
380.196411 812.233337 -536.395874
274.990356 748.118286 -546.495178
159.279053 668.124634 -612.252686
410.625702 772.307312 -668.970215
297.112457 715.723145 -611.646973
249.416412 589.436462 -801.224854
56.562695 570.865112 -725.669250
133.533676 660.131165 -566.961487
409.981873 796.667297 -553.091614
49.086365 626.181152 -566.916382
215.663712 718.122009 -572.985107
60.525391 621.542236 -618.127258
8.071979 636.240967 -557.368835
124.767273 612.018188 -716.512512
195.218735 720.177673 -567.159973
40.294933 635.523682 -557.928040
276.497925 690.232239 -755.871338
276.096069 773.275879 -491.210266
293.437317 700.664063 -762.604736
257.528992 738.213135 -595.161621
227.601074 630.653870 -787.821838
253.138962 768.215088 -481.803955
311.173370 647.676331 -797.333252
345.553192 790.406250 -542.750793
229.361038 701.686951 -645.751648
201.538391 644.848389 -741.250916
382.216492 744.013062 -701.333923
344.509796 765.695374 -572.690857
94.859848 615.095398 -706.130798
207.526855 716.545532 -558.862671
355.293030 822.595520 -458.282196
200.078415 695.184387 -602.592102
221.132172 543.818970 -785.548218
420.393463 759.245544 -722.291565
70.360191 625.732727 -618.636597
306.355377 764.850464 -558.141663
396.365601 830.396729 -452.991974
54.747601 591.739136 -705.104980
316.674805 798.804749 -460.054779
310.167480 708.945618 -685.450867
310.194305 617.099060 -795.730408
154.916595 689.853333 -587.195740
191.014542 643.165833 -780.362671
144.701462 680.981812 -542.232300
51.272373 597.155518 -713.820740
83.429619 643.268066 -573.452026
66.291542 655.721863 -532.161438
314.686401 764.853516 -518.267883
201.676361 730.986389 -471.452271
21.913141 606.847229 -650.064087
223.401367 599.624146 -801.971069
222.523178 604.929565 -785.359863
267.324921 758.400146 -528.141541
-36.665218 575.453674 -635.053040
263.580170 700.424255 -669.645813
219.978912 648.620117 -794.781311
98.895660 656.053833 -585.552002
356.037903 749.044861 -579.577209
27.626986 571.171204 -702.235840
30.714571 600.243530 -606.433716
339.632751 750.033142 -624.047119
173.690094 643.767334 -690.263550
250.477463 592.886658 -798.654297
329.443726 670.886841 -800.904297
102.407364 642.449402 -557.205139
134.662918 695.194641 -523.518616
348.871887 722.737610 -712.225830
154.495651 720.832397 -508.042419
134.042435 696.385498 -504.552124
179.611664 730.041199 -515.612183
34.258450 590.763367 -611.523071
-3.872648 600.195923 -600.906494
230.421829 684.590820 -690.170959
346.655334 726.589172 -703.384949
328.026062 710.970459 -731.211731
243.447662 750.120361 -524.549011
71.584259 597.341736 -732.003235
29.960686 563.806213 -737.299255
0.751550 638.400085 -503.957733
411.666809 758.394165 -725.097046
86.665909 648.372192 -626.566711
9.528011 650.280579 -503.561737
249.462250 712.783020 -639.686890
210.886917 714.579407 -563.340210
248.473999 601.651428 -784.690308
163.978729 665.449707 -641.607605
-42.879520 565.800354 -679.477661
164.903534 714.682312 -499.092804
130.997620 640.564575 -651.897156
331.027740 644.226440 -780.224365
238.825531 713.659546 -595.420044
242.874207 585.684021 -785.652283
396.270844 754.534912 -711.635620
-35.579227 614.860840 -558.238892
394.209961 776.611633 -653.565308
187.253815 741.882141 -495.536194
303.966034 603.631836 -788.002930
73.797104 617.963989 -674.354492
222.002914 665.062866 -700.160889
301.039612 715.272583 -795.852295
267.779388 736.342407 -523.446533
215.775681 682.852661 -607.163757
236.531982 733.851624 -582.175659
151.797623 632.915161 -756.222778
44.463100 643.357544 -592.689758
195.771744 656.327820 -683.790039
294.365601 752.811279 -561.157227
303.649231 780.063660 -538.048218
394.328583 804.273010 -564.726501
204.733841 695.812134 -611.352051
321.630585 734.097534 -579.264587
247.013763 688.657593 -698.226257
-6.357105 569.979553 -664.376343
409.972534 783.372986 -664.859863
393.601685 768.341553 -573.608948
299.164429 705.928406 -642.571960
52.306973 644.999390 -548.926025
58.853580 569.416809 -731.054993
76.307007 619.986450 -642.487732
180.986343 662.607178 -620.613525
114.025055 608.514160 -712.415833
168.745392 717.135498 -501.101166
217.147827 760.751343 -473.634216
129.853882 652.821899 -628.625061
-53.083836 583.058899 -618.300659
428.235840 766.218079 -715.274475
-16.164993 605.442505 -578.169128
50.476986 561.013000 -758.130188
265.387634 742.359192 -579.990723
358.313324 781.472473 -579.847534
286.354889 773.884705 -516.825317
41.400620 672.848938 -508.900208
316.911530 728.334167 -791.073242
114.395714 662.057739 -566.040161
375.894135 799.011292 -525.811829
396.717560 723.824585 -713.326416
243.528931 733.045349 -550.317200
225.628006 572.085144 -787.461914
358.081940 805.398254 -508.146057
34.317066 636.561462 -598.773438
56.941105 658.428589 -568.985413
242.820755 743.595276 -537.971313
369.760498 738.259827 -756.409546
78.857185 597.856384 -672.268005
218.020554 733.208191 -562.251953
72.502769 667.344177 -480.757843
380.057098 813.850342 -493.317505
229.726730 691.067505 -654.952881
53.660492 643.832947 -602.236450
181.885773 635.299866 -724.833374
261.311157 652.631714 -792.078125
67.520638 660.094055 -540.067261
414.593018 766.689514 -767.554810
13.970705 625.989929 -605.312378
301.601929 640.700867 -790.455994
374.533936 803.094238 -550.369568
163.171432 606.782532 -804.501953
124.116066 656.767273 -552.186096
362.952606 787.398193 -552.050598
114.825478 662.392822 -592.292908
267.628815 764.026489 -487.714874
159.288406 701.490967 -578.405579
50.979939 607.770935 -612.706299
157.674988 724.066772 -481.857391
205.235764 611.807617 -801.777161
150.405243 663.088623 -616.564575
195.908005 684.667908 -613.952332
335.220551 766.083801 -598.491272
246.505203 739.072937 -574.529846
301.825470 745.398376 -598.667969
246.401794 696.385376 -600.638123
26.550468 657.582214 -524.723511
-33.443081 599.040588 -574.479736
206.641663 709.273010 -571.891602
157.928436 707.029541 -556.676758
11.428949 568.318054 -736.620728
-21.201815 611.401428 -536.974121
291.971130 768.451355 -544.294495
405.988098 775.198425 -653.930420
295.712982 758.543091 -579.679993
138.455353 618.860718 -698.904114
329.115295 733.687134 -792.960449
258.715485 760.574158 -506.675659
311.381714 761.436890 -585.417725
376.177246 785.193604 -600.309998
63.633602 672.039246 -541.687073
287.838531 750.950256 -584.822021
58.740852 639.070190 -546.643555
243.587219 669.750671 -718.639648
259.792816 715.317993 -643.884766
212.719452 701.596680 -635.623901
-0.310049 627.896118 -546.393860
412.211639 755.623718 -715.659668
332.642975 725.522644 -620.259338
225.370911 746.709839 -504.276428
172.084549 693.055481 -607.161499
263.247925 611.194092 -796.317200
339.634918 733.921021 -806.615601
239.694397 718.394897 -614.263489
78.450516 617.048950 -650.204895
371.076263 747.467468 -687.050598
11.492887 621.351013 -558.745056
365.537903 802.245605 -528.904541
333.819641 802.042969 -462.443695
102.865776 625.096497 -639.729065
195.650162 677.668030 -677.658936
221.255402 695.481445 -662.881958
265.181183 605.383301 -797.874634
-1.524233 554.603943 -711.099487
168.673584 707.283325 -574.029358
396.641205 792.317749 -588.459167
252.426544 721.364502 -550.857544
269.868225 607.228271 -800.270691
286.096375 747.522400 -499.725555
338.516418 754.719482 -627.983276
340.127808 749.856934 -635.156677
295.031891 695.363892 -727.627686
-7.789169 621.493164 -570.856262
285.479736 762.777283 -516.881348
328.273285 802.308655 -477.035278
300.687256 614.491150 -794.760193
309.405884 685.748779 -781.577148
218.293732 561.666870 -787.288879
329.744537 744.797913 -662.804626
326.509216 718.048157 -686.994751
89.788551 656.387939 -529.311768
316.724548 719.875366 -678.828918
278.730835 785.799255 -463.256134
354.072296 768.553955 -634.952209
366.897552 740.931824 -790.173096
302.454926 702.179443 -707.934814
334.078522 761.050903 -609.412903
272.435760 744.440979 -508.755280
152.427063 727.525513 -502.897675
187.400986 662.557129 -677.314209
360.762329 823.943298 -468.449585
251.106567 619.731018 -797.496887
319.806732 723.618896 -790.031738
239.085846 716.415161 -524.203430
330.952240 635.793091 -780.806396
266.598267 777.947449 -470.485718
349.700897 753.209839 -663.075012
325.114044 796.687561 -494.196838
182.046677 716.651855 -526.691345
41.560829 618.326538 -643.746582
315.337585 792.902100 -505.057007
308.618713 744.739136 -622.890625
391.121796 774.773315 -595.038574
61.510525 594.912720 -668.672119
313.964508 693.218933 -799.608765
278.743805 734.740356 -624.102722
9.453319 602.324097 -577.519409
74.446350 635.998108 -648.562561
286.627594 642.221191 -797.745239
217.887604 734.461121 -553.054993
269.513550 686.918762 -721.236450
203.867371 541.378418 -787.182556
416.969788 756.994263 -703.619812
357.327972 769.036438 -617.540710
159.667618 685.089294 -581.890930
-0.071935 543.257263 -761.712402
285.682312 646.154175 -791.628906
212.700851 667.264648 -689.452454
23.101488 568.472107 -746.251953
346.339172 747.547729 -677.213013
209.868347 732.421265 -525.915039
144.517349 618.947998 -766.175598
-36.076260 560.891602 -651.077759
284.629395 740.102966 -576.478149
301.197479 755.627014 -561.134460
289.703491 704.530945 -756.356567
195.967316 706.011475 -567.806030
269.063965 757.387329 -533.102295
365.311798 763.872498 -621.159790
318.284912 733.963074 -679.791809
24.926893 674.910767 -483.850830
341.251648 726.322510 -708.215637
233.993469 665.392029 -671.889771
204.676544 660.215393 -691.183289
165.435410 698.096924 -557.056946
217.884323 668.970154 -756.858826
287.652527 777.799683 -491.504913
158.045975 621.326050 -797.011780
264.899719 671.211792 -778.761658
286.810944 597.371338 -786.828796
126.873436 655.625427 -622.575989
-18.805042 589.163574 -609.590088
379.187103 731.175110 -666.029358
339.300903 795.030762 -529.687744
64.199409 625.845154 -610.961792
404.376038 749.247253 -768.359619
156.481964 662.511230 -638.968018
244.220337 579.693970 -800.295410
298.413727 793.648010 -479.094849
335.730530 670.315796 -792.186951
236.420532 597.771973 -804.434998
282.794556 670.475037 -731.904663
16.804714 619.146790 -596.172119
178.654724 716.491028 -519.614258
-42.030209 611.049927 -513.708130
381.260956 780.123413 -568.383911
327.481476 789.316589 -515.901794
419.013306 777.602173 -619.583557
354.707153 755.635742 -618.855347
132.454437 667.945251 -576.405701
427.724335 777.112305 -681.643494
268.372498 685.682434 -738.536743
140.413986 717.056519 -505.408264
367.048523 829.811707 -469.583374
96.086449 606.007385 -750.307190
50.467735 625.018921 -572.148804
379.089081 748.931580 -728.795654
107.897507 658.364990 -579.031982
371.790619 759.235413 -660.021179
350.608215 784.802307 -498.942535
233.657623 699.780334 -640.908386
192.993195 670.620544 -663.869507
275.849762 775.672180 -508.004028
121.959183 718.920166 -495.487152
216.856125 737.905640 -518.543213
344.218750 710.907227 -764.362610
202.972427 681.186157 -649.302246
237.729950 559.700745 -786.907349
185.329391 738.652100 -481.093201
272.847168 736.794189 -604.699402
71.029060 607.750244 -679.866699
-20.629257 621.661316 -539.249634
318.826111 816.008606 -460.822388
342.892059 792.340027 -548.019470
368.614166 757.818420 -630.988098
206.768738 728.466309 -522.316711
209.354889 752.805298 -493.222595
265.177765 672.132019 -775.378601
277.829071 732.344666 -619.965454
386.093231 724.063110 -736.438538
305.661987 791.426086 -509.952179
434.228882 767.145264 -727.252014
132.362152 670.201416 -589.094910
306.208618 696.087463 -787.453125
297.071289 638.054321 -796.049011
166.557556 685.282166 -598.601807
147.429337 660.206177 -639.334656
134.314301 678.636597 -553.603088
54.995758 576.408813 -774.823059
154.228790 720.156738 -522.348267
187.368668 699.640503 -578.284485
129.861893 596.157715 -789.243835
294.611938 766.504456 -538.703491
156.390671 642.349243 -723.733459
82.248146 658.934753 -511.159454
149.843979 723.654236 -508.112610
243.614868 722.127625 -514.422180
83.672127 604.918823 -686.660156
388.314728 779.031921 -602.904968
100.199715 663.928894 -561.192932
303.273926 748.712280 -606.926514
240.031036 665.157715 -728.331482
326.590271 712.339294 -716.173340
-11.190852 601.790588 -615.205261
-66.217155 581.692444 -612.796265
254.001205 703.002686 -578.196655
229.845261 703.744995 -612.127808
368.340607 812.055908 -496.747314
368.188232 793.660645 -531.974304
76.125404 573.859009 -748.383667
174.389008 638.593445 -776.306519
224.295380 732.194397 -520.236633
436.861481 791.290344 -708.527893
232.474594 757.615479 -499.643829
284.183289 769.537354 -515.561768
90.264603 599.926575 -681.002441
378.477753 779.358704 -632.862854
260.777039 650.278015 -783.319580
288.239349 777.902588 -468.237366
260.822815 680.037720 -758.809631
258.536346 672.206787 -777.011963
140.848831 568.042480 -803.345093
391.780304 794.670044 -587.261047
-49.219154 583.623474 -567.898926
282.302826 769.757996 -529.790894
110.728294 645.737976 -601.607605
331.121979 715.937317 -798.333435
294.877899 756.875610 -548.825317
115.329468 618.505127 -728.190918
232.085281 732.071777 -557.918945
89.303612 580.374268 -715.400940
243.913162 754.584106 -513.670898
-38.212269 600.254211 -592.415771
76.732010 661.769043 -579.596375
333.568848 754.086243 -636.676514
53.836174 577.705811 -690.170410
221.643143 592.459106 -810.179077
243.259537 703.020874 -653.134644
202.539795 699.322510 -603.995850
278.483826 697.705200 -730.143738
267.163727 748.262512 -505.862122
364.742126 811.954102 -472.423523
-16.380459 583.183167 -614.981873
288.507080 740.112549 -588.552246
104.930840 686.045959 -499.390961
105.979568 678.328796 -523.779236
350.294952 816.181274 -475.469391
261.010590 772.385376 -502.992737
253.301743 725.526794 -579.598999
122.361183 658.778748 -604.129639
313.596436 753.972168 -611.258484
411.770813 778.637878 -622.020264
237.075760 653.730164 -751.458496
85.399796 681.704102 -519.362122
217.827209 645.590149 -752.201721
199.434830 719.795715 -570.589661
395.815826 759.169373 -740.354614
337.639801 757.018494 -633.715942
226.863998 699.350159 -626.567139
165.362579 709.238708 -514.888489
384.650421 791.540161 -589.433655
190.671982 596.961060 -787.136902
213.670502 754.425354 -484.499329
85.360672 676.138489 -506.033844
64.803665 654.149902 -517.512024
341.681091 808.857971 -484.195221
344.884857 800.257690 -473.942810
-18.184183 578.123230 -634.276306
345.044434 791.854370 -543.684570
139.008850 700.308655 -507.449219
146.136414 707.992188 -491.414642
-16.999790 639.962158 -519.680603
298.759338 737.988159 -554.890564
55.824100 623.437805 -622.395691
376.641998 808.781677 -540.479065
239.886368 723.772522 -570.539124
317.007751 729.691162 -790.676392
316.125336 760.918518 -500.173553
181.017700 704.161194 -587.498718
4.824512 557.418091 -700.997742
8.628111 666.309326 -485.065704
145.311157 656.549438 -573.181030
324.770569 804.796753 -460.014404
353.699585 806.542603 -519.888550
347.604431 800.017029 -462.697174
117.508987 640.992493 -684.966370
334.697296 784.619507 -545.411743
127.890030 638.434998 -687.704407
-37.372169 624.988098 -499.049713
-15.193271 596.005005 -589.243469
255.873779 666.152771 -744.913879
302.985046 724.027527 -652.100708
341.058289 789.294800 -554.700745
-14.009657 568.281860 -700.740601
122.980629 616.344299 -730.539917
223.863190 677.150696 -705.014343
84.718452 645.537231 -565.218506
343.720062 806.372131 -509.988159
290.994965 674.859741 -738.438293
41.053047 648.884033 -537.292969
188.741135 629.001587 -792.386475
59.822712 640.737976 -515.574646
135.783401 619.241882 -708.283081
183.510971 649.917236 -773.073181
128.787231 613.592834 -750.164307
348.113525 744.942810 -683.823486
100.730621 673.712646 -563.549988
268.682709 674.329102 -778.199524
123.782944 675.090759 -564.366882
-15.948888 594.967529 -649.065002
74.046799 680.861694 -490.828430
12.062198 587.689453 -587.721497
136.991501 648.255676 -639.665771
-26.307489 599.527893 -600.375854
55.785408 552.461670 -746.373474
261.711365 733.523682 -603.289856
83.765182 646.847046 -579.352051
2.718728 580.434143 -616.831909
270.735565 765.574280 -521.720459
287.418732 728.317383 -572.934692
41.807171 612.279846 -656.402893
261.467010 612.675232 -787.067627
289.781006 727.612793 -635.824158
413.197296 773.887085 -632.160095
191.729477 694.388367 -634.774353
108.045906 696.639343 -487.059143
367.800537 809.310303 -508.213562
299.610504 708.396057 -702.773254
286.132141 736.273010 -580.848511
400.441040 778.839111 -627.141602
67.227928 643.188232 -606.925598
278.288483 760.044739 -518.206360
413.021393 763.451782 -757.085327
418.281525 764.990906 -743.048401
265.217255 765.630615 -521.512390
190.638763 627.912720 -772.052917
111.480446 670.992920 -600.216125
396.031647 765.679321 -627.399658
342.860046 737.305603 -611.019592
233.245819 706.414856 -615.073669
3.526963 582.495239 -653.389893
361.489777 736.368713 -669.591980
387.771332 807.601624 -548.370728
265.864807 630.343384 -780.400940
207.299118 673.079895 -656.192932
164.980179 611.719788 -746.566040
348.581482 815.480408 -484.735687
-42.593227 597.089661 -543.938904
154.930511 636.526489 -782.795715
101.602005 639.414734 -605.067627
202.697662 570.376892 -791.947815
258.351135 673.427307 -761.139771
243.166870 745.803223 -535.502380
53.266254 631.542236 -598.561768
161.255386 708.786011 -488.540771
44.498100 628.479797 -630.618835
81.617302 620.835938 -643.990662
-5.150141 634.630371 -510.871704
107.521637 639.378357 -634.585632
61.066776 594.238281 -662.910095
261.737732 629.992065 -787.229492
-22.698883 580.204102 -664.027588
71.749474 589.145508 -710.559509
234.798126 620.815918 -798.418884
302.768280 755.038330 -590.848022
-14.759870 563.656860 -730.605835
304.663239 787.653442 -467.752655
12.296952 599.865845 -643.749084
84.590225 604.415161 -665.116577
236.425583 741.018311 -559.122864
315.406708 643.767639 -796.663696
351.306641 764.660828 -584.563599
-39.816364 607.452087 -583.389526
90.678802 638.666687 -659.611450
94.011345 626.147705 -655.331421
112.851601 678.422974 -572.722900
190.388321 640.222839 -787.782471
37.429379 565.750244 -733.905701
-32.230652 628.399902 -524.391052
221.782150 749.489868 -492.169189
292.511749 725.913940 -637.295959
129.345764 700.263062 -491.999786
237.951248 729.142639 -554.488342
423.012726 766.505615 -721.527649
162.167465 725.579956 -472.924652
200.195282 674.391968 -672.730225
93.238136 584.878418 -724.314453
374.664856 795.108582 -565.610535
414.132050 758.132141 -707.157471
267.327209 765.678833 -508.627350
-35.278519 562.247192 -656.567261
211.775787 671.798035 -699.618408
128.889877 595.672791 -797.056885
312.941742 755.079224 -611.813049
318.766449 764.784180 -509.551117
287.279358 726.925232 -648.151489
210.260696 748.840820 -477.803528
304.814758 606.995911 -782.230042
219.105469 655.863647 -727.886902
48.673840 602.270203 -687.891479
221.257126 632.573669 -779.036499
300.479340 728.143677 -661.667786
293.764160 727.816528 -652.213196
303.814758 720.980591 -694.184570
119.261261 685.310791 -561.824463
331.181122 739.387939 -642.172119
184.852341 632.747925 -715.434814
195.895279 664.246460 -707.471130
311.692413 761.454163 -509.972290
210.660568 647.049988 -779.345825
287.728668 602.458252 -784.109253
351.936279 813.684509 -451.315826
308.446930 781.697876 -484.290039
-39.678513 591.162354 -574.564026
273.234894 790.435669 -462.306458
145.604797 666.531067 -605.604858
10.837167 635.728455 -534.848999
-27.212244 580.858398 -610.521118
68.039658 645.151978 -543.310303
314.738373 724.234985 -681.848450
163.561127 659.658142 -632.277344
260.676544 734.734802 -594.688416
35.587456 663.848267 -521.756104
233.765335 752.660095 -521.480469
382.988159 768.723450 -621.340027
303.139038 705.799438 -691.390015
361.431213 761.538391 -638.801575
-27.725435 631.303467 -523.304749
121.094139 705.867859 -490.554962
283.934418 689.430969 -705.520020
276.148285 706.263184 -684.994385
259.131012 699.917053 -682.812866
328.393402 655.105347 -796.833496
51.475716 658.948853 -503.976044
88.744987 595.925232 -779.486633
190.278442 745.851868 -468.893036
146.603271 656.549866 -612.556152
118.562744 673.749939 -507.080292
255.302551 770.454041 -500.033539
1.683400 584.026001 -696.336731
301.198303 764.554199 -536.621765
-33.664494 594.302612 -614.118958
300.085510 710.201599 -757.710388
326.371033 685.528564 -802.463257
264.987061 645.101440 -797.234680
231.628036 762.550842 -466.829132
173.971710 676.195862 -624.769714
292.438904 730.152954 -574.074158
150.773392 681.060425 -582.101746
299.766235 780.551697 -499.605774
44.723358 645.604675 -538.368042
376.174011 740.265747 -777.662781
393.390137 825.455566 -457.070282
1.468470 602.612061 -606.910461
-69.021492 619.303162 -496.797943
326.822113 663.482727 -792.293213
274.728424 662.957581 -788.668335
270.503479 725.239014 -592.796631
285.118347 770.475403 -484.993378
355.340912 732.947693 -769.052490
384.187622 829.935669 -505.076141
224.486649 702.587891 -600.667725
417.450348 781.238098 -778.487061
284.889282 669.864380 -745.321289
334.224762 750.467102 -658.522522
281.675201 792.802002 -459.545715
368.689453 770.369019 -800.192627
89.318222 608.795532 -658.339661
249.455551 663.081665 -736.646851
253.848618 728.135437 -606.808411
24.032080 637.211060 -574.441528
145.419357 661.272156 -634.264526
244.395172 692.136047 -673.067566
392.908356 752.673523 -729.781982
87.798943 682.757019 -503.746460
138.761322 623.273682 -810.473083
53.510777 659.029480 -502.354645
4.750102 637.525940 -509.952606
334.758270 802.369324 -453.440308
173.739868 656.586426 -695.685486
258.572662 711.514160 -649.995544
248.201508 734.737854 -578.935059
341.921173 794.662598 -501.646362
14.197414 571.299072 -699.220947
215.948074 625.418884 -788.474243
258.314453 637.701416 -792.296448
183.344315 711.499634 -533.567383
309.183136 790.322510 -461.909058
157.325760 620.710632 -731.165588
27.869299 633.048035 -590.207703
388.111176 766.676697 -629.782471
-56.584946 599.290344 -559.230103
317.907867 733.188538 -650.730408
77.073647 647.720581 -536.678345
271.954315 650.369385 -770.270264
150.717484 615.582275 -743.450867
43.507980 639.260803 -552.778992
-30.099058 586.149963 -598.842957
364.129395 774.884277 -566.701050
426.809387 772.369019 -696.895874
207.390305 678.314758 -661.960999
345.937592 763.404297 -624.066345
-25.454908 628.557800 -533.383606
245.589081 765.890320 -498.751465
294.643250 734.956238 -622.863831
62.363178 620.787170 -573.438049
370.637695 777.094116 -584.118408
410.062073 784.793030 -615.036560
129.986954 694.494141 -550.725403
103.506859 612.159729 -690.924561
172.946442 726.387146 -488.148315
258.830688 639.375000 -773.975708
234.839661 661.846924 -718.327820
57.390697 600.987610 -649.989258
-15.515672 652.451477 -497.852692
214.173584 720.035828 -593.277039
61.832397 585.352051 -711.746887
210.569794 653.216736 -758.495605
135.317093 612.761353 -725.496338
-27.334141 597.649902 -616.732727
411.400787 741.680481 -699.838257
112.737946 633.015259 -682.969360
314.116089 724.113770 -688.933289
391.957794 742.925293 -742.249023
427.822968 770.330872 -753.378784
405.833405 757.232239 -667.969910
86.506927 687.043152 -484.927094
319.970245 699.769165 -724.116760
200.900711 650.439026 -756.590332
243.256989 741.707031 -527.825378
318.342560 756.470520 -582.664612
204.028854 647.845215 -796.901672
221.404175 703.854614 -554.426575
92.147842 638.059692 -648.439087
384.480530 791.062988 -564.030762
-13.592237 585.228271 -625.333557
51.304520 657.400513 -564.933289
232.800018 759.451721 -510.348236
352.337250 818.021790 -483.819550
172.248291 641.561218 -790.169250
22.255970 623.207153 -623.072388
364.631165 771.095215 -592.778137
-33.544422 611.939392 -549.361877
44.107197 625.868896 -624.550720
164.333542 718.868774 -512.811523
344.955292 789.964783 -520.453552
-42.723442 622.515442 -535.350952
119.147827 645.132202 -626.123657
272.152954 757.974487 -516.520813
11.654636 631.686035 -584.526855
224.237106 751.843384 -510.950226
355.895630 738.617065 -685.693542
167.444580 684.685425 -596.469482
169.871002 709.845886 -564.074829
253.655716 659.492188 -792.854187
19.508303 634.731140 -587.794617
341.429688 791.366394 -537.415344
275.205200 783.030457 -464.293457
177.953674 577.399109 -804.886841
196.842926 575.710632 -791.523315
347.337616 722.776917 -725.154175
-3.931402 589.696777 -656.894104
-19.258333 601.421936 -628.828064
343.503967 790.698975 -541.511169
63.530197 651.428162 -593.904846
287.248688 695.399292 -706.253784
351.609863 776.362671 -542.491699
56.027866 612.310669 -654.785950
323.153809 779.948364 -515.140137
251.760513 716.681335 -594.233337
171.832947 615.005981 -809.021912
56.310738 652.897339 -532.612793
-4.830862 554.821350 -760.962402
253.627823 688.413147 -778.092651
323.911316 728.905151 -679.541870
186.045319 678.001831 -634.987488
374.666229 824.458801 -497.452942
228.273239 570.193604 -790.352112
330.054138 737.564453 -626.138123
385.490509 794.931152 -558.128967
282.772614 771.533569 -459.374390
312.927460 709.815247 -790.842224
64.377182 603.060120 -669.730103
235.866501 771.871277 -479.162689
345.199677 763.599609 -595.994568
60.585949 622.559326 -633.055298
168.539413 701.795959 -551.897888
-24.606081 629.214111 -502.384277
169.311188 643.805237 -689.656494
156.155869 695.427673 -552.248840
63.887177 634.358826 -606.796692
270.626831 764.606079 -537.654297
78.897980 594.163818 -706.737549
167.754318 679.053345 -615.868896
385.822113 762.789856 -576.812988
8.093165 635.198975 -522.195190
244.789825 754.457336 -505.157318
346.525787 706.137939 -712.277954
362.493713 798.194580 -549.557617
305.919342 749.999329 -581.432800
109.112640 646.913513 -596.402771
140.644409 703.698120 -539.733765
168.773087 695.626648 -557.839172
381.954193 810.913330 -526.628113
338.186249 809.731934 -475.988800
397.109344 777.454956 -550.350342
325.526215 753.712585 -609.744995
192.948578 696.769409 -541.196411
364.626617 806.544128 -512.560608
193.836838 694.186646 -606.380005
144.851227 627.368958 -701.070313
273.126526 692.693481 -691.323669
104.065987 634.911804 -588.007263
10.160900 611.703552 -624.424133
246.793472 696.333923 -676.635803
214.313965 586.906494 -804.632019
233.820511 673.745789 -681.729065
382.812225 751.237183 -657.026428
-15.722464 565.900085 -686.771118
360.232361 770.288147 -637.594177
286.186768 651.050659 -780.477173
358.830536 747.061584 -801.561768
334.419586 766.980957 -549.530640
54.959255 566.826050 -746.131958
356.117798 750.773804 -657.298401
110.882645 658.787537 -587.635071
36.676823 631.638245 -583.731812
331.889099 744.021545 -667.742188
349.232758 775.955383 -595.050537
307.405487 729.967957 -803.106201
394.708160 818.267273 -532.661682
45.848072 601.283875 -671.684387
168.785690 617.272278 -800.785645
138.380478 721.624939 -486.898010
282.295654 595.150513 -795.058655
333.948761 714.922241 -654.280273
297.310730 773.195190 -517.103210
163.073685 556.103821 -799.322388
40.305714 659.693420 -496.309540
190.879578 730.617432 -507.401215
-45.034054 585.414185 -627.740906
82.659332 617.623230 -663.867432
205.469269 666.428467 -707.689270
18.786093 550.577759 -759.197876
-17.217289 593.332947 -631.438171
182.506470 635.233887 -757.260681
92.576225 618.678955 -648.186462
53.159473 654.391479 -525.980408
387.135620 770.664246 -643.841370
362.896515 771.458252 -612.411804
194.315628 733.687134 -500.055664
222.164536 669.341064 -722.697571
179.803299 718.078857 -477.407288
163.682693 713.981384 -521.666016
144.317703 697.769775 -492.770874
33.316879 650.059875 -513.031616
161.906036 658.951111 -682.406921
45.475742 572.511719 -751.198181
202.042969 673.497498 -678.195129
342.002655 770.729004 -522.691528
246.143585 711.825317 -632.631653
324.158478 803.315369 -483.344360
293.716949 618.511047 -786.379944
80.172142 678.997559 -492.252045
253.632095 710.064026 -664.603699
188.496964 731.426392 -497.380463
191.673157 655.216736 -710.658386
14.232082 551.367554 -734.774963
243.883255 675.693054 -705.347046
-27.147448 626.815613 -526.019470
443.221802 786.809326 -702.295410
158.059784 589.177734 -804.469360
171.554688 695.440186 -542.614807
50.578926 627.033569 -591.729370
351.779449 805.568726 -514.729065
59.032959 684.080017 -514.007874
14.348125 585.879578 -678.203857
338.807343 785.535522 -482.471649
316.372040 785.809753 -479.742828
374.632538 767.812134 -594.979614
140.698730 628.915283 -727.736450
12.055169 662.237671 -481.075653
399.741669 786.046204 -523.287659
325.352386 722.260437 -684.749268
293.488617 715.079712 -663.514587
263.052338 574.134338 -792.059570
182.545868 580.410156 -803.659851
188.458130 734.522949 -514.797058
282.620209 764.360535 -545.548401
146.881378 583.872803 -813.765686
147.714493 621.347839 -803.984314
378.743988 810.140442 -493.921783
241.382462 663.970581 -742.520142
278.970642 676.915283 -698.329224
-32.294621 613.478210 -558.059082
232.886688 766.980469 -467.119629
-44.792038 589.058838 -634.317749
352.078339 745.718872 -665.942627
220.188324 655.058655 -719.176575
176.518738 590.918335 -806.762024
83.901840 675.635986 -545.188416
233.310440 712.790466 -598.986084
164.225464 689.372559 -576.482666
376.389893 752.283142 -674.366882
302.275208 690.008911 -784.820129
63.774101 586.675476 -738.785461
415.570862 791.237000 -630.311829
131.987930 654.423706 -580.337036
149.193542 725.426514 -471.977142
241.217667 746.588806 -531.088745
130.766708 684.045898 -551.647888
33.616871 589.057861 -665.067932
25.439514 587.815247 -684.207336
306.363617 689.969971 -698.261841
385.294556 765.521973 -650.905396
316.528839 788.364624 -507.057251
54.610287 630.008911 -625.191528
-55.352375 612.803528 -542.504517
256.001862 731.633789 -590.730652
-56.408680 636.124451 -521.589294
179.639679 645.707825 -774.874695
58.603970 632.250366 -588.868286
367.662476 777.912292 -630.001221
149.357681 620.028137 -755.006958
-27.946480 620.254211 -528.540222
53.448090 624.851135 -601.603882
211.813812 643.954285 -801.737488
220.974670 759.847717 -465.618134
151.649139 682.209656 -496.315643
5.668703 573.523499 -708.985840
342.605621 748.702332 -624.105225
198.563904 562.437073 -796.754333
198.803268 733.148926 -491.468018
217.712204 686.080139 -580.466736
337.850677 746.324402 -670.288208
209.940918 650.384644 -730.653259
83.244980 624.046875 -649.113708
329.242310 704.615784 -794.989868
334.565918 669.300232 -788.834778
186.724945 657.159607 -713.501038
196.141922 663.302490 -667.468506
356.826752 775.991272 -555.815552
119.756325 689.557861 -560.532898
204.434860 733.372314 -538.719849
201.916336 685.431641 -618.891602
110.948639 615.509766 -669.750488
304.740936 726.476379 -671.630005
320.578033 808.970764 -465.248962
333.442505 641.570313 -789.549927
265.873413 752.883667 -529.595276
145.881378 686.297363 -602.439270
247.846939 763.301514 -505.896881
153.155472 728.844055 -470.394470
116.380676 632.326843 -699.437866
20.439299 610.234192 -653.433289
256.547241 773.693237 -488.293671
373.205811 757.430115 -794.732544
54.319050 650.397522 -583.622253
249.043076 686.580688 -687.364075
222.911865 741.780090 -521.333191
212.321274 697.499390 -611.467529
353.038086 785.623352 -581.545715
159.105896 667.282043 -619.595581
304.996033 643.270874 -778.286926
219.709457 699.329468 -615.024353
137.962265 693.411865 -519.437683
348.495819 781.318359 -567.261536
221.757523 764.518616 -469.517700
427.206909 755.288696 -718.838074
-43.067665 612.249023 -508.876343
246.372177 753.937744 -484.596680
405.990082 735.700745 -708.319458
194.974716 692.130920 -592.824951
192.703568 651.247498 -700.536865
409.204193 789.479431 -632.165283
353.784546 751.548828 -797.482666
6.037668 603.438660 -604.450012
213.058533 652.143250 -800.063171
403.515320 729.341553 -717.572815
78.781097 684.557373 -514.695129
211.471329 611.810303 -800.844666
9.384322 585.677063 -612.858887
334.348236 720.099060 -717.520264
-4.891857 595.332336 -657.988281
279.932800 710.378052 -660.783325
314.250488 736.682312 -576.804871
220.298370 732.281006 -541.725647
289.463257 707.156860 -690.900391
29.031395 561.483521 -747.361084
183.410538 712.488586 -486.648254
307.186859 722.634338 -782.622986
323.449066 674.601318 -786.276184
-52.571308 602.035400 -507.031921
334.467987 722.126709 -735.086426
238.303177 640.221313 -784.429504
186.285934 648.324524 -786.700500
220.193985 646.511597 -791.852783
40.664471 605.289612 -672.557007
214.636734 594.099915 -788.992859
400.186188 769.206970 -785.515442
140.143478 629.307861 -797.236084
19.903221 573.305969 -658.333069
165.488953 735.393555 -484.453430
12.330566 570.266785 -733.346497
182.011002 666.767883 -649.398193
144.318375 722.783142 -490.193970
286.770325 673.538452 -781.030396
-20.750433 629.394714 -501.973969
-29.178524 632.915955 -518.608093
268.281586 767.627808 -511.097809
69.470100 612.207275 -651.777344
148.315826 681.613098 -577.764832
33.387432 642.618835 -562.324280
236.404770 710.066833 -609.480835
194.423691 687.830261 -623.147583
28.783592 578.423157 -729.342346
364.456635 794.915283 -521.139832
285.825195 777.056641 -493.811615
209.955399 587.495972 -805.391968
43.843655 574.314758 -745.456299
158.918488 682.433105 -580.183472
320.272125 761.951477 -583.017944
3.965866 645.510620 -538.671204
200.160492 654.944885 -783.193115
49.398251 618.059875 -652.993896
315.262360 614.979675 -787.874512
98.147697 637.068665 -634.520203
184.099701 690.849304 -545.234924
263.880646 672.600830 -757.204041
-23.819296 592.866150 -632.054016
95.765968 608.852417 -815.844177
285.679596 644.485107 -790.886841
291.913452 721.270691 -663.525574
175.416153 616.550964 -803.936462
358.394836 746.263794 -807.441711
334.344208 752.036865 -629.020142
137.191147 633.564026 -675.760681
146.325455 661.157166 -606.711731
93.202065 672.323730 -524.869873
266.331238 620.817017 -806.302307
252.592102 716.456421 -633.897705
179.389084 655.070251 -636.637085
140.558609 625.936768 -713.858887
2.315907 637.998291 -507.567505
-5.588293 631.634583 -553.973328
201.315674 730.214355 -544.347107
-0.238061 614.412476 -571.784424
354.218353 817.043762 -488.261658
284.651611 731.498840 -591.542175
271.431915 685.487610 -726.881653
286.088196 597.527527 -785.795959
14.237546 605.713440 -601.937866
92.335205 586.758240 -739.425720
69.240021 581.978333 -726.083496
256.867615 752.184631 -500.435272
60.491283 594.291565 -728.967712
230.452042 693.386536 -640.320984
283.606934 724.510254 -627.552734
130.364273 660.910583 -535.488831
52.530903 656.109375 -569.951416
318.047455 618.780884 -788.268494
163.806229 621.492310 -755.960693
164.735245 586.130737 -804.379944
88.959610 620.182190 -653.689758
87.513809 677.637695 -506.884277
260.381104 757.905396 -499.320465
222.670074 661.477722 -713.371460
321.757690 794.585144 -468.707001
207.291214 687.865356 -628.579651
125.221977 611.179565 -677.808411
347.990479 756.916199 -797.673828
262.221069 688.030029 -754.720215
214.600601 689.693481 -651.477966
324.978943 763.023438 -550.612976
297.514526 692.319824 -733.043518
188.249298 642.857971 -710.200073
74.567978 599.181946 -688.993286
185.474747 650.126282 -745.606018
65.852013 612.121460 -680.562622
6.500287 588.149170 -612.464783
340.861511 806.236816 -490.330658
195.503860 638.544922 -795.862366
133.546066 671.274658 -581.366882
264.305267 586.382568 -801.310913
99.189453 618.560791 -721.027954
222.266266 715.245056 -601.005005
172.244141 667.025574 -593.160095
46.865025 594.368896 -640.908630
121.405937 669.430542 -558.087585
299.433624 749.059265 -576.651978
-63.326057 608.061096 -510.455780
196.506989 649.110718 -711.306030
311.974976 691.000366 -779.428772
239.919846 732.695068 -538.048157
9.818018 640.646423 -507.572998
379.781433 746.533997 -685.734619
94.751122 671.386841 -539.894165
86.167915 644.435974 -570.397339
210.903671 661.272095 -785.853210
213.346664 544.908997 -786.051636
247.031738 680.245667 -714.759766
58.514339 657.579834 -522.874451
72.692253 646.314209 -585.426697
341.804840 805.425232 -466.853088
55.662792 652.774231 -546.217712
384.875641 808.477722 -548.274353
256.141266 758.135620 -463.191193
-51.402611 607.334412 -563.642029
399.337524 789.192139 -569.322754
406.984772 792.480591 -614.851196
202.784576 699.162842 -596.944336
292.151489 693.820374 -724.142456
287.344757 670.708557 -787.904602
176.193848 644.604614 -689.920898
54.812332 621.230835 -664.475281
262.146912 648.232727 -802.697571
-26.095276 634.879089 -496.471100
31.752232 618.440491 -631.349792
293.913177 771.380615 -503.888519
239.842590 563.719849 -796.449402
294.542816 651.110168 -795.103821
279.479218 764.294495 -544.471741
301.368622 795.927612 -456.670258
422.906189 767.723083 -754.274719
-23.541773 636.358398 -489.591553
142.435623 681.271179 -574.389465
156.568359 708.061340 -504.308350
217.528183 595.729492 -803.698547
294.048157 785.318420 -470.414917
279.600830 717.520020 -639.120667
203.838455 677.624878 -687.010071
234.725235 692.022583 -654.268433
293.972443 774.621277 -537.582214
350.176147 720.513550 -718.716797
-8.483256 586.571472 -594.053711
92.358139 639.755371 -591.016418
15.821115 607.703979 -644.134705
-49.629887 569.994263 -663.176819
-67.809540 610.362427 -546.241089
282.846344 754.041199 -550.144897
286.697968 719.713379 -662.941895
37.179306 615.500732 -607.951111
174.220551 719.836975 -524.319885
93.906265 677.281433 -543.656738
115.842552 673.993530 -547.599609
380.848541 752.869385 -651.694641
327.020874 754.428955 -633.466980
-63.028450 602.206299 -574.570435
-33.215237 641.831299 -512.674255
158.587555 709.538757 -510.846588
102.873795 621.868530 -666.710205
271.048279 628.296570 -794.005249
110.236130 632.997498 -630.998291
159.932877 648.017517 -680.399597
220.970001 728.959167 -536.989136
214.457840 570.525146 -796.285339
47.115753 600.408936 -659.372925
378.427979 744.897156 -699.196594
22.456980 644.089661 -505.265442
71.661842 642.779541 -624.528625
96.865410 645.003479 -646.565735
179.907242 654.681274 -631.877258
128.914261 633.983276 -708.122192
387.556335 805.118591 -548.070984
99.761925 633.122437 -667.317932
32.537491 573.831909 -700.641357
-35.859756 581.047729 -568.785156
304.939392 673.342468 -788.480408
93.505203 658.229614 -578.649841
140.890594 652.101135 -616.476135
-22.477173 623.688782 -555.886230
186.236465 727.039124 -479.758514
321.005798 683.554565 -791.255005
328.166962 770.507690 -590.962219
95.689323 643.105713 -640.002869
46.527382 618.527649 -658.005005
60.449196 647.579834 -599.864014
49.241348 646.525635 -517.679871
