ply
format ascii 1.0
element vertex 1409
property float x
property float y
property float z
end_header
695.528015 294.562653 -413.085785
755.680786 345.620117 -329.634338
783.599548 306.278656 -324.915253
934.748352 42.914021 -413.479187
1022.289246 320.364899 -202.204803
791.605347 369.959656 -290.404327
773.791016 343.308136 -321.908112
683.969177 299.623810 -393.649597
929.984070 303.234009 -266.641266
623.009216 243.075241 -455.323853
1065.091309 169.000778 -321.948456
997.949219 255.453690 -262.780334
654.712524 263.883484 -426.322205
867.369446 105.250015 -405.773590
685.041931 257.058350 -412.070343
927.395752 360.177917 -234.984085
708.034180 155.146957 -441.619751
908.606079 73.926018 -437.737152
927.990601 414.974213 -201.675415
977.886414 243.143234 -288.660919
815.817322 93.046799 -457.827271
857.490662 305.757050 -289.842834
996.192200 150.602966 -347.483582
853.464417 399.180756 -244.680771
938.675232 91.568283 -429.625916
948.107666 87.656525 -402.704956
874.695007 368.608063 -256.908447
884.127563 440.661163 -196.670654
968.592529 122.986076 -385.202789
701.321289 190.677002 -467.603485
761.987427 34.035969 -512.736511
812.591675 237.294678 -363.179871
926.746704 132.454575 -374.323456
906.411804 123.190750 -403.748901
1003.063049 234.116974 -256.978394
617.843933 245.021973 -458.394196
890.126160 324.810150 -261.372589
740.447205 91.042236 -494.057648
795.132935 202.902191 -389.594910
770.551575 52.218491 -517.833557
699.131042 116.448372 -508.520203
673.434814 145.831573 -489.440918
821.201477 114.667046 -422.330811
800.128601 305.605042 -324.066833
1037.872681 211.414673 -267.259857
1025.960449 255.158630 -232.863617
911.680542 379.637817 -222.408783
868.073364 246.276642 -303.692474
816.973816 220.839737 -371.418762
1030.638306 268.967590 -234.881699
827.563904 365.106689 -264.280151
874.539001 395.462433 -231.658798
883.207153 283.662750 -294.701477
1052.406616 267.628906 -223.279053
811.403198 334.138611 -294.842041
692.176880 91.639679 -512.615479
885.680664 341.983124 -259.646057
910.434448 43.701752 -429.619507
635.537659 203.170715 -465.737640
1065.231934 277.445648 -214.264557
701.092041 271.052765 -403.100220
789.015503 212.385117 -407.406067
912.622559 259.870209 -268.494202
1074.474854 220.184174 -226.065155
895.114502 343.801758 -237.946564
1050.594849 288.567535 -212.131088
1057.887451 137.545059 -320.659698
847.299377 230.945969 -344.966217
948.582458 72.984406 -399.255280
895.038330 242.437592 -316.639954
732.973999 37.656731 -523.183350
660.782898 241.975433 -448.987640
755.087463 298.889435 -353.647919
739.889648 280.084351 -382.299957
925.014221 142.978409 -374.502289
796.821289 54.950397 -504.602142
827.792358 361.002289 -283.005676
755.505127 114.798401 -466.212097
927.965454 406.440826 -191.796768
1097.348633 249.074997 -215.011200
745.487305 297.413422 -358.987152
768.336975 318.402710 -325.424927
596.762573 211.878204 -488.658966
754.522156 60.986877 -477.420410
949.464966 112.937599 -397.365570
708.538879 179.986771 -437.633484
735.196899 126.332611 -472.604309
818.011963 341.663208 -301.236877
794.428711 294.953430 -333.399628
802.156738 95.283386 -454.091614
834.960022 198.319397 -389.643433
760.790771 31.511993 -516.430664
984.288879 161.274597 -326.055084
743.525085 173.651138 -449.710938
933.469238 310.150848 -255.885910
936.061401 272.990051 -265.935425
1053.468140 238.774368 -248.290649
715.883118 95.071800 -527.291992
775.659058 240.961685 -378.659058
705.774780 266.098602 -392.513062
728.438232 63.879116 -527.376587
875.536987 162.174591 -373.233429
1012.625000 284.485229 -210.759537
775.819275 60.721355 -509.477936
662.109070 278.323212 -380.575317
939.788513 212.211517 -316.115509
910.734192 152.390884 -378.844055
909.643188 261.928894 -294.799866
728.580200 234.597382 -389.377777
910.576538 365.963776 -236.134735
778.500977 220.519989 -389.987244
893.156494 438.895172 -197.378952
911.239319 167.783035 -365.053864
837.774780 138.291702 -425.171875
677.294128 157.413666 -483.410553
775.963135 215.447327 -390.144714
1013.730591 124.708305 -342.255096
700.359131 187.579514 -456.255341
910.447632 344.515106 -217.459991
843.346069 232.667145 -347.500031
761.770020 92.993668 -493.118164
706.032776 277.011719 -390.559143
1019.851318 285.270508 -231.679733
907.538940 153.640259 -364.532928
960.482849 184.872406 -315.953217
991.269531 134.466049 -351.007355
1021.258667 187.755859 -289.276733
676.926208 177.519989 -477.985168
821.473572 92.089722 -446.854218
829.200562 140.031662 -426.558838
930.274170 234.344635 -303.032043
784.588379 360.268494 -289.937866
802.064392 323.536377 -301.414185
920.970459 386.678650 -201.228043
642.849670 188.028641 -449.349274
906.753479 390.619202 -218.371857
927.984863 40.256805 -400.484100
955.467834 84.119316 -379.870544
997.447937 345.548157 -202.946762
699.228699 119.588943 -466.519440
857.064087 273.608673 -313.588989
700.851135 245.028351 -410.948425
925.541809 189.428604 -336.710510
918.602844 397.692169 -184.222672
904.905334 280.971863 -295.014252
762.860901 305.670563 -327.544708
671.492004 156.646088 -478.650269
891.299011 130.743378 -400.273376
772.342773 141.202393 -441.287598
804.542969 246.628860 -349.485901
725.848206 205.371155 -422.469513
802.266785 277.708344 -337.918060
844.716064 319.175232 -285.888489
950.965942 345.633606 -224.125397
936.850464 226.053040 -314.266266
922.506409 222.102264 -316.795319
1037.166016 275.475311 -230.679840
970.824036 169.508224 -321.943848
973.687256 144.363510 -368.387543
903.620178 42.290905 -430.761780
919.763184 148.627792 -355.293396
947.975586 302.167480 -243.101746
1012.198792 82.088722 -300.987061
631.270020 227.469391 -451.256592
819.966187 78.015976 -454.010437
719.750488 127.089294 -453.328522
819.437378 235.431549 -360.517365
992.820801 338.897522 -207.549652
960.132629 121.362534 -391.879639
746.343933 179.026962 -444.579803
868.443909 65.557991 -459.579254
783.885620 119.056709 -450.022369
760.155884 295.902405 -362.456543
949.204041 179.250519 -330.247925
936.047302 70.576569 -421.381714
1091.304077 193.178329 -283.036469
953.337891 35.502163 -345.113098
804.976135 363.626343 -282.781219
681.573669 260.655762 -411.001923
600.171814 232.805099 -474.626038
823.005981 346.066345 -299.613770
1118.132446 226.829636 -259.400818
964.875427 100.355415 -376.313385
835.918091 342.491364 -291.501953
912.237366 31.685387 -429.888824
930.303284 278.149780 -283.515594
942.495544 138.391449 -361.883179
830.963867 168.382126 -407.685242
851.229797 339.336426 -266.020325
716.919250 324.903351 -363.599335
764.699585 333.981812 -323.520355
856.911621 27.582300 -512.745239
762.322632 217.295486 -413.958252
766.854797 111.932945 -462.085052
781.332642 199.692291 -401.406860
740.045410 204.778030 -415.359863
713.199036 120.860672 -503.787506
717.025146 302.741577 -362.812408
821.972961 103.767555 -458.306183
790.154419 207.001068 -406.413300
1036.096436 284.281586 -223.506821
685.210571 133.002289 -503.893188
607.388550 219.863251 -504.059296
1036.140991 218.746429 -260.216064
950.474609 302.396423 -236.765625
826.346008 284.329376 -322.318329
942.013672 93.618668 -416.330383
981.319275 103.555977 -355.730103
990.431824 88.733963 -318.517944
762.166504 195.522491 -413.073578
780.152527 255.339401 -361.017639
821.697144 345.301971 -280.990204
981.005310 269.891479 -269.459473
852.756958 192.655807 -384.324768
658.170166 226.449234 -438.957672
764.072754 255.572250 -376.182312
792.977661 161.091766 -432.668762
1036.562012 293.991821 -224.692764
888.080139 133.222214 -386.071960
951.774841 242.265808 -287.006470
930.521057 29.945404 -402.068329
813.032410 297.128052 -291.542480
615.216736 242.627335 -465.940826
746.513794 63.206924 -517.104065
640.261230 200.907761 -470.279327
1022.152405 311.800598 -212.451096
856.457642 120.631905 -427.422974
776.161438 90.840469 -449.724640
839.101685 329.278137 -290.371826
985.179688 67.877083 -297.175964
759.427979 55.733463 -484.686707
998.058838 269.783020 -261.933289
829.306091 244.420898 -325.689423
938.631165 176.659225 -337.423340
990.343750 110.760170 -362.860596
978.010315 101.622490 -360.926788
939.335571 373.131073 -215.015900
637.895386 207.697464 -483.796417
996.493713 75.655602 -336.320343
966.476196 53.722424 -359.525085
1077.159424 168.017776 -312.667053
786.375305 271.639343 -353.455383
1007.531921 251.191330 -237.821320
1009.782471 211.136841 -293.344391
780.574646 138.218506 -438.507874
953.775208 366.340118 -199.261261
1078.154663 206.371628 -246.481659
917.994568 235.689392 -317.085693
920.528381 332.262390 -249.910385
828.094482 303.729706 -279.476105
858.255249 218.366409 -362.674347
921.921631 335.061707 -252.759995
658.847473 210.495117 -470.777771
1012.812256 254.064377 -247.003006
814.997681 327.349365 -293.583862
617.007996 229.301270 -463.651489
604.077087 236.960724 -468.891968
945.988281 300.008911 -256.747101
884.495972 405.199127 -222.631958
1018.398315 98.949791 -322.886475
913.873718 36.114288 -434.695709
871.648071 228.542007 -348.356873
834.431702 367.983063 -247.726669
633.670654 225.759064 -461.692688
704.107666 79.017723 -534.204712
780.862366 135.053452 -428.993469
737.722229 236.850494 -369.110718
651.015076 249.069199 -408.659088
739.056091 124.053368 -469.511627
642.936951 171.114258 -491.385010
1089.033813 209.355820 -256.244751
753.883545 148.837982 -451.404724
966.855408 47.880032 -321.726898
833.122253 345.885284 -283.724701
914.464478 168.750336 -371.438202
618.617249 217.639465 -469.191772
1014.201843 208.139252 -293.262421
677.163025 123.611511 -494.790527
664.086182 284.219452 -401.846191
973.262085 76.517059 -355.419250
880.547363 386.463440 -236.503494
760.169434 307.235840 -344.898682
976.548035 218.119339 -300.868958
830.399414 189.867767 -373.176880
911.760986 129.972855 -392.291687
789.672668 321.479553 -314.068756
973.763123 59.621559 -351.978973
838.052917 303.893768 -302.447479
988.594604 340.618774 -201.579071
805.853760 110.085381 -457.482452
769.210693 191.306366 -427.088287
923.673767 43.747601 -389.795654
801.700378 180.089325 -419.619904
942.942932 64.181572 -378.137634
924.548340 285.959381 -281.029816
934.155701 340.028351 -218.686890
908.119629 300.947723 -279.896088
799.546509 1.830475 -564.674194
907.253906 347.798065 -237.735962
755.174255 55.330059 -529.341919
1051.300171 256.479645 -233.989883
783.418091 137.740707 -437.611176
742.826599 342.374115 -333.226776
732.916321 63.683064 -505.460449
858.470276 360.461273 -226.956268
621.411499 165.610687 -484.127319
669.266785 208.972107 -462.516632
915.493774 349.059937 -238.252991
812.069275 136.578430 -438.131622
707.962219 275.724792 -389.611664
634.829407 175.605423 -480.908295
803.016663 306.052368 -325.511444
921.479980 87.381020 -429.421692
894.152222 46.618256 -493.753662
679.737488 185.234451 -482.181885
1046.328613 249.727631 -244.827911
925.863403 41.162933 -422.472046
769.861145 29.215548 -493.072296
791.869629 99.486847 -461.640564
867.918945 398.859467 -226.499527
1028.299438 202.775742 -276.989746
811.172241 240.000122 -374.342896
834.894287 385.360718 -253.778442
960.900391 342.419189 -222.609970
759.624573 104.643570 -479.235901
909.034607 44.779869 -477.126190
638.438354 255.737595 -469.009979
870.731079 256.173096 -319.947479
785.465515 284.382507 -346.980164
851.939148 174.156448 -372.764740
948.742004 125.718018 -363.787628
670.853455 149.186569 -460.669067
984.898071 67.860275 -310.181732
1030.373779 275.739716 -216.691650
980.997925 184.055817 -317.970612
941.020264 386.573029 -204.281189
1014.909241 316.363892 -194.278671
726.474243 176.938660 -463.576782
924.801758 178.328842 -352.621674
813.890930 127.076668 -443.213684
903.697327 21.891506 -407.692993
952.126526 31.574715 -374.471863
694.970703 183.162323 -452.290131
937.335632 91.296265 -390.214600
935.756592 385.435577 -211.470886
941.016907 331.193695 -241.436508
998.592712 343.403778 -203.865128
836.271790 361.770874 -260.577515
824.995422 106.624527 -454.844116
1025.076416 282.073792 -218.588348
930.217285 341.392334 -218.765732
873.889832 303.909119 -298.304504
1097.964844 181.420700 -304.203949
1085.130615 183.505020 -304.089722
839.669922 199.606461 -369.564606
646.292969 172.310486 -496.531830
850.030518 373.040497 -245.450409
831.024170 249.048187 -361.088409
744.540527 284.293915 -366.432465
631.312500 245.636887 -446.496460
859.438904 294.645569 -312.731750
595.275146 193.800705 -510.717743
644.183105 141.343597 -489.286560
804.200989 153.343796 -422.760956
881.915771 260.813629 -311.857086
835.559204 196.586227 -390.238617
643.477600 180.615616 -460.100769
724.987305 176.000366 -464.662964
1007.643555 121.723389 -328.836700
964.540833 268.950470 -267.232574
965.122559 332.503265 -217.495544
1014.422668 215.253891 -275.768127
1077.069580 250.031479 -225.861542
914.630371 166.410034 -365.911133
984.130493 368.014313 -192.810257
961.145813 363.362030 -206.698456
1042.953125 234.723099 -223.457718
688.450256 136.252777 -504.646698
995.945374 117.175163 -357.483734
1058.916016 271.765961 -220.639633
774.342346 336.031494 -308.221252
973.936768 165.902985 -333.858215
883.146851 154.460938 -379.682739
811.202820 281.065277 -331.735840
983.034790 106.068062 -372.641144
989.590027 320.908386 -202.762024
955.313293 238.076218 -299.453339
765.006470 288.412994 -347.972839
948.449707 34.989845 -320.093445
914.682739 54.630405 -435.425537
1053.641113 162.312317 -339.119263
751.923218 115.226128 -456.823486
892.731873 125.201988 -404.198608
877.428040 101.121185 -406.709442
853.846375 230.873245 -341.844696
964.882324 173.664398 -320.140106
946.281006 351.306061 -184.406525
1053.486450 131.378113 -310.021423
968.713501 236.586044 -293.050140
1013.346680 84.319046 -317.221313
811.000549 222.895889 -373.173737
921.110840 370.823975 -226.268280
984.805115 306.030670 -238.679413
1017.665222 136.864761 -354.041260
677.732605 262.925537 -419.067963
637.980591 230.019073 -461.215637
1034.152954 246.941467 -244.599213
763.444336 67.749100 -498.770508
1001.187500 106.738266 -350.875793
1043.846680 125.971771 -308.632874
796.202942 192.517639 -416.342834
815.337402 391.382629 -260.626801
809.013672 109.197166 -449.372253
842.810669 171.839279 -402.958405
695.621765 199.830048 -459.103210
953.753052 69.631020 -393.448792
870.667175 397.484741 -196.555298
796.105164 308.705536 -322.138580
704.369507 265.222137 -411.660980
897.726990 333.631683 -246.843231
903.381104 357.500702 -245.602768
762.125427 267.692291 -361.891876
809.385498 313.723969 -327.509064
832.626770 392.487732 -253.516083
927.406311 119.786949 -404.940460
806.145081 111.316360 -456.513977
839.071106 411.273193 -236.836685
742.046631 117.936111 -474.427338
1103.271118 265.623352 -215.757202
995.762390 276.011078 -244.413696
827.975586 239.103775 -353.553619
892.158630 142.221054 -379.699127
805.690552 321.061279 -303.180756
898.796204 319.012085 -244.233536
648.786316 188.082397 -473.290344
948.774231 314.579956 -228.877914
861.580078 133.550888 -416.685028
1009.708374 207.671494 -282.486359
852.462830 261.642914 -319.733124
960.354065 375.392456 -202.024750
933.256897 67.966728 -427.722687
911.791138 419.698883 -182.919647
972.472900 86.269653 -378.065826
821.951233 98.439835 -464.711304
639.233276 272.595734 -388.780792
731.850281 84.786621 -514.537842
602.597229 200.041397 -512.181580
1092.185181 236.865326 -209.265518
672.885132 238.645813 -444.443268
828.326477 393.274323 -252.251144
744.633057 280.495941 -385.213104
788.715698 371.383209 -285.987854
941.130615 38.028782 -359.670685
950.952637 76.305077 -416.004211
939.585327 148.604141 -356.661987
1111.733032 238.781448 -232.953629
1027.151367 277.506531 -218.749496
1022.665527 248.548706 -252.695587
857.037598 140.424805 -381.238800
891.783264 120.096458 -406.704346
828.689758 363.091827 -271.482483
818.450317 265.322998 -353.530579
916.804260 276.397186 -283.171265
935.858032 288.214447 -265.133728
877.701843 112.400589 -419.957397
1002.518799 70.061440 -322.897919
951.033813 151.535858 -363.153015
755.378967 269.391357 -386.884369
983.028198 112.391266 -384.645966
903.000366 264.914276 -305.172852
759.447205 211.094452 -401.290955
924.041687 31.086157 -374.033356
815.018921 246.272293 -345.284271
994.963318 237.148605 -282.395538
833.675781 396.154480 -240.035385
1054.782471 277.966858 -211.758118
862.557190 411.158020 -230.003433
1023.921265 237.360321 -255.387939
739.425415 165.297501 -459.388733
825.660522 66.914543 -477.574188
585.043335 207.966599 -496.115021
771.729919 322.475891 -318.386078
752.904968 52.582493 -514.345947
1003.215820 205.387024 -300.800537
935.517273 283.440765 -279.964081
944.090454 350.751434 -205.765076
1029.695313 242.792480 -222.545898
832.402466 68.303871 -453.661957
992.301453 175.776672 -332.211182
1035.270020 299.574738 -220.181839
782.251465 12.982704 -520.524109
772.805786 276.907440 -371.994049
832.976929 169.118881 -408.825653
1030.986816 212.924698 -287.923462
1083.153809 205.784622 -259.806946
704.212769 118.979431 -495.750641
655.813782 147.085754 -490.812134
916.362793 332.011963 -254.732895
943.898560 388.033813 -198.222061
855.666321 373.639893 -226.640320
777.328918 64.128784 -499.758759
977.578247 61.307728 -339.538879
985.575806 202.349640 -285.401306
844.664001 335.761536 -277.929962
948.902954 375.716339 -197.755463
832.430359 283.258972 -315.150909
900.768372 433.932556 -178.821854
743.141235 122.266792 -486.557434
707.187439 87.596436 -492.943939
933.632690 339.325195 -229.451523
941.914917 371.206818 -195.746521
865.607483 78.888763 -424.916412
999.618469 153.784088 -351.948792
936.008118 25.280575 -377.643890
1022.944519 204.298508 -278.354370
809.933044 196.002090 -389.342682
866.669250 103.141220 -421.505127
672.299683 187.192474 -483.977295
675.392700 153.140091 -504.495972
1033.237671 145.338623 -339.402100
918.498535 237.106476 -323.091370
1011.356201 108.633995 -337.492798
708.956787 181.959473 -432.489716
899.848511 177.977737 -355.505096
764.980347 74.241768 -482.207886
981.391724 81.440735 -375.730103
807.403259 221.070770 -391.994507
620.713379 213.311493 -481.526398
777.229126 208.726349 -399.525452
717.363464 227.051025 -429.416382
704.110413 236.285919 -403.807037
1070.551392 187.205139 -270.834656
920.459167 154.978912 -361.302460
988.094299 343.360535 -208.174896
1079.409790 163.612381 -322.067261
973.998047 250.166000 -282.234344
946.389771 388.483459 -196.974319
725.339417 141.235611 -462.709961
945.102783 305.691559 -245.480759
716.260620 299.027130 -371.059235
779.464050 211.783829 -408.574005
931.327393 383.105896 -205.793076
635.614319 259.032288 -444.780060
820.944824 292.909058 -337.053101
994.202576 68.921814 -320.824463
592.836243 210.207245 -495.647797
918.944702 308.331757 -257.720978
878.578857 398.441803 -209.622116
619.001160 180.245789 -506.847046
864.293823 161.565125 -389.273102
964.437500 240.183670 -292.215363
613.604614 205.707947 -496.098022
814.380798 357.043488 -284.539185
861.064575 181.898407 -368.088440
961.543701 45.132130 -353.556183
838.012390 336.329498 -287.764771
744.334778 335.875061 -342.204193
906.235168 232.275299 -318.024933
875.869141 100.395432 -423.963074
802.150940 68.958595 -490.404694
1016.192749 89.605659 -295.188751
888.264038 61.754654 -469.844757
1025.989258 323.260162 -214.452728
788.729431 90.857918 -468.641266
785.387024 364.773621 -295.936035
871.558716 152.161591 -376.095551
673.368958 117.777565 -514.089844
1018.457153 251.320251 -252.887543
873.330566 310.062042 -294.552338
996.394592 264.281433 -257.881439
976.551086 244.615906 -266.846710
952.906799 33.762215 -335.831177
906.545288 160.652802 -360.743774
789.998352 350.641937 -288.931641
851.311707 269.747070 -319.746765
898.507751 375.049042 -223.323944
947.823425 246.193634 -283.937683
877.359009 339.917419 -253.726959
624.390930 246.868561 -467.276489
871.065125 381.157776 -250.125504
1029.895630 119.014923 -299.480774
996.061890 164.318726 -333.556549
1038.409058 224.964020 -258.355774
725.361206 131.304443 -463.346863
772.065308 246.940414 -392.423737
843.996277 237.304749 -357.104340
1036.833130 133.822433 -329.110840
948.034607 273.725922 -280.611511
665.163757 154.191513 -487.121460
857.040161 390.999054 -242.813934
982.842896 71.050568 -348.856018
781.232910 218.768036 -386.763458
813.027710 60.139236 -486.145416
783.469177 132.395584 -425.516663
964.919067 196.067978 -310.185242
907.431458 313.835876 -260.152649
817.707886 155.885468 -411.112122
958.537964 73.554230 -364.257690
986.170410 204.065002 -305.306580
778.059570 331.263092 -312.046814
800.459595 331.037781 -296.996735
867.508118 418.075256 -212.044556
915.525940 66.777306 -445.901489
843.870178 293.043213 -306.754883
758.774841 107.670937 -491.978455
754.867310 38.747650 -500.276276
955.724182 69.948830 -405.127258
765.568420 308.448334 -340.453033
980.337097 101.905922 -375.884644
811.636536 374.789124 -268.972046
870.496155 284.599060 -313.949615
729.281006 181.921188 -444.320648
916.036316 197.060471 -345.367798
835.056396 315.007111 -301.674683
664.697327 173.881973 -448.265137
704.932190 94.356674 -511.409210
1009.669067 244.286530 -272.264313
756.949524 291.496124 -351.246552
838.796387 180.986160 -396.551910
834.833130 297.299194 -304.464691
761.030579 152.077927 -422.101074
585.552124 215.629105 -479.997589
1052.290161 177.543533 -335.650269
860.018372 362.208984 -262.769836
940.466248 349.947357 -210.043030
931.124268 283.137115 -261.416412
889.060852 362.601624 -246.649994
854.550598 398.710236 -245.472305
914.099487 336.977295 -258.370361
1034.711670 113.543152 -302.730591
757.614929 282.435547 -362.458221
902.669373 230.968246 -323.681793
775.897156 288.937805 -334.421051
883.636475 400.803955 -205.492188
877.300598 222.263672 -352.879089
1065.661987 239.454132 -228.072632
888.617065 263.325470 -302.499390
869.343567 142.305634 -387.591827
949.633362 53.426334 -351.873779
720.557373 302.661194 -367.267120
915.332153 266.178650 -282.618652
753.808472 262.303558 -370.535034
750.229675 329.227814 -351.128326
901.148193 335.831665 -248.051193
963.715576 257.028778 -261.526642
839.652832 346.619446 -277.531189
870.278198 342.356781 -274.288513
669.958069 242.496628 -444.010834
728.850830 259.919586 -388.784576
935.661987 295.371490 -258.666992
821.141968 111.412102 -434.538666
686.090393 130.026321 -509.199554
845.114929 210.312195 -354.151245
880.575256 413.027161 -202.598465
898.161438 226.888245 -334.834229
923.096191 377.208618 -204.726013
957.560852 397.152252 -172.232574
681.643188 257.088776 -388.964722
738.830627 309.658386 -364.495544
941.886292 122.241386 -370.247070
856.512878 164.671463 -397.371460
770.464783 132.935471 -439.826263
644.270752 254.255692 -428.200073
1039.794067 112.444832 -320.796570
636.688232 248.594498 -468.246460
851.136230 121.904678 -411.992188
953.566772 289.944275 -270.374329
779.277832 315.500366 -320.174164
951.517212 260.744263 -248.384033
748.268982 185.252731 -439.968689
937.152771 64.425491 -430.529510
962.888306 264.336487 -277.893860
656.223755 200.910812 -463.655823
807.904968 253.468903 -354.691101
1025.471558 260.900970 -249.601730
725.514465 249.315903 -411.521210
1007.075562 222.912125 -260.620300
993.408569 219.410645 -286.149292
843.946533 345.001373 -280.863525
901.185974 427.222015 -197.117706
1009.592834 100.449661 -329.695313
796.282349 13.968775 -532.719177
839.380798 251.067703 -337.464966
1016.800232 248.924850 -256.609528
719.514526 176.627975 -467.395477
779.929871 284.572266 -349.186127
966.197449 86.942070 -364.308258
916.487488 324.196655 -262.518402
1009.004639 109.582764 -338.638184
835.310974 276.820679 -303.774933
769.927673 264.873230 -352.004639
894.954895 204.202866 -343.982941
759.224548 342.354797 -322.841522
819.119690 297.994385 -331.261139
708.769104 161.540604 -470.886841
842.810364 343.289398 -291.523956
837.045471 287.803833 -324.508789
926.967102 159.230499 -355.122559
679.239319 186.570343 -461.375244
760.266235 168.277374 -418.335022
763.920044 38.088490 -510.789886
805.521179 326.638519 -310.402466
838.294189 308.992126 -304.613556
869.058472 296.214355 -306.712616
835.280518 216.912567 -354.506226
843.584656 235.701523 -345.891754
1118.635132 210.857574 -286.701263
816.688293 228.886185 -366.812073
900.112427 397.622559 -211.268372
840.789673 158.181885 -387.687439
1008.622131 128.721893 -349.044708
785.544556 221.640213 -380.870636
930.162292 385.904358 -200.431793
684.875549 176.482132 -471.356445
794.157532 215.949493 -387.927704
636.194214 230.769455 -426.691833
928.060608 80.904541 -435.142578
919.526550 397.272797 -198.570206
938.619690 56.711472 -407.673187
787.777161 93.094162 -450.939209
831.811096 176.691864 -404.835022
965.665710 237.025421 -283.361877
988.555481 259.540131 -244.255966
717.913696 180.676910 -442.829590
825.170227 204.697708 -387.656403
837.309631 79.988228 -433.325378
1003.552368 220.878250 -279.494049
978.569275 121.302971 -374.696289
698.939087 273.271973 -390.583984
920.380432 192.816330 -346.154602
696.673950 223.469528 -438.580750
864.154785 297.085541 -308.271637
893.854492 321.445526 -268.473999
901.818726 384.845428 -230.902695
785.340698 5.562791 -533.628540
774.245544 270.696716 -355.458649
801.084473 281.462433 -354.863342
689.859497 156.591156 -489.220398
1009.996094 270.231415 -254.646133
909.249023 305.207062 -265.636230
757.986816 38.655506 -511.877167
788.078186 343.468567 -312.047089
951.944092 263.045288 -264.042725
1061.653564 139.710770 -322.224304
875.245178 145.233887 -394.567047
903.305603 45.274292 -475.889740
710.528870 286.810089 -358.534454
894.794189 153.335999 -381.993439
934.312317 38.270775 -400.715057
883.499512 383.809601 -228.088013
994.029236 100.602737 -337.460876
926.640991 323.945831 -222.139420
953.717468 357.102234 -210.109268
908.283325 222.911987 -320.993378
903.683167 244.351318 -320.293671
798.003418 369.457825 -282.078125
723.159912 177.793167 -450.602875
1051.093506 183.244247 -326.341797
971.606812 249.891068 -285.016022
802.517578 338.561371 -303.688782
860.613831 170.131500 -380.385071
1036.489380 111.493469 -317.402069
800.152466 261.184357 -366.911072
822.212402 276.236908 -323.528442
800.702515 122.674637 -437.408173
923.199463 140.023438 -368.890137
781.095886 232.519592 -381.236023
719.971069 243.050751 -418.765747
800.458191 349.165741 -288.237610
852.253174 250.181915 -333.111694
832.432312 380.177551 -234.185318
765.194946 287.447021 -350.389374
706.974976 214.222733 -424.390442
861.191650 242.367538 -344.747406
942.260437 339.401245 -235.792816
846.487305 384.518219 -223.623184
965.792419 315.360474 -240.931229
837.414673 93.857536 -437.530640
913.956665 135.174652 -372.868011
744.234741 254.605286 -386.749573
1011.270813 240.081772 -262.077972
842.245239 284.349976 -329.902222
893.038757 417.616119 -209.479050
765.924316 147.534760 -439.684479
849.316895 118.242653 -407.678589
949.170349 198.828781 -296.691986
1003.041382 186.933014 -323.424011
892.762939 91.387787 -418.576355
949.318359 249.105301 -295.276276
999.741577 245.569550 -236.214752
714.145813 215.795517 -422.688995
887.973511 335.919037 -270.060028
748.646606 267.238739 -387.731537
1050.302734 170.023666 -333.551300
750.610840 151.175354 -453.523224
926.711365 29.660698 -358.427307
974.781677 60.233006 -303.425446
1092.538818 171.996826 -320.075317
877.465698 382.282562 -221.899689
915.418396 405.832794 -192.935486
995.632996 174.588303 -321.506409
884.581421 442.587036 -201.753189
986.017029 362.550201 -200.347000
964.506348 318.230499 -240.594864
761.681702 113.209984 -487.582367
1141.605591 247.226898 -253.128693
780.878357 343.893829 -307.480011
879.775940 215.852295 -318.069672
908.800293 296.988953 -284.589142
905.831360 192.591995 -352.719269
669.526062 215.247726 -443.566681
803.219482 156.358368 -415.502045
848.323425 250.769043 -328.299316
901.057251 24.730316 -417.885101
1103.474731 196.096405 -306.432800
829.145020 330.527008 -307.633820
822.932861 248.969406 -361.619904
833.046753 210.983932 -359.247314
943.116760 57.470409 -372.986572
708.738770 248.916550 -408.034088
751.142456 197.597961 -414.582214
827.661621 251.514999 -336.495789
899.878052 12.828391 -400.493622
891.059814 437.299622 -189.809052
955.018127 358.087067 -196.671890
957.541565 297.134979 -263.742096
979.826050 347.661804 -204.509003
998.751343 272.409241 -219.593506
899.485413 172.126373 -370.179077
913.984375 346.888794 -251.519012
717.439819 122.232498 -498.251404
866.709839 308.815643 -299.311859
779.644836 19.312820 -497.831299
790.850098 330.190369 -327.239746
700.322998 285.951660 -363.730316
727.265991 327.386841 -346.650940
850.839417 317.453125 -295.020355
1010.179321 242.495651 -259.224365
841.072327 398.223236 -238.463516
819.073303 274.057526 -332.526367
953.558350 358.107452 -204.920395
887.202576 352.520569 -249.481873
970.948486 276.982483 -256.014252
959.028076 325.293121 -236.557068
1000.204163 161.752609 -325.812439
890.863281 241.548676 -329.379700
1028.913208 282.994659 -226.864151
769.564514 254.234116 -388.591003
957.142761 298.087311 -247.478699
790.483887 350.307007 -307.960571
1028.484863 185.693695 -280.848328
761.657043 132.268051 -460.187347
808.539856 94.772621 -450.560944
836.524719 286.366089 -310.754700
777.668335 235.581818 -397.458038
945.577026 219.190903 -314.602753
756.267822 311.915680 -358.268341
779.917969 310.161102 -308.354767
940.553711 283.765106 -276.284943
975.667114 250.561768 -285.292877
775.184509 301.838501 -334.706543
757.199890 171.609192 -420.362183
1011.906433 106.084724 -339.713654
970.300171 369.884125 -202.023651
1124.358398 210.076401 -298.087006
1050.826538 288.619934 -214.581375
920.841614 42.913681 -420.686615
970.201843 274.870850 -251.292252
930.171997 223.495773 -324.671143
806.461487 347.216064 -295.119537
639.840393 169.823792 -509.374329
750.553955 151.371689 -460.319000
619.668701 201.993301 -472.778076
784.227051 40.637535 -516.686157
766.693665 239.154861 -376.396332
979.886902 340.460388 -217.428589
1024.524414 116.239677 -318.710083
917.511963 208.721207 -325.752777
625.796936 218.231339 -466.107666
613.985657 219.805038 -505.990051
751.242798 227.031250 -399.900452
881.841614 420.349609 -205.911026
891.044128 397.603088 -219.548096
755.797607 231.190445 -397.074005
803.699707 112.034966 -442.829407
822.921936 344.974823 -276.134338
771.807800 159.509750 -449.753021
950.182434 326.348694 -237.178955
1038.376587 262.324799 -234.055511
1100.766479 230.916931 -244.248611
930.426086 241.477768 -298.832336
598.963623 247.804504 -476.611298
946.666931 183.313156 -329.105774
746.083130 214.806839 -405.585876
1001.071045 232.852448 -271.808472
950.811707 249.292557 -257.427490
936.605225 238.019089 -306.977081
984.044128 153.707077 -355.445313
791.410217 40.590958 -491.713898
901.148743 263.651764 -292.099396
683.413940 217.283554 -440.608704
950.820984 161.883316 -358.391144
885.299194 418.022949 -188.792068
929.308716 376.689636 -213.340408
694.171936 103.174194 -492.621185
957.776672 115.339607 -405.385986
716.356934 305.572388 -370.379822
956.617493 52.322948 -373.954224
704.793518 167.972534 -458.519165
878.481689 372.464935 -246.031265
642.327576 202.541473 -487.898071
877.581787 299.969238 -298.628357
981.713013 370.862396 -192.769684
986.575012 247.172180 -282.521545
842.307373 327.754181 -285.204254
723.668091 161.736694 -446.289001
947.905212 42.837509 -379.315765
725.312622 198.693069 -429.061768
939.364563 192.342361 -326.521362
883.781555 292.445984 -286.082733
688.740479 262.124451 -408.794800
820.248657 11.656183 -548.279907
678.346863 194.475067 -456.411896
1093.914185 245.822754 -227.579666
1053.785645 131.450851 -317.952942
1026.006714 254.157639 -245.310043
993.345276 288.026733 -244.029831
810.265015 332.488800 -305.017273
975.834045 201.014832 -312.465271
875.197266 164.643173 -378.894684
796.659424 321.243561 -326.600739
625.770935 219.247528 -464.083496
980.476685 357.367401 -202.158401
865.353027 107.732323 -426.051880
929.657837 305.581970 -254.761673
1034.556641 125.073761 -330.032898
930.577209 270.502960 -283.817535
898.587708 353.643677 -236.307968
586.976440 210.804001 -501.815582
780.996277 145.333923 -455.938782
786.554016 320.774567 -319.694214
707.051636 154.571106 -466.846069
667.710022 217.340973 -448.190216
758.363647 52.735012 -505.823212
1047.062744 239.353378 -239.194748
773.894104 66.345665 -490.512451
864.783081 149.009293 -387.964996
854.137085 400.717468 -228.321075
843.793945 337.163208 -295.008759
729.692810 78.908150 -502.103210
854.394775 227.297897 -341.714142
653.718628 232.204208 -444.421936
658.531250 233.353745 -437.572662
1074.654785 208.630676 -268.124451
756.611633 235.747620 -370.330780
769.005798 55.672997 -510.112549
768.335022 231.368546 -404.680603
819.209900 387.885620 -261.262451
972.750549 237.541656 -285.744080
957.310974 63.106064 -361.038177
883.809265 153.503998 -373.236969
866.985901 324.062775 -245.578674
714.006287 174.160843 -466.931213
759.002075 117.032799 -480.117401
907.029480 272.903992 -298.370331
735.691345 168.044769 -441.810852
693.097168 168.458893 -452.080872
946.153259 206.946869 -322.307434
706.743774 194.425507 -457.532990
814.760376 74.857307 -460.182587
966.338501 309.124390 -234.224930
813.184204 162.563187 -406.151276
897.842102 385.901764 -215.948395
909.792725 332.148743 -260.031311
762.733521 174.307846 -423.686005
955.668884 138.023987 -352.298096
990.002686 91.481850 -355.245178
911.804932 373.321991 -229.846634
690.605103 206.630157 -439.182312
871.251709 343.483185 -269.647644
892.225037 290.364258 -284.865051
699.090515 193.846802 -442.608765
803.800171 231.097748 -367.042603
797.879089 72.430138 -482.429749
800.540222 382.464874 -278.984985
911.284607 173.716187 -353.657623
969.425110 239.058258 -295.337494
811.012329 321.023560 -305.745056
777.826599 237.020752 -350.708374
914.016907 42.917095 -435.296478
799.169067 211.126968 -364.236023
851.535461 413.611603 -219.126358
716.395935 159.149948 -458.206787
799.520813 328.629761 -305.974487
939.421692 198.399033 -322.831787
690.669739 213.387543 -448.442596
817.061951 86.028511 -465.542542
837.316467 413.193237 -240.698914
884.503357 371.903259 -231.055008
875.279663 370.179993 -249.331573
831.177917 268.247498 -345.291473
897.384399 396.064728 -211.927765
722.623230 309.414063 -378.366913
749.692993 260.374390 -391.951630
768.727173 211.599625 -418.007324
707.221069 251.381348 -414.083038
839.434753 113.277985 -422.661194
762.488586 229.397980 -394.730133
826.314514 177.184372 -389.823822
895.706848 305.786926 -288.706970
757.887573 209.844589 -396.862152
928.262756 415.486633 -182.723785
1039.506470 145.124252 -326.122498
996.625610 193.713531 -279.365784
974.117249 353.388885 -201.774887
900.929993 411.933624 -210.346481
911.917419 304.261902 -265.289001
926.911377 223.124298 -311.359894
743.352966 265.312836 -395.979584
787.577393 372.224640 -295.863770
713.569641 323.705017 -363.761871
920.605103 34.331772 -380.182159
896.317871 206.141113 -337.679993
1014.080750 272.492035 -236.014832
979.972900 84.620514 -366.484436
891.511230 184.233704 -358.703552
729.617981 232.578201 -402.384186
854.776672 351.153351 -268.149445
795.137573 158.068756 -438.425934
963.400269 291.160889 -226.309357
933.510498 245.139435 -295.437531
943.282043 60.661518 -381.731323
618.961121 225.883057 -482.591705
869.187012 124.791031 -417.122589
684.441589 275.559845 -395.061554
811.597839 155.065598 -402.812134
938.907043 303.737610 -251.038330
733.492859 197.614746 -411.505005
794.123047 165.913605 -413.540985
913.383057 375.719421 -231.053146
852.021912 132.250198 -423.654144
906.107361 109.755066 -406.441833
1022.252258 116.439415 -328.725677
720.815735 290.733673 -386.284698
898.328064 294.212860 -256.409210
781.121460 181.063477 -410.179871
719.796265 193.393524 -455.570068
995.326904 136.220154 -353.901855
1006.196045 123.576752 -334.815765
1015.021362 112.183624 -329.905090
731.688110 182.809402 -409.575256
892.690979 332.097961 -267.462219
731.083252 288.823334 -386.478943
746.604065 88.656525 -491.343079
966.752747 150.837677 -361.906067
959.042908 76.389297 -382.521637
1010.859497 275.071594 -232.126083
860.971924 297.517731 -296.789948
944.790405 40.046505 -330.482086
909.198669 174.307281 -352.890717
751.405884 78.509712 -492.444916
845.137451 184.903000 -383.933258
801.394592 293.722534 -324.722412
702.184509 131.039429 -498.075531
919.784973 50.072029 -455.287750
780.462830 334.442596 -308.738983
910.431091 75.014481 -421.264038
916.476196 18.177708 -368.293060
941.864380 53.461792 -413.075043
1044.578857 209.989212 -266.047852
781.180054 138.472748 -444.961243
890.723999 77.791245 -427.207916
653.866516 201.943130 -464.419830
807.441895 253.490952 -367.609131
1017.881592 199.768112 -306.900635
705.697144 227.195526 -436.360687
988.490662 231.621460 -267.520081
832.766968 244.220200 -347.813049
920.795532 438.540741 -184.467361
619.203003 189.010803 -468.948395
1087.590942 217.192352 -247.536789
1032.055908 173.768951 -316.604980
920.286926 351.875946 -241.117508
826.962341 227.397690 -361.891632
741.149170 309.874756 -345.572571
766.221619 41.522770 -505.255707
952.411438 43.120449 -325.995819
772.565674 144.446030 -441.649841
786.836975 377.979492 -282.083344
1096.837158 194.876877 -308.386597
1011.267090 245.613083 -262.286591
816.557312 233.786896 -359.197266
743.335022 302.345245 -360.203613
797.144409 115.244682 -466.854889
851.786987 269.830719 -320.779541
778.972412 333.394592 -325.979126
894.084656 352.934784 -257.386414
1016.753418 225.177536 -269.480194
1013.492310 329.578278 -208.124802
781.328552 349.600677 -304.751343
846.589233 144.908585 -415.262756
834.538025 395.026550 -241.574509
900.514709 318.846466 -267.828766
756.327454 318.616730 -332.411560
991.609375 94.182228 -365.251923
884.762878 386.462036 -229.639145
841.791138 328.343781 -301.447296
778.216125 298.270447 -343.503723
946.934082 384.902252 -197.297806
862.406799 117.781181 -407.891968
846.460388 339.691742 -291.705048
856.936707 318.520630 -297.956329
686.514404 117.464432 -472.996185
828.540344 322.863922 -266.846497
714.791138 210.544617 -446.803345
989.045044 111.634903 -351.238617
804.124390 119.732384 -452.574371
828.369507 287.483704 -334.402954
861.028259 66.644333 -465.395630
884.761108 137.761475 -385.977783
781.213135 258.879486 -376.234955
797.241455 323.017487 -311.208221
1030.288452 290.576141 -221.010010
926.469666 66.549454 -437.457275
1015.941528 215.835114 -252.437408
779.895447 58.662128 -507.587433
829.868958 54.862839 -481.338928
997.724304 251.895737 -260.405670
876.129272 168.316193 -373.742004
889.893555 400.500946 -212.911789
671.254761 247.167847 -426.685181
1008.861938 214.408218 -277.115234
718.158752 294.631439 -366.261780
718.096313 98.820801 -495.704010
997.886230 141.040558 -345.212402
961.423889 302.859253 -230.268784
768.742859 32.846832 -509.317108
1016.581116 233.461685 -269.365723
894.508911 433.343872 -191.719025
904.960876 247.211807 -321.983765
838.146912 270.313904 -296.456635
808.869507 222.465652 -372.896637
792.135559 143.529984 -419.633331
780.912415 244.197647 -383.580475
964.183716 45.503109 -332.931641
980.219727 294.030914 -248.567368
902.287598 244.023407 -325.291870
890.556702 226.290909 -307.549225
690.056763 191.785873 -438.257904
905.749878 174.091461 -347.542389
889.631897 257.752106 -318.750122
937.815735 366.420380 -217.298187
884.743347 317.475647 -280.125977
971.825684 198.269440 -316.430267
974.553772 196.316879 -292.150024
697.220764 158.350342 -483.945953
916.005615 153.126892 -372.628235
836.190186 350.079254 -280.577271
851.881287 376.700592 -241.713608
656.283447 268.910706 -399.367432
878.786743 401.699310 -201.714584
848.916199 70.533081 -448.976471
1009.850891 133.115005 -348.640381
815.115112 245.819580 -368.751190
754.596619 298.874817 -344.748962
879.546021 359.940125 -241.218384
965.560120 54.900326 -329.393372
720.069031 295.596619 -372.083252
1028.285034 191.340637 -288.876312
957.335693 203.583572 -324.317383
709.751038 163.401169 -458.748962
1029.060425 292.173309 -226.029922
908.095398 319.271027 -262.820221
785.272522 325.070923 -333.483185
791.141235 24.343952 -527.329102
1039.207642 143.302292 -335.157074
732.642090 164.965317 -444.842377
910.957031 242.563248 -305.249695
798.376038 281.204010 -337.528381
1009.148193 104.929070 -333.004730
865.968811 190.761871 -368.181549
936.589050 215.186356 -312.163239
867.167725 83.827408 -443.747009
867.761475 315.797333 -277.794922
916.670959 389.996277 -191.671753
964.220154 258.403351 -273.515381
853.422058 335.331482 -270.985962
752.133423 252.965988 -381.099518
769.181641 290.607513 -352.482910
914.156372 326.338745 -249.175690
958.541748 51.684212 -364.941284
935.298340 303.456360 -259.043762
907.380127 39.457703 -472.484711
1004.676697 155.575684 -342.968689
978.043457 60.075317 -361.647552
974.307556 189.785477 -310.711975
894.422424 306.022827 -283.317505
869.563354 96.260620 -442.512024
929.722900 64.539932 -429.548462
973.547974 67.542389 -360.865723
722.699524 239.901596 -408.288574
759.666199 298.599091 -342.841187
979.417786 83.296806 -366.420074
827.291138 391.016541 -253.988342
919.889832 262.281219 -299.441681
937.493958 156.794678 -362.628723
944.729553 317.566711 -256.400726
987.413147 61.063789 -320.325073
662.869873 199.686096 -455.492737
666.870789 248.567612 -401.130768
796.296997 264.934479 -366.238159
714.743103 228.953400 -399.162781
816.086731 381.966217 -266.490936
964.835999 183.254120 -306.761169
852.202698 353.772614 -259.882599
923.954773 46.921249 -411.273651
845.450256 235.189209 -349.299988
914.045532 280.743103 -283.673676
965.353516 361.929474 -205.768860
819.083313 332.517700 -291.880188
1031.491943 288.409180 -223.132843
953.793091 373.114471 -204.595078
675.861877 260.019897 -408.399445
1014.886963 220.829788 -257.334686
962.882751 196.944443 -316.762329
771.788635 197.610870 -407.331970
930.342590 125.956879 -389.693237
866.213318 189.532913 -361.217957
792.547974 141.860977 -410.673553
960.613098 122.288918 -374.512665
907.387268 26.250183 -394.042175
836.572021 307.831879 -301.715576
796.791687 314.578461 -335.570557
812.545776 347.637817 -279.326782
969.167053 107.077759 -352.797363
758.945251 84.458733 -482.088806
727.770264 229.961838 -424.627380
949.814941 303.561066 -252.348953
659.789001 198.791977 -479.167999
893.962585 322.968689 -278.283539
923.730957 63.328121 -449.319366
740.587524 286.741119 -361.621277
872.158936 360.579285 -260.429291
1053.242798 225.044952 -246.728989
996.843201 268.593903 -252.477737
997.943665 83.103119 -338.756470
678.372803 258.455780 -409.253326
826.582275 188.348450 -400.244812
743.588501 260.857758 -373.582214
842.614136 148.561050 -403.594238
864.674805 100.745041 -441.205322
807.009338 382.708221 -277.369843
741.544739 190.781052 -424.117645
1034.848511 114.807968 -324.640320
979.354187 251.128494 -270.993530
823.745728 145.345642 -431.780396
749.041016 267.828461 -367.209503
1125.337280 210.670975 -302.748840
768.770630 320.444214 -321.574371
983.835754 127.014977 -363.631195
910.047363 255.698502 -315.182617
1000.569763 83.273125 -290.899597
947.364380 238.393097 -295.279144
791.327698 16.773771 -515.766541
681.034851 200.003036 -470.134521
723.707092 212.186600 -411.651489
881.899170 223.208633 -333.354889
895.983948 321.185181 -272.342072
910.334656 171.720078 -334.484985
899.713867 132.530655 -384.068817
973.531067 78.450874 -363.192657
849.908203 247.980927 -339.299530
950.721619 381.007568 -180.188019
900.043518 194.614975 -360.074097
997.616821 252.329224 -258.411896
936.427490 414.701538 -180.162140
816.054321 392.862488 -258.113251
958.612488 267.590424 -277.480225
876.721069 426.238068 -213.162292
875.764404 165.028671 -366.307587
957.560669 371.402130 -208.264236
836.125244 59.567093 -462.486816
823.334595 174.544708 -393.050995
595.466492 228.758331 -469.103516
728.956543 111.703529 -480.165161
684.382813 140.136887 -460.430573
983.708557 140.424149 -329.115509
942.066895 347.943207 -219.145233
947.492310 345.015259 -229.712494
882.469421 380.566010 -240.637268
694.783264 244.416138 -397.665894
640.467224 266.705872 -431.321106
847.391296 349.595032 -267.541290
918.600647 417.981995 -189.315308
926.576172 228.770615 -317.711426
1037.000854 242.595337 -223.632568
743.656006 286.656860 -381.133392
775.999634 159.617813 -418.380676
989.191162 291.769531 -243.888992
768.706665 275.875732 -359.897278
797.736206 256.862854 -326.567047
575.344055 211.308929 -515.332092
977.975098 91.332520 -336.202209
866.713074 297.890350 -309.020538
757.028687 63.611897 -499.263672
941.380798 33.245506 -376.956909
679.648071 246.348053 -430.384491
952.550659 259.214294 -287.248627
904.238037 264.489227 -275.153748
935.253052 52.607269 -409.936462
818.528748 219.457947 -351.195862
958.354980 379.630524 -177.172440
782.944153 168.120712 -408.140533
1046.701660 281.326843 -200.461594
1059.242676 167.564362 -347.113281
740.486084 212.195206 -412.920868
918.390320 171.479599 -350.486145
627.283813 190.163483 -486.081970
811.392639 389.581940 -266.572266
668.088257 217.378448 -445.742035
825.568176 322.603668 -297.493317
870.236816 272.808533 -324.356232
842.267822 58.125954 -451.315796
724.546387 292.640015 -370.808746
817.477112 310.673950 -288.627350
753.047913 113.352943 -478.077606
893.185364 317.058472 -261.852325
927.360535 184.216629 -337.948639
860.151489 371.913666 -256.193512
997.375183 237.977219 -252.229340
655.622620 233.196579 -428.936005
757.080688 49.065182 -497.880981
984.080078 129.085541 -364.350098
912.890747 36.662697 -427.654846
676.511841 258.871948 -431.547516
789.219421 140.975449 -446.943451
798.169800 171.814987 -422.976624
1013.935059 89.730080 -327.425690
924.824585 359.314728 -213.087936
867.985046 339.119293 -280.545532
744.215210 210.635010 -403.450470
823.720215 220.981812 -347.464691
740.690552 300.201508 -349.248077
670.183655 236.395035 -431.231445
708.530884 102.587143 -505.371429
689.477539 289.248535 -418.596405
627.012451 199.554611 -502.440063
817.124207 115.407425 -453.593231
736.220154 335.427826 -350.063293
849.535706 110.749847 -427.605164
934.562744 317.835266 -243.565033
1003.166565 99.269264 -315.031982
766.628174 306.519226 -342.487885
774.948242 144.783325 -441.700562
688.064270 299.927917 -383.045502
740.485229 107.435219 -479.258392
819.453857 347.781799 -288.895599
783.933472 353.374908 -309.115601
960.876709 70.701668 -383.174225
815.402222 135.128006 -413.100464
829.632324 275.165466 -322.130066
948.972473 356.729584 -222.410370
873.059387 270.274109 -308.367676
985.401733 344.909332 -205.070038
1052.419922 237.119659 -236.889786
837.297485 206.087936 -382.767761
1014.286560 232.035110 -238.550400
719.968018 284.046234 -353.995728
872.129395 172.912613 -367.589935
695.611694 127.917679 -506.387146
859.902832 118.042236 -404.887451
735.771667 252.790131 -390.563629
917.643982 370.578156 -226.103012
876.836975 323.617798 -279.638824
991.691895 205.603546 -294.780701
746.159058 251.086639 -386.029419
896.838806 76.746620 -445.706085
690.944763 301.974152 -382.272583
752.957825 99.127113 -500.879791
888.410583 83.964935 -433.792664
970.692139 67.207649 -342.189789
1011.207336 223.741638 -281.738678
836.673523 343.394562 -276.502686
1075.818604 160.999878 -310.723480
805.560791 314.912231 -319.326080
920.598328 32.834019 -437.083313
913.560669 233.291229 -310.396729
667.145081 222.567383 -457.567932
721.215576 274.514557 -391.730743
752.399292 206.966293 -428.994751
800.943604 203.791061 -391.186646
967.039490 345.165314 -187.501022
678.291016 157.979004 -479.919739
887.806519 388.923981 -216.930130
1033.490601 218.387253 -263.951111
971.643738 111.982124 -384.265991
888.948303 265.985474 -308.057770
750.682251 174.239624 -430.614136
733.972595 167.966736 -433.413971
656.356018 137.846741 -507.537811
964.540344 335.367706 -212.387283
950.993774 41.237072 -314.819946
910.992554 330.103394 -255.418091
804.542419 199.904205 -390.466553
893.226929 348.853455 -238.066757
777.381897 85.663239 -494.936615
831.314697 109.052414 -429.476654
790.947693 375.040558 -282.709290
686.589050 247.616241 -426.274109
