ply
format ascii 1.0
element vertex 1412
property float x
property float y
property float z
end_header
202.562454 900.757385 -581.379700
-6.707439 802.362915 -450.722931
-132.822754 734.389832 -341.310028
-195.823593 710.754639 -385.246521
22.269278 820.008728 -506.143127
-81.018311 759.604675 -571.111633
-19.969055 792.421448 -642.683533
-1.061366 805.901245 -349.901428
-197.158752 693.683105 -386.471161
75.634865 843.608582 -574.787292
104.602760 877.346741 -350.331177
44.306561 826.218750 -489.390381
-61.108505 775.980225 -521.054993
-216.510208 688.645142 -470.688843
174.048096 916.873901 -465.673920
68.046463 843.225098 -546.923157
-113.545341 735.338135 -471.454773
-108.071747 744.357422 -335.779999
155.464050 901.110535 -483.503601
162.965225 902.287231 -543.020935
-78.408577 750.053223 -553.165405
-206.755051 684.634216 -588.920959
96.629044 862.935730 -401.223877
59.645641 752.800232 -678.735962
30.743376 832.056885 -359.543060
-168.102783 709.037598 -637.375305
77.033997 841.510376 -531.379639
66.065376 757.265686 -685.255066
198.879089 928.984924 -604.929565
-106.049637 766.725525 -347.392792
-121.862373 730.916626 -465.724670
70.198463 863.425110 -324.628357
59.921696 851.486450 -379.776123
-41.201015 779.650208 -450.709259
-64.110664 785.879333 -387.976288
-116.650246 734.954712 -531.844421
175.467697 895.759705 -597.790649
-110.642845 762.047729 -370.415436
42.561485 810.936340 -494.571167
49.938972 846.256226 -509.506104
147.285812 896.093933 -541.764099
31.726685 811.822937 -595.835754
-59.864532 769.680603 -415.224670
43.685753 830.542175 -534.303833
87.258537 878.350891 -677.887939
-133.451080 729.466309 -382.703156
232.148666 956.075623 -571.306030
-29.993378 778.435181 -443.332794
-19.175531 791.017822 -543.409241
161.104462 901.156250 -569.659485
6.880989 835.412598 -662.301086
208.146072 933.583374 -321.822906
-56.136372 775.168213 -669.400391
74.226822 856.493958 -417.895508
-12.852983 802.987305 -376.598145
-52.320812 746.227600 -683.664368
93.215668 871.416382 -400.842468
29.806551 824.438416 -434.536377
-79.335983 753.162048 -373.229095
-171.214447 706.969666 -600.210999
204.971832 901.745789 -493.998932
64.696053 846.435364 -574.640564
-47.933140 769.416199 -532.742065
-99.139977 752.728394 -545.492981
159.756927 905.872620 -418.653992
-21.004633 805.782654 -661.253845
-201.165070 694.965698 -442.555847
-76.283318 761.791382 -433.568481
183.563812 926.076050 -377.157532
96.098877 805.364319 -691.718262
-147.664795 723.640442 -470.582367
-208.401093 685.499512 -362.129974
107.754509 790.330688 -680.927917
22.964952 835.652649 -354.075714
56.186729 775.523865 -678.339966
192.013733 954.510437 -631.572388
48.366810 787.771851 -685.197876
60.418682 834.725769 -652.230530
-34.368549 778.020142 -533.936707
94.237610 893.389038 -673.508606
109.538857 865.367737 -529.506958
-93.587730 766.101624 -405.392365
-110.160233 720.346924 -429.964203
2.248180 813.549438 -327.079132
-95.031624 750.946960 -420.082275
-192.001968 700.853760 -493.042938
48.856361 839.916321 -341.313171
-113.093819 725.960083 -369.942657
186.866333 949.616028 -647.995911
-72.573219 755.741394 -669.174316
178.865768 904.115662 -434.741913
152.137848 891.017517 -586.977173
176.337616 915.178955 -526.652710
-170.157349 723.595886 -470.637451
150.522552 896.134521 -387.011017
-142.673309 734.166809 -610.411133
129.323181 879.919434 -391.523895
36.551579 836.854004 -605.329529
33.738766 828.040649 -385.956482
-94.402420 739.217407 -571.507751
-73.815903 767.208618 -537.935242
32.607349 831.914795 -512.032959
-80.151611 765.045471 -397.048126
17.416168 807.429321 -579.042480
15.268319 773.079834 -663.890442
95.313499 864.656677 -465.176147
112.253052 867.279663 -683.854187
60.911083 835.011780 -502.174652
-110.952248 754.064148 -442.636505
58.705315 852.235596 -455.909332
116.348755 875.139160 -554.184937
-150.713974 717.946838 -428.355255
-76.411575 759.402954 -627.020569
-62.606403 773.400635 -434.383606
-97.701576 759.951782 -535.747803
-18.442019 780.923950 -604.630249
-96.887527 747.740967 -419.062897
-100.217766 762.807007 -463.473907
-78.263680 767.546326 -554.384766
154.429047 893.639221 -347.824219
-132.685287 738.776489 -434.548676
193.348160 920.624146 -335.352783
56.477604 846.655334 -338.651703
-109.471664 751.706970 -331.590485
-81.559326 756.409058 -607.244324
3.230686 823.623840 -344.655365
-182.859650 707.326172 -390.813293
-18.815933 798.890686 -576.285706
-65.111839 767.663330 -500.158112
86.136024 808.638184 -687.637756
-13.601439 758.249695 -682.352966
-69.900734 759.414856 -376.026794
100.274849 872.240906 -404.552948
57.720528 849.604248 -641.340210
20.689829 810.157532 -565.307312
175.616180 924.197754 -328.276703
-127.185707 763.788391 -670.412231
-36.650375 780.230042 -546.945679
-96.097885 753.776550 -545.519348
221.297119 940.863464 -363.098694
-36.533291 773.962891 -567.551270
200.199402 929.910522 -366.862427
41.882324 789.297729 -682.872925
126.420441 883.065796 -672.027100
-100.432083 737.378662 -552.493347
90.537361 866.229431 -590.188110
-138.607407 706.617859 -580.655945
155.540939 907.667114 -401.348633
62.640518 840.842651 -490.343170
-170.211029 721.805908 -366.151947
-83.863052 775.824463 -334.329987
180.091400 917.768311 -556.705994
-16.312078 784.763611 -596.773376
-113.735367 728.232483 -426.618896
114.562805 881.833984 -605.861023
201.939468 915.491211 -367.037659
24.276066 834.423096 -481.047882
59.855587 834.556885 -525.445984
84.772552 850.386841 -457.810608
152.916138 900.984558 -453.531281
-69.949242 772.862305 -343.324738
164.653351 912.901978 -453.532562
176.546631 916.337036 -371.537354
-124.985939 745.130127 -451.355560
25.484755 766.655884 -686.807861
-23.795803 772.998718 -672.577332
62.727646 845.635620 -563.500488
214.543381 924.721802 -564.547058
51.650597 845.848633 -458.739166
92.093155 875.372375 -351.826782
-201.796356 697.838135 -426.882477
130.472336 901.967102 -675.135559
-98.245392 751.037231 -629.282654
-60.264343 779.054077 -490.806763
-104.867882 748.213623 -449.500488
-195.094345 684.489807 -618.406494
-99.431358 771.206177 -359.428986
84.613655 861.971130 -432.223633
-169.704803 715.784729 -474.245941
-208.914932 679.199402 -445.222107
90.763138 861.096375 -593.367188
43.250511 848.377197 -404.136932
19.209044 827.713989 -618.587830
-72.592003 758.477905 -566.953003
-161.593384 746.557556 -338.826508
137.218384 862.886658 -602.469849
-204.681412 704.351624 -412.602356
-170.184464 720.836670 -404.524933
142.097946 896.120605 -422.628967
15.294515 822.244812 -350.001129
85.973396 771.666748 -679.709717
14.307205 831.536682 -383.141998
-76.821091 766.572510 -359.506104
-19.209949 797.330139 -347.172699
156.769424 892.577942 -521.652649
-103.323608 745.270874 -416.279785
-200.462234 680.097961 -517.024780
191.654388 926.063965 -504.087463
220.502823 945.782776 -520.710938
-8.283826 791.386475 -544.046631
-172.503433 714.710144 -331.161469
-214.125717 699.278198 -419.320404
-91.428802 739.309753 -414.201172
158.091766 901.486511 -552.273926
78.083443 827.888184 -672.125366
76.583107 838.444275 -587.719910
-3.098395 809.325134 -426.608765
127.114189 892.071716 -444.451813
90.502068 872.802917 -430.205963
50.057945 840.320740 -530.548645
105.782982 872.195923 -612.880066
148.949631 898.824219 -524.013489
-8.752448 813.011719 -482.803833
37.568447 835.971191 -503.448608
27.758083 836.007080 -630.801514
126.370941 876.026550 -372.204285
11.554602 828.670349 -641.847229
-135.958405 701.155518 -563.692688
86.001846 802.773315 -671.963318
168.052261 917.119690 -354.673615
-117.236549 728.422852 -378.096710
118.566750 874.359497 -480.968536
-195.219391 690.232178 -370.277313
121.581345 890.294250 -369.336548
210.529037 936.942078 -503.852814
-174.969162 706.095215 -412.663635
-88.795860 766.141235 -371.921600
79.008293 849.357117 -559.048218
84.762566 865.240173 -347.983734
-154.032715 691.406799 -396.523590
-166.914001 713.338379 -559.465881
-161.439911 727.715576 -380.954224
-80.928802 728.043823 -394.930878
6.886318 819.098755 -573.581970
227.383240 940.581787 -325.734772
99.334427 868.271301 -479.452057
62.234100 843.201782 -590.192505
162.024796 897.731323 -311.234528
104.373360 878.423645 -511.909271
-60.243622 765.787842 -533.502930
39.528896 843.093445 -480.736328
-15.492079 812.895630 -386.100800
182.416885 886.745422 -553.612305
103.783775 887.637878 -643.404602
118.568077 892.091187 -358.296722
-29.635336 798.276855 -613.170532
144.973160 887.792908 -396.729858
33.137157 833.782837 -333.575592
-66.646187 770.532532 -445.081146
-187.908188 684.031494 -526.588074
83.825211 769.923889 -673.809570
201.055817 929.687317 -371.972412
-55.994133 766.679626 -432.201691
-48.531483 778.844788 -364.507843
17.183504 813.736694 -495.810028
99.392525 801.989807 -689.403076
-88.017899 758.984741 -613.414429
155.420837 873.037231 -590.678467
191.098602 988.065796 -660.300110
-136.012863 738.061890 -515.193176
56.070271 843.432190 -518.073059
178.454666 914.237671 -587.388000
-34.608025 779.610168 -647.841980
68.310173 848.698669 -431.736115
183.570251 892.273438 -505.109467
-131.656235 737.959351 -480.494568
-92.967476 751.147644 -403.848572
-35.742813 797.688293 -372.763885
88.301369 861.930908 -583.237427
-140.416473 702.073242 -600.930725
-201.959564 704.942871 -391.372925
-32.756199 783.492249 -669.066162
-190.861069 710.858521 -323.582001
-188.243118 688.034729 -581.027954
-30.291687 809.801697 -361.205139
169.698196 903.938660 -438.310974
84.330780 852.571777 -671.330322
148.100616 872.100708 -488.324005
-26.961161 747.839661 -690.517822
48.095463 844.289001 -438.372345
18.732662 821.405518 -552.421082
133.277054 883.954102 -451.740143
123.740456 875.501099 -548.931213
51.908543 843.797668 -331.818329
33.345848 841.700806 -443.120972
-146.481140 709.402893 -466.187561
-223.466400 693.235657 -331.037872
111.434273 887.903687 -349.383911
-54.375546 777.493103 -360.044952
-1.490453 805.452332 -492.959351
77.385368 804.032410 -685.249695
158.033356 893.329834 -526.380310
-66.855545 776.016479 -643.102783
191.700012 909.832764 -393.773071
-47.462494 784.527283 -340.854919
-106.951385 757.329773 -424.860352
23.311094 792.389282 -673.461182
69.078232 791.640991 -673.278748
-64.012642 768.303406 -431.611572
-129.646683 730.840088 -397.894012
-121.517021 735.710938 -393.032623
92.898842 863.671265 -404.843750
-83.270134 748.411560 -533.785156
50.284016 841.892700 -452.322235
-159.224014 714.787231 -347.555603
-63.782646 762.544434 -493.657715
90.592896 867.579651 -663.844238
153.533936 904.297058 -487.924805
47.122608 841.534912 -636.226929
-30.353722 804.943420 -387.026306
58.108482 847.455811 -349.573608
-33.833473 798.936768 -459.696350
114.037994 874.744995 -670.529724
-67.134727 778.514160 -401.761261
222.173233 912.269043 -582.798035
208.498306 924.371948 -374.949615
-137.179581 722.940430 -401.134796
10.557482 820.607544 -507.084015
100.564301 865.549255 -471.373230
-125.576828 733.492493 -608.367981
-111.681488 735.824158 -542.915771
-178.638657 685.335754 -463.126495
-61.982334 750.904175 -676.558105
19.586140 824.117859 -416.391998
-154.117630 733.395203 -441.000122
24.432037 754.725159 -678.647156
34.515568 843.999695 -382.217377
-110.867691 755.915222 -460.979279
67.641060 844.965942 -389.546234
-104.313690 732.065918 -584.252563
-72.060944 760.218323 -506.319183
170.953979 917.898560 -408.635437
5.673407 810.766235 -659.898682
124.420837 879.062927 -454.218811
-182.957291 691.477173 -504.147308
62.894894 809.203430 -671.813110
119.189842 858.028259 -572.710754
-200.273254 676.747742 -535.904663
-148.881454 725.582336 -519.260437
-163.746841 685.099304 -395.749969
102.386673 822.150696 -689.895264
124.144020 909.699097 -667.655884
-64.531212 782.706299 -661.599426
199.406403 927.604492 -621.587036
63.399147 821.524475 -485.913239
197.411377 914.334778 -614.602905
161.044357 893.810608 -404.493652
45.275711 839.351563 -382.507538
200.286499 918.486694 -609.251587
167.432205 919.236328 -389.823181
163.518402 881.333252 -492.293274
33.127346 802.043945 -350.038605
59.504356 848.848633 -548.657959
145.026733 887.433289 -614.661011
-229.239380 707.452698 -362.308716
-94.490112 737.331177 -443.830933
134.828293 887.723572 -333.538666
-85.418152 778.330505 -347.123779
51.923149 846.339905 -361.513977
-172.898758 712.990051 -329.678192
-100.050919 751.128784 -536.791870
-136.085220 746.672119 -389.047516
164.564240 904.038757 -563.318054
-60.840725 773.619690 -403.966583
84.445053 866.058472 -672.971497
-12.991161 783.952454 -386.029114
23.565920 850.230835 -655.837891
-143.842514 748.522766 -662.102661
104.873016 868.509949 -518.357971
-75.012329 753.751465 -426.544647
-6.216837 805.650879 -483.525360
32.311844 815.841309 -574.455322
-51.606056 774.877441 -487.471710
-169.423645 697.720764 -537.736694
6.416658 814.534180 -412.217529
177.044647 939.884521 -652.437134
-92.449883 779.470032 -665.532288
21.101995 819.301392 -345.677429
-147.767639 719.750671 -520.201782
175.539978 907.279358 -491.771423
-58.755112 777.497864 -563.564087
-10.241522 733.366821 -687.260254
-150.174408 689.912598 -574.676086
-162.678101 705.516785 -506.275330
-46.586994 776.805542 -675.441895
-113.018509 765.616577 -676.641907
61.141029 829.016602 -559.134460
193.811569 920.417847 -552.026978
75.287209 804.412964 -683.586304
8.705150 810.618591 -440.683044
175.128250 918.620300 -538.876770
185.995224 927.437683 -324.594330
-78.509964 766.683411 -341.484467
104.772797 878.673767 -385.215851
-75.382172 761.485962 -450.004181
63.848156 828.551086 -672.117615
216.324234 913.340698 -474.498444
34.618252 807.414551 -681.933228
-13.901030 795.353760 -442.054779
127.287399 866.895752 -358.152435
-19.531471 748.170410 -686.149475
-196.164032 697.462830 -364.371368
203.216232 927.071655 -460.605957
-102.504089 746.889343 -398.339905
187.136276 905.716675 -333.519684
74.065704 854.084412 -339.501129
65.319626 854.280212 -471.551270
198.940628 927.701843 -503.869019
11.536250 824.757446 -345.012482
23.759342 816.082825 -342.487244
5.821922 808.422607 -456.616882
-38.887821 779.195374 -597.270081
43.613708 849.322754 -379.093079
-45.196152 789.341980 -471.793335
-25.276934 775.399658 -425.601837
24.535368 824.951355 -421.482178
1.503229 814.764587 -383.125427
-199.253174 697.444153 -400.745300
-25.039555 744.227844 -669.873108
105.953499 883.834045 -636.173279
38.993572 826.103821 -487.038422
-101.586533 762.388123 -446.212402
95.058273 877.281677 -436.102600
-68.617783 743.126770 -499.774017
127.773407 876.985901 -388.269562
-119.935455 734.406616 -342.460663
11.767979 824.074890 -501.223999
-178.354019 716.116943 -510.576355
71.727509 855.612488 -349.647430
97.948456 830.258057 -680.373962
-29.394690 780.298889 -543.196228
108.049332 862.264893 -598.962036
-87.828629 734.259705 -314.040833
-41.243492 758.299255 -406.579224
170.650101 913.961792 -630.462402
-103.203835 741.620789 -537.802673
94.692467 871.509460 -411.229279
149.558731 883.900330 -540.858887
-90.720497 767.535217 -406.557526
183.572433 921.033813 -435.946655
52.714153 806.462585 -663.108459
83.353722 862.206360 -509.226318
171.563766 891.653931 -386.730804
-53.314987 777.320251 -406.057312
219.580521 939.839966 -352.924469
-182.798477 703.631226 -530.410706
104.559898 904.361145 -661.635803
192.407166 916.840759 -399.472473
-204.559708 671.433105 -546.444397
9.197764 827.510376 -362.628265
78.309090 853.465515 -442.795197
-16.748764 810.422119 -444.666443
136.488815 893.603577 -502.514313
32.290844 826.947021 -371.446808
120.899330 884.511902 -414.582245
187.892426 908.694458 -592.838257
-189.177826 678.943604 -380.456116
85.291580 872.484863 -663.333496
204.379288 934.947327 -429.026306
7.796059 795.909668 -672.405762
120.438019 888.188538 -428.782898
-94.887726 758.036682 -330.827423
89.505508 906.301941 -672.684814
-36.453476 791.630859 -342.975861
178.700073 918.110413 -402.826721
-168.106857 726.133728 -393.179871
134.817001 887.491089 -512.417786
63.360538 851.585999 -541.612427
-39.202347 785.464966 -480.861267
195.292755 893.963196 -471.142151
-219.147552 695.653320 -444.834320
-159.214630 725.582642 -321.806763
-11.397731 809.119568 -332.616089
-63.808712 785.610046 -351.040924
82.679077 870.850891 -636.485474
80.918861 897.206116 -671.212891
-127.307320 751.560486 -393.249695
68.427956 862.641541 -321.915588
-69.664337 764.674316 -340.306488
-133.492310 745.169312 -364.780090
-120.669006 733.302429 -594.102051
30.084764 818.243774 -525.339844
-164.463455 690.439941 -573.246521
203.584961 935.460510 -423.030792
-51.246048 789.090332 -504.989807
-10.806159 797.806580 -601.980713
58.322231 846.639404 -431.824310
210.989685 933.781433 -520.582275
-223.108749 692.098755 -336.506042
85.194130 803.156006 -690.181152
183.631744 906.924255 -517.128418
170.026093 907.548157 -330.776611
101.807312 867.763733 -481.771332
141.429443 886.596191 -345.967133
-34.109917 772.713867 -521.193848
-72.092506 761.776428 -605.887878
-61.783737 771.131775 -473.114929
-72.740723 780.761108 -368.868134
-166.931686 714.613831 -629.244080
154.414230 902.802246 -597.754944
84.210266 860.017761 -532.786438
188.677460 920.919556 -569.089966
155.468292 894.958740 -350.135162
-51.378891 783.493835 -663.341492
150.658035 895.067017 -335.896301
-58.792751 772.717407 -585.808105
-11.507830 784.728821 -390.469971
147.996826 892.891663 -369.335663
-3.017603 802.905884 -522.611938
-81.856445 745.893738 -536.658203
-143.454056 711.891846 -532.425110
-78.849731 753.135498 -536.753357
57.045422 845.155945 -657.749390
-106.947571 742.346130 -437.087341
-60.305325 788.048950 -416.734497
222.659302 942.133789 -599.135437
-73.415855 771.420227 -609.817627
122.705894 877.429565 -493.471069
-177.998260 682.288086 -566.457153
122.311584 894.109924 -409.349731
62.144508 840.539246 -647.421936
20.584084 766.455811 -683.211060
54.104481 836.226196 -403.039917
-42.771992 763.757751 -372.273834
118.723953 864.226318 -563.469299
155.857635 967.487366 -675.518982
-13.913690 783.233887 -634.221619
136.912811 880.488159 -517.761597
-64.153336 774.920410 -362.759399
114.319580 894.086060 -325.097992
-127.973625 746.646362 -380.596527
-130.120239 721.432495 -516.607605
-56.426796 786.718994 -428.015167
-120.951378 712.819092 -418.869720
216.816498 932.538025 -474.234833
-174.024841 696.532837 -496.039276
142.401031 889.313660 -584.987244
107.286766 879.263611 -432.128357
83.021179 850.332336 -514.125305
-68.922516 774.665222 -331.587921
162.963181 915.205322 -427.600494
44.024044 836.479065 -404.405945
69.351112 823.493347 -552.380615
9.679110 822.919189 -407.240936
77.371513 845.470093 -667.938049
98.188812 845.523926 -458.318390
212.726135 939.501099 -614.793640
128.482742 872.997742 -487.315521
-125.343018 733.515991 -417.529633
153.490585 913.390808 -341.329071
-4.420388 765.779419 -676.263916
109.287140 918.279358 -674.028076
189.254059 921.449463 -352.592255
-99.830826 747.214478 -504.481659
25.331251 828.014771 -516.594971
-139.399155 721.571472 -544.504028
97.311340 845.315613 -596.550842
201.694046 930.415527 -452.163239
92.904549 883.575989 -658.814697
45.668297 825.028259 -652.716858
174.741714 890.268005 -557.511292
196.046722 905.361816 -494.397858
-148.962799 705.833008 -437.013977
-180.706955 694.672302 -386.882629
-26.460621 798.151978 -344.644012
-109.570671 736.750122 -493.678375
100.777138 886.853088 -324.588196
224.374313 909.519043 -403.142242
-89.381721 752.797180 -681.009460
-6.607467 765.934143 -680.003052
28.267954 832.668762 -661.549500
24.327234 803.934021 -454.405792
-95.708748 724.000549 -586.966553
215.232437 927.039368 -599.366821
-139.385864 736.214050 -460.296387
107.827301 883.936768 -683.190857
-49.902084 783.214172 -592.075195
60.399582 834.139526 -339.858215
-30.821127 790.569946 -332.675232
-109.515640 741.987549 -578.141052
-153.065216 708.168152 -511.822937
134.736603 871.100830 -544.880981
-59.950264 788.365662 -375.627960
116.891312 876.666443 -510.223206
208.596008 931.581970 -414.002594
99.367348 875.228821 -461.923950
167.093262 887.790405 -404.822021
177.629913 925.569153 -398.578888
-166.742889 677.154541 -524.976013
16.306194 807.878967 -671.850769
-126.760651 735.290344 -396.998932
173.380859 922.834900 -343.982239
126.763374 903.251404 -333.003937
225.195511 932.749573 -333.991089
-157.125687 732.533203 -428.798462
226.800781 928.490967 -416.198639
43.739670 828.413879 -514.552856
-53.400433 796.468384 -320.831116
-91.774879 754.413696 -465.975494
-152.134232 733.632813 -470.272064
182.876740 916.737549 -514.094666
105.980286 889.905334 -330.028839
-117.311661 724.341614 -583.201843
161.011688 891.367310 -337.288086
-190.906647 683.383728 -538.945313
-3.553870 783.908569 -474.696716
-105.225754 744.450134 -398.415253
162.245010 899.194946 -371.547546
-43.740448 760.844666 -661.494568
61.301891 834.957092 -507.949036
127.301537 887.460022 -548.577209
36.316544 831.912537 -615.679077
36.289272 830.383667 -657.407837
119.279045 882.368469 -529.837646
-106.107460 741.460205 -412.027008
137.863815 885.014954 -572.375610
55.425686 837.348450 -350.764801
62.006870 841.386475 -392.797668
79.580162 815.229126 -675.413696
-144.672852 741.557312 -390.036896
-122.528374 753.613220 -403.159912
-117.880005 716.645264 -367.158173
181.584732 927.256348 -418.063568
149.531754 897.640564 -547.194580
-224.471024 717.384399 -661.825562
204.584351 923.435791 -612.464294
121.290298 889.680176 -671.062073
132.679428 889.777649 -528.201538
-12.209399 802.256165 -345.405426
-36.416996 774.349670 -366.339111
116.197319 874.611755 -422.736420
-212.779068 690.350281 -545.364075
-57.254932 772.907776 -629.763123
186.021103 919.436462 -502.425659
25.615496 819.731262 -539.440491
-111.010353 738.605835 -467.073120
-57.133377 751.899902 -612.296021
62.189178 851.222717 -484.062317
54.953590 759.355347 -687.018677
-48.940823 786.473206 -634.462769
37.004780 837.856689 -363.908569
112.011200 884.007874 -388.432129
109.643669 864.354675 -579.619507
104.914009 887.339661 -350.074829
123.520584 883.297058 -590.156738
164.537567 911.588684 -481.891205
88.967728 860.320129 -357.127716
-142.278015 725.340881 -464.522064
211.214447 931.900452 -345.199860
-6.281153 805.869629 -343.959442
-66.353271 749.739014 -552.440002
208.454514 925.455627 -589.250427
-164.133667 714.692566 -338.337250
62.477867 842.551575 -467.156830
55.886318 845.068420 -455.304352
33.284252 834.351807 -389.433289
-9.110510 814.027405 -500.313080
-194.492981 683.180542 -447.515594
80.076874 870.160828 -371.726990
151.396317 894.406372 -442.119995
32.139400 734.607056 -686.513062
100.312500 872.109741 -531.308655
65.112541 819.715149 -674.954285
-124.182632 750.018188 -370.738281
5.821930 786.008240 -377.161865
142.087982 877.404724 -334.729248
-203.678314 695.343445 -393.890472
130.384720 879.452576 -512.728943
115.670563 873.159485 -515.305664
-19.375589 812.102600 -641.383118
35.655136 827.629639 -475.407043
-12.399988 783.879211 -374.088440
-50.607574 760.091492 -565.691956
197.366348 917.656616 -605.281494
-171.073807 692.709961 -601.982422
49.842667 849.019775 -359.008026
144.696487 906.139832 -432.959198
227.453064 940.782837 -525.395142
79.961525 875.986511 -664.415100
191.192184 925.513611 -388.227142
145.030396 930.302917 -668.704651
227.482574 940.371826 -466.362427
-129.307800 728.137146 -415.034088
99.395287 869.993164 -445.831299
-142.656250 692.309753 -588.353271
-241.507004 697.577637 -334.334930
-94.546387 753.072632 -373.687927
-87.909332 763.742554 -507.118073
24.391378 819.659973 -515.510376
-33.691006 773.758667 -547.639099
-87.410141 731.152588 -499.732971
-77.211533 762.332947 -573.917725
-85.075172 750.685669 -537.372742
-36.232174 793.670532 -487.999084
68.219307 844.442322 -549.678894
-43.197529 789.646301 -526.143127
-216.658035 687.423584 -344.374725
-216.005173 678.932861 -366.109253
188.236099 890.213562 -541.292297
-154.421936 724.031921 -479.805328
1.765458 807.128479 -458.694824
-104.662605 727.601929 -502.469421
-60.983528 770.607910 -488.990936
209.824158 930.749512 -336.883484
59.082424 850.216492 -364.010406
158.628494 893.866394 -500.819183
-121.387810 751.967590 -406.672424
80.134148 841.942444 -581.724792
182.047821 913.512817 -340.360199
215.794678 937.111328 -409.939667
197.804260 912.310608 -543.252991
66.505524 853.669434 -407.475189
196.358856 897.972717 -476.192963
85.295219 856.902161 -444.924713
131.050171 908.751953 -674.858765
-117.820389 733.366272 -544.291077
-100.404900 745.486694 -609.827698
121.467812 873.487793 -366.935913
-95.723022 736.984497 -388.888306
128.130920 884.957703 -559.286133
-171.607895 723.505249 -446.998108
137.018250 903.258118 -393.250153
167.484467 902.121277 -574.700684
137.180817 887.015869 -393.740631
79.875282 849.266296 -511.675934
132.162964 858.697693 -445.599762
-15.078835 808.333130 -434.888763
-0.081377 798.794800 -432.279449
-13.152127 797.845825 -662.838684
-19.790850 762.580750 -679.264709
-28.442661 800.882935 -478.127045
-85.855949 737.306580 -427.433472
180.518692 925.646973 -456.417450
62.895138 835.095703 -667.894531
102.971077 868.493713 -415.656097
143.139206 900.958984 -387.323242
44.605076 808.619934 -409.904663
-203.475067 696.733704 -564.922363
-114.531158 732.108276 -361.504028
203.425156 931.430786 -540.907776
83.634232 880.618042 -674.191467
-124.054161 726.593323 -506.084869
-34.566185 786.874756 -425.679962
-155.094910 715.087769 -438.715637
27.206289 826.304626 -414.824097
-22.028028 801.042664 -350.623749
45.844620 840.780090 -396.399689
37.144352 794.637268 -687.011230
-206.215591 681.689270 -605.628906
-11.061473 795.482544 -492.834015
87.159828 852.212219 -558.719849
-142.199814 738.867371 -388.061005
-13.935592 808.596375 -538.711609
-28.260542 785.792175 -435.196472
-0.895945 807.295227 -457.507294
-70.918755 774.458801 -466.209961
105.356384 884.330933 -357.729492
207.380707 920.390503 -364.885223
121.236275 876.720093 -347.794739
-124.993736 736.687073 -338.782776
-137.548569 726.919678 -480.230896
-136.734650 735.960266 -551.327942
25.503557 807.056396 -574.615540
-73.316330 755.780762 -346.716858
-65.348083 781.136292 -471.925507
82.059029 850.826172 -425.051910
148.826965 890.526367 -369.958435
14.911448 820.281006 -434.384430
-118.115845 749.040588 -507.197052
59.651508 844.970764 -540.024048
220.430908 937.513733 -451.764008
177.479370 898.060974 -505.867706
91.276535 862.394226 -382.975342
208.503815 932.951538 -466.988708
-143.707703 719.426697 -421.735229
14.699346 814.640259 -391.728943
-60.927055 780.515686 -646.415466
-77.378067 751.046692 -616.457825
10.137060 801.179810 -550.752930
-165.161636 716.135132 -503.208832
164.830490 912.317017 -401.351563
15.557599 819.538147 -416.740540
-36.304848 800.811584 -457.799072
-3.221114 795.416382 -478.777893
86.801559 889.298462 -648.381775
57.821213 772.454651 -688.255371
-159.028488 695.728027 -600.360535
-91.296898 763.186584 -539.406067
-156.284485 694.265808 -582.378113
36.881622 829.562744 -364.575623
86.935310 870.758301 -412.704346
58.534988 854.401611 -648.772034
95.957809 872.572876 -625.738403
104.160843 876.508240 -685.936890
-185.258652 713.967834 -385.986755
-102.207191 767.167786 -369.477753
-88.024208 751.570190 -590.866211
-126.642372 726.440002 -483.411682
112.186783 886.889160 -388.342316
84.537415 880.502319 -668.224915
-23.932161 807.762939 -386.016266
-166.793427 718.327454 -550.355591
-126.194542 707.237244 -603.185242
-8.934263 774.144592 -667.100769
96.194954 878.141113 -324.579437
190.836670 892.285400 -549.045166
-5.373677 807.308716 -553.622986
-12.328649 807.203613 -339.714783
-67.823799 761.736023 -479.899872
33.837879 770.889893 -692.290344
77.892578 865.984070 -412.851776
58.038692 842.515686 -596.420227
-61.484688 777.607849 -331.641602
39.416691 830.256714 -629.335388
-3.293437 812.260559 -378.761871
160.847763 945.984375 -665.839111
169.996201 912.389771 -515.778137
224.006729 935.613586 -329.946777
-23.365286 815.321106 -345.336761
-91.312370 769.907288 -367.217468
229.531113 961.295959 -635.217407
149.033737 900.695129 -473.271759
215.335831 919.225220 -520.283203
181.454544 909.603516 -557.401978
117.046654 874.603394 -350.233429
110.471550 805.790466 -682.869690
101.587204 874.484192 -548.994385
75.637657 909.147705 -677.500916
135.170029 891.670593 -577.350708
39.426365 824.251831 -573.449524
-90.968224 768.165771 -391.004974
178.130966 903.164001 -450.837585
29.240255 839.531860 -337.810303
222.963623 944.195190 -567.504089
76.081276 805.413879 -687.956116
37.823357 829.193237 -659.132935
31.194389 834.616699 -361.208069
-42.134731 757.972412 -518.915955
1.016967 809.104248 -601.646362
-79.688301 761.659058 -448.379852
-29.057552 784.903259 -464.419006
-124.113655 746.010925 -330.928833
64.627113 841.491150 -556.312622
96.212631 877.934814 -350.459717
-9.773965 798.839722 -611.130920
-64.457794 764.028503 -517.538513
-190.379272 686.142212 -452.570862
-162.404419 699.562622 -584.988525
116.251823 859.262329 -672.845154
112.612488 881.243103 -624.395691
-50.709835 792.641663 -426.199036
206.906494 943.881287 -548.529602
-157.490295 703.189209 -356.439087
-28.768509 801.677673 -464.253937
170.281769 909.735657 -347.904602
-143.840378 715.997681 -495.372375
36.064484 744.867310 -686.880249
-190.585617 687.095947 -461.151398
88.506241 868.533203 -372.288269
63.668465 844.800354 -355.635742
150.463837 873.787720 -475.382690
157.333710 892.307678 -600.431824
-115.635643 753.643311 -456.093903
173.659653 906.352112 -432.753235
47.392879 838.848083 -450.320099
-211.336945 688.236694 -402.478271
92.141258 869.256287 -336.388153
202.352844 928.447388 -508.611908
94.944069 836.820129 -476.838654
-145.031738 709.044556 -402.000946
33.478264 825.057007 -515.940918
183.237503 909.500549 -579.614075
35.051678 831.382568 -579.327820
-21.696070 801.178406 -342.980865
37.824722 844.465759 -336.092987
-43.054825 787.963867 -354.067566
20.449179 828.329163 -472.412384
166.469955 897.217834 -603.372681
-9.143704 808.939941 -353.646179
191.233200 908.584839 -426.485107
-103.191002 731.459351 -603.648621
-121.657501 736.383240 -565.199768
66.576538 848.749634 -409.970123
25.362484 824.935425 -663.371338
-152.912811 685.451233 -588.664734
187.135345 914.947327 -586.137390
2.694262 818.847290 -474.123535
-224.568634 692.166565 -463.126953
135.665878 897.274292 -401.181885
-65.057419 756.764526 -637.757263
-53.985638 794.447388 -389.860962
-104.954262 744.286194 -427.249146
126.332130 867.779114 -621.661560
-192.778809 696.221924 -605.202209
183.408859 919.265564 -570.272400
48.752934 833.581909 -661.230835
133.247543 889.554016 -590.666748
-16.723688 792.909119 -448.633972
157.265274 910.265259 -372.879852
160.548431 894.359619 -485.145142
134.650787 884.717773 -366.440552
210.833832 943.825806 -388.590393
-16.336664 792.529968 -459.670685
48.845348 835.321838 -470.064301
211.626099 937.242981 -416.384064
-183.711716 677.427063 -379.204529
31.739326 783.535645 -689.950378
-144.428940 721.503845 -372.321472
184.027893 939.398132 -647.450806
-77.578102 754.439758 -502.012146
194.437653 892.003967 -569.873169
-7.179399 802.446167 -445.263336
-209.849716 689.651672 -453.054565
166.571533 892.616943 -337.738770
121.583992 824.399109 -674.184937
111.407478 868.569885 -536.707031
196.446930 933.264832 -369.657410
39.496517 839.511475 -368.046051
133.441757 871.580811 -533.213745
-57.522652 774.414795 -465.514709
-67.598038 769.384705 -606.488953
-1.903589 815.539063 -504.464966
-9.023066 803.412292 -455.032837
107.358810 875.686584 -327.472107
80.446342 854.860413 -350.702667
-56.664295 763.786621 -472.123840
-184.877243 716.211853 -404.182587
-16.736732 772.601746 -391.303314
-61.136192 776.794250 -360.409088
95.861015 877.402588 -397.339996
-25.976498 785.545471 -567.283997
11.143284 729.604736 -686.060364
113.037811 856.673950 -561.073730
99.439583 866.992493 -592.236023
-116.544441 745.521179 -519.784241
54.291531 838.791321 -341.297150
177.822830 915.315247 -472.147369
131.149170 885.242004 -354.583435
194.337097 896.398071 -582.805786
-84.056396 747.282593 -351.593292
100.575562 810.546265 -672.601501
-129.794922 714.382446 -462.105591
-205.399429 677.247803 -529.355408
-164.784027 705.373413 -426.527618
-36.311954 749.217712 -677.814636
-199.987823 671.962585 -445.947205
-1.979806 800.928101 -500.607117
67.347794 774.256775 -687.983215
-117.427650 723.712463 -586.222656
101.682198 873.096497 -659.455261
-21.450323 811.547913 -355.599121
124.614037 872.157959 -535.015015
36.608185 827.334656 -615.592896
225.924866 929.787598 -378.474030
109.787163 884.716919 -324.240540
38.346600 805.497253 -403.346680
114.664268 868.085571 -519.811279
207.785812 924.091187 -583.221436
85.611732 864.846008 -343.617035
-48.919117 770.276978 -523.500610
-158.744751 709.203491 -642.164856
-104.001480 759.848694 -482.849854
35.576420 828.373779 -476.680664
179.524918 916.209167 -599.323059
-191.223892 666.416626 -583.495117
-31.220228 794.326355 -336.045715
-132.169434 728.766174 -352.056732
69.235176 857.031433 -406.824554
-12.418456 754.903076 -690.397766
-94.294304 763.550842 -432.694824
103.107880 883.742432 -640.627136
183.216705 924.104675 -347.112427
18.883566 817.594238 -513.059937
129.398972 876.962830 -497.322021
68.008034 828.981018 -672.421082
215.515625 949.250427 -360.935699
122.877731 874.207031 -382.812500
1.689784 750.097473 -681.473877
-123.014137 733.999573 -585.343628
226.681824 954.367920 -343.214203
197.187759 898.383118 -459.567078
-116.158653 730.327332 -521.441528
-79.948395 780.565613 -658.724670
-84.051163 757.997498 -462.545959
-208.308563 676.416870 -416.940704
-59.464516 751.583008 -507.158051
107.937134 873.034729 -377.288788
-91.682533 741.729309 -560.300415
51.175430 839.028992 -564.270996
201.515656 924.407654 -564.349365
-126.867622 735.322266 -339.990875
-205.700638 695.947571 -454.184479
-127.322662 735.913696 -345.325684
0.497331 810.038208 -360.059418
-52.632603 769.752197 -420.142426
161.296219 874.722717 -503.625092
184.034241 914.476624 -576.404907
84.446236 853.084229 -511.449951
-195.188492 702.516602 -436.287292
-31.827507 789.915955 -451.245789
27.693405 824.274536 -378.385590
61.743553 849.101501 -397.136230
207.234451 931.294739 -374.671783
-216.915787 699.300232 -413.319672
-214.078629 695.428467 -545.151672
190.139801 919.059143 -364.160858
-87.831764 750.503296 -313.195801
212.257248 921.498657 -582.751038
-22.936552 804.506653 -480.263916
127.242424 883.703613 -524.692200
79.474968 865.804932 -481.765747
42.168072 841.544312 -403.394714
98.740776 870.128784 -426.396515
35.793633 808.816162 -475.426086
13.547472 830.478271 -370.532104
66.219193 846.633118 -427.969696
104.348473 871.051697 -415.433838
4.887572 799.305603 -576.778137
183.552200 920.137085 -464.364777
130.944458 878.141113 -575.914917
70.581963 848.075378 -452.280609
-6.250995 803.959229 -461.289948
-65.695351 757.802002 -479.556061
-74.359413 749.579285 -631.464233
-0.428647 805.731201 -522.155945
-200.462677 685.456482 -428.460907
-59.618355 769.028015 -663.454529
-8.596504 810.653687 -498.216492
-33.116795 781.847229 -647.968201
194.881500 926.172668 -536.178650
-174.717636 689.111633 -376.766602
-153.237991 717.836792 -588.654297
186.738708 927.059326 -413.909241
114.233139 880.804626 -376.357300
-144.979843 733.270386 -453.749908
-160.793671 730.220703 -356.204468
64.850113 828.288757 -653.876831
-28.349487 796.105530 -365.983856
-34.138031 786.718384 -431.020355
-8.834743 810.666931 -341.123474
-78.084984 738.814880 -574.897217
122.298973 878.760925 -421.295166
-65.128746 738.263489 -677.670349
160.597961 911.547180 -419.511536
-128.724564 727.227783 -601.736267
-80.232552 752.146118 -555.459717
19.023899 794.469116 -671.448059
53.522255 801.208679 -672.802307
166.669159 903.893311 -423.967133
101.335365 864.727844 -413.799683
-94.383942 723.706543 -599.208496
161.252884 909.015015 -480.211487
119.106842 832.072937 -673.610352
-36.572659 808.817627 -347.193146
71.988213 745.954041 -678.882813
-185.783951 713.664856 -396.310364
220.780701 940.942017 -520.729004
-21.095053 794.954163 -468.402374
-3.700807 808.818542 -403.532928
104.337883 882.987366 -364.907593
181.213455 927.441162 -632.008789
129.401733 888.400085 -559.182861
52.355465 823.333130 -369.065308
-99.002968 734.542847 -590.840393
-111.591408 774.654785 -675.309814
159.219971 905.668274 -478.884857
138.846603 873.147095 -370.031372
202.599854 941.650452 -404.023712
104.457954 847.731018 -602.971252
10.297344 787.211243 -354.230652
-60.835434 785.054504 -324.706604
20.484987 830.046936 -524.301025
103.137039 883.242981 -354.713074
33.047691 790.147095 -682.374390
125.270172 864.804016 -574.649414
203.529510 922.855469 -600.750732
201.638016 922.259460 -558.996216
157.270874 906.591797 -435.172333
-100.151344 731.374878 -487.866577
-156.444595 731.039124 -461.563995
-84.366562 767.967957 -408.839600
-102.060089 757.414856 -349.836365
-57.499290 759.501526 -600.036682
-0.109301 814.416443 -362.501404
160.023834 905.652954 -445.566956
8.978031 816.307373 -398.429810
24.892683 837.847412 -408.107361
-109.427521 739.707886 -472.022552
-153.426666 736.607544 -391.121887
-63.082642 778.858887 -470.741089
158.996567 901.240540 -536.820496
57.722012 817.752319 -651.918823
83.467613 844.195679 -674.488220
82.661667 859.868713 -336.497955
119.746925 872.410767 -541.798218
97.012512 879.337463 -360.578918
27.513815 731.678833 -678.654541
34.618683 808.146851 -652.182678
-139.616791 735.013977 -346.978699
173.728683 892.692261 -577.045105
201.570602 911.024597 -527.892578
79.690269 823.850708 -665.164490
-83.954620 776.675110 -393.355804
24.352980 832.316895 -486.501099
-85.952942 762.126404 -620.321899
-208.443481 676.206726 -422.451324
143.547592 873.581055 -610.747437
2.126815 815.647766 -654.139343
31.264490 840.364502 -667.625061
35.930698 823.521851 -371.168884
123.612587 891.677979 -374.607056
2.630785 797.234375 -582.859436
76.282738 865.060303 -421.088104
-0.600131 793.879517 -613.739258
100.155869 868.441528 -559.084167
200.373444 912.329407 -501.540436
-92.425858 738.248779 -454.247925
-215.871750 694.954468 -419.852264
-85.446068 775.632385 -640.584473
51.844524 832.770935 -511.589966
32.533390 820.029053 -478.281158
86.097595 850.378662 -474.660980
102.530106 864.545837 -510.662201
195.436005 938.210083 -326.964447
199.457672 914.052917 -383.040253
-49.728664 774.577148 -548.033569
-84.291016 736.868408 -461.306580
74.105118 856.884705 -550.719421
6.944425 757.461548 -683.880737
73.136917 856.829895 -498.917999
-190.720276 685.780457 -362.295715
129.949936 891.538452 -461.867767
136.332199 884.073730 -372.586243
100.347412 881.608948 -675.721924
-57.661598 779.232483 -666.736267
-68.240761 765.567444 -433.729431
204.175156 926.497742 -366.671265
-31.214315 795.434204 -378.964569
-124.552887 727.197693 -558.503601
-156.270477 717.668823 -388.980957
75.185638 755.847412 -677.763367
-222.056671 677.360840 -328.796539
-76.270844 768.614746 -528.088257
84.870979 810.537598 -684.073364
42.284664 753.189148 -687.699524
-192.925095 701.414978 -427.362000
-207.716278 680.271057 -458.712769
-40.582664 792.975952 -496.048279
176.735962 920.339966 -333.204620
174.222137 921.510803 -417.018799
183.083389 918.231445 -330.850708
-108.757156 740.388916 -501.003082
102.317223 880.114014 -411.893188
-182.386795 697.991333 -353.835876
140.506104 885.956970 -384.679108
-23.938824 791.096619 -521.973816
125.196693 865.171936 -369.144775
42.583454 828.801941 -516.876892
-43.436054 782.511475 -374.487183
-173.155258 722.923584 -406.256622
-5.830116 803.273193 -661.316223
107.497078 858.968811 -579.677185
154.273148 907.626709 -443.798981
95.747902 857.785828 -535.011658
-110.158134 730.992432 -560.814087
16.961470 742.664246 -690.444336
-41.383385 784.181091 -433.092102
-16.707500 794.244568 -519.258667
-156.866867 703.619263 -575.619995
58.100349 837.047852 -543.217102
-45.946671 778.472534 -414.494476
30.222986 818.800903 -575.514099
-92.701973 726.622620 -509.458252
87.902267 867.226074 -474.371216
-14.571280 795.383362 -640.309387
15.521644 814.865601 -634.688354
-189.006683 673.622253 -480.660492
-31.453909 789.369324 -574.355957
52.731510 838.842407 -426.670135
161.409180 902.364502 -531.068726
-203.028259 705.856506 -380.993134
37.504429 831.893921 -673.819702
160.991440 900.762329 -440.740875
69.818634 846.608582 -479.828033
-0.786056 783.331360 -664.143677
22.996996 813.906128 -527.491516
74.652199 794.913574 -674.469543
-225.158813 700.013428 -638.176270
-2.850760 827.962585 -341.981232
-99.027077 753.318848 -528.108093
114.450188 873.501526 -609.447449
-27.593763 792.841675 -382.153107
-94.139717 742.198242 -462.119110
-164.309189 715.502136 -333.801361
-120.836647 733.828125 -439.121826
-151.376480 690.344727 -477.669189
64.745567 775.589050 -670.880432
-26.207546 792.766296 -365.593140
-165.415894 705.759460 -605.081726
36.221695 796.286865 -673.397949
-21.388405 810.277222 -385.167633
37.762470 830.335083 -374.174652
-15.774184 748.574585 -678.848022
-26.260771 791.257263 -478.920135
219.089951 944.006042 -439.203430
38.258385 835.742371 -408.646545
-195.196152 684.003479 -449.885498
9.792684 794.547668 -604.156372
-24.792133 804.914185 -324.075867
-13.312083 789.472656 -532.296875
144.742584 885.681946 -502.651611
171.947586 919.702881 -505.536499
-184.724533 682.648499 -581.250183
-146.363556 720.778748 -418.072845
-95.952736 722.878662 -569.079102
142.325897 886.361145 -483.279297
194.323608 918.625183 -582.695557
-147.713135 722.384827 -486.914764
-170.252914 698.416565 -564.160522
-52.558586 776.308228 -354.220581
-14.506874 818.846558 -346.405792
-81.832047 767.489502 -640.172058
200.789764 977.109741 -646.249451
-110.152657 768.683228 -351.355774
-104.044151 731.718384 -514.585388
-212.122147 690.486755 -343.593414
82.718361 834.070496 -675.707703
32.020187 836.296387 -531.527466
-38.435066 791.019714 -607.026550
64.374077 849.231628 -594.007202
128.085770 899.245178 -370.609619
-44.149605 797.224854 -437.582764
-231.367172 688.320007 -623.953186
159.728058 914.913452 -373.302307
214.334076 932.677917 -552.270691
-91.539024 742.221008 -544.356934
215.928391 937.752991 -562.253052
189.696518 922.713989 -372.107452
3.283264 810.811829 -514.379395
89.333611 855.466125 -528.267395
196.743011 918.257813 -393.424286
-91.456841 750.912109 -592.791199
101.120857 867.573547 -476.066132
237.540359 940.830322 -337.823090
-64.766174 769.369141 -359.052155
144.382950 872.444763 -426.619843
-145.555237 718.312805 -417.002045
-140.909943 730.048401 -531.602417
-10.969558 794.287292 -487.412689
-91.170097 734.709229 -375.065277
62.627224 847.468933 -542.127686
-107.051369 759.079346 -449.554993
72.276978 831.738220 -660.867981
-21.643873 796.538940 -410.996460
62.555012 838.381470 -488.989655
-191.189148 673.018738 -533.507813
182.056076 891.381653 -368.215546
-173.585541 703.714050 -486.853699
194.376083 912.492493 -423.802002
44.878262 799.424561 -673.911377
95.321434 872.905884 -330.007599
35.138012 842.836121 -416.606201
-208.844177 692.370056 -421.751160
44.201324 790.027039 -665.101196
-120.330925 741.663452 -532.562073
-177.689590 710.526062 -504.128082
95.241386 878.119995 -403.044281
133.967514 881.080627 -533.189697
73.169853 857.155579 -555.776001
-207.614807 693.184509 -465.139648
162.841415 897.703979 -570.656677
158.084137 890.292908 -608.315063
-190.878860 690.136047 -569.244812
61.374561 839.717163 -513.348206
-145.572617 705.021423 -494.468964
-74.144653 751.403198 -601.692444
-167.248199 696.698975 -353.540833
30.320684 786.136902 -669.878174
-74.455185 768.333618 -514.886963
150.961090 895.385193 -540.997070
-167.712326 700.218872 -594.947144
-181.906143 698.477966 -491.822571
-81.206200 769.334351 -435.918243
163.582352 917.069153 -414.603333
205.345474 914.511108 -390.861542
105.886856 866.595276 -498.989288
74.438095 868.807068 -379.636780
-23.482891 776.174133 -430.101715
118.438622 898.598572 -334.032166
-50.324043 758.552002 -627.352173
114.928551 879.362122 -532.408020
29.627119 827.226868 -371.744385
208.726913 929.097046 -464.728088
-150.692429 724.369629 -502.827820
44.044922 838.199036 -519.855896
-31.478575 801.395630 -491.220123
-104.635406 746.919128 -471.180511
114.815071 865.053772 -567.202942
-42.936928 776.739990 -530.068909
-1.711858 820.550964 -407.387360
-98.972816 736.865662 -636.088928
-164.342499 712.220276 -389.493591
-150.664780 715.918762 -595.096008
-174.793488 717.135864 -427.920868
-24.407698 807.428040 -647.023438
67.951271 851.020325 -528.322632
-163.334702 739.096497 -331.525757
10.608067 765.774658 -683.472046
208.487183 912.844543 -583.980652
110.384209 867.860352 -393.538818
-131.348877 748.152832 -644.038452
-31.407869 787.773315 -395.614197
117.477257 881.913513 -365.187073
149.431534 897.174500 -331.001617
13.891483 815.950073 -363.690033
215.669388 938.707825 -594.386780
-217.953430 685.088501 -485.258972
-208.854462 693.194336 -493.403229
114.586838 869.625916 -544.961487
115.444092 887.528503 -335.320007
-25.579220 780.247864 -554.434753
-63.078045 764.613953 -522.853088
7.308442 806.360657 -505.668640
116.338867 878.326172 -458.006012
-133.730606 726.966003 -344.048187
110.417633 879.763733 -324.728821
-60.929035 770.549866 -494.732788
-176.424927 708.769958 -364.543884
198.062119 900.322144 -531.048340
106.687325 839.289795 -686.309326
-155.604004 710.867859 -424.868011
-47.387283 785.553040 -635.812988
154.566147 908.275818 -352.224060
0.116946 814.706055 -367.729156
153.098862 893.356628 -499.468689
-26.761488 791.930420 -593.625061
41.984131 833.482544 -577.901123
-179.202698 738.967773 -653.948975
32.769718 836.106384 -413.017822
207.981918 927.341797 -337.591644
-97.938385 764.047852 -453.932556
200.629211 916.260071 -531.462036
5.869347 819.046387 -370.880402
-143.709198 726.117126 -359.276520
-73.107559 762.831909 -600.407288
143.030746 892.320801 -350.994324
-182.757446 733.874634 -341.174713
-22.771116 807.419800 -639.237122
-54.991993 761.880859 -457.065643
-94.149467 763.201477 -437.977509
46.096870 829.869019 -538.230591
184.127640 906.951782 -446.199921
-22.323996 794.166626 -467.898193
-75.668808 766.675781 -423.522461
144.188477 887.836487 -504.663879
3.940273 819.756042 -326.459961
-11.198467 815.320190 -386.075104
-122.576675 721.666870 -612.692444
92.714722 895.667969 -672.005798
137.393997 874.250305 -337.639923
-192.072540 694.482239 -547.969604
29.545017 823.930420 -510.649658
41.739300 836.335693 -440.445892
190.318130 926.336548 -369.319427
-21.383389 809.827087 -452.275116
187.646744 903.791565 -512.335266
-8.931314 803.848267 -350.242554
-111.520164 744.743164 -354.544861
-55.080181 763.208923 -563.106445
100.409576 821.355347 -689.230835
84.218719 859.109558 -550.033875
-13.551819 805.608948 -387.933380
-8.934932 777.330505 -532.491577
141.864471 900.514465 -358.344360
-162.038239 718.302551 -385.555786
156.330658 890.757385 -603.219421
-136.686295 726.517456 -572.788086
91.019516 856.972717 -509.740906
-139.501511 727.793274 -392.834686
93.258797 864.770264 -656.175720
-139.524368 726.088562 -570.781311
212.367874 930.193237 -614.090454
71.396248 848.395752 -457.240509
-139.852097 703.390686 -522.424988
-157.368546 722.535400 -499.354126
-186.875366 695.417419 -364.463684
-160.097916 710.849854 -470.500671
58.195927 845.583008 -573.147034
139.075836 879.557861 -535.122803
-220.884125 692.292114 -554.629395
-16.582497 787.629272 -446.990112
-162.820740 725.786377 -639.649353
-108.280426 714.883240 -558.070190
-201.878235 685.304749 -495.569733
-167.965973 700.608032 -568.832153
50.287590 831.798401 -508.057831
-6.022162 798.206543 -670.091370
-85.909195 750.566467 -531.579651
143.979080 899.239075 -399.709229
198.404419 915.357605 -537.613403
236.616653 958.991516 -610.849304
47.930969 828.621826 -555.167847
-220.115997 694.080933 -634.273804
-181.972839 693.128052 -434.672363
194.976196 920.902771 -557.074036
-43.878216 757.977844 -596.305542
-23.374247 746.472107 -667.436279
8.448817 798.164490 -594.416809
77.954575 871.998779 -632.209290
-103.002777 751.643982 -353.730713
-37.831760 784.554077 -352.105347
139.090454 886.365112 -454.817810
