ply
format ascii 1.0
element vertex 1382
property float x
property float y
property float z
end_header
-729.739075 -116.975037 515.435120
-760.460815 -56.642277 527.543152
-557.389893 -221.506119 543.701599
-709.392395 -112.992043 521.816528
-864.657349 -360.614380 424.825195
-811.135376 23.510983 515.756042
-804.580078 -298.451355 449.420471
-861.099670 -265.133728 442.939270
-850.743835 -34.073299 497.458038
-683.610474 -269.334473 494.459320
-758.850464 -85.419685 511.766754
-913.984253 -289.014160 425.910278
-747.081970 -291.164307 473.571808
-799.939819 -253.526871 463.940460
-868.369385 60.247505 484.974274
-905.720642 -301.120239 388.664337
-898.310913 -297.785919 435.180878
-779.367798 -136.604630 496.894745
-825.819214 -381.704346 453.539886
-839.643738 -96.358467 481.497742
-873.934570 -319.545563 454.562103
-802.590637 -98.236366 492.216553
-883.770386 59.983662 500.051544
-682.456238 -167.522125 531.830872
-892.652954 -331.812592 368.849182
-554.352844 -240.879898 545.938965
-750.963806 -263.987061 478.730042
-693.387329 -266.792175 491.907104
-637.306946 -219.526505 509.605835
-1047.481445 -136.679382 417.120636
-888.558899 -335.230713 379.192780
-998.008972 -73.659035 425.225098
-923.486023 7.931970 472.349731
-880.930847 -346.824280 379.093597
-867.034058 28.165148 496.431152
-764.573181 -271.203644 480.398132
-898.484619 -309.592987 449.849518
-853.357544 28.948839 505.808899
-659.095581 -421.282501 472.333801
-628.352905 -224.382614 518.504822
-829.956726 -34.714809 505.893494
-837.088074 -173.087128 466.489319
-830.260132 -295.663361 434.615540
-907.663879 -302.096832 435.381287
-656.898315 -258.432831 519.409851
-907.059875 -11.017838 449.824280
-738.305359 -338.939667 461.993958
-732.776428 -106.880554 512.545532
-940.567322 -185.243805 427.415619
-787.022827 -241.789230 467.343475
-865.394165 26.418320 492.291473
-799.913635 -242.887222 469.328400
-785.406494 -184.291718 491.521423
-690.920044 -391.522736 477.967865
-702.572876 -360.839661 470.446014
-769.954041 -252.701263 469.749695
-871.509338 88.229118 509.050537
-789.699585 -128.318649 486.559357
-985.894897 -51.412941 453.261780
-647.774841 -271.406464 499.961273
-708.267151 -73.982971 524.444824
-849.608826 38.471989 509.377228
-884.646851 -103.412407 478.458496
-906.754395 22.443796 484.643982
-827.672058 -367.080170 371.542053
-723.029419 -222.371964 508.430359
-579.530518 -208.466370 552.820129
-896.766602 -313.439331 401.022278
-731.011475 -195.655792 498.544739
-779.150269 -149.173615 488.790100
-809.326477 -105.175903 484.161041
-796.706970 -259.210114 464.916412
-700.582703 -124.005432 529.898804
-830.238281 7.271938 504.409637
-974.234680 -262.788452 405.112518
-910.113220 -317.026520 369.554382
-706.996033 -400.704681 457.550720
-634.056152 -190.617706 516.444458
-792.916382 -103.654594 494.107269
-638.005981 -280.877808 504.629028
-558.022705 -244.780197 544.739807
-668.795349 -336.353973 487.844299
-817.926208 -206.753387 449.584808
-863.724365 -340.603088 384.183868
-955.301392 0.497571 467.012573
-721.026367 -113.291580 527.193665
-633.459473 -224.450378 521.292725
-883.378296 57.100399 496.912170
-665.354126 -198.922440 506.246338
-779.904236 -35.434177 514.548645
-706.639221 -69.460312 531.709290
-620.825806 -285.191650 509.236389
-756.929321 -291.987915 482.766968
-687.094971 -238.061325 499.263214
-747.177063 -264.196228 475.151764
-679.216858 -173.468353 509.263977
-947.529419 -271.690887 363.257751
-561.510254 -242.705902 539.235596
-792.204163 -76.713402 503.253601
-708.893982 -305.124207 482.433411
-619.406921 -245.828568 518.869995
-701.473511 -212.076950 516.501404
-850.025757 -110.749146 484.893311
-801.179138 -263.993683 455.903778
-631.834534 -253.700592 515.414001
-603.407104 -234.156784 529.306580
-663.115234 -269.533386 502.104492
-862.203247 -144.571640 465.049103
-745.544312 -379.164185 445.698914
-778.028076 -48.206444 513.249023
-746.401306 -355.094543 453.767151
-576.726746 -218.232086 558.355408
-875.460388 -98.191628 479.387421
-789.728333 -280.992004 471.653595
-828.903625 43.120079 505.785736
-813.666321 -83.887680 494.189423
-846.018677 -398.159973 480.496033
-907.895996 5.505495 486.201996
-729.859375 -244.446930 496.953461
-658.908020 -189.636002 516.451355
-747.445251 -146.585739 514.896545
-681.139343 -80.909012 538.826843
-988.312317 -67.351120 445.227814
-916.192261 -261.412262 433.172211
-833.325012 -295.457611 438.948547
-933.224487 -283.276550 359.563477
-840.182922 -223.687576 471.342346
-730.924072 -390.718475 474.231110
-911.517151 -313.727295 406.561890
-806.402039 -124.526924 488.401184
-609.332703 -141.584213 539.617859
-876.545959 -353.818481 419.991577
-939.788269 -51.472004 434.571960
-864.971008 -125.407570 477.117676
-917.413452 -291.645233 388.607788
-820.033875 -244.332382 456.622803
-895.619934 -81.495529 473.605988
-870.490417 -260.076172 451.324341
-1006.640503 -86.442436 435.898865
-754.796021 -18.124918 530.136292
-1074.611450 -175.853851 440.947266
-911.811646 30.349592 489.518127
-628.007996 -294.006256 495.336578
-737.273499 -368.089691 471.859009
-958.722168 16.664490 464.182068
-686.233643 -331.460602 480.066101
-629.245056 -158.700043 535.258545
-723.298157 -202.775803 494.240601
-759.128296 -338.999207 467.169983
-1011.037415 -234.593857 423.480316
-801.988098 -60.039410 475.145416
-590.347534 -264.662598 512.852356
-1029.993164 -228.459244 452.721191
-905.975464 -35.069256 447.083252
-699.464111 -270.809875 473.015686
-608.934753 -301.398651 530.552795
-1014.920410 -96.605820 433.259979
-814.720337 -4.348760 515.550415
-936.884216 -257.845886 427.723969
-850.216187 30.428059 499.386597
-758.301086 -3.779998 510.515472
-947.665527 -180.731705 433.211792
-793.330566 -309.838135 450.832275
-784.599487 -424.460388 482.324768
-797.003113 -233.206909 482.825897
-660.721313 -416.381378 465.125671
-697.705139 -277.789764 488.913910
-751.205566 -89.257843 514.963928
-841.876404 18.329611 490.374786
-666.003601 -206.888748 513.545776
-918.277893 -175.512115 451.625488
-672.307861 -182.137436 508.766235
-678.409851 -360.331116 479.588196
-871.775330 67.714569 504.660522
-851.547668 -304.664429 445.292175
-892.309998 -128.545944 468.777863
-538.222961 -227.716232 563.107056
-774.205566 -140.281250 504.844879
-888.129883 57.644611 502.878082
-854.861328 51.147640 508.564667
-691.666626 -151.035919 527.602234
-647.652222 -374.356415 490.243744
-1047.221191 -199.464813 426.544830
-699.005981 -153.396744 515.934875
-899.125854 -211.889648 436.610291
-896.742859 -277.007263 442.511932
-600.495605 -245.400848 503.838043
-1013.927734 -244.931076 450.289063
-710.382568 -82.174126 528.885437
-778.047546 -142.728943 493.269897
-996.404358 -149.969269 425.271179
-842.207397 -373.622650 413.131439
-990.182922 -156.211182 434.785614
-813.258911 -213.063110 477.626556
-1006.743225 -145.531113 426.233826
-671.536011 -126.210747 530.517212
-865.994080 -255.021362 438.027161
-578.807678 -228.499084 536.727295
-697.201721 -304.022949 483.697601
-1047.657227 -120.432098 426.848724
-1007.782471 -256.474884 456.241821
-732.262939 -309.926239 474.628510
-1020.012451 -238.112152 430.942230
-932.396118 -57.137600 440.616150
-836.300781 -132.972183 484.965973
-930.064209 -298.413910 408.930664
-829.895142 -230.596069 473.164398
-690.338074 -399.239471 481.185730
-898.605530 -100.369133 443.872040
-731.619934 -94.974144 514.910217
-856.312988 -347.156830 363.733673
-731.547241 -178.436874 500.516571
-893.516602 -41.083542 483.649292
-998.138977 -69.239594 445.490173
-781.503296 -209.266281 460.035461
-898.272095 -204.474884 433.844879
-763.283691 -401.003021 465.149445
-643.223877 -242.085220 526.635315
-865.281311 52.251030 491.762817
-698.019897 -139.097397 530.105835
-821.339539 -209.868042 474.460907
-582.890381 -178.682220 524.283081
-588.941345 -203.669846 551.067932
-914.457092 13.127150 484.108582
-958.251526 -277.218933 384.319336
-698.908691 -364.052551 471.354095
-583.492310 -218.560455 520.455750
-764.123291 -139.144821 479.535553
-882.104492 -158.793793 468.764679
-565.334473 -291.989197 536.731506
-849.557861 -369.123108 394.302246
-965.587158 -119.617363 425.428741
-738.950928 -232.124405 483.930939
-900.765137 -107.753860 457.921600
-585.333435 -220.804535 552.584595
-705.677673 -365.161316 468.400085
-629.563599 -342.506653 510.557007
-895.564514 51.471313 501.475647
-887.935242 -331.481323 359.119843
-863.614807 -232.694855 446.734161
-812.157410 -229.383469 466.741577
-879.633423 39.150326 497.176758
-924.514893 10.749234 479.908051
-853.257935 -56.756756 488.074097
-857.317505 -32.474377 485.627411
-758.136230 -94.276413 513.186890
-782.670288 -423.839417 468.103668
-657.645874 -423.850403 475.357635
-756.470825 -68.809486 522.787903
-810.282349 -392.375275 408.593323
-891.424011 -309.400513 427.435425
-560.379883 -269.116180 540.407349
-711.565002 -301.748535 497.486145
-778.179932 -362.880615 458.595856
-651.098755 -373.551910 494.818481
-691.921326 -148.723068 518.458801
-766.759766 -13.146906 521.401855
-826.247070 -241.427765 462.903168
-665.279785 -255.131180 503.532593
-925.832397 -166.581924 453.459351
-835.270142 -120.398628 477.774628
-751.042480 -22.968573 526.744446
-850.158447 -0.143841 497.069183
-816.559753 38.623520 522.209229
-617.296326 -194.381607 543.931335
-863.122009 -168.736359 461.503326
-872.176025 -337.638275 440.497925
-832.180603 11.272018 508.416626
-729.110046 -338.949158 464.945923
-1013.940735 -249.076981 446.400299
-924.387695 -272.064026 409.716309
-964.764526 -119.570129 442.923218
-902.649719 -318.534607 433.250519
-813.688904 -135.163055 487.078186
-883.288696 -147.596176 452.317841
-842.054871 -374.704254 396.689606
-817.476501 -304.238495 456.028595
-649.315063 -193.442978 519.846375
-862.009155 -145.186356 468.923615
-954.565369 -73.015572 463.098633
-881.553467 -326.314911 456.075470
-792.162109 -43.904942 503.032501
-973.360962 -83.370239 422.740967
-928.487488 -125.817917 447.909027
-801.664917 -96.044563 489.147461
-628.182190 -268.920013 510.304535
-789.975037 -121.179848 473.941010
-685.247009 -231.357391 515.395996
-655.181824 -115.002884 533.305603
-961.636353 -261.690216 429.789368
-632.806641 -157.168594 530.850586
-659.839661 -225.209961 511.747589
-923.184631 -194.258087 449.216034
-986.052795 -165.435043 425.428284
-775.276794 -309.502411 460.624054
-642.587036 -151.038330 532.958679
-950.427002 -23.937729 468.888428
-747.530334 -381.275177 446.072266
-921.968079 -208.733337 447.312988
-718.340576 -197.614899 494.082245
-802.671509 -291.285706 464.008514
-583.513489 -175.472397 546.960388
-742.352356 -262.591949 491.673584
-834.020508 -177.782867 466.472565
-720.833191 -204.203384 490.743713
-737.877991 -61.987885 532.996155
-946.251343 -279.227081 391.692535
-889.967957 -244.246048 433.731689
-588.075500 -320.739380 509.807281
-853.033325 32.498909 507.568054
-846.052734 -137.250427 471.965942
-1046.095337 -121.276436 432.377991
-941.989929 0.144527 465.406006
-941.990662 -65.643517 451.568359
-858.032043 -162.227112 463.658295
-863.604736 -333.585724 460.238251
-922.014587 -306.229279 371.043396
-900.317627 -104.654373 453.670410
-751.453918 -182.526260 504.365967
-871.085938 55.672066 503.030334
-954.043640 -286.033386 397.468231
-1003.543518 -131.494156 405.013733
-742.475769 -100.045166 493.965088
-857.433960 -355.517700 420.797516
-922.921570 -49.863293 470.718964
-600.360962 -159.873627 545.148987
-678.669434 -178.262482 530.561707
-875.801880 -344.961273 424.670837
-903.353394 -259.762115 444.398193
-1009.628174 -234.177719 434.588867
-897.659668 -136.878784 438.172638
-1010.170898 -179.585373 425.084045
-755.857666 -387.496216 465.452026
-855.869141 -38.437454 484.863892
-984.250854 -63.728806 447.431854
-938.603088 -287.005890 414.418579
-669.918152 -350.115936 490.750214
-861.600037 -362.614319 445.554993
-937.306519 -225.886505 446.685150
-799.172546 -117.184990 492.140839
-764.469604 -186.286392 489.770630
-610.530396 -141.820724 558.546570
-666.459595 -135.466583 539.256531
-734.460876 -151.533020 503.938202
-922.421753 5.983597 481.939789
-867.463623 -173.543915 465.434509
-858.252014 -254.172287 442.353333
-916.814026 -94.788010 466.121704
-881.749023 77.050308 495.683533
-694.628113 -285.182739 490.594025
-645.244995 -114.150230 540.194275
-598.450684 -182.742264 539.206421
-612.057434 -163.989243 552.722351
-719.933533 -62.541710 516.211548
-975.917969 -12.950311 454.866089
-799.361816 2.088768 493.842010
-918.074280 -307.043884 413.296967
-717.721497 -384.974670 459.372803
-585.199646 -308.105164 512.991150
-1029.220703 -159.690781 422.307587
-697.928772 -355.580688 491.092560
-934.738464 -279.497131 436.469604
-947.195251 -264.022491 440.747772
-872.242981 -339.374481 447.933868
-753.826904 -106.399246 509.491455
-866.623352 -142.558029 472.254822
-986.625183 -178.157654 414.103729
-679.940979 -250.869110 516.911072
-728.727295 -178.597717 496.929871
-716.453979 -196.287628 498.257507
-914.439636 -306.174530 427.542023
-774.488098 0.448075 505.066315
-881.036560 54.194424 503.207123
-942.265259 -4.443267 469.452087
-731.382080 -183.751694 507.965363
-665.661133 -417.018463 482.154449
-744.341248 -350.580750 458.083618
-953.000000 -225.295013 444.795227
-996.646179 -91.159088 438.375458
-995.577454 -258.330139 407.142700
-771.022644 -316.507690 457.023163
-941.915588 -295.277863 388.870514
-710.853882 -376.406586 463.883209
-781.882141 -350.962952 458.410614
-896.375244 -107.928604 443.087128
-753.930115 -197.872437 490.119232
-863.501160 -53.243816 489.301971
-619.134033 -261.555420 506.499786
-722.962769 -79.488052 518.790833
-776.751831 -201.745422 493.061310
-830.197327 -331.452301 461.227600
-752.353577 -145.887894 495.216919
-957.112793 -282.135864 385.887665
-934.289673 -241.451599 433.954346
-892.039673 -166.699478 459.344147
-842.015747 -231.165283 456.981445
-667.908447 -104.310120 530.935913
-728.323242 -307.603119 484.047272
-959.654968 -114.524696 441.772888
-979.171204 -100.265999 417.844421
-593.236511 -284.599030 520.743225
-1044.296997 -215.694244 449.839050
-662.978516 -188.220718 516.315125
-1031.211548 -126.773315 429.356812
-877.056458 -336.189514 432.080658
-748.885864 -290.745056 468.842255
-642.025940 -185.394623 528.107605
-728.440063 -298.678223 465.543671
-774.384338 -387.047760 456.070679
-867.112976 -114.445984 473.455078
-836.320374 -240.791016 466.871887
-682.561523 -403.115936 483.809357
-822.802307 -261.141418 463.771729
-864.585938 -63.429996 475.193207
-619.308044 -190.306656 530.656006
-1021.636658 -124.767059 407.858307
-825.349060 -95.556969 485.310089
-712.080505 -101.766006 529.731812
-970.570923 -126.324097 427.105743
-863.776550 41.720440 506.602722
-881.684143 -91.931915 478.026855
-586.427246 -283.770874 522.403748
-937.715698 -141.159912 442.639069
-930.851257 -42.416611 467.582977
-600.185974 -247.554398 543.093445
-678.812683 -425.963654 482.275604
-705.555420 -157.297729 513.465881
-808.906067 -276.793274 451.272980
-702.361511 -156.249863 488.921539
-802.707642 10.966739 518.665527
-662.185730 -105.299706 536.096924
-811.622620 -76.298088 475.160065
-912.869385 -15.225874 477.070251
-869.224426 -78.197456 474.595520
-903.593201 -318.297089 356.313324
-632.609375 -365.716370 505.503601
-921.573120 -80.372093 467.522247
-972.083435 -39.067280 455.308533
-578.924622 -193.206177 543.002441
-829.057983 -148.252548 480.368286
-769.030457 -10.229047 503.100342
-952.904541 -284.155334 393.979553
-809.083313 -185.918060 484.153961
-724.420227 -283.021790 484.067230
-777.024780 -38.885151 525.311462
-777.154358 -125.458084 499.125061
-866.315308 -350.230011 437.361969
-678.531494 -165.510681 493.404175
-557.109863 -277.406403 531.806335
-679.660583 -264.591064 496.655334
-928.274170 -277.149170 445.207550
-899.162476 -183.321289 445.982666
-923.898621 -287.259094 413.664001
-797.982117 -196.248352 485.117706
-750.754639 -121.369102 500.391449
-688.341919 -282.970032 490.008514
-601.471802 -292.797485 533.937927
-770.833923 -333.220947 443.772430
-863.372070 -274.816406 442.251251
-828.362793 -119.882431 493.371765
-798.591553 7.179140 507.512207
-715.362671 -97.769287 529.407959
-852.796570 -69.837601 494.329651
-821.034241 -78.736412 500.547974
-922.929443 -138.878632 443.591217
-792.124878 -304.144012 442.335358
-585.338013 -298.492157 519.302307
-994.219849 -135.529831 407.541840
-770.993225 -380.619873 466.256500
-939.067749 -230.110947 434.726135
-843.232727 41.424263 508.712250
-960.418152 -63.789806 454.667084
-829.401245 -161.847748 473.131226
-1000.138184 -109.119522 432.796692
-769.046875 -18.176809 519.221863
-886.809509 -144.994720 457.789429
-678.667786 -247.904449 495.406219
-661.605835 -142.269379 527.411926
-713.635986 -340.669922 471.026825
-628.536194 -183.538986 531.777649
-840.753540 -34.904514 496.048431
-728.791382 -177.453583 502.653625
-621.245361 -364.202576 491.702484
-914.552124 -212.661026 439.085083
-923.164490 53.139256 476.641785
-784.312866 -198.190552 478.585632
-812.987915 -285.332306 451.686707
-791.491394 -152.239471 496.518890
-965.578857 -153.913376 437.499329
-806.475586 -170.174576 481.075165
-887.811340 25.931410 494.753632
-889.345764 -273.378387 449.954041
-968.451355 -59.772751 455.083954
-751.902161 -428.956573 478.371429
-886.495361 -318.694031 435.580658
-1051.110229 -210.930588 438.390625
-926.805908 -16.977488 466.447510
-607.694519 -222.310837 528.201965
-848.118835 -144.337570 481.254822
-554.285645 -259.234558 531.468567
-887.118164 -244.906784 444.105042
-903.409180 -25.946877 466.663940
-610.487244 -215.881744 507.753754
-780.577393 -338.891113 450.379822
-764.702332 -230.101501 476.398163
-825.955566 -189.879684 462.577698
-767.570190 -342.873138 445.231812
-911.077026 -73.307457 458.819458
-801.808167 -204.453217 484.659637
-830.787048 -203.340958 476.559479
-575.540039 -318.138672 519.508789
-688.248596 -74.749771 537.602112
-949.762634 -280.198090 367.516388
-811.091797 -403.608917 442.735931
-764.955750 -194.579208 495.472992
-758.719910 -14.220840 506.130188
-890.148132 -305.405060 450.462738
-979.754700 -175.263367 421.954285
-855.217590 57.210247 496.106140
-923.126038 -36.141903 471.001953
-892.829224 -332.152771 396.527222
-602.726746 -219.495667 543.701172
-920.781738 -305.792938 401.961182
-818.796387 -262.798340 467.211639
-599.604675 -243.088623 523.551086
-888.575134 -341.370422 398.660187
-937.241394 -1.679739 456.841675
-1013.419800 -144.472351 417.763184
-718.107544 -111.274788 506.158966
-993.860413 -109.975693 416.146576
-959.019714 -258.732208 414.430695
-922.041077 -308.634735 397.493042
-881.902405 -321.232178 348.363190
-895.522644 -309.908081 345.654694
-943.548523 -71.109962 435.482635
-842.916382 -232.461349 452.292755
-723.412231 -364.528473 461.962769
-738.322021 -54.960159 526.395020
-904.668335 72.947411 500.327911
-767.708435 -433.302399 469.934784
-583.755005 -329.359680 526.372314
-845.297363 40.666874 510.069946
-745.260925 -107.992912 515.166992
-827.323303 -8.805335 477.319489
-845.818176 19.865112 507.869110
-593.207581 -324.642914 496.760712
-896.837891 -104.215767 471.144531
-850.395691 -377.570953 403.601105
-943.061951 -83.639267 464.913300
-752.577026 -417.705170 448.276031
-850.754272 62.839378 501.357971
-869.233032 67.735214 503.541748
-780.446716 -217.572144 473.800507
-721.629700 -74.886063 531.301331
-910.675049 43.669197 492.663940
-823.606812 -395.366791 455.899963
-947.891907 -270.712036 387.239349
-895.762390 -147.948288 454.657318
-844.273376 -339.504578 428.016846
-911.954163 -24.047525 477.685699
-861.995605 -340.373627 451.135529
-963.307617 -146.447098 441.861511
-590.324280 -275.843597 525.860352
-897.297424 -224.671341 444.111877
-937.844849 1.169923 467.356964
-1024.273926 -202.875198 445.512543
-696.068848 -252.604431 493.289673
-917.903015 -306.573059 375.358490
-572.059143 -191.853409 550.396667
-742.182007 -187.501083 478.890564
-801.044128 -234.718521 462.916962
-742.350342 -257.392120 470.926453
-1064.720215 -164.280045 430.743805
-968.526367 -156.391922 420.515686
-771.122925 -32.557880 527.844238
-1025.829468 -64.312004 433.663239
-919.901306 -164.979645 433.630066
-798.358887 -182.076080 488.574280
-763.625916 -307.827515 464.171509
-607.013062 -299.300781 530.340149
-740.462952 -64.344681 517.123718
-964.972900 -82.917358 449.609009
-640.074341 -219.787750 517.721008
-951.208618 -86.460442 449.409607
-995.186096 -47.749157 431.813660
-700.487793 -266.038208 506.472900
-893.061523 -194.342819 445.591431
-789.471436 -71.396805 477.217316
-862.740479 -272.912476 450.438324
-884.311523 -353.930328 389.706390
-980.161804 -67.294586 447.527985
-591.661255 -163.869553 526.293152
-802.645874 -213.722397 485.076538
-784.079895 -115.960403 497.110229
-776.637390 -359.317993 448.987915
-694.969360 -367.176514 488.694122
-968.576965 -154.416641 430.299713
-774.697693 -190.377548 480.600403
-863.153503 -71.710945 490.902313
-647.762451 -176.165146 523.662964
-893.351379 -330.152374 366.459259
-938.585876 -102.123764 431.250885
-698.811157 -112.005554 523.435852
-862.481018 -359.652618 377.381592
-852.888184 -210.337860 468.042175
-688.880676 -92.137947 538.657654
-741.188599 -332.515778 474.798523
-886.976746 -261.836090 449.277191
-842.146362 -16.124760 501.296539
-681.931580 -357.043182 478.567444
-722.853455 -343.392365 465.054810
-972.143311 -227.008270 420.430481
-785.427734 -165.228912 489.548492
-850.507690 -214.955643 453.837280
-713.394348 -295.398193 479.847809
-671.475525 -234.118820 518.520447
-1066.744507 -106.933083 418.650299
-850.224182 -355.369659 460.051392
-874.141113 -335.001343 443.186768
-834.030457 -216.059128 458.185242
-780.519226 -186.012817 476.033936
-778.003235 -39.855610 514.064148
-641.040161 -181.513763 516.483826
-875.229919 -262.587250 448.327423
-688.161682 -219.922287 505.727081
-880.303650 84.968979 502.235260
-959.253235 -139.699036 447.950806
-784.772827 -70.023788 513.472534
-839.008301 -123.683601 475.843048
-955.742615 -19.698090 467.408966
-791.323975 -288.436890 444.113647
-736.886414 -244.328491 486.307983
-608.839294 -264.254669 505.425964
-658.935425 -332.662659 503.843750
-835.440308 -103.634682 475.922638
-971.738953 -258.514893 430.169464
-959.567017 -11.225447 463.741791
-858.564392 -135.809372 474.746826
-906.309082 -202.466217 452.771698
-730.507080 -46.854382 533.597107
-832.485474 40.145844 503.906433
-610.473816 -281.905914 529.046204
-614.834229 -346.895721 497.182587
-792.758606 -402.442291 446.048981
-549.549255 -273.810883 555.776794
-583.538696 -232.572449 534.781006
-848.926819 -346.710907 454.993622
-869.291748 -143.877991 464.354919
-910.162903 -205.411316 448.551605
-800.437317 21.875172 514.366516
-954.465515 -87.395111 451.623230
-683.911804 -356.186554 473.848541
-721.667847 -304.218719 474.947693
-743.567444 -109.990326 512.353882
-935.089539 -270.784729 422.025299
-953.287476 -31.015890 447.406158
-910.099976 -83.306190 465.453339
-725.499390 -289.514740 480.780182
-820.681458 -394.157471 446.794830
-858.938538 47.719765 487.375244
-870.004761 75.171478 495.477631
-715.191956 -290.667053 491.829132
-766.658569 -56.059330 524.562012
-980.737671 -138.248657 430.784821
-809.295349 -23.152046 515.175476
-830.816528 34.290302 505.667755
-620.562317 -198.276520 542.273743
-597.998047 -192.852753 543.841797
-926.435547 -93.509468 459.925079
-897.590454 -143.628418 457.595917
-927.891724 -24.439312 472.650604
-871.464844 -7.913245 469.530884
-1018.782837 -138.390488 416.223358
-770.373047 -374.165558 459.331024
-873.004089 19.226980 474.838715
-846.950623 -125.702766 471.416351
-543.825134 -204.642120 537.057739
-723.913513 -268.504730 474.679840
-758.421143 -346.556671 465.570618
-892.231445 -300.028107 439.775391
-723.142151 -155.822739 503.835724
-784.002136 -125.197174 497.057465
-678.927124 -125.367348 511.783020
-661.234802 -364.086304 483.092896
-945.483032 -282.846588 396.151764
-897.213928 -33.406704 486.830170
-831.621582 -157.702820 472.617188
-900.206787 -309.914032 403.593231
-715.707397 -135.076523 512.173401
-780.379028 -112.062538 508.763214
-653.586304 -230.581970 515.381470
-736.563477 -203.576477 493.757874
-688.545837 -144.789383 519.770874
-875.903687 -348.460815 400.587891
-694.772583 -225.797821 501.174683
-715.724426 -84.182297 520.058533
-898.486694 -40.915401 485.302612
-807.293518 -116.202492 500.732849
-979.415955 -267.441986 389.277771
-803.811096 -283.757263 441.635071
-694.788635 -204.590561 502.929016
-752.760498 -93.946579 504.692688
-873.867249 -332.935455 442.581787
-933.191711 -37.844925 467.016663
-614.705139 -179.669540 555.228943
-924.319580 -51.247459 470.598572
-785.309814 3.872865 514.872925
-767.507507 -35.888519 528.543335
-780.245300 -285.136200 454.164001
-809.066223 -194.172440 471.196594
-800.803955 -292.769226 464.489319
-837.322327 -400.082947 446.320679
-673.016235 -336.322723 476.985870
-557.375061 -189.525406 554.037537
-773.331421 -23.463726 507.828735
-912.984680 56.378323 487.824341
-1012.671326 -176.929932 428.167267
-1012.242737 -225.792877 451.518677
-868.552490 -87.805534 482.064911
-869.959473 -5.628769 494.379456
-781.286926 -290.217224 461.021240
-947.875000 -284.224426 402.048462
-895.716125 -130.140076 451.127502
-639.824585 -154.735565 538.487305
-906.630676 -133.575775 451.405457
-729.937805 -181.269135 502.315308
-888.920288 -2.585423 481.753174
-942.696289 -78.537094 452.847046
-867.288330 -347.764679 423.245270
-904.725281 -272.493988 439.519470
-603.238770 -173.822113 563.081421
-703.594666 -252.108871 495.824280
-876.452332 58.820896 490.065582
-860.498047 -84.025520 486.843170
-865.308411 -324.478943 431.347961
-916.635742 -109.373734 467.923431
-705.275146 -250.515060 491.118134
-844.074524 -47.854973 498.472260
-886.414185 79.681168 501.591705
-781.348389 -65.994553 507.709534
-741.227478 -322.151123 465.139557
-831.452454 -32.083790 507.841797
-524.335083 -258.545654 565.252808
-907.921936 -166.004913 459.031921
-992.064148 -192.082962 424.963318
-1016.936829 -227.929169 417.257263
-639.212830 -311.081848 501.211212
-703.336731 -117.021187 534.423767
-740.471741 -201.863861 502.506439
-1002.971008 -99.640205 419.052490
-837.989197 10.358053 500.757324
-763.562378 -123.206146 498.630035
-1026.247681 -231.282104 429.672028
-954.481201 -258.485199 437.512207
-830.839661 51.367973 502.143066
-731.140686 -41.980953 534.966370
-998.314514 -161.475998 436.895569
-560.150818 -203.020950 562.075989
-785.653992 3.014402 515.388428
-869.746399 -109.147751 469.406616
-594.091919 -284.533508 537.515686
-981.185486 -77.619553 447.238068
-800.561707 16.123646 518.193665
-742.697449 -283.540924 489.398102
-862.759216 67.182739 506.406464
-667.021362 -158.051620 519.463257
-591.163208 -230.327606 532.411499
-921.705322 22.655561 484.340271
-714.011963 -169.720718 501.767517
-640.562866 -241.212051 527.307800
-673.609192 -301.677612 510.558472
-650.122070 -240.622391 499.455658
-734.135925 -51.694973 530.787964
-693.979614 -392.704559 476.550049
-578.527161 -216.626358 533.135071
-934.050354 -20.998774 463.278748
-779.183105 -435.856354 489.169495
-605.995361 -211.370819 520.248474
-616.850525 -227.434082 526.216797
-741.455933 -364.318085 442.895355
-733.482056 -55.163063 513.635620
-1035.013550 -208.707932 448.843353
-1029.049438 -123.626137 426.008148
-778.356445 -19.038626 521.383240
-681.395447 -97.497284 532.328735
-936.684143 -293.142517 381.511963
-910.137512 -177.430298 451.621552
-816.938965 -150.574982 490.272888
-768.678772 -145.319702 502.770752
-872.453735 -757.624634 381.835449
-723.361206 -196.718948 509.551147
-885.751343 -329.580078 381.153748
-905.783997 -74.940651 462.147461
-973.487610 -228.262146 433.143951
-803.897339 -167.593933 478.565369
-892.994751 -303.452362 422.000427
-613.118652 -255.896744 537.915283
-1045.549438 -199.675934 425.436066
-682.458984 -84.727821 543.345520
-768.322266 -301.085968 473.128448
-701.456909 -237.139130 488.813110
-694.988953 -348.318176 488.049652
-817.835022 -86.099594 500.865051
-883.590637 -332.808685 395.811829
-880.271118 -267.768982 447.299683
-745.780701 -319.794281 480.559814
-614.950378 -210.439987 545.066833
-921.685486 -8.358377 461.343903
-890.045959 -317.438171 438.078308
-909.052490 -93.432724 457.569244
-749.470337 -181.197388 504.260071
-751.729492 -455.085175 488.472076
-827.234192 42.648209 510.155396
-804.276062 -274.249359 472.395355
-1017.972229 -248.908463 427.454376
-728.412537 -337.815796 484.753571
-677.732544 -215.519058 523.837585
-621.816223 -247.494019 498.390533
-970.652649 -251.062775 442.921082
-767.944946 -11.359905 494.262726
-806.528687 -130.499969 483.751984
-907.441345 -101.033508 467.753021
-527.572815 -246.526993 533.339233
-880.508972 -276.887512 446.379028
-623.549377 -325.553955 480.894989
-722.603943 -134.213989 512.956055
-569.481812 -236.617706 552.070251
-839.840271 41.653526 495.689423
-810.016113 -45.626228 503.243561
-862.880859 -72.324310 487.899780
-727.031067 -179.917679 512.475891
-618.711975 -288.792023 501.229279
-805.580994 -81.722923 497.244843
-896.863525 -86.145180 457.780273
-876.565918 -319.131622 451.784271
-911.985840 -7.041269 453.900177
-981.066528 -31.186337 456.804169
-891.646057 -128.111832 459.950562
-785.361023 -260.290192 478.644684
-628.405945 -126.383926 547.677917
-880.415161 53.827194 467.958130
-567.947510 -208.250443 528.118896
-766.416809 -352.453857 464.529144
-800.443054 -46.557129 498.077667
-827.725708 -406.520813 465.621429
-873.730591 -352.596283 394.173065
-938.183167 -18.271523 459.437408
-672.238892 -93.065025 537.450073
-839.167175 27.841959 486.414215
-721.431213 -274.747223 498.057404
-1062.726929 -202.544144 454.099182
-708.671082 -303.302216 485.770721
-852.686462 63.104866 506.106018
-919.687561 -269.783600 416.516602
-857.752075 -91.201683 475.718567
-1058.415039 -208.227493 449.360870
-812.257202 -19.042284 513.406433
-855.998596 -90.187050 478.152710
-662.415527 -355.959106 472.450409
-928.878235 1.809165 476.741791
-795.164978 -123.327988 466.384918
-955.306946 -275.586548 383.182037
-885.567444 52.780186 492.318420
-705.320374 -146.315445 527.010010
-674.828491 -227.843384 519.466614
-774.817871 -28.974918 509.813721
-835.794495 -119.474922 486.444336
-1037.738770 -131.653534 418.029175
-798.136414 -85.541786 500.895721
-774.818115 -264.308563 481.975250
-845.515198 -107.723030 481.321045
-783.823486 -206.116547 487.371765
-762.687622 -31.142029 524.638550
-670.191833 -390.112854 479.158142
-769.773132 -105.320221 505.046173
-910.595459 -312.491882 352.204437
-750.536499 -138.230316 509.343628
-701.299438 -204.577789 502.158051
-846.043274 -367.376312 406.354523
-845.279724 58.401730 503.003296
-890.015320 -65.477547 470.062042
-852.566101 -384.478333 404.526581
-667.014343 -234.125183 523.594116
-1083.021240 -189.556747 464.486542
-659.151062 -178.654190 523.102783
-796.163025 -252.553299 474.375122
-935.547852 -252.923401 439.439514
-664.703918 -334.447174 496.246979
-944.067505 -181.081833 436.183014
-940.674011 -177.658722 439.079834
-830.315918 9.470423 510.788513
-961.049316 -19.112963 448.735809
-595.829102 -324.165558 531.460571
-666.673523 -254.117310 504.439453
-652.345032 -403.580139 477.432343
-893.592957 -68.224220 468.385193
-643.302673 -379.492798 499.655853
-1057.480347 -88.243423 428.144379
-781.855103 -235.638443 481.968048
-675.641113 -452.240936 479.290863
-741.735107 -253.523804 473.971252
-1000.461975 -114.705681 436.620575
-835.051819 -396.565857 438.602905
-679.416199 -127.117538 531.529907
-741.497131 -158.460953 497.365448
-891.756104 -329.420502 361.358429
-1031.179199 -90.980301 431.776184
-823.609985 -360.295929 432.680725
-879.988647 -145.967468 470.399841
-844.320007 -35.953556 501.753235
-936.187744 -305.048309 394.991180
-832.658752 -129.312729 486.939911
-616.708984 -290.546906 530.897766
-610.654419 -326.838959 495.376984
-938.291443 -274.839539 425.267548
-911.329651 0.510295 472.909851
-836.876038 -367.880554 390.042480
-811.286255 -42.953232 481.871216
-931.426880 -299.285278 362.794769
-873.450867 74.681709 504.422089
-907.839050 -66.249481 473.616486
-822.448975 -130.264832 479.501892
-1025.946411 -137.683731 414.741669
-914.387939 -161.064178 442.733734
-956.358398 -75.812157 455.840057
-718.735596 -170.960281 507.318634
-717.821228 -118.015869 527.301819
-647.313232 -168.457413 501.780090
-838.462891 -378.654053 402.870300
-760.040649 -119.990875 500.165192
-953.327637 -77.101257 444.904968
-919.470886 -10.665749 480.419525
-783.002991 -31.845665 507.307098
-922.081665 44.151695 492.637085
-561.272400 -222.725159 564.746155
-887.915344 -69.995178 480.230774
-941.662292 -144.539642 441.046814
-774.687561 -6.840778 517.482361
-575.873230 -212.436127 552.805908
-685.008301 -183.425171 513.102112
-916.279602 -304.421539 441.234589
-799.196838 7.608228 517.723633
-826.249451 -268.858276 466.183502
-926.216492 34.419930 483.619049
-924.484985 -159.746216 425.980133
-924.611267 -187.228912 439.324097
-847.148926 -288.841095 449.113220
-892.690857 12.150487 457.790253
-883.487732 -99.236656 474.490997
-795.378357 -233.021851 471.605316
-661.046082 -249.773712 510.480438
-799.809021 -164.883347 482.639404
-893.765564 -322.360138 351.357513
-845.324585 -209.273682 463.015411
-885.612854 -27.188219 488.795624
-863.001099 -265.981903 436.491516
-815.148621 -35.058449 497.861206
-890.724731 34.353798 476.891357
-556.260986 -292.515656 529.601257
-620.097900 -313.074646 517.494263
-890.691345 88.151421 502.088959
-827.222900 -145.934402 487.924011
-713.101318 -78.009415 526.793396
-996.203125 -146.042343 426.498474
-788.131897 -197.122345 476.806549
-887.213989 -79.373505 451.867035
-876.939026 -27.978844 475.706085
-757.573975 -388.921204 467.106903
-839.900879 -363.034485 444.332062
-611.625854 -228.862106 535.346619
-998.559387 -99.044662 416.820892
-624.835083 -122.902100 527.705200
-841.452698 -354.370178 361.118713
-668.674438 -400.755646 464.782959
-888.610107 -336.951141 420.080933
-854.608154 71.319221 493.065704
-961.620300 -276.103333 394.732544
-833.138062 -251.787537 462.672485
-894.866333 33.327988 486.149750
-839.281311 -270.788574 443.950439
-990.947144 -96.905388 436.775787
-879.658875 -325.524658 371.447235
-898.477600 -60.664001 482.278656
-626.863525 -355.893402 508.781982
-871.977173 45.348583 495.897614
-713.335571 -146.075363 507.479706
-803.820862 -39.783997 484.988953
-915.655029 -271.443329 443.909576
-666.876709 -216.957626 515.758667
-827.612061 -47.177422 505.712402
-763.627808 -182.367493 499.106903
-879.733398 -281.360870 440.487671
-777.075684 -265.940369 451.375061
-932.590759 -275.455963 432.322906
-781.880188 -7.410491 517.579956
-796.509338 -189.875366 479.944855
-674.473511 -271.368256 498.825317
-921.609802 -105.283745 463.452576
-601.771484 -306.462067 510.583923
-663.363770 -420.885345 492.121552
-873.427368 -301.215240 450.462738
-868.148010 58.447987 505.592987
-952.686279 -22.581905 457.723358
-763.367188 -279.437927 484.939270
-989.182007 -258.430817 451.717529
-892.754639 86.608604 500.619507
-702.390381 -425.740936 472.596832
-651.735352 -290.062561 500.513336
-927.205322 -280.190796 412.473969
-654.414429 -327.489746 492.339661
-935.629578 -2.979486 466.816620
-646.407654 -229.681122 513.529236
-747.761169 -26.435785 526.793518
-851.022583 -292.623383 429.714172
-847.911804 -247.709290 460.170898
-860.884644 -48.488503 467.997253
-540.931213 -226.314301 549.455566
-890.424561 36.128746 496.116913
-972.217590 -86.917549 431.026703
-727.616882 -192.633057 494.705170
-754.684509 -160.468750 495.981262
-808.665405 -224.321899 464.258636
-707.230774 -365.384399 465.285614
-658.679993 -410.748260 461.045563
-760.315735 -265.570618 484.831909
-754.714111 -195.759064 480.776123
-585.967346 -233.369614 529.901001
-921.871826 26.558958 490.341034
-986.144165 -49.256676 450.342590
-968.376099 -242.881653 427.526520
-583.953613 -323.204987 508.255615
-535.249512 -251.677628 538.970032
-1041.745361 -128.241699 424.808044
-701.099670 -227.169464 513.497986
-716.175964 -176.055649 503.868805
-928.089661 -7.166152 480.232178
-878.532837 -88.820862 466.736420
-735.873657 -182.131500 510.358124
-847.306519 -273.827515 442.355865
-823.925293 -370.711975 438.676453
-831.200317 -370.338318 400.481934
-925.351379 -286.084808 435.424011
-840.642334 -53.001965 501.262787
-1028.046997 -108.844398 417.779541
-791.356201 12.875056 530.472290
-1001.717773 -65.634239 445.720032
-600.904541 -322.831451 528.762756
-837.007690 -367.120728 430.065094
-652.230347 -162.022873 528.062195
-759.840637 -178.270523 502.581299
-831.827087 -288.740051 443.792023
-943.774048 -144.378601 440.335236
-870.888977 68.841316 493.986908
-654.153015 -178.263596 530.978210
-799.309753 -160.361511 465.706818
-1056.635498 -145.229965 432.390900
-1026.082031 -238.308273 436.335693
-614.075684 -203.126190 529.140686
-888.081177 11.926723 489.808075
-902.901367 -96.450546 464.656616
-827.130920 -33.199703 508.342651
-811.908142 1.396593 504.033417
-992.335632 -34.267876 452.019073
-784.445129 -145.756256 490.345032
-688.875549 -313.462494 496.617645
-890.011658 -49.334473 478.121429
-906.929871 -26.387783 481.755737
-841.256592 -135.256638 454.468964
-662.128174 -118.826752 528.500000
-930.298157 -75.038643 438.419617
-861.925659 5.011555 489.729370
-780.101990 -70.083984 503.676544
-913.418457 -316.377289 408.749237
-613.750305 -164.578812 539.157349
-920.930847 -278.001312 405.661407
-925.654419 -157.781631 438.202393
-695.608826 -286.500092 501.447174
-855.781372 -252.841690 455.569794
-816.888855 34.940502 517.478638
-948.626404 -125.353401 446.787537
-892.104004 -317.021332 372.436066
-626.917786 -239.223206 516.609009
-796.588562 -93.290054 506.829590
-911.237000 -296.252899 386.186981
-645.586182 -162.097900 529.872437
-887.128601 -19.041647 483.775818
-810.178406 -71.156784 498.739471
-839.936890 -372.003143 435.570679
-812.620117 10.701045 511.957001
-697.389832 -264.317169 496.646027
-853.235962 -373.547607 420.285400
-965.545227 -277.675690 421.976288
-574.784607 -289.651398 533.323486
-699.033508 -118.235374 531.540283
-754.964478 -237.533279 482.405396
-697.881836 -244.229599 507.234589
-611.027771 -203.014893 527.979309
-939.341187 -165.604095 428.968628
-992.983765 -273.296875 466.090637
-817.869080 18.621334 512.470642
-655.211975 -300.573273 515.998718
-780.793518 -149.294296 490.674591
-725.708984 -55.098083 523.507385
-973.620483 -212.719086 419.452209
-630.498291 -305.875763 502.212158
-555.659241 -211.334930 546.460754
-586.166504 -214.164001 554.919373
-786.016846 -160.184433 485.028564
-911.425964 -123.873291 446.462860
-866.438354 74.282326 501.942841
-990.023193 -271.734985 420.890198
-917.251587 -22.337576 478.693573
-788.533264 -248.239609 451.175385
-859.210022 -252.683701 454.977448
-745.696716 -92.670677 522.163025
-962.781555 -269.358398 382.062164
-827.821106 -75.787766 472.632385
-662.091125 -107.585587 516.901428
-948.131897 -283.726959 415.833038
-873.452454 -66.336884 484.530426
-923.760742 -286.129913 386.308929
-620.402039 -165.147034 530.821655
-810.938416 -110.588768 492.516205
-843.787292 39.159904 487.490753
-768.984375 -253.536667 483.124023
-960.941956 -18.111629 461.416168
-580.171997 -302.053802 537.607117
-910.968628 -203.363480 447.780426
-842.723877 -361.880524 405.543884
-946.145813 -58.728119 448.675323
-871.296204 -345.991333 418.942963
-870.832886 -200.932144 451.858704
-808.603027 -52.807850 493.448395
-811.532166 -59.697845 496.557892
-982.705139 -250.004654 405.263092
-641.964478 -293.759705 517.299133
-683.512756 -357.122986 479.048584
-707.540405 -247.676697 495.004639
-942.800659 38.190250 472.867004
-853.893494 -358.098114 432.672485
-906.965576 -318.295990 385.522919
-887.274048 -10.858915 456.746063
-747.919495 -341.258881 470.689789
-986.644958 -39.651360 453.847015
-843.658813 -267.642761 443.469238
-903.233093 -46.286774 469.763824
-959.209290 -78.148941 447.783630
-871.253662 -62.442112 476.048462
-922.635376 -80.420982 454.380341
-829.232666 -122.008774 488.046143
-929.350708 -291.181061 421.196442
-898.508301 -14.398547 488.035400
-854.541443 -280.937134 448.329010
-898.558594 -303.858429 438.579437
-789.659119 -160.265778 484.123840
-883.743591 8.727854 497.656464
-884.723938 -6.373894 481.393921
-951.131287 -18.469671 464.726349
-618.325745 -178.338791 534.166321
-1000.762817 -151.343826 421.268707
-976.045227 -83.136597 440.462860
-908.601074 -11.117085 482.170624
-987.531555 -131.226028 433.382202
-860.598572 -15.726790 486.417664
-792.033875 -70.367332 511.197144
-644.588440 -120.777214 539.091736
-760.460632 -32.437500 519.099792
-858.500427 -348.140198 396.262238
-628.898193 -144.696106 527.466614
-836.841797 -128.067825 484.576141
-865.219299 -110.706253 473.059845
-721.750671 -177.773407 499.262451
-558.298462 -245.776550 540.141479
-826.527039 -41.395020 492.213959
-810.858887 -298.117523 444.190399
-729.352661 -334.283783 455.362305
-888.983582 -265.182526 431.240509
-875.227173 59.957199 493.846832
-891.425903 22.491352 489.614380
-892.595276 -312.522400 390.108826
-877.431641 -341.588318 381.671204
-769.606079 -20.686241 514.996277
-993.382324 -58.471912 449.516052
-933.053406 -283.899475 427.034119
-816.304688 -222.605530 468.324982
-862.524597 -5.112515 496.760101
-856.124756 -360.047821 372.961945
-834.204041 13.711389 502.259308
-948.976318 -277.987061 379.107635
-910.389954 -235.739883 435.206329
-953.786804 -280.748474 389.802734
-1006.129395 -184.113556 438.917908
-728.780762 -216.218674 483.419556
-836.686462 -210.303207 460.330811
-958.702026 -273.254211 409.465393
-946.249329 -29.497223 453.293549
-876.705688 37.634457 502.874542
-870.841248 31.225363 469.129944
-790.967773 -125.061562 495.164642
-589.093201 -296.340271 531.304810
-781.188477 -244.439774 462.946198
-615.889465 -165.225937 533.137573
-1045.749023 -101.325478 426.413391
-705.723145 -368.084595 468.218201
-1076.154541 -117.204933 422.433258
-641.777405 -196.293442 539.306458
-851.458740 37.630463 501.751648
-593.882080 -272.984314 525.344482
-683.088745 -140.113434 529.107056
-847.388428 21.653446 506.298981
-895.970032 -26.001188 488.381561
-623.555969 -309.815948 516.581055
-1014.656250 -240.111816 434.095551
-956.641968 -251.557693 441.895477
-945.408508 -114.911415 446.312988
-836.898926 -177.679581 468.611603
-689.372864 -135.582672 523.237122
-688.226624 -240.394440 510.919800
-678.920105 -88.844437 541.857849
-600.216614 -149.727615 551.341614
-735.823975 -133.902328 502.988434
-769.697937 -317.800507 456.233093
-560.159119 -266.273163 514.804626
-845.172974 -202.471207 472.139587
-682.133606 -370.272949 473.010895
-936.444336 -293.818207 375.063873
-751.698120 -351.814331 457.295288
-969.715332 -68.584473 436.537750
-880.455383 -345.103790 395.202637
-923.537048 -235.668884 437.753174
-839.057556 55.776089 512.344666
-830.925781 -379.005920 448.677277
-955.356201 -190.103760 430.083038
-784.172119 -88.598549 512.862549
-843.149597 -149.835251 467.322937
-817.838745 40.266800 512.240112
-865.858093 -291.194000 447.878967
-811.881226 -402.812012 436.952148
-782.406372 -281.387024 473.933868
-622.749939 -313.988190 509.173798
-830.079102 43.730911 516.198853
-869.780273 -6.457045 496.599792
-650.854126 -135.508636 528.721802
-874.953430 55.554375 496.528229
-878.109375 15.499342 494.856110
-780.852234 -236.050034 477.153839
-802.956360 23.349455 523.437439
-973.453003 -15.465303 463.527771
-762.581604 -96.273109 508.811523
-648.643311 -359.183807 504.018280
-671.168335 -198.787903 513.710999
-843.868225 -241.464844 450.385559
-763.797363 -53.101460 527.127808
-811.979614 -131.763184 487.263672
-734.057190 -462.630768 490.224823
-630.881287 -120.467850 526.238403
-810.360779 -285.915802 455.848358
-894.474304 -145.211884 455.387390
-807.669739 0.005777 503.576782
-677.810669 -119.232635 538.767029
-772.960510 -42.045013 508.330261
-787.780945 -77.529861 485.492615
-820.028015 -373.585632 373.481567
-897.019775 -37.494003 483.354980
-739.011780 -137.669449 501.245056
-759.125061 -151.731079 497.472565
-848.596252 -64.845444 491.570526
-798.542297 15.078598 508.915924
-821.438232 -92.201508 488.173645
-929.183716 -89.741631 467.211792
-917.393005 -25.931965 459.955872
-680.797852 -211.252335 505.884735
-777.582581 -365.766998 458.123749
-634.232361 -238.543793 503.769989
-932.360168 -290.842743 409.771027
-887.591248 53.477535 495.240387
-1041.700073 -210.569565 434.256317
-1037.826294 -85.723244 432.994843
-894.774597 -56.328583 469.390228
-885.232910 45.012695 482.182953
-851.703430 36.977169 495.866791
-998.194824 -105.795685 423.809998
-865.232300 -348.674530 442.998535
-907.727661 -17.264858 479.244446
-1007.938660 -234.605194 408.030640
-908.293030 -305.448242 400.676880
-624.071167 -229.531754 538.991455
-889.431335 24.724005 490.146637
-768.733826 -150.409821 507.445740
-858.871948 -351.357849 458.910980
-878.134399 -37.442532 492.175720
-913.935791 -16.703569 470.939636
-862.469971 -344.962616 453.673279
-941.666016 -288.871460 408.402496
-802.567078 -135.218430 486.990784
-1030.591797 -207.774582 414.629852
-748.316467 -338.816254 459.407166
-823.395020 -375.421204 415.508636
-822.320801 -417.160126 470.374817
-578.237732 -284.319611 542.261414
-814.699402 -113.780655 490.926727
-643.710205 -245.307190 525.824829
-860.291992 48.491863 487.774811
-672.004272 -105.157806 533.869385
-1023.315735 -133.606934 409.859192
-900.791321 19.923931 493.420776
-746.590515 -262.794403 488.237701
-736.978271 -82.630081 514.009094
-557.426941 -185.805435 564.293335
-807.122498 -230.778015 468.458923
-684.519775 -393.915710 468.000000
-870.749146 -64.677071 476.307800
-623.966431 -354.910370 507.279388
-980.728271 -164.777374 425.692535
-644.743652 -351.163879 503.768585
-736.304260 -110.744637 511.195709
-724.974731 -78.896080 521.657532
-755.489685 -43.669079 492.338135
-949.331970 -76.273849 457.900024
-629.783997 -127.944199 553.464233
-885.927429 -139.996170 465.866821
-536.897095 -247.943161 525.551880
-801.803345 -361.153900 466.272888
-899.806946 -320.472748 435.731079
-711.247803 -202.283142 515.810730
-978.073181 -149.896652 440.402954
-907.157654 -181.854462 445.349152
-1000.763489 -78.393852 438.705078
-549.395630 -212.445602 545.173279
-818.573181 -34.375526 505.734497
-863.347778 -341.614807 351.151459
-695.021912 -167.753143 509.696716
-757.648987 -36.354076 514.935669
-826.247864 -170.551773 470.206116
-1004.814819 -67.497787 440.654236
-784.074097 -164.962860 487.287079
-785.949585 -62.088734 502.973633
-706.016724 -62.351677 532.106506
-923.712524 -258.321045 444.796600
-544.187256 -220.701843 544.072449
-923.710693 -305.843811 444.948730
-901.990112 90.827606 497.024414
-639.861572 -153.142838 531.403442
-795.339844 -60.821293 483.668488
-938.805237 -288.591553 428.386688
-742.647583 -104.684052 513.001465
-823.297974 -28.766666 501.783234
-934.320129 -58.019405 455.792358
-731.399414 -254.630249 481.738953
-733.729065 -454.778687 479.499023
-633.010315 -170.496262 516.184814
-784.580994 -100.747383 492.705566
-749.961548 -123.512741 517.322693
-864.052246 -126.078285 476.011322
-534.037109 -256.631104 548.882263
-915.049561 -146.007401 445.508179
-861.843140 -73.378578 459.502136
-895.913940 -200.772781 441.535675
-625.198792 -152.459564 552.932556
-625.007813 -153.961807 531.166382
-945.716248 -170.272171 420.738861
-866.839355 -232.084778 448.557465
-911.175781 -90.828362 463.535828
-823.413147 -1.348250 485.789032
-903.048767 -301.134766 423.857208
-695.651062 -317.714569 471.181641
-897.603271 -311.375885 408.959442
-578.243225 -197.422806 540.934509
-877.660522 53.013161 500.503357
-788.888855 -82.716103 494.815247
-553.395203 -223.497681 544.366333
-875.076721 48.283951 500.098389
-862.047119 -204.410034 456.946014
-841.331665 -318.670166 447.230530
-854.955078 -24.165676 475.590271
-965.151978 -138.151398 441.630981
-881.517273 -335.746033 428.373901
-907.495422 -119.433136 466.002991
-732.975708 -242.086716 469.339539
-925.178894 -220.753418 447.051239
-883.473633 -341.377258 394.399353
-744.642639 -334.420502 461.399414
