ply
format ascii 1.0
element vertex 1408
property float x
property float y
property float z
end_header
567.176819 -520.030090 672.029907
617.795715 -413.476471 688.126648
624.351807 -431.289246 712.345215
602.869202 -436.616333 491.272430
479.332855 -621.720093 594.842041
620.893372 -435.871979 744.543518
465.920258 -658.767639 345.876373
580.930664 -484.844940 700.437439
631.155518 -411.679321 601.490540
552.617493 -502.674042 337.053650
395.042603 -738.296326 393.816193
525.953247 -535.113159 373.307159
575.720764 -465.233978 396.444031
417.082855 -681.577026 627.468018
618.745056 -437.060577 678.146606
540.083679 -526.965149 283.031403
517.382141 -576.100769 396.057373
607.418091 -427.157990 534.229553
553.674500 -628.602173 807.357300
502.333374 -595.858154 532.422058
568.198242 -512.338135 733.770142
593.017273 -490.170776 792.116150
559.276184 -534.350769 767.333679
596.403076 -469.203308 632.721130
639.379578 -395.490051 569.000366
499.545959 -597.861084 592.015320
552.513428 -518.396301 550.482910
617.136902 -409.967407 598.098755
623.180603 -406.610626 634.783936
380.008606 -695.630127 611.045715
500.711914 -618.855042 649.607117
505.293579 -588.846069 509.874268
627.879639 -391.301300 683.518555
595.124207 -479.668579 725.693237
525.478088 -575.653687 578.404541
533.425781 -518.664063 322.977325
480.346985 -617.275757 318.002380
373.389618 -674.244141 620.341980
601.346863 -463.719818 597.044189
545.890686 -534.566162 691.860962
521.323486 -585.464294 729.155334
538.984741 -520.446838 398.422241
534.180969 -567.276550 647.282471
564.176819 -476.775269 376.655060
546.337280 -553.036804 755.876465
569.250793 -490.707397 718.513367
584.857849 -508.573547 817.615967
539.364868 -505.061554 523.496216
553.724426 -537.148560 782.633118
568.440979 -518.864136 683.817688
605.615967 -443.966888 514.881470
508.105225 -601.612732 500.702728
505.234222 -582.064087 548.235596
555.172913 -542.762146 778.538574
609.055054 -438.073456 586.237366
540.549805 -558.715820 658.452271
540.642944 -512.137390 401.741608
563.127014 -498.252411 590.128479
493.518341 -618.118042 507.291687
406.920074 -664.458435 693.505493
498.885284 -605.234314 612.916809
464.605499 -709.297485 597.684204
557.336365 -561.592163 806.571716
539.877441 -534.364441 500.151794
519.345154 -570.025146 600.256653
455.037842 -704.828125 627.690308
616.561951 -433.254425 496.006897
527.448914 -533.943481 366.504669
536.763123 -614.171631 803.044983
500.610626 -595.421082 291.454681
502.510834 -598.363220 358.385315
520.931152 -563.276245 655.782654
482.101898 -644.530029 595.670898
448.098328 -683.391785 486.449890
585.420288 -500.030640 676.589050
565.548767 -487.367249 431.578857
537.706604 -519.364624 372.013641
540.222839 -542.361023 773.162415
590.312256 -435.565521 712.768311
534.057739 -532.053040 782.680786
582.987793 -467.246948 446.707123
530.200745 -630.879150 797.066284
622.392944 -428.407806 706.348145
550.566345 -534.391052 442.968994
593.997253 -477.807037 585.968689
476.490662 -675.387329 631.344116
537.680237 -632.805969 788.404602
426.934967 -642.705017 701.104065
632.471802 -416.749359 659.832458
549.893555 -545.027954 768.550110
673.843323 -350.779175 690.722473
451.051178 -692.571350 557.235229
603.886108 -445.738037 469.669250
467.360291 -637.430359 517.907593
519.898438 -613.813843 709.694153
558.790344 -506.452759 572.328796
546.167847 -538.843750 670.285400
452.456238 -651.932434 695.436035
647.334839 -389.670471 638.010681
523.528381 -541.813965 505.076202
555.882874 -516.450806 587.844482
561.169678 -512.553772 428.009583
447.310577 -758.329590 545.092163
415.814178 -709.809875 601.916748
631.226074 -413.954987 665.216675
530.380737 -537.420227 298.145172
497.542450 -556.802246 339.386780
578.429810 -462.842651 412.846832
548.175476 -534.824158 470.848206
414.543396 -669.618042 661.192383
457.677917 -647.749451 455.094818
557.732788 -508.523499 668.600220
431.425171 -646.433350 729.540527
529.719666 -519.885071 320.274048
608.287598 -453.838013 713.836060
538.328369 -528.484192 771.661804
584.313538 -488.232849 537.580139
595.108032 -424.385468 613.084900
525.869324 -548.328796 493.336273
492.927429 -623.993713 546.966736
489.102783 -614.668579 605.725220
527.794495 -556.706116 582.685059
619.617249 -415.431274 516.705872
539.612732 -541.968506 370.395264
599.686523 -439.579132 551.454285
500.182312 -586.207153 289.182037
553.342041 -486.470398 658.216980
589.225830 -476.161957 595.220154
500.755157 -561.331482 317.922546
479.220673 -638.529724 498.097443
484.999725 -622.331421 645.957581
616.694031 -410.893951 573.647156
610.243774 -401.228058 529.427063
483.313385 -592.783081 509.831848
590.031311 -458.478638 628.053040
504.146149 -579.745789 526.077332
441.739655 -683.185486 395.868408
500.807953 -622.706055 644.080444
610.192871 -457.279572 726.910400
657.851990 -372.877136 687.980042
439.755859 -676.356018 490.768951
528.209290 -577.361145 769.193481
446.684326 -658.111328 720.705505
568.397827 -498.934082 587.476868
574.487671 -477.514191 520.499329
527.048523 -558.067322 537.629761
433.038300 -671.183044 479.659821
497.604034 -604.723511 550.732422
530.042542 -564.980347 681.312134
510.056946 -577.803223 461.945709
608.518372 -443.388702 529.208618
528.246643 -580.602539 680.643860
506.761414 -552.096863 488.744751
514.718994 -560.029724 452.688660
607.306763 -453.183594 562.829346
580.100769 -481.795502 727.448120
638.586853 -369.898071 670.947510
509.859741 -569.774658 425.106354
554.247314 -536.734863 751.764465
485.552429 -652.844238 705.481323
654.443542 -372.030273 620.719299
499.246826 -589.451782 327.700165
594.668579 -462.819092 428.374176
452.316315 -648.956177 370.240417
584.960144 -472.350342 568.169434
643.812866 -374.175964 653.576233
563.168640 -486.426666 462.432404
510.574066 -577.489990 610.510071
555.602112 -544.312866 801.395630
529.004150 -531.393616 377.763123
454.665955 -673.653503 592.682373
553.671204 -505.044037 495.881378
474.322266 -595.953979 461.823608
510.853821 -583.021423 693.063721
471.974457 -668.281860 698.925476
622.255005 -401.491638 573.979858
487.774261 -626.287415 501.255737
613.686890 -444.775848 660.023499
438.190887 -690.430115 609.291931
588.026550 -478.139404 801.107605
634.016174 -396.186676 605.322144
569.963074 -472.512726 410.315857
484.158722 -617.328003 558.633057
570.860840 -491.624847 762.685974
589.671387 -466.192566 423.991821
571.628052 -475.734711 472.737061
475.857178 -691.211060 604.782959
601.739502 -438.798615 602.887390
570.083252 -525.774597 816.008118
611.354858 -431.484009 675.212646
595.343994 -463.276367 724.327209
520.366760 -538.516785 339.121582
570.793457 -502.855164 778.795593
457.300446 -711.610046 575.470276
559.351990 -543.856140 757.805115
568.549805 -508.855316 657.275391
548.102417 -529.602844 459.192169
479.793671 -568.457458 310.415192
497.227631 -627.257813 661.658569
557.608643 -526.506165 510.934570
506.361389 -580.264465 436.460571
525.029480 -553.793579 550.179016
605.218811 -433.071106 614.661560
548.078613 -540.205261 699.852661
508.574677 -579.607910 512.230713
477.048004 -592.151855 303.549652
598.717224 -473.325256 742.868347
597.889832 -470.885742 696.092407
618.314514 -424.469391 602.979858
425.439026 -693.640869 515.380676
559.222656 -519.865662 623.176819
565.958557 -465.638885 547.029663
639.438171 -394.388580 659.776917
520.010925 -552.353882 347.925690
551.714478 -522.153015 538.625244
606.019836 -457.937195 553.401611
391.402924 -699.775024 587.174622
475.989746 -663.311523 656.176025
433.510956 -676.595703 432.500061
593.546082 -451.852631 504.619202
471.915588 -619.279846 600.696594
533.913086 -524.696167 311.066559
481.463867 -653.677917 737.437317
602.171265 -409.687988 562.718079
671.443787 -331.052582 694.133484
516.044312 -563.846191 503.817566
466.273468 -651.113953 335.410126
518.545288 -550.835754 353.955292
437.391907 -700.003967 502.432068
604.942444 -448.049622 445.831787
595.880127 -489.182526 782.191589
615.107727 -449.022278 742.186768
556.415649 -476.361603 412.932007
523.784912 -574.162415 652.465149
584.982300 -443.529846 581.356079
555.804077 -509.905609 556.773987
445.891571 -692.122498 540.120300
461.123505 -642.656067 364.192444
540.136963 -513.257813 302.716064
492.734589 -588.638794 403.875793
574.115173 -501.964508 387.073181
590.532593 -475.850311 461.440979
530.867371 -498.638397 390.574615
588.110107 -482.449921 697.636902
573.609558 -479.017365 455.995880
518.575439 -577.354431 429.280823
662.282715 -340.566956 671.051147
568.315552 -473.742767 508.580994
540.708069 -645.627686 795.272156
496.146698 -575.423096 296.277039
568.979248 -500.840546 664.035583
580.034973 -473.592316 555.749023
547.563721 -547.356201 764.539673
548.169800 -538.452148 713.794006
487.384674 -623.228455 446.596130
584.721069 -455.234497 518.206116
564.441345 -492.934540 499.252777
553.218262 -544.984314 784.773132
593.947815 -461.835876 683.874512
461.379578 -672.453796 347.006409
478.871643 -620.373108 533.814026
407.420288 -704.448364 409.149933
571.865601 -486.860657 503.938141
573.404724 -506.163879 622.879639
541.267273 -650.957458 765.143433
527.380249 -542.320740 271.012970
511.308624 -575.160828 578.231873
441.973938 -695.273865 626.037048
454.764587 -763.526367 536.057678
469.502045 -657.027954 534.596924
553.911011 -487.535919 380.532593
419.024109 -630.638123 720.397400
634.155884 -386.630402 661.814392
553.162903 -528.185974 658.551941
479.479614 -627.192749 618.195496
460.668335 -662.406860 697.624695
482.864868 -614.769531 327.260406
519.845154 -581.055603 448.522614
639.722961 -410.725952 664.588562
480.099457 -636.456726 327.067780
583.820251 -476.470123 749.433289
591.301208 -434.493591 572.017578
516.040100 -560.942200 486.629242
439.395935 -691.875977 455.952576
435.415894 -672.239319 665.624817
578.334900 -490.518372 563.045898
532.747925 -557.019165 678.547607
559.382141 -566.997681 819.085266
488.609222 -616.248779 547.336853
469.187042 -688.767761 577.266907
515.102051 -541.499146 408.792664
550.785706 -549.144531 746.022461
402.915619 -705.843811 581.118164
622.660217 -427.907928 596.727478
574.984192 -517.255005 790.237122
653.773010 -368.245056 631.850464
537.322693 -560.227234 496.873108
496.182739 -553.849182 317.747803
631.998901 -390.923126 580.629089
545.177551 -530.971680 582.865845
547.837036 -563.367798 764.665466
413.027588 -654.125671 699.041504
603.283020 -437.197815 667.838074
639.732178 -375.661896 610.930603
544.340698 -552.596802 542.459473
592.428589 -468.704773 652.753174
443.489807 -686.682556 460.754059
508.138947 -601.450073 519.629822
601.048828 -418.800323 651.706909
535.226501 -508.078979 367.029999
640.051392 -401.446899 732.623840
615.579102 -446.733887 747.699524
533.903015 -556.717163 656.540039
621.563171 -413.008392 548.755676
645.566345 -410.019958 718.969543
532.788879 -560.853577 713.651062
456.435486 -662.577087 376.304779
600.511780 -425.897064 639.515381
544.091980 -548.890015 486.670929
486.410187 -612.443542 500.277557
554.526062 -512.047424 521.305969
589.721008 -451.255798 524.587097
421.995514 -666.169189 661.986267
617.889221 -430.251221 492.860260
477.488129 -610.994568 350.472565
389.060211 -674.886719 653.824768
571.892578 -513.401550 654.386841
426.250732 -700.258240 401.555664
419.355438 -707.859985 408.869690
662.383789 -365.545227 650.081604
462.301422 -643.719238 500.825439
663.870056 -365.953766 670.371643
524.059387 -563.285950 547.572266
645.755432 -394.474121 560.173279
545.327637 -518.535645 450.061157
556.035828 -536.430176 674.178284
427.882843 -725.323792 502.260010
526.549622 -660.139954 758.551453
559.389526 -489.606842 442.910278
361.863068 -667.541565 625.489075
438.622681 -655.504333 727.794800
531.703369 -558.288635 593.557617
610.082092 -451.089874 629.766663
609.589111 -420.892609 549.462280
631.119141 -410.138214 646.296997
436.735321 -679.501282 397.479218
466.970642 -654.110779 721.078674
514.067810 -588.182312 733.163147
496.956085 -594.736694 480.411896
425.007538 -761.507019 500.808716
486.162537 -623.880615 598.262878
536.235779 -521.891724 417.994476
418.575439 -687.235596 477.072601
572.385071 -504.369629 484.484650
601.945496 -462.262238 583.070496
603.773376 -468.831512 763.664246
526.120239 -542.450623 357.599792
453.071228 -682.191406 348.812775
535.113098 -570.475464 748.519897
637.496887 -404.284637 589.001648
545.767151 -530.486206 568.255615
494.804840 -603.357544 696.984253
602.886841 -429.175964 573.720459
597.099365 -443.741547 665.396179
610.907837 -416.445892 527.461548
577.965393 -498.947418 557.843994
580.364502 -502.117188 624.081970
460.267120 -643.967529 547.935303
418.107941 -670.866516 675.680542
481.101929 -636.060242 557.740417
528.198425 -538.381592 355.162567
513.188171 -586.384399 373.993683
533.115234 -543.713745 596.604187
524.597961 -572.261597 697.873169
406.839905 -696.257996 642.971313
545.427551 -613.134705 790.034668
582.574341 -482.566833 681.022339
522.829102 -577.717285 549.456970
562.145020 -509.024536 416.134369
534.284790 -515.541321 628.670288
593.121460 -466.662262 501.304535
515.108887 -596.170715 709.540710
600.291626 -408.563263 646.350281
534.967468 -542.945251 335.060699
581.971802 -480.559387 660.451660
473.872070 -632.255798 391.268280
578.498657 -497.778992 632.747437
420.536438 -696.303894 471.995422
440.089783 -697.269531 392.143463
464.929016 -656.112488 726.055969
525.946472 -562.704712 330.850861
610.356201 -450.346222 622.800110
526.722412 -529.219971 346.736877
571.223389 -492.076141 593.281006
506.552460 -591.434631 657.361877
479.926971 -661.160950 662.651367
509.876251 -569.246460 545.986816
535.574463 -551.772827 621.540222
522.186890 -575.625916 506.225861
569.058228 -504.789063 481.455963
462.993744 -622.061340 388.451416
574.106140 -505.697266 527.333008
663.127319 -361.544250 674.508423
541.294739 -546.463501 708.375793
473.922211 -657.093750 711.540833
431.085236 -646.042664 702.670776
543.274841 -522.313171 424.362854
543.424500 -515.251587 420.675171
443.361786 -669.840820 480.747559
498.628143 -610.812195 500.964355
548.484009 -634.984375 782.819458
517.649536 -663.924133 721.395569
601.278198 -461.010803 573.435730
455.127502 -686.345032 643.036377
550.596924 -533.153381 530.739807
461.363831 -662.707703 584.338318
673.529114 -358.202087 666.971497
494.748169 -580.785889 325.375336
418.464142 -676.768066 672.877686
632.161865 -415.001953 552.446106
439.552063 -670.179932 437.917053
532.010132 -521.799377 646.257690
612.149231 -457.845917 710.395935
527.640503 -559.323608 565.693115
377.461945 -681.757324 636.847412
593.920959 -442.340759 503.385376
518.784180 -569.999268 580.021484
646.909424 -381.202972 605.714478
590.204041 -491.494843 787.134521
644.599060 -368.287445 661.282288
468.658417 -654.451355 365.204803
456.835724 -655.300110 528.580200
599.942200 -423.111572 738.384216
523.816772 -571.238770 617.652954
603.607422 -464.083252 727.432007
453.498535 -637.021912 404.250458
447.850586 -683.837952 652.384644
588.137390 -483.923798 589.280396
455.262085 -623.988708 352.899170
587.948730 -470.828735 670.827454
448.055389 -637.754578 369.874390
542.370911 -555.893616 753.432434
586.194336 -500.185760 776.656006
489.948181 -604.359924 534.149414
533.046814 -643.438965 770.944092
413.842926 -791.138062 401.324188
586.841736 -420.187805 546.975281
428.391052 -711.056763 600.997375
616.042053 -449.038788 658.494690
472.644562 -638.065063 519.573303
608.292786 -440.663696 715.957703
591.325439 -430.905212 466.158569
439.360962 -628.264709 741.109253
522.806396 -630.736328 794.583557
500.970154 -653.637329 699.717407
422.097931 -637.634338 727.035828
459.861511 -649.910583 675.573425
573.210144 -540.268921 829.936829
467.520752 -671.947327 674.260681
579.546631 -494.722321 752.955322
611.563660 -434.604340 626.085754
527.818054 -540.856750 409.315369
564.663452 -512.593445 487.490692
560.902161 -511.347595 646.432373
549.641052 -524.669861 534.650452
419.597351 -797.916809 431.198822
417.916107 -673.166992 678.611633
431.889740 -666.945679 657.316101
568.672729 -515.221436 747.454041
560.680664 -543.399475 720.510071
587.278931 -477.779724 729.224304
605.591003 -413.821442 678.973206
480.217316 -640.013489 381.941956
545.834351 -517.007874 425.396118
493.684082 -608.071167 560.543640
391.342133 -672.653503 664.102722
423.627838 -673.848450 415.816681
541.596802 -551.980225 560.915100
600.955078 -463.724030 704.017944
425.649231 -698.591492 603.274475
585.597046 -473.103760 430.183075
474.599274 -680.462158 636.619141
398.614288 -681.336426 654.593384
618.458496 -409.887085 564.070984
498.185333 -655.707153 739.059265
544.287964 -539.068604 783.891724
505.373138 -581.479126 450.458252
543.683289 -526.711304 585.668579
469.240906 -663.937988 722.566895
531.940125 -566.355774 524.110107
585.177979 -482.311371 738.892944
518.992310 -524.258484 312.674469
604.546509 -449.104797 646.094421
522.699341 -551.115540 373.188507
431.041138 -715.971863 593.184509
403.504059 -714.070190 609.181030
413.489319 -667.908142 649.913879
610.122925 -431.298584 636.469299
543.653625 -538.368713 432.447266
542.474609 -548.001160 533.021729
435.954407 -691.072998 634.283936
593.058472 -472.587524 746.811829
542.024780 -510.260620 402.170441
596.786987 -453.295166 630.064026
498.045197 -582.050354 402.184509
483.740662 -628.425110 441.743317
669.081604 -362.892151 666.536926
672.329163 -349.215149 662.986572
626.566040 -405.634613 555.254272
565.041748 -484.557129 460.344971
536.023071 -597.428284 781.555786
477.804749 -665.791992 667.414124
554.144104 -524.335999 589.601807
369.093262 -674.251648 628.118042
591.162354 -482.044769 645.407043
558.503235 -544.738525 719.964233
543.414551 -515.173645 382.594116
626.691589 -366.503723 716.272461
410.073761 -697.120972 646.765564
491.709595 -658.503784 722.907837
604.028809 -461.341675 675.709656
528.055847 -563.575195 718.146240
637.080261 -380.267303 662.620728
417.435669 -725.610229 472.386841
514.419617 -577.244812 536.915771
451.398682 -676.576416 671.555786
462.115448 -626.535400 467.244751
541.672974 -539.888367 543.952148
462.286469 -681.571045 659.156311
511.377411 -554.066956 358.333160
433.088013 -679.319824 671.343567
436.434296 -691.942322 639.637085
485.694092 -624.331909 398.182678
434.937439 -652.325745 717.403259
662.344482 -372.408752 680.406494
467.647003 -642.859436 348.487488
640.371948 -402.994415 646.890015
646.965820 -390.959961 654.323181
523.865112 -567.604004 431.921295
591.309204 -442.953278 448.091949
519.215149 -588.846008 613.281616
386.950775 -718.255676 578.751343
516.420654 -585.877869 689.756104
495.787933 -547.125610 278.477966
526.731995 -561.706360 565.550354
587.706482 -485.839478 676.401489
547.122437 -538.262085 476.317993
627.000061 -396.735352 620.305298
548.919067 -541.655579 589.299683
542.898376 -558.149109 767.594055
661.582581 -360.522186 642.593811
583.171021 -480.591034 601.194641
415.775452 -656.390808 683.146729
528.415527 -550.556580 327.979340
459.826569 -622.666382 317.054932
657.349670 -388.627258 715.356934
626.712036 -394.660553 699.317688
593.853516 -442.035767 489.637756
514.317261 -540.911011 307.131042
559.797485 -535.998108 765.676819
550.940796 -541.850952 799.098938
587.797363 -473.627014 480.472839
509.630920 -573.618225 533.982239
549.032715 -523.753357 576.322021
605.348511 -456.448639 528.398071
507.004608 -659.586365 719.481262
510.521973 -662.287781 764.198486
429.442810 -769.029907 463.898712
644.629211 -368.475403 622.254700
452.994019 -677.527527 384.879272
627.175537 -411.062653 634.283447
522.633667 -564.844604 536.791809
458.212952 -673.566895 674.603882
627.081055 -394.673859 580.975708
459.913910 -709.750122 580.023254
605.537659 -444.517517 601.775635
425.936279 -750.337708 547.823792
555.618042 -538.396057 807.219849
440.665192 -707.342529 583.000732
627.924255 -424.080536 615.348389
582.342957 -460.502014 502.444855
530.089355 -548.115173 481.206787
607.191284 -444.880371 469.814789
392.858002 -689.589966 619.729736
586.695740 -465.688538 535.900146
528.175110 -582.646301 676.843994
521.873962 -569.611511 416.595367
520.363159 -635.283142 730.993774
556.016602 -515.074341 633.591675
507.507202 -595.517883 678.012512
537.593140 -515.970642 314.665161
502.918060 -537.436951 308.765472
513.012939 -587.876282 651.506531
386.680298 -701.296814 596.807922
473.559967 -635.280334 757.090637
419.545715 -733.230713 486.200104
453.261536 -651.845215 429.520508
489.256348 -603.847046 542.834473
470.249054 -671.971558 637.780884
558.648254 -507.806854 506.493927
647.207886 -394.396179 712.123901
531.935974 -507.720917 399.830933
539.259033 -551.297119 732.708557
625.716370 -436.753387 698.270203
573.632568 -465.262024 441.070984
452.269531 -649.282227 387.895691
539.222351 -501.097870 594.442078
432.774078 -650.536194 427.104675
643.342468 -401.103027 593.553772
403.100830 -659.930298 660.030396
451.268555 -612.079163 362.334320
603.057617 -467.013855 713.956116
422.963684 -697.588745 470.153503
412.687683 -681.316223 654.657654
520.979004 -571.144653 626.426697
501.034912 -573.089050 330.883270
485.292358 -613.330688 321.419708
464.640594 -636.695129 387.447327
537.429565 -557.439026 570.516418
470.171295 -640.425171 561.408325
550.285461 -514.614380 571.234985
546.914734 -554.467285 689.816223
559.535645 -524.712891 522.118652
444.258453 -679.164917 371.277649
427.205963 -657.140930 714.090820
526.940369 -565.611389 664.770203
467.332092 -689.863953 586.317810
580.678162 -497.232391 632.371399
530.171570 -640.876526 752.959167
522.892517 -544.883362 401.461945
614.615173 -448.188080 744.896973
436.261780 -650.344116 370.379547
611.765869 -428.125092 552.571411
470.419067 -627.395081 533.726929
602.197510 -463.967255 676.810425
645.566650 -384.930939 574.814392
441.369202 -682.463318 416.634949
488.900726 -631.627686 492.103180
503.341400 -622.559326 694.876526
489.328583 -611.399475 499.566132
503.971863 -606.250061 473.560913
443.472504 -690.726746 410.934204
433.634277 -710.319641 501.863403
460.417145 -704.259094 596.307556
500.582642 -614.692078 476.219879
413.315338 -737.748657 417.504974
483.662262 -620.898987 345.218811
610.534607 -432.711334 612.703552
511.678802 -644.228821 732.525024
532.677979 -591.861755 722.122925
508.258301 -599.886841 681.574829
626.614563 -424.076355 635.061951
489.135559 -643.309937 764.098572
530.553833 -544.732910 561.597839
514.025879 -598.772644 531.871155
567.746704 -513.526550 585.072021
526.314148 -528.020264 313.716339
502.272827 -607.320496 406.091125
478.141815 -656.753113 661.768250
582.583313 -497.424530 757.119812
486.841827 -637.488342 715.056458
625.275269 -391.828522 597.202515
460.773834 -666.998779 372.874817
605.751343 -448.506531 596.006653
576.330261 -505.270752 584.963684
535.121094 -578.248230 798.120667
431.138428 -709.318848 599.277405
547.517822 -502.038330 354.501282
533.316040 -542.055786 488.448425
524.110779 -554.926758 312.402130
497.941406 -618.163635 513.278625
442.477386 -653.229736 720.522949
516.786499 -647.371643 718.970825
476.743317 -663.098083 654.921692
549.440552 -481.313019 574.368469
602.717468 -451.146454 726.720337
505.016052 -573.094666 398.604065
411.905243 -697.953064 626.017944
437.982025 -669.824158 643.173523
548.903625 -482.740448 578.755188
527.615906 -571.713806 563.097412
448.853607 -699.822693 606.641418
500.816589 -607.734802 377.763947
556.033875 -580.834778 827.925598
564.767822 -511.444183 480.437439
537.975464 -560.144409 781.080017
522.457581 -574.100281 567.903503
501.287598 -617.729675 625.651367
514.629211 -533.284729 289.282074
531.027832 -578.566956 774.920959
489.801849 -642.093506 616.744690
533.335876 -545.895752 288.161377
638.107849 -383.955261 590.302063
515.911072 -651.330994 718.266968
650.967651 -390.796722 702.931396
420.102020 -672.039185 653.153992
569.290588 -474.768433 468.352966
368.765778 -669.497681 631.392090
576.308838 -466.928284 492.900848
568.474915 -483.027130 498.947784
532.371338 -554.969788 613.708069
522.122681 -574.096558 403.443176
580.320679 -480.869141 588.430542
512.272644 -563.960144 455.338257
450.081879 -687.162781 562.085327
615.877686 -413.021301 601.164856
564.267151 -526.992249 776.848511
457.762268 -675.615295 507.572388
614.993835 -442.756287 609.432190
540.439148 -537.365601 601.955505
573.824829 -504.388702 571.528137
649.853699 -362.339966 639.952942
486.339447 -635.642395 591.809875
418.748199 -747.345764 548.596985
437.691162 -667.641113 698.781860
579.739136 -476.948914 519.531738
608.038452 -423.879303 494.186523
421.813934 -692.048584 635.908875
557.742371 -530.112183 629.909973
527.675781 -545.127136 786.962891
464.742828 -659.187073 683.844910
653.204102 -370.973541 639.539063
426.905121 -690.704163 471.653992
526.036682 -577.051270 587.967468
562.879089 -531.532043 803.432190
514.831543 -576.262024 599.266418
445.553192 -688.521240 386.344238
510.399445 -576.906189 470.157471
605.292542 -458.168121 752.485413
572.443481 -507.576355 730.302795
629.816223 -416.878540 588.502930
656.722839 -378.390289 651.372498
527.013000 -578.134094 636.660706
606.234192 -442.592896 563.672119
445.080688 -695.694397 635.143494
566.644714 -470.455414 411.555420
403.884155 -717.885498 606.313477
438.837616 -679.447021 669.936584
408.513306 -691.674255 639.535156
590.897888 -470.389771 616.558472
494.433899 -612.047058 302.354248
554.302979 -506.799225 514.210754
463.467926 -663.888123 704.915161
428.277954 -690.493225 454.820648
432.067963 -685.855530 418.056763
554.234314 -539.157288 801.784363
473.198822 -699.523010 636.496460
498.560333 -565.309814 321.005432
505.787842 -633.713257 707.173950
565.659790 -498.173859 765.092712
428.686279 -665.748840 369.043304
507.949890 -565.500183 401.849884
472.033875 -647.082336 714.762451
587.852783 -465.131836 755.043152
444.620636 -669.891724 506.058258
606.323853 -484.557709 804.700500
605.335388 -459.828979 650.342957
527.816711 -575.177063 747.921387
648.485413 -395.476654 587.649536
650.454529 -364.624054 719.441467
625.558411 -393.840027 666.760681
550.733643 -503.847198 716.841797
511.868256 -591.701843 747.675598
529.598755 -552.824890 502.551270
562.903198 -542.650391 845.165283
437.576721 -686.302856 515.747925
652.104248 -375.180420 591.158936
565.652344 -530.052307 806.817261
419.658722 -694.502197 644.861145
527.063965 -574.134216 553.996765
485.662170 -599.468018 405.510590
475.724030 -649.961121 538.853821
607.969604 -404.222900 602.474243
509.495697 -606.212708 546.816589
603.326904 -412.157104 616.669189
565.714661 -504.759186 719.506409
438.602142 -677.112549 660.251648
518.212708 -581.885132 632.949768
679.054810 -343.908997 667.928772
553.938171 -537.848755 543.386841
504.825562 -569.962708 386.481567
578.712585 -499.181396 590.209290
565.170959 -509.540771 481.141388
441.498077 -674.678040 465.584473
543.637451 -567.411377 725.515137
647.831604 -369.136719 662.725952
548.024414 -498.378540 631.775208
528.010986 -517.875183 467.110840
463.693481 -656.333801 429.790894
443.309235 -759.244751 549.629211
514.015198 -583.116882 420.798279
243.401505 -1046.024780 553.096558
500.079681 -586.182861 546.628906
485.935760 -601.859619 405.001678
581.573181 -453.608276 743.561707
514.220154 -551.855286 272.603424
484.562927 -623.767517 650.706604
490.463409 -594.015747 294.809784
443.149200 -745.001343 558.650940
558.986572 -530.659607 735.716980
488.196136 -658.862732 639.204346
622.996338 -431.866272 628.868347
437.287140 -670.856323 688.006287
566.831177 -507.698090 485.459381
594.218384 -464.938080 649.354614
659.577881 -354.015961 680.099060
670.196045 -347.449219 658.368835
511.803864 -549.134155 566.699890
616.836853 -409.873535 559.975159
540.617493 -548.064514 716.447021
554.630432 -498.259399 350.012909
606.008789 -461.207153 740.742493
559.121582 -531.216125 598.269104
561.375366 -515.636414 725.102478
609.643982 -427.568085 532.922668
591.943787 -451.040863 531.590271
598.807861 -461.791534 533.689697
409.135376 -712.741150 599.711609
494.088470 -627.829529 605.151123
519.432495 -572.814636 400.391113
419.961517 -703.562988 607.419739
417.499603 -725.998169 563.459045
412.573761 -734.402527 385.658356
546.565063 -533.990173 361.866760
604.429199 -469.278992 672.406738
569.752869 -497.180817 641.161194
523.260132 -586.870300 585.833618
419.699860 -710.849426 477.027832
512.777649 -641.202515 746.271179
522.358398 -526.019226 278.234222
619.044128 -436.674622 609.968201
588.054016 -440.030548 705.828064
503.022736 -585.689575 526.839844
637.600098 -394.790100 690.178467
503.038879 -610.479675 717.472839
519.703186 -571.730896 554.628967
460.023743 -695.205017 602.904602
457.044922 -642.557190 581.778442
559.700439 -506.878723 538.307251
599.439087 -444.712341 579.931396
532.142578 -564.627075 765.211426
596.355164 -471.829834 638.474670
517.424133 -547.402710 369.661194
650.279663 -378.610138 591.817078
446.580963 -700.763489 623.607422
541.173645 -543.556946 640.347046
611.441895 -396.933258 577.777344
628.945190 -402.985840 546.531616
532.717346 -552.753052 623.202515
463.051849 -630.471497 352.947998
531.465759 -570.799072 753.687805
467.777649 -676.702698 664.768066
450.603546 -636.698303 731.692383
627.342834 -425.882874 673.416870
553.526367 -545.429321 795.119141
420.256805 -639.956421 720.897034
481.306702 -639.016113 393.217743
491.758240 -605.780518 518.033325
512.182129 -550.606567 286.741608
515.728760 -567.738525 438.207642
615.515320 -453.138916 688.862793
578.511230 -499.262939 766.396057
485.889008 -651.528015 736.816040
568.186218 -489.946747 416.238068
497.992340 -583.119690 417.563477
540.502197 -523.963623 398.479034
598.243774 -446.734528 462.848907
670.988403 -360.630341 670.048889
451.443573 -684.337097 406.478485
517.204041 -580.592651 663.138367
509.655548 -580.366211 512.339661
449.658112 -660.928894 359.055786
565.433777 -503.489014 545.969360
560.526489 -579.667175 817.141785
504.084595 -594.472778 682.426697
601.696167 -460.161530 495.873199
596.065002 -455.195587 439.056976
530.125793 -631.429260 799.103149
536.804016 -539.741089 550.370972
603.311340 -468.595093 651.913818
517.874817 -561.583496 508.029327
474.775116 -596.405457 306.619873
552.453369 -511.830811 491.568451
446.368927 -686.782043 379.169098
550.285278 -516.086548 296.772491
468.028168 -630.413757 410.901123
506.268280 -606.330261 541.820374
601.342224 -476.263916 756.247192
460.075500 -690.851685 585.717407
561.905823 -509.126434 408.162140
555.272522 -627.100952 809.468445
547.566833 -516.417542 456.570282
514.826599 -540.931458 401.524414
397.060852 -729.879150 402.414276
482.953796 -596.278625 572.230896
547.106201 -547.554443 723.502686
523.255737 -659.017395 745.465393
564.455139 -519.665833 709.105957
524.601929 -587.307556 653.887634
453.916870 -694.770081 638.389282
596.671082 -488.034149 792.381287
490.642700 -586.817810 480.150604
431.915253 -661.296448 678.566650
483.566956 -604.491577 409.940277
460.941315 -696.942566 566.786072
580.590210 -481.517883 686.073303
526.149597 -576.237793 672.547241
563.546265 -515.000427 439.692444
575.669495 -501.286743 397.702606
542.049561 -475.482361 452.175568
629.131409 -400.939941 543.558594
457.597504 -636.931396 358.961975
444.676056 -649.962830 722.972717
578.542969 -515.327454 801.161560
553.175964 -541.673157 576.250610
504.441589 -604.043701 726.108215
533.133667 -558.137024 612.335449
602.296204 -442.001251 518.450317
555.683105 -522.214478 670.835876
646.518066 -381.808990 644.546265
484.947845 -616.550720 516.746033
526.546387 -596.377686 708.642822
564.381287 -479.184143 402.036926
507.159454 -658.042786 757.474304
549.709656 -528.510925 614.641968
530.495789 -557.351318 579.268677
571.408691 -518.601074 773.622375
553.093933 -514.586792 543.557312
485.602020 -597.987915 303.008240
529.498901 -556.178711 315.130707
439.871216 -695.221924 361.391907
574.323547 -472.348053 737.824402
568.253723 -523.591431 652.414429
442.853973 -667.254578 476.497131
636.742249 -402.563080 692.499878
431.455933 -683.235718 676.086060
511.109558 -596.556152 508.918854
646.852234 -381.672302 607.192383
411.914581 -705.208740 612.379089
495.825562 -653.776855 656.772400
485.124542 -565.980957 300.235046
614.956055 -426.667267 656.153870
491.082825 -650.536499 678.742004
524.449707 -518.825073 328.479370
443.352295 -667.788513 662.017944
504.682526 -562.600342 412.140350
489.588562 -613.875793 527.620911
642.115784 -362.173462 668.991455
512.459534 -588.222290 670.545349
392.618774 -658.808594 660.979309
426.229767 -708.627686 396.119019
428.336273 -745.791687 559.622803
418.521637 -691.712097 362.792877
568.173035 -482.585266 423.997711
508.240601 -610.071838 702.344421
595.574829 -452.855469 586.332336
619.107178 -427.703186 596.845642
583.687378 -483.916077 656.579285
429.247467 -678.398560 635.922424
563.303223 -519.200500 497.060547
560.360535 -511.558105 633.889099
584.047607 -476.973572 587.952698
602.347717 -440.513031 588.696411
573.238708 -505.156494 512.932373
516.363953 -548.502075 314.466522
585.249512 -441.426514 483.770264
489.392517 -593.790588 361.587036
621.388123 -429.795715 759.452515
588.937317 -471.556946 578.647888
515.500366 -597.296814 768.322266
624.271362 -421.480164 568.266113
547.952698 -612.148010 822.379272
629.155518 -417.766083 668.596375
661.331543 -375.099640 618.908569
646.982178 -356.381989 677.737305
528.183899 -549.835205 498.375977
616.749573 -448.727112 749.005737
582.821411 -454.176849 467.054413
488.997589 -619.544983 656.267761
615.333557 -434.363464 474.993408
582.822754 -440.586609 560.336609
502.103302 -554.363159 276.019562
541.457703 -553.515320 587.231140
587.867065 -466.422424 621.292664
617.374390 -383.302917 642.763062
450.852539 -655.995300 446.742554
571.260559 -514.519104 681.067505
546.284668 -645.794067 800.049561
667.095398 -349.632050 656.002808
444.519470 -657.027222 700.783630
567.056030 -503.820862 667.455627
654.414917 -378.021851 709.466797
598.997192 -433.712646 517.004456
648.836670 -387.131378 687.023071
568.302429 -512.147522 505.039032
481.772491 -601.419922 383.123779
394.058685 -714.757202 393.680359
475.116089 -630.016724 417.765411
475.663666 -668.661987 671.925842
501.835388 -588.721436 465.117889
434.574005 -705.666992 616.870056
386.990479 -666.380066 651.632568
669.640259 -356.835388 695.038513
477.188049 -617.152161 448.425140
605.973450 -451.457214 559.835754
513.509888 -637.649780 706.000793
502.679199 -595.554382 319.399597
552.981323 -514.747864 509.042358
557.981995 -482.705170 403.605286
481.480774 -585.901184 359.951019
594.494507 -468.173950 747.378601
433.896362 -709.365723 391.263855
571.589478 -459.537537 609.361694
478.815704 -654.399292 752.749512
654.440857 -354.863892 666.970581
494.642517 -615.550476 569.135803
541.282471 -460.868164 352.109314
567.186157 -521.403442 699.164612
585.334290 -489.842834 625.721191
417.160248 -712.388428 605.018860
538.088379 -542.347168 585.682983
445.481903 -657.233765 365.192871
378.007477 -660.637939 651.744202
483.061523 -598.326721 331.678589
469.394958 -644.737366 359.795868
462.109314 -675.224060 667.994263
511.336426 -561.155212 401.870514
577.208618 -476.099854 654.595398
468.967682 -634.851074 446.392242
546.111694 -514.572876 766.875671
547.130676 -541.209229 681.078735
574.004333 -507.039734 742.887207
527.292786 -571.816467 695.352295
420.517487 -641.241455 701.441772
527.849487 -662.385071 737.182739
541.836182 -507.067841 344.514923
531.088806 -544.139038 444.524872
591.137878 -487.661316 726.109985
582.202881 -511.680176 743.052246
538.792297 -565.727905 729.930054
487.820953 -628.701416 634.192444
628.564697 -405.163788 579.770203
540.192200 -513.608765 355.146698
594.170593 -450.248260 709.588928
514.597229 -590.634766 447.688721
501.348694 -619.152222 648.994385
526.111084 -566.177490 734.185730
403.125549 -674.705627 675.163025
491.377563 -615.736816 385.904327
487.263458 -621.655579 543.548645
536.892395 -544.709473 573.004578
407.603394 -718.604065 578.948853
595.005249 -462.582367 728.914368
640.454773 -372.356445 655.683594
519.486084 -585.668396 727.828552
519.673401 -577.521729 616.229980
658.080078 -378.444855 697.818848
541.193298 -559.035767 768.473267
583.269409 -466.905273 540.660156
440.198212 -774.431824 516.835205
610.798157 -424.737885 728.973328
456.764709 -654.831238 530.925476
585.756897 -481.256866 609.051086
516.475891 -575.554932 553.603760
406.963440 -688.275940 645.816406
643.943542 -391.311371 635.792969
592.011841 -498.838226 814.266663
537.261719 -539.507019 636.695374
496.553925 -626.346619 549.544617
547.317749 -629.199890 808.214661
631.108582 -430.337646 752.250671
511.459137 -600.591003 622.728760
507.415466 -634.567383 752.759766
514.023254 -593.255798 564.910583
577.069092 -489.996429 753.614807
579.996094 -486.056458 486.914917
574.516785 -520.669922 714.624512
575.007629 -508.035309 763.720459
635.530884 -383.106964 596.458252
537.854065 -570.485718 663.911438
433.879944 -661.452393 698.179993
528.677185 -589.179626 703.435181
525.468933 -570.145142 571.713196
492.543701 -614.236023 368.332001
508.314056 -579.962769 489.972321
448.145538 -682.498169 548.395081
589.189697 -445.101166 671.651855
626.921814 -425.705231 655.879944
533.941772 -617.961304 800.875854
518.832886 -556.782166 410.473999
399.975586 -709.024048 421.133911
616.414551 -440.520142 620.060486
640.724854 -397.967865 716.133545
574.676208 -471.225586 541.292603
545.693237 -540.009094 689.016846
454.861267 -654.565308 528.502380
564.395569 -496.534698 550.364380
494.631012 -592.931335 325.727875
608.804321 -463.785828 776.984558
584.325378 -459.738129 511.840515
582.682678 -502.003693 782.053711
550.013916 -573.280334 804.611755
553.650208 -497.559723 387.230072
512.936951 -561.542297 526.844788
567.010010 -505.163544 365.092987
513.784241 -595.187988 616.468689
555.407959 -501.088348 489.853821
504.468018 -578.768372 481.926239
436.618195 -708.688293 369.728027
448.048462 -682.538818 557.627502
526.555664 -575.941101 622.793762
429.779266 -712.213074 485.314911
479.153015 -629.929443 373.708527
527.075439 -562.807617 613.434082
651.089294 -352.564911 667.773132
370.111633 -676.891418 618.766846
579.218811 -466.759338 538.251160
435.817688 -729.328003 568.482117
450.319031 -655.936646 440.713806
499.293152 -584.471069 524.345215
478.559540 -645.974548 555.017517
571.740479 -525.698181 708.983887
531.749939 -653.487854 782.183105
521.612793 -585.342773 272.132446
551.028320 -573.510864 830.826965
418.820679 -746.709167 381.888641
391.214142 -676.980530 654.787476
470.132904 -701.591492 596.369263
611.222351 -451.163605 634.105347
453.766235 -663.429260 701.555969
447.807800 -658.759460 717.760010
623.881775 -428.423492 540.336853
516.396057 -586.584534 677.880981
517.905518 -577.380005 444.237061
495.120758 -596.026245 516.554016
445.481689 -661.700195 711.042236
651.422546 -380.512390 685.682922
493.764435 -663.487305 720.428650
505.753204 -586.192200 490.665894
427.437317 -687.804199 457.994293
513.620544 -567.859741 506.912933
607.459717 -457.716736 724.111084
457.355713 -667.265198 575.327454
618.034851 -419.820801 613.166199
558.894775 -521.000000 708.048706
462.318604 -649.090149 716.155945
381.877167 -915.811584 875.475891
589.122253 -456.996765 588.266785
584.975098 -468.705688 743.646301
546.981262 -534.547058 424.847321
525.151184 -574.962158 504.969635
588.957886 -468.050537 525.905396
550.964050 -531.275879 688.016602
598.551514 -444.945038 568.090271
567.996765 -513.292908 726.952271
433.502197 -687.314209 505.499634
458.915710 -674.300842 480.797791
665.408264 -334.090424 688.721680
609.874817 -454.453064 689.476990
542.862976 -556.524048 797.283386
487.142303 -638.624268 682.664856
560.754211 -505.321472 780.048279
492.990967 -568.675659 279.416748
664.191345 -349.912842 688.635742
545.560730 -546.538208 783.404785
576.342773 -445.649139 640.035889
549.399719 -489.915283 529.025330
605.733826 -459.636993 740.439697
662.062500 -360.350739 693.987427
428.937653 -713.552063 473.390350
462.525085 -651.992554 707.918335
529.608215 -565.431946 436.901367
532.044128 -569.664185 725.657532
494.002594 -629.017578 616.412842
589.892944 -488.324738 408.199066
640.866394 -399.217651 613.924622
505.828644 -583.331726 305.602600
517.789856 -570.710510 526.347107
468.459320 -646.193115 535.187561
440.351807 -674.352661 694.114319
643.737183 -387.805176 703.525940
675.014954 -344.446594 666.490601
466.078003 -669.036377 667.009094
560.769104 -512.514099 613.144775
583.539429 -474.679077 641.648987
553.679626 -527.215454 787.028015
504.079926 -572.109924 401.284271
597.229675 -445.132172 466.583435
602.205566 -417.890839 662.035217
562.244263 -492.992798 482.157745
451.900330 -655.470947 454.926025
524.057434 -553.569214 515.212952
597.439331 -458.292755 599.785889
643.523315 -398.261261 660.811035
582.220337 -499.406952 381.652191
568.977905 -519.739441 620.325195
491.368591 -607.023804 576.711365
447.020599 -635.492859 346.851685
626.544250 -391.979797 579.094360
423.615387 -715.855042 460.706970
442.969269 -679.507629 393.176727
561.567200 -530.735107 804.113708
605.649902 -430.271545 562.341675
448.759064 -725.498962 565.119629
615.771240 -437.137726 752.099731
568.686279 -493.306244 514.865662
668.526611 -354.357635 644.872559
662.938232 -350.067902 686.530334
473.556366 -621.792908 439.949524
500.712494 -583.029602 441.550751
623.007019 -426.361877 600.117188
439.403564 -693.465271 471.954559
470.277496 -642.064636 523.251221
536.369568 -543.516968 594.467712
572.651855 -479.483551 399.412842
463.548462 -678.271423 578.652954
539.874756 -529.578979 518.117188
390.698517 -682.009338 651.857605
459.881409 -641.209106 709.622986
538.264893 -547.424927 645.050049
517.746277 -586.048889 555.638367
632.839905 -386.691315 591.790771
525.220459 -552.494202 522.847290
438.037689 -664.755127 484.663849
436.733948 -677.197632 435.213318
495.105286 -624.913147 678.267639
622.660278 -433.801117 749.348877
637.852661 -409.046387 588.859985
640.252869 -404.183563 728.841980
529.258423 -571.048706 577.199402
664.202759 -348.837006 651.292114
480.498596 -611.398499 519.731262
418.113678 -677.431335 634.863098
582.583557 -457.670929 535.304565
524.454529 -641.368103 784.155457
567.614502 -496.950134 550.483948
518.500366 -553.903076 413.543152
631.788696 -423.153412 658.184143
413.790894 -679.050842 665.826965
597.642822 -449.879608 591.663330
519.974121 -549.729675 429.551453
414.740692 -710.870239 427.782928
658.508545 -351.052490 656.469604
619.294495 -411.511719 611.535889
564.832825 -501.751862 459.480774
531.976074 -558.341858 666.442688
576.044128 -492.414978 674.458496
618.593201 -405.630035 633.107788
436.663818 -730.210632 515.934875
617.925903 -411.134705 630.193237
604.131653 -448.620789 723.248657
582.500610 -483.976929 502.553040
535.789001 -537.522217 783.135498
428.897736 -749.695801 473.291718
462.536865 -659.964172 709.402100
625.859985 -401.765656 603.990112
603.574768 -454.390045 669.842102
462.718323 -645.398010 604.123413
628.751709 -382.441132 627.123291
558.341553 -524.947815 527.309082
518.793152 -553.024902 527.473389
501.365997 -575.043579 394.363220
627.914734 -422.800537 540.932800
520.060547 -528.306030 452.672729
528.607239 -563.757507 481.848907
493.123718 -609.755554 312.613831
403.092316 -778.086670 443.134216
467.880768 -628.668762 335.625977
560.652893 -495.956543 504.600861
563.950989 -610.347412 836.704834
502.488068 -598.018005 308.493866
487.474304 -641.412292 611.768738
457.964111 -635.792969 352.934082
530.483582 -573.217651 701.767944
488.210754 -556.021912 309.199341
421.431305 -678.480042 451.112915
595.205261 -474.446564 666.452637
636.129211 -422.699493 746.586914
521.573730 -543.371887 367.228333
469.170013 -653.210938 602.285767
593.568298 -490.516113 707.346008
537.070923 -516.848694 320.428345
616.548401 -417.111084 593.316406
547.194885 -552.056885 622.502319
580.113464 -473.788086 601.377991
532.618042 -563.329163 495.793335
598.854248 -436.606842 461.162781
441.888184 -670.985657 675.703430
645.023987 -385.628052 647.827881
560.245544 -542.348328 810.412598
545.996399 -658.033875 781.908630
572.591187 -480.199982 527.646851
645.236267 -395.825623 701.380127
610.523987 -460.805603 734.558655
473.736420 -628.475037 523.372253
641.499023 -377.981506 729.403137
622.886047 -429.325226 678.847046
579.142944 -508.258606 762.763672
515.775696 -571.923279 564.453003
501.735138 -622.688782 592.189819
569.164917 -502.395721 447.809418
657.143921 -368.169067 630.109131
574.274658 -496.127838 765.703796
409.256226 -734.260864 389.068665
530.594299 -564.164612 683.288757
571.053223 -482.160492 383.212280
574.671326 -470.101685 466.250519
628.065430 -429.447571 664.921082
552.741089 -515.568726 503.293915
406.894135 -668.862854 669.160095
593.545532 -471.425507 619.134705
486.128906 -606.083496 452.470551
468.653351 -653.064026 439.220795
544.165894 -547.484558 568.906555
537.377014 -510.021790 581.018433
471.249573 -636.325195 485.019196
422.788788 -663.546692 695.230835
588.308838 -462.511810 507.531525
612.854431 -423.676483 611.766724
451.948090 -656.897400 483.802307
486.584686 -633.909912 571.329224
553.625977 -533.888306 488.200378
410.644073 -692.388123 611.485779
608.290833 -425.031769 681.185852
517.542175 -669.792847 739.136169
633.412415 -360.193604 638.991943
464.744690 -632.004150 382.129639
544.653870 -539.811035 388.615448
593.068359 -491.995331 772.344727
634.690186 -376.970825 627.193848
547.021118 -506.704224 377.514374
587.663879 -452.928284 464.355560
556.226379 -524.069092 364.518341
506.759949 -598.527039 651.290100
473.500122 -653.571960 716.206116
439.683075 -693.758301 471.578613
524.941833 -597.436951 767.092407
530.979675 -534.623352 363.245026
425.165344 -711.157166 429.545715
627.215881 -423.962555 642.089050
539.657532 -536.862366 357.497711
456.125214 -716.778870 565.884705
424.055908 -702.813354 433.935425
484.204987 -621.936279 570.081177
639.934021 -387.573639 600.353027
431.273407 -671.002930 661.447937
556.743713 -527.011963 491.119568
583.407532 -448.885437 706.022522
564.119690 -518.980713 702.020996
593.302368 -456.243134 622.759399
478.076752 -602.654175 312.788605
586.695007 -455.163757 489.110077
517.452637 -652.183411 776.441956
479.422485 -611.838989 383.214508
596.930359 -444.959778 592.330933
574.922363 -518.013306 799.494507
568.066650 -504.942444 536.807556
547.393860 -529.951294 394.083191
599.345520 -433.184479 499.641083
612.649780 -449.551025 672.091980
604.143311 -451.834076 538.376404
544.506042 -508.328522 332.208954
541.266052 -526.165283 273.433655
535.977051 -551.707825 479.390991
468.866364 -640.668335 331.167633
482.552094 -605.858276 400.488068
624.192139 -429.571899 718.739258
597.774719 -463.592041 545.542297
548.966187 -516.712830 459.171936
581.299683 -496.076416 624.996521
471.565430 -592.187378 324.721375
508.346710 -582.476318 361.947266
632.561279 -416.745728 727.324097
571.298767 -464.098022 599.308228
599.509583 -452.965393 700.518066
502.263458 -629.599365 654.539795
443.521515 -710.312012 584.499512
574.079224 -486.321808 522.440796
499.659973 -594.884460 532.126709
530.381653 -582.117126 784.216003
455.007324 -656.322937 717.436340
607.838196 -441.385406 632.678162
600.301086 -449.217834 447.700592
629.593872 -406.004333 588.531921
477.219879 -571.245911 300.607239
595.654968 -472.212128 585.626282
578.412659 -457.151550 419.793610
498.538940 -594.431824 306.673859
590.700623 -452.408478 635.080200
547.468994 -549.741760 817.163757
441.314056 -661.864319 375.042480
487.893951 -635.149109 581.004883
571.175964 -509.638275 705.297180
476.944977 -658.465820 688.031433
606.131470 -438.430603 649.183044
544.185913 -521.535095 302.233551
605.546753 -414.446899 737.765625
497.131348 -598.839539 567.879211
521.129211 -590.847595 570.444153
566.603394 -452.423126 545.741699
542.385742 -533.064697 420.067352
616.536133 -443.886444 751.975281
552.329468 -521.400452 597.692444
531.655518 -558.219116 620.240723
628.679138 -415.551971 626.453003
637.604187 -388.761871 569.015930
487.692352 -601.072937 441.366180
561.861938 -490.841980 418.938263
