ply
format ascii 1.0
element vertex 1376
property float x
property float y
property float z
end_header
-434.595276 770.315491 -131.792969
-252.951050 1011.465027 -60.912022
-414.252899 860.842834 -219.186462
-459.880554 809.682129 -264.515808
-359.299011 901.536072 -112.376106
-565.008728 649.814758 -262.532135
-411.016479 871.695496 -353.492096
-496.027618 683.055786 -180.887619
-451.710938 807.216003 -386.991547
-388.581360 837.906799 -103.054535
-258.623230 993.295898 0.908935
-538.226746 656.367126 -320.447632
-433.392639 735.468506 -125.582024
-449.277313 800.587646 -284.073364
-268.626007 1035.649658 -98.836922
-477.358795 707.789429 -203.328354
-302.695160 925.963806 -7.779631
-305.773987 986.623840 -180.392929
-283.475525 939.453125 -39.116936
-548.062683 637.762695 -279.518555
-365.057312 888.521606 -127.416664
-455.613373 729.084167 -122.171265
-367.843292 1043.806152 -312.958313
-411.523224 796.977173 -126.315125
-437.557678 780.373047 -158.831619
-410.687134 856.766296 -370.222717
-535.390869 628.680908 -130.119843
-375.492126 1048.590942 -299.180603
-279.925781 976.733276 16.247641
-482.305969 737.982910 -260.825134
-399.213501 888.985413 -277.678680
-310.691315 939.533142 -55.276115
-336.747223 920.246643 -95.382347
-337.833191 1003.559814 -274.276337
-484.087158 753.434509 -217.813538
-542.618347 622.319275 -210.579407
-275.359589 964.078430 -30.448097
-504.226135 656.719421 -156.633881
-322.556946 999.895569 -232.022552
-444.882813 883.149109 -331.414948
-350.062012 868.238892 -69.468742
-470.846710 759.126587 -236.995407
-491.450623 711.059814 -151.068390
-351.762848 914.124084 -133.868683
-273.900879 995.962769 -32.296490
-531.878479 672.350647 -237.336197
-347.659027 929.931396 -174.531937
-503.066437 692.600403 -219.498993
-398.647949 838.885254 -105.779518
-518.846008 750.463135 -344.947998
-348.630676 919.126343 -112.898804
-477.982025 777.950256 -290.270477
-456.255585 709.265442 -82.770287
-515.917358 701.482849 -229.464661
-379.669556 909.404724 -363.741241
-544.507080 629.606323 -162.904709
-454.769745 799.229126 -218.642746
-298.961029 1002.734375 -169.706284
-390.284698 945.961060 -336.075684
-474.376831 784.659607 -314.362427
-376.561707 912.791077 -239.508987
-467.950439 752.165222 -158.622940
-385.159912 889.873718 -272.324188
-427.996307 850.818115 -277.536713
-359.507172 952.353821 -224.883560
-405.696411 920.194153 -328.622528
-495.401794 724.130371 -205.166473
-414.231354 864.887634 -351.561523
-344.459259 951.098755 -202.222794
-552.619080 647.563110 -220.324905
-527.486816 672.648865 -264.315338
-548.397522 683.006897 -344.435760
-330.788391 956.023987 -232.260010
-284.655884 993.372986 -143.246490
-530.056885 659.190735 -302.888519
-387.191437 924.460571 -316.912506
-300.949524 1025.681152 -190.508194
-359.688782 1092.635376 -293.153595
-454.002686 803.134705 -257.075623
-384.028900 863.943298 -111.133804
-427.862183 812.898254 -264.768036
-531.052979 712.624573 -329.929779
-301.873138 1029.110229 -193.532257
-513.669128 591.052246 -96.684914
-399.636108 835.037231 -133.081345
-491.931763 641.108398 -117.668030
-430.124878 806.815063 -149.599228
-347.645233 975.250488 -236.134552
-366.342682 920.637939 -210.357071
-444.247925 841.410522 -283.520844
-354.492859 918.371216 -138.192062
-296.287476 1050.992554 -238.207275
-295.658569 969.208557 -60.595524
-283.484009 1012.087097 -105.102699
-306.016846 1040.798584 -239.918640
-450.923340 752.805603 -148.529434
-489.027588 649.716064 -70.729614
-310.583557 996.585205 -242.937836
-476.940369 741.979614 -229.323090
-400.371521 796.500366 -80.941452
-432.575409 756.424072 -92.322136
-439.128510 841.010132 -359.685974
-467.241577 719.711365 -147.703430
-354.700775 916.033813 -133.729126
-419.272583 785.891418 -108.613091
-453.935059 707.319946 -111.582565
-305.516266 882.949402 -16.524471
-528.709717 654.937439 -159.989655
-420.859161 819.634033 -184.846893
-311.545410 980.729736 -128.356049
-398.072479 859.851624 -183.234680
-486.286804 628.030701 -113.644440
-462.046051 731.210571 -160.337631
-356.594604 966.202148 -271.572113
-459.516785 856.241028 -311.054535
-448.543213 800.388733 -265.988892
-388.026398 853.855408 -165.064377
-400.434509 880.845764 -217.672699
-429.844025 846.849670 -369.399078
-421.657806 787.855835 -82.756424
-383.652557 935.656372 -329.828613
-491.660950 723.089355 -303.501190
-301.259155 1034.356934 -226.095474
-530.400513 584.269531 -88.066841
-307.924561 927.325500 -43.709076
-364.964142 845.960022 -47.893192
-380.685394 861.716858 -136.772491
-379.967102 916.499878 -344.617950
-389.930267 886.359070 -362.877686
-262.304840 961.939087 -3.708544
-337.986359 882.528259 -111.173500
-442.799683 836.797913 -381.712402
-421.469910 891.728271 -357.186401
-448.383240 710.105713 -112.816208
-290.348083 1011.771423 -224.163101
-455.526093 796.023865 -301.128326
-453.008087 643.349548 -36.830666
-433.986755 822.967712 -236.734680
-522.184753 657.469482 -222.532349
-350.669189 948.009521 -186.357498
-424.825287 766.669250 -101.539612
-473.124176 802.093689 -380.397125
-412.300385 817.404175 -151.321655
-427.711395 771.308167 -84.955658
-298.079315 1020.305603 -190.556641
-405.516052 909.800842 -351.408752
-304.345245 998.654480 -130.909149
-418.931519 734.431458 -80.528145
-277.812103 975.632263 -108.771431
-399.825806 921.849487 -345.379883
-317.737793 989.068176 -167.477158
-311.619629 948.541504 -155.293442
-521.345215 730.704163 -313.404968
-369.075958 915.762512 -376.132782
-519.552551 810.314514 -371.531647
-429.545441 766.812439 -106.168884
-416.416565 745.858215 -47.217312
-430.723846 706.561646 -67.387573
-522.970276 690.989136 -292.564423
-304.472382 966.516357 -74.717522
-269.871704 977.837158 10.558269
-425.902222 762.591492 -84.609764
-472.161346 810.717468 -361.224335
-452.164886 735.397766 -157.377014
-389.921875 831.139221 -125.066772
-388.361755 928.562500 -338.671082
-351.830627 933.035522 -251.290054
-333.585327 854.687317 -34.071522
-327.805908 956.049377 -115.499702
-520.673584 696.729431 -235.648285
-430.998016 807.966125 -211.424240
-455.348297 804.829163 -235.997955
-532.685486 657.026672 -258.318512
-402.569275 895.612732 -233.562424
-519.377869 606.231995 -93.316589
-507.486908 696.297668 -195.222229
-409.004028 758.816406 -49.660328
-452.781464 727.202393 -120.472336
-468.285706 856.159668 -320.478424
-543.886780 675.589783 -281.758453
-332.450714 964.510559 -208.768936
-291.707458 973.015991 -43.770809
-394.646423 850.269165 -171.786194
-350.593079 884.397583 -168.231339
-335.695770 990.629822 -265.423615
-344.764221 1021.870605 -266.352753
-439.229675 832.069031 -243.130127
-258.117828 973.738831 -14.093835
-438.060638 747.257080 -168.681168
-386.559601 918.183838 -249.914825
-398.643860 797.672913 -28.631105
-525.049011 636.778137 -188.629272
-341.039764 947.564758 -147.460342
-412.923889 750.399109 -44.197868
-423.466095 754.702393 -54.677345
-397.899719 831.761719 -152.405472
-467.061798 743.323669 -201.856628
-493.859528 665.515991 -126.297379
-423.050873 812.870117 -136.511459
-380.428223 843.706299 -61.843826
-281.803070 1013.610474 -114.752945
-298.959442 947.896118 17.030920
-494.848328 747.206726 -262.795532
-487.843628 743.466736 -204.109863
-392.122070 944.570618 -281.454132
-378.354980 923.573364 -362.543243
-476.466675 785.952759 -379.005676
-463.770782 712.400085 -164.238373
-527.572510 698.374573 -270.302307
-410.853149 881.405151 -360.275818
-346.913635 855.935059 -9.534285
-388.669250 824.674377 -78.089180
-309.910828 1021.153992 -230.228699
-356.987183 896.093384 -130.173065
-427.162720 751.600769 -83.454582
-507.175262 691.768372 -184.653687
-328.313385 942.812256 -94.748802
-389.034393 867.722778 -167.287613
-536.729187 709.473938 -321.461487
-534.896423 619.515137 -144.338959
-412.286560 795.283752 -119.430222
-284.266083 1033.952881 -155.113068
-417.090424 815.536133 -183.291519
-386.553528 800.513062 -19.189138
-531.462646 652.135010 -166.486038
-309.769440 989.508606 -136.626404
-319.439789 899.232422 -2.047337
-528.676270 682.519287 -227.684906
-433.566345 898.513245 -316.729431
-360.691772 885.768494 -142.102966
-377.630280 1028.072510 -304.908997
-293.221710 1053.405640 -233.544830
-532.803833 645.883667 -228.639221
-272.793823 1005.277405 -38.103722
-353.340729 970.398071 -229.703232
-472.184814 692.801514 -107.045547
-350.331451 938.531250 -194.108444
-455.842316 745.551453 -123.410851
-463.740326 806.992310 -304.291718
-463.051483 856.853394 -341.313263
-416.676758 881.566162 -268.928436
-388.942627 781.278809 -43.142883
-385.383514 977.444275 -311.398804
-542.505493 700.783936 -324.555664
-347.855408 908.166260 -370.326202
-309.565277 994.448975 -168.460602
-530.643738 706.469116 -334.283417
-487.645905 640.334106 -100.297989
-280.079681 1007.764160 -76.992073
-300.799561 1066.183228 -258.132507
-379.702972 875.367981 -162.418884
-268.952026 1005.230408 -101.199272
-399.432007 783.525024 -60.968826
-379.134399 854.328003 -116.019653
-458.361816 780.996277 -232.606644
-287.262970 1006.577698 -129.674194
-452.811493 818.647217 -261.764008
-334.966400 989.443787 -246.398010
-480.682007 706.332764 -118.270729
-424.467163 809.320435 -174.854507
-327.301910 926.088440 -46.893013
-337.627625 889.085815 -55.686813
-278.358826 992.693542 -103.809937
-381.245972 832.008301 -84.151291
-448.983368 791.485168 -184.305252
-420.339020 846.236023 -270.147217
-472.500732 740.730469 -164.322342
-308.835205 1013.984741 -195.129303
-432.658844 759.664124 -102.043747
-292.711334 952.289917 -50.062241
-539.074402 623.548950 -158.275162
-348.029419 869.434570 -34.341591
-378.482819 889.157104 -154.684723
-450.642395 830.950012 -381.583862
-337.112366 1006.345520 -253.056046
-341.940918 911.996765 -74.907104
-259.592590 1039.728149 -130.107574
-333.058655 904.348572 -72.124451
-365.330933 859.668518 -82.054947
-364.235901 1061.230835 -292.390961
-338.479706 966.615967 -181.633957
-536.384644 623.502747 -176.271423
-396.697906 803.321228 -41.883217
-349.027618 890.007446 -91.838181
-315.639465 1000.138733 -185.527161
-399.741760 867.276184 -377.502533
-522.913940 663.148010 -279.695038
-398.000427 869.307251 -380.272705
-335.983185 995.173279 -217.690475
-417.773468 852.904236 -249.787201
-479.720337 840.330200 -349.024719
-335.920929 905.850525 -152.784500
-398.594849 993.545532 -327.182068
-422.266754 850.662354 -371.166718
-509.460327 679.215332 -158.079544
-366.926178 964.882446 -265.289642
-381.146179 803.550720 -36.348526
-368.038025 1010.885986 -295.564178
-333.356171 871.429749 -30.577257
-407.573914 846.814148 -163.887955
-374.159271 847.135193 -150.319992
-289.487427 1031.001221 -155.054855
-416.198364 799.479431 -147.449280
-506.715820 664.439514 -176.578232
-270.911987 981.577820 -24.871754
-449.580170 822.755920 -283.243927
-260.020874 966.738953 17.473650
-427.805939 867.221924 -279.068054
-452.356964 764.814758 -142.766220
-448.635162 769.356079 -240.425064
-424.908539 817.987549 -218.503189
-546.774963 667.719299 -272.522217
-471.617706 818.480957 -358.026947
-399.769318 789.283508 -119.539261
-429.785492 788.925720 -228.405197
-512.871765 805.048096 -337.249603
-384.312042 781.826416 -45.101307
-291.954346 1081.609253 -251.416733
-511.368530 696.685669 -327.394257
-301.184174 888.177490 -10.542336
-526.060303 681.458862 -228.519943
-322.319641 963.162231 -149.258408
-424.904968 740.172729 -42.907154
-493.021667 711.513123 -156.437592
-373.730682 844.580322 -45.829227
-301.848328 1071.999023 -256.966461
-382.552277 851.005005 -127.271210
-480.527435 832.849365 -349.167847
-544.735596 678.729187 -331.981018
-428.204987 820.240601 -237.248383
-476.523773 739.107910 -286.803284
-386.807098 890.059753 -250.745041
-406.533295 774.324524 -63.863865
-456.097748 815.499390 -320.721252
-525.511353 627.534973 -207.090408
-418.091187 813.347656 -174.022324
-481.322479 715.028992 -191.374481
-484.150177 792.941406 -298.858978
-387.245300 894.371765 -351.665558
-536.153381 700.252563 -299.212280
-525.008057 719.106812 -306.980347
-341.043518 908.247009 -104.511993
-358.357086 921.270081 -173.423325
-395.754669 973.256470 -331.820282
-546.838379 778.630188 -354.980042
-551.976135 686.794189 -338.303650
-274.039307 1050.488770 -137.815247
-389.053772 877.649902 -223.798019
-278.381378 1019.684631 -95.846718
-354.036682 938.120605 -158.479919
-536.421997 676.494446 -248.642914
-313.903534 945.223083 -75.480209
-324.559540 947.519470 -90.619934
-282.339539 959.355347 -23.682812
-348.267242 908.077026 -137.860687
-378.218964 919.015808 -266.522949
-468.877777 704.990845 -67.432732
-538.212708 612.618591 -114.351166
-357.193542 960.231384 -252.683212
-450.713623 797.764648 -263.816162
-290.999573 927.116089 -40.891140
-465.090912 794.886597 -290.694397
-370.247314 943.745117 -241.830460
-411.283600 918.359070 -326.085449
-384.152008 826.058533 -389.233246
-412.363708 925.653259 -317.760345
-417.904968 891.193298 -296.473389
-480.920715 796.256775 -314.489136
-419.729431 784.949829 -128.668198
-560.983154 661.140198 -309.418671
-509.009277 656.149048 -88.152489
-468.252136 701.132935 -120.460327
-392.055084 797.056458 -63.299206
-274.655731 1006.860901 -59.138119
-395.398315 798.529846 -66.374962
-332.987671 903.683044 -53.942822
-389.533264 824.477234 -87.564980
-415.266693 793.828186 -74.114525
-332.192078 960.827515 -146.571548
-409.217163 861.193970 -200.737991
-383.111816 955.927368 -336.763611
-391.665344 920.338257 -340.505096
-529.369385 643.965210 -208.463150
-389.550476 869.320374 -190.883240
-354.797211 906.417236 -363.996918
-524.110718 633.393921 -101.164040
-352.208435 937.658386 -208.686111
-377.374878 933.565002 -244.928467
-356.469330 941.099426 -192.330215
-393.934082 931.166687 -334.109344
-411.960663 814.469666 -150.602554
-343.252686 935.137939 -190.219147
-476.057861 703.436890 -149.689240
-374.561798 922.049377 -214.878662
-356.673218 900.043701 -122.208946
-446.764099 814.993652 -370.999786
-406.123260 819.448547 -134.465622
-315.610870 930.268677 -54.956795
-527.236755 680.933228 -332.318909
-450.625671 717.379700 -96.536842
-396.563416 841.320740 -167.390213
-410.544739 890.815247 -287.143158
-505.057434 630.880493 -73.701073
-278.025116 995.146179 -18.832203
-412.829163 752.714844 -32.774723
-535.196899 652.979919 -230.177933
-403.853210 783.396729 -95.941017
-251.856506 1013.077698 2.040065
-290.413086 981.883545 -56.587593
-514.768738 654.715454 -127.106743
-469.544556 684.469788 -94.938499
-538.583984 603.469299 -103.400696
-385.183441 805.088684 -37.858440
-373.782867 942.574158 -251.472443
-450.501556 801.220093 -219.441269
-500.235931 714.986511 -258.540466
-397.137329 946.546570 -327.997833
-367.631989 921.341125 -224.214737
-387.751556 966.939392 -327.752930
-423.590179 789.323608 -133.961777
-522.457703 623.712891 -105.179489
-430.557068 848.766785 -350.382172
-485.431122 684.561340 -119.668976
-356.106995 957.614380 -269.379669
-460.951935 737.230103 -231.933838
-522.465393 721.252136 -312.128754
-472.825287 804.350891 -310.145325
-271.364960 955.874268 -26.669033
-411.372925 795.647034 -67.307899
-344.845276 897.023254 -67.135757
-377.663513 894.353699 -372.910522
-343.622467 918.207397 -90.796822
-520.187866 640.726318 -212.733276
-344.277222 876.197510 -67.774292
-450.914642 802.870605 -224.923859
-440.053772 741.092590 -87.563469
-285.296387 1030.676636 -222.922379
-484.761627 667.361328 -91.977776
-280.309692 999.745300 -42.959641
-454.460480 778.830139 -171.958649
-276.989777 965.598633 -10.166532
-414.438110 784.386230 -92.730942
-368.366669 1064.475098 -306.227112
-429.667816 737.298950 -53.306828
-552.230347 763.021484 -353.267975
-323.211670 917.314087 -50.273354
-414.386139 795.759705 -111.954575
-286.410339 1090.601440 -215.124619
-495.721405 786.786621 -313.371155
-427.127777 864.373657 -303.284424
-398.027802 852.717590 -140.166138
-481.222748 693.988220 -123.019440
-403.804688 874.101135 -251.127121
-524.223450 702.864197 -267.993500
-467.270691 743.810059 -236.623917
-560.144226 661.077026 -276.113037
-445.216919 772.644409 -131.519318
-421.214081 759.389465 -33.451393
-544.762146 664.907227 -244.209976
-496.148438 689.153809 -234.804581
-352.064056 875.462952 -31.712917
-346.635986 863.111206 -13.941922
-443.654846 784.802612 -184.744827
-347.700562 953.285828 -182.686066
-421.691559 784.276123 -135.928421
-289.446411 972.398743 -149.143845
-370.491638 838.209351 -10.546564
-363.329041 859.362366 -35.581577
-435.057892 761.147644 -142.773102
-443.178375 854.671814 -289.725555
-471.980560 686.400513 -87.825722
-360.555603 952.451050 -251.704956
-415.128693 843.400818 -367.798615
-388.491913 1024.486816 -306.626648
-455.740723 731.877014 -132.044479
-390.177551 950.425049 -292.280975
-388.400696 918.260254 -236.664597
-301.383759 983.569153 -79.058556
-413.960785 875.369995 -250.466415
-443.737518 745.346619 -113.725945
-460.972382 792.608398 -290.781616
-361.128296 963.691345 -353.177948
-267.108582 984.881531 -7.715826
-442.829529 774.997070 -121.379433
-308.038177 1028.863770 -237.403168
-500.633331 665.458557 -98.812897
-422.477295 906.268433 -330.783997
-365.040375 934.263733 -257.244049
-291.751221 1012.104248 -114.700127
-491.910004 695.477600 -132.090790
-447.361542 868.890442 -352.544159
-377.582153 921.566711 -358.099731
-366.162292 922.442261 -188.940552
-355.243073 916.176575 -187.964508
-365.941711 972.629395 -348.507263
-397.488953 908.092163 -261.640869
-402.262268 872.759399 -373.571747
-426.209656 855.438354 -228.813599
-477.347717 633.212769 -90.180725
-295.879456 966.433411 -41.515633
-433.957275 755.871399 -60.136631
-473.352783 707.254089 -148.923660
-471.712067 715.057007 -188.409210
-393.234375 949.886536 -330.534119
-522.601685 689.450256 -286.932434
-361.848022 917.652527 -188.781357
-263.895782 971.702637 2.489590
-365.856659 840.297424 -64.694069
-305.702118 981.512024 -207.644058
-434.710785 830.476990 -260.127167
-278.334442 1038.352539 -124.639816
-432.924988 804.770813 -193.557999
-280.232269 946.740601 -10.987249
-388.431396 898.650757 -234.980164
-372.934204 975.864990 -341.717773
-345.713257 972.243652 -244.795120
-285.171600 931.914124 -29.590593
-293.927612 959.014038 -57.633625
-428.636200 735.065186 -42.105808
-331.285583 905.091675 -38.533035
-287.237427 1019.419495 -149.725861
-286.530212 937.727417 -9.995818
-478.462646 779.056396 -249.572739
-441.759583 796.164307 -386.249481
-491.279877 697.806458 -234.284103
-442.640503 818.334900 -206.818832
-499.411835 723.342773 -218.408264
-402.088959 819.756165 -112.528656
-313.216614 983.807678 -174.043701
-472.881653 680.752625 -95.045662
-498.634155 711.798584 -303.936707
-280.259613 943.193787 1.750357
-349.356110 906.196960 -89.000549
-296.872528 969.324402 -114.141304
-272.855988 970.088989 -8.206504
-326.035034 980.576477 -255.968063
-425.094452 820.227539 -162.171814
-404.525421 812.640320 -148.222412
-489.735687 687.497986 -157.891342
-368.557831 923.483826 -199.863983
-387.018646 865.549744 -185.701874
-328.461578 982.939880 -210.690018
-294.230072 937.579041 -2.415923
-525.147217 664.181519 -244.830933
-539.787415 652.619812 -200.747925
-465.848267 802.968811 -273.220306
-477.549500 672.827026 -60.347698
-451.106750 813.916077 -383.720642
-246.037521 1004.444214 -24.294380
-325.350525 998.631714 -230.565903
-529.074951 668.010620 -257.733887
-371.375885 865.278259 -134.877533
-314.945099 967.775696 -136.392670
-261.793121 961.870850 -2.605765
-284.687897 1055.387695 -176.114655
-527.341614 669.328857 -191.684555
-392.619965 923.692322 -353.237640
-364.387451 863.061096 -89.402016
-546.218933 657.472778 -222.723694
-299.646393 1031.020874 -186.566177
-374.673157 1031.370728 -293.875214
-464.603363 770.554749 -194.826828
-269.190796 986.863159 11.744183
-527.862427 617.745544 -136.189621
-313.642273 1048.367188 -262.887054
-488.932739 701.311584 -135.244583
-495.182678 734.428894 -266.358582
-390.424438 851.688049 -138.151657
-450.864227 898.812988 -336.372437
-267.392090 1010.193909 -92.865662
-325.253143 924.003296 -43.525032
-503.421967 638.752747 -62.478222
-398.472809 985.195129 -336.814545
-540.824768 681.174133 -325.360260
-534.494446 609.136169 -120.932701
-355.908417 909.888428 -164.646439
-486.404816 758.286987 -257.207520
-320.449066 903.877014 -44.260712
-500.000641 680.654724 -129.456238
-370.556000 942.327454 -235.611710
-331.220459 956.498413 -155.440506
-371.751740 933.870422 -364.868103
-567.630859 656.722656 -281.515289
-371.562592 894.564941 -375.869843
-450.751068 820.441772 -377.270813
-478.126221 662.533569 -87.477760
-375.472717 940.900635 -329.693695
-384.821259 802.967041 -36.423672
-277.166138 955.651611 -50.826328
-412.391266 896.883362 -298.471252
-502.223938 701.064941 -208.285919
-472.940735 720.551392 -120.177391
-366.177307 845.286804 -382.056030
-556.851868 780.371887 -366.505798
-328.917816 977.016479 -187.854691
-464.162506 840.146667 -365.262726
-357.087402 836.853821 -34.232895
-355.896240 933.767517 -192.633926
-540.118225 669.237244 -313.652313
-285.939667 939.958679 -2.337245
-522.262024 661.844604 -166.333771
-478.523285 783.611084 -292.681122
-334.966644 883.866455 3.990876
-486.174500 690.657410 -71.059654
-280.304596 1023.062134 -167.321274
-324.413757 1065.193726 -275.941040
-406.558929 805.727417 -60.311440
-379.853973 817.832520 -37.605007
-329.579041 917.686523 -52.986477
-420.611847 813.439758 -240.318466
-393.734467 855.930359 -173.566650
-303.096710 994.929382 -121.993401
-402.817230 922.057312 -346.636292
-333.852692 908.540955 -82.237709
-442.089142 758.081787 -90.904053
-448.414673 810.603027 -255.912918
-296.006866 938.137512 1.286682
-387.200806 916.691589 -268.748749
-306.765533 892.781128 -24.437014
-400.026367 826.067383 -119.801659
-406.166229 793.500427 -50.858654
-288.309875 952.541931 -46.400810
-507.900696 815.891357 -370.313995
-317.149475 1004.405884 -210.420868
-385.111664 798.852600 -25.005192
-283.274719 993.666992 -57.373051
-470.759094 711.165466 -148.179626
-350.084106 895.922363 -107.217567
-482.502045 757.648682 -239.006958
-372.586365 900.224670 -199.861328
-534.511841 640.130188 -218.303299
-368.727112 936.172485 -207.798325
-475.561798 679.638672 -96.007736
-433.070007 849.425171 -240.525833
-306.357056 1027.442261 -213.008957
-468.353485 714.207825 -183.444778
-342.110931 955.236511 -222.643311
-484.730835 733.804993 -236.827301
-436.307526 898.716980 -316.559357
-482.049194 662.774353 -86.302925
-388.413147 814.564026 -35.491905
-387.560120 887.747070 -368.719177
-431.631653 808.957703 -199.782394
-457.191376 744.635437 -109.890663
-337.015320 990.345886 -259.434174
-411.707947 791.639587 -102.600525
-533.097351 671.029663 -213.626724
-411.062500 883.310425 -364.377533
-340.722809 966.372925 -202.503754
-416.707825 840.752686 -367.957642
-532.236694 707.396362 -325.591248
-297.169006 1002.356934 -113.163551
-476.987854 734.788452 -162.146317
-348.024841 869.771606 -20.440031
-350.023438 910.281006 -99.224876
-414.907166 928.442688 -314.378662
-276.559174 1066.195313 -174.102356
-340.203522 905.917297 -67.508774
-287.834381 1011.458008 -132.441727
-373.425537 936.126465 -232.268097
-291.769196 928.878235 -12.082026
-340.792725 949.401978 -187.923752
-363.832153 968.373352 -333.389618
-415.628784 784.594910 -166.063675
-365.345184 913.508179 -153.391098
-304.198914 971.095581 -82.956665
-391.387543 836.403381 -195.022064
-372.428192 877.618530 -152.006088
-402.048492 944.752014 -304.921478
-478.248047 701.678101 -153.528381
-553.510803 658.610229 -326.926819
-288.712677 953.250244 0.932801
-549.580383 675.417053 -281.465942
-340.772034 867.128601 -34.390770
-412.643280 907.065918 -351.364014
-504.649231 624.291870 -66.079880
-356.580750 901.970398 -93.846703
-536.730957 589.254700 -113.899277
-386.599854 1017.420105 -330.493805
-415.739105 858.938599 -220.093475
-363.672913 903.820007 -364.493866
-339.719055 928.100830 -102.233978
-346.394714 923.968445 -135.443787
-540.860046 688.370667 -308.353851
-441.782806 765.268799 -91.772522
-447.354340 764.265930 -177.968002
-439.599579 723.390259 -108.292946
-406.515106 914.600891 -353.145691
-375.359772 941.679016 -270.195770
-498.322479 746.895203 -277.954834
-502.064789 672.529724 -110.436935
-448.526550 836.267700 -359.674652
-403.242950 916.238525 -340.246796
-326.536469 980.832703 -185.469620
-493.759247 739.469666 -300.275909
-520.137268 615.447449 -120.597198
-463.817505 707.290955 -80.405014
-437.433868 756.067322 -75.382545
-364.622986 994.502136 -329.144440
-283.137695 954.024902 13.454179
-346.873199 882.095764 -48.660141
-314.384888 936.370056 -46.601593
-520.129578 774.853394 -344.597015
-451.756989 789.833313 -178.743790
-394.106201 821.937256 -384.640747
-436.454071 878.500977 -361.637115
-287.693726 982.816956 -83.855698
-400.464355 808.752502 -86.882233
-448.364471 715.128723 -65.179794
-525.464294 616.484680 -80.706421
-438.482361 816.828308 -229.449203
-371.857239 797.566223 -36.125515
-432.461517 789.325989 -175.847977
-450.152557 824.802246 -378.846069
-351.495056 962.014465 -246.702850
-431.903198 786.143188 -178.925430
-490.963806 743.885559 -298.357025
-385.540466 866.089050 -172.223602
-354.812622 864.862549 -45.147511
-477.159698 745.014099 -297.218201
-393.837128 841.624756 -91.531677
-499.932587 688.673706 -237.480392
-403.379669 922.165405 -290.600922
-351.753296 878.313110 -23.311646
-440.151459 790.347961 -191.105606
-386.439667 883.777222 -228.605301
-447.735046 791.191589 -186.994232
-386.828308 794.923889 -16.834597
-352.321198 909.294250 -131.925720
-399.712921 872.305786 -215.441162
-519.076538 701.694275 -281.455536
-338.435883 963.679871 -210.380875
-442.914398 827.204163 -292.486755
-475.259766 828.465454 -368.594482
-477.862640 741.141846 -224.385315
-290.143860 1051.641724 -226.263062
-455.556702 790.976990 -215.673065
-436.228699 821.508057 -203.915085
-266.267212 1039.966675 -153.583160
-388.049896 861.797607 -182.930649
-382.706177 892.640991 -223.103745
-293.151672 959.883850 -75.784660
-369.435638 873.289673 -144.519150
-410.064728 872.842163 -233.413727
-386.385193 912.774536 -364.561340
-360.631683 873.956177 -73.563492
-327.426117 914.548279 -75.337456
-501.333221 731.232178 -304.356415
-352.423462 827.759888 -2.924432
-317.802582 972.273193 -130.314438
-278.202179 1027.344360 -173.197601
-516.344604 625.789673 -142.596863
-363.097900 900.769287 -145.984634
-298.387817 1058.325928 -233.746399
-450.611176 776.844788 -236.959732
-322.939209 911.385620 -9.587911
-424.992798 811.699768 -197.500702
-440.396515 788.578308 -203.448639
-485.383972 658.501587 -57.482094
-504.415771 814.337341 -348.147644
-493.659912 713.214966 -161.639725
-360.535706 869.930847 -47.866852
-374.231018 984.669495 -293.174011
-271.292175 940.543152 -24.930859
-344.316833 951.434875 -190.481903
-306.339386 904.808899 -9.305760
-320.222748 984.998108 -169.198471
-378.098480 819.043945 -55.912872
-376.047241 920.560730 -243.461212
-417.979248 882.569763 -329.308289
-416.632813 905.414917 -288.472595
-498.770691 650.204224 -100.952927
-290.088165 1005.289978 -118.452286
-333.643433 964.944580 -243.078812
-395.418243 791.867493 -110.206902
-466.623810 682.975220 -77.088371
-474.682770 699.743652 -78.700516
-294.330811 953.056824 -13.985613
-477.732910 827.545593 -370.532806
-421.378326 777.724915 -119.416435
-406.826874 932.458435 -339.413849
-490.525269 674.868469 -83.055397
-449.690216 758.407532 -174.040009
-441.700562 822.923035 -298.440369
-342.702209 1080.744873 -291.351227
-425.491882 908.806763 -338.009186
-333.941956 881.825439 -50.510315
-363.362366 917.230591 -201.164001
-370.706390 889.023926 -365.830444
-466.526123 833.973755 -351.974152
-350.849548 967.040771 -227.489914
-344.386719 1043.125977 -286.393250
-330.028534 989.369080 -208.036774
-417.721771 848.879639 -193.831314
-561.364685 620.198242 -194.348892
-427.679626 783.338013 -147.774353
-397.977905 881.779480 -369.601593
-510.452789 640.687866 -81.215485
-458.184753 696.480469 -62.823509
-312.239075 1017.211548 -224.540955
-460.572479 703.107178 -81.948158
-280.261475 1008.530823 -88.682236
-280.747986 989.587952 -53.373749
-475.693115 823.107544 -374.196777
-309.925018 1002.149170 -170.565079
-365.828491 853.567749 -31.763445
-495.831238 693.244019 -221.209671
-506.329315 722.589050 -301.846985
-265.339661 979.071960 -23.300781
-478.929535 767.321411 -299.235321
-516.912170 673.098083 -215.188919
-294.228546 1007.336487 -130.626938
-326.795288 1007.045105 -207.852219
-493.671356 642.199707 -98.599472
-429.485901 827.832458 -390.865570
-453.783417 886.325073 -321.691772
-396.865662 888.828125 -219.410446
-438.384369 743.465576 -85.011810
-386.077179 898.788330 -350.479828
-278.488159 990.159302 -39.962635
-481.215515 626.500671 -83.136375
-455.623505 725.160339 -67.547157
-298.232208 1017.934631 -186.116058
-298.618378 1035.558960 -223.112808
-294.463135 955.765320 -12.959431
-349.522400 875.855652 -31.585112
-507.190369 667.112732 -209.730881
-492.380920 646.339294 -71.791870
-330.877625 900.939697 -16.091606
-493.680573 705.452515 -216.199142
-404.177368 782.248596 -71.028259
-301.754089 980.383362 -152.267883
-504.593323 703.659912 -297.754425
-333.061279 912.189148 -98.850639
-375.810211 992.994995 -337.038239
-284.773590 943.482483 -52.786270
-538.591064 683.073364 -262.131348
-328.196686 933.631958 -138.339264
-471.888702 700.783447 -68.899551
-298.753937 1007.888855 -217.409821
-478.471832 697.785645 -122.176994
-483.357483 750.162659 -229.527222
-397.226471 810.768555 -74.263565
-484.621338 741.489929 -214.172211
-443.556458 735.512512 -87.555527
-446.061523 816.720215 -287.737366
-430.235687 829.893372 -367.646454
-371.001740 932.427673 -361.661194
-349.016602 937.491333 -161.354523
-423.475311 781.385559 -63.956963
-533.489685 625.947327 -181.124313
-355.003998 890.746765 -371.837799
-377.330292 872.468811 -164.837402
-551.236816 640.299438 -204.123642
-399.935638 831.839966 -145.867859
-269.343231 1013.620361 -87.955330
-434.318573 756.412231 -118.360909
-395.086792 823.299133 -70.233437
-380.712036 897.154053 -243.683350
-388.660400 1023.917847 -320.407196
-269.216522 1010.736328 -32.204651
-324.510864 993.298279 -194.189499
-421.149994 735.408142 -114.254143
-521.732727 652.374573 -253.313065
-279.063202 1040.275513 -229.502991
-426.919434 846.775879 -378.943085
-415.974823 830.183350 -152.495926
-409.178833 800.709473 -101.692543
-478.091003 761.567810 -214.739410
-465.556702 696.987793 -96.902039
-427.023102 903.353882 -326.844238
-352.826355 1086.628174 -290.482513
-530.075317 632.949585 -136.985367
-396.155487 962.112305 -300.323914
-330.550415 940.470764 -133.472137
-557.708862 672.590332 -305.576996
-330.888062 936.937195 -91.700508
-338.893616 959.556030 -221.761963
-374.978912 887.092224 -151.069580
-377.293884 840.742676 -45.165081
-500.061066 611.767517 -112.110855
-487.839905 696.713562 -114.469566
-553.007385 703.032288 -361.004730
-384.421844 891.233704 -210.670456
-305.039886 1018.802979 -199.753174
-269.397217 973.459167 2.947188
-424.015961 797.675598 -226.020187
-300.597992 984.699890 -134.130066
-328.012451 918.586792 -85.481133
-547.298218 646.835083 -278.034302
-322.775787 1013.394836 -213.615677
-367.779999 970.423889 -334.189392
-394.294922 883.139404 -198.404160
-432.871613 824.921021 -208.694290
-536.950073 653.241882 -208.022491
-404.228394 834.406006 -109.126678
-544.915100 584.583313 -90.523254
-343.893890 950.470093 -347.216339
-445.116486 764.686829 -103.009354
-344.809143 926.730347 -357.718292
-362.593628 928.220825 -255.978500
-516.461853 646.292603 -156.269760
-411.336395 812.134338 -131.732300
-403.396942 1009.828918 -323.338196
-293.805206 1072.792236 -240.626343
-457.850647 709.686157 -89.379959
-280.047058 955.303650 -4.272499
-549.486145 658.457397 -263.230194
-295.097137 959.100342 -37.218452
-390.963959 877.570068 -174.419800
-406.435394 823.944580 -138.421234
-407.911987 786.894104 -142.544281
-331.468994 989.043823 -233.365082
-255.788727 1014.992737 -82.106644
-497.559692 698.880127 -144.017151
-541.361694 708.796509 -335.071716
-285.927063 1022.906067 -176.315125
-350.059021 949.685852 -180.587769
-328.033173 925.670959 -98.990578
-486.102692 690.619019 -159.848373
-396.558228 838.466675 -148.787521
-351.506836 914.255798 -159.340576
-476.915100 755.483215 -217.007263
-460.517120 753.900452 -192.992584
-526.597351 595.252258 -87.828575
-413.228546 920.141541 -323.412720
-330.855896 948.769775 -154.419815
-352.902405 860.658203 -378.801453
-512.589661 689.380859 -190.555542
-519.134827 624.953003 -182.360550
-390.750641 888.384949 -358.154572
-352.970795 877.846924 -80.451912
-420.727051 896.722107 -299.194672
-546.204346 664.430542 -261.014191
-418.855927 877.437744 -306.330536
-369.150299 872.406067 -74.359917
-357.867371 854.054810 -67.054985
-314.643066 1069.521484 -263.467468
-454.202271 739.949585 -43.947140
-264.480072 1003.546875 12.728776
-536.854431 623.464294 -195.410767
-307.453186 1024.828125 -235.208267
-414.699432 805.369812 -385.167938
-502.834076 677.964294 -195.151962
-372.978485 916.855591 -366.470123
-491.778229 678.559875 -126.312485
-266.642731 1031.856079 -104.812996
-265.974365 1002.458252 16.990717
-467.780182 828.980774 -378.649017
-521.774414 668.910583 -160.968201
-410.289703 780.032043 -24.648039
-480.853973 714.179504 -188.728577
-331.707581 981.660095 -219.975037
-388.306061 816.257385 -40.144863
-395.766937 942.621460 -308.949921
-392.738342 915.651611 -350.576630
-492.530212 813.177429 -350.778168
-288.042389 939.861267 -57.020016
-338.931732 895.949463 -69.473404
-524.263367 683.003601 -219.186691
-419.664703 855.137512 -369.262573
-424.392548 753.580505 -60.022457
-395.415161 915.452148 -253.838684
-374.587860 869.122070 -147.666168
-435.138733 815.747925 -187.776382
-399.929504 837.219849 -123.086235
-361.902283 927.256165 -369.193359
-339.715759 901.806030 -41.086189
-494.834442 677.915955 -90.686668
-384.534607 819.907654 -134.569763
-508.390228 802.623718 -376.813293
-444.830383 834.451111 -367.740906
-317.621643 911.489441 -47.071152
-451.155334 781.221008 -228.935654
-329.245667 879.236572 -35.155399
-417.102325 833.987061 -199.622513
-315.689941 933.016541 -76.738266
-389.679443 818.351074 -86.179382
-427.519592 749.001282 -78.328209
-507.624512 639.866028 -104.923470
-563.173767 672.938293 -323.745056
-477.086975 715.758362 -179.369308
-299.602783 1058.071289 -229.875732
-316.742889 1012.489685 -214.234955
-515.199463 683.282288 -187.175262
-419.510925 813.069519 -124.294128
-471.957672 752.794495 -170.296219
-352.536926 925.652588 -203.505920
-326.474548 933.191406 -89.443062
-408.511261 887.882446 -256.378082
-483.125793 690.903564 -140.096405
-536.888428 601.888428 -146.954102
-544.301086 742.130066 -361.600098
-370.728027 796.160034 -69.474510
-367.964539 915.533325 -174.160721
-318.149994 980.022095 -216.741074
-299.427063 1063.535034 -251.765457
-421.341644 832.239868 -237.421722
-443.540466 761.863953 -220.386948
-358.552216 982.521667 -334.100586
-297.064178 1015.403259 -245.234116
-304.509888 921.324219 -41.859158
-458.499359 850.298828 -357.873901
-303.998688 1052.611206 -272.761841
-266.199585 1016.070007 -116.098030
-491.061371 669.121338 -125.503212
-372.354919 853.779663 -57.758999
-435.728333 798.772217 -152.514267
-330.674377 964.401306 -132.212784
-391.098358 936.023926 -276.489807
-386.401428 939.189514 -329.272278
-397.498566 856.133911 -186.917816
-547.641235 647.602905 -282.519745
-258.340881 1000.307312 -101.127312
-506.610016 727.238342 -308.069916
-476.539459 670.083252 -62.706963
-542.861755 660.200684 -334.994690
-529.264343 697.224915 -282.368835
-488.942505 754.356018 -231.628067
-452.535217 768.219971 -192.902756
-336.189270 981.401611 -211.824753
-542.038391 650.718079 -267.500153
-520.501343 663.760132 -221.069107
-367.572906 861.516602 -96.417976
-393.777008 792.934143 -32.242104
-339.253143 975.844116 -241.635300
-491.769897 670.296448 -169.735977
-574.576538 654.291016 -354.144897
-526.568970 683.401733 -293.877991
-498.735382 706.844421 -187.019516
-287.537292 938.841187 -8.636667
-476.317719 724.462708 -194.327042
-426.898041 834.042969 -389.473175
-356.570038 873.869751 -35.328472
-387.195251 844.182678 -383.567413
-354.975403 891.429321 -67.273590
-296.290009 983.939026 -177.610443
-341.356873 880.885010 -119.842957
-365.621063 928.098694 -342.789398
-457.994934 767.108276 -200.757019
-477.897430 672.121948 -97.279755
-341.017548 867.053772 -6.339036
-355.566589 849.068115 -9.645782
-362.507721 881.653748 -191.653778
-506.615173 656.143127 -205.861618
-452.740143 817.176453 -303.455292
-423.960693 755.297668 -72.475365
-442.675232 752.405273 -193.285110
-397.446808 784.929382 -50.213657
-370.965454 818.730530 -43.152763
-500.741241 768.843750 -321.705627
-280.495422 959.897888 -12.727500
-326.650421 988.215820 -200.659882
-482.508331 751.946960 -278.002625
-281.455566 1010.410706 -96.306961
-326.977875 930.191406 -67.383224
-435.617218 855.408325 -291.189087
-380.879700 879.888306 -176.722855
-436.009766 726.304138 -72.050568
-424.095795 836.271545 -237.504776
-314.581329 1022.260010 -243.108902
-269.693756 1011.071167 -110.687393
-472.963409 714.553528 -103.323174
-402.914825 753.970093 -94.559906
-390.644745 847.245972 -375.928680
-352.484009 939.004028 -178.597763
-519.214661 633.327820 -111.793358
-369.537018 926.028503 -207.099915
-492.537750 745.459778 -312.594757
-405.009430 854.268066 -209.306656
-391.351898 890.994385 -207.603607
-478.233124 660.394043 -62.625198
-300.102692 1025.846802 -180.909760
-502.441132 724.664001 -307.583466
-383.667053 984.417480 -334.553741
-341.136932 927.601013 -135.530045
-454.390045 797.363159 -213.184906
-331.455963 969.784607 -150.319901
-314.649994 1028.294312 -246.266281
-399.838165 847.757141 -164.043274
-458.525024 761.294678 -239.359894
-502.492126 703.418579 -246.136749
-387.521057 862.913025 -232.688156
-413.716064 904.344238 -316.921783
-480.588531 784.283386 -321.844147
-304.076874 1004.314514 -127.485489
-419.014862 848.244385 -209.803085
-470.618469 779.083130 -221.010605
-563.190857 663.307007 -349.558868
-457.372192 803.789185 -250.248993
-427.549164 815.953613 -269.339050
-401.859802 837.830200 -150.300598
-562.759460 758.264587 -365.949097
-473.369843 732.822205 -236.674927
-454.918152 734.639709 -143.651932
-358.217377 833.967529 -58.944271
-526.350647 664.393311 -319.339264
-402.374237 874.913147 -377.301392
-415.275757 839.142944 -230.471420
-478.766541 719.446777 -172.932755
-517.228577 651.906677 -116.687256
-293.356873 1014.215515 -176.000397
-474.854126 785.793701 -251.827744
-354.873566 922.809875 -148.750229
-450.961304 800.946045 -260.252258
-521.219727 721.564758 -300.318970
-397.436646 935.934753 -335.365143
-435.073547 840.060059 -288.179779
-312.985199 907.279053 8.686081
-379.722534 927.267212 -243.074249
-472.316559 737.601990 -141.043457
-405.103058 860.974182 -174.825577
-536.041199 665.601990 -226.709946
-421.967804 844.000549 -210.704712
-301.078339 952.491089 -84.667778
-309.698242 1011.196106 -193.152817
-359.717804 896.127747 -91.730652
-403.628723 838.260437 -179.411682
-316.489044 901.798584 -28.893320
-411.613586 923.634521 -320.831818
-343.865204 885.766479 -45.817196
-382.661438 863.150391 -381.625214
-409.375610 772.683472 -63.278721
-434.846649 694.741943 -41.298035
-356.408081 914.858215 -371.210968
-248.890961 985.999512 16.581446
-277.874115 1016.024170 -90.655342
-426.356567 919.806152 -320.935730
-396.943024 781.489929 -120.209869
-290.710968 1000.786438 -129.859879
-425.241516 803.173218 -123.097565
-403.190033 979.185303 -314.645508
-312.360016 1022.644531 -203.181076
-522.906555 650.912354 -146.924042
-371.405151 1059.452026 -303.938507
-269.003845 984.525452 15.832691
-436.739014 700.163391 -109.366943
-439.207672 897.947693 -309.466797
-501.263641 723.563904 -265.849030
-508.209351 682.863708 -216.803207
-391.810730 868.515259 -145.695694
-419.793488 800.000549 -102.480133
-409.913330 882.075256 -251.314240
-330.246490 944.539734 -126.439552
-429.698914 803.286987 -139.366364
-366.326874 921.032227 -164.661911
-377.901367 915.357544 -255.008408
-510.341309 683.865479 -277.643524
-475.179840 701.097961 -83.472252
-313.447083 976.819519 -223.552826
-533.309326 646.478455 -162.699081
-402.234741 879.018127 -196.702499
-516.542603 610.587463 -84.087379
-512.094727 677.815002 -146.317520
-494.130890 633.246277 -81.835205
-425.304565 790.270752 -88.164360
-400.917114 806.531616 -84.754639
-407.658020 848.928345 -369.814056
-338.942352 908.985840 -120.723778
-421.973450 743.311096 -47.258038
-466.890869 712.206970 -137.446640
-366.549927 955.458252 -355.240967
-430.038391 725.440247 -50.805401
-303.431702 1011.736816 -168.996429
-550.508423 783.936951 -365.951111
-419.377380 832.946777 -229.185059
-343.470581 992.687866 -237.571548
-510.598358 640.873291 -180.028778
-458.927948 847.197449 -351.304260
-483.901398 744.063721 -269.199432
-433.364441 886.185364 -316.596680
-340.604065 893.104065 -32.617779
-270.659821 984.703674 -118.975334
-327.840271 943.330261 -133.402145
-398.367920 867.047607 -188.262741
-512.879272 646.044434 -149.369644
-308.346344 962.773193 -66.234459
-389.185944 805.894714 -26.334835
-351.698395 975.937805 -268.543945
-396.531464 952.664490 -305.112671
-437.076263 798.146118 -188.140686
-524.679321 704.640076 -273.812286
-496.813690 652.416626 -116.989243
-479.372101 712.081665 -209.882629
-457.134949 782.677002 -281.015503
-441.318115 769.026611 -164.926361
-422.844086 847.704346 -221.792831
-249.896072 1018.937378 -36.185738
-381.322357 787.718750 -28.481325
-465.157166 707.083740 -115.306671
-448.424561 876.562866 -355.022430
-273.723755 1053.292236 -234.116440
-459.944672 672.144043 -102.910904
-406.559113 945.272705 -300.805969
-482.340057 731.899902 -181.476624
-525.016785 629.889587 -104.035294
-388.791473 818.007507 -18.057806
-464.355438 688.364807 -38.987118
-354.681580 874.700745 -24.694431
-372.693024 972.137207 -340.868561
-277.171722 992.717163 -54.742794
-482.779144 767.518188 -261.245056
-465.939819 691.491211 -96.256233
-377.663696 830.499023 -68.315941
-521.531128 634.682068 -101.306793
-392.293396 857.837158 -130.432297
-334.717957 904.082458 -138.198532
-377.090851 824.950562 -21.841436
-462.843536 703.600952 -89.348419
-275.692413 969.418030 -83.806091
-298.494904 948.811523 -69.527206
-473.785431 783.126526 -264.382629
-527.427612 696.696960 -264.597382
-492.323608 645.072327 -88.039680
-452.837402 828.187622 -290.090668
-286.754547 985.532654 -67.411705
-423.126373 866.666626 -241.896957
-521.137573 625.912048 -154.279129
-415.791595 856.336548 -225.691254
-336.663513 881.119446 -5.065049
-391.884888 941.097595 -289.734894
-443.894562 717.918152 -128.566696
-327.439728 999.565735 -199.634995
-327.086487 1004.927917 -227.883240
-333.991730 901.217773 -71.438942
-327.647339 951.260193 -106.590134
-315.653137 1019.544922 -250.082428
-457.974121 725.016296 -77.295921
-506.133545 811.036011 -358.356537
-525.851563 593.377258 -78.638046
-453.937286 773.884888 -209.088104
-326.091125 994.132385 -227.045929
-441.719238 841.377930 -271.730957
-284.030975 1012.977173 -113.951057
-512.890259 637.732971 -87.942818
-480.454620 771.048279 -309.269897
-534.529602 662.155212 -271.165558
-322.305359 1008.519653 -233.556229
-536.117798 614.186646 -140.115097
-327.281281 884.703552 -8.128128
-435.075531 881.664978 -352.937592
-375.077728 849.148193 -113.716675
-358.514740 840.567566 -20.175674
-484.117706 678.305298 -111.671509
-395.369476 818.779053 -171.174683
-337.848877 914.020813 -58.783070
-439.423492 879.610596 -326.569977
-520.735168 670.831238 -221.267212
-524.225891 666.014038 -234.506210
-257.534027 997.728210 -97.352310
-432.380524 889.796875 -349.079102
-329.224731 910.334961 -44.231014
-423.727020 785.853333 -139.374664
-501.550598 645.679565 -110.120064
-386.284760 991.530701 -324.273071
-530.132141 588.927979 -116.226410
-407.476837 828.845276 -130.102112
-539.158325 678.669861 -304.654968
-525.550110 691.228638 -290.393768
-317.873383 974.366821 -162.799774
-292.508728 1037.560303 -188.100266
-361.899902 929.903870 -221.479828
-371.921356 842.867004 -54.950336
-499.496277 707.678101 -244.216232
-381.806427 1009.595886 -324.783081
-528.325928 712.013123 -332.440979
-363.707916 989.799561 -331.221741
-370.430298 937.833496 -239.473572
-472.076141 731.335815 -131.203247
-554.592590 687.247009 -332.361969
-493.818085 673.984436 -109.866272
-277.059967 949.006226 -34.393688
-414.620300 815.715576 -127.634064
-504.438293 731.961182 -323.978424
-452.856354 823.363281 -274.944305
-308.298004 1029.278931 -223.672775
-313.828461 913.078857 -73.200180
-494.161499 703.507690 -209.108047
-301.481049 972.032837 -75.919022
-380.994263 871.825317 -119.589912
-454.891785 799.322205 -282.313354
-350.828003 827.709412 -31.256805
-440.622833 725.326660 -58.742680
-426.518188 821.054382 -206.844772
-354.224915 862.574829 -40.360023
-454.131287 796.431885 -220.198990
-490.883575 728.664673 -205.148773
-273.527405 1013.465576 -72.006950
-364.231354 953.977112 -239.233765
-408.778107 877.876709 -354.240662
-487.678314 680.591858 -86.130966
-496.155182 745.097656 -314.455200
-484.921814 641.956116 -135.205536
-350.121887 985.420288 -277.449554
-406.656769 793.090759 -100.619637
-286.521820 932.583740 7.449553
-427.055878 746.361694 -108.309738
-328.056030 966.437317 -158.947067
-338.098846 908.908203 -362.646088
-542.978149 683.835938 -322.206177
-333.078125 1016.808289 -262.801849
-313.779999 997.222656 -253.655365
-381.072540 881.368896 -178.684570
-458.813934 825.101379 -381.575531
-498.490967 704.216125 -233.125977
-321.442657 921.997314 -71.850533
-349.205719 924.753052 -186.376129
-522.551208 673.192078 -208.979706
-313.526764 955.804382 -175.579361
-328.489716 1004.340820 -239.011963
-356.874084 877.722290 -44.748051
-388.500183 853.824402 -156.704117
-274.962097 968.334900 -12.987082
-440.921143 832.146790 -254.006302
-309.937134 983.483276 -123.107971
-493.275299 742.261658 -248.499451
-386.761597 963.850769 -317.789734
-417.454681 903.945374 -352.928406
-363.383301 912.372009 -360.840759
-476.277313 727.096130 -201.879074
-504.649017 690.550415 -164.724747
-373.284332 928.187317 -358.388672
-388.390167 925.927856 -351.029724
-312.202911 961.457764 -182.898849
-352.536346 858.515076 -49.573200
-364.165314 982.352539 -282.215302
-463.419281 733.836792 -110.229637
-531.068604 675.869446 -233.088089
-382.917969 798.213867 -23.311819
-347.547729 940.740112 -187.357513
-408.478882 842.191284 -371.551819
-383.267273 917.649475 -241.444702
-497.117188 634.754272 -59.210686
-506.067596 618.270996 -72.440941
-323.734894 939.363586 -114.709679
-480.486694 824.838379 -321.975861
-413.800659 785.856689 -58.853436
-454.507904 732.963745 -114.689590
-405.321869 867.567566 -266.463043
-405.701630 810.446228 -126.478928
-395.436615 858.563110 -382.426086
-265.485443 991.123413 -100.880501
-405.071472 846.591248 -378.334625
-301.022461 922.986572 -36.119991
-440.160858 823.015686 -369.396942
-368.183350 923.171021 -357.764740
-296.085999 986.307129 -92.998703
-313.637085 990.065430 -144.152634
-389.722443 818.491028 -61.619301
-479.635254 732.820496 -201.798065
-353.766693 947.861389 -192.128067
-329.367950 880.010681 -34.392452
-303.990021 950.319397 -24.252546
-487.440247 822.678894 -367.057190
-439.645111 865.390686 -323.612610
-283.107239 1002.455200 -136.549271
-376.114288 946.209595 -251.023727
-427.064117 741.623718 -50.709999
-398.599731 805.473572 -43.208988
-530.800171 686.717896 -290.008026
-259.189117 1015.199036 -40.110416
-436.327911 780.615479 -172.684860
-391.523590 823.833862 -59.548958
-405.491699 874.342163 -256.733215
-385.836029 868.639954 -169.467041
-437.839081 756.889343 -145.173004
-406.823608 785.297974 -138.234726
-282.957153 1039.253540 -144.586090
-512.621094 616.038330 -116.651848
-560.021667 657.053528 -287.542725
-515.495422 653.386108 -174.904449
-393.636292 797.179443 -40.812447
-384.257629 817.685425 -53.000046
-436.019806 824.176331 -206.485443
-422.063385 901.408203 -293.667755
-488.048523 825.468262 -375.888702
