ply
format ascii 1.0
element vertex 1375
property float x
property float y
property float z
end_header
-684.135254 -706.672058 431.647827
-676.707520 -590.659485 82.886879
-798.006958 -602.319275 242.153473
-500.774811 -621.052429 -30.348351
-829.531555 -583.757629 111.532784
-858.914673 -550.061584 204.121841
-574.164551 -601.405334 5.994668
-593.244995 -678.353882 257.091614
-618.003723 -716.214905 419.676361
-605.041138 -658.492798 176.943756
-753.381165 -685.615967 429.977814
-763.909546 -548.275452 59.576584
-548.808350 -661.121216 113.601601
-749.785522 -651.833984 315.529968
-653.928162 -653.117859 312.919922
-832.767639 -663.822021 390.780060
-838.379333 -573.594971 185.647980
-686.668396 -639.545593 211.011063
-559.747375 -675.723511 237.337845
-760.883362 -582.261658 157.855545
-584.073425 -670.319946 248.888611
-841.173523 -564.986267 207.634613
-690.902771 -668.520325 409.909668
-770.046204 -526.912415 15.102300
-805.804077 -591.654236 164.204956
-708.976196 -658.080994 280.580902
-832.637085 -577.876709 115.734756
-643.069702 -577.545105 64.396042
-672.199768 -578.517273 16.087294
-743.827759 -599.180542 143.955429
-672.238464 -577.978638 38.297028
-854.273743 -518.914612 163.695969
-581.937805 -727.316467 403.827271
-604.135315 -645.109009 168.358383
-546.340088 -698.450867 235.399353
-807.555359 -592.424561 216.305878
-536.773682 -699.299744 284.967285
-607.594482 -703.774963 334.670105
-761.772156 -582.572021 111.840584
-591.856140 -676.270996 247.664352
-739.548035 -694.967957 438.349487
-756.647827 -605.200073 210.747482
-579.729614 -623.237122 70.198456
-566.569885 -659.594604 144.406250
-840.138428 -570.848206 193.371872
-858.296143 -618.413391 315.352692
-676.730286 -597.776001 67.560791
-549.045105 -651.982910 85.454918
-745.942688 -667.698059 378.380341
-522.420776 -654.055359 136.780212
-666.613281 -549.213989 -40.037640
-679.615479 -592.653809 97.602455
-626.266113 -708.417725 377.770966
-543.839966 -715.764099 317.544037
-559.558411 -720.432922 345.506866
-538.652039 -672.888184 185.695602
-768.590393 -558.243774 110.479996
-728.530029 -666.780151 342.876495
-608.915649 -674.673096 233.229431
-878.433960 -653.751953 320.530823
-519.103333 -663.495911 190.197739
-723.062500 -655.479187 288.955627
-719.412903 -545.742310 -25.502968
-784.169434 -546.409302 7.214635
-705.124756 -577.563965 15.338848
-854.144409 -593.811584 250.091721
-532.930969 -640.666016 145.567261
-623.815735 -711.601807 392.034821
-848.891541 -595.451721 279.129089
-668.043396 -655.370300 271.797424
-630.041138 -668.317017 282.674561
-582.380859 -739.004944 426.738129
-724.448303 -575.847534 74.437920
-645.824341 -657.487244 243.560715
-839.497559 -619.022522 262.598907
-804.138855 -603.560059 190.292557
-661.234619 -669.263306 279.085785
-712.777344 -588.335938 118.858475
-559.558533 -718.840698 347.799133
-846.542542 -580.958496 60.416073
-756.609619 -644.492004 327.604065
-695.481323 -581.832092 102.145226
-769.670349 -681.743042 430.079468
-707.317322 -682.903137 435.631378
-677.038147 -616.728210 148.272522
-762.914307 -643.317566 290.603424
-828.990417 -577.569397 199.841568
-595.352661 -726.754150 397.595947
-774.210205 -565.597900 115.192711
-546.105286 -632.791870 94.622246
-742.360535 -664.826843 371.895020
-847.551941 -590.804138 278.294983
-543.566528 -620.291199 44.486897
-511.442078 -623.427307 1.187668
-786.739319 -634.570190 320.468628
-788.425842 -589.901001 159.630264
-571.081055 -627.385132 89.536469
-770.653931 -672.873962 420.143402
-584.509094 -695.740601 296.679230
-547.609009 -746.126709 418.699127
-730.906555 -621.643738 247.633591
-770.227539 -690.240356 452.999207
-722.444580 -697.409546 431.816101
-695.634399 -646.985291 228.583359
-755.216187 -637.111084 367.094910
-641.743835 -675.347900 287.995850
-785.498108 -652.710205 367.712128
-854.406372 -511.888519 211.135345
-643.294556 -660.285156 246.279663
-838.574585 -673.529053 436.331848
-826.157837 -600.828430 189.576416
-608.501343 -691.569580 333.790131
-593.186523 -602.848938 42.910858
-601.309082 -650.030640 141.125366
-708.920471 -551.730225 -7.017369
-851.947510 -517.607422 146.859283
-841.863892 -584.568420 88.299637
-607.479431 -629.035522 90.249535
-769.421936 -664.229187 392.737610
-746.583679 -552.766235 46.060535
-757.888855 -620.689514 227.487320
-566.527283 -650.480103 153.682159
-853.798157 -559.739624 124.829285
-661.051636 -619.039795 161.287949
-584.921509 -734.901917 424.140839
-822.757751 -570.958130 171.426636
-555.059387 -698.413574 290.819977
-654.624329 -592.039917 66.871246
-758.742798 -666.282104 360.946320
-507.246552 -604.763855 -48.222687
-717.010315 -585.577087 100.866379
-736.155762 -576.838135 68.906410
-744.870789 -655.846985 345.024323
-573.549377 -689.334106 247.600296
-596.788879 -652.424500 151.330933
-656.277771 -602.638611 149.955048
-641.731567 -574.822571 -34.162109
-863.598450 -609.710999 290.969788
-840.673645 -569.552185 199.877686
-776.512573 -528.089294 -17.674461
-699.759155 -610.616272 159.734543
-686.273010 -622.518494 173.783356
-661.342407 -588.076904 62.258514
-523.145142 -621.253235 -34.706310
-765.565247 -547.439819 70.403633
-585.243103 -645.418457 187.377640
-740.806763 -638.001587 295.420593
-552.730164 -725.591858 367.672546
-812.269836 -554.705627 -3.648446
-850.570129 -524.105408 200.298386
-555.511414 -728.156494 435.768005
-847.800293 -594.953369 208.619202
-745.835022 -660.271790 350.707672
-843.462341 -605.552246 264.741425
-775.000488 -601.877747 228.233994
-592.132690 -658.839478 201.231537
-768.028442 -612.147705 245.713669
-614.721497 -687.123901 324.291321
-863.854614 -547.418579 248.733002
-854.739990 -642.472961 332.834869
-605.690369 -720.331482 438.606842
-668.769714 -665.077393 289.855316
-649.083496 -679.776733 318.397186
-553.352112 -690.301514 340.164368
-626.501221 -597.709534 3.247048
-641.748230 -675.585388 296.116577
-584.205505 -664.067932 175.660141
-769.041504 -597.497131 241.483017
-635.552368 -648.589172 177.819168
-544.547119 -729.948120 336.850006
-749.022827 -593.083862 167.470352
-726.403503 -549.111450 -14.180001
-547.997681 -673.959351 196.611023
-645.995300 -640.191711 206.509460
-536.301758 -668.859314 127.987045
-851.581116 -557.410400 113.640427
-762.707214 -621.492859 216.360413
-543.594055 -648.525940 85.225182
-662.010315 -583.131653 21.252930
-703.748413 -617.666199 201.309753
-557.875427 -692.838989 304.686951
-788.821899 -681.352905 428.966339
-796.229370 -636.851501 316.625824
-567.530457 -623.626221 73.762886
-660.690002 -577.888672 -31.624428
-725.699646 -555.654602 -40.540939
-794.141602 -577.727661 179.092392
-745.448120 -677.486206 427.781128
-803.043640 -656.396423 379.478821
-700.473022 -680.340393 395.351013
-684.084351 -663.165161 270.693848
-639.657837 -690.851013 324.874725
-814.590088 -631.763855 335.422791
-558.324768 -683.082336 259.877289
-867.385376 -554.496399 279.610443
-594.994507 -684.491943 293.130066
-579.897888 -700.350037 296.379761
-756.880127 -629.531555 276.903870
-735.493347 -523.493774 -46.175758
-868.363586 -653.239807 319.783203
-739.950378 -551.703003 31.595417
-632.721313 -720.643921 423.139618
-735.870667 -541.699585 -29.142530
-806.607483 -626.003174 287.466309
-831.339783 -669.415283 405.742981
-727.314453 -599.127014 164.169479
-792.497314 -641.743652 314.336121
-829.946228 -577.693542 229.511826
-664.723022 -658.015503 244.303879
-544.486877 -720.623230 309.497864
-622.546875 -667.230835 280.261108
-642.498718 -662.157349 259.440399
-581.428284 -602.563049 -51.378933
-680.710510 -604.681885 81.195717
-839.773804 -592.582153 214.643921
-536.774170 -678.758423 201.437088
-727.977356 -689.409790 402.438965
-644.260437 -663.274475 237.108047
-540.931335 -708.536987 318.194092
-565.905273 -644.655457 151.755844
-676.238037 -644.016296 211.006927
-769.091797 -535.390564 25.043003
-606.119141 -628.096436 156.508255
-646.031677 -598.478088 124.028435
-849.946777 -571.264221 250.897079
-654.499023 -682.812012 333.803955
-705.826843 -678.976440 385.847351
-836.666443 -588.696411 221.591248
-569.498779 -711.985718 396.949493
-564.099854 -681.250793 213.708282
-609.953430 -673.514771 225.681015
-733.714172 -646.775146 287.165131
-790.662598 -616.773560 268.779785
-747.661804 -572.352234 102.158760
-713.882385 -684.794312 384.856720
-675.402954 -670.105347 317.175446
-641.753418 -579.624817 21.524469
-574.261230 -658.996765 190.249954
-837.711975 -528.441101 149.066162
-572.707825 -614.611206 9.781456
-704.448181 -658.010864 327.102600
-625.936279 -589.238403 28.138750
-659.160950 -641.707336 233.769958
-693.066345 -644.610657 260.913300
-847.400635 -501.548309 194.256775
-570.208374 -647.139099 152.010406
-847.884399 -562.331726 123.598389
-642.839905 -624.440430 104.596329
-648.630188 -606.695068 101.777405
-774.066711 -531.412903 -18.987265
-609.260010 -712.754272 357.620544
-684.986816 -581.859131 68.037407
-651.988892 -645.843445 287.724854
-855.375916 -603.139282 281.044037
-820.996704 -565.436829 134.984940
-568.574158 -708.700439 382.230835
-749.183838 -529.997681 22.403889
-574.524719 -645.228516 155.080292
-526.745178 -709.301392 336.112579
-689.244873 -575.409302 52.892029
-722.343750 -650.871704 287.581024
-627.844055 -698.939331 359.986633
-761.151123 -594.607727 148.711990
-650.306580 -681.251160 339.035522
-598.983704 -592.044189 15.344242
-676.466858 -557.750549 -9.430597
-774.513794 -640.237671 329.701447
-767.876404 -636.349609 315.400391
-693.265930 -693.945557 395.937592
-735.932495 -540.257324 -26.607094
-620.166138 -669.768921 319.699158
-704.180176 -562.635559 -44.454472
-639.871643 -707.747864 399.363403
-851.207275 -570.788513 200.136795
-731.345398 -620.556519 195.857925
-643.506897 -654.626953 247.370956
-805.735657 -579.260986 168.655746
-752.699646 -680.290527 409.464417
-861.497253 -706.233826 461.777893
-627.129395 -649.997131 227.345245
-530.963684 -639.998962 39.110161
-660.357422 -583.304993 -0.788531
-628.500183 -609.695923 123.381470
-637.129700 -691.996582 323.080719
-653.229736 -716.531982 431.702057
-858.000427 -539.570129 248.554077
-744.788208 -652.152039 322.966827
-678.973572 -703.559570 425.019043
-535.145508 -681.945313 217.677872
-678.592773 -643.702026 244.109619
-557.070313 -698.840576 287.961823
-848.058533 -529.036865 151.574478
-852.260132 -583.566589 240.645691
-593.614746 -622.519592 132.102600
-745.930786 -682.482117 418.029968
-670.737793 -579.477173 -19.651806
-569.022095 -608.748718 -24.547451
-652.386047 -590.992188 11.873888
-632.182922 -599.115295 17.294739
-598.873962 -653.147034 201.377090
-560.057617 -720.763916 372.784882
-627.713623 -716.769104 416.441742
-1144.179199 -453.656982 -81.829933
-619.287292 -672.741577 238.508942
-630.840393 -712.453857 392.090088
-679.714172 -605.051147 118.362709
-694.431641 -702.042542 440.533386
-598.412292 -706.690491 337.489441
-839.252991 -585.127869 215.871094
-564.175171 -721.240723 422.314514
-848.457947 -620.106384 221.716797
-765.052734 -547.277283 -3.213920
-854.895264 -645.271545 344.312317
-574.518066 -725.601746 446.774628
-652.048035 -610.180786 76.055611
-768.175659 -647.651550 317.886597
-593.543945 -703.667603 357.839508
-767.027771 -634.128540 286.451691
-558.486389 -705.218750 291.706390
-854.917480 -597.843262 272.698242
-524.945618 -603.029663 -21.795515
-619.677917 -610.559937 141.431046
-587.783936 -632.109131 78.721634
-712.071167 -594.562500 98.324188
-581.471680 -629.833496 103.224091
-855.990601 -563.726685 257.840759
-538.529358 -584.236572 -43.104889
-835.629822 -670.067078 424.574951
-766.168335 -682.405029 421.195587
-863.411438 -594.354980 287.475006
-781.476196 -591.893738 169.256348
-584.770386 -688.808594 374.521576
-627.707336 -571.351624 14.183624
-631.779602 -635.310364 128.630890
-570.697632 -678.379395 303.847382
-774.327576 -540.514465 34.761822
-849.657349 -552.516724 205.247253
-646.124268 -555.566223 -45.944569
-740.656067 -595.270630 157.700073
-797.298706 -611.137146 230.161026
-822.601318 -586.511597 117.030014
-845.147766 -524.167297 169.337585
-859.100098 -551.339722 258.252716
-531.705200 -671.286621 191.879974
-709.210510 -577.503174 17.398909
-600.704407 -640.681519 120.775330
-860.244873 -657.339478 384.578003
-547.800537 -701.553406 281.308289
-563.861633 -608.521912 30.334087
-649.925598 -545.881958 -36.061817
-596.358154 -620.105103 98.212639
-686.869507 -687.329712 365.959717
-559.757202 -649.501465 154.917267
-799.659607 -636.484985 294.518311
-628.117188 -655.099243 192.992508
-683.598022 -571.431885 -11.314770
-859.024963 -543.505005 235.813660
-640.186768 -671.529053 252.449036
-560.518616 -706.006470 289.566681
-752.269653 -611.708374 184.376312
-558.199402 -696.852783 316.436951
-554.443787 -692.036560 267.996765
-633.004517 -679.541992 301.747253
-554.516174 -653.287720 189.529938
-657.519531 -658.602783 243.621552
-506.973114 -639.956665 109.920219
-575.593079 -578.316101 -37.650784
-831.437927 -631.631653 273.595520
-616.264465 -730.408508 432.992004
-583.628357 -711.629639 338.992371
-734.925110 -659.076294 386.873383
-759.071106 -557.938904 79.620697
-691.105652 -691.864502 401.038086
-680.453369 -565.605408 16.533369
-673.724365 -657.581177 284.650146
-662.979797 -570.147766 35.613632
-720.565918 -636.930237 221.057663
-852.096924 -518.172791 219.370163
-609.564209 -686.936951 279.489288
-694.457947 -648.199402 255.089111
-567.833069 -637.152771 107.262321
-692.340820 -545.661560 -3.590287
-541.929382 -618.323975 61.425808
-669.848267 -609.774841 85.804909
-855.249512 -549.022278 233.332901
-580.200500 -717.245422 352.170654
-529.332703 -665.067200 115.747627
-856.083557 -556.436584 90.140167
-660.707581 -665.420044 294.924011
-572.952332 -701.674255 304.205505
-851.595398 -576.802002 222.365555
-845.811768 -502.293640 226.499619
-723.989685 -623.144714 186.576904
-549.322754 -738.537415 449.650177
-625.211487 -707.318176 434.317261
-675.670654 -595.207092 88.288879
-861.300049 -592.326538 298.052032
-861.735107 -554.322693 255.631790
-619.501648 -636.833801 158.919327
-833.650757 -566.408630 143.802383
-645.883789 -633.344360 174.452011
-802.359863 -586.002686 200.907776
-782.869812 -554.891785 80.146202
-800.268005 -614.478088 243.084045
-677.262329 -588.312866 79.105103
-736.951111 -663.498657 355.935028
-746.816223 -558.181641 84.622444
-600.813171 -716.985657 406.941071
-715.754150 -648.736206 274.922028
-754.625427 -670.062073 399.144531
-871.490540 -596.583008 294.009796
-768.273804 -651.606934 339.008209
-857.294495 -608.174011 231.924011
-702.056519 -567.133118 57.864216
-578.001892 -673.921509 205.041000
-573.148132 -625.510620 78.168022
-832.414246 -580.363831 92.986626
-582.370911 -681.324890 286.959656
-686.020935 -560.474487 31.738956
-670.879089 -622.024353 175.212265
-633.413757 -641.728149 145.385498
-843.676575 -522.617615 107.832169
-658.702576 -587.894226 57.440121
-727.682922 -678.017273 388.543976
-562.515381 -617.018005 105.591637
-669.039795 -608.071655 116.688171
-616.494751 -598.221558 80.607872
-659.973938 -708.745850 408.713837
-563.872131 -692.955078 314.237885
-756.994202 -624.956238 244.530807
-595.794006 -687.226379 290.239868
-542.555237 -685.688232 247.694000
-705.154602 -657.502258 274.460693
-599.628540 -628.151611 125.242851
-643.771912 -557.087219 -18.234755
-847.218445 -572.165710 277.406708
-581.380737 -689.115417 280.870575
-640.450623 -596.278198 111.468834
-616.268433 -597.449219 -0.975931
-601.595520 -605.379822 53.678726
-748.038574 -613.290161 192.324097
-684.623657 -625.023010 179.404846
-849.666992 -550.496521 166.727463
-638.361450 -570.876587 -17.705952
-604.736389 -650.820740 188.781052
-573.796387 -615.933777 86.138344
-535.258789 -719.620361 368.034698
-766.982727 -672.197266 416.422943
-506.939209 -630.689209 31.057480
-822.187561 -585.458801 111.762665
-606.401184 -736.231812 430.250610
-841.594971 -550.867615 123.669380
-624.321350 -690.366577 314.272919
-841.199219 -595.225098 231.527847
-841.291077 -588.459900 71.152908
-630.367188 -657.886536 214.134003
-586.153381 -592.764648 -6.004514
-620.601563 -586.570313 21.225224
-564.816772 -718.843445 364.837433
-571.242859 -722.760315 414.716736
-838.326538 -494.728882 155.857468
-727.438049 -624.782166 238.772781
-767.086731 -583.060974 116.687668
-560.638550 -678.979065 259.494934
-736.136047 -586.539124 127.849342
-663.556396 -693.124756 399.617126
-859.236877 -560.000305 241.973648
-592.418823 -615.358948 74.908257
-663.827759 -619.223328 110.492386
-843.960815 -598.784241 275.022339
-832.657043 -646.034119 375.961639
-878.107361 -663.977417 338.498260
-650.926941 -613.968140 86.745079
-860.046387 -657.780273 365.521729
-737.862671 -547.163513 47.985123
-559.223877 -682.753235 213.423996
-758.145081 -645.266418 301.006042
-701.517090 -633.305542 216.423874
-752.897888 -537.840759 -46.568680
-606.942200 -639.381592 112.481468
-604.488708 -672.094238 218.282822
-690.846069 -603.906616 142.413940
-570.898315 -680.289917 271.844818
-859.315674 -563.209106 285.623260
-552.706604 -641.746094 112.174057
-552.371643 -738.344482 404.305450
-530.692688 -692.663879 214.844055
-659.176758 -642.244629 222.038040
-693.499573 -573.106873 -4.067410
-539.009888 -746.629272 393.799286
-689.912720 -686.399048 428.033997
-665.642639 -600.775452 66.042488
-661.725220 -558.988037 -25.023481
-640.493042 -596.795410 82.937103
-631.469971 -678.468811 294.787048
-599.974670 -611.576538 15.613717
-742.643738 -678.733154 384.578003
-752.118164 -598.836182 152.908051
-618.908875 -638.930481 164.029144
-661.222900 -690.376404 385.193115
-614.595520 -710.809814 437.803925
-745.857483 -667.077820 406.527771
-742.693909 -559.613953 90.985085
-589.098328 -696.139404 321.369385
-762.184692 -514.012146 -24.761267
-747.185425 -524.152283 -5.117519
-707.274902 -691.293396 419.187012
-694.951294 -640.422791 242.364029
-654.731018 -660.141907 238.171356
-839.182373 -545.812012 210.816940
-618.197021 -604.019409 112.450455
-758.916626 -636.175903 300.778473
-720.907166 -680.788147 379.738342
-586.215027 -669.456848 190.150085
-587.561523 -618.395203 72.699028
-539.376770 -717.024109 358.018860
-862.126648 -562.673462 267.821960
-593.730286 -599.318481 -27.949020
-532.730469 -711.903503 315.772583
-680.860291 -561.407104 3.370985
-674.999084 -684.748474 359.174683
-594.941345 -595.667053 -43.531387
-650.575745 -605.394775 64.517052
-736.275208 -575.033936 64.028946
-746.007996 -549.684143 -20.556870
-734.125854 -593.766357 135.302734
-642.343262 -650.537415 218.887222
-700.415405 -587.516418 124.203117
-826.838135 -670.368469 434.826569
-518.578369 -625.277588 26.749069
-710.877502 -661.641663 363.394501
-573.117981 -653.260376 167.726730
-855.760437 -613.268982 345.139404
-520.162109 -677.880798 175.329361
-843.272095 -553.495605 141.637894
-559.111694 -693.259705 258.565063
-817.917542 -575.244934 136.615448
-667.625671 -643.768738 233.202789
-571.379089 -589.274841 -11.551544
-545.125427 -634.179138 23.856907
-537.747253 -717.259644 322.053284
-535.827942 -589.353699 -29.269838
-588.228027 -700.473999 292.240997
-653.491455 -620.470398 160.971085
-651.595215 -585.920715 16.745279
-564.651978 -696.353699 338.265961
-617.975037 -636.370544 154.457687
-637.623352 -672.078796 281.283569
-815.434753 -588.172791 160.463196
-852.347961 -622.614990 305.076996
-548.236206 -700.568787 301.161133
-562.639282 -616.544128 40.541195
-773.029114 -615.856873 227.805923
-793.566345 -624.750061 254.966736
-836.091736 -553.159180 123.616402
-686.943481 -595.580322 102.289673
-819.847290 -617.705139 260.860718
-729.737488 -658.373901 326.655212
-570.676636 -686.798828 236.912766
-534.236145 -739.294800 373.783936
-566.833740 -708.229065 333.533417
-611.765381 -702.433777 402.408356
-885.291199 -692.295776 384.970978
-682.077515 -595.619995 69.182922
-676.573792 -623.655090 185.379822
-558.864258 -736.910095 399.685333
-661.495605 -691.677124 386.821655
-846.332886 -650.837036 393.579865
-739.680786 -681.072998 384.661346
-766.988342 -611.684021 232.139694
-531.448792 -691.510437 246.749771
-739.776428 -676.568970 401.664490
-672.040649 -590.631592 80.549980
-578.352722 -675.207031 209.817520
-572.867371 -693.004578 306.419312
-732.429199 -652.007446 302.065582
-843.405396 -550.450134 160.159500
-645.181152 -694.205750 403.870941
-689.901733 -661.326233 309.589508
-735.156860 -602.971436 174.445389
-734.225037 -659.402527 343.230316
-539.792908 -602.621826 -30.351343
-626.863525 -582.117737 3.379313
-579.725098 -712.196350 389.929596
-505.934937 -615.193726 -52.236904
-879.523132 -634.948181 305.434265
-784.360962 -540.951538 37.988926
-590.051208 -727.836853 425.804535
-670.832214 -598.920898 50.742245
-576.322510 -715.045471 412.532166
-557.501526 -613.597107 26.523502
-628.380005 -694.852478 344.566803
-600.536499 -570.023376 12.858857
-636.827881 -682.827271 302.861694
-866.994080 -566.445923 286.196777
-671.425537 -691.934143 363.373993
-524.003967 -701.701233 229.082825
-713.208374 -620.634583 162.355621
-523.961670 -618.870911 18.394453
-690.565552 -655.709167 266.980347
-596.359009 -607.350342 32.961731
-534.441772 -682.719727 163.745026
-692.191223 -553.193237 -33.331623
-744.843201 -585.020142 150.410309
-637.591125 -595.629089 41.806648
-752.237732 -618.866211 218.522293
-547.673950 -669.314880 186.958649
-706.382568 -580.053772 109.600266
-799.761597 -614.286133 248.019669
-697.724243 -547.143860 12.007571
-788.716003 -547.007263 9.132364
-863.653809 -626.421692 292.307892
-649.313293 -587.010742 -0.972222
-620.227417 -673.237671 289.174255
-520.112244 -668.139160 156.871292
-597.011230 -682.374756 346.587952
-735.308228 -643.676819 302.586060
-674.348877 -576.615601 65.637993
-674.447266 -704.299011 425.577820
-710.352478 -655.726990 290.513519
-612.338562 -701.960632 348.306152
-623.744080 -660.399414 235.529251
-725.496399 -603.000427 174.305222
-786.281311 -607.553467 221.906357
-510.890381 -620.857849 64.712608
-592.136230 -688.651245 286.871216
-573.148865 -663.971802 180.143936
-573.817017 -649.837158 166.592773
-818.100403 -656.176880 401.489166
-851.282410 -649.040527 302.046631
-643.127991 -692.852783 325.105072
-668.561279 -590.916199 64.082748
-722.475159 -688.855164 414.690338
-715.240051 -651.537781 283.871765
-593.416687 -596.779236 -13.094671
-838.267883 -594.655029 209.564575
-637.302917 -656.889954 242.317383
-634.873535 -654.660339 194.514236
-642.781128 -667.690002 242.090866
-646.284302 -619.884827 194.488113
-686.839172 -563.625122 11.313930
-732.780945 -620.958740 227.999695
-844.678467 -631.394592 287.056061
-852.190308 -538.131042 219.099640
-856.782227 -607.475586 287.825134
-757.919250 -680.572998 410.132874
-629.382263 -713.556702 402.571625
-583.752991 -726.818787 380.702148
-575.410461 -659.263977 197.649628
-776.473511 -612.788513 251.414291
-611.628113 -658.105408 226.771622
-746.596741 -543.913757 -19.974695
-768.913940 -625.969788 278.040619
-843.205627 -548.707764 122.248474
-735.964294 -538.950439 -36.548965
-624.875610 -617.461182 118.480507
-536.578918 -697.737061 245.936203
-526.644226 -712.811584 300.611145
-522.154297 -691.697205 225.406860
-644.094971 -669.348328 257.673157
-846.432007 -585.833496 289.526733
-754.825745 -596.637146 174.355301
-679.832703 -605.564392 98.097183
-572.196167 -683.107788 246.518494
-702.143982 -643.246582 265.598053
-843.568726 -553.221313 257.786652
-565.370483 -707.074341 357.916504
-542.748596 -620.841675 35.949753
-676.539185 -683.308350 356.569244
-755.558289 -587.714233 158.573074
-840.628113 -542.443115 92.197350
-723.942261 -643.571655 293.979004
-717.466003 -630.505554 307.819489
-524.639648 -595.139160 -23.954565
-582.319336 -697.119934 278.992188
-610.391724 -684.556091 366.578552
-590.813843 -687.254272 285.365936
-831.332458 -656.820435 378.075104
-689.656860 -687.514099 368.088867
-600.209290 -589.605530 11.034633
-556.893921 -691.849365 334.342834
-847.048096 -554.268982 260.256622
-636.176636 -567.159912 -22.254749
-768.917114 -606.538208 222.096359
-777.947266 -650.829529 394.612274
-531.342773 -609.632507 -11.984533
-735.765625 -692.309143 428.819519
-841.643311 -589.326843 231.606995
-695.767517 -652.077148 291.645874
-840.391113 -526.560791 223.863525
-556.584900 -641.470276 111.270447
-677.139404 -607.097900 148.201416
-595.931458 -645.919189 176.249649
-761.104370 -669.545837 387.007751
-688.133972 -638.748474 193.412552
-805.477234 -635.294678 340.077179
-821.409729 -633.507507 281.355469
-637.905029 -643.407043 206.853806
-854.596252 -527.654724 245.097092
-568.580322 -623.282898 61.483616
-759.768311 -652.708008 408.563385
-714.093079 -676.448792 346.584290
-571.355530 -667.120056 162.828766
-681.635193 -609.935181 112.557625
-847.288940 -539.433533 220.279037
-738.904968 -578.941101 93.924812
-509.523743 -636.289917 53.543427
-560.975525 -703.971863 338.733032
-725.500916 -574.418823 69.734940
-596.913696 -699.733887 336.092499
-518.511841 -590.757202 -45.794060
-764.159912 -583.026123 176.077179
-688.562317 -601.174622 130.637070
-721.731140 -570.091614 10.469211
-648.253235 -656.771179 216.242386
-842.189514 -641.500854 305.987732
-841.776428 -557.940979 162.355301
-602.278687 -727.398010 403.503937
-730.967773 -621.927307 201.003006
-609.757568 -650.623718 194.028580
-782.203369 -573.428345 170.256454
-521.710571 -628.995972 36.872704
-711.902405 -571.718140 65.825714
-744.669861 -587.336121 108.977524
-740.904419 -586.706909 126.984604
-738.761902 -653.163330 312.840515
-621.248474 -619.898621 121.604965
-807.587830 -577.184387 162.673370
-544.698547 -706.119446 285.213318
-635.121399 -653.035339 192.428329
-694.843933 -617.713379 142.381012
-586.504761 -642.354187 155.827133
-557.235229 -708.872681 327.793091
-568.116577 -614.190613 49.889877
-546.568481 -592.841553 -47.625786
-580.826233 -700.436523 307.372772
-607.961121 -567.265991 -44.440990
-619.535461 -599.322571 -4.369072
-739.947876 -583.802917 116.517868
-712.308655 -661.293762 314.462433
-719.327759 -630.082703 215.147308
-850.949646 -580.432556 198.822311
-817.257446 -585.006348 147.879181
-647.630737 -645.329956 184.273285
-637.729919 -656.130127 197.133224
-646.751648 -700.305054 403.804169
-605.476685 -672.364807 267.128021
-819.489624 -601.515198 215.909119
-829.356812 -653.579529 408.561523
-550.690430 -701.968140 332.076874
-581.697998 -667.322632 228.166641
-843.456238 -512.503174 253.831970
-541.703430 -673.892944 208.784180
-837.625854 -510.844330 120.952637
-697.983521 -626.987732 272.406036
-663.373230 -591.789551 77.362839
-837.949768 -553.026978 112.481499
-668.616943 -664.330261 323.608826
-788.971069 -614.935242 259.447113
-634.051819 -596.982117 56.507656
-778.451538 -614.978882 255.298447
-535.282410 -698.529968 281.047974
-542.791931 -726.316650 359.974274
-631.085571 -705.959656 376.441528
-727.547913 -635.069885 263.193451
-529.252808 -661.140808 112.127113
-628.209106 -642.089233 210.111404
-576.028442 -606.778931 28.277622
-879.699158 -658.436401 318.473480
-867.309753 -546.223633 265.915009
-609.652588 -676.711914 279.606476
-714.222595 -670.348999 366.257568
-568.375183 -648.240845 156.660538
-559.730286 -714.715393 354.122803
-527.755310 -614.626343 1.386610
-663.296387 -668.318054 311.218628
-865.491699 -614.796265 332.692596
-659.653198 -562.895996 -9.110339
-545.398499 -670.181824 204.480316
-623.066162 -611.262634 145.728073
-579.232971 -654.461426 205.520767
-759.007019 -593.064575 218.318222
-719.759094 -561.351196 -14.867872
-594.210999 -701.384277 357.032623
-627.347229 -696.221863 370.885071
-637.712280 -596.883301 24.923744
-576.785034 -580.486267 -32.461597
-526.506226 -709.894104 275.100281
-692.426086 -691.411438 414.190002
-545.879517 -602.374268 24.581299
-542.912842 -626.816162 118.044548
-621.528381 -554.083191 -13.692079
-726.305115 -571.671265 19.670849
-780.410461 -638.514832 328.570160
-669.529846 -612.828125 95.814217
-651.982727 -640.921082 180.313370
-681.323120 -685.891541 387.355255
-862.326965 -560.061707 266.896332
-739.285645 -562.517395 64.990158
-856.427795 -570.581055 72.708778
-797.827087 -665.809265 423.306152
-666.242065 -620.992126 162.774261
-788.867249 -608.071472 218.103546
-851.024170 -512.693848 188.378967
-708.706543 -616.742676 162.253098
-841.431641 -582.128906 230.292206
-591.341248 -638.096924 154.004166
-803.174011 -616.542664 248.052673
-708.062805 -691.906250 390.948273
-607.014709 -691.371155 282.945221
-632.209045 -619.527100 74.406929
-603.618469 -639.412781 155.673752
-743.289124 -561.757019 24.264933
-627.628357 -671.892334 239.424133
-684.218140 -673.433289 349.989532
-560.549744 -697.722107 308.859772
-701.184082 -678.044434 403.405121
-578.494446 -634.357483 111.344261
-723.248779 -624.603394 199.770172
-725.613892 -604.640015 179.312393
-849.228455 -584.638977 264.332855
-805.251282 -635.933533 396.021973
-764.072205 -603.875549 214.559860
-512.544312 -664.065247 95.549553
-601.617981 -728.462463 425.247742
-574.914185 -637.018555 157.704605
-591.930847 -635.840027 149.083115
-561.846375 -659.213440 139.205276
-656.085999 -587.784790 57.161251
-720.294922 -580.171082 95.114441
-623.579590 -620.439758 107.053986
-879.329529 -645.058960 326.037231
-643.621948 -707.679382 423.867035
-592.506714 -624.164124 98.223534
-687.585632 -675.906128 356.671143
-786.649475 -651.934631 343.752716
-848.012817 -617.107483 236.885742
-745.431335 -612.348450 183.509033
-726.389160 -647.935364 284.853424
-863.424011 -539.710144 259.948700
-842.926331 -573.423157 242.452957
-687.559570 -617.388672 165.727798
-536.782288 -678.574097 209.269928
-673.020020 -667.062988 288.441559
-767.357849 -636.344055 307.822357
-650.974670 -712.931396 420.872742
-697.731079 -637.259338 213.000107
-689.705750 -594.773132 124.763123
-792.386108 -671.203247 424.771759
-536.761902 -645.153748 118.728943
-649.341553 -631.560913 186.431213
-621.885620 -588.407227 17.804035
-548.865112 -682.869507 238.075302
-675.047363 -712.089050 432.133331
-832.325562 -582.262695 233.565826
-574.311218 -693.141052 285.751923
-551.942749 -606.245605 -14.561786
-690.225891 -602.622986 137.582001
-488.915466 -629.694336 77.394547
-812.612305 -571.694275 169.448944
-551.713013 -672.758545 228.547562
-597.158569 -639.709229 102.296272
-656.647644 -708.677795 391.350128
-581.087585 -692.451355 342.558136
-535.263550 -647.271790 126.778992
-731.138855 -674.155701 360.346405
-860.518372 -636.291687 305.363403
-847.027771 -588.615845 221.879929
-850.117676 -568.933777 97.842163
-533.829041 -680.631653 217.471573
-537.225525 -714.065552 317.559235
-667.429504 -652.305420 229.673706
-717.621155 -622.821716 274.041931
-653.534790 -644.023132 210.160446
-658.929688 -669.378235 304.329529
-676.000671 -570.387512 22.831810
-841.529907 -554.180359 110.832253
-754.556824 -655.293762 325.021088
-853.085632 -527.852112 247.199402
-769.003845 -666.193481 409.693726
-857.661621 -566.280457 79.272926
-711.151428 -692.637390 415.722107
-506.624756 -613.964905 -29.119638
-727.225098 -576.439514 116.388474
-739.739807 -634.536804 280.857849
-526.334229 -614.477600 9.513609
-763.515076 -635.459290 371.375153
-541.863525 -619.223938 9.105340
-729.641357 -668.332336 368.109955
-703.265686 -692.793335 402.347656
-642.324707 -660.489807 254.611511
-745.312012 -551.617188 39.569118
-715.435486 -701.373718 440.017639
-625.544312 -607.577698 87.522339
-706.853394 -579.155762 83.687263
-745.713074 -653.051208 364.179047
-724.027100 -590.043884 123.952606
-544.399902 -693.151245 276.850433
-761.270264 -532.854736 -9.292261
-510.218323 -611.212952 33.708447
-739.614441 -587.900574 148.178299
-587.099243 -724.712646 415.670532
-840.124084 -527.878357 209.638306
-576.425049 -728.625549 383.381195
-572.738647 -615.082764 45.236862
-673.678772 -674.669434 308.950653
-634.157349 -688.405579 328.244507
-765.468140 -591.951965 182.307663
-658.175903 -679.691528 306.749695
-797.500488 -582.119080 159.077606
-596.330627 -670.892273 240.043991
-706.076782 -680.958679 371.798920
-695.930237 -559.178589 12.276440
-641.423950 -573.794006 -16.000025
-749.206848 -652.277161 316.375824
-561.845886 -697.175781 313.385468
-841.259827 -535.677551 238.546219
-659.582458 -711.559204 418.286316
-556.000854 -601.839233 -23.247177
-844.984802 -531.306519 160.435669
-842.350952 -545.619385 112.900360
-574.629639 -706.360535 311.598267
-747.471008 -584.635315 162.019348
-758.553040 -661.737610 362.879303
-650.171753 -695.594666 348.193115
-742.271118 -616.718689 196.923523
-619.027466 -690.052795 310.269714
-596.759033 -670.694763 250.227463
-586.843689 -592.025024 -12.510621
-745.905884 -590.614563 177.787491
-851.462830 -616.373840 273.917755
-517.107178 -656.525635 101.611343
-681.883789 -664.816162 316.137787
-631.551758 -676.195862 362.890259
-525.872986 -688.427307 227.257568
-847.492798 -503.838959 216.254471
-511.721924 -628.922363 26.217388
-853.602051 -518.267334 140.733032
-677.496399 -589.977173 110.467865
-704.298767 -584.280884 78.200249
-592.627991 -739.456726 432.370636
-659.672791 -594.185852 72.082886
-619.598206 -674.807373 304.449158
-609.664124 -695.311646 348.819214
-855.767517 -563.804138 264.301544
-862.766663 -591.938110 310.702118
-662.301758 -585.307983 1.905407
-551.859619 -678.075806 211.833115
-582.654968 -582.306458 -37.484211
-724.966797 -634.608398 223.434662
-624.352051 -596.050415 51.375423
-836.811096 -520.710754 150.687622
-758.950928 -642.127258 363.427704
-719.675659 -663.908875 403.605865
-663.953430 -665.032776 291.263184
-685.438660 -670.096375 405.813568
-602.804077 -701.439331 407.453400
-592.916748 -721.822449 412.561523
-559.263062 -661.864014 186.182220
-614.374512 -711.017578 367.738190
-641.120178 -709.934692 393.779083
-659.121460 -570.094360 38.287407
-711.965698 -628.325378 190.914185
-779.760559 -654.762573 374.606598
-678.123596 -627.471130 156.389191
-626.045532 -647.415283 217.701004
-554.914612 -691.191528 248.750122
-681.498962 -631.661743 216.900940
-678.711487 -681.661133 425.235168
-706.751343 -624.057373 226.231659
-805.459167 -601.950806 184.549973
-641.512390 -668.687073 297.184662
-797.533875 -666.515198 429.963684
-799.832886 -610.472046 243.141235
-646.628967 -597.086975 103.503479
-766.100586 -629.780334 292.467987
-818.194336 -633.625427 329.532349
-621.245667 -651.130066 228.443634
-540.090393 -708.235779 323.755737
-583.183533 -727.407166 420.561340
-546.234436 -646.031799 82.684875
-566.193665 -683.511902 266.881927
-714.836365 -691.072449 419.978180
-698.480774 -610.931335 151.631821
-544.923218 -713.066162 308.281647
-693.638000 -614.771729 181.721756
-857.840759 -532.007874 141.325775
-728.895569 -615.690491 209.516510
-682.251282 -618.643372 139.067581
-852.161316 -570.546875 220.495193
-855.160706 -626.019714 243.492676
-854.081665 -519.818176 146.876450
-613.243469 -618.132813 97.826218
-687.144958 -695.995239 378.146667
-574.493225 -677.352722 236.311752
-607.532959 -716.169373 394.286102
-551.873169 -667.257629 249.419250
-847.661499 -575.720215 39.410313
-643.365417 -715.476746 431.128540
-639.162354 -605.778870 112.322861
-631.029846 -639.137695 261.666595
-539.580383 -674.735168 285.108063
-861.029114 -633.114685 270.953430
-621.744629 -580.976746 -6.325179
-554.703369 -594.026001 20.712160
-506.866333 -614.911621 -24.815069
-572.036499 -726.766296 443.328644
-712.429626 -626.285278 185.834198
-564.670471 -607.940063 -31.093920
-830.179932 -556.530762 132.066650
-843.439026 -597.296387 222.448593
-845.418030 -589.793213 96.952103
-670.795898 -563.818420 24.130808
-683.155212 -627.065186 210.371414
-526.544067 -683.078369 247.544998
-755.832947 -660.920227 364.903412
-842.616333 -565.015869 206.661682
-839.569336 -596.327881 271.903717
-861.985901 -638.265320 310.954041
-731.627563 -570.335388 26.604670
-659.814758 -685.097290 360.861206
-616.253784 -683.052795 288.158173
-571.431824 -587.094482 33.888935
-849.177856 -582.004089 258.644379
-783.866699 -621.354065 268.403320
-647.658813 -572.091553 -6.413598
-697.445984 -554.878601 -35.548683
-841.529358 -686.764099 453.438263
-733.821289 -652.601196 290.922455
-544.167664 -699.763489 281.802338
-724.206665 -597.694397 156.960693
-688.971191 -690.119751 397.959015
-817.249146 -569.577515 79.811760
-705.370239 -695.232483 433.647003
-574.540588 -618.669189 76.659500
-683.966431 -603.513062 88.278488
-842.160645 -553.500183 152.053726
-851.428040 -574.676208 61.712112
-689.647888 -580.485535 58.693840
-759.836914 -635.474365 262.464050
-675.901672 -660.617249 372.989990
-847.510559 -572.195007 205.917603
-530.428711 -697.903137 263.023438
-605.326660 -622.233887 156.278702
-866.708496 -622.711487 329.324463
-746.336914 -585.105774 103.384087
-608.781311 -640.653748 192.584488
-685.519043 -668.362061 330.109619
-857.474060 -547.325256 251.900024
-615.876160 -703.277893 339.249420
-706.039917 -619.049438 204.490036
-818.883484 -637.058044 303.612122
-677.831787 -691.418518 370.998199
-837.240967 -500.935425 139.892670
-797.907104 -545.376099 10.289031
-668.114685 -677.835510 344.247467
-595.307129 -677.190979 253.565384
-705.689697 -631.391296 224.392807
-832.118774 -589.184326 155.868790
-566.110352 -685.915466 324.094940
-650.488953 -553.018494 -24.165384
-680.307861 -679.289490 360.735779
-537.054565 -709.292480 257.199066
-635.354004 -716.418640 406.440399
-719.007141 -535.924561 -37.285809
-685.258545 -635.124329 238.661697
-678.083984 -696.998169 408.320740
-713.339661 -591.875366 120.162483
-584.771606 -728.145935 420.009399
-669.358765 -596.757446 145.721909
-656.813660 -658.872498 254.111786
-649.198792 -564.711121 -39.326313
-721.456604 -607.686401 171.337158
-740.367798 -657.395081 412.085999
-608.526672 -637.626831 156.085831
-648.723511 -616.524902 97.794319
-533.909363 -710.362549 358.197723
-691.743896 -658.757935 281.070801
-540.362976 -685.728821 207.501190
-707.030396 -648.777588 292.568848
-764.228882 -633.069092 362.524170
-840.586914 -578.195923 131.178970
-604.895020 -626.649719 114.236229
-699.617554 -571.943665 51.778591
-797.637695 -571.567017 132.923706
-876.110413 -619.636780 305.279266
-672.329712 -689.571289 359.125092
-650.109131 -704.831360 417.013428
-612.526245 -702.015259 324.108093
-521.477478 -614.938721 4.657950
-532.791077 -678.512268 173.709991
-650.652283 -645.387390 218.523270
-663.498352 -587.580078 40.293156
-750.353699 -631.879883 237.555573
-586.815552 -612.827271 26.714661
-602.464844 -620.565186 97.099503
-535.709656 -657.324341 232.250397
-631.424438 -659.701965 253.459869
-747.599121 -625.089111 260.800140
-560.739380 -706.563721 312.588074
-642.304504 -658.319946 271.903564
-711.038391 -605.211243 155.578583
-851.340942 -567.527893 171.129120
-559.850403 -642.145813 81.042336
-573.809143 -718.591919 378.169708
-526.990417 -627.552429 40.824898
-575.505493 -703.477173 300.757751
-784.000183 -597.171814 168.352692
-720.523682 -579.468201 41.502960
-643.783325 -652.182556 237.570801
-622.147278 -575.869690 -19.345198
-718.330994 -633.842590 241.392517
-766.618225 -648.567444 354.131378
-837.999817 -580.687073 160.883820
-603.685791 -579.982849 19.308655
-733.973206 -623.504883 198.033264
-760.043518 -652.465515 346.210846
-853.762817 -565.828247 83.104630
-567.190491 -703.450256 357.825653
-811.249756 -658.898010 391.549744
-550.920654 -719.305725 353.784821
-796.859741 -661.695068 394.500763
-740.616028 -651.990784 303.797485
-548.829285 -659.575745 108.928070
-777.882324 -598.207275 222.259842
-829.015564 -579.547119 111.780464
-607.185364 -614.438416 84.671692
-729.847656 -600.333069 187.887253
-519.284424 -645.444336 142.310928
-850.291016 -582.771240 295.544037
-649.061035 -553.672363 -38.685272
-615.783875 -734.252991 432.327728
-604.536316 -652.865601 153.481186
-654.543762 -656.414978 216.556946
-619.792358 -666.685547 320.549652
-598.095642 -648.941040 192.888275
-517.975769 -634.162537 56.843132
-683.159973 -618.134155 122.531029
-539.172852 -673.755981 204.679413
-614.362671 -623.935852 127.500496
-559.666626 -655.566345 154.273346
-869.287048 -632.066345 299.641083
-603.272217 -698.553162 440.074097
-590.991882 -653.775757 194.067108
-672.717529 -650.532227 230.028458
-697.605835 -653.261963 257.060425
-644.681702 -653.104004 200.636734
-543.673584 -627.540466 88.113663
-631.536865 -705.390503 398.875397
-685.492981 -660.230774 381.807739
-750.799255 -615.092590 206.631516
-620.558899 -635.393799 121.989914
-533.547974 -695.067688 230.847946
-734.828125 -634.943970 234.893646
-578.178955 -742.951660 429.742737
-583.438477 -685.906860 265.292908
-848.246521 -521.144348 171.710831
-654.238281 -705.485535 399.874390
-562.168579 -604.006165 -12.567946
-848.871338 -510.678314 191.562897
-853.208252 -551.260193 154.068970
-842.646729 -524.438843 220.688995
-839.854614 -589.777039 228.742020
-675.275208 -631.645691 200.001816
-547.195740 -738.289246 407.391418
-629.426147 -708.114685 425.567139
-850.604126 -526.683594 155.435669
-532.699158 -657.943176 151.194077
-715.877747 -602.771912 124.386436
-722.749084 -608.793335 144.485672
-861.063904 -628.747131 300.365784
-522.989441 -634.524414 65.596970
-838.151428 -575.773071 190.792816
-689.777527 -685.067749 368.616058
-576.361450 -707.161804 315.435394
-735.396179 -638.960876 347.195892
-664.704407 -615.415222 150.544815
-693.030701 -559.769470 -40.390320
-792.652161 -646.039978 412.406616
-566.402954 -666.198242 205.093430
-798.473816 -639.773132 333.080231
-683.961426 -594.232605 87.978882
-589.425110 -667.312134 235.184067
-621.315491 -641.659607 137.747711
-552.303833 -639.297363 114.533096
-872.320923 -595.167542 303.174835
-578.132202 -707.512756 360.582428
-638.703186 -661.908020 256.018585
-762.076904 -551.474670 65.008347
-707.471069 -664.450684 343.786652
-712.770264 -701.609558 449.784912
-556.658447 -694.778259 273.377411
-853.885559 -518.379822 157.169983
-751.232361 -671.246704 364.986633
-825.064453 -610.311401 256.466583
-767.405029 -567.395020 50.118141
-613.960327 -708.627869 427.683228
-548.418823 -646.875854 86.055145
-665.793701 -703.747681 391.395386
-857.170349 -628.750366 299.627563
-787.840149 -591.116638 170.275894
-731.232849 -579.891296 127.528336
-522.897400 -632.876282 59.458672
-756.456238 -564.805359 114.286156
-679.677673 -615.527954 116.292877
-606.748718 -614.645508 89.871780
-551.883545 -738.657898 401.819519
-772.863892 -616.284241 254.565445
-603.746887 -702.113037 324.607697
-762.327820 -591.202393 141.328323
-675.513733 -683.179810 333.734863
-582.966797 -613.191589 59.879116
-592.938232 -626.030884 102.872375
-574.368286 -668.298828 274.532349
-605.168579 -694.105347 338.486328
-635.399841 -675.481934 306.420563
-793.340637 -654.468750 387.013245
-868.482483 -636.656189 297.532776
-758.499451 -564.604004 43.295658
-525.747986 -673.657593 176.210693
-848.560486 -553.108643 137.141464
-545.424133 -647.488098 210.373901
-745.297485 -550.060974 34.480797
-543.992554 -610.783936 -26.885443
-734.511230 -651.692505 300.724731
-610.094971 -618.471313 60.035145
-846.723633 -576.840881 81.009392
-550.992188 -603.335022 -5.171130
-723.024414 -621.902649 202.446793
-644.651794 -639.590637 201.761856
-630.434326 -629.235657 116.521561
-737.726196 -664.171875 347.779633
-848.549194 -659.203430 339.300720
-864.138367 -585.684570 305.893921
-626.453430 -616.349487 100.298203
-791.495850 -652.516663 361.552582
-588.069946 -594.995972 -39.992481
-558.701599 -633.389465 86.970245
-556.588440 -696.084534 278.090332
-618.678284 -629.350159 216.864014
-526.204712 -656.314575 130.042206
-594.082336 -679.517761 286.020264
-604.104065 -695.982178 366.794525
-865.631042 -616.299561 284.493652
-578.884949 -614.435303 86.559517
-665.796021 -585.238159 82.075172
-667.774414 -627.851196 145.738876
-851.667236 -562.774658 203.502121
-676.852600 -592.672791 35.605118
-538.289490 -717.440369 324.356903
-675.014709 -663.710938 297.470764
-580.598083 -714.880249 362.231049
-538.261780 -666.734009 142.050827
-739.529114 -609.868469 208.644760
-734.883301 -588.337769 131.900726
-715.695068 -585.055298 149.170715
-596.513428 -680.523376 287.626099
-617.988892 -719.012634 401.587128
-544.684082 -677.894592 208.554596
-854.544739 -541.767029 117.932648
-842.347168 -611.540466 292.253357
-622.847290 -599.594727 58.505848
-622.171021 -670.611023 324.612396
-749.953918 -578.798035 88.557617
-568.994629 -715.532959 345.916748
-540.607178 -741.317200 412.271729
-856.501648 -552.880432 163.917419
-598.477173 -692.934570 285.284515
-612.181396 -609.241150 78.574715
-635.693054 -698.547119 345.355347
-781.057312 -658.353516 391.458618
-638.801147 -625.736877 153.554214
-771.494141 -594.153076 158.389938
-554.556335 -612.124329 106.695686
-747.867249 -679.696411 392.097046
-514.966675 -629.185608 9.139467
-550.738464 -714.118958 327.829926
-553.299072 -730.752075 406.105896
-645.749878 -561.325073 -34.495178
-538.198547 -658.605225 100.851044
-535.170471 -674.940247 188.889496
-869.506531 -615.716919 288.706390
-855.295715 -573.013000 58.359798
-642.455261 -593.025330 57.090359
-740.457886 -576.353699 110.767715
-742.809570 -530.941772 -33.030041
-748.414429 -588.476685 195.128433
-739.784058 -597.853943 191.096359
-623.619019 -591.472229 -18.111023
-840.933472 -577.480896 217.374191
-783.712341 -686.028442 431.327240
-672.566833 -669.429749 316.255554
-533.314209 -659.879578 159.008301
-659.421143 -699.493835 362.828308
-531.559387 -652.252319 133.697876
-732.851440 -679.197632 400.358459
-819.929932 -647.033264 333.401428
-589.931030 -680.356323 226.045517
-633.441833 -688.084351 362.691895
-707.321472 -641.176575 227.060715
-727.258545 -659.564941 321.334839
-725.200500 -564.513000 54.996811
-603.362427 -684.571655 264.297638
-678.075806 -612.498535 148.433853
-684.628723 -563.516907 -4.834772
-686.862366 -600.856140 112.136299
-746.682495 -670.091858 416.345001
-667.626282 -580.984741 43.108685
-601.903198 -590.222473 38.155754
-562.829224 -723.173218 364.912750
-527.605713 -626.439209 -44.833889
-703.770691 -631.052979 246.006577
-611.635742 -714.833862 367.782410
-856.613831 -526.198730 233.630188
-731.929260 -572.310120 85.575996
-605.134338 -654.178894 198.224274
-813.224487 -638.315735 299.201630
-628.217224 -572.563293 10.353585
-738.809631 -548.716309 17.028318
-545.113831 -637.323486 33.233334
-546.886658 -695.802246 271.671265
-702.754211 -562.978638 -33.768539
-888.092285 -700.235168 387.564972
-843.753479 -624.774963 272.963165
-581.137146 -663.817200 187.777328
-866.377991 -587.161011 304.976105
-674.011108 -668.375977 289.514191
-650.670044 -619.004456 196.525635
-811.039795 -584.662842 123.604568
-541.622070 -707.988037 289.495453
-845.698608 -569.125061 109.720116
-563.721985 -719.759155 350.994873
-545.930054 -680.965881 198.399597
-535.552490 -710.127380 310.909668
-688.074585 -574.017944 -18.210356
-745.498108 -568.823730 54.087837
-572.599304 -705.550476 354.607910
-719.165588 -665.119934 418.629395
-868.062256 -648.589661 362.056519
-552.598083 -601.434570 -14.451420
-611.616638 -590.934753 73.469315
-666.978027 -650.952271 224.679306
-607.460205 -723.259277 418.235992
-767.460876 -628.284607 308.565369
-844.171021 -541.167664 185.910980
-731.416931 -564.685791 49.147224
-719.950378 -603.715393 114.805283
-677.398376 -588.976868 80.429604
-543.092834 -657.746338 118.471924
-724.677185 -596.511353 96.724594
-653.656006 -570.702637 6.039272
-762.695740 -579.063843 95.350380
-610.584167 -734.710754 431.626953
-597.129395 -695.420959 348.850128
-793.019592 -668.428467 408.435242
-648.304138 -615.237671 93.006912
-850.680969 -542.126892 149.718918
-752.162903 -630.131470 250.612396
-548.506409 -737.395081 420.853516
-634.718384 -721.034546 432.592499
-523.392029 -662.537598 143.373306
-846.121033 -528.223511 265.289398
-812.230896 -610.250732 229.077774
-713.135498 -680.022766 407.480194
-862.115234 -593.209717 280.792999
-764.390259 -639.986389 364.018188
-555.205200 -732.767517 448.748474
-864.767456 -619.302124 296.748627
-644.508423 -682.719543 310.019623
-533.886108 -661.500610 117.272079
-498.050049 -632.401672 93.828545
-583.800964 -574.268066 -7.240897
-858.202454 -538.408569 246.641068
-732.445313 -621.875793 209.450912
-586.909058 -631.842957 78.828110
