ply
format ascii 1.0
element vertex 1413
property float x
property float y
property float z
end_header
417.221649 520.774231 -755.056702
224.922012 306.025940 -856.189453
165.920639 470.560272 -697.631409
203.209457 426.577332 -745.962219
53.235962 252.540985 -850.798218
390.343872 562.448303 -702.217773
270.999054 459.059784 -770.868774
364.207886 388.610870 -873.033447
287.496033 442.652252 -798.564026
316.499084 354.902985 -871.432434
475.175232 497.634796 -824.869751
307.927490 505.974762 -734.478760
385.683258 446.768158 -837.423401
231.200790 399.843384 -808.994385
47.001713 278.493622 -802.278809
407.553284 577.903748 -713.667236
234.914810 347.011810 -820.427002
351.366394 528.867432 -696.469910
193.909042 254.200928 -919.037598
399.306793 414.554169 -876.974304
264.556061 245.091568 -949.928467
151.288483 313.198608 -833.883057
238.391281 377.291351 -813.223816
281.922638 377.673523 -852.979492
383.738770 564.740723 -709.273560
270.417450 427.997040 -802.091187
285.632751 448.555756 -774.367676
433.519104 515.177368 -800.218262
238.071899 447.401093 -713.145996
373.608124 375.807587 -902.913025
137.670685 346.114471 -792.869507
180.347000 335.602478 -812.663025
366.724792 234.203888 -908.416504
102.369644 342.692291 -797.919861
186.264114 459.800262 -724.880432
78.846306 362.921783 -749.113464
297.932281 396.483795 -838.646362
29.286245 316.915558 -779.876038
216.904922 470.148254 -731.688965
72.699463 344.745880 -740.350281
28.710995 329.184845 -777.544800
420.811615 595.393066 -699.764771
196.903671 425.943329 -742.795959
462.478577 453.333435 -843.784668
43.926342 354.150604 -746.856262
166.180618 359.510162 -796.689148
98.174843 268.717438 -868.237061
420.765045 293.257507 -941.064819
298.520752 288.231232 -948.543396
514.582031 470.012085 -878.577515
45.915421 404.191956 -701.608582
443.191956 492.159698 -817.830933
134.627716 385.911224 -768.192383
2.912332 344.233521 -745.722595
267.623993 270.293884 -955.956665
411.760101 457.347900 -824.213623
219.359192 358.264191 -843.347168
495.696991 457.085083 -883.393494
132.677597 452.666626 -700.027039
452.349854 421.934692 -887.803467
176.723312 308.825165 -847.807617
309.788696 363.553131 -883.201904
373.787720 320.599518 -935.586121
127.811958 394.301483 -756.001221
196.245468 455.486633 -736.733948
263.016937 222.021164 -942.698975
361.148956 439.685791 -816.671936
46.978947 411.452637 -698.525269
166.405701 321.381836 -831.695984
261.152740 376.671326 -842.713745
234.005615 345.181610 -842.036377
461.625916 415.873138 -898.168945
95.948624 297.984192 -839.079163
496.283203 488.812653 -860.100525
216.520020 482.569580 -725.037292
445.137848 493.468445 -806.384827
86.426781 245.353226 -885.863770
136.977493 342.332855 -798.728699
-3.573915 352.667786 -713.067200
147.484116 232.823593 -883.646606
295.689667 432.785828 -794.655762
281.560547 423.228668 -789.665161
86.483147 270.101257 -836.463440
378.772369 331.907898 -928.513489
276.866730 395.586609 -794.224976
361.541718 541.090881 -702.090759
241.423141 336.219910 -846.963745
145.392059 317.547028 -847.702454
320.772644 358.527191 -855.332397
-12.343424 370.116730 -710.546143
339.101746 519.927490 -705.236816
322.615662 491.611359 -747.431274
88.525871 426.610138 -700.437866
416.485474 335.924896 -957.397644
388.525818 255.647049 -920.164001
284.596344 302.214355 -948.075134
321.483398 449.750427 -790.451599
431.986420 524.739563 -771.055481
78.304909 329.800476 -776.513123
392.650604 526.318970 -755.282837
236.014389 393.478516 -806.262451
331.949402 295.901276 -940.139832
168.181839 334.368683 -836.636597
31.944145 344.851044 -738.805481
411.983704 495.884857 -788.642944
317.756775 355.493042 -891.770935
409.236847 507.084259 -790.448120
236.291351 262.194122 -967.708923
397.440613 405.924835 -868.697021
283.066833 278.207123 -954.479309
165.764709 271.017456 -856.327454
293.846100 293.461456 -932.115906
393.282104 559.542542 -710.556946
55.261726 377.093323 -740.067200
198.629700 399.873352 -792.142151
287.436890 421.908234 -804.537354
239.906448 472.643921 -743.061646
376.099731 420.733337 -849.001587
87.159180 320.512024 -795.496887
95.659317 259.025360 -850.346497
329.025391 530.035767 -729.868591
122.680679 275.864380 -870.898926
76.100731 290.920105 -810.052673
339.384277 458.055023 -805.825928
275.738159 353.804779 -875.837280
506.571106 445.171936 -912.193054
170.931274 310.669495 -850.044983
249.055679 484.729248 -710.199524
201.949387 352.549683 -824.784302
-5.843102 382.079529 -715.367493
441.721527 379.370453 -995.151367
403.304535 297.830292 -933.938782
326.995697 398.794525 -836.018005
151.685501 417.711395 -733.626770
106.607018 370.097382 -740.364014
342.110840 227.314758 -922.834961
402.497864 287.146606 -926.541077
463.512634 451.474762 -877.010620
354.669861 349.564636 -901.657898
308.853607 374.081207 -876.591736
40.369709 372.648163 -718.336060
203.300049 393.553802 -801.774292
195.548767 372.770569 -795.875305
437.193420 391.408051 -985.141296
125.251053 426.638702 -707.875305
174.421539 440.898499 -714.998352
318.681610 320.527588 -920.692871
79.350479 373.880737 -761.947144
432.002441 607.328247 -695.485291
200.715973 444.205109 -754.062134
178.373978 380.740753 -799.930420
319.637939 359.355469 -873.854370
380.807861 526.901855 -731.605774
334.232239 487.550934 -755.286682
348.027832 249.903763 -943.984497
386.678528 428.928955 -844.505493
144.601379 258.368805 -878.385010
101.563499 311.248840 -811.227234
235.536682 493.773590 -707.171570
463.635071 519.906982 -803.466858
72.189034 314.204010 -787.867310
57.759708 330.042725 -772.641174
45.551723 352.251984 -763.881287
442.656342 511.686523 -761.593933
465.087463 474.137146 -840.508057
342.386047 466.229248 -758.032349
364.687714 271.158203 -923.078125
100.183159 243.946884 -852.700623
197.745041 443.916290 -736.061646
151.891632 307.227692 -853.472290
356.004822 393.986816 -861.341614
270.081146 472.823395 -758.503906
258.609283 423.460968 -759.590271
481.883362 523.566650 -808.064636
266.596741 407.825195 -804.675659
255.446701 251.773590 -941.261108
195.414230 279.225006 -898.877991
353.046753 533.212646 -741.184814
395.947693 498.811920 -768.504028
236.380035 377.378357 -792.649109
212.667465 480.988861 -703.163940
452.773102 378.104126 -969.100159
122.044250 318.225464 -828.378540
232.745941 268.063080 -952.875549
286.789093 503.038605 -722.883362
251.421814 455.613098 -758.801514
507.170410 462.110229 -872.379272
436.042450 463.852356 -854.221619
272.277130 450.290955 -762.705933
145.422806 376.852539 -785.491150
216.404266 474.055695 -732.286743
176.998657 383.849548 -763.477234
454.382843 495.113495 -830.930603
168.808594 305.057983 -846.978210
157.080338 314.917877 -809.382813
182.704742 293.413208 -874.029175
88.191910 379.364746 -731.052979
271.410797 419.385315 -785.713623
287.888733 279.846741 -960.207642
298.714996 333.798401 -898.959534
54.899612 267.018860 -857.518677
10.641388 330.517120 -748.021301
405.388489 486.810516 -770.240540
64.123489 378.322662 -729.977112
77.141327 426.355499 -700.285950
232.922150 387.021515 -800.787109
217.445251 327.645325 -857.597046
90.870232 273.360870 -836.228638
29.337025 339.601166 -721.998657
75.348785 349.462280 -754.978638
242.614624 313.730316 -884.337830
313.173767 541.402039 -699.431946
73.263405 208.484406 -898.379883
420.505280 584.699097 -716.496094
367.757843 550.427185 -721.974121
209.073807 294.561188 -866.541443
327.032776 512.037781 -727.687012
469.080688 467.302338 -864.262512
280.338104 517.900940 -701.216919
322.688507 400.319122 -836.958862
149.858582 389.734314 -772.765137
152.317322 412.300781 -755.828186
133.084946 207.750488 -931.147705
240.850891 425.639618 -775.997803
389.501801 437.134979 -827.851746
293.830811 354.162018 -844.971863
171.407745 471.342163 -706.096191
260.763275 358.149292 -842.352844
339.602325 509.506927 -744.879517
274.142609 276.427704 -944.790344
136.297638 400.873077 -740.598572
268.395630 483.931152 -745.092407
252.136200 473.128082 -718.714722
309.972443 436.087952 -763.567627
241.866760 426.959320 -772.215881
472.654327 475.864105 -836.567444
335.290649 523.161682 -742.225342
97.942719 235.484955 -867.771973
281.257446 288.903320 -960.197510
354.211761 389.192627 -841.431213
285.424713 443.236359 -794.766541
422.803711 520.911621 -782.813721
175.396149 364.474274 -814.085510
476.710754 469.123474 -853.131592
403.786224 474.669037 -825.872009
398.808746 549.986633 -737.396423
415.345459 329.859619 -954.970459
97.525787 329.986237 -771.203003
227.659317 303.612061 -860.672729
134.817795 318.430054 -817.078735
221.742722 354.159241 -847.450684
313.548309 535.783264 -698.085571
479.676086 562.022095 -751.385986
336.047852 396.323456 -860.328552
507.316345 489.518005 -862.575928
113.143028 225.867310 -872.426208
244.348709 493.456146 -704.011108
152.413437 421.107941 -732.622131
449.917419 431.482941 -863.845764
409.845123 497.184753 -776.338135
373.260223 310.289642 -947.106873
183.826965 345.849731 -838.997253
234.248062 429.876923 -781.554688
412.872070 601.706970 -707.188660
192.311935 329.680298 -852.868774
286.754822 478.024323 -720.542908
474.326935 505.064911 -800.455200
102.976723 426.880432 -707.138977
287.399200 310.545929 -893.110291
208.547577 450.026398 -726.430542
330.836029 493.284363 -752.363892
283.438995 298.868835 -954.229492
315.672302 476.860870 -765.952332
257.551270 506.645813 -703.431641
387.460175 407.243591 -882.063416
255.110321 380.088928 -838.882996
312.448151 524.431580 -716.233398
267.305634 395.623474 -834.754028
319.924255 499.086700 -734.519531
293.091797 427.311920 -798.816040
336.030029 462.816895 -797.738708
397.058868 545.759094 -718.204163
237.310074 403.420807 -789.504944
124.997406 401.443298 -728.783813
144.504150 392.656769 -749.061768
380.016693 503.209045 -756.424622
170.192383 381.766479 -780.926025
56.034828 373.513306 -731.756836
116.908386 408.069611 -735.735840
289.016113 432.539459 -796.724915
408.600342 506.121124 -791.593933
247.665359 310.921722 -899.994141
124.932930 436.454132 -718.037231
364.473236 475.622162 -800.228271
85.774254 271.798798 -861.054688
310.211945 535.243225 -710.174377
418.060883 504.784332 -801.814697
360.001129 532.106812 -722.630493
311.028961 506.524994 -731.821167
377.985138 568.751038 -695.654541
248.700668 283.258698 -945.699585
472.040771 518.413269 -807.816528
217.425385 265.435028 -978.212463
261.842926 477.604767 -737.557190
278.639618 383.636780 -828.641602
338.032593 458.287842 -803.515381
80.400253 305.031738 -828.613281
340.688629 539.198975 -726.242065
223.984818 422.928406 -760.947021
383.960114 292.257416 -946.851746
266.229248 360.874664 -822.994446
428.815582 383.068329 -982.083984
38.961479 339.825165 -753.513550
290.614990 477.027557 -752.648804
269.541595 324.150024 -881.277832
413.728973 385.265411 -965.347717
347.119720 565.321228 -695.908020
249.731934 493.435272 -704.208618
175.270630 367.672089 -797.199890
295.552795 533.773071 -699.733276
64.082184 345.141113 -758.774536
68.802696 346.366547 -779.951599
283.001862 384.603119 -831.916077
46.783958 335.720093 -773.717773
406.444366 480.272705 -815.591858
244.743073 482.575104 -710.239929
222.153305 431.560455 -753.533936
172.364426 449.338531 -728.862671
419.657349 581.625366 -709.821472
259.505219 261.617798 -954.349854
426.257385 492.529419 -788.526428
398.634705 481.506439 -810.983459
368.184631 386.165497 -889.511230
473.369446 449.741852 -839.332886
247.457275 477.263397 -729.580688
431.777771 475.273651 -840.767212
154.603348 288.821686 -872.782654
322.699554 537.901123 -708.179138
222.042252 431.704834 -776.680847
55.200008 281.449341 -792.095642
109.287079 323.266785 -773.724182
361.480011 473.574585 -785.750488
46.150909 338.865051 -776.668945
250.669479 255.268066 -951.632935
176.759460 412.859680 -747.950745
426.614044 354.444366 -972.519775
151.607300 453.915344 -701.197205
181.610092 319.235443 -857.424011
105.091362 321.770111 -810.514282
46.934925 324.904602 -761.356873
274.401642 248.513321 -950.764954
370.664764 479.406982 -792.566040
462.146759 399.024384 -968.671936
345.407318 348.026978 -906.380493
257.206451 460.313751 -766.241577
280.533386 268.247589 -950.011108
270.785736 391.541473 -824.262329
273.639130 490.415222 -721.946594
186.581726 394.242615 -789.839722
465.388947 493.908081 -822.999573
296.645935 269.756104 -948.097595
210.506271 269.569855 -920.680725
37.916828 378.596710 -711.075684
383.501434 290.976746 -928.286682
395.477753 414.777130 -879.003784
395.261658 271.932800 -921.839355
392.059814 314.020447 -957.929443
279.154083 265.830994 -947.902161
219.529572 431.117981 -759.260803
65.566299 404.248413 -701.761353
98.206139 289.358521 -839.784058
243.618439 487.466766 -701.224854
337.148560 560.951111 -695.065063
143.161530 391.920654 -770.066040
403.384918 424.471924 -856.189697
376.225220 492.851593 -788.641113
237.191452 506.589325 -695.905396
117.064095 364.678253 -751.654907
430.620270 544.165100 -768.120056
300.345215 367.093567 -876.000122
454.849792 546.749390 -745.781738
192.100784 452.464478 -724.424622
372.437775 357.885193 -899.787048
152.794174 340.679413 -806.591003
185.570648 304.098419 -861.625061
523.117371 460.044952 -890.422485
356.754486 483.364716 -789.382080
467.113190 495.615662 -805.894653
347.602631 545.964478 -700.713867
341.265076 487.563049 -780.694946
354.967926 332.831085 -943.965393
466.613068 426.650482 -901.422058
149.213104 440.822784 -701.206543
325.993378 382.601868 -869.505676
240.442154 488.499847 -722.688416
339.480530 429.556213 -830.287720
398.788696 504.278961 -788.377502
340.148682 251.351517 -921.701477
89.688698 416.419556 -701.600220
59.229446 315.060455 -801.775024
72.411163 338.948822 -763.251526
260.323212 211.509720 -931.152161
403.977783 306.157715 -949.185486
154.715790 386.644836 -764.356628
16.950748 371.630981 -707.599854
228.900192 491.977966 -699.567993
377.542175 258.460114 -918.399414
357.243774 390.199158 -883.400208
291.908691 530.919922 -697.121338
478.720734 447.126770 -846.758240
468.837067 516.020264 -802.239380
160.898407 352.920868 -805.448425
411.123077 269.265320 -914.537231
278.497711 497.968262 -722.836060
122.314156 429.509918 -731.023438
435.193726 489.912201 -820.306152
156.759766 387.014435 -781.984375
204.111130 438.855835 -744.049133
-2.026463 368.431702 -725.117188
272.568695 356.995758 -830.225098
363.643829 518.215576 -740.122559
378.088989 558.608154 -713.217834
226.272049 499.556488 -704.854980
404.394318 509.787415 -783.368652
298.657684 395.679413 -843.003845
76.785484 357.950775 -774.735107
424.902466 413.106720 -881.105774
345.455170 411.717499 -856.608154
286.086761 406.425476 -813.578735
236.461838 400.968597 -788.626038
286.429993 369.025299 -854.097778
126.543694 322.376160 -811.763672
384.669556 469.073334 -802.182434
196.028549 250.258636 -982.610229
355.807129 394.659790 -871.232117
113.943375 392.929077 -742.078064
364.915314 272.354919 -938.026428
338.210236 420.120483 -838.374817
162.098389 289.124054 -859.269653
434.868835 449.209229 -853.513855
335.399536 550.080872 -696.725220
157.528931 391.639130 -774.909424
187.555695 400.344055 -765.419983
428.209259 430.135406 -873.900085
230.341049 361.830536 -842.383728
418.079865 432.488312 -843.736938
78.480820 333.699402 -788.030273
66.342735 375.224396 -747.379761
213.216583 267.990509 -917.256531
26.306820 366.093353 -710.527710
268.016754 482.706177 -737.855957
218.337784 449.388397 -741.614197
248.109894 352.373505 -862.045715
259.936218 428.069000 -795.213135
348.720123 478.604736 -749.245239
408.787872 464.730896 -826.924194
292.133209 482.572174 -751.799500
412.678864 556.802368 -727.167114
326.456787 513.206177 -725.257874
269.910828 229.634537 -939.014465
269.270477 416.886810 -797.581543
227.146835 405.660461 -797.885132
301.754669 403.971649 -837.507568
474.845673 484.098389 -840.487183
452.666901 602.823364 -712.153992
396.384155 586.676636 -703.535278
330.179962 257.308258 -950.853638
193.154648 397.874268 -777.825012
453.928467 470.924316 -844.023376
350.106689 501.251007 -767.847046
157.051697 238.993225 -945.960815
297.308411 446.309906 -779.192383
168.838089 245.333801 -944.565796
256.801025 269.071564 -954.949646
169.565475 445.189178 -732.098267
297.539246 516.907288 -702.929749
49.407299 361.673157 -732.887451
448.620728 555.144775 -758.029236
208.706558 501.435791 -699.945923
262.833862 491.799866 -732.068115
80.003029 280.588440 -826.741394
311.150635 481.140503 -761.291687
212.511215 325.263733 -867.327209
290.064026 510.746582 -716.341797
377.994476 263.944641 -938.281128
110.045189 364.325165 -763.704651
310.277130 518.763611 -733.980347
406.298920 541.119385 -724.981567
134.215210 400.974243 -726.627319
470.506042 485.140228 -820.177673
457.096771 529.487122 -776.914734
129.690796 391.060242 -720.441406
256.429810 377.558960 -824.410278
352.842865 538.059509 -721.198608
357.807892 305.700775 -960.390808
299.129059 502.397308 -743.834290
54.363178 406.100922 -698.070129
446.754669 512.195007 -797.767334
237.900970 430.563263 -786.153442
305.743042 534.005066 -717.839661
500.780396 410.135406 -953.444031
390.930237 515.746765 -757.919373
333.467133 504.135590 -736.964966
141.972809 317.454834 -822.139771
-3.962576 365.586243 -715.922424
350.872345 397.868774 -855.369568
465.992432 484.938110 -835.606812
462.175140 479.885376 -844.184692
337.937561 231.100342 -925.646118
7.343509 382.853455 -696.576782
375.192688 568.882080 -702.173401
314.243073 484.740631 -761.323853
9.972029 318.632202 -769.489075
388.235840 280.919861 -924.722534
169.901794 400.056610 -759.517761
156.083755 360.307800 -790.548645
286.785339 433.863770 -781.449036
284.431946 420.390015 -818.919373
318.378021 400.663971 -845.624695
487.859650 449.291016 -881.275513
449.560638 402.610596 -958.366211
509.512085 430.631622 -916.680359
212.376907 458.058228 -730.325928
151.688568 439.149536 -715.377197
338.801117 479.068634 -769.763428
243.024582 308.285980 -905.775513
324.550873 252.569366 -945.497009
380.534302 463.873718 -819.424866
315.233429 461.690704 -782.591797
204.771393 455.774109 -728.568542
373.504700 369.487061 -920.952637
320.070587 407.466461 -839.720520
409.347504 435.536957 -864.999268
227.562363 356.411377 -835.599426
53.165493 291.695190 -797.829956
257.668335 507.606689 -705.953796
202.069885 361.707214 -814.619446
421.975952 396.852234 -875.195984
354.966370 364.792450 -891.478088
188.595947 397.759064 -790.904480
129.331131 454.599243 -721.622375
397.609375 593.579285 -702.293335
404.507050 326.627106 -955.743408
322.928131 510.554138 -736.981689
208.335037 356.116699 -840.212585
375.757446 248.555725 -924.468628
195.868546 334.382294 -849.540527
388.889618 385.723969 -900.327454
122.736763 287.513641 -842.195068
427.680328 308.028168 -942.208008
520.665100 438.120239 -880.975769
253.647476 509.976379 -701.205750
352.833191 449.194641 -821.639709
234.407486 431.859680 -778.890930
320.354187 238.408859 -939.706604
375.900055 542.517273 -701.675171
51.518417 326.102631 -793.009094
307.992920 315.761597 -916.992065
139.775894 331.356415 -807.792358
305.861877 436.147308 -793.933472
372.448425 294.170654 -949.473938
300.479645 449.244385 -796.243225
425.488739 526.109924 -775.620422
307.481049 348.518158 -882.539551
331.771484 484.244293 -776.065186
57.629604 393.535156 -732.718994
436.475555 490.761078 -799.179382
212.647278 392.008881 -794.945984
415.778442 458.402679 -847.367554
249.241547 434.715393 -784.050598
383.612671 423.468628 -844.719116
352.650940 309.168579 -948.930786
108.212936 246.435196 -892.682922
229.207199 268.669861 -964.464966
352.438538 564.192688 -677.547180
114.334900 258.048462 -867.289185
214.626465 366.869385 -812.615356
239.693130 503.030609 -695.062683
176.305130 313.960266 -859.577393
252.545364 332.459076 -868.032043
320.445526 543.963135 -701.843750
403.753754 468.645966 -810.435425
327.530548 357.586243 -883.839966
66.017563 349.751862 -777.975952
146.610153 437.163940 -728.966736
442.299011 479.600922 -832.432739
180.510010 401.270111 -760.287903
325.737366 487.990784 -760.281860
427.372803 444.136139 -859.233032
325.580780 439.247101 -808.046814
365.444305 293.789795 -936.511475
97.284653 375.947266 -762.512329
237.028198 248.166000 -951.677673
329.095245 315.940979 -938.657104
166.693237 320.333405 -809.896179
406.011780 431.423096 -839.850647
402.200104 580.966675 -699.549622
134.719742 239.874878 -911.564392
235.047821 499.695526 -696.842896
396.097687 302.990875 -939.689148
323.141022 288.633423 -946.054565
265.036346 296.220337 -920.807251
422.833038 465.854401 -844.582153
374.029449 414.784454 -826.032715
247.664108 471.652679 -729.062439
427.785126 453.475403 -835.149109
348.806488 391.657654 -859.467712
129.122208 328.478149 -804.557983
404.999817 292.837677 -948.186890
115.918495 335.230774 -818.239136
450.689789 601.453064 -693.848267
307.108612 510.498993 -712.934814
172.639038 444.478699 -694.243835
151.046463 234.153473 -908.392883
97.237587 356.648468 -764.548096
190.169891 337.143829 -827.253357
44.491905 291.825867 -829.384583
468.982605 404.878510 -931.122803
423.056366 469.216034 -818.601990
181.043854 253.082016 -929.100708
199.566971 423.127869 -755.294617
340.922485 504.930054 -755.019653
99.205513 419.945038 -730.137390
355.390259 482.353516 -773.832275
348.395691 490.292084 -777.384094
391.380066 364.741058 -971.535583
171.382568 388.029907 -771.104980
378.783234 476.575439 -804.288330
369.074402 354.973969 -904.099915
358.990631 495.083893 -775.197388
216.468796 377.539215 -783.409363
409.754883 574.947205 -723.990295
485.461487 472.441162 -859.835632
217.737640 285.983246 -886.229248
130.489334 250.858398 -892.834839
381.727081 477.194763 -798.911621
136.601547 441.982300 -704.244080
328.247528 502.076569 -751.102905
337.684021 330.924988 -944.634888
484.483917 508.446991 -825.464600
388.419342 449.611725 -798.266846
245.872925 355.829620 -858.021179
263.821625 261.200500 -959.067932
401.030945 500.876007 -760.498413
275.249939 504.042603 -708.946228
432.963654 558.181396 -749.105591
333.559570 260.673737 -941.244812
142.689392 244.981598 -910.044861
264.687653 515.006836 -702.674438
317.684662 325.756317 -954.864990
188.213974 323.112152 -842.879272
192.361389 442.753082 -706.854004
243.613770 494.608704 -701.411011
173.575089 437.353119 -720.320496
371.148560 519.898254 -755.979675
170.904556 331.373230 -840.691895
451.878510 572.552856 -748.651001
46.975609 382.319763 -736.677917
304.547058 536.775146 -695.999451
322.765076 513.551270 -718.978577
375.445831 556.903992 -718.525208
379.822388 279.091797 -942.622192
119.581177 430.953918 -675.846619
71.756371 327.900848 -799.836731
272.466949 389.606750 -842.866333
375.169556 524.875305 -760.456421
173.543945 458.769440 -702.826111
304.288086 241.615448 -938.441528
159.428009 449.685394 -703.640564
276.738617 454.425690 -761.059937
165.000549 242.403992 -907.196106
306.571167 299.336578 -941.525513
175.753815 253.194183 -928.765015
33.116905 344.951080 -751.136902
280.614166 506.635284 -703.636963
226.663208 466.330750 -718.349060
489.045288 428.616699 -990.019226
445.588806 389.984650 -920.067444
66.672478 361.882477 -760.751465
262.375580 506.475739 -706.153320
111.908722 348.306763 -776.242310
321.272064 295.795227 -951.540466
40.995235 325.969727 -762.331543
465.939362 522.359436 -788.914124
495.203979 455.686005 -890.667664
72.655739 293.961060 -816.447144
335.158295 461.625732 -777.824280
464.772034 445.618439 -871.872253
480.528290 439.475586 -887.453125
159.931274 375.955109 -798.396790
186.366104 325.592224 -830.667114
18.436811 381.366638 -717.195007
165.956955 430.738647 -745.498779
359.008362 534.842529 -717.392212
224.144760 272.788147 -895.989563
467.339722 397.104126 -962.593506
218.250198 314.683990 -880.598328
494.821686 491.309265 -823.339478
302.756317 475.403076 -770.453674
224.098282 433.682251 -758.323425
421.704437 532.590576 -735.415527
337.242615 444.842041 -802.827820
269.772400 448.572876 -767.382324
408.925934 400.268585 -900.928101
438.233643 539.975891 -762.615417
350.862213 528.129578 -702.972107
390.767029 431.519501 -856.596985
299.898376 480.599060 -752.756104
267.475952 300.225281 -946.705017
223.503738 350.318817 -840.415894
452.002289 403.862640 -959.877991
273.115295 261.797699 -940.912537
317.179718 544.537170 -701.350891
15.461500 319.663666 -780.942688
65.470863 352.092590 -769.758240
385.538879 264.326782 -933.220337
106.520607 415.225586 -728.756409
278.209961 431.876007 -777.647278
38.065807 273.378967 -807.700073
229.129959 338.307098 -863.749573
405.425537 534.163879 -754.442322
317.135040 506.599792 -735.228149
376.480133 363.733856 -936.639343
249.697678 308.966736 -875.149841
421.580414 552.917053 -722.075012
413.102203 323.202606 -960.885254
336.677521 314.248077 -946.275696
431.030121 569.030762 -718.040344
420.262085 342.110443 -953.187195
343.265228 484.723328 -771.945679
151.903137 283.666382 -874.822632
344.153046 341.916718 -927.368347
89.913506 208.803665 -934.170349
119.895836 455.262970 -700.838562
229.101318 402.995087 -804.782898
341.479401 256.296631 -938.771606
343.272125 299.353638 -948.678589
327.619019 510.216156 -742.354004
477.037415 531.883240 -787.234436
414.497070 339.542999 -940.761597
119.237373 242.562531 -902.295105
0.110847 358.375702 -707.580383
299.355804 394.214752 -827.217041
305.239166 398.283569 -831.229370
162.446869 302.169250 -846.404358
328.130920 504.411713 -744.503113
89.587822 421.822296 -701.730957
380.483337 531.431091 -752.567932
185.452255 396.090515 -749.075317
419.449677 397.138733 -878.301697
25.340693 351.349304 -754.847595
510.091400 442.365326 -871.394836
390.442444 321.584747 -950.951294
319.210083 416.190674 -816.868591
157.457916 370.036560 -802.860168
369.634308 267.184998 -937.152100
119.188805 335.294128 -792.570007
81.427971 392.206940 -718.203430
131.038422 390.598480 -754.607849
285.334076 243.223251 -945.237061
66.384079 285.422363 -814.099609
154.672638 304.121124 -857.614868
415.862946 578.281067 -695.094666
317.661682 223.270248 -919.918640
152.132385 301.824127 -842.472534
473.636627 403.594574 -976.672424
6.640681 360.797241 -717.283142
174.410522 466.438873 -693.269836
458.755432 417.283936 -983.834290
64.258270 273.731812 -839.896606
454.218903 392.385681 -931.842773
391.007477 488.212128 -776.705139
404.101624 380.493683 -915.701599
401.929779 505.914886 -772.496216
179.070496 435.726929 -726.627136
315.708099 402.825684 -806.434753
421.530579 584.692627 -694.361450
305.574463 379.487122 -847.858093
219.544296 403.076263 -787.733704
242.926102 470.290527 -750.187439
329.613495 485.402771 -768.897583
81.268715 395.848358 -709.782043
355.378693 343.615021 -954.471497
167.539474 393.360107 -747.794983
396.416626 304.252747 -943.988403
182.270157 398.284851 -787.521973
55.685925 262.630402 -853.923218
274.428741 254.681747 -950.315125
41.205734 272.722321 -812.313721
3.483566 388.689972 -703.108398
475.831390 475.121277 -855.864075
244.045090 484.466919 -711.985596
413.561646 536.899963 -749.974670
494.631348 410.068359 -904.357300
252.218872 272.796265 -953.116333
288.349213 515.988892 -705.858337
86.478195 293.911652 -813.963623
258.952026 506.659973 -701.596069
348.806763 489.858704 -774.831726
249.064362 234.335632 -947.353394
292.125183 256.188629 -952.717346
215.670761 457.567505 -748.656128
425.493835 442.024506 -868.550903
386.866455 287.315277 -943.862305
255.415253 274.036011 -958.835632
216.092911 323.228149 -875.288269
131.754761 418.574707 -718.206665
333.945526 554.819336 -694.808472
289.903503 413.028442 -811.280212
187.741104 377.128021 -787.940857
358.965607 431.938690 -823.680725
113.459557 312.640778 -810.447571
13.214977 388.358307 -712.174194
340.974762 487.593231 -767.883057
410.209412 515.999084 -779.063354
166.422668 399.862579 -775.270813
279.751404 362.067078 -866.693726
314.935760 491.727356 -738.223389
477.787964 443.709625 -876.411255
408.214203 516.246033 -758.774719
352.244690 256.103790 -939.380005
379.345978 370.643768 -926.657654
88.182983 297.288574 -834.364319
494.461151 513.996643 -825.190369
381.880585 550.764343 -734.434937
421.930054 591.994995 -695.176941
52.955654 254.651062 -867.263428
405.968323 495.866119 -800.301575
220.084183 275.151489 -918.531982
403.820587 411.058563 -875.816345
327.218719 512.930786 -736.384521
400.606323 292.864075 -928.705139
294.059418 400.625336 -822.311829
262.122131 394.850250 -816.501404
232.137634 454.791901 -755.034058
307.579620 219.968307 -916.650146
399.344025 257.715790 -908.443237
273.123199 509.293274 -707.572998
337.952942 247.482452 -939.315552
81.715332 277.135620 -830.978027
426.442383 409.363403 -899.736389
489.965729 436.208771 -896.208008
397.305481 502.162140 -788.030579
409.891998 316.680573 -933.358643
124.022758 403.366180 -751.410522
147.150726 383.275360 -760.804688
57.133762 391.548828 -706.335510
21.080671 368.510284 -706.692749
199.045593 392.372223 -797.802917
468.875824 390.534790 -969.449951
202.795151 332.792389 -817.341675
159.041061 282.586853 -885.330566
360.338013 289.767029 -946.007385
300.512268 431.842621 -810.218506
115.056076 245.253525 -858.465576
376.387207 529.032227 -749.134705
324.357910 523.263977 -712.675293
325.990326 440.411285 -814.063538
201.672455 302.155243 -881.908203
297.353943 532.166870 -700.288330
444.233734 541.193420 -760.046692
280.707062 426.201599 -769.790894
216.080841 285.028351 -904.225403
241.655914 260.637207 -954.448792
334.042542 321.185791 -920.881348
17.592096 333.298645 -771.692261
433.009827 371.372925 -984.483948
316.408020 418.352936 -813.298706
380.565704 505.340881 -763.691528
403.873535 379.189667 -892.697876
503.343597 482.512970 -861.570862
118.992172 357.780029 -788.842163
60.964771 266.922760 -826.205811
358.913818 572.334839 -698.172424
247.220779 353.115997 -849.018921
457.237946 522.534363 -761.558472
359.299591 415.283539 -857.952881
428.655853 453.935150 -847.131653
283.839020 279.683289 -950.937134
234.528900 329.012085 -852.604492
84.399849 404.939514 -729.954285
268.184875 422.281982 -794.152649
284.743225 436.827789 -759.255493
288.432434 223.207214 -931.934509
492.766571 457.285278 -856.192322
301.054291 449.094025 -773.772400
365.759979 567.752014 -710.837646
408.571625 417.545990 -863.765076
299.943542 428.579742 -818.431274
153.003815 410.983521 -736.001770
374.351105 546.040527 -738.734741
125.962517 348.301361 -804.529480
243.686386 508.029633 -698.125732
262.901611 228.238770 -951.963257
309.842926 267.692261 -935.780090
292.488281 263.130707 -948.289429
384.747406 528.232544 -754.573303
112.224449 314.419983 -829.918579
263.399323 241.303131 -936.648560
80.189262 348.334686 -764.271729
294.134827 479.073883 -762.513306
484.342072 475.033875 -857.534058
430.104645 536.965393 -766.589050
494.861633 482.233093 -831.421387
395.895599 570.792175 -714.136902
483.016144 501.469757 -816.035522
232.303741 499.420074 -708.257751
304.871613 492.544067 -715.268250
405.432983 502.808899 -791.222717
399.754700 336.229309 -948.276367
495.112000 418.140625 -952.869446
436.019043 343.851196 -966.026123
357.603577 541.160095 -729.335938
248.583481 373.979523 -842.829590
176.697098 411.557343 -753.533875
203.281921 422.519684 -767.888428
164.781036 403.309845 -770.265320
15.843375 380.460144 -709.856323
323.484039 523.774414 -713.461548
130.399124 356.689087 -754.084656
303.623566 535.178345 -715.637451
282.600616 506.667694 -719.841248
72.612831 362.776886 -739.561035
191.056717 370.951965 -815.940430
379.483765 331.468597 -943.884399
317.869720 422.003052 -813.929993
264.160217 425.382782 -786.351440
365.063782 307.013885 -928.671326
32.278526 332.901154 -750.626282
186.740829 448.557098 -714.957764
381.790375 420.186768 -840.225769
360.297760 508.644806 -749.225952
429.700989 400.432251 -893.330505
451.142029 484.705994 -787.918457
146.925674 297.346588 -844.760315
385.783203 553.476013 -729.095276
248.858276 458.134247 -762.306580
426.805573 477.115540 -829.050354
192.446014 295.142334 -883.385254
265.854797 370.343750 -836.433899
104.875732 268.043396 -867.908325
193.009201 248.073532 -981.624817
370.743347 489.814270 -749.720520
88.736450 318.939087 -781.002014
497.793518 467.479156 -882.043701
117.135353 345.765747 -801.061951
268.544647 292.201477 -943.534973
382.090118 516.897583 -764.814087
210.003891 402.073090 -796.849670
400.766968 260.466003 -908.271790
292.800598 525.855408 -709.152771
312.210968 213.555954 -912.622925
275.040344 504.186188 -714.388977
370.992371 486.051392 -782.681335
267.447357 360.883606 -844.944763
24.033220 326.781433 -779.773865
53.246155 369.948639 -751.958801
240.706985 418.252502 -799.383118
283.403656 240.037369 -948.038757
301.827148 490.616302 -746.580750
498.355743 493.847015 -847.965332
119.161705 416.565430 -714.204956
387.470642 387.757568 -877.106445
71.923401 224.000885 -896.073181
429.661469 591.250061 -699.732666
282.948395 516.743103 -700.994812
271.034302 248.582932 -951.106750
434.209412 567.021179 -742.820862
233.850021 229.086777 -947.352051
111.572426 222.432983 -893.221436
383.796356 373.526886 -904.523071
275.402771 283.466217 -938.122742
193.696548 474.449921 -705.283508
427.955048 516.254333 -776.421021
424.084137 564.276917 -740.069702
170.060028 276.340057 -860.235291
136.383057 236.774567 -970.625549
212.297272 407.924866 -792.532288
327.910583 363.849670 -870.836609
402.090302 515.361206 -778.671753
179.131744 459.784332 -720.876282
144.711914 230.964523 -891.782898
226.265823 427.662567 -763.277283
390.250427 559.864441 -694.216248
207.755280 249.584229 -979.215698
348.409882 550.965942 -708.656311
464.615509 429.985291 -884.980774
382.948120 427.971313 -843.871704
350.220520 544.801208 -711.721252
474.277008 458.201019 -867.648560
294.022797 465.209991 -739.230652
78.140770 391.357117 -740.920532
442.848755 552.801941 -760.758667
218.244095 344.105560 -852.545654
411.523376 574.712219 -725.233765
405.494232 478.186493 -811.005798
392.517303 543.661194 -718.512634
277.418457 381.692169 -832.446838
482.220398 415.419800 -914.145630
405.241150 395.405365 -880.368225
177.280121 291.860687 -851.615906
344.584503 542.191833 -724.949097
35.293606 294.826324 -812.567505
352.740814 400.357788 -864.779053
504.639801 438.618958 -921.831970
437.772736 535.832031 -776.627014
418.594727 368.338776 -951.131714
203.345062 257.443207 -901.413818
329.970184 437.023041 -807.090149
340.192627 442.984863 -817.437439
258.569824 429.512421 -789.701477
95.337799 329.068085 -814.845032
406.538910 381.894135 -936.979004
469.741211 512.935486 -812.271912
187.961899 436.416565 -755.378845
420.041565 480.739838 -808.436401
311.514221 425.150696 -810.014282
333.025299 525.550110 -738.403320
253.042038 420.540771 -798.578857
455.657623 530.453674 -791.089600
440.179810 445.750824 -829.198792
458.800720 523.002563 -782.027466
197.778442 313.351349 -879.053406
395.266388 375.818359 -933.718689
274.782990 231.730820 -938.487976
402.368591 380.479675 -936.556641
119.015396 405.336914 -739.811890
295.024292 260.489441 -938.927917
320.881927 423.476013 -824.121704
142.896912 354.557373 -794.100952
341.116272 266.294586 -931.375000
250.718063 344.541748 -850.187683
421.136017 543.134460 -759.528809
318.203522 388.383942 -851.524414
193.164520 387.720551 -779.901428
307.087585 259.883453 -933.254578
256.119568 288.922760 -957.351440
184.583298 260.588013 -939.553528
62.518860 345.512543 -774.666077
281.563660 440.101807 -777.866943
108.523315 217.180206 -906.049438
359.819702 421.142181 -848.634277
167.009766 439.796539 -735.570313
179.289200 284.503632 -858.226318
481.029510 485.870087 -822.151855
292.218933 342.847809 -875.432129
254.502411 377.666595 -838.386902
80.496506 332.098877 -799.239807
406.329071 461.198273 -817.161316
398.818970 399.269836 -884.842285
419.692017 514.643494 -750.293091
488.775665 482.420135 -843.102783
414.152405 602.170715 -700.861938
190.822830 455.367188 -718.546326
495.375946 397.211456 -936.575989
402.087860 295.163239 -939.652405
253.263443 462.079590 -732.409058
109.016190 249.353149 -885.107056
340.094940 447.451569 -813.728149
304.143555 520.624756 -705.603760
343.040283 498.124115 -720.117798
272.526825 351.972229 -878.860596
137.969269 347.930695 -808.593079
391.746582 399.526031 -887.281067
320.978271 476.803864 -737.909729
311.122742 493.613647 -707.911438
361.369354 492.806030 -778.891357
196.959213 431.255432 -745.704956
186.534683 456.833618 -718.054565
365.199097 420.089417 -815.606201
71.891838 375.789276 -725.816956
335.103119 283.970703 -946.406616
48.677361 318.904877 -788.141235
456.545624 490.109314 -829.509094
306.945862 508.137268 -731.900146
345.184814 468.258087 -783.095215
265.623901 405.930542 -810.244629
411.320099 403.686157 -894.637878
308.077820 307.490753 -940.674316
381.549744 348.052856 -950.599792
322.680939 483.169464 -756.393494
146.881424 405.800476 -758.509521
91.071198 351.630310 -789.812683
403.821625 488.459778 -793.625854
211.715485 273.303772 -884.805725
414.761444 433.399750 -872.513428
411.034821 326.235291 -956.165710
260.694611 229.548157 -952.016785
322.995789 375.874512 -881.697693
401.758423 291.199005 -946.506836
431.155579 594.108582 -714.069519
180.982620 456.492493 -731.925476
355.168091 525.522644 -725.727844
236.579468 395.332458 -801.874512
412.009338 569.195190 -724.228821
270.681915 426.068787 -799.272461
168.259964 412.199341 -748.701782
329.464294 276.080780 -934.387146
371.425659 534.378296 -701.088013
375.013184 433.798309 -842.249146
123.367546 400.614410 -734.860718
161.500183 440.728729 -725.963318
415.144958 539.235046 -734.097839
66.707886 223.156723 -879.041687
352.491089 541.944092 -715.151855
384.804810 568.791626 -713.270569
277.149078 456.145416 -776.961792
299.648773 453.812653 -772.982178
345.627197 459.442932 -792.291870
389.221375 289.210602 -932.816589
275.170197 368.895752 -858.496826
464.902191 478.924133 -841.765686
319.523346 527.768311 -702.450195
142.148666 353.063171 -805.706787
196.957062 447.853363 -730.302124
450.214081 544.794250 -746.401245
179.649628 429.503723 -747.794983
156.326111 271.258850 -875.621948
227.313095 286.691162 -911.187378
236.729858 317.664642 -872.635864
459.605316 428.396729 -863.087280
374.903564 363.015717 -903.064941
380.302490 404.542694 -874.849976
401.251740 371.999847 -972.688721
12.992188 369.692566 -707.707825
318.630157 428.907288 -812.076355
445.706635 575.682739 -710.903015
88.824471 365.221893 -735.021606
391.751251 299.255310 -943.364380
348.435303 356.933594 -912.130493
217.901428 354.922546 -842.263184
185.130035 387.163239 -764.927063
163.813675 330.380707 -825.392456
244.949783 293.129395 -907.877930
459.389923 412.886230 -905.567810
325.756134 362.352905 -877.167847
476.655151 386.161133 -955.234192
369.381256 350.317200 -966.912781
250.828690 497.736237 -694.024231
126.745872 223.540512 -902.688477
480.392517 178.836807 -1219.934204
176.853226 466.540863 -702.283020
269.039398 356.601501 -856.334534
435.233490 470.584229 -822.487244
353.991394 285.488647 -939.648499
387.158020 428.844971 -847.470642
349.682098 523.223450 -726.920654
345.496124 437.976044 -824.791992
292.653870 264.683594 -954.226501
332.986206 280.738312 -944.919006
249.208633 349.505737 -852.906494
277.769653 210.030746 -922.068176
256.062897 432.090179 -785.925110
152.495544 401.448059 -754.556152
254.636292 295.034332 -897.632019
210.739365 386.126862 -796.045898
384.952423 451.994537 -834.325439
356.685303 432.249664 -842.433716
122.773575 295.575714 -831.784790
38.196255 296.650177 -771.393860
195.663467 322.877167 -849.651062
424.609528 308.587677 -943.411926
415.989441 487.647797 -797.753906
127.189873 266.956757 -863.461731
220.665848 495.752014 -708.205627
199.680023 441.185852 -754.966370
318.387146 523.364563 -730.341064
462.000854 444.652344 -873.274414
98.568283 382.104370 -724.845154
288.027252 412.506653 -826.333801
322.091034 468.280792 -746.659851
153.940506 325.024658 -821.316040
308.977814 460.356598 -776.401672
151.291245 271.497406 -867.400330
346.428711 360.031250 -905.897095
316.465424 525.809143 -715.841003
296.549225 234.710159 -934.407837
248.077713 322.799591 -888.034180
228.676651 343.251465 -858.622742
327.814972 511.551666 -730.513184
278.040588 429.290009 -754.132263
380.206146 462.722198 -811.660767
251.355148 437.217072 -778.044067
517.839233 433.470154 -942.320496
436.408386 512.837341 -797.978638
46.584747 296.549103 -798.302673
74.619453 349.522217 -760.619446
120.825554 290.442139 -811.027649
365.957520 423.324188 -838.985901
493.557861 484.442657 -841.289551
252.073532 504.110107 -704.194519
490.295380 421.508484 -906.737976
396.994019 467.133362 -820.912781
325.542419 399.580475 -859.536438
142.615692 416.778473 -696.834961
211.493088 380.602417 -817.621582
392.389648 482.414276 -804.476257
395.690247 408.388641 -856.127991
227.820831 301.310852 -897.096375
33.107979 395.710541 -697.010864
281.567261 464.175354 -747.769775
126.495697 264.275299 -879.630920
213.263885 357.618134 -814.736938
355.975220 544.418579 -709.479614
355.666260 259.733398 -944.497498
134.998764 409.283630 -750.275879
128.504959 350.996094 -783.116150
452.026947 565.335327 -750.580200
485.785065 491.233124 -851.636414
367.902191 532.143860 -726.171753
484.835236 408.305695 -925.478638
106.540207 275.942871 -846.893066
336.728577 492.708191 -770.724243
483.352661 415.033966 -916.365112
438.169525 485.656555 -801.285828
46.994431 359.427124 -728.492737
368.874023 270.926788 -922.749390
419.719849 573.197937 -731.307007
260.148407 225.564453 -940.597900
341.539246 295.376221 -943.207764
383.525696 357.751984 -947.965332
445.685577 541.235046 -775.419861
250.269897 333.781525 -866.787659
292.705566 331.570282 -909.484436
290.876984 464.858734 -752.928284
78.530281 208.416534 -917.443176
393.916443 553.604187 -712.909363
265.148468 415.366425 -800.638550
469.094177 533.088257 -791.000366
158.776642 357.551544 -815.509338
280.051392 376.278992 -835.035522
316.752502 452.567169 -777.590942
59.678768 309.085754 -785.906982
334.963959 375.571198 -860.259277
319.563690 466.879883 -787.465515
117.271973 388.641632 -766.066833
328.608032 495.786865 -748.448486
293.228821 538.741089 -701.404602
397.821320 411.553833 -860.575378
413.855255 506.005493 -791.312744
361.859283 283.532898 -935.403137
425.751221 460.623627 -807.713440
409.518433 519.334961 -781.424011
375.151398 313.896606 -949.740234
300.609711 294.737732 -946.843994
488.481445 476.694946 -863.525879
247.532379 330.789581 -867.330078
234.588379 472.097046 -719.815857
396.711914 410.380981 -879.725525
304.523834 256.950562 -936.853455
287.173767 542.469971 -699.517456
27.131069 379.880157 -696.831787
474.604279 438.513763 -878.712463
305.983429 280.166260 -942.483643
77.311821 234.889526 -860.543823
108.121696 425.150909 -706.910828
235.359467 333.522095 -872.886597
331.883484 274.683472 -933.449036
295.283142 269.334839 -943.455322
208.386261 373.664246 -797.562744
362.993866 516.002808 -757.870117
408.686646 564.853882 -735.690063
330.159241 399.351349 -842.861145
192.175934 317.891571 -836.925659
31.607544 309.158478 -766.112610
192.615204 265.319000 -895.202820
44.630733 288.319702 -807.671631
295.408508 399.227875 -834.556091
476.239655 510.861572 -810.239014
283.553802 285.517883 -952.281616
296.936371 352.162659 -848.740112
306.765869 429.390991 -820.912476
211.766754 459.619019 -718.598877
459.835022 513.008972 -796.169250
202.188278 349.884613 -846.287537
289.968079 335.808929 -884.712097
146.277390 266.823975 -856.254517
183.508133 321.915527 -817.096252
513.131042 483.748962 -873.306580
5.649394 352.756531 -727.610413
352.482178 480.715820 -789.799438
175.054520 455.513672 -723.432434
353.481964 414.155029 -840.181885
249.192123 455.460388 -711.755493
166.794403 423.236786 -757.167542
193.430145 355.678162 -804.757568
320.919464 316.281586 -953.764954
243.470276 330.015167 -880.125305
168.023148 334.937561 -824.021729
446.230133 565.365417 -731.270203
415.747162 472.301483 -816.705139
256.066742 492.772949 -716.348267
178.926819 374.293488 -808.885986
48.002377 336.424683 -779.134949
281.373505 243.328400 -941.689392
207.247086 402.037323 -779.535461
195.392517 424.665955 -766.172302
165.500214 391.549957 -781.989197
92.863289 307.285004 -811.639648
303.367737 236.231232 -936.804993
330.716034 459.586548 -788.998413
310.028900 438.849609 -806.841064
83.714645 254.161255 -854.265503
270.113831 417.206390 -794.548157
103.366135 387.744843 -707.147278
202.283478 455.470306 -699.048279
310.415924 396.383362 -810.000854
390.602325 434.932587 -842.172913
247.918854 341.498108 -862.518860
210.928345 296.435028 -900.967224
356.801544 546.357178 -724.174377
83.461594 293.801880 -835.033325
390.050751 580.502441 -695.706360
451.327667 417.579681 -860.020447
298.616241 444.563934 -782.476685
392.945770 495.119049 -774.060425
74.532738 337.993500 -772.204895
169.605011 389.020935 -759.815979
319.763947 401.862457 -847.313477
135.727432 388.709076 -739.269897
123.336800 388.167419 -769.543823
188.841965 308.701508 -853.541748
208.978973 476.803741 -718.269958
262.850433 310.616760 -885.706421
116.950005 421.779938 -713.126526
273.864532 465.727325 -748.859802
233.294525 322.822876 -861.566833
339.447083 228.381546 -923.484741
466.759338 433.468292 -887.293762
296.345215 500.847382 -717.467346
384.086456 308.425781 -944.294128
102.088326 320.665009 -799.073425
300.566498 522.182373 -711.221558
326.411560 522.732178 -733.353943
423.825378 369.970947 -956.292725
343.777405 452.076874 -765.141174
82.737740 231.391953 -882.626038
505.552307 429.539917 -905.713379
314.341064 393.691101 -845.659729
227.473511 455.718597 -730.261658
443.138977 545.291504 -742.326599
230.684875 437.978943 -770.783752
81.468079 217.063248 -915.949341
298.128632 294.322113 -948.154480
269.544769 483.508148 -732.536072
463.384277 391.016174 -912.251099
196.559097 281.773041 -883.631836
203.815521 273.543884 -895.795410
214.173447 414.139771 -769.099731
260.802277 435.121918 -771.579895
116.332520 405.807800 -714.294739
277.987061 305.447906 -933.200867
324.734558 489.320801 -751.064636
423.004883 597.414856 -700.562988
456.830078 407.569916 -904.708008
172.952682 343.657257 -835.643311
422.194519 303.447235 -945.110229
172.905579 459.764496 -717.795471
430.962738 551.187622 -726.202271
120.509048 226.532547 -875.545288
462.719177 496.100830 -825.217773
295.098206 437.588531 -790.833557
209.651520 317.116852 -835.845520
313.237274 304.143799 -955.755615
382.828979 396.333801 -872.990601
402.060150 575.862366 -717.999329
67.125725 283.586670 -814.350159
407.966797 304.331970 -949.196899
294.792999 256.816864 -951.973083
304.357178 252.195328 -930.943359
84.743942 405.920349 -733.762146
127.534142 454.722992 -710.212646
205.623474 290.494019 -879.870972
455.072906 412.035645 -996.372925
207.753098 460.929291 -713.324036
212.476685 381.684052 -813.675110
439.381042 547.294800 -733.950195
101.681450 322.957184 -794.383423
320.416809 229.077255 -920.186218
327.256317 535.119812 -702.197205
214.650955 374.716309 -821.541443
67.771561 371.587128 -751.992004
265.798828 296.400085 -894.226624
474.910217 490.253448 -816.162170
495.930908 432.185974 -896.979736
291.107544 233.873001 -943.810486
172.212662 431.025787 -732.710388
150.539047 332.569122 -837.648315
81.467743 302.860535 -820.771057
126.513031 441.272858 -701.946838
306.523529 334.506256 -872.553650
301.124420 495.618469 -700.010864
357.494476 484.251465 -788.222046
294.515747 513.422363 -717.848999
62.141216 321.899841 -796.848145
428.350342 481.573242 -832.143799
434.132019 586.657288 -721.300720
199.338776 490.701263 -704.664917
352.041931 455.033875 -796.184814
439.192078 548.027527 -748.840393
374.199921 539.237122 -730.301636
145.112274 431.264191 -719.696045
345.432434 378.159302 -882.456238
202.058426 263.342865 -976.228394
402.631714 554.650269 -716.801636
411.241150 580.745056 -712.344238
408.911682 545.340393 -754.710388
346.347504 395.088226 -855.501099
327.468018 519.608765 -718.665466
429.065918 545.590698 -741.620300
185.359406 361.571075 -826.225281
469.243774 448.373871 -868.239929
342.283844 399.938416 -851.352783
