ply
format ascii 1.0
element vertex 1368
property float x
property float y
property float z
end_header
653.623901 -517.833679 -636.710449
831.727478 -343.729462 -515.582153
698.794067 -318.012421 -561.222900
474.663849 -436.158173 -670.277100
760.105835 -390.339264 -561.294617
744.303284 -300.002380 -547.130127
607.512512 -592.291931 -580.627686
467.149811 -353.366760 -671.633972
708.307068 -348.904419 -575.864197
427.591248 -518.692688 -757.090210
785.456787 -573.841064 -573.892151
544.704102 -380.836456 -648.192566
793.460327 -534.466064 -566.013611
509.781464 -499.950409 -675.862305
547.167725 -546.138428 -682.485535
667.401428 -565.453064 -659.461304
505.766266 -263.761047 -628.283691
792.729736 -271.647034 -519.164001
564.196960 -588.749878 -624.855408
380.478485 -322.425568 -687.448792
572.425293 -572.784363 -620.995239
755.421936 -518.889893 -561.550720
565.501770 -296.201752 -626.918701
681.752441 -526.554443 -612.215332
771.866333 -337.948608 -540.465698
747.940735 -275.082520 -545.823303
635.792053 -276.280884 -594.550720
474.807709 -246.980362 -652.252625
585.663574 -370.020355 -617.603821
381.244904 -241.466568 -662.792053
544.393982 -541.116638 -685.997070
815.253906 -474.533844 -534.958679
790.276062 -347.012543 -536.774414
476.812805 -293.234039 -631.550842
542.012939 -572.467102 -639.232361
657.874329 -476.774933 -592.418823
657.640381 -308.395050 -576.557312
503.307007 -297.865051 -650.853882
784.578552 -444.001984 -566.212402
559.635681 -237.646774 -617.832153
389.634308 -263.108765 -667.087219
428.410248 -191.129913 -656.240967
811.911499 -426.469147 -535.780762
472.465179 -395.494781 -655.556580
400.601501 -263.834259 -679.432373
742.995667 -267.999756 -527.478210
469.278809 -221.261368 -650.472473
693.809753 -392.290558 -576.316162
580.152466 -424.157898 -624.221008
798.080017 -447.700684 -526.483398
807.702148 -410.301941 -545.342957
647.482788 -411.083252 -597.420105
575.866211 -579.337219 -635.767822
393.463989 -425.353088 -712.137329
481.182648 -283.504303 -640.607239
517.009399 -414.472900 -646.734070
790.647095 -289.936218 -524.603821
496.364929 -555.036011 -691.536926
464.165527 -363.309601 -679.458069
621.276123 -305.861847 -599.056091
546.505432 -292.000732 -605.995789
794.307068 -487.202362 -544.838318
771.367737 -360.323212 -549.185181
841.634338 -516.756775 -558.280334
776.669434 -455.278351 -561.018677
828.316956 -385.556030 -528.612183
515.166260 -478.807709 -661.583923
802.672058 -591.961792 -649.575317
544.134949 -416.474487 -658.054504
700.164063 -412.418488 -579.885986
703.245422 -587.248596 -641.171753
776.876587 -327.423370 -541.557678
462.529602 -405.840851 -683.850403
649.930359 -242.979965 -572.180542
382.033020 -300.850586 -682.191772
789.063110 -474.930176 -539.723206
596.706848 -478.340637 -634.711060
756.854736 -528.635803 -593.104858
403.668030 -357.016663 -674.942688
531.844238 -241.088013 -601.615784
683.403381 -481.066345 -606.291748
567.634338 -359.513641 -626.532349
484.809387 -216.049973 -629.438965
526.185669 -587.398621 -631.055908
444.790314 -255.735809 -638.786255
531.990540 -295.541260 -611.995850
444.039764 -322.722198 -677.727539
823.596008 -310.249603 -519.751648
587.842407 -333.919220 -610.167297
581.976440 -417.271362 -633.110229
824.163818 -450.195648 -544.881104
781.160156 -448.658722 -536.671875
706.962585 -424.407013 -581.658752
726.188904 -529.143372 -599.676758
443.292389 -216.194534 -642.056396
508.489563 -517.659241 -700.533630
831.378113 -333.546295 -514.721497
737.992981 -271.917053 -529.672852
631.961304 -436.408783 -612.401917
834.572144 -292.609283 -508.911804
741.375854 -497.685181 -582.636414
777.739929 -364.624146 -513.773010
464.788818 -301.990692 -641.188232
478.366272 -372.635498 -658.503845
838.024597 -272.896362 -499.339752
399.550232 -324.807739 -695.089172
706.680054 -259.645630 -554.399841
555.999451 -384.688873 -629.748901
644.848511 -349.546356 -590.263062
480.247772 -377.962524 -652.455322
776.363647 -458.814941 -566.500244
505.409546 -548.970764 -673.591797
487.657959 -374.584747 -666.677551
459.288147 -373.053436 -664.890503
580.654602 -567.355652 -638.560547
756.223877 -357.316101 -541.030945
488.974792 -416.071228 -678.590210
708.034668 -269.878723 -557.580078
808.162598 -360.886810 -525.692566
808.152710 -381.040375 -519.497131
769.359436 -454.914459 -565.667725
593.995056 -392.062561 -620.662170
410.655609 -272.903595 -663.901733
656.766174 -552.283630 -640.235413
718.204834 -581.047607 -642.832031
515.926147 -490.637329 -658.276489
674.047363 -451.316162 -605.675598
501.235992 -228.518234 -622.634277
599.962524 -424.402008 -628.068787
590.593994 -252.006500 -603.349731
719.062195 -335.015839 -551.204834
557.508240 -591.108887 -625.762878
650.148193 -286.698486 -588.750366
553.931458 -298.480621 -591.583252
587.962341 -262.455963 -607.768860
553.298096 -314.606384 -632.440796
538.227112 -585.364319 -603.608459
405.919586 -344.450745 -693.613464
381.092743 -260.576385 -695.656433
542.357666 -455.671387 -660.488708
623.499268 -488.746002 -631.386475
607.141663 -558.087708 -673.368347
684.998474 -520.164917 -610.996765
517.485474 -308.060394 -648.522034
486.547058 -296.639679 -642.656494
566.966125 -383.944336 -642.852478
804.603455 -438.202637 -552.270325
631.742676 -563.505554 -644.961670
762.788696 -363.082703 -558.501709
809.545532 -457.572418 -549.101013
527.481812 -263.350250 -621.735291
699.907959 -245.015472 -555.237122
822.773376 -306.152893 -504.265198
792.985718 -403.642059 -533.727966
605.480774 -368.258392 -609.290649
604.349487 -254.088577 -585.607544
553.846802 -314.842255 -616.730957
645.366638 -469.418121 -624.160889
810.358154 -337.601440 -491.516144
637.236816 -563.327759 -653.697754
554.740723 -482.440674 -659.951477
728.478271 -483.270294 -571.468140
563.189392 -255.327698 -620.397522
452.822052 -471.586456 -699.193970
414.423737 -329.429321 -689.079529
801.964722 -430.116425 -541.274963
799.189453 -345.183228 -531.650513
787.018616 -332.222809 -536.004578
572.606995 -443.190338 -638.128418
550.973083 -526.080933 -689.699097
785.430298 -504.369476 -569.630310
765.335754 -531.296387 -581.633301
621.386475 -472.776855 -620.715088
528.758972 -427.062836 -647.243347
496.010651 -442.226044 -648.430481
567.617188 -335.077698 -620.509766
759.713806 -460.287506 -569.269226
757.434082 -385.788422 -555.946228
517.922852 -352.436096 -641.357666
519.417053 -390.836792 -649.102478
755.845154 -304.700592 -538.528992
557.799316 -286.799347 -610.550720
766.233215 -515.693970 -557.429321
801.449402 -435.409149 -550.083069
804.339722 -295.712646 -524.626099
621.171509 -592.746521 -582.646057
803.796082 -470.342651 -551.354248
776.991943 -482.052155 -569.959534
779.412659 -310.781494 -534.700195
480.815155 -251.180740 -649.554443
486.596680 -351.526123 -651.534668
744.302673 -553.114929 -603.213806
640.708801 -446.610168 -623.163574
813.115601 -358.783020 -531.464600
835.325684 -427.741272 -535.910706
532.517212 -585.424988 -600.545349
820.624268 -486.570801 -550.919556
532.272034 -278.618652 -634.621094
485.073181 -486.304291 -676.311890
696.120056 -540.220703 -615.994263
699.760681 -360.503479 -581.452759
411.125244 -297.601318 -668.226563
693.457764 -592.883850 -635.087524
502.977692 -364.516357 -650.978821
752.711060 -389.487000 -562.241333
600.496155 -304.295532 -595.752380
684.167175 -552.672729 -626.962646
525.988281 -375.303040 -644.823486
532.292358 -412.582825 -661.893311
653.014709 -289.363037 -573.498169
622.710999 -593.031799 -621.416687
588.574097 -373.415955 -627.499084
718.270447 -585.828125 -632.961548
414.312653 -326.569397 -692.821838
456.187103 -465.514984 -693.137695
495.225708 -319.819397 -647.826416
696.926147 -312.738708 -559.921570
820.701904 -397.303528 -527.401733
509.441071 -277.870483 -620.574097
769.441833 -400.763702 -548.587463
716.051697 -261.736237 -520.424866
790.223083 -498.293518 -554.210327
649.026062 -261.410004 -571.266113
756.353088 -530.890930 -580.875488
676.025574 -336.298553 -576.023987
780.820923 -463.217804 -559.199402
780.139771 -373.036804 -547.105530
668.702698 -390.984375 -569.219849
531.781372 -365.500061 -640.757446
738.696228 -337.481110 -558.977295
815.158447 -553.960999 -547.472351
484.965973 -331.538727 -649.042786
771.286255 -589.904297 -642.407043
818.552124 -433.538696 -545.678101
845.966736 -490.209229 -544.350281
371.904938 -387.195557 -709.722473
780.025146 -437.010742 -543.257996
760.496460 -396.739258 -557.542236
831.138184 -339.333527 -483.917145
804.520447 -489.432465 -559.450928
573.611877 -556.496033 -659.499329
727.014771 -267.090546 -536.983521
570.684448 -291.820007 -608.674011
832.339661 -467.406067 -529.608765
721.293274 -375.925934 -540.188477
710.061890 -276.437500 -545.537354
759.144104 -274.090698 -539.681641
490.376373 -551.529785 -713.150574
579.161499 -323.407074 -594.938782
503.599335 -202.762344 -597.474609
619.008789 -423.740356 -614.719971
448.018158 -247.777756 -632.086243
455.419250 -210.630936 -640.905151
443.737640 -230.808121 -660.345703
791.532593 -275.353027 -510.682648
814.404968 -497.596802 -558.369263
472.616669 -389.829010 -654.831360
789.438599 -317.357422 -500.092041
697.962891 -277.775726 -566.158081
843.410828 -530.360107 -562.236389
684.080505 -553.887817 -645.044556
532.378967 -298.750000 -640.718933
708.525818 -586.898193 -629.257324
525.230896 -214.650955 -615.148010
376.233948 -288.905823 -677.117432
597.115234 -379.786926 -616.622192
835.886230 -389.800934 -529.654236
411.008209 -266.271088 -678.632507
736.424622 -498.400635 -584.224609
696.694641 -471.628815 -594.226440
587.764221 -561.575623 -645.780701
570.742432 -482.878021 -645.890869
522.063171 -336.519257 -646.893372
520.348206 -385.428589 -661.657349
554.564392 -245.221115 -617.289612
589.882263 -366.933228 -627.599487
838.372559 -363.943420 -510.274353
723.666931 -250.597610 -543.707642
722.610107 -417.411316 -579.387451
616.981140 -543.030396 -652.375061
691.549622 -540.252869 -619.285706
818.802002 -458.181061 -545.527466
536.001343 -525.213623 -697.068054
696.477173 -371.029907 -570.865662
389.505371 -392.806580 -675.225708
521.821106 -269.785980 -625.894653
428.570129 -472.398926 -704.814941
552.475708 -262.826172 -611.451843
702.214294 -251.632324 -550.935303
796.024536 -406.846283 -545.043213
435.508057 -400.882507 -698.392517
628.803345 -563.314209 -644.853882
401.890625 -298.837616 -688.406860
740.639343 -414.480927 -567.795715
656.287720 -394.663574 -606.672485
580.523010 -296.531982 -607.485718
716.059692 -592.328064 -611.670532
625.628601 -558.620605 -644.843140
492.727631 -406.189636 -658.189880
646.750488 -276.840027 -567.275940
641.546448 -448.087494 -617.961060
566.526733 -238.777802 -589.751465
565.610962 -527.565430 -683.120911
468.009857 -279.827728 -661.883667
456.724335 -352.067688 -654.664124
686.768372 -336.571075 -576.746033
610.171753 -495.211060 -627.597961
603.614075 -487.521423 -639.633179
614.405090 -265.685669 -584.389771
572.664001 -565.249451 -651.513977
543.450745 -515.712097 -684.974121
597.463196 -301.265472 -602.612305
553.028992 -550.683838 -686.286865
518.676331 -435.996704 -656.615540
703.312622 -248.820877 -534.142761
563.081848 -220.159500 -600.659607
642.691528 -467.242950 -613.003052
623.999207 -419.728302 -626.467712
547.351929 -278.685547 -616.379211
719.081848 -543.755188 -601.681946
489.525879 -300.579407 -658.374634
546.569214 -388.763641 -633.931580
514.989746 -296.554230 -645.665527
479.115875 -225.069595 -631.855469
757.110657 -406.179535 -569.753723
629.087280 -415.443848 -611.015442
543.514038 -309.582184 -637.225952
682.647644 -432.389923 -598.846069
751.869141 -507.127533 -579.770874
630.421143 -281.714142 -586.833679
490.955414 -350.073151 -648.680908
649.964539 -491.107513 -622.549927
455.717010 -471.373657 -672.233459
571.600586 -290.458099 -610.191711
443.089813 -265.436523 -667.062073
634.826782 -407.960510 -615.070801
500.853821 -551.030457 -696.162842
646.597290 -404.666046 -609.411987
594.527588 -282.882263 -609.815735
380.399994 -244.073669 -672.105164
569.728760 -580.729736 -606.867676
684.733521 -525.140259 -609.089355
556.408691 -450.764648 -644.211548
460.498077 -365.575562 -678.250183
748.639465 -497.504120 -556.536865
572.762085 -266.131378 -589.825439
569.287659 -301.333344 -600.235840
583.032715 -395.288696 -619.868652
684.471252 -377.999786 -562.422913
443.874786 -298.484497 -656.985229
617.153503 -357.135132 -615.546082
676.396423 -258.185577 -561.640808
608.640747 -303.772736 -608.852295
695.945129 -470.438690 -599.093323
729.284241 -363.332855 -567.683899
370.297729 -314.460999 -684.814087
656.529419 -525.619812 -632.494690
467.305176 -448.763275 -674.183167
667.657776 -288.976807 -583.970642
519.171997 -319.322968 -626.007629
492.237213 -551.227478 -717.877502
639.550415 -566.660339 -649.342102
462.222260 -431.204926 -690.547485
723.420471 -276.966217 -539.776245
629.275452 -492.629364 -623.174988
609.745300 -480.414795 -622.354431
768.566101 -590.687134 -645.734009
711.627625 -525.394470 -608.226379
439.844513 -375.742188 -654.943359
482.266571 -434.285339 -679.450562
825.127625 -384.789948 -525.320007
785.672791 -315.978821 -531.756287
769.250122 -385.535828 -556.539978
764.909729 -539.585938 -560.269226
389.093536 -478.685516 -737.041809
706.404785 -344.901031 -563.662354
553.800537 -375.329468 -629.176941
649.030090 -501.116669 -616.095886
503.959930 -246.955780 -639.796143
628.682068 -447.819305 -598.051514
433.702271 -208.057693 -663.503174
746.851135 -407.400085 -569.151611
482.378998 -309.016327 -658.808655
816.649292 -304.307190 -509.103699
715.568970 -273.284973 -550.239685
479.465851 -331.594116 -664.721985
422.540558 -296.478027 -669.438049
642.481873 -276.889404 -582.636475
725.638611 -504.187622 -588.563049
530.976196 -261.955109 -631.363770
600.769836 -296.328583 -597.496033
755.218933 -417.989441 -563.447815
370.448303 -370.228241 -707.414490
422.121429 -243.662003 -656.989685
391.012665 -292.795959 -687.080933
568.351501 -375.684479 -629.426636
701.284912 -465.613159 -593.852356
771.598633 -305.482971 -534.316956
452.081177 -330.222351 -651.784485
552.981018 -342.534637 -638.911987
431.446899 -272.514465 -676.191650
498.872162 -572.346802 -636.463562
820.879456 -331.582703 -522.947815
746.202576 -361.046539 -554.580383
769.023743 -574.413330 -626.255798
371.774841 -431.917542 -719.691406
499.781433 -483.468933 -675.777893
609.140381 -589.213440 -616.465698
622.638977 -335.490753 -609.623291
685.832458 -455.601440 -605.089966
604.701782 -416.240265 -628.778564
485.066071 -404.357605 -678.406311
441.398163 -260.518066 -670.663086
504.486633 -529.515503 -723.435181
545.933228 -219.219116 -607.745117
638.479126 -596.345825 -619.279602
713.359985 -309.752136 -551.036804
624.602722 -370.824493 -606.008240
489.320099 -557.402466 -668.054810
677.435791 -443.542694 -598.682556
397.449524 -198.384628 -657.504089
813.609924 -427.406860 -527.417542
742.756714 -342.525238 -547.787842
640.948303 -483.384552 -617.750854
763.140930 -333.454224 -546.452515
556.488647 -451.770264 -641.487122
382.283478 -229.192215 -667.211792
627.633850 -353.235840 -599.258728
748.318787 -289.734589 -538.707947
602.300598 -531.339294 -668.247559
804.593079 -550.541077 -589.219910
520.951782 -520.920471 -687.605652
735.890686 -592.581604 -633.544250
608.049683 -317.336670 -597.227600
526.228516 -356.086517 -653.989624
711.300049 -249.529068 -547.634033
582.051208 -589.834534 -631.710571
554.014160 -291.234924 -615.111755
499.454651 -247.812119 -619.061157
634.155396 -336.377167 -596.654480
424.344666 -289.908051 -683.129639
421.319519 -464.728149 -696.061096
590.037231 -448.487549 -622.947144
479.417450 -205.479034 -645.146729
704.361755 -299.523499 -555.026428
599.472534 -554.990845 -651.247070
543.485718 -403.625763 -652.563477
812.055298 -449.809692 -539.543823
594.167358 -425.145996 -628.281921
795.375916 -394.868378 -546.715820
701.841370 -253.438461 -549.058533
584.849609 -509.120941 -657.274780
550.470032 -432.976440 -637.295654
595.644897 -246.621979 -587.778931
672.073730 -239.618454 -562.116638
721.250549 -464.993256 -563.690369
613.703491 -275.385406 -600.919800
572.908508 -531.893311 -685.414307
511.124023 -466.452087 -661.349121
629.949280 -338.238495 -606.094116
682.551941 -326.957947 -582.028015
557.816589 -307.224457 -592.641418
562.043884 -583.964844 -623.746643
637.648987 -347.119568 -592.216431
831.593567 -525.156738 -570.052307
400.328125 -454.075043 -717.035217
685.977356 -474.476074 -604.467529
638.746460 -482.058136 -616.192688
793.770996 -288.907959 -501.661377
761.575867 -326.696625 -513.898560
392.967712 -340.824585 -675.126709
713.671265 -306.614349 -552.655334
656.682800 -396.762726 -592.959045
694.248169 -577.278320 -642.093628
492.726288 -214.805786 -630.896973
670.447327 -471.788879 -603.229004
685.415833 -268.242676 -559.806763
792.257141 -409.526001 -554.695374
582.756714 -568.597412 -654.311646
428.321777 -322.839203 -666.751587
612.821411 -563.789185 -649.265747
684.233398 -332.182922 -574.066895
496.663269 -471.774231 -660.392761
801.317444 -406.617981 -548.512756
741.021606 -582.312683 -652.820496
596.633362 -324.555878 -617.881104
775.987793 -282.503967 -515.872498
781.664673 -518.540161 -576.903687
848.072876 -316.811218 -502.958862
802.105774 -492.438080 -557.823975
676.508606 -573.176758 -635.675354
823.077271 -490.846680 -555.607361
648.118652 -589.366333 -631.437988
444.169220 -256.342468 -653.095581
724.112244 -515.626282 -600.981140
569.707520 -234.731140 -603.371887
646.226807 -259.480621 -569.765564
518.593994 -249.222000 -622.754578
805.778503 -390.759064 -530.920349
476.558228 -240.740112 -648.921082
414.282013 -289.687317 -681.387390
585.715454 -230.676041 -592.882874
448.649872 -191.056839 -651.049316
751.048523 -587.999939 -645.652405
693.837952 -258.118256 -547.542236
507.531067 -402.836334 -636.069946
467.048187 -249.455887 -630.369568
784.565735 -313.987823 -532.286865
715.392639 -388.160797 -574.105164
566.517517 -355.987366 -637.779663
585.082031 -574.164917 -633.684143
508.552094 -333.725403 -651.456238
604.255493 -441.217407 -605.968628
632.167297 -488.109711 -635.891174
805.221008 -448.574554 -523.573425
788.772583 -561.828674 -601.157104
630.711426 -411.963928 -606.343933
844.067200 -407.078583 -528.245422
877.160645 -574.233032 -592.460754
501.146912 -422.846985 -669.802185
725.892944 -288.287628 -557.557556
587.156555 -261.714874 -599.858582
708.782837 -303.932190 -558.757263
727.964355 -335.200592 -558.344482
671.621460 -295.765076 -575.112244
730.687927 -285.875641 -525.313660
545.857483 -535.980286 -697.479370
719.208313 -397.649323 -579.776855
820.570068 -472.826416 -548.008057
675.942505 -303.901031 -567.883606
701.253418 -305.069641 -553.079224
625.284180 -581.445496 -644.453613
721.903870 -291.325562 -554.207947
806.067383 -430.178894 -547.315308
750.974915 -335.903473 -539.092041
562.676819 -589.590942 -627.336182
816.731018 -509.218689 -554.909241
743.095520 -382.235260 -560.320679
773.668823 -257.506653 -524.420471
422.594727 -382.967041 -701.138611
457.821014 -288.681702 -665.459229
818.297729 -532.983276 -571.547913
529.715515 -554.603027 -679.777222
760.041077 -332.931030 -553.204224
402.390442 -208.180023 -658.663391
372.299835 -410.444946 -721.770203
386.092285 -348.196442 -675.639099
471.619049 -452.930847 -674.098145
780.734619 -267.086700 -530.484863
572.011658 -244.219177 -594.808716
678.047302 -557.899841 -635.578491
565.158020 -564.147827 -662.629883
544.522278 -244.528381 -622.687378
681.025391 -310.405151 -581.646790
392.939117 -282.351929 -688.440369
698.573181 -544.361267 -616.517944
556.023254 -415.219818 -632.639893
766.542664 -284.156128 -525.481445
607.915771 -449.384369 -626.676514
749.916138 -558.697388 -623.889221
389.822174 -387.048492 -684.320496
590.512024 -472.806458 -641.632385
552.733521 -470.740143 -633.600769
425.395844 -316.942688 -688.275208
745.705566 -505.657745 -579.467773
391.844757 -469.474060 -692.098999
795.101868 -292.635834 -501.720062
585.598511 -580.458069 -632.082642
824.194580 -484.481506 -553.922302
491.157227 -381.171997 -654.845093
537.601990 -231.539276 -623.964172
665.672607 -377.908875 -597.190735
831.693298 -369.654114 -506.608429
661.074402 -459.789215 -604.487854
832.142151 -337.506042 -514.174805
580.657410 -480.352448 -630.662720
660.133728 -385.458099 -604.972168
458.874756 -244.916046 -651.671631
667.502136 -545.011719 -644.259949
702.899841 -494.088654 -599.950134
701.431213 -500.258209 -595.581055
790.628967 -517.903137 -567.153381
511.204468 -582.307068 -616.708130
467.881256 -476.751862 -690.757080
390.890625 -266.340576 -694.357605
506.336029 -437.914886 -662.807373
802.560364 -433.620087 -552.891235
523.681946 -352.724365 -641.592651
622.795654 -265.925964 -564.955872
433.602631 -309.167389 -666.543823
751.203308 -364.371216 -560.121399
408.201843 -389.357849 -700.878601
667.710632 -278.855011 -581.935486
595.097412 -231.487061 -586.097717
684.509094 -359.895325 -589.662292
695.442078 -313.916656 -566.813782
600.996033 -599.769592 -609.916748
789.968201 -355.160980 -543.612000
745.927063 -409.619293 -542.872192
678.910583 -463.367493 -606.000305
698.069336 -486.730133 -594.812866
798.851379 -419.704529 -518.395874
488.190430 -545.695862 -699.043640
693.672241 -301.580048 -556.948242
465.616974 -331.877747 -656.104431
698.585510 -459.505768 -597.594360
456.752686 -423.030914 -674.203552
379.755432 -402.363953 -720.290588
431.434692 -382.518646 -686.353088
645.528259 -420.793793 -612.677917
602.595093 -453.408813 -621.336060
387.970856 -417.116913 -719.360046
510.554565 -245.402786 -609.486755
656.353027 -495.447998 -621.537659
475.521057 -257.170502 -637.136230
433.412292 -425.868744 -698.411316
581.453552 -399.021149 -627.219360
632.804199 -582.738770 -603.721008
595.986267 -552.996155 -669.685242
812.205688 -415.019775 -541.618347
443.523041 -323.193176 -661.135498
655.221741 -346.362762 -569.237793
626.009949 -533.262451 -627.311890
693.604919 -272.360626 -563.037964
607.763611 -462.563599 -633.556152
726.194702 -244.604645 -544.350037
524.585876 -567.250732 -670.484070
456.687378 -357.396576 -663.643677
629.365784 -279.763977 -578.690186
624.117859 -250.845306 -582.806763
569.098938 -431.895447 -645.357300
628.157471 -303.692871 -601.082886
720.886658 -254.122131 -548.782043
695.037598 -566.579163 -645.121460
438.141602 -378.356323 -673.707397
793.613281 -547.262024 -576.428589
474.451630 -553.597534 -675.499390
381.793060 -270.443420 -687.545715
798.039612 -510.768158 -561.126953
814.521851 -319.801910 -521.223389
525.509521 -530.666931 -695.508240
464.231018 -471.673370 -679.679810
855.505676 -327.008698 -503.106995
485.672516 -419.283691 -663.176453
600.583130 -580.431458 -619.144653
631.915527 -307.418701 -590.752502
818.357788 -315.273956 -505.534607
394.872742 -247.715744 -652.653320
437.354034 -230.347290 -648.125244
780.689270 -501.853180 -567.617554
594.190796 -401.590576 -601.593689
601.392212 -472.287476 -623.177917
567.540100 -266.789581 -601.979492
474.516144 -358.309662 -646.908386
814.708679 -570.987976 -614.340393
605.827637 -551.465210 -658.431519
791.692566 -266.341522 -523.067322
598.308472 -273.255676 -590.476685
516.966614 -436.741760 -647.959595
776.953003 -589.465881 -638.481018
751.788879 -257.945862 -527.842712
672.029907 -479.354065 -612.191040
631.694275 -462.050507 -614.954041
377.680664 -224.057556 -689.706848
835.450073 -308.933624 -491.966797
534.614929 -366.919098 -630.357605
780.629395 -329.182770 -537.869873
772.454956 -479.223938 -542.741272
768.682861 -348.426727 -538.193176
743.753235 -435.204742 -575.910339
445.642517 -306.995941 -639.151367
618.014771 -482.929199 -623.669373
624.604980 -476.424133 -633.692444
471.262299 -285.723755 -644.182251
666.879578 -319.561584 -588.425842
687.572571 -328.099670 -582.382507
791.778198 -586.214722 -651.900757
604.168579 -245.759689 -601.207520
704.721008 -251.740799 -549.349365
556.121765 -449.465576 -655.293274
606.308838 -495.972992 -633.493958
501.517578 -370.011536 -641.533569
808.488159 -436.649719 -519.257507
595.513123 -487.743317 -632.576477
667.962097 -497.505829 -614.054565
521.783386 -503.951172 -675.939880
434.712067 -361.067719 -681.507385
705.064819 -304.200470 -556.548523
813.043579 -458.198547 -533.235779
803.136963 -325.324432 -524.346130
735.859680 -346.770050 -555.327515
703.399292 -309.139832 -540.913269
441.214569 -311.664215 -677.454285
395.092590 -217.603867 -684.621521
414.903717 -245.102631 -656.035034
381.073944 -470.966797 -717.729309
780.798706 -385.410950 -539.982178
592.855896 -293.327881 -614.560364
384.025269 -237.814270 -654.964111
739.289307 -412.791199 -575.799377
465.679657 -434.870758 -685.908386
442.165405 -516.108337 -735.736938
451.714691 -230.039108 -656.345337
745.142029 -449.084778 -573.248596
507.634644 -410.679535 -658.271118
613.312378 -537.836182 -645.270264
842.755005 -320.594727 -516.029724
769.365540 -369.723877 -530.435547
700.191772 -240.352234 -555.698547
542.567871 -366.592377 -631.620300
721.741272 -412.479218 -570.181702
842.573364 -458.227844 -535.974060
732.575195 -508.091919 -585.462585
633.356323 -262.338959 -587.565125
524.694763 -371.186127 -631.800903
541.287231 -243.754944 -629.055420
629.798401 -604.827332 -595.920166
554.675049 -276.411804 -623.523376
759.341003 -299.513672 -534.420532
813.674744 -351.282196 -526.294861
501.320190 -445.821472 -677.576355
475.405762 -452.104767 -683.728516
418.745758 -348.316925 -680.905945
556.059570 -409.495239 -631.416748
793.456604 -347.701660 -541.648376
683.766174 -302.495544 -570.660095
561.285217 -567.171814 -632.501709
486.136963 -257.489288 -630.642883
720.061035 -334.032837 -566.963623
503.709412 -400.438629 -664.857544
740.622375 -433.718353 -565.004089
704.350891 -282.650604 -549.881287
607.896362 -271.136719 -593.603821
672.425049 -572.779114 -627.619995
447.061371 -209.020386 -644.127441
683.567444 -415.275360 -568.279602
552.658081 -431.425446 -642.790955
615.626831 -387.721771 -611.093933
566.970825 -436.763611 -632.631470
655.054932 -427.116913 -609.714294
478.448517 -536.121582 -736.648865
758.776794 -582.026062 -620.758789
460.164978 -401.430878 -670.099304
603.978455 -481.355255 -615.619385
483.489929 -555.148315 -704.637878
730.913147 -309.074585 -544.059570
608.761353 -316.486694 -594.718506
665.067505 -253.723328 -563.841858
523.158325 -583.472351 -638.058594
573.775024 -440.425812 -650.142700
799.429321 -357.755951 -539.808655
594.447021 -282.702545 -598.148438
765.635925 -343.691986 -537.865845
583.695862 -435.057007 -640.222107
809.184692 -540.185120 -573.128906
536.958008 -556.492126 -653.287659
446.355743 -434.208008 -693.476196
480.693146 -290.593842 -648.411865
483.827942 -310.677032 -662.510925
628.849548 -252.362198 -587.895630
786.814941 -350.303528 -537.711609
806.475342 -306.900421 -524.493958
726.899231 -319.560455 -548.282654
517.913269 -362.429474 -645.683228
633.259644 -553.557983 -645.723633
760.899353 -413.547729 -560.196472
604.129517 -367.929230 -621.625916
606.495361 -316.574554 -601.131775
434.696136 -330.351013 -669.718445
470.536407 -402.261871 -672.054626
796.221375 -403.184052 -537.778381
592.493896 -288.129303 -596.916809
809.177490 -454.483368 -556.569214
792.764221 -466.606415 -538.923035
634.202393 -489.094208 -604.750366
716.701050 -272.877686 -541.415710
488.127319 -564.733459 -637.902405
478.578827 -211.848877 -632.002136
635.335754 -413.238373 -615.648193
746.495483 -389.369934 -555.226440
551.455322 -257.378174 -590.873962
787.095032 -355.698242 -538.687805
808.156311 -348.898499 -527.672180
789.099121 -357.105530 -531.797852
563.409485 -386.655945 -623.142151
663.110840 -288.624146 -585.855408
429.510315 -230.719894 -639.231079
734.788330 -463.938629 -584.665466
799.991394 -324.232025 -528.193359
695.460754 -482.342834 -601.132874
630.707336 -575.249146 -640.441528
561.904724 -254.607895 -599.532410
616.977783 -454.545654 -619.315125
548.795105 -404.868347 -638.537109
551.776062 -322.188293 -605.630005
497.545380 -508.415405 -696.867798
817.956116 -280.223572 -497.585022
608.373840 -598.276367 -605.316223
749.966553 -331.637756 -538.632324
662.235291 -442.268250 -600.873474
421.977112 -316.594757 -683.445984
644.416077 -250.574936 -572.248291
575.426758 -540.831848 -676.235962
547.191162 -376.863312 -632.105408
821.770630 -379.134857 -533.454224
667.231018 -442.861023 -599.230652
733.885803 -421.312744 -581.693542
674.058655 -324.932434 -581.220398
643.017944 -479.640137 -629.375000
814.358215 -292.200897 -518.783447
464.304016 -531.695190 -736.265320
629.921570 -399.469818 -605.955688
556.370911 -332.479187 -617.027222
545.786621 -588.174255 -582.912354
762.080322 -266.981567 -520.516479
413.456726 -457.068878 -713.439026
809.818604 -407.960968 -541.841614
507.781586 -304.043396 -648.077881
540.031799 -561.066711 -645.599731
807.628357 -396.246307 -545.628052
743.392883 -284.554840 -548.597900
829.895203 -365.609253 -523.498840
704.590210 -371.051758 -581.194153
530.502625 -552.425720 -671.964294
773.998962 -323.762695 -528.615417
425.422882 -399.093597 -683.692444
707.903076 -545.918701 -626.608643
719.656494 -595.262817 -626.403870
562.254456 -594.218018 -630.794739
688.387207 -545.795349 -643.626282
425.714569 -436.555267 -708.462280
528.731323 -243.296631 -617.272766
542.463867 -401.563049 -643.090271
481.669067 -387.062531 -676.805603
627.078796 -517.775269 -631.922180
528.167664 -245.311462 -618.765320
538.940979 -523.532104 -675.293030
783.725037 -511.729675 -569.379822
476.190735 -464.146271 -685.471191
524.680847 -364.366028 -653.021362
489.208679 -254.733826 -618.288391
822.463745 -565.841858 -594.713928
498.776703 -465.318817 -664.463379
454.593506 -453.238708 -666.728760
536.031433 -548.810486 -671.065918
625.337158 -332.550446 -577.373169
607.800110 -312.583527 -609.980652
707.236267 -301.261139 -531.790649
512.076355 -572.840210 -639.633667
556.472473 -547.809692 -650.801819
443.278473 -253.623337 -648.984680
442.550232 -333.120209 -680.210327
829.704346 -428.995270 -531.798035
472.912354 -276.135101 -656.463928
387.116547 -431.441833 -714.987305
555.980225 -426.660522 -634.735229
796.704956 -447.489441 -537.863159
621.478821 -332.457214 -598.287109
679.533508 -275.921021 -537.057312
729.547302 -415.049652 -579.182495
662.335510 -396.583466 -569.624451
470.873993 -328.144165 -652.679321
521.070129 -467.505035 -657.581787
778.234070 -267.822388 -527.729553
408.282379 -193.624969 -670.228394
703.677185 -591.022156 -636.013306
784.103088 -428.224060 -548.551575
776.140137 -552.116089 -580.390442
741.932129 -344.307373 -548.529846
561.539490 -303.537384 -626.146423
638.597290 -379.946350 -607.815308
667.071899 -417.307068 -607.813843
480.358795 -320.558655 -662.313538
529.313904 -373.585358 -637.906189
741.787903 -366.111908 -552.791016
713.574829 -528.864075 -599.479675
816.042419 -398.923096 -509.019104
529.835632 -339.658844 -644.952515
531.259827 -233.472290 -593.579407
657.449585 -445.351349 -605.502808
667.601196 -330.876129 -591.166565
535.710999 -280.765717 -619.717468
842.432739 -576.801086 -587.434937
624.817444 -415.490265 -592.065430
580.074707 -386.291962 -615.455688
763.070435 -450.826233 -569.900269
508.200287 -373.851929 -645.880737
732.621643 -518.116455 -588.343140
655.078979 -402.894135 -591.797974
547.388000 -584.176514 -640.657959
670.009094 -237.998337 -567.782349
691.966980 -340.831207 -577.252258
676.646790 -289.873322 -571.217590
819.519470 -343.259674 -528.659973
437.491150 -293.939148 -658.180054
708.615417 -297.281494 -568.356384
815.222046 -389.830231 -504.686310
448.050018 -286.931641 -673.437927
598.843994 -378.466827 -625.389832
478.106506 -289.841309 -642.524780
418.579834 -337.983459 -675.796448
645.225891 -316.118103 -591.313477
514.214600 -412.147247 -667.728271
705.869446 -318.282288 -563.016296
413.199585 -305.772217 -660.554688
662.488647 -443.767609 -602.480286
394.451965 -376.825745 -691.999146
433.843414 -455.209137 -702.545959
485.468170 -245.682785 -634.951050
456.804840 -280.560059 -648.613708
473.085815 -187.204697 -601.344971
783.939331 -388.420502 -534.096680
828.454590 -323.563507 -500.902435
582.491333 -428.566040 -611.930420
773.491394 -261.376282 -523.551086
667.461975 -344.386414 -580.261230
496.359711 -376.883484 -651.987915
609.803284 -572.011169 -615.428345
757.773743 -296.323853 -528.538513
756.760986 -539.834595 -591.436035
521.583130 -326.562439 -633.268188
390.975525 -449.296448 -715.502625
665.919434 -262.310944 -572.319275
799.879822 -439.311401 -539.669312
639.821838 -596.926697 -611.510559
797.732300 -543.613647 -567.359131
690.094421 -242.726288 -554.322449
737.357300 -424.711792 -564.024292
632.890808 -405.714874 -601.320435
527.143616 -535.673889 -686.614014
707.432922 -572.456055 -650.645386
391.494415 -289.188629 -672.696777
634.990540 -576.292664 -616.447571
448.086609 -228.142014 -622.280579
536.528931 -486.688080 -656.011047
690.726440 -307.353394 -563.461914
760.949524 -277.348389 -535.793518
749.096252 -458.090088 -569.289185
425.999725 -412.957550 -700.193970
544.437378 -439.856323 -661.563843
528.140076 -482.292542 -669.019165
734.438477 -416.332275 -566.341675
504.019897 -569.720032 -664.819519
643.960876 -378.112061 -597.066467
587.039246 -292.368286 -602.254211
610.698486 -291.107819 -589.210083
762.961243 -331.432037 -532.573669
514.995361 -531.863647 -705.503601
425.390320 -274.335358 -670.229675
751.716675 -344.332397 -559.119385
547.838684 -425.587830 -643.374390
434.941010 -280.922363 -658.382568
566.453979 -558.918701 -649.268494
388.502319 -219.855453 -669.921753
630.691467 -546.216553 -649.386963
517.100342 -445.666046 -660.237976
579.508179 -239.694672 -596.742920
604.794983 -432.008667 -618.895691
417.366608 -285.423492 -651.172729
414.077484 -401.828918 -690.253052
584.981079 -356.172791 -619.280090
701.287231 -518.737244 -620.132690
450.194733 -273.088806 -636.884949
662.877319 -598.608521 -584.933655
727.035767 -275.393433 -546.798340
466.516571 -454.416473 -675.428894
682.364075 -321.417908 -569.810425
788.694824 -491.647156 -547.095581
530.458130 -423.474915 -658.733826
588.325134 -588.052063 -630.098633
573.850342 -546.004883 -668.075256
634.951111 -575.527405 -631.288818
819.116211 -297.909393 -502.087128
580.656250 -240.564545 -584.988831
564.515320 -377.602875 -628.988342
675.918823 -338.288605 -556.913147
635.643433 -284.026337 -582.304626
499.539398 -223.863007 -623.329651
576.916321 -455.895325 -634.414185
614.184875 -272.538086 -598.890991
487.629547 -475.454376 -662.054138
551.355225 -314.223175 -600.908264
762.832703 -363.905243 -531.353577
440.286163 -454.502869 -687.645020
752.969421 -499.586731 -576.950378
614.451538 -584.099182 -630.853149
725.970764 -287.492432 -554.210876
563.389221 -341.801849 -619.948425
587.388672 -409.660278 -621.065186
537.397095 -371.515686 -634.355408
781.193726 -285.877441 -529.639465
510.908722 -379.446564 -658.404419
786.403687 -327.695038 -535.315613
469.682007 -484.007172 -669.650635
571.533081 -332.185333 -598.300659
505.067322 -553.663696 -687.301270
397.927979 -330.197113 -701.558960
536.230225 -261.175049 -618.453369
479.088043 -207.175476 -633.766113
530.515503 -210.349472 -616.468445
537.359314 -591.953796 -604.055603
697.848938 -593.535583 -616.145386
638.454224 -268.289276 -550.653992
581.117554 -474.249908 -636.169128
501.579224 -225.827408 -644.145752
547.448608 -576.515686 -619.158081
403.008057 -274.754822 -679.072510
543.714844 -517.645935 -670.091553
611.083191 -556.311279 -661.731262
461.765045 -358.393677 -675.153015
677.278381 -290.733429 -564.756653
471.601044 -298.821106 -661.804626
787.780518 -270.513458 -515.403259
590.841187 -365.847290 -611.137268
725.590820 -282.814636 -555.196960
695.967773 -330.603943 -547.504517
798.656311 -312.443085 -532.269531
800.941650 -586.744751 -628.509094
800.128601 -443.580902 -555.137573
733.493408 -302.542999 -548.603638
443.971588 -228.090668 -643.441589
778.614502 -490.212097 -565.437805
738.343872 -312.387146 -553.476440
548.724121 -420.161652 -638.833313
544.598755 -480.688538 -647.340027
671.114685 -345.237976 -590.995728
651.173767 -319.917480 -589.848389
737.559998 -266.090118 -514.668579
729.762878 -307.222870 -560.911194
472.288788 -432.023193 -686.986938
591.400146 -580.843628 -632.974487
785.885925 -392.131592 -539.282104
533.873779 -582.539429 -628.971069
688.492065 -473.324066 -597.308044
821.043579 -397.145752 -533.709045
581.789551 -588.319153 -627.158447
833.902344 -504.251282 -536.916626
554.536926 -579.371460 -625.247314
579.876709 -382.757446 -622.027161
524.843140 -242.508118 -604.177002
743.602478 -346.963409 -548.481567
447.986603 -497.060791 -725.696716
505.111816 -234.880127 -603.455261
500.889496 -566.078796 -682.633911
698.695068 -444.756531 -588.495361
730.284607 -260.146027 -542.253418
612.729980 -345.608215 -606.794739
803.855469 -337.053467 -531.741821
759.722900 -461.229706 -560.637695
441.027466 -399.217621 -679.936951
792.376221 -373.518311 -543.629578
765.727600 -268.625275 -518.796753
623.509277 -277.583710 -584.127075
786.009216 -371.996002 -536.158875
655.918945 -482.270050 -608.180786
644.383972 -388.129517 -612.083008
462.118622 -221.433121 -638.843445
536.006104 -417.270935 -648.386536
746.570679 -364.473511 -561.981567
567.598633 -390.324432 -622.217285
793.067383 -521.694275 -565.874634
713.013245 -587.947510 -621.247375
550.193970 -369.472839 -633.677856
622.968567 -512.723999 -631.868774
639.799683 -549.588745 -647.860168
760.000244 -301.628693 -524.636230
613.308960 -561.673401 -661.157776
764.093262 -293.629089 -539.482361
526.821411 -273.467194 -623.637878
585.871826 -371.466309 -616.636719
516.681946 -378.217438 -660.134888
559.140137 -298.581329 -626.912781
628.167847 -248.851349 -570.007141
567.927307 -503.179779 -639.879150
823.884583 -539.229614 -560.505554
648.954651 -580.424316 -644.470947
432.893707 -460.823853 -703.382324
617.702637 -603.325317 -600.361145
792.219727 -588.585815 -624.501221
518.814453 -551.678284 -690.568054
528.184998 -438.222534 -653.206055
653.915161 -529.903870 -632.638000
653.282043 -317.696564 -563.190186
735.264648 -415.414978 -562.977051
807.008057 -335.595062 -515.810669
638.560364 -585.648621 -603.903198
696.266663 -444.788177 -596.308228
432.935791 -427.474792 -689.275513
843.837891 -313.023956 -512.532959
468.659851 -295.126587 -635.111816
461.097321 -389.309265 -680.119019
499.057007 -301.895813 -636.229736
825.426758 -265.351044 -509.670319
436.472992 -228.980057 -647.125977
730.451782 -258.160889 -548.099121
720.268372 -380.421417 -565.223938
512.118591 -346.704010 -641.837219
441.963867 -373.601410 -680.040771
383.329193 -373.088165 -701.722717
506.880768 -206.834000 -628.721680
649.093262 -253.962524 -565.773254
732.527710 -396.839050 -563.399536
644.807495 -587.939392 -607.133667
773.073486 -342.863068 -546.247314
717.660645 -396.757172 -579.071960
776.605957 -517.990173 -572.763733
492.295715 -433.454071 -679.170715
385.024017 -418.982758 -714.569336
672.605896 -558.144653 -635.643494
429.602661 -328.116638 -649.090454
595.777344 -457.678284 -628.890991
493.063110 -555.703430 -732.271606
685.392212 -584.246704 -651.728271
617.315247 -316.176636 -597.127869
814.334412 -584.240112 -619.903503
662.987183 -251.922302 -560.207581
675.331909 -385.210144 -591.214294
571.439270 -544.282043 -648.113525
496.913025 -282.642822 -635.305908
690.523315 -262.983521 -557.049133
795.727234 -555.104919 -579.719727
655.431885 -575.545959 -641.430115
646.271362 -549.813782 -643.829407
549.790771 -323.323151 -624.662476
765.842712 -432.739410 -562.486877
530.095764 -572.178162 -657.673340
842.796509 -326.667053 -515.214661
494.196442 -225.777374 -642.933044
570.981384 -561.740479 -666.798584
560.108276 -564.820801 -648.006897
527.370789 -469.866486 -653.691833
845.339111 -335.524811 -507.484558
404.281097 -199.277557 -657.426331
783.548096 -352.018188 -541.317383
530.589783 -548.170166 -668.154480
788.808899 -439.457703 -549.135437
572.846497 -306.371307 -611.282837
749.159302 -476.167725 -584.419800
380.675079 -356.372467 -708.942200
534.213135 -413.833008 -642.875793
656.673218 -267.316742 -577.748413
533.406616 -564.437012 -655.790771
568.330383 -236.142853 -600.023804
740.069031 -441.121399 -579.551086
835.659302 -280.123749 -508.394104
607.442139 -529.392883 -659.798523
780.023682 -287.933380 -521.983398
640.022156 -389.209900 -600.980774
406.117004 -220.061646 -661.226196
571.044495 -315.965546 -603.034912
679.838623 -327.203430 -553.583374
837.329773 -349.595886 -519.851807
374.055817 -444.230804 -722.637390
738.875366 -553.255127 -621.828247
835.510376 -354.138184 -501.157928
460.014709 -379.219421 -655.959900
841.786804 -388.160126 -523.868958
817.950928 -348.770294 -515.275635
655.765564 -393.550537 -604.014954
514.625244 -403.317902 -653.557373
512.995483 -229.558624 -614.737854
553.311951 -216.516068 -610.802368
649.900879 -257.951874 -554.061340
585.588196 -281.625000 -583.599182
695.972900 -433.060150 -593.259094
566.414368 -514.590393 -653.164490
616.363831 -330.762268 -580.761780
789.983826 -339.022491 -538.392151
602.447144 -541.761047 -661.656006
573.656799 -420.595490 -629.426270
582.595215 -462.279449 -645.110901
706.253235 -299.753174 -565.801453
563.507751 -486.233887 -658.474670
557.594482 -357.316284 -624.404846
720.187012 -393.615540 -573.172302
618.207886 -313.331726 -590.251526
620.760376 -272.925812 -580.905396
808.827515 -393.790314 -506.940430
699.605103 -552.889465 -634.832947
767.195251 -445.475922 -536.041687
710.514160 -485.192352 -590.545898
550.140930 -551.786377 -677.975403
676.463623 -310.065674 -583.585144
419.626617 -218.865143 -650.146851
709.941833 -279.619690 -553.123230
738.855408 -317.102264 -554.356201
731.868286 -274.478760 -544.684692
429.715881 -400.981659 -696.112366
417.325989 -307.822723 -668.750977
658.910950 -562.435974 -638.629333
651.217651 -473.363678 -619.734802
403.717285 -307.470490 -676.522827
762.720642 -358.328583 -552.795044
637.140686 -549.371155 -648.145386
629.951050 -514.971802 -613.625488
576.946106 -559.104736 -656.008545
470.098236 -232.052002 -631.702881
834.950378 -520.913330 -559.281311
485.175232 -254.396606 -633.683044
418.673645 -250.804291 -674.437744
503.229401 -306.877716 -653.705566
800.962708 -273.151978 -522.919250
438.221588 -430.030792 -696.314148
594.132629 -353.373047 -620.774231
392.338928 -271.923340 -692.189392
579.984436 -360.625397 -628.605957
603.872742 -226.316330 -582.245789
467.897461 -276.457520 -644.112061
563.761047 -306.629913 -611.136414
756.337463 -343.580353 -556.852905
438.815063 -434.794983 -683.523865
719.523132 -414.209076 -582.884033
473.190033 -376.934479 -661.459717
512.175049 -283.585815 -629.955322
615.463867 -332.832520 -613.417725
603.570801 -590.643494 -633.760315
624.864197 -453.640564 -625.891602
560.392273 -318.437897 -632.774719
806.482727 -529.673584 -558.515930
588.607056 -422.714966 -622.952820
783.367615 -376.337982 -546.702026
531.573181 -509.122009 -672.646545
585.687744 -426.225555 -624.077942
639.305420 -521.235046 -632.219727
759.151123 -323.083344 -551.710571
392.360443 -387.657898 -695.528809
541.140869 -455.435333 -654.431885
649.019836 -318.359436 -586.806213
691.138977 -333.833588 -553.207153
590.546875 -364.733002 -617.187317
543.082520 -325.012390 -609.802490
801.208313 -340.251068 -523.637939
781.179871 -500.458313 -546.130981
728.972900 -383.837311 -565.480530
721.405884 -531.227478 -609.145996
515.565491 -228.083832 -620.924561
596.572937 -593.898987 -630.756836
751.378235 -370.660736 -536.301880
568.056519 -544.538757 -673.838318
537.537231 -569.853516 -630.059875
616.718994 -318.970184 -599.463257
580.072998 -462.848083 -651.411804
473.882813 -210.415024 -648.536072
740.811157 -555.768555 -630.653381
745.830566 -378.437714 -565.193604
437.683777 -271.912415 -673.379578
660.490295 -331.452057 -585.491333
653.668823 -471.405304 -623.280212
367.808868 -354.233002 -693.218323
401.504395 -404.576477 -694.451660
620.005493 -423.082397 -609.978027
370.625702 -371.030853 -718.689209
683.940247 -436.388519 -604.032166
561.147400 -257.493469 -617.838562
752.197876 -267.583282 -534.483032
555.146973 -380.570251 -643.976929
485.849731 -360.148376 -637.003235
678.024719 -273.643921 -564.350220
712.820190 -346.547302 -569.571228
468.627838 -533.638428 -740.533020
493.548706 -552.359680 -683.631836
534.908630 -323.042725 -638.774536
818.594238 -469.533783 -542.146729
761.598267 -508.622559 -558.811279
679.400269 -601.795227 -614.191650
654.530579 -246.127411 -573.082703
450.171265 -245.624786 -660.539246
451.638306 -439.297943 -678.049866
680.110352 -362.739655 -589.474243
453.750366 -337.553467 -681.069458
718.856628 -267.810608 -547.629028
566.610901 -590.686462 -623.497009
613.973816 -600.391846 -609.282410
512.948730 -582.201172 -641.447754
827.180847 -416.407074 -522.530151
812.768372 -430.417603 -538.130859
845.146912 -306.042053 -512.196716
780.755432 -517.808838 -570.298157
652.414001 -270.773193 -563.362122
583.177795 -569.922974 -646.124695
550.107483 -341.211548 -608.625122
773.918518 -376.285156 -517.632568
686.334473 -404.821472 -584.029053
464.719391 -501.637329 -701.566589
806.421753 -581.119141 -613.982788
501.334961 -294.647888 -637.489136
830.781006 -359.846222 -526.484436
716.948364 -250.112427 -546.203125
825.497742 -550.826843 -569.221375
423.005676 -477.862122 -696.614990
720.233582 -312.829803 -562.617188
759.626526 -449.253296 -568.321655
736.618652 -269.840271 -551.136047
714.692932 -355.952484 -567.890930
764.776001 -585.527222 -619.489319
584.365967 -332.120697 -607.498901
840.802002 -428.959747 -533.512146
563.835022 -419.481598 -632.846680
395.648712 -379.895691 -690.366211
377.369751 -433.176270 -719.363586
483.199371 -409.624786 -664.752197
510.239197 -388.575317 -653.497192
461.180145 -385.408356 -658.500244
790.004761 -506.498688 -568.684631
755.844971 -315.529816 -526.232117
770.885254 -415.257416 -551.509766
704.509521 -562.521423 -654.136963
382.194153 -242.376022 -666.507507
788.045959 -348.125610 -530.319092
475.288208 -434.584381 -681.654724
650.235046 -588.458862 -633.134338
655.005310 -400.495514 -602.191467
741.415039 -389.022797 -569.005249
583.673523 -370.120941 -633.452393
665.242188 -510.358368 -612.105042
798.523682 -384.315704 -540.821045
635.774536 -327.649689 -585.740173
708.822632 -373.599213 -568.638000
766.809937 -483.149200 -567.899231
400.691620 -377.067841 -694.592651
611.693359 -304.958862 -609.130737
624.890259 -277.602112 -587.806274
575.468323 -536.306030 -654.937439
711.001648 -341.152313 -558.725403
701.138550 -475.445740 -590.101501
755.880127 -573.492493 -637.283264
645.980164 -478.318573 -622.882935
423.236908 -217.756897 -660.302612
575.631348 -476.032562 -635.094421
702.333191 -505.493103 -600.435791
485.080780 -250.643066 -636.802734
419.394867 -214.161636 -677.088745
451.479614 -284.051514 -631.721924
495.491821 -272.215393 -614.723450
630.047791 -284.023712 -581.423035
588.953064 -367.935913 -626.258423
498.962677 -301.305145 -654.550171
478.952728 -447.819702 -670.331726
523.179321 -424.211578 -665.770630
705.209961 -460.310760 -579.037598
549.783936 -357.459747 -632.651672
494.070465 -422.326263 -673.873352
680.916382 -402.724670 -584.116150
686.220764 -265.474457 -572.797485
612.853577 -508.362488 -628.377441
714.729492 -545.463074 -610.458984
433.140411 -273.784943 -673.528625
830.632507 -291.818665 -502.241394
831.629700 -576.394897 -604.085266
480.362946 -483.339264 -701.090149
816.551880 -525.366394 -568.718689
430.052521 -355.757935 -672.227417
523.827515 -582.183716 -645.304138
467.593079 -225.275650 -650.357117
806.991455 -535.333923 -559.332642
599.871094 -560.884521 -662.198975
597.479614 -548.181152 -672.345276
612.600769 -552.005371 -655.115601
652.390930 -414.381165 -598.311401
667.653564 -598.465515 -618.308167
754.670410 -524.523987 -561.679321
739.484680 -462.633575 -569.338806
725.790894 -493.951447 -584.601440
584.312378 -453.583984 -633.912903
642.074463 -453.725311 -613.408813
602.411926 -255.165314 -601.094238
781.854370 -402.189728 -557.936829
759.194702 -560.571289 -622.188232
