ply
format ascii 1.0
element vertex 1374
property float x
property float y
property float z
end_header
-518.141418 778.262451 -87.304405
-731.117188 492.778473 -256.974121
-536.909485 757.494873 -104.961914
-550.770325 834.966003 -236.992844
-631.355591 570.143677 -93.154793
-684.785095 541.087646 -236.817703
-518.276550 826.677673 -108.991081
-645.665344 722.951233 -323.261230
-537.816284 881.101135 -210.364151
-532.394897 911.849121 -247.822876
-608.281189 762.445068 -258.580841
-562.186646 795.031677 -200.531403
-618.958679 616.501831 -144.463989
-528.357910 827.148254 -156.417282
-572.088684 859.576965 -256.834656
-702.868835 622.622498 -334.559174
-672.919067 711.233093 -356.993378
-552.339172 767.150024 -128.004654
-656.696777 643.401489 -270.478271
-698.024780 511.913086 -274.473419
-636.829590 671.287109 -263.538361
-481.737762 824.907410 -68.206345
-512.678345 897.689087 -180.492035
-587.256897 800.357483 -244.018448
-657.890442 791.674255 -353.885681
-584.094666 697.907288 -137.217682
-560.086792 713.606812 -151.473541
-579.212708 699.671570 -132.983353
-618.590332 599.293579 -69.738983
-643.966248 755.061096 -401.849945
-589.321594 641.057312 -107.907188
-675.358215 649.454224 -406.173950
-570.744629 814.910278 -249.455444
-651.825378 457.939514 -57.858646
-602.658325 824.861206 -303.738464
-631.962280 748.852356 -420.066162
-609.765381 704.478027 -266.401581
-679.009216 776.231079 -367.942200
-643.090820 814.399902 -348.268738
-568.260071 839.829773 -255.962006
-647.913818 576.362488 -178.446701
-646.854004 603.390625 -202.850952
-698.762573 652.997864 -375.628021
-645.556519 698.084595 -268.956635
-591.535950 816.989990 -273.939667
-507.148773 832.797058 -116.203033
-476.951263 888.299805 -125.846588
-493.001984 836.770813 -83.961159
-644.111511 527.622131 -120.409119
-560.000793 719.992554 -177.358978
-476.739441 901.890625 -94.696190
-719.397461 468.280548 -190.917740
-600.617493 627.674133 -118.149727
-610.108582 557.568115 -101.418129
-528.451904 838.784485 -147.977219
-627.940979 665.001282 -194.693268
-684.959900 481.988708 -126.692772
-535.034851 722.046997 -85.594200
-620.884583 657.283569 -199.793396
-644.558228 637.203613 -242.728790
-622.708496 702.260254 -222.868088
-737.393311 454.846985 -237.089874
-523.276489 867.246216 -160.750504
-520.918335 888.052551 -225.293671
-631.105774 638.721069 -224.197250
-660.620178 871.091980 -383.391357
-534.920166 909.532959 -239.399994
-660.766296 769.411926 -377.453003
-666.242126 521.559509 -166.084503
-523.193420 806.911560 -124.427773
-664.284668 523.161194 -162.290771
-629.549011 674.939575 -247.897507
-624.723694 655.253662 -251.930206
-664.078308 643.093750 -293.625183
-694.868713 610.429382 -313.905029
-585.284485 622.495422 -75.813454
-659.565613 541.660950 -221.906281
-540.083130 727.374817 -115.769180
-601.218567 605.539917 -101.249550
-673.818787 843.546753 -384.224884
-572.342590 698.475769 -115.252327
-651.208069 604.758972 -208.585785
-622.368225 706.137695 -258.143494
-633.647400 765.146606 -406.053253
-567.767151 673.858093 -87.183327
-681.665344 648.830017 -394.869690
-495.737823 923.370239 -152.574600
-572.553772 658.101746 -67.246651
-711.452576 509.718079 -216.610992
-663.021606 738.094788 -343.254639
-738.455688 473.066437 -271.599518
-643.321655 607.589722 -168.423737
-567.585388 829.826416 -236.898483
-565.392761 797.214050 -257.719696
-540.522461 892.303711 -224.231430
-659.469604 717.538208 -394.572540
-694.182495 617.896179 -321.670563
-629.498962 656.434265 -175.677063
-681.624023 583.229553 -243.302338
-617.164368 581.054626 -60.598152
-617.480469 775.267517 -300.305603
-639.073181 848.487732 -375.768707
-567.753967 809.429565 -283.305237
-615.726318 726.997437 -260.876129
-588.859192 708.744507 -165.756500
-676.021545 819.688171 -389.005096
-651.492493 473.878571 -94.216835
-609.766846 617.062317 -74.372963
-585.575806 800.934998 -237.524170
-626.497498 614.500427 -126.103729
-680.093628 531.810852 -164.755219
-589.552979 861.879639 -310.962982
-623.868103 701.976685 -213.715759
-628.495300 511.753296 -57.331234
-581.918335 648.551331 -85.549828
-646.702209 535.685547 -123.893890
-595.989807 717.782471 -188.279495
-652.878723 800.344849 -406.839172
-703.675232 652.520386 -374.064331
-569.467285 782.021423 -183.366486
-700.642578 673.872253 -382.186615
-643.787781 623.424011 -210.822861
-685.035461 558.741089 -260.037079
-702.090149 648.625061 -383.279724
-662.973022 631.370178 -276.284882
-475.856995 883.517334 -92.503235
-730.093933 496.020233 -255.972595
-489.272034 854.203308 -79.792793
-622.964355 722.047058 -411.682739
-571.738892 756.011108 -179.346649
-620.591248 620.383179 -112.965828
-562.675781 703.310913 -73.443817
-644.577820 685.274536 -261.146027
-654.242615 786.393738 -348.247467
-578.229187 646.597839 -90.994110
-667.738647 625.341797 -295.141418
-759.859314 573.433899 -339.907501
-640.656433 541.093506 -144.160278
-654.786499 498.629730 -97.850914
-710.205811 624.346619 -364.613098
-621.377869 778.900818 -316.896332
-549.681763 859.296204 -202.811157
-712.994690 510.527130 -222.323730
-518.076050 923.489197 -209.010895
-594.628296 803.747314 -315.354156
-576.293762 844.083130 -284.771973
-675.441284 578.613586 -221.435608
-669.434875 439.938385 -32.293842
-621.977478 748.654968 -310.826111
-493.088623 852.014343 -94.915215
-636.368042 743.210388 -412.755798
-575.195374 873.221069 -311.314117
-581.405273 780.470276 -202.466858
-680.227844 594.033936 -278.839294
-648.796997 790.347656 -396.647186
-707.557129 508.015045 -294.881531
-606.434326 770.526672 -310.611969
-677.020447 623.516602 -276.216156
-576.094849 765.126526 -200.956726
-586.172546 753.276306 -226.447235
-561.860474 773.947876 -163.075470
-634.634460 946.939880 -370.337311
-524.559814 763.521606 -76.559486
-529.976196 854.408936 -162.260406
-527.033325 801.323914 -126.191666
-675.712646 544.441772 -218.772034
-572.409424 885.151855 -322.282532
-692.882019 674.394104 -359.241974
-614.302979 584.110229 -100.335167
-693.560242 452.116516 -193.268906
-524.737244 788.776978 -148.717819
-557.607178 805.872620 -186.119904
-605.266235 606.121948 -99.354446
-489.808502 885.596619 -125.385628
-590.483276 606.007141 -66.027725
-708.192566 513.550903 -267.925354
-557.736145 890.892761 -289.010773
-602.448242 709.850952 -219.244110
-676.660950 666.348999 -321.250458
-648.577942 676.025757 -413.459076
-508.807220 828.454956 -72.646759
-561.897278 866.180481 -264.215515
-730.981445 535.573669 -326.171967
-564.223877 858.121033 -246.126389
-643.471863 565.096985 -108.862907
-634.465027 597.323303 -156.670746
-683.559692 621.694580 -388.282104
-677.012146 601.605103 -291.635223
-649.269592 678.742737 -298.904266
-572.614868 768.693298 -194.955460
-671.117554 692.130005 -391.309326
-660.261658 528.439697 -109.384544
-585.504395 606.724121 -102.217957
-532.589783 750.700806 -66.627090
-623.564758 573.184937 -77.263733
-617.323181 754.264954 -291.838196
-579.081238 789.674072 -252.665009
-758.647644 454.843536 -261.130371
-686.608887 437.456177 -75.764793
-697.041565 467.665833 -197.501724
-691.793518 463.914124 -120.215988
-591.060791 843.918945 -318.529358
-725.403137 482.843536 -228.150833
-721.037292 479.174561 -230.368851
-543.643799 764.350586 -89.448769
-576.971741 776.794006 -204.271774
-498.278778 833.112305 -102.910080
-615.125610 745.015686 -240.966324
-593.123962 847.082031 -326.820557
-520.015808 847.231567 -128.339493
-663.053162 765.388855 -362.551514
-593.371277 664.220459 -113.837151
-609.934326 594.063110 -109.028809
-696.358765 489.927185 -171.106766
-589.472229 866.561218 -329.214050
-649.205505 796.997192 -401.875854
-492.410706 904.697510 -177.525497
-676.875427 549.357666 -225.429245
-752.675171 562.673218 -346.461121
-623.669678 725.922363 -282.412689
-721.439697 624.796326 -340.515167
-733.111511 508.647339 -284.746643
-700.958923 635.530884 -384.746582
-634.768982 591.090210 -165.999054
-700.480591 803.611938 -376.142578
-548.872681 886.836304 -268.331421
-536.450623 892.631958 -223.925919
-617.772156 903.693115 -370.437622
-724.752258 604.131348 -389.632782
-594.167664 817.193420 -285.376190
-561.097473 782.373840 -198.714600
-733.604126 471.492889 -296.301758
-693.776062 465.608826 -183.170059
-608.302368 789.939209 -287.682587
-668.783752 724.853149 -385.895996
-544.164917 770.046997 -141.748520
-646.231934 664.174072 -242.362320
-509.621552 891.166931 -173.355515
-602.272461 685.929688 -224.462280
-628.278564 571.674622 -65.375183
-697.906982 545.798584 -245.303101
-642.604553 580.670837 -135.219864
-721.226135 576.808472 -329.859833
-675.190063 638.469849 -314.715332
-553.987183 897.325134 -275.184784
-698.559875 528.766968 -263.338135
-531.895874 743.164917 -98.296944
-643.251038 890.838989 -384.566345
-602.195374 798.802246 -317.019714
-644.317017 518.307739 -84.454544
-534.191223 854.195801 -200.758743
-587.909363 928.663391 -360.414154
-499.971954 820.648743 -93.473557
-646.434814 754.903320 -399.029816
-669.344543 600.720703 -269.657471
-534.443604 911.487305 -235.998245
-614.885010 787.697205 -318.784241
-594.039856 722.492188 -187.904068
-562.015503 670.419739 -93.664230
-621.124390 543.051575 -70.479706
-578.245667 728.697021 -166.949066
-662.091919 652.108704 -268.462250
-659.198181 511.694061 -100.372398
-589.470032 743.439392 -181.420090
-522.740417 828.245239 -175.535141
-540.504822 772.331543 -128.401047
-635.032349 595.060608 -138.381866
-676.997009 446.798798 -95.327713
-547.486755 791.410461 -139.321167
-570.655640 683.223389 -72.366615
-665.510437 460.877686 -100.330086
-736.196106 573.130798 -365.703278
-597.100342 619.773926 -64.134972
-576.621033 662.322449 -95.557678
-570.346558 686.093445 -84.906494
-697.692261 650.954407 -375.763519
-579.446472 846.707336 -294.571106
-668.668701 724.803162 -382.561249
-541.993713 775.778503 -136.456177
-658.708923 567.861633 -226.526733
-546.459351 846.573608 -203.923035
-560.930481 708.677185 -85.100143
-643.087097 754.401306 -327.730408
-648.012085 776.076538 -395.124603
-614.786682 702.814270 -241.022400
-714.686279 510.523224 -285.591156
-577.461975 821.003540 -261.232391
-664.269714 880.371704 -369.057678
-488.624084 888.918640 -187.286987
-653.176086 711.008057 -314.697906
-660.183777 539.840332 -133.983231
-575.162659 650.301575 -57.523197
-651.783813 699.083862 -414.936859
-627.363037 529.438660 -115.405991
-665.374451 466.703217 -38.236588
-487.862823 876.162903 -93.393753
-644.900513 507.023621 -101.898079
-560.379395 919.573730 -314.369781
-591.301208 608.554626 -82.878326
-638.390015 574.229248 -139.314453
-622.206482 760.341797 -282.726898
-535.240540 885.406006 -213.083176
-512.610596 829.996887 -126.792023
-661.587585 742.868958 -359.280029
-612.701050 653.939575 -147.554016
-657.250488 661.717712 -279.356354
-604.850586 654.907410 -146.754639
-559.287903 762.478210 -157.724899
-491.635590 908.451782 -159.937317
-562.559082 670.283325 -58.414070
-635.686401 776.673889 -400.987854
-574.271484 895.340515 -332.831146
-551.006470 862.910400 -231.662354
-482.503754 885.891785 -135.329361
-714.944519 617.995361 -357.142792
-530.674744 863.330261 -176.296783
-592.821533 642.229797 -107.725670
-691.452820 647.235962 -370.579681
-601.654480 725.716187 -197.846161
-670.093140 514.181946 -167.316818
-568.789612 725.755005 -108.059502
-601.022400 710.544006 -190.298950
-680.862793 510.802887 -193.144119
-655.395874 567.485596 -189.682541
-689.062012 451.014130 -161.562897
-505.067902 869.776794 -168.321686
-646.808777 664.572327 -404.333466
-588.573181 652.758972 -83.314987
-515.976196 826.595459 -126.713997
-512.092041 872.672974 -161.395767
-640.777527 642.533997 -189.989838
-494.838135 852.378052 -70.219872
-485.535919 850.842285 -106.310127
-583.028381 630.679382 -82.457207
-751.434387 452.018433 -237.064438
-564.479675 804.755371 -217.045181
-632.297913 731.947754 -416.810547
-612.167114 723.320496 -259.925781
-620.998840 585.575806 -111.479767
-631.264893 731.370972 -312.064819
-622.649658 650.665466 -192.338074
-619.178467 649.130615 -426.429413
-621.411987 606.480408 -140.119583
-610.271118 805.354431 -303.949646
-650.604309 680.393860 -410.808929
-664.160461 880.596863 -382.214508
-695.061462 506.751129 -229.545822
-629.520569 600.266235 -131.636963
-636.315369 707.532959 -312.746429
-565.716248 647.104736 -88.366539
-684.664063 652.713562 -322.531158
-615.908386 709.915161 -231.668900
-598.233704 736.019836 -192.053696
-530.585571 869.037476 -180.966721
-611.129211 602.839966 -71.098541
-607.337036 626.565918 -83.832634
-637.422546 751.415100 -357.340118
-551.957764 735.606384 -113.737778
-678.997192 540.269775 -224.251297
-652.896179 805.603821 -403.571991
-556.117004 900.691895 -270.478271
-705.194214 668.581787 -347.267548
-561.891418 832.608887 -241.609970
-636.713928 534.853516 -52.993977
-527.897583 764.449219 -71.112518
-560.964966 892.862366 -279.700714
-556.269165 861.959473 -255.047806
-710.650085 470.326630 -192.813217
-663.169495 650.818726 -312.204742
-538.201233 763.413635 -95.741776
-654.355652 691.892273 -317.942322
-637.136841 877.464600 -386.921661
-622.977905 704.507874 -235.814728
-573.151917 883.324402 -293.327423
-685.351868 684.458130 -363.136841
-674.273010 454.255219 -112.259621
-672.749939 631.891479 -393.888733
-641.333374 666.548645 -258.446411
-502.462463 866.234924 -104.870361
-546.264099 781.747314 -119.989204
-542.344666 918.206299 -269.408386
-590.274658 677.101318 -135.540421
-638.133850 511.757721 -84.381531
-619.812439 585.355957 -120.532860
-634.475769 764.761292 -385.989899
-525.601074 927.571106 -232.301315
-746.649780 473.633545 -274.445862
-521.322327 917.819519 -214.967529
-549.700012 783.548523 -217.224335
-534.336182 788.142944 -86.542809
-690.960449 611.599792 -324.056915
-741.674011 600.599792 -371.217010
-706.485657 538.151001 -239.186447
-665.135132 837.251953 -385.122314
-518.363098 790.677612 -91.692406
-641.197571 684.278748 -242.413681
-626.863586 800.404114 -337.539673
-737.342102 493.404114 -279.337341
-493.501923 834.053101 -100.716690
-682.707275 469.690948 -128.041183
-649.851135 648.106201 -271.116089
-487.124603 866.696960 -105.178024
-713.655334 611.611511 -392.802460
-693.519958 552.753906 -262.739136
-601.498047 705.326355 -194.416275
-519.757629 889.195374 -201.003769
-704.086060 486.863708 -203.757385
-593.711548 556.175842 -43.918945
-584.607361 765.256836 -217.010391
-625.929932 734.346252 -404.269897
-493.874847 865.413086 -83.347336
-608.374573 795.212036 -315.735748
-492.182220 895.704895 -113.694832
-677.137268 518.401855 -193.138275
-705.898499 616.117859 -377.804443
-487.055756 873.471191 -91.498825
-628.092407 682.177917 -426.564606
-620.493591 581.595032 -64.576393
-504.316833 896.171082 -146.707138
-586.604858 748.893677 -193.969559
-740.954102 493.694580 -301.143005
-510.867310 812.324585 -77.076897
-508.743622 911.298584 -167.472275
-538.337585 918.328613 -233.118103
-622.585388 620.474243 -163.178665
-525.278259 799.741882 -98.843880
-631.309143 714.368286 -404.211090
-547.236755 805.275513 -160.581604
-637.151367 491.280914 -55.184101
-579.016418 870.063904 -317.962891
-599.864563 587.103394 -76.941437
-578.613281 601.341248 -74.478348
-597.434875 796.104614 -294.376556
-601.670227 804.384583 -274.073914
-662.301086 720.894287 -396.439453
-631.202454 775.970154 -339.535370
-485.329254 890.524597 -116.570564
-670.985291 832.821655 -389.062927
-495.843658 819.311890 -80.162498
-551.641174 758.894165 -134.230118
-648.356384 534.031067 -166.818726
-583.161682 695.978149 -109.266098
-635.495789 641.019531 -187.076889
-724.770630 604.624695 -385.153748
-668.918640 677.172241 -336.947906
-582.887390 781.360840 -207.673126
-520.802734 883.216492 -173.941711
-719.339905 512.455566 -298.516785
-608.945129 635.397827 -150.521851
-778.768738 564.301331 -347.381622
-646.589905 554.570496 -154.052078
-625.270264 708.319092 -253.846420
-647.146240 474.212982 -66.837769
-524.793091 826.352173 -145.634354
-649.216797 697.729492 -284.978394
-546.824585 792.557678 -154.173798
-652.447754 765.227295 -337.575623
-562.348267 832.970703 -216.335175
-627.425903 677.166382 -280.698914
-560.187805 842.689392 -230.382568
-690.093872 588.123413 -310.281769
-655.499207 697.889343 -396.265533
-618.877808 766.411133 -419.272827
-662.379089 625.115906 -266.973694
-547.407715 756.610291 -98.375366
-529.233948 772.418457 -84.517998
-667.120361 507.603363 -116.168480
-518.390320 789.239380 -98.322586
-610.698242 584.105164 -96.920456
-602.723755 744.157166 -212.535080
-720.652771 491.663239 -229.026108
-565.580322 745.069275 -153.724945
-597.325195 840.338257 -337.900421
-630.713684 751.857666 -422.322968
-580.960327 635.187744 -65.074242
-708.735718 620.862915 -361.239166
-599.605713 827.871765 -326.233215
-486.209503 898.875427 -80.609612
-530.641541 858.004822 -192.930984
-630.907837 595.836670 -122.736336
-736.818665 491.269012 -269.498749
-596.453308 603.973083 -80.520775
-671.445862 510.362457 -193.409454
-545.248840 817.686768 -156.429749
-655.283081 542.450684 -114.105652
-577.620911 776.741516 -265.445129
-666.896790 553.354370 -198.834091
-639.424500 692.116577 -287.645782
-581.369019 860.581482 -288.945587
-565.564148 901.494812 -307.616302
-507.415009 830.232300 -89.749672
-541.765747 790.274719 -154.020050
-535.838074 827.915955 -149.028992
-515.936951 806.879089 -113.479698
-660.856262 506.915710 -100.382401
-612.240845 583.278503 -95.522614
-622.570435 716.902161 -418.518768
-557.018921 711.278809 -57.061527
-645.066956 568.135803 -135.210693
-605.442871 775.618591 -316.901581
-707.033508 505.348511 -202.127045
-629.704468 572.037537 -60.486584
-525.271606 866.606323 -247.448822
-670.801331 446.860229 -81.650558
-623.116150 675.407166 -217.053329
-649.777893 551.376587 -109.057823
-523.518188 855.599915 -147.124527
-663.224670 439.734283 -55.500076
-644.426575 762.502258 -374.736542
-651.981995 443.771210 -87.816833
-531.011841 756.891724 -69.765854
-526.263367 917.693420 -224.992737
-633.156311 528.656494 -90.809174
-521.933960 900.974121 -202.416580
-638.497681 621.238770 -209.126007
-680.875610 611.502380 -311.227112
-668.551941 508.742432 -154.720566
-767.954285 583.534058 -364.711945
-773.759888 466.141602 -315.491089
-701.282349 658.475464 -371.055145
-516.600037 890.160095 -176.138382
-671.955139 588.941650 -249.516342
-680.742188 721.156128 -351.856049
-639.946533 527.420654 -110.546867
-516.443176 896.551086 -197.023346
-533.512634 904.458435 -225.406372
-584.713379 725.681030 -191.646179
-511.238403 834.018555 -102.119499
-739.449585 599.889343 -369.931061
-536.549988 908.637329 -241.239548
-558.578064 764.581787 -154.720062
-545.665955 804.292786 -155.621994
-503.419800 847.198486 -90.013054
-602.197937 626.165100 -110.487228
-601.636536 912.206909 -361.943481
-659.464233 525.866211 -179.451523
-573.417908 869.677002 -284.078766
-567.064270 746.325012 -143.692825
-651.533203 623.242615 -246.082565
-712.796570 480.788513 -188.120285
-665.321228 719.329102 -326.569855
-470.407318 884.054565 -106.145294
-610.181885 795.863770 -343.503601
-570.400024 668.012268 -108.688217
-542.825989 757.640381 -159.811966
-556.557678 846.678772 -240.150848
-681.030579 555.037537 -275.074921
-716.881165 500.505920 -279.850830
-611.528198 605.071899 -94.257172
-527.857971 781.204773 -91.216827
-663.693176 534.284729 -136.479279
-514.017761 791.491821 -88.857857
-496.813629 911.673340 -128.037003
-660.395386 485.651733 -70.608627
-735.890015 497.203918 -295.944305
-557.287720 894.535645 -281.872284
-528.987000 768.736877 -107.815804
-626.170349 721.797302 -278.000305
-606.309021 729.943787 -234.375320
-581.478394 768.582214 -188.079041
-671.233582 738.786011 -365.503632
-640.145264 692.303162 -257.537354
-574.579102 840.944336 -259.485107
-672.338989 702.407959 -387.800507
-519.028564 810.368347 -119.902550
-674.334473 801.156433 -391.771820
-507.646637 811.544556 -69.863091
-559.719604 869.548645 -254.922195
-639.454651 805.262634 -341.643616
-738.072998 456.902740 -285.142700
-637.780762 481.022583 -61.882717
-688.743896 581.998657 -299.265594
-605.769958 780.935120 -272.050751
-650.688354 724.096313 -387.829193
-562.582031 777.467224 -231.718796
-673.115295 583.259460 -215.766922
-573.673950 827.887939 -227.945511
-523.083252 891.445496 -233.486481
-661.366882 446.166565 -78.373611
-657.840210 660.036682 -418.475677
-726.124451 523.757019 -292.244659
-652.953735 658.713074 -294.544403
-576.772400 896.774536 -349.906464
-599.165466 838.464966 -332.661896
-624.459167 670.067688 -235.718063
-669.614441 695.374023 -345.342407
-511.832581 911.848145 -186.738510
-613.108704 669.113098 -181.728943
-582.088013 755.611389 -259.681305
-640.499329 555.435547 -138.217514
-561.011658 815.825134 -192.711029
-691.758789 592.683899 -296.860107
-642.687195 693.511230 -419.433624
-507.881897 857.229126 -136.114136
-573.669006 871.165344 -288.699738
-690.248413 590.967041 -291.450348
-578.110168 652.786682 -95.163094
-504.143707 834.345642 -95.042702
-565.575989 726.557068 -130.868698
-634.192932 545.568237 -71.057899
-590.913086 660.830505 -116.912369
-673.333984 607.197876 -278.493988
-687.500610 658.634460 -390.164551
-532.956177 893.291260 -217.840591
-621.849731 559.405396 -88.681839
-612.399414 805.026306 -315.863068
-644.858765 675.743469 -271.358124
-652.579224 682.971008 -271.020081
-481.254974 884.393433 -87.071739
-697.817139 540.989258 -239.399445
-561.884460 728.843811 -137.005386
-591.382263 786.856995 -239.958038
-637.627502 567.930725 -142.503586
-656.288452 821.181885 -384.228088
-714.270508 614.979248 -343.041687
-594.958618 598.145203 -62.539963
-694.406372 644.819214 -390.452667
-663.979736 667.546021 -411.726410
-561.445618 719.121033 -128.125092
-670.958618 826.725586 -381.036194
-701.603455 525.494263 -248.328506
-592.526672 780.618103 -229.474960
-615.570313 689.448669 -178.528122
-588.353943 765.789307 -207.100647
-601.528870 708.358337 -168.868011
-631.670288 551.025146 -108.421249
-510.216156 808.735535 -75.219406
-553.339661 710.309204 -80.764236
-658.789124 489.946289 -70.964409
-565.338013 680.079224 -69.019569
-635.097473 700.678284 -424.404755
-576.226624 836.714783 -266.588135
-636.284851 625.177490 -163.032120
-508.613007 848.256409 -150.774689
-661.845276 442.408691 -95.825157
-632.519897 550.978027 -62.087601
-575.488403 704.632080 -102.495323
-621.852722 680.093689 -230.549774
-577.730591 806.603882 -239.018188
-642.116882 702.869202 -415.334564
-625.966125 554.761169 -98.822304
-614.262207 746.173767 -276.861206
-582.741394 658.255188 -109.234718
-547.875854 751.761658 -118.796753
-503.353455 881.166321 -170.212296
-532.461548 878.733704 -206.586273
-555.609802 765.998901 -121.952187
-539.930969 747.172363 -99.083679
-623.212158 579.676575 -112.968468
-579.889771 819.993896 -248.973373
-553.799072 902.687500 -282.755096
-578.654236 818.793518 -230.610901
-672.277832 716.373352 -366.473724
-590.542786 653.543457 -108.787659
-557.790649 727.332031 -106.968292
-648.094360 707.240234 -298.224060
-580.333618 538.731384 -48.461163
-700.089844 595.548035 -312.000763
-633.407898 643.032715 -426.974915
-638.288757 758.959961 -337.628876
-625.440918 584.445007 -128.043228
-528.318359 765.573059 -94.040634
-687.153442 661.380615 -376.232483
-647.958496 753.770935 -394.178925
-691.873596 695.204041 -374.458344
-616.579590 728.163269 -264.257111
-639.430664 709.399536 -310.552734
-690.318420 634.271057 -406.169922
-635.167358 619.559326 -152.922958
-603.262573 636.227600 -96.009438
-646.925598 806.672180 -394.745697
-737.965332 483.290802 -296.834625
-655.337402 598.757385 -247.788773
-665.052063 601.432495 -210.689423
-657.243408 464.359222 -37.991737
-625.086853 700.600403 -426.427277
-579.237366 829.355286 -246.314148
-635.681519 556.758057 -158.615234
-631.926514 645.449951 -427.025085
-484.775085 877.458679 -84.274620
-622.929504 563.255981 -53.516499
-636.411560 825.334412 -393.973480
-578.422546 670.754333 -76.941322
-680.335571 547.188843 -185.284164
-683.460754 705.442017 -369.567902
-639.976013 677.126526 -226.009354
-521.702209 801.252869 -101.980682
-546.709778 919.876587 -291.675079
-674.094116 798.805359 -386.918030
-562.352478 696.934631 -88.643272
-669.155579 668.139465 -349.281921
-563.876221 751.288818 -156.564453
-548.760315 871.807312 -214.953644
-711.032654 521.334534 -234.247818
-514.003784 799.531555 -99.762909
-670.745056 823.109985 -371.511444
-696.592896 635.938721 -328.015594
-680.933472 652.488770 -398.700439
-530.513367 857.279114 -175.829544
-641.211792 594.745605 -186.183411
-542.577576 861.927063 -192.420334
-663.290039 478.644623 -56.064159
-669.462708 630.493347 -250.179688
-592.559265 742.187317 -181.427048
-552.406189 773.263977 -166.984146
-563.651306 700.360413 -143.274979
-568.771240 672.549561 -72.763138
-589.213257 708.580505 -159.607513
-590.466614 670.938721 -125.554825
-657.753296 689.750183 -417.183319
-616.741394 802.399231 -318.803589
-593.199890 697.352600 -157.709457
-573.046570 905.891479 -347.380524
-508.407410 872.825867 -125.845993
-640.532410 618.017944 -201.652557
-484.346344 893.317383 -84.042923
-564.421997 674.125977 -115.837547
-658.847717 665.104126 -310.201111
-662.463745 614.804993 -266.326385
-653.138916 777.816467 -390.817291
-506.664490 807.678101 -139.737091
-700.679810 447.740356 -121.127785
-761.945068 570.232788 -359.871979
-653.147705 612.313354 -195.798920
-518.517883 811.778320 -125.095520
-738.422607 492.070129 -275.469574
-693.053528 467.840210 -128.415344
-534.305359 803.454285 -110.308723
-612.914368 567.148315 -74.547523
-655.333130 577.168945 -202.631409
-607.249512 580.601563 -127.484291
-494.304138 892.490417 -128.309891
-621.755554 670.636108 -178.390427
-733.180664 524.543701 -307.255493
-640.248535 638.202881 -247.098328
-517.298279 882.367004 -159.677689
-645.147522 488.365906 -54.081264
-486.978333 850.571594 -81.254547
-562.986267 725.241699 -127.208977
-577.298279 716.961182 -152.928146
-528.296143 817.982178 -155.214615
-788.907043 515.613342 -342.208618
-599.526428 763.150452 -276.320343
-576.976135 754.064636 -160.699188
-575.923828 764.861572 -170.711975
-547.335083 928.025452 -285.453369
-620.022705 770.528870 -284.684784
-608.249146 670.947998 -175.406631
-648.098999 718.450134 -407.151855
-723.785767 535.504089 -310.941528
-727.030029 611.517639 -364.510681
-558.895447 711.060364 -105.215965
-536.070496 789.123657 -178.043823
-609.838379 630.173035 -136.878342
-715.181213 474.946503 -246.259567
-690.582153 654.183289 -332.070068
-559.170105 776.541321 -144.266388
-532.825623 831.940430 -189.307877
-591.468323 822.136108 -303.539734
-660.626038 466.898804 -104.073357
-632.603333 753.986267 -411.345184
-596.711487 742.800415 -211.901749
-665.610779 537.436951 -186.696457
-692.407166 518.546875 -180.635071
-648.354553 721.616150 -412.682007
-642.043579 866.084839 -387.133392
-558.106506 812.430786 -180.094345
-601.898560 615.064331 -109.715324
-642.505249 537.587463 -111.296349
-597.753540 849.136719 -316.440826
-645.449402 694.271179 -426.800812
-633.411438 591.743774 -177.788010
-611.171448 724.956116 -248.107513
-554.406799 747.159302 -97.548225
-642.327576 702.753174 -421.544250
-725.209106 457.804779 -221.313873
-615.695007 673.519226 -195.851761
-535.104187 848.208740 -162.173233
-637.470642 606.137268 -202.039261
-640.488892 733.640869 -414.226776
-543.755981 760.870239 -119.728058
-700.477356 605.159729 -322.197205
-581.788391 609.703918 -96.238747
-575.649719 771.314087 -177.248245
-552.256653 816.263184 -171.891068
-686.193787 509.075653 -233.106445
-700.472900 611.071167 -393.287415
-620.971375 813.471130 -339.371155
-680.020691 603.158508 -258.521851
-626.780090 916.411743 -373.587921
-657.098633 740.878967 -372.986023
-653.256042 722.188599 -405.308136
-504.912231 893.153687 -167.411972
-538.109863 855.648987 -172.702469
-655.209778 834.589050 -395.843628
-493.547089 878.415833 -91.811035
-672.091187 630.555420 -264.820618
-582.300354 701.998291 -138.782547
-521.289246 869.681396 -177.199692
-666.421631 494.053711 -99.227684
-499.676971 839.413208 -127.661797
-657.762695 679.613708 -405.592834
-657.336609 520.034058 -106.284134
-709.448669 648.337524 -367.278351
-582.802795 683.763916 -176.159744
-678.472046 546.381226 -215.161926
-611.625549 608.612610 -114.966110
-525.407532 753.712830 -108.745575
-522.875793 768.440613 -74.570572
-625.641785 738.531677 -259.978149
-524.257019 889.721252 -191.844772
-638.863953 749.016541 -407.365234
-722.044983 468.955353 -249.875397
-560.755798 758.070313 -120.998756
-668.774109 459.264313 -119.963158
-632.497253 710.578857 -408.191772
-699.598511 474.708557 -190.074600
-705.218201 441.870148 -188.836945
-495.964386 902.330994 -121.568794
-592.458557 652.521790 -108.728539
-589.939636 750.033691 -192.875992
-565.356323 742.378723 -111.185448
-642.719910 629.813354 -245.233322
-689.941040 542.817871 -253.938644
-752.677002 624.500732 -372.549255
-631.701355 512.818054 -69.490952
-620.734741 771.511292 -317.114624
-650.833313 602.210327 -220.398224
-498.526489 858.146790 -102.862877
-519.971802 836.929565 -164.458969
-557.331848 798.382507 -192.788879
-527.146301 902.301331 -213.383636
-650.939087 731.115723 -389.946594
-593.587280 611.306274 -63.198643
-650.458801 784.111450 -392.517517
-662.845825 821.708923 -395.656830
-636.124634 626.155945 -170.261993
-706.686829 651.950806 -373.438019
-528.555603 874.934875 -192.118484
-605.784729 673.469604 -173.993210
-628.901428 757.190369 -312.135712
-566.687683 896.265198 -308.855560
-615.942017 823.779297 -329.118988
-580.196167 731.578735 -154.060318
-668.122864 615.618286 -273.454865
-650.331848 771.522522 -411.598572
-571.234985 742.106323 -223.269791
-494.043518 877.885925 -137.595261
-645.754456 561.117188 -142.803268
-569.473450 822.664368 -243.006683
-552.976990 703.451538 -65.031349
-619.359314 669.221436 -200.553146
-657.873779 690.009705 -412.027557
-583.206604 890.907471 -343.817963
-578.940369 739.806946 -193.411072
-651.246399 511.514740 -103.870926
-698.830505 478.996216 -166.772186
-717.543579 479.360840 -219.891815
-523.477051 792.106201 -133.670532
-482.483307 897.318665 -96.019905
-682.344421 527.114868 -164.843765
-554.130676 887.653320 -298.823944
-588.682861 802.847473 -248.226135
-662.159790 468.837646 -108.691711
-629.844238 607.577209 -123.015854
-557.619141 836.016174 -234.957489
-588.383240 721.517822 -196.256973
-554.322266 763.218201 -118.336929
-552.225220 889.799133 -253.991043
-649.612305 506.337677 -96.205254
-691.855347 605.251587 -400.511780
-660.530518 548.637512 -166.239960
-542.517151 868.185364 -233.028687
-643.649231 591.488831 -182.542130
-683.416504 549.432800 -276.322937
-676.273987 629.635254 -409.597321
-662.587891 619.975220 -407.527191
-746.448059 486.661682 -309.697601
-510.343018 815.861328 -86.872528
-672.208984 594.685852 -225.597397
-530.238708 813.721802 -181.053116
-624.915405 731.728577 -425.483765
-758.869751 586.487183 -358.050629
-682.871765 467.979736 -100.446838
-666.059326 567.869690 -204.174683
-541.455444 759.139526 -100.023270
-685.235779 620.622131 -390.643616
-564.794067 774.083984 -147.539322
-594.884583 784.945313 -234.958710
-653.019226 695.427734 -391.606812
-558.318848 808.976501 -182.808197
-634.258911 504.311005 -125.494278
-681.888916 443.187866 -98.824348
-705.096191 488.050720 -200.060013
-609.137268 841.459045 -348.506866
-528.990601 897.069519 -212.845398
-662.023865 674.267334 -407.992859
-556.669006 912.406006 -313.688232
-500.869507 815.162231 -82.296005
-551.620178 701.161926 -66.342758
-581.839539 831.644958 -277.876709
-653.856201 495.583374 -115.499321
-698.147888 572.985596 -279.657227
-560.817993 862.586304 -244.024078
-608.866211 713.630554 -227.127625
-497.738098 869.846436 -120.485016
-577.950500 743.267883 -149.490280
-585.269531 768.484192 -226.322601
-640.677368 663.469910 -212.656158
-656.808044 862.825623 -373.680664
-518.261414 833.535950 -116.029312
-670.315613 814.745667 -384.063904
-656.281799 483.179230 -108.390381
-660.463318 525.674805 -161.331268
-579.600464 868.278442 -328.288116
-557.447876 732.870239 -77.752304
-713.234741 469.645233 -195.332794
-568.106201 728.289001 -141.604645
-658.232239 699.238647 -402.094086
-744.747070 594.506592 -381.200409
-648.780212 669.146423 -290.050262
-632.742493 610.714233 -143.711090
-559.962708 806.078064 -180.794510
-548.890076 735.680847 -107.563866
-607.824463 621.550049 -69.507507
-674.839172 561.277405 -233.536118
-627.929260 716.600037 -278.393311
-630.460327 704.201721 -275.788879
-612.629578 672.702393 -157.088882
-649.412109 686.739746 -323.044098
-629.026978 798.171448 -390.328857
-616.074280 655.582031 -184.113098
-565.039490 859.939087 -240.172867
-511.771606 906.283569 -183.149918
-538.119934 741.584595 -76.422256
-646.802673 712.641174 -317.074860
-522.852417 815.878296 -189.530792
-547.379822 899.618347 -317.529480
-650.435913 558.910217 -196.124557
-546.350830 848.015686 -267.418457
-507.048920 881.704163 -155.392120
-576.278503 657.171570 -95.640587
-473.411102 894.593506 -163.640228
-685.484375 536.892151 -236.022827
-632.850525 637.532471 -203.796646
-682.879211 583.364014 -249.511444
-487.095825 906.088623 -88.426353
-569.092529 821.647888 -236.247604
-682.971436 437.079346 -65.653481
-676.671997 644.057251 -381.358032
-688.487000 542.560120 -252.404388
-714.428345 528.638611 -268.237274
-571.924927 908.677185 -337.208221
-656.003479 595.733032 -215.198105
-696.728210 550.179260 -276.302338
-684.080933 624.198975 -281.734955
-603.718933 688.361084 -190.830185
-657.755920 498.867645 -79.878616
-535.904541 759.212646 -67.793198
-720.808289 514.617493 -251.217972
-670.420654 602.627319 -260.961060
-647.687195 490.905609 -127.730400
-563.834778 817.363220 -237.080078
-616.692383 565.736084 -86.023010
-571.278809 912.132202 -308.768738
-618.760864 579.415649 -106.478310
-588.408691 556.484741 -81.154755
-661.140381 647.656799 -287.620605
-508.373413 808.572144 -97.125717
-590.106628 815.463623 -333.770782
-664.216492 504.478973 -95.095222
-695.316101 550.020264 -228.080032
-705.044189 634.577148 -357.126068
-542.606140 733.344238 -118.853401
-641.408386 523.845642 -95.759506
-673.289246 577.239929 -216.817245
-545.269470 728.136658 -71.144653
-590.869934 820.713867 -282.135834
-529.470703 866.957886 -164.622330
-701.836975 627.375305 -386.961792
-603.520020 684.111145 -191.543747
-723.819336 623.810730 -351.175751
-661.930359 677.101074 -284.180542
-517.850647 824.346619 -118.697006
-604.357361 711.443176 -183.849655
-634.091003 522.581177 -81.207497
-668.398682 640.037903 -309.781158
-617.497864 579.303345 -148.921341
-578.331848 771.791870 -179.149323
-531.051331 753.534363 -122.914619
-712.007813 532.532837 -265.568878
-607.935852 667.051025 -166.310699
-574.948120 697.981873 -125.387650
-548.240601 819.639099 -166.357620
-744.387451 491.136597 -299.670990
-635.929810 494.937958 -58.972462
-618.601257 734.292725 -267.881897
-587.369995 654.687683 -153.147476
-570.822205 656.330566 -76.974861
-523.330139 869.051636 -169.684097
-490.391876 878.761108 -101.382851
-538.074463 851.057434 -182.417511
-658.541992 799.977539 -374.103394
-741.440063 571.252441 -344.112732
-578.264343 699.815247 -103.476593
-690.097290 540.131348 -280.280426
-655.365845 499.899567 -110.709808
-610.263611 786.340576 -294.835266
-612.383972 577.069153 -112.744202
-603.281433 776.414307 -260.278259
-566.046265 811.319458 -199.605774
-634.412415 765.527954 -417.518524
-653.133118 552.053955 -118.901688
-648.406433 779.454102 -397.565216
-666.425232 493.152557 -142.826141
-678.864624 639.515442 -300.549347
-535.740479 735.696106 -75.962570
-536.890381 911.055664 -244.385544
-636.271423 546.878662 -151.473831
-608.392273 561.945313 -62.528759
-636.540649 583.875000 -162.856018
-582.363281 799.003540 -226.898193
-623.757019 738.690308 -270.169647
-541.440063 771.625916 -172.495163
-640.539001 786.944458 -408.128143
-545.914795 750.420166 -99.930809
-659.535339 453.874359 -73.570541
-659.241089 668.368286 -416.085785
-573.405090 830.777771 -261.338562
-670.450256 800.060120 -382.006622
-536.209290 896.754028 -220.391602
-508.151733 884.178772 -158.776718
-639.199402 732.437134 -412.231995
-599.834106 683.150696 -181.251663
-570.274292 904.990112 -316.342987
-609.817749 569.839417 -98.851646
-715.287842 616.588196 -365.336151
-642.215454 758.938721 -414.517334
-622.973816 639.226868 -141.971527
-571.672791 852.818420 -273.951721
-690.672058 627.737305 -322.632751
-654.772705 597.971924 -225.734924
-729.918396 514.163757 -316.322998
-490.812256 823.245972 -99.250900
-672.529236 816.348572 -368.719482
-625.770447 675.870117 -222.608719
-606.833984 796.339722 -290.501892
-661.718567 650.992432 -396.572876
-509.501282 866.438354 -160.565216
-651.993958 821.489502 -393.662537
-582.228088 619.535706 -74.105766
-669.457031 581.524292 -245.562927
-563.858154 834.686951 -299.611847
-629.164429 571.644836 -149.671112
-617.604858 787.161865 -409.751221
-734.471069 482.885376 -291.052032
-734.574402 482.596100 -254.855377
-673.781250 575.029724 -238.070175
-635.994507 542.305603 -117.086578
-592.368835 586.046936 -77.326157
-665.580261 463.657166 -69.005890
-583.609070 728.548889 -142.867065
-655.628052 640.051514 -239.701355
-647.159973 783.553406 -349.875458
-690.869324 535.039063 -263.029144
-629.683228 722.292969 -267.825623
-651.497498 472.464294 -89.409302
-747.143250 492.768036 -308.157654
-550.712280 836.290344 -199.189728
-669.877869 746.026550 -373.372345
-666.531555 759.275757 -351.976257
-571.720032 849.314026 -327.185272
-700.438354 545.795715 -294.786926
-689.978271 546.394958 -245.075165
-590.218567 835.065186 -311.202148
-575.370605 866.286560 -292.405273
-572.025879 684.191711 -61.362545
-592.074097 775.110229 -249.636612
-535.099304 879.515015 -230.467041
-646.521606 610.846680 -182.471680
-623.452820 730.574341 -411.008484
-667.818604 600.913086 -282.322998
-586.551697 681.151489 -131.051422
-624.570862 626.827820 -132.658295
-591.093018 798.201599 -248.889435
-552.047546 854.968384 -204.039734
-583.068420 651.868469 -87.796516
-705.272034 465.983826 -244.858612
-512.509705 876.759766 -144.745407
-658.137207 491.372894 -57.108044
-588.782959 675.336304 -155.350739
-623.359924 605.737183 -103.405273
-558.371460 703.410461 -130.914368
-481.174652 874.572144 -105.351524
-713.986938 496.134583 -242.778809
-651.874023 618.031738 -238.888962
-575.587158 783.513794 -218.101517
-681.208191 708.128479 -360.847626
-500.519897 855.232910 -141.689560
-688.867676 594.230469 -276.871521
-680.976929 476.222809 -164.964706
-536.765991 737.650818 -78.933647
-658.268433 764.450745 -379.339111
-481.780243 893.172668 -111.017365
-528.081116 887.925537 -194.040756
-507.569580 807.391602 -93.094231
-684.357605 521.196533 -162.099426
-691.853333 482.591736 -187.712448
-612.941345 776.854187 -411.998108
-680.072632 603.776123 -407.688507
-613.192383 673.816650 -197.698563
-520.641418 773.890564 -79.684044
-573.067017 696.148926 -108.004288
-569.012390 708.459290 -106.418304
-655.596985 498.012329 -89.073669
-661.318481 648.394470 -286.024872
-602.151855 803.565491 -307.678833
-642.531067 724.914429 -329.191132
-590.945923 868.291992 -334.009247
-691.485657 528.602783 -190.959167
-561.840698 747.739563 -155.626221
-598.546509 659.982605 -138.376831
-653.030212 524.211670 -140.846420
-704.096436 496.853302 -197.974899
-678.221802 619.269348 -312.953033
-637.635498 551.183472 -130.201080
-625.781067 521.276306 -64.929398
-649.651978 613.109436 -192.856110
-626.470093 746.459778 -284.823883
-651.938171 455.239807 -46.935303
-633.538269 650.807129 -193.241852
-650.294617 805.764526 -373.075165
-490.100067 857.282776 -79.568283
-550.331482 890.613770 -301.286011
-750.783386 555.151611 -329.888184
-691.310791 554.504700 -222.546402
-692.812500 470.858887 -178.945724
-580.850037 623.421082 -68.299957
-551.579590 881.884949 -247.709396
-634.657166 536.569641 -129.688751
-692.258545 583.143005 -272.578400
-555.291809 772.908630 -122.680588
-642.174805 506.813934 -100.130569
-658.083008 609.553833 -247.574905
-494.834351 861.264832 -75.046791
-542.682556 770.794006 -101.887695
-528.286743 913.038391 -225.087204
-593.845093 895.112427 -356.926086
-615.924255 750.374084 -264.427612
-704.532349 562.972412 -318.899719
-518.580078 865.276917 -169.794708
-695.986389 637.858032 -401.312012
-646.332336 686.160217 -294.796814
-652.956848 621.268616 -411.697784
-512.969055 826.595215 -82.271729
-581.635559 784.803528 -283.026306
-585.367126 735.788757 -161.028992
-493.290344 862.966064 -93.118896
-525.813660 897.362915 -237.601135
-666.853882 681.131897 -331.116638
-615.993713 598.586060 -126.826485
-649.447571 885.473206 -372.191132
-582.582214 863.131836 -289.300598
-604.081848 847.477051 -329.009521
-684.532532 512.941589 -206.058365
-544.872681 731.775513 -96.421043
-526.070862 806.008972 -140.964996
-636.424683 564.653931 -123.696274
-551.113953 821.653625 -166.347565
-662.173218 481.203827 -173.158813
-645.137634 737.666931 -338.675476
-627.441284 698.495728 -230.013901
-628.565186 587.451050 -146.164352
-691.302734 618.560242 -327.560120
-658.059265 462.628540 -94.960625
-671.100403 465.635712 -163.509155
-544.567871 764.853577 -136.248550
-716.287659 606.297668 -325.522949
-697.061401 668.434692 -352.539581
-668.967163 452.140564 -49.625111
-659.877197 792.307373 -381.528564
-586.815308 622.122070 -87.629669
-510.236389 839.506287 -104.946312
-694.780701 549.890991 -278.500275
-570.540283 843.349976 -309.519531
-539.173340 738.699280 -63.568157
-653.269104 662.045410 -280.601532
-590.567749 732.699951 -171.309219
-644.019836 734.831787 -391.100128
-660.413696 746.981628 -374.585358
-703.583618 466.535797 -202.956741
-568.894775 852.718506 -272.809753
-480.932434 856.262573 -88.748314
-651.837463 566.099792 -141.888596
-678.889099 769.854797 -367.339874
-565.627136 709.829956 -68.567337
-582.395935 868.271973 -316.177094
-578.358276 683.590454 -116.715523
-574.784119 632.641785 -102.084229
-550.639465 896.953064 -267.949066
-632.442749 711.978943 -262.520142
-604.436646 821.066284 -326.702759
-472.376526 909.946167 -89.872879
-697.565125 669.344788 -354.634125
-771.673035 536.590881 -348.708527
-517.029724 852.850464 -176.465591
-565.880615 800.768921 -208.971466
-607.125732 606.063721 -51.144756
-592.465820 618.161072 -75.534058
-658.037231 562.253174 -193.569458
-684.207581 608.213684 -328.294647
-629.480774 736.155518 -412.448792
-652.803833 763.323303 -386.772003
-642.055664 569.997620 -143.768463
-486.549530 871.634949 -108.199219
-601.559937 629.369873 -87.272369
-706.001892 533.268982 -298.961639
-671.826904 729.466858 -366.534515
-611.281067 701.117310 -185.545914
-628.974426 522.466370 -68.027351
-698.065857 534.016907 -210.725845
-624.058533 643.210693 -200.043274
-670.825073 656.981750 -388.812439
-519.674561 813.752075 -97.843826
-577.991699 738.473633 -184.936218
-531.512024 885.168762 -215.177582
-655.328918 786.240540 -391.657257
-629.028015 496.675354 -69.918076
-647.481323 760.033081 -411.839630
-593.619934 773.217896 -257.421509
-588.634460 752.974854 -224.341934
-608.209045 770.375244 -266.691589
-708.112061 653.648376 -367.356171
-671.318237 521.245422 -140.137375
-581.563171 714.601257 -128.655304
-518.792603 779.782288 -83.280235
-686.870667 492.923920 -195.547485
-613.854492 561.821106 -69.340225
-751.499451 604.167358 -366.856781
-611.406677 576.969299 -82.853111
-643.497620 723.952881 -402.191986
-609.084412 735.310730 -424.092163
-661.179260 677.469116 -322.473083
-682.386047 516.027405 -203.696045
-585.405273 650.526062 -94.782890
-580.810059 670.560791 -84.513313
-673.204956 560.364014 -230.804550
-672.704651 616.427795 -296.046509
-529.121155 896.660400 -218.288528
-598.676208 783.034363 -255.340271
-569.919434 859.711243 -284.140533
-744.359802 600.803406 -366.110260
-613.147156 595.298401 -129.999313
-636.576782 705.995239 -286.411194
-649.231018 658.828064 -310.160645
-788.128662 474.854401 -323.798706
-694.969299 478.746521 -150.167679
-631.790955 758.057007 -300.472839
-656.648499 539.022583 -123.640251
-672.920410 567.565186 -201.987991
-617.938660 578.903259 -113.560913
-595.527344 842.581421 -330.692047
-497.358551 898.177734 -139.099457
-599.551086 666.260315 -115.408241
-716.802429 470.877167 -258.079376
-556.427490 765.447144 -115.719330
-626.621765 709.098511 -259.165283
-576.334900 652.357605 -90.471878
-684.149963 589.419861 -292.170654
-676.476624 531.081299 -202.398346
-699.900330 465.502563 -251.546249
-687.470825 532.164978 -215.559723
-688.817383 468.411774 -134.209427
-474.480438 847.285461 -77.507721
-558.470032 831.522949 -217.942490
-626.289490 534.210632 -80.694931
-627.464172 523.895203 -66.825699
-629.882507 606.930420 -168.145340
-548.420837 799.923279 -136.352997
-651.415039 772.155762 -354.560699
-494.140259 874.835632 -162.993134
-612.850037 630.067322 -123.337395
-583.599731 630.027039 -55.653625
-640.051208 799.033264 -408.555786
-735.917297 456.729797 -279.476288
-510.719421 848.717712 -116.216660
-593.619629 627.467834 -96.797791
-559.843445 745.987915 -137.826660
-608.877014 718.151733 -205.380020
-674.386536 625.167847 -412.384766
-590.873291 646.651428 -108.176300
-502.108063 811.121582 -88.716728
-597.513733 675.679138 -153.600616
-610.165283 604.320923 -163.677322
-631.625244 633.457886 -246.272034
-588.588074 686.986389 -141.523972
-565.264709 889.261597 -279.982635
-599.258057 609.972778 -85.618790
-523.729126 744.674316 -112.952995
-552.908569 886.508301 -260.950531
-623.614197 742.452332 -262.703308
-656.932312 609.208374 -244.130981
-668.373169 508.629547 -137.103867
-641.989441 811.476318 -355.613525
-595.991516 687.203613 -176.696091
-486.529877 871.686218 -87.906517
-620.212830 598.315491 -150.129166
-603.400452 584.451843 -70.020615
-557.406372 722.860168 -97.607819
-486.092194 855.472046 -95.427032
-719.305176 481.317932 -268.641113
-609.968323 612.021790 -64.916588
-582.494080 771.923340 -201.944763
-647.398010 544.269226 -174.009445
-626.970398 830.123779 -353.807831
-626.415161 581.393860 -134.409943
-589.514038 880.080505 -376.421783
-712.774841 504.291626 -230.967575
-634.286072 718.988586 -406.827026
-578.187134 937.398499 -325.551422
-622.813782 688.582581 -427.808533
-498.216309 848.116333 -167.374771
-534.841736 754.772827 -68.573555
-625.348877 779.946533 -403.859406
-695.172668 608.001831 -292.533081
-659.247803 482.646210 -82.003510
-634.500000 601.263062 -137.886688
-535.470459 773.496643 -113.604813
-665.019958 679.164490 -324.627808
-683.907898 606.275879 -328.973663
-531.271851 777.021301 -111.695625
-556.158936 768.542725 -161.463043
-728.622009 525.883057 -310.087219
-650.453979 730.876160 -407.621368
-714.134216 652.382813 -351.090668
-671.791504 551.337585 -216.532715
-690.862793 477.353729 -211.021057
-642.638794 765.778931 -364.884186
-692.040527 674.645203 -381.073151
-506.945953 834.164673 -107.395195
-581.864990 870.197815 -298.107727
-608.911987 697.763733 -425.276947
-646.278564 627.917236 -201.272141
-560.380554 846.983459 -234.698792
-658.214844 654.365845 -304.980927
-577.747986 826.718201 -250.210602
-626.995361 742.383789 -415.231079
-637.437317 592.994019 -130.547440
-703.051758 469.298340 -154.871338
-634.253845 752.095032 -420.435486
-608.843750 755.866882 -274.334656
-619.572144 662.989929 -247.660248
-597.507874 762.844543 -249.940979
-497.985229 852.084045 -100.929375
-664.024231 468.492584 -103.765099
-672.686462 597.508057 -260.932220
-599.675537 648.060181 -177.294037
-681.537598 659.692078 -377.129791
-525.856628 762.090271 -92.949120
-609.007996 660.063110 -178.381317
-650.414001 474.029297 -41.799049
-561.043274 734.525085 -117.506676
-583.512634 627.964722 -78.156273
-604.022278 743.986206 -223.984695
-610.743225 665.452637 -189.180939
-647.187561 681.219116 -288.625488
-583.196655 863.536377 -298.584076
-611.424805 659.575256 -172.151001
-596.937683 702.327087 -151.479523
-571.729004 817.473328 -239.255096
-558.416382 777.028503 -172.273651
-650.284668 670.565796 -259.482605
-681.757019 502.478790 -186.685760
-536.264465 787.517639 -91.321724
