ply
format ascii 1.0
element vertex 1408
property float x
property float y
property float z
end_header
759.819519 425.094666 -679.939575
668.985413 483.818695 -520.649902
528.341675 500.866333 -528.590942
725.054626 443.826233 -630.237122
457.404358 427.655609 -756.613220
768.278198 430.803314 -648.232239
291.862183 526.552917 -591.640015
746.562500 481.562653 -487.951538
622.455750 421.473907 -777.971436
364.458191 459.011261 -728.611145
289.803619 503.756378 -644.814148
580.881287 427.130859 -715.455872
562.640015 462.810669 -623.287781
422.500977 451.646362 -655.820313
396.205750 491.181030 -568.883667
315.473389 479.020477 -713.830505
709.114197 407.981567 -713.684814
340.138824 490.227814 -625.060364
729.316467 451.196167 -560.849609
576.965332 464.417847 -636.440735
509.570404 517.756226 -492.292999
421.208618 511.988037 -545.288574
754.498718 472.520752 -550.531311
475.041779 429.652832 -801.049194
422.636261 442.999420 -830.977600
526.626038 404.983643 -786.263550
770.759155 460.066589 -561.980347
287.192535 503.545624 -556.130432
617.430481 381.420990 -812.629883
408.062164 487.591187 -621.225464
291.830231 485.092163 -693.217041
740.460754 421.145355 -804.745972
642.925598 431.559174 -702.330139
726.028137 446.482819 -617.479858
356.556610 462.365021 -669.535339
557.163513 357.217346 -815.568970
298.756409 519.695679 -609.482117
754.329102 472.734100 -533.947632
659.392273 453.595154 -616.307434
683.893250 405.522705 -675.096558
343.554016 442.035309 -717.236877
389.145142 450.597473 -757.043335
511.191864 460.611084 -643.330383
652.200317 436.648163 -683.899536
712.659119 472.975250 -541.906067
473.232849 440.274139 -722.048828
628.223755 449.975128 -651.072144
422.186218 476.947937 -673.838806
724.265015 436.066742 -652.245789
554.372192 462.460876 -650.590088
602.092834 473.459808 -562.090332
568.869385 448.982178 -653.714600
278.755371 459.135742 -784.592285
272.240723 502.831757 -600.831421
313.099945 517.150879 -600.269958
610.131653 451.867706 -632.123657
263.134277 557.931396 -524.976563
454.176300 506.939087 -564.765747
557.707397 437.305573 -713.184021
329.900330 501.040222 -595.233093
593.621826 474.861633 -574.623047
712.305054 468.166992 -529.115112
396.847748 463.608215 -706.118652
644.592346 458.282837 -597.946411
715.092590 474.991608 -540.999390
367.020752 490.171265 -650.024963
680.142578 452.651093 -639.903076
504.691833 431.232513 -723.040833
614.060974 373.737701 -813.326721
646.109985 453.612274 -612.721008
344.875763 507.262634 -572.899414
745.100281 412.868195 -700.714905
623.691040 488.255524 -515.926025
654.539490 435.935852 -695.458069
530.377014 362.440979 -810.672729
659.966309 489.387695 -528.963745
550.320862 465.206848 -634.199036
544.687866 329.729523 -791.465637
402.830078 460.534973 -638.757141
661.006042 404.055847 -749.474731
621.868835 483.676178 -570.073669
566.374817 439.052490 -687.954773
636.051086 373.665649 -804.428894
414.693390 485.037476 -591.650391
701.875549 439.623352 -644.799683
439.488708 484.617065 -615.336731
361.503601 464.309723 -718.854431
572.133972 508.869934 -492.853699
479.698303 399.155640 -814.299011
401.495667 434.883545 -743.203003
637.349060 398.392456 -796.383667
377.239258 464.225403 -683.954590
541.008728 467.184784 -612.928650
643.536926 466.454193 -540.734375
587.993958 445.558716 -652.524231
395.651947 474.249237 -646.885498
667.106323 468.463898 -558.574219
334.494476 475.059052 -668.379883
733.985657 497.176270 -477.826385
624.787720 425.534515 -695.810242
438.003021 456.955231 -710.625366
268.549530 487.453949 -655.485107
694.001648 461.601196 -589.275085
439.379822 477.053894 -622.140015
585.908142 517.117371 -493.154022
643.202209 414.718445 -749.282959
393.190857 511.197845 -562.109497
412.013733 512.261841 -565.985535
476.343170 479.398010 -611.438416
628.221863 397.962555 -802.517334
379.071930 432.021667 -807.171814
375.398895 520.170105 -520.837524
418.567413 477.922882 -635.669128
692.274597 462.170837 -563.046387
417.076782 525.265747 -502.559021
541.849304 460.054749 -570.141174
490.163483 376.115845 -810.617065
487.002411 504.499786 -569.353516
599.308105 505.028687 -514.101563
733.731140 396.489288 -729.029663
369.579590 474.594727 -658.285095
590.804260 444.324127 -682.548401
641.995605 474.878998 -591.198120
286.519104 487.636536 -696.486511
616.445557 436.148590 -702.185181
617.285950 419.070007 -764.394531
694.334351 473.928619 -503.762604
398.214691 500.333130 -591.765442
599.218262 445.872528 -640.354553
282.279846 464.066193 -715.914978
515.116638 511.265015 -540.008728
340.167450 480.522156 -669.338379
510.054138 431.360687 -712.595398
714.442139 432.469849 -646.715149
341.988678 506.112122 -620.261719
569.199463 469.017090 -589.059326
644.633179 430.970825 -818.685120
647.327087 465.846741 -583.317017
476.139496 484.499237 -599.082825
299.731415 461.304382 -761.726624
503.302460 466.981232 -637.541687
316.697052 530.458130 -573.109863
453.472534 511.465393 -559.842896
465.048523 445.543335 -719.098206
579.175598 429.773834 -705.065308
560.821228 494.663147 -531.118347
455.179291 433.179626 -821.989502
460.026978 531.289063 -505.695618
544.958130 382.651520 -809.315308
517.149292 481.464386 -596.367798
746.829346 458.405518 -557.491211
478.302521 480.002075 -616.013550
425.001587 530.526367 -493.783539
628.483704 363.119202 -800.834106
691.307007 404.726563 -752.966797
738.166260 394.606995 -733.067688
444.985504 481.262421 -648.877747
512.645386 484.589294 -575.219849
714.958496 480.164490 -494.174103
588.697754 432.284058 -698.247864
509.609161 354.977631 -808.494690
301.878204 476.518127 -676.943726
598.375549 408.898102 -806.399048
729.842712 397.015228 -759.708130
350.834564 488.770447 -658.717773
356.635223 501.338440 -549.373291
735.116943 487.760529 -492.048096
510.112762 416.403320 -795.383545
392.949951 461.825195 -681.746460
391.377960 469.637329 -670.135132
602.807556 507.482300 -486.485748
502.609619 484.720367 -617.974548
621.012268 424.590881 -790.510315
362.236267 467.789978 -678.501221
344.399139 512.709167 -557.911560
378.655090 434.875336 -756.494324
369.411255 532.301392 -505.387360
618.048706 474.899902 -575.362488
565.548523 512.666199 -506.085663
564.896301 408.760620 -770.845093
630.524048 488.943237 -538.969788
586.009460 502.123810 -505.123840
266.047455 494.086914 -666.525696
703.831360 448.910248 -625.680298
654.800964 405.348022 -745.179749
600.834534 415.067505 -692.431824
586.860474 515.868713 -479.478546
372.908203 451.754669 -719.959167
730.300293 474.706390 -550.155762
720.040710 453.205688 -609.160278
302.016815 446.589722 -760.044006
630.533264 410.705017 -692.794128
580.995850 384.249725 -809.077332
567.524841 432.176636 -709.073181
635.243347 477.753235 -545.036926
317.456726 498.891327 -660.634033
431.842926 503.059021 -562.053101
513.759399 475.702118 -612.541992
700.410889 473.462463 -560.363525
450.448608 386.587646 -816.548706
762.517517 407.690704 -731.421265
725.311951 407.961670 -676.741394
701.849915 417.459229 -674.478027
447.003052 408.179779 -817.776428
312.382416 496.856934 -666.363342
700.616577 499.094635 -486.116486
342.499512 447.925873 -765.358582
547.837036 412.939484 -764.670227
700.187927 432.927887 -685.891968
566.552612 473.624847 -592.515686
298.011566 517.154785 -568.448975
508.020935 441.896179 -689.345581
376.425415 458.195496 -726.664734
768.403137 432.776825 -643.382507
408.965210 481.882141 -621.361145
587.997375 411.448151 -708.132385
331.792725 516.006653 -610.168091
388.663422 497.636566 -562.255615
549.013062 440.169220 -712.063354
354.331451 485.577301 -681.009827
575.813843 418.843628 -783.999023
499.237823 420.006256 -765.903870
271.933472 484.911896 -655.497070
625.583801 472.476440 -568.064514
695.849426 448.293213 -625.856506
474.925659 460.190613 -661.248413
374.063965 495.485596 -645.125610
623.137634 483.316437 -469.725525
601.327148 426.824310 -729.403503
604.620911 498.459595 -513.362549
509.282593 464.499512 -665.108459
362.376038 447.344543 -765.381531
468.897827 436.901062 -718.872681
573.901855 463.129547 -618.313293
603.507935 447.426910 -669.211426
736.302185 380.859406 -729.426819
265.680481 540.545105 -566.939026
463.803314 504.919586 -573.989197
712.298035 427.026581 -652.039612
385.180023 510.634186 -582.257263
658.769104 475.240936 -560.166382
665.465820 438.958435 -625.853882
764.007751 420.133972 -671.148071
329.280090 493.544983 -640.346436
741.261597 455.979736 -543.948120
374.799622 540.077759 -531.354614
585.286804 424.748047 -744.759705
601.837769 470.382080 -600.809387
305.613037 462.757904 -739.689087
673.821350 499.367157 -483.102600
345.293976 537.880493 -533.862671
621.282776 419.307343 -717.115784
282.786346 497.649506 -662.234009
532.643982 339.927887 -807.087463
317.202789 445.483368 -745.999695
753.497192 478.545227 -521.267944
526.868591 517.857178 -488.494995
369.604950 520.096313 -543.401428
458.118164 451.890564 -681.846130
322.126587 504.423828 -586.918762
417.399139 452.120178 -726.927185
705.862427 447.954254 -552.299011
366.373627 498.884125 -588.960022
600.610840 461.682617 -635.403503
660.220459 470.577759 -588.749817
619.678284 384.984619 -816.210388
340.025726 462.063416 -742.841553
720.406616 480.077637 -485.203522
506.625427 388.521729 -812.766174
637.176880 476.524750 -488.584412
498.468628 437.475922 -704.173096
310.597229 448.737762 -711.240662
402.182068 473.035797 -694.286682
582.883911 364.208771 -793.942383
496.607239 463.964539 -671.325134
552.954895 489.959229 -582.056152
672.004211 433.834442 -649.729431
286.692810 462.419250 -707.592957
449.636688 506.559662 -535.658997
558.212158 434.439758 -804.544678
412.193726 444.957153 -770.940186
598.239380 457.313751 -622.971497
443.738800 427.975739 -742.017639
509.517975 477.271729 -591.595093
327.209412 512.270142 -622.885315
561.266968 495.353760 -541.270142
491.269104 433.259583 -682.313171
521.890869 498.648376 -535.186951
317.543030 513.674866 -604.616028
439.516998 511.062592 -536.049866
450.859863 398.502808 -820.909912
698.419373 413.927002 -745.688354
562.553162 458.455719 -668.096252
323.170502 493.862213 -630.787354
774.677002 464.283875 -502.695953
610.622498 426.852692 -714.986389
485.183258 436.027252 -700.064575
692.609192 497.807983 -482.001801
566.067200 475.822235 -581.341431
723.982910 427.172333 -803.641968
622.740417 471.549164 -599.083069
440.070374 504.037445 -503.542358
448.951599 481.347321 -607.464417
428.705170 446.574005 -713.381531
396.927307 445.603882 -749.133301
278.546082 469.677429 -705.017212
595.535461 483.925568 -499.427612
755.951782 491.926941 -488.158081
624.412415 410.249084 -807.381897
390.102631 458.110931 -706.488403
283.348877 446.473785 -756.764648
447.722565 485.192657 -571.265381
726.007019 492.317474 -479.419281
484.713806 506.160858 -523.257874
606.138184 417.703247 -792.077332
431.317017 523.805176 -500.421173
676.644348 477.142181 -560.670227
414.497498 471.858215 -655.696289
436.592743 422.150665 -834.513855
546.016785 417.107880 -709.888672
525.117737 489.940430 -570.657654
536.092957 448.847443 -669.892700
710.246887 460.241608 -586.396606
603.876221 427.823120 -728.701599
689.395447 491.217560 -505.430267
617.014160 467.843567 -544.850159
395.666107 525.676270 -555.313965
625.803467 455.158569 -614.317749
587.588684 366.032471 -814.912903
542.088867 426.937958 -755.619995
350.335327 495.519257 -660.563721
742.295898 467.801300 -539.270874
667.132263 421.591156 -700.850403
628.128357 375.088440 -807.965088
630.330017 427.182556 -735.241028
437.755219 487.396362 -597.202576
369.221466 456.261230 -676.115234
707.002808 409.094971 -734.364807
434.310181 452.004272 -722.814575
360.256073 509.352814 -584.288818
659.418640 460.760254 -614.769775
521.761230 454.034332 -696.394348
732.509766 411.183655 -762.383240
505.879364 514.357483 -511.804749
431.256714 465.881012 -654.848572
692.173096 427.410126 -617.329346
732.250977 410.882935 -778.242981
395.788208 494.051666 -592.324829
329.849060 457.257477 -744.789734
476.412262 384.803253 -816.809509
673.094116 470.090027 -567.774170
329.062775 467.987366 -734.222412
367.766876 446.865417 -764.385193
318.939514 513.125732 -609.682739
602.286255 500.657806 -491.129120
663.068359 473.588165 -527.130981
464.005402 387.902191 -823.889160
268.873657 481.822052 -697.153564
379.764252 498.399506 -586.935425
360.137451 459.310577 -697.081299
478.542480 456.201691 -665.031250
338.566406 464.794220 -722.650269
698.804138 430.381256 -664.074036
611.224731 453.123474 -575.965576
294.407745 491.374847 -652.871582
428.863007 457.244507 -663.229431
515.285706 465.898895 -644.098450
296.165833 549.915100 -509.927399
590.212891 482.172394 -542.705383
341.752594 449.696198 -810.354980
576.320801 473.728210 -517.511902
378.599396 522.312927 -527.293701
417.284912 498.648010 -570.705017
610.294495 479.311066 -486.705811
632.589600 498.571655 -488.404419
570.157776 475.290192 -607.556763
368.393463 449.716553 -720.539001
357.785980 526.336731 -516.782532
481.529022 442.735779 -730.314514
509.517883 438.114471 -700.688416
347.967773 503.038513 -626.461426
314.080536 451.044952 -761.399109
272.547333 449.959595 -761.239502
643.902771 460.172333 -592.606628
299.213348 534.747559 -505.109894
685.824341 496.167847 -497.113556
585.973145 483.261261 -564.435242
532.104736 365.065735 -813.337402
515.739502 482.300781 -590.060059
551.741821 467.115356 -610.172607
382.525299 460.844452 -729.898804
742.218384 406.581024 -732.473389
522.897705 359.262909 -807.770935
445.274353 445.251862 -688.401917
519.395203 502.509766 -499.119904
340.515106 508.629730 -544.639648
747.584778 494.245361 -477.406158
335.998291 464.738800 -664.185059
386.408051 441.506653 -709.433655
488.044525 443.277924 -727.045715
462.289886 461.463379 -656.252563
519.879700 366.339203 -814.536011
620.099487 405.569000 -713.075989
371.387817 445.821869 -762.772400
495.603760 515.248047 -513.528198
376.857819 494.758850 -634.126587
564.563904 375.552185 -803.202332
735.157043 422.491333 -681.158142
391.895782 463.202301 -680.077393
345.103729 470.249817 -679.711121
384.129761 471.133087 -638.709412
287.826416 520.498657 -547.396423
570.308533 422.306000 -729.984375
346.131287 481.236908 -623.196167
641.565857 471.414307 -559.630554
517.792908 514.761963 -534.795776
538.563293 451.403961 -697.590271
662.344482 491.863159 -521.956055
468.925537 514.351624 -520.769714
466.952728 339.012177 -803.415100
654.563293 431.906342 -802.499146
624.353577 488.569733 -531.736450
353.486176 457.050201 -718.806396
674.629822 417.575714 -818.601624
323.575867 506.722534 -554.255310
742.174500 421.724426 -610.700623
683.677551 416.034088 -758.262390
600.699890 480.283783 -557.729553
411.183838 442.485229 -725.346924
273.281708 530.707153 -566.170593
604.349060 423.265503 -765.185547
443.508453 428.303436 -763.511780
565.717957 518.536621 -489.296814
478.588806 430.431122 -731.247314
582.686462 488.790222 -551.670471
485.975220 442.984680 -731.824890
717.428589 415.409882 -707.636841
743.693054 474.304108 -530.588684
646.608398 503.019897 -501.725372
730.371826 407.470642 -717.970947
539.160400 483.097595 -608.767273
421.946381 503.702240 -556.401428
493.649872 488.374023 -567.266541
712.088928 450.093536 -621.311096
463.840057 533.532776 -491.286499
488.167999 518.776611 -534.588257
758.386292 464.930176 -493.493408
615.278137 419.321106 -735.505188
623.715576 453.560760 -657.816589
573.456604 490.820557 -523.554382
741.798340 481.561035 -521.470886
413.455963 529.400208 -527.237366
566.329529 479.547028 -603.358826
434.305939 383.097565 -819.427307
550.952332 477.666687 -588.261841
680.671509 492.161346 -514.613892
433.066101 457.140991 -690.050232
593.969604 398.846008 -796.032410
731.747559 396.258911 -734.453247
701.667969 506.771698 -471.526611
618.628296 495.877502 -514.513855
729.484436 467.042908 -550.461731
447.466949 480.300476 -624.400635
485.505157 436.858368 -743.183594
542.122559 416.889130 -801.122803
784.423767 437.543121 -627.664063
737.670593 480.984650 -522.827637
597.870605 375.695526 -794.465088
669.479309 445.143188 -637.143127
790.526306 418.308990 -703.171387
669.003601 480.234375 -510.602509
723.440552 445.259399 -642.741821
616.404968 411.000031 -808.801636
722.485840 402.072144 -724.123657
487.207855 364.980957 -823.637573
770.779785 424.001587 -614.591797
494.848083 467.760651 -665.640808
724.323853 391.751953 -709.115234
663.092163 496.144196 -501.359528
511.486298 446.743439 -681.449402
586.811707 497.914490 -497.254242
495.242554 492.392395 -515.031311
700.715454 450.912659 -636.509094
670.119019 428.788483 -667.258118
527.007324 489.546082 -596.104675
704.941040 444.733826 -627.534607
369.404083 466.205200 -712.393127
687.707092 456.608368 -569.931396
609.304810 363.200226 -804.536072
603.072510 494.667511 -521.233398
488.746277 366.993896 -817.072693
415.169312 439.897308 -830.736572
282.543823 477.111664 -675.240234
422.208832 438.663910 -818.848145
673.881287 431.845184 -815.992615
763.185364 457.993713 -559.169739
597.949524 471.814819 -573.684692
620.978638 421.220825 -707.297180
523.801392 492.265076 -559.437927
649.253662 495.725616 -517.271240
425.854309 521.756470 -493.550812
746.450134 461.312500 -526.904968
505.250061 365.095886 -813.483521
384.064758 493.796570 -573.839966
394.881195 477.003296 -689.226990
342.622559 467.251343 -812.166260
741.214294 465.574890 -536.785217
671.578186 501.474884 -482.442169
743.989807 472.719055 -543.663269
478.316833 445.157532 -715.755859
608.071655 510.243744 -510.039429
288.617279 502.773499 -665.764160
291.270142 482.754181 -633.939880
544.316895 503.899292 -523.299011
326.505249 486.803589 -692.661987
613.557007 375.414215 -811.190613
646.582642 458.747894 -604.554016
467.983307 488.160126 -556.636047
615.493103 424.065247 -786.063416
562.441406 505.311035 -513.083557
280.032806 510.976257 -572.865234
601.405701 473.611969 -603.901001
771.978821 442.986359 -615.061035
300.846588 516.940918 -616.541870
427.177612 456.461670 -641.747131
346.669006 524.355164 -537.585266
578.284485 381.570557 -807.295959
655.934509 493.189148 -489.874695
536.130981 492.655334 -571.018250
419.093079 488.950348 -579.947693
685.176941 452.580505 -576.800049
501.224792 468.458649 -670.166321
485.960724 445.176941 -691.364563
448.529846 497.732178 -561.279724
604.753113 449.558899 -637.405151
284.146790 461.363464 -759.193054
408.240967 497.343811 -577.378235
362.547882 477.206879 -701.985962
608.425354 505.383392 -505.252655
311.644287 474.924591 -687.837280
649.021057 495.139709 -483.476013
596.293701 488.196930 -533.493958
507.699768 439.873047 -786.611633
408.078552 481.823151 -620.603149
295.719055 497.084503 -587.979492
502.424500 448.337494 -635.039429
464.549194 401.461700 -803.276917
692.009277 407.198151 -730.177734
383.556427 514.299805 -572.072449
555.617798 463.608673 -648.653931
523.629211 472.690338 -635.708862
485.334625 342.244080 -802.553345
621.680115 475.760925 -588.979309
438.447937 472.018250 -670.668701
694.683350 419.606689 -693.389465
456.424042 478.839264 -645.176086
476.686859 482.003418 -607.491028
720.752808 426.663239 -647.218872
343.652130 490.421753 -626.049377
667.809265 462.163391 -513.981628
592.478455 430.463593 -726.289490
382.865936 494.415771 -599.995361
765.403748 402.130981 -759.085327
614.137878 461.037292 -605.294678
508.382111 448.854248 -669.928162
705.318481 425.447327 -681.611511
555.602051 486.561035 -557.276672
649.884644 478.983887 -533.282837
732.557190 437.147278 -597.280945
481.182068 416.055298 -805.523926
507.724487 425.288300 -745.794861
339.928711 537.457458 -534.551819
309.877380 481.143280 -634.175293
467.119232 499.540741 -509.112427
561.785461 503.502228 -509.708435
661.778381 422.995087 -726.437439
302.116791 506.165344 -640.394409
709.007874 422.305237 -680.891785
535.881348 450.029266 -663.527893
323.906677 443.100677 -737.794312
670.257568 467.608978 -541.981628
711.951721 502.271729 -475.982483
603.618896 481.440430 -583.283386
496.213806 398.210358 -812.720581
352.003174 513.306885 -565.599182
758.703064 428.835175 -625.428284
463.877197 452.978455 -677.495972
660.539001 453.066711 -639.546021
617.769470 503.229675 -504.420319
430.141266 445.461456 -745.985168
730.324646 430.997620 -654.524414
484.606537 458.207825 -671.006165
496.809418 486.902985 -614.063904
289.991821 475.566315 -713.210205
599.331665 443.946320 -668.787537
607.969482 485.660645 -558.287170
549.292847 450.045380 -597.309692
463.802704 493.955292 -537.958740
484.001068 457.405426 -692.252686
411.359924 454.848602 -724.255737
297.100891 495.452209 -661.369995
640.578369 428.576630 -634.129822
562.976196 487.259247 -503.311096
652.003113 457.866730 -635.089722
313.229340 531.613281 -511.127441
463.111542 472.591522 -613.547485
469.438934 480.082672 -603.955200
703.670776 422.629272 -681.461365
690.266418 473.170746 -568.729065
653.929810 473.680115 -533.091492
718.931580 464.606812 -573.952026
668.414368 458.826355 -567.454834
352.105988 443.353424 -732.493652
482.623993 500.570984 -584.538208
591.098999 435.728424 -689.584412
702.852173 483.971527 -523.374390
779.079651 473.550049 -513.707336
746.998718 434.689728 -596.695923
560.694214 463.087250 -647.681519
546.743774 362.532806 -800.018250
480.406525 487.952820 -613.226990
687.049622 507.386414 -481.278381
459.474365 392.630463 -819.713379
587.289856 500.362610 -517.163635
364.872925 477.245422 -653.347473
724.934021 403.528656 -744.194946
639.276062 439.095337 -679.324219
373.442932 452.897919 -709.430908
421.706360 388.484680 -817.184570
609.409729 422.702393 -730.415527
620.835999 398.271118 -810.501831
459.790588 437.209351 -750.206360
479.883911 337.641449 -807.632935
603.686707 481.225708 -554.360046
637.100708 455.098236 -634.535828
332.130249 440.864166 -739.974304
379.647614 455.308197 -791.259521
618.759094 435.473938 -696.052246
542.716675 450.799133 -687.076355
411.035004 523.979553 -511.855377
549.651062 447.403870 -664.274658
574.495972 451.316589 -644.551208
577.303162 504.313995 -496.002075
581.785278 476.593384 -534.212402
590.072144 439.949921 -678.357971
486.637787 436.057159 -748.498291
739.646118 422.224152 -671.211365
269.556183 514.899902 -541.996521
593.137878 434.083496 -688.352539
582.332031 474.762054 -579.914551
784.539063 418.764709 -726.728821
296.344574 532.914307 -550.836426
790.332947 428.781036 -656.576294
590.594971 440.239685 -681.912415
307.167145 504.533569 -645.464355
473.067444 507.576263 -570.734680
746.950317 445.517578 -597.896118
485.083221 393.788208 -814.847046
741.589661 494.976227 -469.030365
435.090210 465.329803 -656.717102
524.537598 324.875793 -793.255127
721.593140 472.975128 -539.029907
486.213196 433.980865 -804.729675
580.938416 510.174316 -488.554657
470.697113 475.296143 -649.960938
516.866821 359.573761 -808.920227
482.434570 438.466797 -789.818909
463.554260 432.312317 -755.012085
560.198669 390.456573 -812.516052
458.899445 508.066681 -537.536438
366.976746 488.135010 -655.105957
579.811096 425.756531 -788.412354
665.203674 471.166504 -551.153992
670.114502 403.556488 -818.337219
513.203552 522.387512 -481.006134
490.780334 504.382904 -502.150391
383.615692 485.848969 -658.933228
378.018372 506.891357 -613.370178
553.495728 427.106995 -768.808655
750.766479 431.065277 -658.469055
298.717377 485.791595 -652.294800
279.633575 464.366089 -679.856384
486.354675 487.549072 -591.340332
583.723938 471.303192 -595.214355
548.489685 459.686096 -635.479736
528.986511 396.662598 -796.394104
707.442139 415.204773 -727.566223
521.507996 515.170166 -500.984253
542.803894 507.943573 -496.179565
394.899506 453.678314 -679.071045
615.068848 445.404724 -647.640686
509.485413 356.023041 -815.767456
651.552490 498.413147 -491.870514
567.281921 436.949341 -729.298645
626.993286 467.397705 -584.684204
614.395874 451.394348 -667.292114
669.277039 457.158447 -605.002686
541.206055 404.012665 -809.499084
521.725220 465.036926 -659.016296
483.878754 372.586914 -814.941589
717.998596 408.245758 -743.752197
631.327148 494.116364 -495.932281
656.985962 434.594818 -642.711365
517.885986 418.908722 -800.599365
417.060608 474.794464 -637.430054
469.516602 464.883606 -678.821716
553.121826 431.459564 -810.268372
642.555176 482.582947 -519.924194
322.095367 477.905243 -706.906006
454.002350 528.591431 -492.035431
450.949280 491.171997 -627.851196
663.192993 497.193726 -487.621796
320.733856 488.779358 -608.751099
358.640717 482.928497 -642.401367
356.801788 445.363831 -736.507568
279.805176 479.879822 -714.381409
587.123718 371.621307 -806.314148
531.466431 493.494354 -542.509216
414.367401 458.364258 -724.508667
330.828735 441.086426 -757.096741
390.997742 446.503357 -696.857605
288.899536 524.344238 -547.285828
515.801453 509.902344 -545.204102
776.496399 463.244110 -499.428864
606.232422 442.140900 -656.716248
482.217712 440.778717 -716.064209
399.922699 482.046112 -636.517456
276.589539 527.305115 -519.977600
524.776428 461.959412 -672.650146
359.528931 514.112610 -550.248535
422.881622 479.357117 -564.901855
500.872162 424.268341 -705.802246
690.742065 482.705811 -536.341919
312.584625 505.501007 -623.903870
295.477966 504.250275 -552.931152
747.710266 456.517731 -578.777527
316.024170 461.715485 -701.745239
745.196228 434.803833 -630.416687
732.373535 438.746948 -645.195801
425.146179 439.767548 -727.583984
511.228058 488.388947 -573.483765
453.316223 492.588593 -614.049500
744.895752 400.441223 -721.439270
561.906006 387.014923 -786.749756
737.135559 450.554871 -602.263794
671.673096 415.219025 -822.425537
629.337463 428.855957 -715.166138
673.904785 473.200317 -541.038269
278.574951 506.487366 -647.863281
412.273834 482.114288 -654.540527
301.330322 529.961548 -513.849365
632.515625 428.169067 -690.223389
611.939392 475.163971 -594.852356
679.837585 493.898499 -489.860321
344.193878 516.737366 -524.087097
349.717255 492.391571 -589.367737
397.395020 508.916351 -555.325806
619.926086 475.156097 -563.341614
669.207825 424.866608 -685.654053
470.231750 391.464935 -809.353760
697.518188 478.888763 -545.480957
361.609894 457.613007 -744.185974
424.658752 511.070465 -546.213379
356.494141 486.811554 -573.707275
526.703857 430.729767 -775.374084
473.219360 522.246643 -532.558411
559.609985 498.935120 -525.425049
277.744659 489.502472 -641.994873
687.300110 432.080139 -648.988159
599.169434 420.272217 -790.775757
554.479309 469.094330 -594.684265
517.194641 441.890778 -650.995239
595.529297 444.277771 -680.679016
529.411865 395.571869 -800.695068
571.739258 359.524170 -807.170349
765.703186 428.268890 -637.976379
438.482697 439.818085 -719.621826
596.825867 412.606384 -731.230164
522.493774 496.890106 -543.902405
337.421478 441.770203 -719.156189
458.393768 445.427124 -697.642639
588.353455 443.947357 -661.816406
535.108887 452.928009 -685.714417
499.515930 493.986176 -526.596130
646.559509 436.287842 -686.928650
720.491150 491.839203 -490.607910
288.057037 512.339905 -541.831177
598.886658 370.911713 -810.700439
406.680908 503.170868 -568.094604
522.793335 438.078583 -707.756714
327.804932 474.777283 -706.567322
526.732605 448.352478 -702.065369
591.218445 497.049561 -504.817108
722.820007 464.295502 -563.290405
620.293701 477.523468 -568.670776
615.239685 401.144440 -792.687988
634.453247 452.651398 -619.810242
643.390137 424.984528 -732.239807
690.114502 415.999634 -698.791504
268.325226 507.833191 -606.681702
345.896545 469.345245 -712.939819
282.275391 510.714325 -548.626526
642.423706 466.581512 -575.516907
469.705688 412.042877 -818.789124
752.220398 496.009552 -482.415955
675.860535 449.675629 -598.225769
736.592834 436.429596 -650.956421
704.751648 481.475067 -523.768677
764.900696 468.244354 -486.358063
578.516663 361.395966 -799.996399
470.036072 494.201599 -572.273499
770.110352 418.377655 -682.255981
553.663391 492.667236 -573.716675
438.733521 486.335938 -610.079224
264.856293 533.839111 -538.074097
399.036560 522.264526 -508.253143
444.072357 534.843140 -492.803528
540.134460 495.753876 -558.715027
282.361908 471.788116 -692.710693
697.828674 475.889801 -537.769958
388.588379 508.743408 -572.523315
569.133362 394.551178 -795.837280
321.792480 428.334686 -752.535706
557.387207 493.501129 -501.154480
748.070496 461.172607 -561.312256
440.631958 457.809113 -681.203186
528.150696 437.520630 -707.800049
447.364410 537.203369 -516.020020
686.119934 472.228729 -483.678925
589.562317 427.347870 -758.845581
482.860260 436.785706 -796.674866
623.417175 485.523346 -544.175964
536.380249 344.468811 -811.826660
673.745972 475.733063 -521.635986
485.097595 454.171112 -681.946533
595.770630 476.237305 -599.887756
688.288025 408.696564 -743.167114
663.431213 442.299774 -627.978333
645.401489 454.342377 -558.885498
681.210327 406.169739 -734.700073
596.289185 376.807495 -805.449219
732.623535 447.493286 -617.594421
583.545105 475.911224 -508.135620
561.598267 452.327087 -660.266846
574.941589 493.936005 -524.809204
506.198212 476.764618 -535.768494
722.042297 416.260864 -621.945618
506.813232 464.211395 -645.923523
622.743652 403.032288 -723.886414
282.825592 485.837952 -646.789063
568.608215 331.319611 -797.078552
744.490540 424.902161 -666.394592
556.967834 429.181366 -710.612976
680.986938 431.649017 -653.726440
493.583527 500.526093 -497.384216
485.385254 458.811554 -644.646240
398.951904 445.551971 -799.487366
764.983459 444.253265 -609.250122
691.260620 478.083435 -553.433167
447.249359 467.747070 -677.169556
676.370667 429.456635 -686.502075
402.133148 449.863861 -738.481934
491.646240 465.349060 -636.666382
568.022522 441.288849 -676.989807
392.730774 509.091766 -600.384583
537.038208 465.048065 -634.142700
597.290955 421.287384 -766.956970
448.203491 439.721069 -749.536133
364.946014 454.499512 -712.350464
573.872070 465.492371 -559.678711
299.831085 468.375916 -670.720764
457.456299 499.981201 -561.894531
576.005371 387.264771 -803.086670
341.880859 467.286011 -826.704163
609.404480 440.932770 -684.269531
606.098450 436.064056 -615.751831
563.382935 495.557678 -523.859863
531.151001 373.316437 -813.077576
492.477448 363.967926 -823.130615
697.457092 423.517975 -680.737244
686.721069 453.334198 -528.412842
772.520874 398.719299 -743.707703
538.453857 476.585449 -602.158325
679.424561 424.878571 -809.303955
400.490967 479.139313 -681.192688
662.971313 449.556213 -649.251465
374.430511 478.980225 -641.683533
311.546875 497.593903 -616.817566
429.358551 468.203613 -698.957397
302.024841 515.377686 -607.892212
728.302673 428.992615 -615.802002
707.097107 468.824829 -557.800110
688.412781 503.992950 -484.122833
738.351257 395.561737 -741.575012
710.422791 405.685669 -730.101135
483.941864 496.062317 -523.647156
554.540588 397.813782 -807.276245
495.165619 473.194122 -652.540588
489.846893 452.860535 -703.410767
589.968872 343.627869 -809.569824
753.585693 448.911530 -575.968323
719.337341 470.765411 -548.141052
444.180450 446.918213 -714.260132
369.298584 468.544983 -673.601135
639.731812 446.652283 -656.815979
532.870911 453.661072 -648.215393
434.927399 420.078827 -812.832947
614.145691 514.041809 -488.040710
586.803162 425.133545 -808.770386
606.749634 465.709137 -632.207947
539.003479 503.880127 -525.287231
259.427856 547.798401 -553.839966
665.238708 458.167938 -618.921326
426.505341 446.136780 -691.778198
383.079742 489.175140 -611.868164
532.932434 441.716675 -685.633667
525.297852 434.533234 -693.982361
453.296021 486.885590 -589.877380
682.155823 470.593079 -573.524353
515.258118 463.075958 -637.371338
601.840149 396.354492 -786.011658
775.686340 401.333649 -758.415161
495.820831 484.974915 -591.126526
400.495911 477.140198 -671.061890
567.855347 494.479462 -562.630554
594.610962 463.043457 -632.065186
532.849243 523.038086 -491.597748
540.935547 361.599701 -813.847229
664.955383 413.729919 -796.737854
412.847687 488.856720 -613.058594
281.704834 538.303406 -570.076538
579.678833 344.229065 -809.335022
699.261963 485.590027 -485.129425
642.476807 432.110291 -807.673828
729.989136 482.027496 -468.672150
274.486389 468.284302 -770.187073
361.884155 493.029938 -573.652039
606.508423 505.429657 -498.081665
393.837860 478.278961 -593.776489
740.758545 475.746429 -476.423645
390.044312 531.897705 -499.361694
573.587219 492.225616 -546.522278
570.640015 429.691437 -733.877563
541.897949 344.345734 -808.628235
373.181580 513.111450 -526.533325
346.511871 522.461365 -541.877380
386.860077 455.988708 -672.989441
740.471924 458.602661 -584.120789
289.745941 496.957977 -589.562439
638.902649 442.999725 -672.527527
298.102203 520.212830 -545.583679
517.872742 329.458008 -793.926086
322.791809 513.970215 -592.557922
267.134125 456.923218 -753.094055
643.809387 454.742554 -615.807312
303.584137 495.776459 -626.357666
408.670441 445.718781 -712.189087
472.817383 450.278534 -718.680237
500.988403 512.590820 -482.032379
368.064423 505.921478 -620.277832
728.813354 451.671631 -580.135132
742.869507 463.021667 -526.286865
545.004883 478.930145 -581.578308
388.917694 480.826233 -631.486145
403.839508 487.647888 -656.892822
689.701721 427.204346 -689.978699
409.596527 493.752960 -587.266357
657.839355 472.868744 -590.068604
695.509521 401.389252 -731.661621
503.851624 448.758331 -720.971436
481.605988 439.597748 -739.128967
579.305237 467.840332 -638.038086
493.855621 464.285767 -633.098755
533.624878 428.284180 -722.162109
534.956116 338.416199 -805.657593
509.974304 485.653534 -604.198669
399.911316 474.517883 -643.171143
435.419708 527.757629 -519.888367
726.707886 466.445679 -539.028748
417.253174 507.129089 -554.032471
459.766632 441.690643 -715.520325
648.195190 476.051270 -528.299683
624.076294 427.970428 -690.534668
439.447266 393.952179 -827.809448
467.921906 418.864166 -792.719116
751.678711 462.495728 -519.685669
586.757874 404.443146 -734.407593
462.845673 499.153534 -506.853241
314.752472 481.492004 -708.282166
271.178558 441.610504 -761.828125
603.085205 430.125092 -723.235474
611.078552 486.214050 -532.845032
564.995300 439.584076 -707.164001
359.927917 446.867218 -768.562195
279.473206 488.708832 -691.609131
649.116455 390.550842 -816.754456
301.772064 495.672638 -592.005615
601.406433 456.038818 -647.674438
515.942322 486.290466 -614.148560
693.532166 421.319183 -688.459961
481.418121 429.068665 -776.345520
703.550110 471.941986 -556.650391
562.971375 429.900513 -715.462463
547.259216 494.460815 -549.250488
288.500061 507.483734 -557.673035
573.095215 445.530151 -685.496765
378.690857 486.932922 -620.816711
645.206116 454.701874 -632.588196
697.042786 419.573883 -706.797913
467.277954 487.253723 -588.552063
485.215302 357.342102 -812.809753
487.228577 373.614685 -819.109131
687.021240 423.911774 -690.856384
317.896301 482.631897 -703.854919
728.949951 429.180542 -626.430176
395.489899 475.159698 -646.558411
646.660706 415.688202 -720.358398
438.059662 394.521271 -828.697144
634.300903 512.640930 -491.046906
602.346863 368.184021 -813.509644
628.999268 483.905090 -554.294250
438.464294 453.066620 -806.997742
654.191528 485.936157 -546.573547
573.265137 359.190674 -796.735352
501.800262 426.304047 -765.054871
600.734680 412.096649 -771.859314
565.158081 484.706238 -570.862122
781.179382 460.741760 -561.688538
525.927307 510.732117 -536.094788
481.217499 421.180023 -785.797974
291.774078 534.713135 -572.564331
613.271423 431.618896 -690.185608
689.666565 429.257324 -786.711670
537.775635 483.009094 -526.648315
269.000031 531.700745 -592.476929
671.994385 446.072662 -824.386108
585.710388 510.088593 -490.941406
577.107361 361.500671 -810.125305
552.277466 381.420532 -817.582581
474.897736 424.738434 -785.360413
523.496277 419.298004 -792.590942
432.495880 472.398132 -651.124939
552.446472 355.987518 -794.248840
451.666443 544.054382 -508.724762
542.669922 369.456848 -813.001953
578.392151 485.492523 -549.555664
499.848328 429.161560 -729.031738
700.397400 466.988281 -505.908051
437.538696 422.813843 -807.596863
476.410706 478.316956 -638.894592
571.356323 454.016083 -665.757690
678.073181 432.395966 -830.472778
683.546753 489.131012 -516.608887
673.492065 492.145874 -515.868774
533.854431 412.018738 -803.032898
639.426697 459.112335 -598.335449
580.312256 467.192932 -608.052612
699.061829 428.992188 -663.451660
446.285553 505.790161 -526.801941
501.304626 359.063385 -811.887634
704.625305 439.898926 -645.290649
678.098450 507.215637 -484.051331
272.388763 541.391846 -553.218567
682.970032 415.095398 -748.757080
500.621735 383.897888 -814.074280
548.188721 472.510376 -628.940430
530.725403 416.110565 -808.066772
696.296814 492.901489 -493.611755
448.235596 484.224701 -587.714294
422.231659 510.361145 -585.376099
696.776917 432.904358 -670.881470
640.166687 506.202698 -481.719574
652.672180 414.624298 -820.903381
490.252350 511.355682 -547.951111
539.737549 435.158936 -765.926025
343.150238 472.123535 -702.614685
701.325073 455.311096 -565.612671
441.881470 472.501343 -621.778687
453.521454 471.581940 -640.419128
596.507996 386.407593 -800.081726
531.725037 454.184875 -655.009338
423.181000 420.890015 -793.882141
536.807007 439.438202 -717.328674
731.732117 432.299286 -613.470886
734.015991 469.582825 -553.755615
741.605774 411.837952 -682.966125
377.830383 508.740570 -608.221497
763.250488 436.833099 -630.339417
613.929504 490.002136 -517.262390
485.489227 510.484497 -559.876648
357.360016 516.333435 -595.048584
410.107819 389.791809 -810.764099
457.983429 511.911346 -532.060669
522.429932 472.193054 -615.716248
740.297363 440.893402 -581.613770
703.016907 432.195313 -655.347412
764.458740 417.519501 -665.685059
587.373901 422.694397 -787.926636
355.275818 487.052673 -666.127502
612.874512 475.348022 -517.528076
649.515259 489.769043 -531.686401
336.087982 452.209747 -782.834290
482.925293 431.153381 -768.340515
477.789337 402.866180 -801.870056
352.215271 486.517181 -666.721191
758.702881 435.590820 -581.247681
478.575775 535.944580 -487.605103
526.724365 516.963013 -488.357391
661.593689 496.620544 -503.120789
550.480103 386.455566 -805.930176
763.791565 428.400757 -653.641541
698.109619 471.727386 -537.322754
529.100647 490.811371 -533.365540
363.827667 489.797028 -583.666321
420.830231 441.571960 -723.134460
421.340576 481.544067 -600.514648
605.258423 478.698730 -590.737000
658.056580 441.342896 -673.234802
500.087463 364.605560 -813.443848
729.239685 417.555237 -696.661560
772.558838 416.146912 -687.643372
633.609009 490.531616 -548.480469
327.722931 430.720795 -744.408936
500.041565 410.497284 -805.996399
500.563477 485.658966 -612.251892
386.711334 464.860016 -706.502380
580.335999 490.676788 -533.931458
427.830261 430.054810 -815.741516
675.125305 442.913635 -586.977844
558.604736 340.434631 -795.973572
485.597321 466.841949 -644.864502
756.110840 404.995911 -775.695679
561.205811 480.185089 -603.663879
604.053162 501.522278 -524.558228
354.094635 483.027496 -639.551636
566.242310 362.392303 -811.625183
404.511566 481.151337 -605.318298
371.126312 493.395844 -638.455017
720.010559 448.958649 -572.003540
348.842682 469.048248 -655.539917
293.138885 514.310791 -628.769287
469.766205 400.774292 -822.027893
534.701111 467.717133 -647.241699
397.260803 501.368927 -537.204651
451.510315 458.708466 -682.644897
574.398865 497.496613 -531.410767
626.210266 440.585938 -659.433594
589.001587 403.321625 -801.824646
496.550446 488.486877 -548.480347
514.463196 394.609680 -813.583862
292.966919 547.209778 -529.159424
784.727112 388.741058 -755.848206
693.482300 474.720245 -543.169861
285.138123 438.154297 -751.197083
390.938721 460.890503 -835.691956
652.088562 418.374481 -746.998474
549.607361 461.132233 -656.299255
539.961304 493.869751 -518.177734
758.906128 472.817657 -533.082642
528.622192 437.661682 -730.419189
342.765045 442.040253 -777.400940
666.382507 481.129242 -531.712402
315.259796 504.431152 -589.432007
508.400330 482.671600 -622.027283
508.368256 466.235168 -637.257141
690.778931 433.303772 -651.577698
531.399841 468.400940 -631.648376
675.409790 439.653900 -633.340759
412.068542 457.142944 -825.304993
743.656067 489.804901 -489.796387
419.501831 468.804413 -652.734436
425.813995 501.710815 -566.399658
650.974792 501.888611 -505.389008
556.461731 426.394348 -779.753967
448.228455 449.048401 -692.598877
337.850006 493.425262 -658.267517
766.857849 488.210754 -477.559326
546.705994 440.658722 -710.254089
335.351410 528.052734 -569.527344
443.060059 510.023804 -524.564880
692.986023 445.551697 -601.818909
567.173401 331.917175 -790.667419
425.544586 414.733185 -826.940979
326.854889 468.424805 -810.806763
476.095184 352.919067 -800.169128
561.942383 455.595978 -638.121155
648.907532 415.405365 -714.984314
365.842499 493.052917 -610.019714
583.781372 422.681946 -675.864319
429.303406 477.767883 -663.903564
677.207642 427.198639 -692.772095
314.723999 528.690125 -515.031555
749.998962 476.012146 -503.071777
673.975098 497.568390 -499.687347
462.797180 482.990936 -608.088989
346.103882 534.617371 -544.367310
544.467346 495.106750 -525.451538
658.621643 491.398560 -493.316315
519.722168 459.319244 -653.324280
563.473267 387.744873 -816.173218
473.753540 498.364532 -548.952393
570.078186 492.097809 -543.742737
592.053528 348.292603 -810.380859
617.707397 497.164368 -509.327972
298.488678 517.425598 -566.105835
416.133911 461.093597 -656.096069
616.270813 437.211395 -655.716675
619.167603 423.645844 -706.568604
690.951050 453.251160 -589.620483
622.160889 438.527161 -666.429504
549.252136 340.369995 -801.130737
679.698792 419.652069 -707.382568
445.768311 450.956848 -810.361877
578.058228 486.288696 -582.620117
701.650635 423.332825 -688.630493
594.853333 408.335632 -788.814941
722.147339 478.188477 -532.548706
360.049286 502.263062 -604.198486
506.773834 474.791229 -564.053772
386.761658 485.963104 -632.470947
625.587891 454.345917 -626.296936
525.515564 502.006042 -523.006165
621.279724 432.037994 -631.767334
371.061829 510.077271 -504.967926
619.084595 414.617920 -717.730774
549.841370 422.444336 -742.513794
573.098816 376.230225 -808.024109
738.437256 402.207550 -738.218445
556.087158 431.044037 -695.124512
691.812317 498.420166 -496.511505
374.105774 541.518860 -498.421509
679.310791 413.350250 -719.082764
495.321472 431.259857 -778.478760
684.249146 481.313843 -546.791748
356.202057 447.532318 -771.271973
307.409668 519.199768 -596.160217
576.751160 456.698090 -619.833740
520.493225 428.440430 -727.856750
703.175232 439.596954 -668.794250
648.126526 414.598907 -800.542419
631.484985 479.839752 -510.596283
524.245789 506.305573 -524.422852
733.929077 469.352570 -563.574524
331.720978 483.178467 -655.693787
420.595581 505.198853 -560.785278
346.109283 447.899261 -784.357727
413.995056 522.416931 -533.533142
743.568237 462.453613 -544.726990
753.894531 453.478271 -576.163147
441.145935 484.785217 -643.198608
498.742126 361.881775 -816.886414
643.764526 494.552673 -502.206421
345.904053 452.778381 -721.213318
602.700012 502.570099 -487.850006
615.812805 416.697327 -735.102234
679.395874 433.220673 -649.326965
409.111481 484.907074 -593.215027
436.113617 505.617126 -552.439758
281.597107 516.023926 -533.316040
455.393036 451.297241 -685.799805
532.072021 423.881042 -733.657532
519.245422 506.665680 -508.008789
558.559509 522.047852 -502.700043
700.727783 478.905914 -552.150879
527.611877 467.372803 -605.636597
503.852722 466.626709 -624.708374
481.831909 427.393402 -812.164612
621.462280 416.429138 -741.260925
711.082886 413.583069 -793.266052
521.765015 375.901978 -800.753662
533.181580 429.770966 -772.168335
664.699341 473.124908 -488.983063
522.739319 440.865570 -702.924988
587.141724 430.848541 -728.080505
586.887939 485.794891 -561.071777
297.305237 536.394348 -528.004333
641.158691 405.210083 -726.376099
494.147552 403.880798 -797.113770
441.842926 521.531677 -539.317139
374.875549 479.022217 -629.387512
528.359009 510.312836 -494.278656
783.311829 401.291138 -724.326721
288.751892 501.440247 -603.927246
533.723938 510.104980 -499.101044
319.753510 459.595978 -660.660400
502.360718 521.075928 -490.695465
421.880493 505.389832 -551.571899
438.085449 485.417603 -602.214050
639.785889 505.282623 -489.674896
497.290833 471.838501 -648.404663
608.656494 503.052979 -519.617798
414.114502 428.627960 -734.874023
642.851257 433.402740 -671.984375
437.157288 489.445068 -604.645630
630.528503 502.932861 -488.542969
332.869324 507.104553 -587.544556
625.816956 407.662689 -741.409546
343.887054 542.163879 -524.333740
741.648010 397.370361 -728.253906
359.533417 454.161835 -742.803589
463.758331 456.021393 -704.331604
390.138397 488.826141 -612.541870
552.010864 339.453125 -804.702515
454.126038 515.057983 -523.626526
281.934052 456.278503 -720.437073
608.830933 495.775330 -520.252197
732.444885 472.913727 -533.035522
315.134735 560.465271 -522.312317
530.581848 490.115936 -568.557556
763.629333 397.724152 -733.887939
668.061462 438.404724 -656.441345
662.765320 429.093872 -825.859253
529.324768 489.997223 -568.064941
697.011963 427.559021 -698.744751
283.962463 525.442383 -522.768433
665.571167 465.009644 -522.613037
313.360657 514.068115 -598.566406
419.270599 525.366760 -521.046265
513.317078 493.627930 -588.998413
764.424133 409.600006 -710.633118
391.394867 504.468262 -603.208008
573.386597 435.939728 -710.345093
460.159576 525.230164 -516.650146
469.751129 468.910706 -595.679871
396.172455 512.475708 -580.279785
711.125244 417.828339 -702.729004
543.938293 476.491699 -594.859436
503.028290 436.308838 -802.848694
328.863525 439.523865 -794.380981
482.633331 512.236511 -481.886597
753.059143 451.240082 -592.604614
643.154419 487.010864 -483.942749
381.683655 485.956757 -654.007263
655.716980 471.982391 -571.170654
548.787231 473.621948 -584.797607
594.231689 444.266846 -670.061523
367.516571 534.393005 -500.358795
679.883789 410.062714 -772.245483
543.289856 392.344635 -796.876282
497.548584 469.740570 -653.624878
591.060120 393.076996 -800.055054
287.214172 475.698914 -711.447571
551.111511 470.231293 -644.234436
603.795898 422.441650 -787.318481
476.733612 441.354736 -750.407837
297.135529 497.495209 -658.100342
316.285400 500.874023 -600.194275
440.366211 474.504791 -616.614624
531.114075 426.310272 -728.419495
424.348816 538.458801 -513.151489
684.687317 481.015839 -525.982971
600.192810 482.770569 -580.531311
571.172546 416.450684 -764.382935
606.630249 493.008759 -532.083679
720.508911 478.593323 -533.147400
357.132599 460.089813 -674.862549
260.576843 520.913086 -603.744446
392.529663 525.755493 -531.056763
687.377747 490.936249 -512.139038
281.431122 549.982727 -548.055603
473.499756 497.596466 -596.230347
293.849030 441.798828 -767.506958
605.006409 412.538452 -770.534302
686.697815 448.003448 -560.757324
575.714661 415.039612 -734.829895
482.927887 519.582947 -523.789673
486.017303 367.954163 -816.949768
413.057526 490.558014 -576.284546
616.373779 472.417114 -601.423462
337.372345 514.263733 -567.346497
638.509460 488.227234 -482.447479
735.615234 459.159241 -585.090881
599.467285 473.873230 -598.415039
668.432617 405.812561 -817.428589
715.953857 495.012512 -490.578735
752.393433 420.912537 -684.017456
355.696594 485.880463 -633.067200
302.157990 500.342712 -656.176331
438.564301 512.192810 -555.347717
467.961517 501.811890 -499.890533
650.958252 422.734833 -700.713135
677.044495 446.581848 -634.830322
736.226929 406.983124 -718.059692
618.534363 427.730072 -785.589783
594.101379 347.925537 -804.635742
487.305420 436.902069 -707.767456
447.365021 480.992920 -623.090271
408.295013 460.595154 -682.150696
452.910797 377.930756 -821.118896
678.767578 471.021515 -543.040222
522.936218 495.379486 -549.072998
539.920593 510.405914 -524.874146
267.296204 460.761841 -741.252747
400.481384 523.111694 -548.936218
339.334808 458.608582 -711.008545
698.684448 405.158630 -729.041748
566.147034 437.022247 -698.700012
531.801208 500.662567 -488.571381
687.994690 476.862793 -539.227661
369.941498 467.703217 -673.311890
282.740143 532.077271 -581.635437
661.903015 408.564789 -729.296448
639.310181 471.425964 -562.368713
273.813995 471.705048 -739.865845
420.133209 455.319214 -654.999695
628.989258 466.534332 -608.865906
628.945435 391.154724 -821.588257
435.567108 518.533752 -558.419067
