ply
format ascii 1.0
element vertex 1408
property float x
property float y
property float z
end_header
-838.693115 741.609924 294.862183
-770.923889 561.870667 377.202332
-657.421021 389.878174 494.931366
-442.435486 461.033356 490.515045
-773.388062 463.080994 440.853607
-495.226349 493.517548 476.045990
-637.377380 664.962158 315.320953
-824.829224 631.548584 344.680267
-553.321472 736.458069 297.731323
-621.641907 528.523376 422.848267
-806.538818 529.046265 328.781708
-581.853516 698.048645 319.130493
-812.075195 493.218018 339.294067
-642.757385 699.034363 323.750061
-631.317688 794.364563 264.265259
-607.252441 555.690308 404.269379
-633.319031 755.930603 280.866547
-513.588684 509.972229 450.682281
-473.659912 489.700897 468.679443
-498.671692 669.606934 374.410339
-579.178955 388.920197 506.186096
-650.568420 612.553833 371.826843
-815.379883 497.894104 351.415894
-476.824707 553.696472 430.898834
-780.026672 581.659302 385.518311
-615.863098 638.786316 350.396851
-799.140747 536.837646 353.422974
-752.775085 561.788635 384.628113
-493.121155 611.602234 389.481659
-724.795227 761.005981 265.904694
-598.912598 497.608765 440.665558
-673.672546 700.107239 311.534058
-800.926208 493.476135 338.985565
-804.523071 494.400787 381.589142
-784.919922 481.152039 407.470245
-828.498779 551.953064 326.760162
-620.182190 646.680664 350.891907
-804.932190 530.130310 333.062378
-498.337738 554.398743 438.841980
-615.397034 614.827576 385.264221
-557.825684 752.711243 288.775818
-518.099731 695.678650 338.857910
-570.016418 802.175232 255.345428
-523.806030 746.434631 291.351807
-831.118896 735.008240 294.536560
-747.417053 740.949768 256.158905
-627.869202 629.123230 354.976685
-570.403748 738.192749 294.327301
-578.241089 439.809479 477.299957
-565.671875 789.041138 264.421936
-622.926514 632.491638 360.377960
-805.382446 492.333374 318.963043
-658.483948 656.568115 337.648407
-522.041382 828.346252 269.817535
-667.027954 664.317383 333.079529
-613.527405 699.990967 329.345673
-822.412109 583.398499 303.372528
-573.266296 621.769592 374.772217
-739.667358 702.249512 297.279449
-536.084656 551.294373 430.477936
-815.412781 546.508301 362.718506
-691.882996 684.300720 295.886414
-547.797607 711.693848 336.455536
-610.793335 405.283020 505.653259
-711.059937 754.941162 264.811432
-695.534973 690.593628 320.157532
-465.902649 427.035400 513.696960
-660.634216 658.448853 345.182343
-826.054993 536.475220 327.388275
-493.661041 771.076965 280.953278
-457.862488 469.326477 498.183258
-654.154907 414.625610 474.642731
-649.301453 534.044189 408.579926
-815.625671 512.629150 350.419983
-691.590698 599.167358 375.142242
-665.794128 627.928467 348.421265
-573.150879 791.601501 267.906097
-591.443787 557.900574 405.556915
-609.832520 618.291016 364.282227
-489.836945 612.047546 403.587616
-564.611755 740.623718 316.259918
-588.999939 814.465393 254.410538
-632.895630 485.331207 440.833405
-513.722839 712.357788 343.411194
-739.482788 753.109436 252.164413
-623.195984 782.432556 280.427368
-577.169617 438.200104 486.735565
-779.820251 696.573242 295.841034
-796.887390 489.128174 359.995697
-505.486267 535.283936 437.853363
-788.427429 634.746948 356.106110
-508.508179 572.076233 416.148376
-659.888916 683.246094 320.262482
-490.129364 563.022827 390.207916
-718.615173 685.849060 311.502289
-627.762878 620.147400 370.338593
-740.379822 640.358765 332.359650
-606.311707 635.646729 354.567993
-657.984558 458.753784 464.638153
-817.058655 512.820801 325.837402
-763.068909 527.709961 416.535126
-517.289185 437.739044 486.922089
-793.226257 676.058716 326.808075
-581.273254 634.446899 378.125946
-568.925049 602.102600 383.036224
-549.166321 516.220215 429.454163
-469.736969 487.371216 467.000519
-574.943420 688.620605 332.854126
-819.396240 528.094788 329.031281
-801.074036 738.386963 273.398193
-648.946472 645.098511 360.944061
-534.985291 689.550598 335.711548
-442.703064 452.503784 499.815155
-752.057068 699.239075 295.518494
-700.093872 670.228943 330.614227
-665.124084 759.622253 265.947296
-774.007690 529.653931 402.183380
-697.334839 534.679871 414.226166
-819.636169 583.193359 312.385010
-702.717957 486.765015 418.899780
-511.646729 559.802734 437.065704
-703.593201 449.077362 460.003387
-801.600586 527.005066 345.924683
-568.918640 674.541199 345.067261
-535.811707 396.205231 496.965393
-724.550598 598.939575 370.464966
-484.136200 550.391113 414.244873
-790.359253 459.093903 479.551727
-784.866516 637.859558 323.989380
-698.109985 640.074280 340.610535
-591.298401 772.878174 284.596069
-816.981323 640.278259 349.972260
-539.940979 545.060852 436.894592
-702.973389 601.497009 360.762543
-784.822754 462.285583 463.494476
-600.259644 407.356049 515.119080
-649.315063 630.336914 365.067871
-802.784485 553.155945 385.514069
-689.391968 488.012177 440.949890
-652.176514 659.226318 351.647919
-536.649475 765.835327 299.291473
-539.560059 719.521240 305.905457
-477.527496 569.432190 433.094147
-587.981079 505.121948 452.547577
-549.478882 670.559143 346.578339
-566.830627 745.123352 272.606689
-538.670288 551.135315 421.633301
-814.240723 570.593628 382.893616
-814.150208 548.084656 291.928680
-724.593811 448.454346 461.571228
-723.291382 639.784607 337.788788
-826.318848 623.053101 336.643860
-581.877319 691.529114 341.468750
-482.318848 563.291626 416.481934
-824.064331 652.341431 339.431061
-478.783691 615.804749 395.749451
-501.228241 490.478760 461.530609
-583.351624 733.423523 308.826538
-436.141907 450.938477 514.415710
-622.055786 406.042480 509.486450
-726.573364 389.908478 507.974915
-516.963196 655.942749 372.982544
-526.586853 675.940918 363.168457
-612.480347 697.479919 319.832489
-642.439697 674.460022 329.808594
-501.139313 623.442810 396.457947
-541.972656 552.595947 435.408447
-570.031738 735.850159 318.295654
-605.221069 753.539368 260.151398
-573.454773 635.564331 345.003754
-622.178833 689.278320 334.220612
-810.579773 551.654968 360.769958
-635.893799 687.444092 316.094482
-736.911438 666.472900 328.228149
-815.452271 649.141541 356.176331
-725.103516 591.855591 360.954773
-612.110962 789.886353 255.199677
-508.691833 688.427856 351.647461
-643.776672 568.520691 403.422821
-492.864441 528.674683 455.042664
-668.299316 727.312683 307.914032
-636.793030 375.394592 530.382629
-590.192993 743.402588 305.305511
-810.707092 518.209778 353.687500
-520.536926 758.824768 275.383850
-615.352905 697.343933 321.537384
-826.022034 538.915955 351.182556
-598.894714 659.539063 343.983398
-726.836487 686.206238 301.772614
-656.683777 794.817322 257.273987
-700.001709 494.885284 414.645905
-625.616272 700.710938 318.246185
-790.127258 774.234802 249.468094
-727.024963 618.662292 357.101501
-805.393494 625.306091 368.937103
-769.506470 720.988037 271.947571
-789.210815 481.407654 401.346466
-568.091003 414.307861 509.320007
-711.459412 693.791565 286.535187
-623.606140 579.702698 402.758270
-498.279724 468.578003 489.988983
-569.034790 681.290100 336.736603
-701.556458 397.544250 463.871033
-694.514282 406.500671 494.948608
-658.423706 803.292786 256.860199
-759.522705 658.894653 312.289001
-547.672119 610.010986 385.927917
-780.462952 654.528564 327.671844
-555.071228 667.723083 360.333984
-849.614502 684.666809 351.498199
-502.721954 506.772034 451.713898
-681.522705 765.731812 263.238129
-627.702759 631.730652 358.916077
-620.829834 534.314880 419.972290
-686.602356 648.073792 336.757538
-599.465454 448.628845 469.135834
-477.900665 456.686035 502.868713
-459.657349 517.458923 422.197296
-717.580078 706.219177 303.355652
-487.098999 426.181702 509.502716
-638.934753 380.968567 478.698334
-467.157562 586.100525 425.855377
-636.529236 580.455139 388.817352
-502.900421 676.522217 332.879852
-644.450195 616.971558 366.432434
-568.254944 397.756226 518.027527
-626.378357 685.173157 334.850311
-592.098877 449.012482 485.013397
-660.725586 667.411682 339.340485
-846.730835 728.417847 321.067108
-631.846313 561.477234 400.740143
-681.336243 597.222839 383.291321
-840.470642 675.727173 304.829468
-596.017395 416.419373 489.156128
-442.836823 434.718994 494.550537
-699.249207 562.748718 396.078156
-658.033752 609.263184 369.171143
-583.125427 513.494507 432.648865
-597.946899 782.627747 279.591034
-628.212708 440.976685 488.037537
-717.989075 553.919067 399.245636
-720.361084 593.078491 372.570953
-533.898621 621.435791 383.182190
-829.834412 626.977051 333.597382
-572.722717 564.886292 423.134918
-528.679077 459.143738 483.642090
-630.054565 612.403748 372.543243
-722.119446 347.104523 553.697754
-650.745789 386.077179 505.606262
-838.140381 634.033997 323.867737
-529.761658 443.136169 502.126556
-678.970337 638.891479 344.097900
-591.353699 745.005798 275.410095
-596.238037 653.395752 355.519440
-803.579895 483.048157 344.999695
-532.228943 448.876648 482.961700
-477.915253 645.634033 372.918945
-543.169800 449.459717 480.446625
-690.099487 769.411865 250.377884
-768.434387 546.052734 403.580078
-538.960938 646.246216 376.951782
-493.242310 631.680725 385.755676
-745.143799 640.435913 326.925690
-751.931946 643.118225 322.958954
-457.781738 548.817139 438.967224
-491.247314 603.263367 399.801178
-526.528137 804.317810 272.888824
-820.242920 582.009583 328.674866
-655.281494 721.446716 294.566528
-794.322876 466.366577 459.421387
-759.711182 633.269958 334.902130
-802.082397 579.819519 376.769958
-803.197205 484.924744 478.861725
-831.603455 691.928345 318.879395
-569.280945 602.915100 398.589111
-606.315186 542.576111 425.376892
-611.763916 546.346924 412.540375
-816.587158 614.165955 360.896698
-427.468964 432.983032 513.923828
-616.035950 656.507019 350.953217
-656.387268 381.269806 475.880707
-764.619873 653.232056 307.639587
-535.222412 429.484863 479.210449
-798.868713 506.252045 352.765533
-459.168152 439.216095 493.161926
-597.955566 781.191711 280.766632
-595.221069 667.544495 346.292145
-798.800049 460.881744 385.906982
-480.293152 508.597412 453.571075
-672.532959 759.886230 278.855011
-527.289246 701.683228 328.038086
-822.974365 775.642822 266.853424
-611.310730 679.869080 331.969604
-563.502747 668.433838 351.041199
-658.722046 458.690216 450.976013
-525.925415 715.402405 314.953156
-510.425842 452.837463 498.485077
-660.145020 788.958008 261.102386
-571.930969 476.617889 457.399170
-522.970947 805.651428 265.843781
-549.010864 822.890015 263.970581
-560.961365 722.787903 293.884918
-570.521057 597.080322 388.568054
-652.897095 705.122375 319.335571
-614.601929 662.655701 320.347412
-463.787140 560.707214 433.444427
-540.424561 839.660400 235.706833
-681.697388 744.141479 296.264160
-534.732788 582.952820 404.433868
-718.196167 485.672028 427.332092
-795.324768 486.659607 400.238892
-712.089661 693.337646 312.077057
-680.773010 717.195007 312.278290
-526.958740 555.438721 419.887695
-538.224121 657.261169 341.312378
-627.067993 594.045410 385.321533
-669.632874 614.178650 364.580109
-708.038025 584.405029 382.981140
-596.988953 526.480774 422.707062
-776.116943 627.197876 341.866974
-697.852234 633.647400 344.076294
-585.157959 562.691772 406.964294
-747.287720 679.996948 294.102417
-628.688538 614.879822 373.188263
-566.205627 677.898804 336.369965
-818.607666 545.169922 338.935760
-779.229187 531.373291 392.256317
-663.485046 722.007874 288.487427
-775.196289 738.641541 267.527618
-808.851624 476.477142 375.858093
-680.452881 381.301117 506.170654
-793.252991 574.737000 379.667603
-580.056396 512.420349 452.567352
-518.101868 438.206268 500.031464
-717.495911 519.743408 411.857849
-614.527527 754.061707 283.276367
-461.306610 457.282532 483.876801
-500.083038 495.382019 463.441681
-800.387573 496.434631 395.202087
-657.525818 759.139465 282.893188
-472.631805 513.833862 453.183441
-479.038116 493.285919 447.654724
-803.710327 559.358459 338.055145
-811.025391 580.980774 357.427826
-654.704224 561.022095 396.673431
-676.361328 533.665100 408.642517
-715.559143 580.446960 385.113159
-486.503601 507.694519 438.241394
-509.221649 705.849976 340.705994
-569.821655 698.327942 334.211243
-584.855591 382.806244 525.834412
-823.927063 561.324768 333.891602
-563.255005 805.543701 272.158295
-636.128052 527.995544 427.935547
-661.570007 487.342346 438.047241
-530.259033 754.479553 275.776855
-647.037415 628.916870 355.095703
-695.375549 401.824432 469.683350
-517.465088 590.975830 396.328979
-520.687500 653.797241 365.437958
-838.719299 615.253540 328.107086
-690.715942 405.417816 473.893951
-733.146729 712.230835 295.932648
-796.993713 537.181702 387.162384
-691.711609 546.462402 412.722992
-516.231506 526.571533 440.203308
-569.352966 711.296631 299.215027
-711.686462 490.130127 412.551025
-446.529327 497.798706 464.728546
-713.706299 651.895264 338.748199
-617.185181 775.855042 271.333527
-557.138428 675.967102 354.823608
-602.942566 472.651489 467.239105
-702.616333 523.267944 418.655090
-661.027710 754.213013 286.412140
-496.511200 411.147949 517.815857
-759.973206 593.563538 358.834930
-690.178040 499.867584 429.440308
-633.824951 451.261932 453.824219
-803.319214 460.125000 419.315552
-530.162048 752.020935 289.986237
-472.782166 555.218628 426.278259
-480.846191 543.804443 435.526947
-580.039673 682.829346 339.314789
-736.805176 457.943848 458.049927
-753.162231 659.582764 304.793610
-677.382874 665.978516 322.519409
-719.569458 633.308899 341.779999
-539.638123 641.575867 367.280609
-477.254578 525.805847 466.274902
-512.280090 508.037262 439.192474
-527.010986 542.294189 428.528687
-534.604736 779.504700 281.834625
-531.987488 469.768341 480.641907
-837.321045 597.003662 311.324738
-541.554199 806.960327 274.519501
-625.275696 794.763184 264.964813
-516.308777 711.625488 344.274078
-567.350342 621.268188 390.162201
-781.170227 490.925690 449.046204
-845.993347 658.788574 344.050201
-641.499756 684.133179 332.870605
-611.042847 665.921265 349.173523
-638.926025 433.384918 490.618317
-832.546570 598.564758 305.081390
-821.175659 595.369141 340.559235
-524.974060 782.590027 289.830597
-552.011292 821.541260 267.141663
-778.438049 597.659912 355.445404
-549.216553 786.842041 277.279419
-478.508636 666.915222 369.301147
-470.306641 636.828918 386.266510
-694.500854 752.154724 278.898682
-649.352234 380.134888 513.527710
-663.662720 656.674988 345.584473
-837.681580 629.537537 332.455200
-622.421021 761.778931 277.037292
-465.591064 599.507141 403.654297
-703.145020 638.969177 341.873566
-716.430176 642.154236 338.453156
-541.146301 554.182129 433.580475
-623.634705 393.370239 494.102325
-686.005737 773.366516 252.340378
-669.409607 405.864746 484.297058
-658.690674 609.714722 360.145508
-534.337952 601.109253 394.668274
-611.500305 785.721924 263.599091
-570.065430 552.332275 417.360107
-582.580322 541.365906 419.191528
-510.475342 778.316101 284.565857
-621.414795 540.368225 409.936737
-801.396851 720.596619 286.376862
-444.313049 453.202972 496.417847
-599.956482 699.319946 321.169525
-525.011597 423.958557 515.374939
-741.840881 618.711731 347.384186
-797.867737 459.515015 377.468567
-843.339233 625.443115 313.964081
-747.503967 733.934326 289.783081
-696.839600 592.747070 362.789276
-647.648560 420.945343 463.310333
-675.872192 557.509827 405.440460
-552.868347 685.550293 344.638000
-526.922852 493.534515 435.121887
-695.022095 391.671906 496.962677
-490.653961 653.716125 364.641602
-568.648621 537.625793 420.405609
-717.249756 568.186646 378.020691
-556.935730 746.321106 280.845398
-547.303589 513.267090 454.112610
-716.927856 739.165649 266.493835
-699.927673 494.867981 442.435852
-835.390930 696.233032 345.748474
-523.075378 747.992981 285.133179
-495.133545 462.321960 490.294556
-463.172760 554.804749 430.161560
-640.132690 453.916229 471.037292
-655.925720 433.032166 486.371307
-498.084259 682.948730 344.471741
-556.558167 646.484070 359.653717
-540.923889 421.861053 498.972351
-562.162354 513.194519 417.058838
-807.003418 516.898987 328.871185
-555.294312 764.025208 286.330750
-561.878906 454.319855 469.990662
-602.977661 733.710083 303.572662
-635.711548 389.792328 510.668091
-557.328674 504.762512 461.652710
-719.686768 736.915405 257.603424
-516.894043 514.091003 442.633575
-683.413879 646.390198 333.286346
-501.625488 488.699677 465.390533
-811.391968 491.402802 353.675049
-563.696045 787.397034 280.295563
-537.856750 708.100769 339.087463
-563.872070 735.169800 302.710114
-578.361755 547.127808 398.683960
-526.358643 509.631134 456.972504
-580.947205 724.124573 304.445740
-527.501038 681.984924 346.500183
-539.936646 676.675964 351.322968
-808.409851 488.249817 370.927277
-607.590454 695.303833 334.418030
-534.883240 419.757446 501.388092
-533.650574 766.069580 273.364563
-816.412720 558.295471 342.772125
-543.792664 522.332520 427.210693
-534.608276 512.778320 443.507080
-702.013611 440.539581 441.441772
-749.963928 591.827698 378.868683
-551.758484 604.784912 388.491577
-788.699158 748.135925 267.022064
-736.715393 593.474792 378.056976
-787.980286 549.223022 372.934784
-584.638367 376.474854 514.076416
-620.934021 692.268250 323.578369
-588.244385 417.421692 498.448883
-649.457825 782.270447 252.106247
-652.033752 632.962830 351.775543
-540.290588 762.057434 300.972046
-508.130951 693.938843 342.465912
-554.663574 693.206360 347.017059
-690.576477 479.832092 449.904877
-609.755615 712.283813 323.808563
-475.396881 619.005493 403.918701
-661.047424 740.373413 281.375732
-695.884155 729.625244 277.352295
-821.400757 593.590149 341.959320
-609.998291 739.878540 286.056519
-532.772400 596.309692 409.882172
-758.817627 476.816193 449.359253
-641.799500 791.055969 269.279236
-773.184570 542.307251 406.934753
-641.061951 383.641388 522.826599
-681.959534 411.965942 457.056946
-643.339661 790.585327 266.479736
-618.876404 779.205078 247.954300
-640.484985 704.059753 322.701721
-565.597412 698.520752 341.477142
-784.120361 450.061218 479.838470
-535.634094 811.233154 265.252991
-531.379395 649.236023 356.213684
-523.493530 476.477661 467.372101
-528.911194 785.004700 255.384842
-808.448975 673.449646 321.200989
-785.215820 454.592987 394.600220
-813.231628 479.887390 389.496338
-669.369324 646.127380 355.193359
-591.616638 527.307983 423.063904
-753.175049 749.265564 259.868805
-624.593933 462.528412 455.607758
-591.281006 693.836365 338.660370
-538.777954 497.685730 440.646454
-510.502563 718.136841 328.361603
-523.118713 812.160461 275.316772
-637.163940 389.942108 510.925598
-619.455566 565.497620 411.597260
-522.387390 506.164856 463.627594
-681.575684 546.245178 409.561676
-834.999023 584.488098 308.463348
-517.889526 582.118469 406.445892
-480.886444 564.860535 420.362274
-566.307495 492.794708 448.106812
-707.055847 678.185059 324.714630
-674.740417 769.348022 259.415192
-783.520142 762.083679 262.775818
-800.042053 535.864319 360.148438
-718.329163 703.885559 276.518402
-774.497253 579.823669 363.164856
-566.564636 798.158936 265.084076
-546.757813 766.918884 297.799103
-731.661743 658.271912 334.895233
-470.597107 454.745972 473.700073
-478.175903 429.784485 517.581299
-466.556122 441.208496 491.255157
-797.555359 464.098938 427.210907
-545.789490 563.854309 427.311798
-763.958557 613.620850 344.278473
-613.727722 655.582703 358.840729
-575.620239 758.300720 279.665466
-567.261902 711.073608 333.698090
-611.616516 675.310791 334.500244
-796.612793 478.614990 401.368988
-645.974670 599.964661 384.878082
-679.567261 634.072327 346.973297
-696.730164 611.133789 358.041748
-663.795654 744.937683 257.197662
-505.694061 758.354309 298.852234
-840.412231 615.574646 319.781281
-779.414551 693.840149 309.680725
-801.122803 583.549255 387.368805
-542.824707 789.085022 281.344513
-621.968811 456.421814 473.572968
-569.335083 540.976501 432.332703
-510.912537 739.859619 316.034424
-646.012451 410.598663 499.759674
-522.362305 549.969238 420.918060
-807.905396 601.938599 363.294983
-793.609314 698.007080 306.191315
-677.434509 728.546448 281.773438
-743.245239 366.396729 552.963745
-555.386047 723.621033 321.577698
-643.485474 672.821899 324.294617
-756.506958 593.271362 370.680908
-544.799072 599.021606 388.817474
-486.776062 526.941650 461.486755
-795.986084 628.714905 358.875366
-774.002869 656.003235 339.317230
-564.570557 610.648132 383.025208
-647.285156 804.367920 257.893158
-532.951538 723.356445 324.225952
-792.361084 457.872284 472.234436
-586.300354 688.028137 338.883057
-559.058289 605.226868 399.551849
-849.988586 704.465515 322.537903
-648.456543 714.613098 314.473633
-464.688690 413.612183 510.375824
-793.250977 732.994751 257.301361
-761.360291 657.777039 323.127991
-658.883728 497.403961 433.156677
-614.447021 471.001251 466.259888
-820.193420 641.926514 365.698700
-709.683289 388.576294 500.055267
-824.679382 536.483948 325.290436
-781.820496 553.334839 397.872406
-590.975708 558.629700 421.589996
-673.317322 402.100555 462.870392
-480.179016 588.334106 411.075378
-651.850342 465.328583 448.762817
-663.798706 576.304382 376.970398
-581.270020 808.233459 259.573853
-607.793640 524.823181 421.959564
-564.681641 542.946777 417.870331
-464.461670 584.367188 414.622162
-698.903809 779.362305 264.468933
-566.984741 801.822266 232.596420
-719.204834 673.465088 323.280640
-793.558655 586.693604 385.527130
-547.643738 721.486450 316.084106
-709.951416 740.373779 281.998047
-741.162659 620.506409 339.151398
-657.287476 546.059021 400.333252
-514.860352 803.026001 269.370117
-623.607910 663.645569 318.196991
-807.045593 476.977600 343.119629
-484.070007 674.155823 359.335297
-616.979675 799.109131 265.108185
-790.480042 496.863617 434.876465
-833.849731 621.414185 328.893921
-514.313477 811.328613 277.124847
-744.385498 623.161621 353.920593
-703.480957 801.894409 246.573212
-770.629150 617.737183 346.733459
-546.875244 646.620239 345.356018
-574.929932 445.246796 484.525055
-473.849701 655.690857 384.064514
-532.271790 750.810669 295.501190
-672.613525 640.688477 346.163574
-789.578857 448.972229 423.342987
-559.037476 651.192200 372.728821
-826.764465 573.418884 333.636841
-738.808044 725.709839 297.262939
-833.076233 666.013855 344.211029
-543.377930 803.728149 276.511261
-532.622925 500.238342 451.447479
-801.043579 484.161713 404.030914
-708.898682 630.988831 336.837860
-565.490173 646.198242 373.375000
-539.520203 787.647278 288.552307
-597.749573 622.920898 371.995117
-783.810791 770.036865 233.683746
-430.467102 422.788208 527.221741
-630.553772 714.377625 313.056000
-640.266052 769.613098 284.736877
-605.995850 762.482605 289.678772
-598.066345 789.333313 275.692017
-609.469849 498.027039 451.426392
-441.179932 426.127197 513.401794
-586.479797 687.453247 335.214050
-535.390259 491.486176 453.990326
-508.627930 514.497742 446.447601
-575.080994 824.911011 251.983948
-790.241028 473.434204 461.890778
-663.755798 718.709656 296.914001
-461.333954 589.184875 417.642700
-648.469727 391.998871 506.258057
-549.937988 708.122253 327.708038
-653.500000 767.589172 269.123810
-655.669250 810.696472 245.936325
-690.662598 510.839203 428.052460
-514.567261 438.319519 503.158264
-573.019653 796.557617 253.512558
-448.912903 489.010986 450.230042
-824.691895 564.802734 335.854919
-604.784119 450.804657 467.377686
-636.507263 515.078064 422.475983
-500.936768 666.485596 355.434021
-574.105347 392.031891 523.836548
-592.627808 557.675232 419.262451
-629.756287 383.556915 526.467590
-683.628967 425.366760 467.711334
-628.806458 689.388550 321.700958
-785.074585 515.307617 432.451813
-550.950745 533.893677 425.642670
-651.747498 554.670654 379.769348
-477.425415 508.172058 470.272400
-715.270508 688.158875 314.872650
-527.379333 596.963318 396.105408
-702.324280 710.161194 288.481293
-815.896851 596.411438 336.796906
-612.277100 769.591125 265.623108
-816.930664 653.223816 352.946716
-793.658142 768.160828 263.894836
-573.983582 809.826721 267.477905
-465.510254 602.253113 405.522186
-683.802368 769.099792 255.843277
-509.782745 460.334961 462.029449
-771.433044 684.868774 320.687988
-671.767761 755.449585 281.532776
-594.125549 552.124146 403.246277
-698.765991 778.213867 250.806015
-790.254456 692.587036 297.650299
-793.321777 493.687988 424.346375
-632.353882 758.085144 270.262665
-679.570923 576.662048 392.075775
-650.988892 577.546936 379.275848
-512.462708 656.737305 358.221130
-568.142212 529.184143 440.941681
-578.214966 546.244080 430.168182
-622.458557 465.883698 447.473602
-607.454956 533.528381 419.883118
-792.851196 715.826050 265.879913
-704.812866 748.754395 275.393188
-524.750610 557.940491 432.373260
-674.234314 534.911865 419.240417
-490.163269 537.976563 450.321381
-612.037659 686.638367 301.019714
-848.477966 704.493591 333.103119
-681.264587 646.078430 354.264008
-521.597290 569.539429 414.148804
-613.242554 783.137024 281.760986
-489.803589 644.417786 377.489319
-680.392761 625.138733 360.502472
-757.081604 749.788452 251.152023
-723.588135 519.259521 411.725861
-803.852417 534.827515 352.425476
-687.723083 532.470581 399.914398
-732.751160 581.660522 380.017273
-611.503540 543.781982 425.801605
-816.364441 574.332825 337.327362
-822.030884 623.989807 313.894135
-566.284180 597.074036 390.771912
-836.104126 639.466125 314.507080
-619.927795 384.111786 532.108337
-629.847412 777.631531 273.813782
-731.954163 632.582092 335.950897
-685.080750 569.041992 381.367279
-549.964905 689.152283 350.004242
-586.898682 537.011047 432.362885
-528.507874 758.031860 307.169830
-633.842712 468.230774 454.997131
-801.489624 501.219696 392.685608
-675.714355 615.270630 358.061096
-669.784119 373.726654 521.951050
-651.627808 492.336395 432.967926
-569.625854 539.000488 438.901001
-784.863342 572.232178 392.730194
-520.569458 509.608582 465.393250
-552.588440 607.011780 394.006500
-567.935669 610.511414 376.119202
-578.477112 463.321869 454.592316
-592.463013 543.781006 419.014648
-505.727295 649.881409 348.030823
-830.363831 615.929932 334.550232
-710.625488 774.712646 264.361908
-811.138977 599.236084 358.858795
-563.156006 684.634644 334.565216
-601.811096 750.806580 293.951691
-535.639587 729.406616 320.175110
-733.368591 607.084656 353.120178
-746.566528 756.265320 248.295670
-735.853271 447.941010 457.367401
-671.216614 595.698303 371.171509
-537.149658 696.474487 330.983765
-719.022827 649.728333 312.882202
-522.521606 533.585144 434.585724
-512.837708 410.320648 515.734436
-751.140076 662.665710 332.301575
-533.448975 411.468079 501.735962
-502.039093 706.661499 332.383331
-779.355896 511.769867 437.620819
-623.200867 570.465271 396.971588
-510.730682 561.539124 416.020325
-514.564087 594.350952 407.143738
-810.727234 486.545990 370.238312
-593.910583 565.428528 399.244293
-539.771423 774.650635 276.643372
-599.486877 649.297363 356.390289
-651.708008 689.277588 330.361938
-537.321228 727.487915 321.904572
-604.942017 799.550293 270.697144
-556.666016 522.191162 438.623993
-796.065918 523.890503 372.908600
-652.630066 604.227661 365.726288
-817.250488 524.515137 353.459747
-511.362854 674.142761 354.969910
-725.749207 659.223938 335.319031
-656.804932 468.897552 444.951447
-738.821350 750.760193 273.745789
-646.785400 767.073914 270.936981
-423.728912 444.428375 505.587677
-543.239807 683.981323 343.545441
-554.559570 447.777679 464.365692
-553.639465 759.149353 294.351471
-610.271606 615.001709 368.748016
-807.803162 508.212158 361.703583
-570.807800 697.560608 311.783447
-724.003662 389.460022 494.137787
-428.088165 458.861328 505.644318
-793.194763 481.508392 416.343933
-612.246887 626.475464 358.751251
-647.278137 746.750549 263.605896
-734.521606 529.575317 392.975372
-750.928894 680.885376 305.534668
-740.177795 673.606567 326.371796
-563.303955 821.993774 253.875244
-778.211914 771.962524 253.200943
-705.192017 435.726044 475.651398
-612.362488 434.065948 474.159302
-470.894379 432.902344 509.994354
-696.668335 509.501526 427.819489
-720.191162 542.391846 389.656586
-515.057190 627.286743 394.699829
-805.769043 650.976501 344.778778
-671.360840 531.725830 405.067078
-603.398438 765.150879 280.285217
-580.272888 394.285614 501.875458
-699.647400 510.089569 428.845673
-520.496521 813.600159 253.500122
-811.992188 669.619751 347.171936
-684.916016 641.340332 350.971893
-579.355286 405.208008 482.653564
-597.050415 613.653931 383.304382
-773.431946 697.595154 296.396210
-586.755005 414.004333 488.653992
-690.709167 511.918915 422.726196
-683.580261 696.418152 318.547577
-524.868164 519.840454 440.935608
-811.334961 590.054504 343.976685
-853.274170 738.153687 320.663177
-590.009949 651.924683 364.236633
-638.575623 664.787354 340.453918
-578.582153 454.817017 467.112671
-756.377869 652.922363 323.155457
-505.183716 738.949219 319.228943
-636.200073 805.378113 258.847656
-769.358337 762.198975 261.527252
-651.734497 696.934875 328.629089
-836.908875 602.263550 323.618011
-571.963867 685.174805 332.417816
-728.322449 667.669067 327.923767
-603.124756 739.126892 295.963806
-680.567017 508.362701 417.749908
-847.329590 703.732666 336.619476
-515.442444 449.603912 490.210510
-621.150452 468.171478 452.804596
-551.696350 526.035339 431.217590
-819.337891 624.526550 330.112183
-565.436279 830.547119 248.237946
-530.331848 546.170593 428.331635
-638.987427 778.029419 264.978058
-696.563965 784.433533 256.668915
-668.839478 609.664307 358.339172
-797.859314 496.302795 380.220612
-503.690796 670.348083 348.404449
-465.949799 536.952026 447.007080
-615.649414 618.137268 367.661865
-463.272186 504.421478 456.222351
-746.804932 628.248047 354.226166
-450.972870 473.236145 505.691956
-549.482910 500.748291 437.555206
-676.925354 773.802856 254.279678
-683.618896 689.851929 310.747162
-653.225830 659.652100 335.067139
-580.814514 518.932068 425.031647
-759.702576 769.052917 256.295135
-786.719177 557.588257 394.692383
-492.990753 716.389099 338.110291
-565.173706 632.838928 381.738678
-442.801666 428.652374 508.143829
-731.518005 578.675903 381.629639
-564.367615 717.263489 313.269043
-656.855164 567.132935 389.060913
-786.338928 587.355896 366.832001
-516.653564 433.075043 489.035645
-480.110901 401.947754 530.273621
-546.258789 734.561157 319.259155
-553.100586 794.875977 282.468750
-516.327820 668.017273 327.538605
-665.864746 394.116455 472.060364
-781.526062 450.832733 484.735413
-691.799683 673.404236 322.474365
-738.666443 614.652222 360.181885
-735.766907 692.935974 313.086304
-581.009460 559.362915 406.393158
-530.632507 672.600891 343.177887
-733.561523 564.018616 389.953735
-643.840881 663.895447 337.719025
-516.292114 538.847595 444.288788
-784.773560 488.034393 419.852966
-653.499207 706.248779 319.328094
-556.992493 495.528168 453.184448
-710.980469 463.795563 459.348755
-689.324097 731.665405 295.950104
-613.258240 799.804626 250.874481
-481.188080 406.367523 518.293152
-720.705383 765.466736 258.077637
-598.847534 430.112457 497.480377
-646.589783 614.316528 366.684692
-654.651062 416.798065 490.395935
-605.419128 412.408875 510.747559
-445.534027 455.581207 492.133942
-450.396576 492.901581 468.231201
-752.906799 660.941101 322.602509
-816.767151 574.545837 316.809662
-431.049347 437.356995 506.901855
-474.696747 486.100037 466.858582
-493.357147 542.839661 427.995087
-656.207520 471.368835 444.655457
-705.518860 763.106689 258.933228
-829.226013 608.610046 330.505280
-664.380981 454.752380 473.106842
-514.232056 558.484009 434.420319
-686.579529 533.558594 416.389801
-843.309082 786.335205 279.388519
-688.907715 770.981812 241.008911
-685.599182 763.018372 268.016144
-472.338867 615.567749 395.517456
-588.827332 780.584900 286.810638
-605.904785 666.335449 349.572174
-764.550659 513.129822 424.814850
-641.515076 765.996582 281.207458
-665.698669 423.138855 475.000122
-596.733826 739.695129 308.994873
-727.789124 626.124512 344.999329
-814.260681 543.349426 367.200317
-511.399017 496.732605 461.668182
-687.798035 740.993469 296.662384
-557.452026 510.349823 453.872528
-837.068115 587.881470 313.538757
-795.186523 618.622620 356.763885
-510.453949 730.686096 325.540833
-718.999939 681.101807 313.820923
-691.533875 795.380554 237.661652
-668.690979 523.483765 410.499115
-772.933167 606.287781 347.856659
-685.204163 627.001038 351.887177
-655.535828 588.749146 375.771729
-787.007690 696.287537 296.345825
-556.303345 500.990906 451.735016
-697.354431 771.814697 268.277374
-803.256897 532.764099 340.215546
-506.414642 600.829834 395.212158
-683.611572 635.017029 327.741699
-841.797974 656.984436 350.771851
-556.735657 789.741516 284.739838
-557.719177 744.634888 304.972076
-646.307556 661.242737 334.769318
-630.097900 495.704041 454.798004
-796.622803 726.928894 259.714325
-535.048035 749.370605 282.645966
-786.200623 739.200928 264.383179
-491.790466 659.028931 362.241333
-548.927612 765.885925 282.575989
-693.851990 734.753357 296.436096
-480.223389 511.470703 467.107819
-546.573608 587.449707 395.370789
-629.023315 569.035278 408.068298
-569.877686 607.205444 396.004639
-612.086731 806.444092 261.948456
-648.019287 446.014740 481.761230
-681.937378 786.259644 243.220169
-699.023254 652.627014 312.089233
-601.829956 648.577698 364.045380
-652.775940 803.771118 257.300018
-710.992798 647.784973 336.471710
-481.391541 478.458069 460.280609
-619.571655 795.363647 265.297455
-612.684021 372.237854 508.288696
-541.740784 524.068665 435.363373
-484.420959 677.184937 366.217194
-807.931091 609.225159 347.691284
-666.879822 397.002991 484.191071
-585.729309 424.747986 504.567535
-647.993530 549.946533 413.826050
-672.138306 724.491638 301.535645
-708.808533 719.478638 303.475525
-695.074219 744.790955 273.636566
-630.071899 652.754333 357.618561
-583.821350 677.820740 349.616913
-722.707214 771.152893 270.087769
-663.444397 496.242310 434.542236
-508.550232 436.825623 474.834656
-696.070862 663.471619 327.411774
-832.522705 572.668945 301.923401
-551.522034 520.940308 433.492828
-662.311584 755.770874 274.252899
-515.463074 792.807007 292.630035
-535.256287 715.044067 332.514191
-452.023834 546.682495 441.509918
-819.879272 579.173706 341.742310
-635.085938 771.240540 269.347717
-826.020996 586.520447 284.704681
-731.488647 785.658142 255.342743
-600.654175 594.295654 384.561707
-631.364563 771.991394 279.151184
-663.726196 788.877625 267.447083
-482.642670 452.619904 488.018463
-563.379395 430.401031 463.424500
-590.314514 622.256409 371.385773
-786.080750 487.190918 402.011688
-599.135986 758.738281 297.063629
-562.123901 669.534607 360.524780
-677.433228 765.450989 273.254089
-741.414063 653.950195 321.150757
-542.320496 635.095825 385.957275
-527.690674 828.104736 268.408875
-517.403564 595.738220 393.762848
-843.142639 714.601440 327.739441
-721.016052 564.388550 392.424713
-688.298279 768.689026 256.282257
-788.521362 485.732971 431.701782
-538.617310 497.924408 450.153290
-725.638794 454.687500 444.136078
-491.056458 640.049683 390.229645
-825.562561 572.687073 322.028748
-667.685486 465.547302 444.658936
-780.915588 679.683167 290.306549
-640.495605 738.612976 305.724030
-828.024963 576.781982 322.948303
-682.009705 413.366638 458.309387
-596.017334 677.214172 336.055084
-691.102600 741.069458 282.463226
-530.109436 791.599121 278.947784
-509.252899 404.451538 523.565979
-575.468811 728.573547 317.631958
-738.891052 758.757324 251.637466
-689.362305 721.320740 300.040436
-658.041138 627.388855 354.086945
-703.612915 699.812805 284.389404
-513.895203 712.192810 325.925720
-809.614319 524.742126 390.903687
-483.349396 670.025024 361.758820
-697.470520 637.122437 351.622192
-717.919006 720.109497 290.988922
-644.440430 586.839600 393.261566
-725.930908 593.177246 346.857086
-545.585754 660.179443 370.197113
-562.681030 420.949280 506.412201
-598.327759 603.491516 378.367340
-653.010803 460.136261 451.272888
-646.474548 564.088257 397.274658
-497.114410 704.931396 336.330902
-810.828491 595.137146 352.713013
-737.834229 694.899719 306.778748
-838.440430 774.217834 282.332123
-520.582703 734.859375 317.524994
-590.395630 554.280090 424.252380
-613.568787 441.387909 478.470886
-706.638672 750.450073 278.716522
-518.844971 568.038147 428.051086
-562.256653 531.400208 416.045441
-800.274536 497.284882 347.548096
-716.660034 745.156860 281.917664
-471.255096 455.574219 500.601318
-830.446960 630.756104 336.942383
-607.433105 635.579102 373.856323
-458.381042 492.608856 491.947723
-628.117676 491.428711 456.426392
-539.135254 487.255493 446.568115
-585.701172 800.503174 271.736786
-489.329285 407.113525 507.224487
-736.197205 755.766541 270.058990
-445.138947 535.433105 452.558380
-533.418396 766.068298 267.814697
-441.111664 537.131104 423.013062
-740.378052 677.183777 297.933990
-477.828064 529.982422 463.692657
-758.364197 702.687744 295.863159
-787.488953 726.186890 273.736725
-520.001709 404.855133 521.082031
-676.944031 815.592529 243.645294
-667.047668 729.517090 292.871643
-802.518799 786.693604 265.189728
-511.715027 791.123108 285.295624
-567.763550 742.667908 309.588043
-772.949036 504.833191 435.505554
-715.101990 633.296326 353.958649
-702.647644 661.165588 326.419830
-795.258728 502.731323 430.351013
-792.891296 497.726257 402.800659
-605.888245 808.428528 249.515839
-700.793091 477.650818 431.802246
-708.396729 576.401306 377.270874
-467.900421 560.477417 429.915283
-827.880920 661.999146 358.137512
-540.185730 583.143677 403.415710
-569.597229 750.770874 303.644012
-823.138489 515.132813 352.432068
-436.586578 505.286255 470.884766
-544.520447 524.941956 448.101990
-681.768311 406.412323 495.757568
-624.268494 667.133850 351.256378
-631.845825 693.101074 323.417969
-681.217529 558.130493 396.805664
-634.870117 764.593750 285.596863
-522.533936 832.030518 249.900208
-735.277954 742.305725 282.349731
-721.067932 632.119751 350.254211
-719.825317 452.167480 456.186188
-541.103027 592.627991 408.101196
-457.126923 409.636017 518.221985
-644.144043 690.854858 318.436401
-592.342590 698.430298 334.938721
-572.441833 763.055359 294.811981
-539.637573 705.861938 333.664520
-522.915588 650.527283 368.116943
-789.345825 493.486389 413.684235
-538.083740 687.791443 349.812469
-625.577637 689.443970 331.301636
-617.032532 444.011169 488.252197
-647.269653 742.586426 295.101105
-699.529663 494.323059 426.707062
-786.865601 680.762695 307.953949
-504.596527 725.139526 325.377045
-490.424225 458.489685 497.317139
-578.857971 454.461639 489.219421
-683.517822 762.728821 278.158173
-679.509216 431.300873 465.343811
-747.859497 712.283752 302.299469
-669.299133 767.881836 266.899323
-806.089417 464.319885 407.275085
-554.040710 803.061401 269.816772
-682.792358 614.424500 366.491608
-767.829590 689.292664 299.310669
-679.165283 368.371704 481.685547
-685.179016 390.688324 503.076782
-660.293884 621.993591 337.587738
-743.921814 569.504578 383.628876
-719.492065 590.531067 382.209045
-601.616455 608.440002 355.786774
-613.654724 460.889069 459.498352
-713.195251 772.023315 268.474884
-797.520020 586.964844 370.479370
-534.971130 788.210693 272.153809
-731.402344 458.394806 443.174011
-665.130005 735.976257 295.407562
-530.320068 690.004150 335.926270
-778.040039 576.438904 389.446533
-577.075745 730.449951 317.280640
-739.833557 599.846619 369.154297
-527.910522 690.337463 342.322174
-817.152161 741.384521 271.868347
-647.992493 796.708252 255.191849
-642.099121 558.718445 396.187164
-545.672424 396.067322 503.966614
-666.103271 562.590637 389.384796
-657.260193 590.492065 376.589752
-686.579529 520.504822 412.668488
-496.742035 402.162079 519.560669
-789.662537 603.256409 375.622711
-542.221252 578.464783 400.176422
-817.219727 573.525513 350.888611
-670.098572 555.408508 386.813354
-476.341675 594.556030 418.002197
-620.466248 574.190857 405.998718
-661.886780 435.913391 482.860962
-640.387512 702.667908 327.119568
-497.215088 463.797974 484.474121
-573.887085 419.809265 495.188904
-669.166016 565.664001 403.205688
-602.317322 754.563782 301.262451
-766.887390 735.214172 273.370056
-603.231079 629.396057 358.582397
-727.209473 451.044708 437.711273
-593.389099 699.852356 315.455963
-758.960083 754.492004 264.665344
-815.661926 738.444092 286.035858
-658.709290 730.228210 267.580597
-561.282532 455.929199 472.481354
-618.081299 656.182129 344.106079
-712.656433 491.132996 436.875885
-437.927094 473.324310 487.501709
-658.996216 395.654724 492.609894
-761.502808 778.853638 253.580063
-701.433655 694.676147 317.003815
-763.654541 473.640381 461.018188
-545.017456 496.348877 449.547028
-827.633545 571.579895 322.422760
-561.456543 810.352295 245.951569
-669.298279 392.934174 499.157898
-755.527710 642.356506 344.214844
-539.335754 677.352173 318.706207
-570.130737 474.752930 478.025116
-661.339722 431.359375 485.717255
-674.549438 577.704712 391.855347
-707.864075 469.462891 425.074341
-576.609741 526.934265 425.488159
-539.043152 436.257904 505.235992
-587.657288 576.990601 410.770844
-722.670471 566.428894 377.272736
-494.289520 513.391785 453.019409
-831.197266 594.747070 291.928802
-558.895630 655.535583 350.073761
-496.917816 570.296143 409.192230
-728.440063 685.277893 313.460541
-491.075958 509.620728 468.056641
-513.118958 445.269073 473.456024
-562.934265 577.474121 410.918243
-505.947113 538.100952 434.730469
-488.082214 476.823914 482.060150
-505.350220 668.604675 355.735657
-776.891174 706.978271 288.012817
-593.861816 808.341064 266.884125
-654.171448 591.533875 387.055450
-582.699890 704.893860 319.762665
-836.599121 584.631348 301.094482
-684.900696 433.970490 478.243011
-571.784302 738.584656 300.184692
-656.130432 525.909058 418.013367
-598.449036 506.883789 427.092834
-673.157837 480.143280 438.298431
-674.163025 675.577881 316.939392
-673.917725 689.529053 312.419281
-602.983459 668.546570 318.693115
-777.156494 646.108765 348.683044
-679.305542 688.310547 313.003113
-805.313782 538.621399 334.677826
-541.628601 763.134338 284.193207
-493.495056 647.668945 352.766846
-703.910461 613.292175 370.894592
-663.955383 648.630493 350.585327
-688.016357 401.235992 480.569397
-603.307617 695.049500 321.864624
-484.661835 649.447937 373.093140
-537.218079 447.338501 483.096619
-476.166840 599.497314 415.202606
-651.361328 799.820801 250.224686
-774.404358 662.959961 331.891174
-480.077728 433.376678 521.042175
-598.464478 542.676453 412.376068
-507.141479 535.164673 415.148590
-579.751953 711.092896 310.703186
-744.849304 687.176208 316.306122
-606.726440 524.270996 425.054932
-553.246399 550.321716 393.795319
-732.880432 571.830750 385.790863
-514.892029 639.890930 376.334351
-571.767395 754.000183 291.478790
-664.763794 533.047729 412.866577
-492.783386 703.893250 324.106506
-574.314941 402.682678 496.322021
-758.500122 609.334839 353.545227
-592.851868 742.036072 295.132843
-555.265076 458.228149 491.565125
-608.702393 713.046509 317.102448
-701.182434 685.303162 293.756042
-691.929749 796.294556 254.603745
-809.935242 497.517853 365.158295
-585.662842 476.363251 449.401428
-540.567993 556.621582 426.948456
-480.806213 418.427673 524.278198
-572.522461 628.383545 382.549866
-683.428711 771.263916 272.958252
-550.161743 712.219421 325.064972
-554.041687 554.481079 418.214111
-627.742004 436.507294 490.993652
-655.100830 432.483551 481.677704
-854.795349 722.548401 333.358215
-518.557800 756.101563 294.282928
-554.964111 476.027069 467.586426
-829.678223 555.039307 313.381195
-712.385559 723.598083 303.901337
-728.342285 535.247009 412.230774
-684.156738 496.591675 423.288025
-626.686401 726.515076 315.087799
-774.349121 535.919922 406.662628
-741.949341 488.510040 429.686554
-591.482117 562.933350 418.808441
-484.037415 537.479065 451.044495
-491.994263 513.399353 448.804169
-512.494080 786.466675 278.949036
-612.502686 510.549103 443.311584
-635.704773 700.498413 314.550507
-699.815552 759.777161 246.659317
-699.999390 772.673706 249.845642
-559.317627 830.152344 261.326141
-603.322815 581.004089 408.009186
-529.266602 438.981323 497.910583
-597.098816 536.532104 408.867523
-524.734558 814.955200 273.384369
-668.562988 471.527557 445.528900
-642.723328 678.986877 335.642670
-812.153259 609.384216 381.964722
-727.165588 717.462036 294.350555
-701.426697 698.942261 307.977356
-666.126953 573.388062 397.797058
-540.092041 815.676880 256.664825
-678.929810 776.258484 272.118774
-558.547485 480.505066 476.474091
-667.528687 491.144196 445.080811
-627.786865 419.988983 501.484833
-741.257446 442.439331 465.003571
-795.605957 451.218658 401.733673
-550.101013 547.592651 419.141724
-744.269287 560.460144 399.067535
-452.479004 427.428345 525.500793
-466.214783 566.084656 422.654083
-601.711365 681.846863 338.750488
-800.743469 534.012695 372.554413
-820.559509 629.715271 328.604095
-533.954407 508.603882 446.167358
-711.347839 459.656281 455.912598
-546.459717 747.365906 302.576721
-526.553406 581.398193 392.629425
-542.850830 798.385376 268.779480
-552.702881 589.345398 409.149597
-538.786316 794.185852 279.969147
-792.245728 463.683319 375.475098
-738.228394 794.585571 254.337692
-566.868164 783.799988 273.902832
-710.231140 714.568604 294.369934
-642.132690 813.711121 254.561096
-589.891479 413.639343 491.939484
-786.288391 483.423157 426.209747
-655.570557 519.313965 435.840424
-573.860168 600.939514 383.366699
-738.391357 592.358154 371.565063
-435.112671 431.614563 527.170776
-587.904236 581.245483 406.618866
-651.437439 647.768738 354.099701
-534.035828 659.631775 337.802216
-598.093445 705.468689 326.542847
-550.344727 683.517700 351.589722
-568.038330 777.052307 291.010406
-701.926636 723.380920 295.794189
-514.617249 716.328003 340.554382
-601.613281 601.864563 381.586121
-840.595337 781.781799 270.282257
-842.509888 619.187744 314.922882
-638.361389 569.205383 395.335663
-593.738770 653.048096 350.413025
-525.010193 446.393005 498.490265
-489.450104 421.059143 513.112915
-631.934692 642.659912 329.251038
-738.037231 633.706787 348.458038
-819.756653 529.281128 346.110443
-538.470947 518.244019 429.929840
-811.118042 544.949646 331.578400
-505.164154 583.253662 410.301727
-601.017334 388.032867 520.655396
-743.794495 500.146179 405.451843
-856.120300 750.130371 329.802063
-478.627411 606.904297 396.806274
-700.688965 525.794312 396.865143
-497.468750 460.192871 485.740265
-601.166260 412.600037 502.724182
-631.991089 423.058136 492.869019
-587.564636 552.608582 414.095764
-511.639923 447.749207 481.932465
-528.497314 612.167175 383.654541
-562.093506 741.912781 304.936035
-605.147583 577.719849 395.294647
-520.250305 724.279724 321.315308
-577.118286 623.938721 383.737030
-797.864746 771.592224 263.656250
-481.196991 464.069946 485.857544
-799.214233 783.462463 271.194885
-641.476440 446.859344 474.753723
-804.599609 503.204132 357.392303
-530.907410 637.705933 381.953308
-741.079407 620.812500 350.453369
-513.895691 498.210541 473.673248
-623.980957 774.010071 280.916351
-544.883179 565.711182 423.436523
-478.462189 467.993591 497.218231
-620.573181 558.803528 403.809998
-777.611389 741.960999 244.849243
-649.563232 746.622986 299.313660
-506.996002 753.934937 307.554810
-776.433167 519.033447 402.475708
-553.963623 708.592346 330.519836
-637.861084 710.243286 307.908539
-515.463196 446.131378 487.886536
-679.058594 363.022217 523.664001
-832.595947 623.015320 329.119110
-574.167297 427.916229 484.680542
-729.178040 599.452332 359.376953
-804.185486 555.957520 361.217987
-482.922089 522.231323 454.511108
-541.440186 758.235413 288.388275
-562.433533 757.606262 289.388794
-469.099152 573.404297 422.296967
-615.462585 468.495453 469.282562
-638.055115 734.742554 306.062988
-745.744446 656.013733 323.806580
-494.236145 652.604675 362.755981
-692.095093 712.924133 294.222046
-612.846252 787.662048 275.262299
-663.506042 702.426758 305.723785
-688.860474 672.351135 331.918549
-557.117249 721.831604 323.142212
-766.253174 513.987366 425.142181
-500.310059 692.581482 340.131866
-481.525909 534.652161 447.022827
-488.436493 637.665588 369.110260
-636.751770 373.784271 535.794861
-535.036499 408.248505 521.010925
-835.086975 600.968628 322.104034
-479.719360 480.041595 474.597260
-565.637634 805.536987 248.443100
-467.313171 418.927246 520.826233
-628.567017 564.248474 408.441315
-808.438782 521.336121 374.935760
-560.127686 430.915741 483.613037
-686.988403 543.029541 394.608948
-609.274170 502.518585 433.981659
-633.719055 804.157471 258.845367
