ply
format ascii 1.0
element vertex 1408
property float x
property float y
property float z
end_header
517.033325 461.276123 -578.655518
356.183594 323.519104 -676.327881
615.243652 347.663422 -692.622986
439.049438 389.570251 -632.654297
609.639099 369.763397 -662.185608
363.932098 332.214508 -671.184692
300.957947 332.644714 -691.464844
684.751953 355.973053 -686.731018
514.774719 419.311951 -628.002319
522.247314 452.072815 -593.585388
497.048859 409.471832 -621.515991
644.162476 311.211029 -715.001587
760.102478 519.393799 -554.145142
382.649719 293.243744 -704.182800
519.004578 363.299957 -651.632996
638.227295 330.176483 -682.512207
537.992554 486.981201 -568.412598
505.733093 344.904053 -671.143616
775.062500 421.875244 -632.819580
291.199860 329.432831 -668.723389
569.479309 526.645691 -544.466125
351.282043 323.570709 -682.256653
740.525818 397.702179 -641.540833
435.561768 447.723633 -588.903503
647.052612 579.608459 -492.717804
617.217041 528.831238 -543.387634
468.911987 441.199463 -607.484070
731.266724 331.726532 -720.996033
642.143372 290.939362 -713.306091
652.480225 478.944855 -592.386353
671.522522 383.366699 -651.774841
667.447632 493.475403 -559.962341
593.433044 383.968170 -648.714600
535.999939 286.365692 -713.095459
455.067719 335.725128 -672.028809
776.683716 436.278290 -618.086121
402.685211 374.624237 -655.325134
637.124390 364.366394 -658.048096
685.518921 252.135696 -732.891907
345.619659 368.740326 -618.263611
552.614807 328.314819 -683.092102
770.663818 466.038818 -598.346558
573.256348 277.571228 -736.823608
506.084686 438.644073 -578.221558
789.592896 444.749664 -606.225037
648.207397 350.132324 -687.052307
664.717773 259.275726 -734.849854
747.134399 478.843079 -592.324829
608.824951 504.227295 -533.534424
499.759369 247.158386 -741.410095
545.075500 302.071045 -705.187134
576.689636 471.618225 -592.396667
394.181824 398.663025 -591.373657
486.948914 370.782379 -630.739075
674.704590 511.694672 -561.443542
494.746063 305.023895 -697.115112
530.440247 382.156952 -641.869324
687.879333 225.919098 -722.812744
351.233093 358.006714 -642.670288
545.929016 403.300385 -624.008728
519.706665 480.451385 -580.301453
561.022949 268.096466 -719.492920
591.914673 487.948639 -579.390198
355.996307 363.156830 -660.495728
660.603821 484.113312 -564.405518
478.754364 225.482117 -756.739441
558.674194 484.922058 -537.770935
672.354492 480.400818 -567.457520
308.253662 357.935303 -665.092590
645.566833 572.786987 -505.918427
777.918518 309.670929 -705.886597
566.491211 404.514252 -634.363464
627.101868 249.924316 -767.588562
782.242493 333.434570 -719.665588
635.222168 536.230042 -518.932678
426.195038 429.955963 -606.994934
767.820313 317.937714 -708.981934
470.273804 262.252808 -742.799500
676.585022 431.979950 -624.291748
438.738922 347.726654 -668.518860
654.544189 452.568390 -597.408508
662.276123 248.091354 -734.600952
497.196625 346.519745 -671.929993
466.637665 283.347656 -713.317322
560.242004 356.126862 -679.614807
403.622345 400.468781 -635.177246
659.671570 420.277618 -624.864990
715.763062 535.590820 -543.232056
648.807678 368.512360 -672.267212
450.015503 445.388977 -610.070374
508.936829 214.848267 -785.480591
709.629517 506.150604 -565.389160
390.051331 225.512527 -767.715393
365.822693 313.928619 -684.488525
406.610840 292.558868 -702.358337
603.993835 378.037140 -666.646057
715.457214 285.707275 -715.681274
691.015076 461.064484 -591.074829
724.317383 543.989441 -537.340149
787.247437 411.511780 -641.508423
678.727417 571.236023 -491.256897
572.793213 270.014984 -726.696289
564.752930 262.226074 -743.935852
325.846832 361.374756 -653.613831
385.664307 401.971802 -634.509521
325.466675 310.791870 -658.736206
564.004578 435.647003 -599.872192
485.229095 339.056213 -676.943970
658.884521 519.609680 -556.291992
651.036865 384.901520 -652.083740
702.109863 298.595276 -737.641968
608.728027 293.513397 -709.473633
635.770020 560.868774 -501.845367
540.999329 503.513336 -552.634460
603.847046 427.146210 -628.253357
409.435516 361.598785 -665.628174
778.470520 379.116638 -719.855286
632.579773 496.150269 -567.920898
497.238617 302.644409 -718.805908
672.603882 209.482529 -722.664856
635.679321 529.991211 -547.288025
478.760803 318.994049 -702.188843
711.298523 448.646973 -619.067017
630.977051 279.010712 -722.673645
579.879089 324.403503 -688.036133
791.708862 413.126312 -642.380310
583.746521 417.032867 -622.005310
678.255737 515.236877 -563.076721
506.970856 245.913055 -723.847229
517.267883 404.692963 -639.304626
545.825928 386.858704 -641.448547
535.534485 496.247589 -557.672424
523.229553 398.711731 -645.440796
486.135559 432.672943 -598.046814
460.291199 409.012695 -632.940002
475.550201 357.860718 -649.396240
464.426208 463.054260 -589.857422
493.961884 376.488159 -663.205017
595.022888 467.685852 -582.696777
695.179749 547.697021 -512.834900
575.945374 230.664001 -811.845825
478.996033 433.450745 -597.262268
699.528320 438.167419 -590.619629
677.926941 322.751007 -726.822021
368.344482 342.971802 -635.224365
676.656372 486.195618 -555.830200
507.307648 423.619507 -619.988586
477.071747 430.480530 -600.987976
551.152405 259.362183 -746.353882
593.656128 339.434937 -686.605530
642.032043 499.944763 -543.661926
453.761810 319.533081 -690.781677
396.045471 353.516022 -673.499207
576.945007 342.822021 -669.975586
354.046173 309.482971 -704.685791
547.311096 426.818390 -610.458374
750.436340 277.215118 -701.535339
536.388245 241.018097 -779.230347
703.623047 267.015533 -719.697083
453.414429 234.885757 -768.188599
471.391113 384.131348 -641.614319
363.812714 358.935089 -668.931030
681.109802 365.976044 -680.935913
433.974335 279.578461 -705.225830
674.116211 241.588104 -733.932617
541.817078 284.636108 -716.691772
747.136780 432.641785 -634.018188
647.195068 394.155304 -644.160217
346.349030 338.144623 -657.615295
617.957764 525.183472 -533.399170
642.348267 576.787170 -489.071960
423.860077 335.540802 -648.559692
785.402405 379.568604 -693.063843
667.195862 271.888916 -744.485107
404.240906 300.980408 -697.541809
754.956177 481.046173 -572.768799
532.259094 497.384155 -548.472778
799.795410 404.858734 -627.940613
826.688049 391.177887 -653.421570
673.200317 497.728516 -579.057922
507.789368 412.174683 -622.432068
715.102356 357.320374 -692.352478
715.183838 536.123535 -546.347717
347.141785 288.077820 -684.646790
486.924042 393.927246 -634.626587
496.431000 384.335083 -653.968018
831.996155 440.587128 -622.804138
396.407440 316.167572 -692.940674
649.797974 459.908997 -601.354736
570.562622 529.899719 -535.886719
388.026459 256.524658 -710.326660
652.014709 272.464996 -755.650879
514.855530 298.492584 -703.103577
762.690125 439.802094 -628.692749
671.118103 575.807556 -501.938782
619.991760 445.432373 -604.143250
612.034241 228.846115 -790.990723
605.336609 557.657166 -509.313263
680.394958 481.291046 -570.705933
462.131622 438.033417 -591.228027
749.685730 510.382721 -562.473145
802.976990 458.560577 -610.815918
698.430542 246.751984 -728.240540
678.243347 506.011536 -568.154968
642.998047 535.984497 -519.612549
434.293945 384.041901 -631.841675
381.462463 394.094757 -616.561707
424.005402 412.076782 -605.612915
533.987610 455.129028 -604.380188
627.260681 459.259430 -591.430359
411.701599 274.108917 -720.459106
584.664185 447.424744 -595.819397
816.908203 393.017090 -727.070129
474.607269 304.967682 -717.674683
716.036804 369.608307 -677.626404
756.455444 312.762329 -700.685608
357.454926 365.100403 -663.579407
589.961121 444.921692 -604.453369
523.856506 201.903748 -829.543396
547.612793 530.547485 -538.504639
522.002014 446.348785 -610.131042
571.998108 381.389893 -625.537537
689.652039 568.817688 -510.381378
426.002838 289.157349 -721.636597
823.232910 406.715210 -640.858154
662.698303 210.770279 -738.894958
607.154724 488.900452 -550.709900
406.509888 400.197083 -612.610779
588.324036 375.168335 -651.908264
646.766846 441.232178 -602.687012
514.246033 429.910339 -604.222107
716.237122 399.451477 -642.900330
567.148193 279.971069 -731.154175
648.881287 498.050659 -560.645203
437.989227 431.628510 -602.375366
530.763367 354.140686 -658.985291
609.112793 479.820038 -586.857544
731.678406 542.742249 -528.902466
590.865173 296.194916 -723.404480
471.994110 299.282074 -700.834595
481.681671 291.872131 -706.800903
728.993591 481.180603 -555.612427
507.905273 398.282227 -627.535706
677.601440 510.836304 -564.897461
609.654297 377.885162 -650.660950
396.021393 403.791412 -633.590820
689.540894 340.352264 -668.965027
364.729401 312.792480 -687.267456
708.940735 442.683014 -582.766602
801.347595 427.734680 -638.485657
574.817078 390.872070 -652.715637
494.809387 422.183441 -627.523560
671.921570 343.325623 -696.069275
670.269287 410.918610 -640.314209
516.215820 327.070435 -698.806641
661.822571 278.453186 -727.987366
471.371277 293.481049 -705.337219
515.452026 422.597595 -613.879700
761.777832 418.231689 -645.266541
607.036133 543.921204 -535.499817
503.869934 300.556000 -714.170288
305.311340 362.860870 -647.637146
551.022766 310.080780 -712.523010
370.598328 384.493164 -631.113464
573.286743 299.780457 -711.020630
650.981262 435.441254 -620.221497
712.295776 227.149933 -701.251038
679.673889 266.244812 -746.249878
516.799011 289.839844 -700.486328
477.152924 226.363419 -773.524353
369.695251 321.875092 -673.969910
642.846069 513.950684 -557.684875
636.340698 319.578705 -695.681152
555.610840 462.120026 -597.336609
362.357086 323.291107 -689.283569
548.458557 456.096008 -596.483826
561.071838 264.113800 -730.979675
645.077271 482.058289 -572.764465
606.220825 259.409210 -789.911926
509.156769 446.884705 -609.909973
758.206909 441.667542 -599.596191
534.645752 394.396179 -637.736633
497.937622 410.863586 -590.656677
535.287537 343.974976 -666.481628
726.258850 471.872070 -596.677246
735.489563 306.926147 -697.300537
750.098938 378.030762 -656.125549
719.170715 362.674164 -675.091003
693.818909 501.702820 -570.282837
480.096619 394.096680 -647.755615
727.755615 464.014709 -603.516235
373.589386 373.807648 -634.642151
616.090515 258.780304 -774.408386
662.111816 209.786255 -723.297363
636.539490 517.212463 -550.304504
712.587952 512.470398 -551.100586
837.888916 427.255981 -642.163391
459.138367 283.505524 -704.118103
679.255432 466.782043 -587.276001
496.443939 216.555176 -762.233765
676.038025 556.189331 -516.595825
616.041321 354.371124 -663.311096
561.567749 379.986450 -664.584473
607.006104 506.022980 -557.231079
525.440186 379.641541 -646.081299
604.794128 439.736450 -607.286011
677.717896 534.554077 -534.631958
622.726990 442.604095 -608.334717
745.223022 412.691620 -634.532043
655.400635 446.376404 -607.626465
498.753784 221.919128 -758.275635
404.621460 417.582886 -610.152832
701.249939 430.138550 -615.492981
459.115204 261.120270 -744.468506
784.913391 352.471008 -730.459900
694.578552 302.850372 -725.520447
618.550171 562.047729 -501.682129
661.004333 447.568512 -603.693237
703.047974 588.809448 -496.302490
611.450684 263.509064 -731.088257
689.682373 387.494568 -649.866760
502.171814 233.360703 -750.321350
528.325806 507.650696 -557.358093
714.592590 250.758499 -697.260620
772.313904 370.373779 -699.102112
656.665527 539.711304 -510.551819
389.194092 354.975098 -656.447510
322.561920 383.662109 -642.000488
693.154846 488.589325 -565.076355
784.266602 330.185089 -703.825867
334.069427 319.182251 -688.034058
527.307922 462.225922 -588.011902
692.102051 400.193634 -639.905151
781.429932 453.296814 -611.242493
656.417847 560.301575 -510.236786
733.469910 512.529236 -567.420105
409.960724 333.206604 -669.450623
338.263458 344.853851 -673.583862
495.126160 402.936646 -627.505432
653.406372 259.993195 -758.463318
466.013947 319.332062 -706.479126
693.018738 374.526459 -657.724243
677.632813 514.077209 -542.767090
495.047699 448.450562 -603.125061
430.507294 383.730835 -653.857056
563.185120 527.390686 -530.805847
511.255554 215.320786 -784.202087
806.560669 430.552246 -630.569458
699.421082 217.265579 -696.327148
392.555511 331.855682 -670.145264
504.996277 346.596741 -650.392761
667.306763 239.154541 -742.610840
347.453278 295.511719 -679.138245
459.841614 390.141541 -624.872803
682.188354 556.551147 -522.141724
558.779480 395.934753 -637.186707
796.998962 401.237610 -627.086853
699.274109 230.634567 -711.631958
388.867584 315.091736 -705.630493
697.510925 462.379517 -607.011597
533.014771 476.238739 -583.885437
389.351379 246.667099 -763.559814
336.192535 328.520172 -687.334290
621.905518 497.541077 -531.942932
398.619263 308.755310 -686.318359
666.694946 513.883728 -529.695801
726.885071 533.629089 -541.697632
664.337158 561.378296 -524.434509
523.408081 447.661591 -597.817505
574.716431 309.673553 -697.739075
658.267151 484.483917 -567.270752
564.677612 344.361755 -688.695862
579.867126 274.292694 -718.093079
310.099121 327.558289 -661.221069
383.923218 273.001953 -715.396240
690.831482 264.509308 -731.677795
547.032349 250.588623 -728.189819
457.255341 371.028351 -637.555786
701.200684 240.622025 -701.170532
520.321228 443.340729 -594.658081
664.872986 452.111664 -598.316833
688.037537 288.010071 -746.001038
660.626343 551.763062 -490.064301
526.764160 478.058777 -586.480713
767.696655 281.580170 -688.439331
478.205750 346.249847 -679.661072
533.518921 384.273285 -642.947388
416.360382 403.228516 -615.975647
534.227478 383.351105 -633.966614
469.614044 454.819305 -577.064819
702.584167 386.425018 -652.483032
422.792725 375.884247 -656.609985
750.266052 260.812256 -692.312317
665.989746 267.797852 -750.439026
601.410217 364.292694 -679.001526
509.006409 272.031494 -722.145630
512.715637 316.366760 -706.638245
631.775940 519.887817 -546.448608
335.201111 283.989105 -704.054932
446.804352 343.370178 -685.348022
675.437439 427.816956 -615.429321
731.706726 317.080536 -729.031738
490.329987 325.401611 -665.045654
489.335510 370.845734 -663.915588
803.880127 430.647919 -624.938904
560.521240 239.060059 -755.517761
547.715027 448.456421 -595.775513
411.165100 426.022522 -617.580383
646.251770 214.716690 -741.319519
561.752625 411.971558 -639.643921
666.079834 545.151306 -535.666687
580.657837 411.506287 -623.237854
518.438171 392.510559 -624.620361
355.881317 351.290619 -659.158508
556.996216 269.821167 -718.695251
525.633362 507.413330 -547.913147
722.625549 408.991669 -624.483521
640.449402 557.334351 -523.479736
628.162415 285.202423 -732.810608
454.487946 380.337585 -640.735168
474.228821 312.832611 -711.635437
634.538940 200.774094 -756.688965
641.634949 379.247955 -668.017883
451.968048 401.661285 -638.944275
738.340088 286.045013 -714.371277
527.494446 327.181946 -682.526550
757.906372 337.308655 -711.549133
660.422424 470.805725 -590.018372
480.449158 449.942322 -590.331055
569.585327 465.911316 -596.441956
786.774597 436.601532 -630.557434
793.636353 402.599823 -624.297974
695.802307 450.751831 -600.934998
668.515381 207.210510 -712.151611
430.006073 427.636414 -598.264221
834.659424 397.764893 -648.625366
355.577850 362.000366 -647.155396
320.562866 324.782837 -694.797729
642.472168 379.689606 -655.851379
514.377808 504.044800 -551.378723
575.744019 514.544922 -539.148987
662.578857 192.842407 -698.681213
659.902161 481.614838 -586.911194
521.682251 460.821991 -595.263367
735.117493 538.794983 -543.871338
697.271790 323.445404 -727.973877
481.831604 456.714996 -565.890503
459.662933 312.183716 -689.641663
701.980225 221.567474 -711.393066
625.743774 247.394791 -760.980042
652.731323 459.562714 -591.557800
660.011719 434.596954 -622.611816
512.572693 488.383942 -562.136230
362.457825 284.051849 -720.700867
568.713074 505.709900 -566.198486
551.799133 376.266785 -664.149841
632.855774 288.336700 -708.534912
488.777527 215.934265 -770.057251
737.996643 424.306519 -629.489319
629.669250 345.543243 -675.841736
622.009155 459.081665 -600.221252
378.243256 234.993225 -739.581543
651.485413 447.396088 -600.903015
417.848969 238.066803 -755.511536
614.368958 457.375092 -572.513550
587.780090 343.863525 -670.303955
479.628906 376.373016 -617.502563
568.879822 315.761169 -686.714355
627.451172 214.687988 -751.115967
595.544006 282.156311 -723.721252
532.292236 401.135223 -631.387939
550.066528 253.306564 -739.404419
779.705139 391.868134 -670.284973
721.375549 346.436646 -707.764221
631.290955 521.766235 -534.974304
539.111206 422.816284 -618.010864
332.909027 302.068298 -700.619568
566.462524 484.828857 -564.672852
332.029633 301.478119 -703.115723
688.557617 234.144348 -723.604431
754.190002 371.278381 -698.526917
647.044312 423.057526 -620.181030
648.302307 449.916077 -609.363464
609.066467 248.409653 -787.532898
593.227600 257.730988 -759.746948
762.776855 492.983429 -585.008606
681.289917 291.841553 -742.700195
368.295013 347.648743 -639.668579
486.950897 195.042923 -812.439819
394.557007 420.280914 -605.465088
766.994202 293.160492 -703.428101
715.417114 242.325195 -702.104492
495.479279 476.724854 -575.183594
744.189331 294.506561 -693.941895
702.827271 510.810974 -562.567993
625.477600 397.005829 -637.808594
788.068604 493.635834 -583.563354
425.733124 239.787827 -742.294495
584.977844 430.140625 -623.431580
814.885315 434.430664 -627.354187
709.022461 471.643951 -601.693909
632.940979 511.681519 -547.834900
742.067444 318.474091 -717.645325
825.977051 420.704559 -632.514832
628.912903 385.588409 -657.937439
511.873993 413.336761 -615.636536
451.997864 457.538300 -565.773132
420.890991 347.030304 -668.290039
645.321838 571.759277 -494.709045
683.482544 584.860474 -481.310455
622.548096 264.768036 -776.625854
682.763184 383.669952 -661.307373
506.265656 338.870850 -671.776917
703.089111 516.753845 -560.334473
470.850830 280.213348 -715.721802
595.253479 487.853485 -578.563416
675.077393 250.367477 -721.264709
568.198181 458.735229 -586.536133
316.371002 321.217804 -666.608948
411.084686 240.945572 -739.854675
692.015137 316.568115 -708.409180
786.587646 422.669189 -611.319519
331.697418 382.240173 -637.772217
731.902222 479.468719 -553.699890
598.193481 529.744385 -525.356873
718.210388 424.192505 -602.779236
697.353577 482.611176 -593.009399
650.310059 590.471497 -480.562836
744.520813 465.942047 -604.319885
516.656799 441.908051 -610.663574
826.942505 437.368347 -625.600952
769.497864 406.551849 -637.450012
725.457458 460.420441 -609.008911
564.439697 534.135315 -517.293823
582.060730 360.450684 -660.451355
529.624329 315.763245 -694.083008
818.659424 381.850647 -724.395081
546.592590 354.137817 -677.846802
577.335632 536.545593 -531.523682
634.357666 249.193619 -761.884766
621.168152 481.369232 -565.748169
534.986877 501.495056 -554.357971
765.403015 450.464294 -621.543701
633.949585 212.365906 -765.199402
551.558167 336.641724 -676.894836
694.627625 447.323944 -608.089966
440.275055 362.149323 -670.634338
601.611938 348.727661 -653.638855
489.588562 198.034927 -806.818970
646.389893 568.291260 -490.512146
665.872803 321.715576 -693.224304
349.763855 382.494934 -632.882507
554.265686 377.231537 -631.320496
590.401245 460.879425 -600.765198
495.608673 250.531021 -738.411011
455.210815 304.989136 -685.590149
551.614014 422.787994 -618.418213
813.629761 395.446960 -730.545044
639.242126 232.288437 -766.089111
778.234253 346.715210 -711.757263
599.737915 372.929535 -665.803467
544.491882 508.072357 -546.120117
625.915100 351.289124 -682.167358
638.556274 370.302765 -676.573914
698.678040 380.763977 -665.688171
363.618317 291.013733 -695.810303
683.290344 236.953613 -729.987427
316.781189 327.674561 -662.324097
624.989380 189.353943 -738.886536
555.562927 508.372925 -556.205994
509.609436 412.382141 -615.032593
826.013550 398.671356 -713.077637
485.518677 410.198059 -629.394836
683.619507 592.195251 -493.888580
633.424500 202.423981 -737.862976
512.363403 388.619904 -640.127441
621.155579 308.724945 -705.234070
491.145020 403.772369 -637.945068
438.788361 196.472870 -759.392456
617.733765 454.772583 -593.813416
556.602112 491.857635 -572.429260
692.742004 404.079315 -635.320679
731.175293 405.269867 -617.803406
379.624969 337.246643 -687.677246
850.856384 427.068573 -710.655945
399.818939 387.388428 -627.504883
597.584534 531.694885 -543.548523
534.862549 475.933411 -562.841858
320.188477 328.132233 -658.898743
482.720825 314.097321 -689.606384
417.744904 350.688507 -647.193420
583.490173 221.363815 -768.633911
497.846466 300.097992 -705.173401
487.822968 429.804626 -622.040100
574.451416 337.397705 -671.753357
685.528503 224.246765 -719.869812
576.083557 507.653656 -545.359863
747.907959 483.324493 -582.924866
687.770569 521.662170 -554.609863
555.245789 510.098175 -541.810181
676.344910 610.785645 -495.431305
529.978638 468.036835 -584.389404
709.671082 240.317535 -712.159851
593.381531 497.321198 -562.805725
616.818237 543.940247 -533.018311
734.032715 335.943207 -719.447021
717.320068 279.304565 -705.309753
603.801697 343.144501 -681.061523
643.345154 359.478088 -677.904236
631.496704 380.524292 -650.634705
648.208496 522.159241 -538.702454
581.532410 377.245300 -665.376770
712.504395 363.916870 -691.201843
723.070435 429.860687 -625.123230
591.498535 359.722961 -657.330444
319.559570 320.276703 -665.010681
625.456543 471.497162 -582.307068
721.572632 513.028320 -558.598816
564.906372 338.921570 -692.765259
506.944794 330.421082 -684.492065
683.251160 448.979279 -614.734314
453.795990 393.322571 -630.983826
770.440613 392.186920 -661.425049
714.584778 537.417908 -531.807068
522.752502 423.656525 -613.311157
592.317200 502.314819 -559.609436
681.824951 281.921051 -719.828491
390.619598 321.546021 -680.453186
511.931244 466.658356 -573.838623
464.656555 185.386627 -781.775940
340.514252 361.637817 -661.665039
399.223724 358.129272 -650.762573
649.250916 243.763168 -746.479004
419.706909 402.029724 -621.605042
664.612427 351.937958 -692.127136
599.261597 325.626404 -671.635132
795.006592 343.428864 -721.273071
536.695740 374.688019 -648.355286
514.742310 340.644409 -674.470093
654.757324 381.370056 -654.221252
526.840332 424.547089 -613.104126
714.965210 388.741608 -652.863892
649.328796 360.707306 -666.292969
596.254272 289.505035 -727.639038
678.935730 468.090393 -600.170532
370.200867 318.197449 -662.196228
761.759033 456.361572 -602.862183
602.914978 537.152527 -535.049316
360.019562 383.180817 -624.701904
646.972595 419.724213 -631.252319
696.005981 332.237915 -718.982605
654.218933 589.043030 -478.609375
629.450439 451.045746 -597.176208
574.627136 360.782562 -661.237183
328.653320 325.271912 -686.731445
512.980347 409.295319 -617.683533
410.264374 314.247711 -674.480469
684.964539 436.892181 -590.190552
732.101868 503.626953 -551.277405
720.046753 376.119629 -665.581238
687.300476 505.023132 -572.580505
536.642517 460.292542 -597.403320
627.094971 237.470871 -764.106750
480.300110 222.733902 -760.421875
469.992065 199.017822 -776.564514
728.573486 516.670532 -540.819458
693.502197 298.103973 -733.300720
385.225891 245.566681 -754.342712
525.126282 219.597015 -754.485840
678.984802 507.451935 -548.229004
603.019409 269.993958 -721.978699
498.740814 437.495392 -602.250061
672.481750 521.540039 -541.110352
758.883423 509.331635 -566.878113
642.985657 259.064148 -745.750793
587.286255 291.215088 -713.827698
665.840698 439.606720 -605.091431
424.699615 219.868240 -755.384094
701.253296 554.364563 -523.086365
457.237152 349.875946 -665.937988
366.050018 245.069305 -731.103943
588.274780 503.242767 -558.673523
641.155029 482.658264 -575.863708
477.677338 191.927643 -785.696594
703.641968 236.819794 -716.732361
358.311462 282.791046 -718.080811
546.943542 336.475281 -697.224854
646.476257 376.210846 -635.007202
415.330292 223.635818 -779.141235
534.445496 514.236511 -537.819885
521.293091 207.050873 -804.628113
383.859406 337.767670 -649.184265
492.871124 305.040070 -710.298889
511.065796 416.404541 -619.529907
353.199066 315.654968 -696.311096
610.824158 285.974243 -735.349060
581.994080 521.557617 -551.335083
641.302979 384.796875 -645.618530
764.757813 491.838837 -561.783081
722.631775 287.516693 -719.993652
632.287781 517.435913 -542.048462
557.992615 532.486328 -529.506226
613.799011 550.076172 -526.030151
475.978455 468.716125 -573.439270
849.441650 444.653625 -651.279297
680.611816 521.251465 -541.796753
710.820068 294.038147 -718.884583
459.958405 420.075439 -575.727783
612.755981 535.564941 -522.909607
512.352966 242.040115 -744.386536
434.746338 432.975006 -579.365906
696.713379 557.660278 -509.450592
464.418945 288.267700 -707.951843
504.364441 388.939636 -654.604797
737.560547 400.102966 -644.886353
477.469025 473.564117 -569.198914
512.799683 489.474884 -577.491760
669.410400 456.606812 -573.425720
457.989960 248.916107 -754.013367
409.835449 277.508575 -704.009521
608.934998 455.476044 -599.478882
602.567810 383.378571 -642.927795
522.709229 476.107391 -563.536987
616.743835 452.413666 -607.248962
613.219543 321.374237 -688.984680
608.889343 515.366394 -555.054504
399.682068 427.910095 -618.135620
743.047852 379.923889 -679.717957
654.644226 496.306152 -575.137390
530.899414 441.198242 -594.027649
707.260498 353.042603 -681.305176
530.204468 473.018188 -571.687134
833.548157 438.260956 -603.572998
721.153015 490.514587 -587.546875
605.835205 482.464783 -564.498047
637.933838 204.898956 -730.734253
654.113708 556.274292 -513.160034
660.624512 195.235764 -701.959534
577.809570 341.616516 -688.838684
639.161804 538.646606 -516.942627
679.008606 202.197098 -708.144653
656.181946 596.880554 -494.203278
590.605530 365.359772 -672.763245
435.743042 302.868164 -695.445190
362.364624 264.092163 -718.829407
764.639893 294.094788 -705.144348
646.022583 366.504669 -664.467285
818.666199 433.773865 -625.092163
382.733215 406.233612 -630.491516
508.314941 348.900635 -679.119812
461.863617 425.865601 -589.688721
702.787415 342.123932 -697.781006
549.700623 431.331726 -621.322388
760.696106 280.008392 -696.926758
508.892426 427.756195 -596.824585
402.967773 354.157471 -657.396606
514.879089 475.874023 -554.926941
460.147980 312.479279 -704.025879
566.449219 453.067352 -605.221680
671.594727 303.687378 -729.502686
638.989868 217.346329 -762.466370
655.206055 435.689270 -613.425110
711.267883 307.570557 -722.534607
380.722595 310.629822 -673.572144
454.386353 451.847595 -597.017578
504.150513 300.635101 -707.102173
727.517517 527.269470 -517.751953
490.617737 316.669128 -688.063660
436.451660 362.651642 -665.728821
414.512665 409.925049 -608.260559
669.199463 382.904999 -632.020264
726.896362 446.609131 -610.186096
684.571655 550.095398 -515.659119
520.712219 491.541656 -572.190796
372.632446 408.293274 -619.973694
581.960571 449.425964 -601.406006
534.232910 257.367096 -756.807434
429.863770 400.251587 -636.488342
764.699829 295.105621 -695.608215
602.999390 552.462769 -519.361328
566.990173 398.221161 -634.007996
301.916718 340.412567 -661.186035
751.876953 420.555878 -627.687195
688.489014 367.182251 -680.613892
747.772339 347.537292 -685.851868
551.556213 289.583588 -732.905518
660.908569 582.729004 -481.995758
393.085358 393.783661 -644.379456
662.578857 394.648529 -642.846313
676.097656 232.761993 -733.867004
697.366699 543.585510 -537.549622
470.131866 409.249023 -620.828247
465.030853 316.351959 -701.456055
628.432434 474.972900 -580.237305
614.049011 487.177399 -576.795654
717.111328 281.917236 -734.523010
621.890381 568.812134 -506.646759
788.943726 406.088745 -646.580444
744.701233 394.191528 -643.722900
615.813477 497.132080 -574.408203
760.638000 434.028961 -621.884705
737.841248 487.368958 -570.798889
465.048492 244.606445 -727.809326
384.190643 315.453461 -657.465210
493.036926 256.344086 -732.146057
525.232361 377.962067 -642.023071
686.757996 444.453522 -605.529907
454.894104 373.238861 -642.332336
456.793152 441.268219 -595.575684
574.687500 236.487427 -795.204102
544.749329 344.025543 -673.498596
662.788086 525.854431 -545.587280
725.634338 495.919495 -573.685547
747.223694 376.438354 -656.242554
588.751648 417.427307 -631.004333
618.486450 500.632294 -549.931091
660.757935 346.517242 -680.922852
445.036591 298.693756 -697.901489
549.508789 480.022369 -549.053650
682.966980 573.354065 -514.292786
709.987610 420.360229 -622.133911
555.552124 436.733429 -617.527588
396.318329 390.610962 -646.440308
384.414124 360.230225 -652.092957
477.110992 306.632355 -698.130066
694.488647 323.109711 -708.969604
483.096710 351.798615 -654.945923
776.371826 396.498016 -658.108398
543.767456 454.393311 -602.781616
698.744080 460.194733 -610.609863
511.105652 312.406952 -695.333374
686.504089 484.112244 -590.858398
668.892883 559.552246 -523.216187
786.183411 346.965240 -723.737122
712.592285 307.574585 -722.193298
751.677063 448.407776 -623.224365
417.574097 384.737915 -622.348206
273.683228 360.802216 -663.960693
506.428528 257.440643 -746.280945
283.192749 354.369141 -672.304871
604.039673 477.915894 -571.495850
508.628632 252.275558 -736.371765
519.463318 349.931946 -679.445496
421.160889 382.683777 -633.552979
695.763367 403.754547 -645.289368
623.198792 428.234558 -625.435486
639.091919 512.856201 -560.682739
488.298279 492.562653 -557.984009
441.965240 302.510834 -716.823242
459.951111 256.680420 -747.017456
521.876038 404.678650 -626.927551
379.343872 423.190094 -601.322571
552.893127 240.853897 -753.400452
572.509155 272.613647 -738.419128
739.175232 420.051727 -620.929504
737.636963 428.788696 -628.335815
438.391846 434.603485 -593.312378
483.743073 388.883453 -638.057190
558.375854 289.160583 -711.073547
359.256042 334.974091 -647.857361
439.676483 359.419556 -668.359680
660.962891 552.949768 -517.354309
313.353424 334.131714 -652.569458
564.709229 509.398315 -551.616150
663.167114 505.311127 -569.107544
488.621918 480.029114 -550.848206
615.066406 318.679138 -707.360107
556.080750 394.134399 -618.217163
408.464294 398.315979 -595.083008
644.533386 484.075592 -587.872681
746.671509 346.402466 -720.415405
378.021332 321.836731 -674.688721
703.860046 430.080566 -621.406616
668.855896 416.000732 -636.942261
517.555176 424.777496 -613.759033
498.958954 379.741119 -639.966370
473.927521 439.060608 -599.932556
752.157654 457.744354 -609.475891
731.059814 440.774200 -621.164490
398.680206 248.431030 -721.574036
492.846893 359.252563 -646.417114
719.529663 565.708435 -527.149109
857.769165 432.077637 -671.070984
465.711395 299.716461 -701.890869
578.480164 344.758850 -672.723511
375.845276 378.436188 -636.064148
637.442261 579.455261 -501.331177
453.960297 286.209045 -724.202393
698.746338 426.413330 -635.892883
619.911499 233.276794 -784.290894
489.599335 204.762131 -771.949341
746.008850 477.168091 -594.910522
675.204285 278.191284 -750.927368
718.757996 519.077576 -558.448486
757.482788 334.840271 -722.638428
602.794128 229.020355 -809.776733
729.942139 278.744019 -723.958130
523.137024 291.535461 -690.655273
778.566223 432.223541 -628.519287
652.104980 408.079285 -633.059570
808.407104 423.252563 -633.531982
667.739563 558.962646 -524.637939
649.157654 365.658844 -673.787109
569.025391 292.121094 -710.736023
655.410889 231.593109 -757.932007
559.648682 472.163239 -579.967041
572.937378 489.260834 -570.243530
620.864868 390.468506 -644.165039
748.727356 533.157776 -552.238586
715.325806 417.990631 -641.046997
496.120056 486.820435 -580.132874
784.749878 499.988861 -582.409607
580.383301 484.620148 -574.432373
590.211975 278.924683 -709.973083
640.424438 238.497360 -758.312439
680.386841 478.460541 -584.110596
523.807312 238.246597 -744.834656
450.385864 295.097687 -704.363037
722.600647 434.334991 -613.757446
342.866699 276.339294 -693.130737
644.821106 324.107056 -694.642517
748.447815 461.304169 -613.536987
717.107666 272.816589 -713.295593
806.536499 375.198792 -708.731506
595.519348 463.119202 -582.115112
456.351868 325.429199 -696.040588
404.597656 266.308624 -720.890808
632.184509 571.553467 -510.984375
384.913727 403.738068 -598.869751
825.009644 433.331573 -625.045837
640.912476 505.325775 -568.250000
433.135468 324.840607 -679.402100
386.421844 350.871307 -662.577271
466.206573 299.495575 -713.698242
660.308105 355.704834 -680.308716
829.344238 452.744598 -616.867615
364.544769 396.339569 -638.685242
529.810303 308.947479 -698.956116
471.642426 424.285492 -604.275452
528.195313 473.514709 -574.580261
735.359924 440.146912 -615.035950
731.541687 331.094452 -715.533386
574.068665 371.760529 -650.617371
560.715942 224.650986 -831.320862
735.004822 511.412231 -561.649963
609.944336 264.783600 -779.730896
578.565247 424.897095 -630.419678
416.239502 269.755310 -720.051575
546.379761 454.705200 -593.768921
535.347290 501.785339 -560.444580
507.145905 237.860657 -744.117065
491.651917 489.008362 -561.224182
447.513855 242.581772 -762.412964
415.186005 295.187988 -717.986694
446.253693 395.619781 -611.544495
585.432007 459.738037 -592.715881
694.467712 282.921082 -713.222900
728.294189 513.708252 -548.941589
466.392029 212.684494 -767.813354
664.397766 567.255737 -516.333862
745.944153 421.815125 -604.627991
737.725525 401.010895 -633.565308
568.405579 368.477753 -659.102295
343.893433 385.119537 -649.116760
435.257629 280.935120 -721.363464
838.082703 425.278687 -637.998474
701.595215 412.886169 -646.093750
410.905518 407.005798 -630.145569
791.861145 465.755585 -605.946167
323.296387 330.403870 -673.746826
650.846375 388.154846 -656.291077
561.249329 527.893921 -549.344238
564.962280 324.339996 -694.448853
417.357147 341.498444 -670.062561
603.908997 416.218170 -620.633911
742.529602 283.006226 -711.600281
609.878906 509.578278 -559.708557
637.003479 402.702850 -650.806885
572.197571 417.057251 -636.284729
576.853333 425.053436 -624.046753
422.925049 439.546143 -598.304993
811.701477 464.445374 -615.018188
447.896881 335.030029 -677.185913
612.557617 309.715485 -715.337219
601.109131 502.955872 -569.779968
631.237671 368.714996 -675.508667
592.359375 246.299240 -748.325928
424.037933 331.877716 -671.899841
505.816620 400.085846 -630.780090
486.323547 331.415375 -670.939941
552.824158 520.978943 -524.534790
449.081360 354.121918 -656.514404
368.287048 349.948944 -658.296021
605.121216 417.954529 -615.842651
808.297363 445.433197 -621.019043
641.069763 234.905365 -759.685303
722.836670 516.517212 -539.677612
541.184082 489.941071 -540.774963
635.434875 366.073883 -679.752686
585.912476 393.508667 -650.717529
441.408875 286.336060 -709.762268
344.544922 326.124847 -692.187256
489.500916 411.388824 -616.058105
499.917267 327.524017 -684.325439
484.769592 389.955688 -628.635864
513.189880 300.730103 -700.752014
571.411255 333.936829 -688.547424
589.599365 253.360077 -779.382019
410.945618 332.176178 -649.077576
705.373291 414.411743 -640.893860
432.482941 227.043594 -727.841614
446.084320 176.517700 -812.762390
695.166077 310.221710 -731.144348
681.866821 248.217194 -729.760010
397.008514 274.689087 -724.323792
704.319153 318.640503 -728.017273
380.026031 326.251740 -692.433533
390.200226 414.126221 -609.416687
529.122864 439.001312 -601.657288
488.485352 272.700562 -726.811218
396.314270 239.542831 -758.918335
824.264343 403.273041 -726.407410
674.115845 302.214569 -741.834412
441.197327 281.654144 -709.764404
691.300354 537.810547 -542.263428
735.134277 484.507233 -564.359619
566.281799 383.478668 -659.899048
702.547180 520.256775 -562.703308
811.919006 411.781891 -646.699585
509.386017 371.678802 -668.130554
509.891235 216.764633 -762.295593
550.183594 384.475739 -640.205994
498.705261 399.881592 -629.959656
315.352020 305.040741 -699.410278
563.503479 467.019897 -585.326965
480.564911 380.905853 -617.808350
588.872559 245.445114 -817.846497
510.223297 273.663086 -710.591614
395.777802 299.642181 -695.255493
456.478790 450.956329 -585.815247
766.967712 426.253143 -627.672241
683.456177 448.720917 -594.361877
326.772552 303.742828 -716.065308
760.999084 461.953949 -599.606628
666.278809 436.578827 -584.433044
688.342834 551.267029 -521.210083
652.558838 530.191345 -535.522034
598.761292 426.204987 -612.700195
341.741638 372.059540 -636.215759
351.310394 368.682953 -656.362427
616.469421 424.310822 -618.853516
573.906128 464.042328 -562.839600
845.735779 426.405121 -668.549561
746.460938 542.635620 -524.070007
437.449493 300.213715 -714.027405
564.775085 515.631165 -537.408203
519.286133 233.343414 -768.220520
765.422974 306.539368 -707.856750
470.030029 359.907532 -637.636108
732.940613 371.671387 -669.199280
741.337585 514.868164 -556.050354
519.664978 340.001892 -690.381958
487.189331 270.876862 -711.202942
391.062592 333.832977 -670.464294
677.722717 413.476715 -630.343140
619.932983 541.690063 -512.888794
820.135254 403.602966 -681.338318
696.849915 417.812500 -606.550659
634.863708 462.770721 -566.148071
791.555603 470.940735 -605.784546
723.583618 531.078491 -542.550964
421.388824 240.885223 -760.979431
717.672241 542.758362 -541.045471
739.984680 325.825012 -730.652405
582.829834 552.096130 -519.823547
539.765320 416.028900 -623.539307
533.605347 265.648132 -711.866455
371.036346 276.277435 -708.009460
674.033203 313.917419 -718.920898
440.594543 354.765594 -655.346130
831.881836 401.559875 -703.834045
634.132568 226.141617 -746.757996
667.447266 220.524933 -729.803589
442.081787 181.439178 -787.650330
564.243042 469.345947 -579.220581
390.524414 387.943176 -629.647400
553.171204 273.309021 -745.125549
558.873169 456.661926 -559.973816
510.290161 213.670517 -749.466858
653.637756 296.305725 -717.637207
540.587158 511.585785 -561.614258
621.389160 516.929077 -548.979065
604.097046 475.075989 -577.848755
559.591553 216.909195 -833.744507
552.379517 272.364471 -716.632019
387.205841 265.410187 -720.141113
596.156921 541.528381 -516.936340
703.061890 408.133514 -614.532715
465.640900 466.375183 -593.675049
388.113647 367.605316 -660.049377
700.677795 265.665863 -709.819336
393.343109 384.879456 -625.905640
707.175842 461.181305 -593.532898
606.362366 427.802887 -620.390503
595.911133 210.674103 -765.874451
778.287292 358.459137 -722.989624
650.591553 293.372284 -752.620178
686.499146 238.093170 -707.972900
672.857910 403.483002 -649.694946
413.612946 322.025452 -679.971313
724.662476 376.090149 -682.620850
431.433685 348.734772 -676.171509
666.647095 588.001709 -488.831116
812.593994 425.754639 -607.689941
567.395996 358.637268 -659.900208
418.757996 391.112823 -626.723328
378.572937 334.794037 -665.244019
553.978271 468.230499 -577.446228
520.487488 514.894775 -546.016602
543.071106 294.681396 -707.054932
694.356262 484.950897 -583.240295
362.433929 263.383636 -701.616455
442.374359 392.231812 -644.148926
651.408875 502.685150 -557.108032
775.907654 334.765686 -708.210449
819.132019 434.301544 -630.153076
549.353149 428.417664 -624.789673
585.055847 484.637543 -583.979004
487.959412 394.618835 -618.642456
425.348236 382.844513 -637.695496
309.481750 321.325653 -666.850342
587.747498 357.727661 -669.326111
602.144287 461.580566 -586.787170
751.075928 506.568787 -551.922058
762.724304 450.016022 -617.725037
386.551270 308.953827 -688.144775
863.363647 448.871246 -682.507263
749.076416 467.947845 -592.520691
518.654968 242.399094 -761.855347
683.123108 384.539886 -661.329834
527.131531 263.480652 -729.378540
512.024902 311.218811 -698.171631
614.242554 346.656250 -682.597961
366.166290 352.902039 -658.655884
394.727783 336.048431 -668.621216
550.118530 369.041168 -657.587036
388.331177 419.760895 -612.391785
603.611755 303.254089 -710.573120
450.211456 461.057983 -591.462708
790.721497 476.190857 -595.713684
599.844177 450.561890 -595.614319
753.289063 286.294098 -704.951233
594.915710 552.630005 -520.934692
644.673523 443.097626 -609.471375
407.303833 405.278778 -636.889832
438.040985 383.813507 -620.134766
444.007965 299.920013 -688.504761
398.876282 338.393768 -674.207520
357.615936 295.735870 -695.752869
756.166016 465.321930 -594.439087
495.443817 289.640289 -714.970947
472.208160 358.958344 -670.574402
545.950439 392.518860 -641.590149
846.456604 426.133026 -661.253906
491.690582 259.712036 -718.737122
633.426575 321.514893 -688.779907
312.022827 384.403442 -641.957031
382.162170 310.206818 -673.896240
457.293365 175.527634 -827.718872
464.294769 425.616943 -605.558289
596.170044 509.575531 -560.337952
721.393616 246.573685 -705.327026
740.653137 446.277008 -609.901306
463.813873 359.944366 -670.349854
539.158508 496.514130 -548.370483
654.306580 374.562958 -651.011658
488.437714 481.716370 -569.721313
485.532257 419.053680 -613.894226
608.078430 465.691345 -562.606750
626.273987 239.792526 -759.666870
663.364258 567.027283 -518.465027
760.056274 283.043793 -688.635376
597.118042 466.663605 -577.155457
635.010010 339.565674 -683.580200
680.234741 205.730927 -697.187866
701.340881 446.384277 -616.774963
355.202454 362.604462 -639.589172
753.937622 440.265686 -612.108032
423.082245 276.082642 -738.791626
639.032837 282.139771 -745.081055
308.835785 305.858398 -686.321350
731.454163 267.279114 -699.659180
405.223785 395.132080 -626.790649
859.461365 437.279266 -702.294373
624.987549 442.724670 -603.604187
743.546448 444.216827 -623.980042
457.622253 455.435669 -579.950623
609.045227 405.918518 -629.113770
410.423676 394.392578 -640.792847
572.923645 376.872925 -652.620544
665.797607 513.826111 -539.659058
648.173523 532.623169 -546.564453
680.165894 336.408875 -684.509460
424.435730 213.311111 -760.634521
676.654053 462.575043 -590.480530
634.634644 596.406555 -498.874176
621.911804 204.313126 -751.305115
686.872742 337.364197 -701.065796
572.180603 269.870667 -738.573669
724.431091 307.413391 -718.382202
604.643616 503.999847 -562.561829
691.937622 215.715530 -703.860413
569.891296 232.525894 -787.730164
471.351349 297.396698 -717.766602
770.693176 382.573181 -666.981995
531.849487 375.242493 -666.350830
547.445862 370.418091 -671.090271
694.668640 496.517792 -574.171570
502.019806 283.469940 -728.882080
803.309509 420.320251 -611.338440
408.431732 404.325348 -619.096741
625.058472 273.436005 -741.565002
624.609375 382.841736 -659.575073
570.866516 466.911133 -585.809814
408.713226 407.555634 -611.584900
650.675781 536.093628 -544.410278
449.821198 423.698303 -619.385864
436.365692 320.340057 -696.439636
700.056091 480.758881 -589.119995
730.169678 524.540527 -553.736328
433.243408 264.351685 -713.297119
689.210999 575.511414 -521.409119
685.613342 467.935181 -596.279785
705.381897 489.390076 -548.234802
759.948547 346.718506 -729.195923
671.024841 581.719177 -481.895630
575.263306 533.620056 -546.021729
690.662659 570.664124 -518.851624
780.122864 315.191833 -697.517883
683.241821 560.798706 -525.172729
641.205261 521.758972 -554.022644
464.909882 274.070374 -725.032166
522.709473 313.157684 -685.659729
694.534302 567.216187 -520.846375
684.459351 400.482330 -652.157288
477.796936 467.665680 -586.005798
699.470459 342.017975 -685.583679
532.845093 226.652847 -753.863647
528.879150 342.579529 -674.680359
378.123779 383.541046 -621.976318
543.759949 504.623199 -543.103638
417.727539 292.998993 -691.111572
611.685059 562.315369 -514.993042
398.858673 255.326889 -752.894470
419.004669 394.822571 -628.536560
635.101563 452.472809 -589.571350
496.800659 269.360718 -742.776306
627.371765 349.172516 -686.844849
706.906921 502.918121 -568.037537
735.106812 252.339813 -679.162659
559.692078 407.497681 -628.259949
485.409302 288.412537 -709.566406
668.361938 221.886505 -715.785645
609.555420 348.958130 -685.214294
519.138550 337.986389 -679.566223
633.062683 388.185120 -655.916504
451.801544 372.677490 -659.042725
825.805115 394.357361 -719.780823
712.904846 414.440796 -637.142273
438.635864 204.803513 -753.407227
394.956146 275.493073 -736.708252
576.321655 468.047089 -584.333618
434.583435 234.502350 -766.860107
540.508911 422.034088 -624.041748
322.588928 389.489624 -650.999084
594.587585 480.090607 -586.604431
414.872742 299.056519 -720.282715
816.477722 463.122101 -635.491699
710.501099 514.494629 -541.198364
552.374390 403.849121 -642.301697
526.455017 361.808258 -659.440430
545.871033 521.415039 -532.309143
589.850403 250.742310 -763.326904
625.943115 188.411255 -736.910156
562.472168 509.942780 -533.403442
464.485046 395.825897 -629.596619
329.171936 301.697174 -699.070862
691.878662 519.255676 -546.567444
657.097229 417.951172 -624.238342
623.852356 249.555542 -766.774658
483.097137 252.241943 -743.852661
457.675171 307.600586 -692.804626
520.391846 359.554718 -649.852844
700.032349 383.972260 -643.004333
669.372314 367.824005 -679.471802
706.327759 293.760223 -731.483032
695.407410 563.324585 -499.072174
633.897827 316.861603 -711.382874
528.063232 472.990570 -564.174927
779.434753 343.401428 -702.219055
697.607788 517.748718 -539.731689
725.796875 485.351624 -586.277344
371.913574 301.294159 -694.344788
317.143738 338.811157 -650.414307
502.389099 247.189148 -753.002747
693.073425 548.824463 -525.123474
361.904785 345.323456 -665.264160
456.468689 386.704346 -636.045288
436.666901 392.686127 -638.973755
740.864563 428.009338 -627.117310
600.108093 544.007019 -524.869751
501.663391 256.344604 -746.792480
656.760681 296.997986 -736.821594
776.804504 378.375305 -708.651428
701.464600 384.422241 -654.828613
546.330261 255.504929 -752.468018
672.704041 239.216797 -728.213318
461.935944 433.619965 -613.610657
741.687622 315.809113 -731.186523
627.158752 406.165283 -642.009583
425.299347 417.529236 -607.145020
677.417114 223.887329 -709.728516
604.621826 316.309723 -692.235291
669.993164 600.154358 -486.585754
814.026733 422.809723 -628.302551
706.474915 519.937927 -558.788086
590.077026 241.586609 -810.823730
608.822388 437.399200 -584.259216
449.613770 451.549774 -585.252747
540.092590 443.688965 -601.602173
477.904663 494.038605 -569.974121
493.819977 363.109406 -653.114990
699.216736 372.071198 -658.452637
790.817444 484.803223 -593.289429
796.781311 360.501556 -719.455017
538.805664 498.387115 -563.966858
485.961273 428.314911 -601.303833
423.083374 328.039398 -692.329529
765.119263 454.889435 -580.140686
682.206726 353.432861 -685.552307
705.143188 538.076538 -541.934631
474.433594 228.348282 -750.758545
606.096680 451.517517 -602.212219
754.323547 445.259644 -597.417236
429.946320 413.766113 -590.652466
723.670654 440.530762 -621.126465
508.387146 489.402222 -570.150879
748.088501 489.797943 -585.610657
401.989777 366.750183 -665.823975
692.190125 261.632721 -743.333557
726.320129 367.790863 -694.214050
343.529327 395.590179 -640.543701
706.875610 480.380920 -589.660522
419.967102 291.751526 -704.093079
644.163330 528.436584 -529.564880
450.534912 344.213257 -655.881348
603.919800 245.732773 -780.318176
676.013977 339.945526 -702.439148
539.782288 237.398804 -748.133606
396.389526 347.088409 -666.832092
685.475281 347.761871 -679.056213
704.907532 360.354126 -684.401123
459.129028 465.124512 -564.759766
566.940369 322.622009 -692.266418
415.210571 327.747650 -683.477173
753.116577 500.059113 -567.306274
607.889709 521.112427 -550.617249
566.913818 437.409027 -606.580688
666.975769 458.554718 -609.298767
627.499573 283.358521 -714.990845
345.765289 320.929474 -676.655823
455.779175 378.983612 -652.034973
519.787598 483.743286 -566.273438
535.444641 464.047791 -561.058289
773.437622 305.833435 -699.012573
494.099823 480.156219 -569.821777
765.028748 341.254883 -722.510925
629.562927 471.777618 -592.540039
555.669556 527.869934 -537.310852
457.708008 400.710114 -625.566284
681.739807 502.050262 -570.098450
728.164124 327.672546 -710.256042
751.967773 512.112671 -543.997009
616.514038 198.573105 -745.727356
614.932007 470.058105 -559.410950
369.234100 418.605316 -622.043152
498.069244 295.411926 -704.128418
723.006592 415.067749 -620.030029
561.013977 455.565521 -592.643677
376.599304 407.076355 -634.643066
512.901672 376.982361 -647.663452
719.604126 552.166870 -530.292664
634.752991 326.549988 -705.070801
732.551147 518.194946 -562.635742
506.055115 414.456024 -596.344604
525.817017 340.074524 -664.682495
675.281067 425.959259 -621.447266
445.188751 443.577179 -590.729187
715.203796 289.204407 -729.649963
513.714355 338.492859 -672.581482
520.065735 516.662231 -528.985718
795.976013 463.435974 -608.354065
494.978180 481.073761 -564.881836
618.867920 343.859619 -690.569336
417.710388 364.074280 -648.661011
701.643311 395.055511 -659.685791
347.860321 368.217499 -634.891235
629.869324 528.320313 -509.968933
