ply
format ascii 1.0
element vertex 1408
property float x
property float y
property float z
end_header
569.649231 554.987549 -453.397583
559.877625 448.215576 -640.554749
820.160583 547.120605 -478.117828
663.392761 655.278137 -295.257507
741.946167 514.736511 -534.278748
594.338745 518.313354 -496.623718
677.787720 522.067383 -487.202332
525.465271 605.532166 -350.024567
810.878357 493.356354 -470.822876
639.649597 676.842102 -240.126053
496.669891 535.649902 -450.947113
734.454285 635.099426 -258.831696
462.952057 560.814148 -411.743225
722.626831 489.458374 -541.216492
729.569153 646.933594 -238.350891
434.657043 590.661438 -408.048462
397.376953 554.622498 -438.786163
686.220154 687.773804 -240.049835
379.426086 517.772644 -488.730316
444.578827 512.276917 -485.342407
416.565002 524.655090 -502.486450
601.493713 689.100220 -238.295242
747.089355 638.084900 -269.832611
544.167847 446.314941 -597.262634
489.240234 614.865417 -349.178925
499.786316 548.161865 -453.742096
716.020752 661.914368 -255.007813
537.861633 612.695374 -352.243103
736.822144 668.724121 -196.898544
725.862793 576.576721 -400.707031
628.367981 664.279968 -247.403625
716.947083 466.531921 -545.806702
550.733276 476.705292 -569.471252
694.469421 672.273865 -249.872314
682.200073 482.490631 -598.151184
773.116821 446.450165 -494.959778
732.654907 465.282928 -537.335754
808.485535 647.807861 -285.957336
750.477112 609.740967 -337.660065
584.233765 632.125793 -282.518005
686.165771 465.844757 -592.141663
396.470459 536.998596 -501.734528
671.974670 588.320129 -384.415619
584.241699 634.925537 -316.161041
530.024109 634.099609 -332.549042
581.450562 625.262085 -344.437347
570.696289 646.703552 -304.222748
716.187500 561.887695 -431.141876
781.139893 582.618835 -398.877411
577.980713 610.746094 -334.991699
554.716919 613.958435 -344.260620
784.479797 641.794495 -302.127563
683.738892 553.646545 -443.408264
483.533691 498.364319 -552.442505
745.116699 449.505707 -527.739258
834.303467 583.083618 -387.723999
750.856262 554.131287 -402.211731
457.288971 487.280365 -541.119080
681.642578 509.550476 -515.991516
652.053528 642.313599 -270.557373
703.152039 618.063416 -297.307770
773.383606 594.555176 -328.979858
722.808533 471.928345 -551.815186
733.939697 649.777649 -262.471649
620.172180 538.782227 -465.462402
790.310242 630.005188 -327.830505
577.881165 570.639709 -412.430878
617.456116 540.394592 -482.519836
643.270874 506.893372 -524.528564
678.815002 560.287720 -444.967590
852.568115 630.954712 -310.624817
706.073669 598.158875 -360.614410
708.344543 632.027100 -316.464386
775.172241 479.689453 -497.302185
761.479187 482.321045 -504.844788
571.426331 666.451111 -267.145935
683.568909 500.749695 -569.257629
684.996704 696.967163 -224.109406
666.975220 544.642334 -440.249664
562.755798 634.371094 -318.270599
579.710938 487.488678 -534.028259
458.279358 549.764648 -470.649628
499.454193 487.137054 -573.804138
681.352600 724.187378 -174.989395
486.300110 603.132141 -361.421112
837.779480 585.346375 -374.148010
784.686096 552.152344 -473.183563
469.013336 569.127441 -383.095062
560.234314 507.417450 -535.849243
625.984558 644.640381 -303.064850
850.874878 557.139526 -458.299805
751.422058 678.868347 -251.141327
401.041321 561.324158 -443.541260
802.213745 520.929565 -454.380981
794.439453 657.815918 -262.245453
652.266296 683.604919 -226.938965
637.468811 524.724792 -473.686432
871.589478 620.104980 -318.084106
433.014709 573.354065 -403.398987
755.814392 689.647583 -219.898865
771.625488 625.855835 -334.487793
446.221863 514.714966 -524.360840
460.367340 590.779358 -377.599365
713.343079 474.518585 -559.573120
677.518738 547.624023 -467.389099
731.963623 678.821411 -245.452118
683.474487 558.605042 -430.081207
800.857483 573.260742 -396.742279
569.363647 606.034119 -378.730591
784.909668 661.997009 -247.778229
425.720734 580.326538 -403.661804
792.055420 668.150696 -257.692505
534.721497 490.675934 -565.699341
881.839905 608.396362 -350.322723
664.792542 714.085388 -184.356125
569.514709 543.940796 -440.877136
366.180359 530.724365 -460.029877
758.276428 650.177063 -274.997009
620.145752 694.352295 -223.048889
906.783997 628.736328 -364.337311
763.605347 589.472229 -374.885986
587.490417 486.272217 -555.428162
872.383972 611.127502 -330.870972
577.333801 573.110535 -409.874817
734.936646 487.970703 -531.938782
642.896667 560.467163 -440.497162
712.731323 639.061584 -270.541016
434.765869 516.186646 -500.532074
737.408997 491.940186 -528.081604
627.416443 649.347168 -307.160889
711.180481 682.061951 -233.899414
441.287109 541.956421 -485.482147
636.651917 560.829102 -421.592377
529.951721 597.568359 -374.216522
480.581573 537.678406 -496.196198
585.704651 644.844666 -271.699066
747.083374 633.205383 -325.473450
689.150940 688.421570 -201.655365
515.793762 467.001099 -586.540833
749.003662 666.844971 -264.427704
454.989502 587.709900 -379.528015
480.209198 532.853210 -471.808838
717.808777 660.720276 -275.098999
726.928528 472.965851 -536.847717
830.686279 522.252563 -463.293427
644.861389 706.984802 -213.150696
765.550110 577.603455 -395.051636
623.943481 667.068542 -247.078400
577.943481 638.344360 -298.254303
600.431274 551.691711 -445.835907
385.869873 573.840698 -418.754944
643.631226 540.245117 -459.716888
583.301392 587.316711 -406.219849
502.860199 488.388153 -570.235840
640.936523 589.216125 -396.523041
533.483276 580.501892 -367.754364
709.390259 696.540039 -205.728592
752.770813 598.271118 -347.326233
564.502747 611.462891 -347.247894
886.936890 620.762573 -353.297180
730.420349 525.678894 -453.346985
656.026978 518.767151 -480.611603
783.943665 543.611328 -475.315796
657.518250 629.795898 -333.506409
606.133850 466.484985 -571.854187
634.540039 549.914246 -437.429077
680.390198 513.386108 -516.418152
422.365479 564.413757 -426.858124
554.557800 646.263184 -311.939545
764.195251 609.214355 -341.887329
691.219543 723.925720 -173.311142
744.516541 572.927979 -414.121918
711.022339 667.185120 -245.723465
422.305756 536.034790 -489.136627
797.791748 647.120483 -303.716766
691.879150 544.439880 -448.649353
719.142212 667.020142 -245.471146
565.479492 656.992065 -253.996460
735.591858 623.863220 -335.895264
647.416565 588.547546 -386.569031
621.496399 641.386414 -293.995605
515.986938 507.022705 -511.856445
808.175415 542.908691 -477.109009
665.702209 512.291321 -472.184875
646.923279 571.572815 -416.704590
825.525818 640.520203 -304.795319
594.275146 677.114258 -255.772110
774.662170 617.835327 -342.660736
636.598633 696.072388 -207.597809
347.698669 542.094788 -472.443939
572.412903 508.545898 -503.259552
756.463440 678.958435 -241.305634
489.498413 576.730652 -426.003632
680.224731 584.917236 -400.498413
515.913147 457.263092 -587.654419
385.724304 533.119995 -488.312012
571.088745 672.186523 -263.614014
725.111511 564.247864 -439.625275
645.897339 662.913086 -246.213669
618.970947 666.839966 -216.928253
773.758179 464.687073 -513.130920
494.718628 622.594482 -335.920502
508.167267 552.844482 -437.443451
710.315308 670.492188 -239.400894
754.822876 674.013367 -218.686661
536.168945 611.911316 -346.140442
701.455872 511.741394 -529.015015
524.821167 443.637604 -585.246948
815.810242 580.622437 -411.946716
484.805481 603.642578 -346.739410
453.066467 530.781860 -457.198303
491.859253 573.780762 -415.095428
718.252319 696.469360 -222.666779
696.808655 524.062805 -477.481476
854.510315 621.592224 -322.655304
870.897888 612.459595 -341.693604
630.182007 539.648132 -426.639862
585.102966 451.718201 -609.456421
714.549805 626.572266 -332.430206
612.130432 684.375854 -230.068176
751.398621 667.213135 -272.173828
464.579163 607.202087 -359.339050
479.804108 477.702271 -555.254150
599.186157 637.637024 -323.214417
498.954132 594.126648 -378.042206
642.129761 661.715149 -279.835724
406.548889 575.824524 -413.066193
587.823792 637.733398 -325.017822
534.292236 609.197083 -358.275146
835.239136 537.846252 -464.970520
664.033569 697.846436 -215.621063
566.001099 657.309937 -277.820374
780.190796 601.417725 -364.216614
679.011292 652.487244 -244.513031
859.246399 597.730408 -356.134857
865.932434 611.789185 -344.826294
823.494202 645.152771 -264.114349
483.189484 504.701721 -511.416260
605.565125 562.169556 -422.722015
497.182129 606.524780 -360.278687
598.776184 471.731140 -590.794006
774.087524 512.734985 -497.011627
695.663330 643.810425 -305.265411
870.569641 616.915344 -349.941711
679.821350 582.978271 -399.068695
823.383911 547.436768 -463.747803
510.519196 642.117371 -322.694489
734.064575 691.429260 -216.300583
560.098633 481.935486 -574.047363
546.109924 515.369568 -481.387939
672.763977 664.194458 -242.734406
558.848999 461.367218 -601.858154
803.157776 578.807434 -439.388245
642.626892 679.013000 -253.121887
670.484253 674.685547 -244.719330
844.131348 643.925110 -304.048157
877.842285 598.664001 -444.611115
727.287842 639.443359 -292.199097
670.598328 520.230957 -481.616028
676.319458 475.330017 -600.677979
494.989288 472.730133 -562.706543
696.732666 718.826050 -185.098892
757.107422 694.480103 -216.524567
641.229614 668.751465 -267.691742
746.291931 632.192810 -298.883331
729.238281 719.593079 -168.569046
537.546997 607.398132 -305.352509
544.719604 625.293274 -345.110352
894.864441 607.197937 -424.141418
543.938416 629.954773 -301.896027
613.783813 679.266357 -235.074615
712.115540 634.351379 -310.567139
651.453552 518.437134 -484.104095
510.580200 570.973022 -433.171326
532.551147 592.832642 -403.165802
679.330627 664.007507 -252.594360
464.899780 567.960022 -440.410980
809.569031 619.377625 -330.815826
668.619202 654.493042 -231.717789
530.854919 648.417542 -298.275665
519.569031 547.197693 -445.801727
669.544861 630.315796 -330.835052
412.303650 535.760071 -471.351440
480.965149 560.537598 -451.280792
617.051392 636.039185 -305.961456
703.700134 626.754333 -331.216553
761.221985 449.388916 -523.975098
610.229980 669.611267 -249.129288
908.224976 635.225708 -354.965393
402.171265 580.624451 -432.609741
480.756226 505.266144 -514.578552
719.544128 608.728760 -364.664520
665.764221 573.258972 -396.786255
617.681335 581.141846 -391.203674
549.488342 574.029480 -411.311371
489.663696 553.544678 -457.937958
691.180786 604.313782 -344.056305
831.138550 636.477905 -291.102814
556.915894 491.656250 -531.730469
558.304443 651.178223 -309.685120
642.315125 549.735107 -437.352905
617.091858 474.507721 -590.426941
641.839050 668.927185 -255.118271
669.286560 562.356506 -425.505157
491.392029 611.912231 -352.460785
762.971558 647.222046 -267.842834
585.504456 599.583801 -367.208252
505.589111 578.481323 -403.140503
901.703430 628.356995 -320.610840
518.667908 623.091248 -339.463165
720.862976 590.636047 -387.117889
725.651184 670.605286 -257.224426
443.137268 488.244690 -541.293518
649.307312 674.746521 -231.023102
715.969177 564.391418 -418.013580
536.793457 461.916931 -585.007019
552.736389 586.398010 -358.395172
594.936768 593.957520 -395.457825
509.278534 519.019104 -515.616394
847.042419 595.858337 -433.612183
720.392639 630.255676 -323.600372
758.772461 697.852417 -210.916824
625.396851 587.880737 -387.865356
693.713501 591.609741 -334.456818
535.208069 528.611023 -496.673126
481.677063 623.205139 -339.665527
416.133057 533.826416 -476.879700
686.394226 633.879944 -320.190308
731.416443 617.994629 -336.939301
791.723938 624.488892 -324.862366
607.563049 587.607971 -372.036377
558.388550 656.632813 -290.770050
793.795532 635.821655 -323.193298
620.074646 659.990234 -245.411514
760.905945 607.463135 -350.130829
576.862610 490.553375 -503.864349
661.740784 580.439514 -409.079132
473.587769 585.078552 -394.999664
673.233521 580.574768 -384.490906
505.773773 563.560364 -420.014069
444.498993 550.706360 -469.892761
728.297119 603.874207 -352.944183
676.794739 654.914917 -286.023132
546.959290 602.114685 -344.461884
558.122986 459.723663 -569.397644
562.970459 582.668213 -376.087372
693.941528 609.541321 -348.398956
612.599548 529.235474 -468.829620
683.733826 635.676025 -301.611481
632.212585 582.757080 -357.658356
703.282959 689.577576 -234.237381
407.524719 533.615173 -502.140808
462.002594 612.138123 -385.249176
428.718658 560.417847 -461.511322
694.922058 648.994568 -249.490494
795.413391 519.210388 -467.236572
570.477112 493.076294 -510.941467
565.779114 640.848450 -273.240204
719.255676 526.896484 -481.995422
514.920532 512.105225 -499.600647
618.951965 564.423767 -407.264130
867.984436 652.809998 -287.732269
547.920654 488.131287 -518.242310
708.545837 689.786560 -211.257202
636.682800 581.685730 -359.012299
829.768127 606.171448 -364.006836
497.191498 513.167236 -486.103638
451.832916 559.818237 -435.188629
786.535095 669.915955 -248.461807
872.895386 599.092285 -319.917328
634.381836 661.718323 -279.934875
712.141724 654.466614 -248.773560
663.870972 695.307922 -219.840179
729.958130 485.522461 -521.660034
630.710205 501.977203 -509.052277
500.816803 617.248535 -340.134399
859.256165 575.552307 -443.068695
672.599060 667.939514 -257.062958
667.961914 577.380554 -394.490387
562.707336 588.852966 -387.981964
500.273743 608.554016 -350.386871
576.600342 668.280762 -259.058136
433.308929 540.870239 -441.536682
508.234924 528.312988 -439.089081
686.617859 696.632446 -213.681717
432.048706 520.397095 -514.291199
596.482239 667.372131 -259.782349
464.963135 544.135315 -478.529297
735.309448 676.068909 -245.293091
784.033264 490.987427 -491.367035
788.790833 629.797180 -280.195587
716.985107 628.156372 -322.129822
740.263855 695.130371 -212.945267
782.926758 679.539917 -236.543625
641.707520 536.222595 -454.263489
847.154114 523.332703 -440.875092
668.154663 673.428040 -258.768219
733.356506 534.120056 -471.624207
811.395691 633.857239 -295.606110
746.316223 497.216492 -511.887695
507.276917 458.869476 -563.206055
556.019897 484.633148 -570.849792
693.534851 699.581726 -218.838989
560.732788 449.484802 -629.497925
674.755981 509.735870 -549.457336
542.085510 645.952271 -320.286194
776.619690 467.850006 -477.123383
833.837646 603.464600 -353.231689
719.836792 508.501526 -537.581360
512.653931 631.665955 -321.903595
630.915894 683.630188 -232.956192
605.719116 593.729248 -379.242493
625.151245 510.429840 -517.500610
782.461609 643.559998 -295.330444
509.848816 592.777344 -393.299438
839.231079 613.383179 -304.307343
779.828369 604.921143 -363.003723
587.337524 560.080750 -429.287140
560.693726 470.666870 -544.078430
805.786011 619.074707 -332.388031
721.309021 638.877258 -288.053436
666.902832 698.476624 -204.944366
489.273193 466.384308 -568.906372
763.025513 674.441833 -246.887680
545.818359 511.942688 -500.041412
532.291382 570.424072 -438.432281
612.887573 593.184570 -382.055969
593.792542 622.471252 -302.829071
832.007813 487.768280 -443.070313
793.984863 554.659668 -460.998169
618.575867 487.207153 -529.301331
742.170288 631.114014 -317.041504
798.376953 504.064972 -473.415894
625.738525 649.057922 -307.355957
872.217041 599.920410 -446.995178
623.761047 471.962952 -595.983765
862.397400 569.594910 -451.729492
738.076416 534.730774 -459.642426
608.860962 638.854309 -323.189789
657.520752 698.673462 -214.845596
446.585876 537.297546 -441.302155
696.369751 439.836823 -555.297729
818.337646 480.735748 -465.348328
567.812561 566.005676 -415.923401
405.238159 578.657776 -431.030487
390.992981 529.488342 -513.649780
511.762177 617.292114 -341.232147
528.016541 563.961243 -403.236664
684.642395 680.911682 -225.433716
656.984314 561.215576 -447.937103
629.780884 659.429871 -235.965179
743.655945 657.851990 -263.024078
771.820068 459.929138 -499.034027
655.829651 595.947754 -377.325043
678.437866 725.510254 -180.079727
687.806091 700.318359 -215.914612
772.757446 606.995667 -354.088348
731.875793 614.065735 -357.998718
851.940674 584.220764 -423.733826
766.944214 574.209290 -418.692535
527.025391 447.525909 -596.412659
442.866699 538.622375 -466.861359
470.116791 516.489929 -497.227814
722.515686 613.035339 -332.980713
571.176453 519.656677 -465.367096
490.149780 601.713684 -364.650360
451.632568 569.816833 -430.901245
771.411804 674.301758 -246.543564
487.504852 513.654907 -525.372681
635.984314 643.411377 -300.122955
660.535583 680.304749 -232.312866
584.083008 585.211975 -404.697815
619.571472 513.472473 -519.738770
658.775635 543.517456 -453.252411
459.695770 490.760406 -545.023804
679.010254 573.806152 -403.323608
659.311462 639.807922 -320.474426
473.330017 537.272949 -465.409027
626.786194 650.863770 -290.922943
823.879944 639.813904 -295.152588
649.261108 511.605560 -483.590881
535.776855 594.743652 -399.779083
579.861755 469.851440 -565.109802
675.219238 573.806763 -427.455139
822.105896 570.799072 -467.651703
729.114075 707.363403 -206.165497
739.503662 426.222931 -505.798035
581.921936 596.348145 -372.423950
793.134888 566.435791 -456.656921
444.421448 516.754578 -530.331116
652.705017 585.493713 -394.489410
748.116821 513.968750 -504.517670
760.075989 572.098755 -419.291748
548.928406 646.020386 -296.365295
605.380676 616.504944 -310.359955
670.959412 607.177124 -340.627716
719.957581 535.100586 -492.406067
733.493591 689.402161 -229.553787
470.546997 499.831207 -531.448059
674.052917 586.143555 -407.581757
737.350342 682.715698 -238.444016
757.564453 495.072754 -515.474365
461.060028 515.283569 -523.497498
614.119263 630.309937 -321.507721
512.458435 575.605896 -406.911346
695.217834 565.200562 -420.619293
700.616821 621.463074 -333.102203
630.616150 487.944733 -551.444336
599.975281 634.261841 -300.156921
750.460571 646.323486 -236.967102
783.792908 631.548401 -307.520020
726.049866 574.397156 -388.444580
515.207764 601.735596 -357.911621
761.346497 600.180481 -369.362183
709.738281 676.278381 -216.973694
558.733459 594.009216 -378.369324
815.449707 608.652771 -346.910492
509.126007 586.459106 -386.936127
714.831360 474.540955 -560.815125
840.357849 590.988525 -462.899841
638.067200 619.693542 -298.965851
445.173615 480.459320 -554.872009
529.845642 536.042419 -463.046875
572.388123 491.130951 -542.948303
825.850769 640.497131 -277.477295
633.342102 689.562866 -240.377258
605.334045 508.978149 -503.881714
695.467041 573.042114 -415.566864
667.367065 626.094910 -324.858917
767.497803 536.802307 -485.014679
648.442200 592.689270 -390.245178
800.487915 480.747528 -479.684448
602.781006 540.079102 -459.337585
660.507813 590.879944 -368.466553
780.369080 460.425323 -498.688019
678.184448 533.947388 -465.962494
564.348877 601.557922 -377.518036
672.957397 596.955261 -367.669525
755.616272 621.369385 -317.782745
562.874573 543.223206 -450.183441
615.856750 570.074219 -409.805359
695.666992 513.539246 -487.792206
850.361023 599.745300 -387.673737
802.625488 660.444092 -274.506622
576.697449 483.558960 -538.796997
420.949585 539.896484 -490.571838
759.786499 615.400696 -292.376160
709.382446 654.204346 -295.438110
594.876404 499.130493 -512.659668
524.617126 550.932922 -450.184326
739.462830 531.360718 -510.701843
730.097412 656.444824 -281.538635
613.597351 563.929810 -441.104218
631.339722 686.960083 -219.268692
706.112671 568.479187 -407.904938
545.693604 529.206360 -505.443817
611.436829 593.382568 -398.876373
519.559814 595.575256 -369.466797
425.635284 509.204559 -516.798950
581.168823 489.344177 -535.962158
725.272827 678.987671 -250.551361
634.131592 686.952942 -242.861313
704.740845 667.330811 -269.311646
657.069092 485.740479 -535.098267
712.477051 592.727234 -367.876801
792.363220 655.622314 -277.951904
595.969360 678.680725 -246.749680
685.732788 659.841675 -286.793549
787.578735 470.194733 -489.977081
623.446899 469.536591 -586.589478
485.224945 459.990448 -585.622253
545.622437 608.507874 -350.622345
658.860901 500.367249 -503.146637
670.988708 618.541809 -327.341705
680.666199 530.749878 -463.298065
714.675781 465.904175 -545.171448
867.431824 591.218445 -428.403534
490.893036 579.307495 -401.778076
594.135254 654.169373 -296.343475
647.684204 616.840759 -306.994659
663.560669 640.396484 -315.918030
471.209839 496.246399 -529.748108
456.390198 594.539429 -407.667084
714.138245 607.385376 -350.827484
585.343384 487.074615 -546.777771
651.057007 711.058594 -208.713669
532.445679 530.844788 -481.623901
586.799133 647.016174 -283.620789
840.220581 548.030029 -450.475342
686.256470 533.158142 -482.018066
773.745239 640.700745 -280.492432
559.043701 493.105225 -536.067383
808.477661 619.375549 -327.696716
536.990601 574.024475 -410.666931
679.329407 478.974854 -598.670776
570.745422 620.512817 -357.558044
490.711945 574.644348 -404.234711
582.830261 562.949585 -440.392426
698.236023 647.990112 -287.553375
573.267944 570.604370 -382.958099
653.179749 665.143555 -247.470993
498.388306 550.673035 -442.772156
373.474335 566.980225 -448.890900
553.891907 567.046814 -422.504730
788.171021 616.823792 -334.916138
672.818665 664.796631 -215.817245
805.038086 496.105988 -478.799896
419.654419 549.347107 -450.210449
852.489380 597.030151 -405.872711
426.299927 553.417847 -449.825378
780.547302 583.494446 -405.020630
738.662231 532.804871 -503.427063
866.428284 609.660828 -346.974792
607.921631 695.146423 -233.805008
643.454895 630.081848 -321.872162
586.842529 467.200378 -581.477905
629.239319 654.099182 -287.005524
718.727600 647.558899 -280.878204
562.044006 573.686157 -401.422729
647.680908 667.077148 -222.964127
546.211304 613.641296 -368.114838
739.475098 640.878235 -288.830627
726.700806 513.069824 -539.826660
798.505676 630.775574 -318.511963
428.306000 575.870422 -431.960907
682.409668 582.754456 -382.038361
703.943970 441.411896 -546.975464
571.366943 601.918884 -384.108582
721.639648 672.005249 -255.219482
411.915955 586.067261 -401.194427
654.182922 522.372742 -478.563019
407.232178 566.105957 -427.368988
693.779968 434.928833 -556.734741
772.782776 511.366089 -498.749359
743.828491 496.801392 -530.180237
585.444824 495.323608 -542.530945
703.170349 480.852661 -548.767334
720.950378 509.846039 -504.903656
738.361389 691.895569 -214.749557
731.217773 599.512451 -380.518738
555.256592 628.399536 -346.223938
757.527527 628.250610 -307.223602
874.877197 574.449707 -429.513641
625.730164 638.955200 -320.103333
567.361816 579.360168 -399.950317
703.666809 522.807312 -493.200806
763.770813 478.984070 -507.939880
661.688049 562.073303 -425.736481
460.186798 623.300232 -356.822662
554.947998 522.412109 -457.310699
698.474792 618.371948 -288.334808
446.852142 575.515381 -430.466187
570.926514 462.310791 -610.200623
816.070007 604.442566 -353.437286
635.151245 665.979980 -218.369049
464.726074 527.838013 -501.549072
666.236572 680.090820 -245.190369
796.135681 624.059448 -326.039551
648.419739 657.845703 -291.888000
898.756897 620.776123 -409.266846
567.588318 455.082947 -612.731750
867.200745 578.708679 -458.818115
841.006592 637.423645 -297.262543
749.946777 627.884583 -328.578064
614.888367 552.460022 -434.349884
698.425232 674.155945 -257.419098
765.034546 505.849792 -496.019470
819.197510 558.323303 -450.280212
484.669739 490.800354 -534.516541
674.288879 532.167480 -483.665771
732.472290 573.485718 -413.721619
470.707642 605.446533 -358.208649
654.889893 558.794556 -432.885651
759.031616 639.018677 -302.463501
662.348022 561.111816 -432.835571
688.476013 723.170776 -179.835373
660.036682 696.411621 -217.424469
655.839844 657.764526 -287.608093
827.484131 608.739197 -343.821411
577.176453 624.412842 -350.994232
610.084167 650.018921 -292.656555
590.774658 639.695557 -321.190186
772.946838 597.999878 -343.398865
508.138641 582.758179 -390.424438
535.859985 560.119690 -450.064758
751.577087 589.637085 -377.292999
725.556580 609.336731 -347.160889
536.147339 542.709534 -441.937775
597.321045 649.497864 -309.951874
692.891113 554.156311 -449.815765
573.095520 622.628601 -341.128357
775.303406 547.319763 -454.721497
738.191101 636.342773 -272.660156
403.191223 511.089569 -475.318604
705.994202 631.096680 -308.873169
718.083679 709.954285 -194.935318
644.993347 518.416992 -507.265869
655.132874 688.179932 -208.627945
632.719482 522.877808 -468.011047
717.782654 528.291199 -525.044495
395.994965 532.450500 -464.301331
791.899475 523.095154 -486.058594
687.289246 702.789124 -174.059662
633.605835 581.512573 -408.832092
707.020569 638.310486 -295.657623
435.489105 498.589722 -532.680359
768.354431 558.495850 -445.592316
782.250427 577.507385 -378.542297
706.557129 700.932678 -196.539154
603.085999 564.588074 -406.197418
546.022461 449.023132 -594.193909
744.676147 640.721863 -247.665649
594.985962 588.637939 -375.544067
581.888672 586.414734 -390.200897
665.533203 656.438599 -267.182465
596.577881 601.823425 -366.754852
589.637329 479.112701 -532.890198
841.951111 594.515808 -485.936127
760.318787 479.586731 -510.955292
773.525391 592.120361 -360.536469
692.194092 618.921936 -330.655579
482.786407 517.375183 -511.431213
709.816467 607.563171 -343.122131
786.496582 609.940308 -344.387573
670.734619 512.014038 -513.153625
657.715820 573.466919 -402.307678
647.365784 690.485718 -225.209854
616.381409 673.614563 -248.757553
642.756592 673.629700 -233.632309
476.139099 559.489868 -429.736908
671.896912 695.202148 -208.329727
523.942444 472.698425 -582.706238
698.079285 568.593506 -408.028198
432.452240 589.569031 -390.172272
848.967896 600.665039 -390.487823
540.802063 553.318909 -460.498657
523.175964 553.006592 -442.431732
467.378052 538.514038 -465.430450
534.236816 628.305542 -347.366974
828.145386 603.535583 -354.204987
847.775146 630.587585 -286.124573
557.839783 482.447357 -568.328796
785.376526 508.130432 -503.178467
604.287964 534.967102 -470.169281
499.903778 532.091553 -483.182281
721.778320 589.942261 -380.886139
672.447876 564.673584 -421.876984
689.631348 697.018066 -222.013474
572.957886 522.824097 -505.585022
676.142273 585.333252 -382.269287
595.332947 461.840668 -628.891296
739.681458 574.516724 -398.461273
622.939148 563.736206 -436.629517
500.038239 528.354858 -489.569397
479.603088 580.727844 -398.159302
757.520020 587.430481 -362.759430
582.909790 632.293091 -338.435822
736.462463 637.312073 -308.169647
667.832764 642.193787 -312.081787
746.629883 521.104675 -509.998474
801.309570 633.029480 -314.895813
864.800842 601.878113 -404.707855
679.185303 597.495483 -361.803284
542.543457 544.059937 -475.210358
608.111084 605.285583 -357.993317
636.837708 558.563721 -416.472656
487.648041 544.286621 -436.888550
735.878662 663.983582 -267.930176
476.135681 498.175110 -551.651794
608.778015 508.437286 -476.432770
630.955078 659.639343 -252.300552
723.468689 636.483948 -306.990662
749.152161 631.030151 -319.894287
488.659851 464.595276 -576.775879
751.574768 483.817902 -516.717896
832.991882 584.020996 -346.231628
403.468109 508.532654 -510.905701
675.108521 618.807678 -341.576813
495.179962 570.241516 -375.427612
439.438324 573.703796 -397.282196
676.045166 713.557678 -181.758148
561.321838 658.553223 -287.141357
499.230133 499.805817 -521.314941
556.502380 631.967834 -290.851685
517.600830 548.010315 -475.360291
650.614929 633.605164 -307.079437
761.830078 626.527466 -299.620392
685.106018 633.728821 -279.283295
604.528442 655.414612 -282.942993
756.055908 622.802979 -340.959747
612.910400 637.002136 -326.064178
605.467712 562.743835 -392.036469
592.532593 653.604065 -272.945801
767.746582 580.122803 -388.443665
767.177734 560.906494 -400.107086
588.963440 675.543152 -256.694946
638.607910 626.901001 -313.327240
624.128418 599.676392 -388.241241
447.920868 521.392334 -509.739502
687.467346 524.976746 -451.281677
591.940063 677.802673 -254.664566
605.299133 655.195251 -261.604187
632.619995 592.685608 -342.107147
693.977356 558.214966 -423.927887
660.236938 640.692322 -285.625061
620.216858 595.025146 -373.458771
456.998688 595.088562 -374.426971
867.149597 570.899841 -449.221863
694.416077 609.192017 -346.020905
567.334167 490.042786 -515.561340
394.172882 552.096558 -469.867126
617.239197 475.341583 -539.075134
712.332764 630.765625 -323.894623
428.643799 520.380005 -471.590973
593.174194 602.038513 -331.328308
413.263885 514.023438 -494.456299
744.727112 681.438232 -234.817642
655.333618 575.862305 -421.650757
761.577148 545.953247 -446.455780
790.229370 509.508331 -475.656525
666.868713 563.275940 -435.085083
907.974365 621.762756 -408.652100
550.524536 504.433838 -482.425751
801.988831 456.377686 -455.414703
617.231567 491.139862 -542.672180
694.320374 486.948792 -562.677917
573.521362 559.602539 -423.129150
523.618591 565.814270 -407.751343
559.866028 641.174500 -295.882965
834.878052 631.309875 -313.389893
667.261230 647.125488 -253.424957
645.356506 696.065491 -225.811218
462.616333 601.942871 -346.017944
565.459290 481.544373 -568.788025
566.031433 564.037720 -416.774841
626.490967 500.217834 -532.671143
548.995605 629.750549 -308.835602
486.055756 536.796875 -463.034454
564.820496 489.566193 -555.008545
667.927917 572.893188 -429.108002
591.814270 591.589844 -399.152618
656.774719 609.105957 -368.305267
654.132690 634.651184 -307.128265
584.216980 656.037781 -271.611816
659.588501 493.251312 -618.537231
760.546936 461.917297 -521.446838
701.386719 692.933533 -206.397705
809.358276 584.814209 -345.221161
646.618469 485.921478 -604.155701
538.918823 532.748352 -442.821625
668.954346 662.775818 -275.866028
758.278015 593.864807 -384.259918
765.764282 478.262787 -506.284576
633.901062 521.936340 -501.730408
601.221008 520.070435 -483.585663
367.562378 547.453003 -475.172058
741.241577 545.831116 -462.933380
688.917908 632.672241 -326.241241
872.153259 584.976746 -366.391327
753.856506 462.198975 -497.723907
743.969482 486.558960 -511.230469
871.570374 581.127563 -435.634338
469.998657 590.437073 -374.600647
822.942627 574.827332 -416.595917
693.461426 454.229004 -569.815796
727.337769 675.312073 -256.721771
534.930847 631.594543 -308.316772
683.549255 712.767944 -164.992844
695.929932 647.720154 -292.219818
694.106567 573.551086 -415.780884
757.783752 649.084290 -302.187958
792.473267 601.946838 -371.668182
711.803650 649.768250 -285.982269
597.774414 527.134460 -473.810028
673.006897 584.549744 -378.300446
669.050720 653.637817 -282.144684
568.900024 513.915771 -495.992401
715.286255 586.447510 -378.889709
470.544891 488.919586 -558.724426
680.625854 606.340210 -308.432983
647.562317 579.585938 -412.450104
645.707336 648.958008 -261.258057
705.499084 698.028870 -188.990860
750.775696 448.906647 -519.247742
465.422607 569.460205 -439.238464
454.588837 599.199219 -391.319092
708.837463 604.934387 -352.092438
649.424316 538.786255 -482.894989
780.757263 639.770020 -310.501129
692.962891 508.687256 -499.006439
654.561279 688.021606 -196.088669
790.773743 574.779602 -374.019623
742.528320 652.244995 -288.369263
502.291809 490.127045 -543.295776
687.516052 594.289917 -336.000885
643.872314 596.189697 -386.431488
723.420410 691.656372 -224.943222
665.528809 685.292236 -199.786133
526.541016 514.115417 -520.484985
474.861053 544.615051 -473.046783
413.537811 523.275269 -481.392609
776.386780 642.342590 -248.636581
468.482910 602.164795 -362.149872
825.736755 528.818298 -474.650513
837.460144 595.150391 -366.116272
517.665588 613.176331 -341.840820
505.584717 611.093506 -376.652893
685.638855 441.811890 -561.169678
694.149048 696.102112 -212.950333
803.507263 641.561584 -297.341492
693.344299 663.407104 -265.529114
712.259094 478.027527 -555.411377
566.422241 446.608551 -634.966919
644.833740 649.404602 -289.860779
596.558594 546.039124 -433.843445
892.122559 621.296631 -349.187622
759.701355 539.714661 -492.421112
446.077393 546.994263 -448.183228
689.057068 607.912170 -314.185730
671.302734 574.695313 -417.715759
821.942566 644.221436 -298.532684
789.613281 500.407074 -486.168427
506.291229 447.560577 -608.540771
828.534729 602.623840 -358.643066
635.052063 575.036987 -400.426422
542.409241 606.398621 -360.934845
694.446106 726.031006 -156.474075
728.597900 507.157928 -497.101776
650.734802 524.589478 -482.745636
681.764343 510.478485 -498.590454
378.103027 538.250916 -461.815613
734.687866 612.784058 -337.216919
882.719482 596.104431 -446.740173
576.439697 574.887512 -398.217224
772.312683 647.627319 -275.730621
567.548889 585.892639 -390.910919
876.969910 576.260193 -424.010468
567.272461 512.566650 -520.989929
693.044373 621.140930 -325.774567
656.281555 500.832825 -509.784149
850.312744 580.195740 -432.546387
542.785339 600.605896 -386.487213
715.942810 647.570984 -299.471771
554.154785 649.443909 -291.020721
692.232849 517.198242 -489.268433
586.271545 482.199677 -568.839417
728.513000 455.534607 -543.687439
466.493225 545.246033 -453.001953
765.732361 523.093933 -507.022919
507.504578 520.800720 -488.080536
647.438171 688.447327 -229.489197
701.307861 663.712219 -280.023285
750.357971 624.200195 -324.431000
533.225708 507.264191 -519.870911
685.399292 616.722778 -333.553223
738.539612 648.584473 -276.387146
812.640503 496.177704 -474.645538
460.143433 581.143860 -401.126495
582.960388 609.720032 -371.486633
450.424438 477.295410 -558.374695
568.494812 482.054565 -543.445251
790.115540 539.422852 -481.419678
477.951721 597.892578 -374.309052
613.950684 686.145264 -233.259415
717.938843 631.979309 -324.268036
766.344727 704.024109 -197.593246
461.230713 605.657837 -362.132019
758.092773 674.931091 -214.982391
618.135193 514.319580 -513.264160
732.824036 574.301392 -397.301331
797.068237 481.404175 -479.401886
471.062073 566.422546 -419.577728
600.065796 531.339111 -488.861267
431.952850 562.319580 -458.127594
723.055664 566.217712 -424.256775
701.531372 560.690308 -442.309692
507.995361 617.345398 -317.736511
567.270996 634.469177 -308.253632
451.554321 542.972961 -482.880707
553.161560 613.102600 -344.042542
718.732727 610.295654 -356.680573
777.624268 666.909668 -251.890121
676.030090 638.823914 -315.955688
825.676941 628.213257 -315.601563
640.855042 483.891388 -616.400696
439.646515 572.093628 -409.957916
640.794556 674.414978 -263.041504
760.232849 655.625549 -263.560944
744.720642 662.178284 -269.760529
613.211182 528.878723 -500.634186
689.391113 697.882507 -210.542877
586.886780 633.825134 -333.426880
879.509949 575.947693 -414.673431
833.255432 599.919678 -369.291748
720.968201 656.459839 -264.277527
755.715942 659.567078 -285.288116
716.902588 541.822571 -474.386871
769.452881 592.398438 -353.086426
427.312164 525.328613 -516.328369
725.715149 493.056641 -537.698425
737.846863 687.929321 -232.381760
556.584961 479.697266 -577.483276
664.955688 597.330139 -359.923279
653.887329 509.964264 -507.285980
716.741272 549.872498 -454.864227
568.828430 587.697632 -355.810425
688.906677 569.483643 -423.732605
849.612976 631.270874 -315.190308
678.945129 644.925537 -275.971436
643.963257 554.248352 -458.995575
682.653748 593.683777 -371.699249
422.236237 504.444824 -509.778809
575.817383 606.513550 -348.270813
504.803772 616.417419 -343.859833
429.427551 572.554321 -435.317444
470.011566 528.655884 -476.790405
564.724304 444.946533 -612.553955
804.165527 498.153076 -477.307098
783.423645 470.195679 -470.079132
731.072388 528.991089 -482.520172
718.831360 690.062866 -227.775909
659.427795 551.228333 -438.236053
852.194885 657.135437 -277.491791
761.239258 531.160645 -496.584930
630.155396 593.140930 -398.285980
696.035828 613.825867 -354.246735
733.970642 499.523376 -524.028259
742.676758 673.052429 -250.904221
751.619812 511.292206 -488.266663
773.284729 597.334167 -382.508942
431.715973 499.163666 -524.408325
490.276001 528.333313 -511.703949
815.551636 490.337097 -468.908295
456.200104 580.874939 -399.536255
534.686218 526.717529 -478.631317
579.544861 543.514526 -455.974945
480.836853 590.069336 -360.224426
781.710693 614.546570 -292.641418
742.252991 625.714966 -333.177063
705.072083 638.251160 -315.986115
684.784485 662.311707 -245.550186
769.775452 667.601807 -260.092743
804.848450 585.851074 -343.862762
702.004517 568.268860 -400.644379
469.740570 489.438110 -563.681824
707.098328 688.275757 -214.547272
858.282349 593.322693 -364.202148
546.557068 478.926117 -569.772339
400.539581 506.841217 -490.285706
806.037720 586.114563 -377.679962
530.056885 493.132172 -562.618408
711.928284 557.959106 -427.127808
580.505737 643.999695 -282.417633
460.477478 580.406555 -422.240417
583.050537 658.765442 -273.673645
775.316895 516.387939 -497.155396
873.566162 600.032837 -376.793640
653.983093 485.929016 -579.536011
789.406921 488.206238 -491.727936
717.478088 596.743347 -331.446808
542.947571 597.186340 -385.623138
857.613525 563.759460 -459.431305
777.871399 545.955933 -479.412018
687.249451 616.940613 -340.647430
655.587402 710.048035 -202.156250
581.515076 655.916077 -273.088806
778.716003 554.250610 -471.426636
793.806274 476.913055 -484.165436
572.944458 618.306458 -310.040619
503.103638 485.330109 -546.208008
692.353638 578.312317 -419.100037
582.667603 590.213013 -406.117310
559.456238 486.671051 -536.443481
852.361145 561.059570 -448.459137
567.694641 608.105591 -322.352112
766.637939 470.686218 -515.104370
476.610504 492.074554 -557.147156
694.835388 519.677490 -526.874390
613.914490 488.257233 -532.264771
701.341614 515.980408 -539.199158
770.561401 528.023926 -495.036957
729.291382 592.019104 -384.247742
457.319458 550.804565 -427.175171
592.749207 555.074768 -456.092896
748.602478 653.497681 -286.249695
536.270996 452.255432 -568.011169
750.782654 682.753845 -235.414001
764.913818 467.422424 -512.961060
543.770264 466.939056 -561.725830
670.291748 569.525208 -413.444794
815.292358 504.135101 -465.043640
768.830505 445.083557 -477.736633
510.164276 467.142578 -565.797424
802.933655 464.147064 -449.713165
588.501831 562.525269 -417.906464
447.443726 525.073059 -460.835571
410.310120 531.777893 -507.054443
596.447205 634.162903 -300.891479
724.672241 527.649963 -486.202759
607.714905 520.873230 -505.541443
507.393585 604.729736 -356.421356
469.726837 563.703796 -453.905121
392.484161 570.347412 -429.584076
587.143188 523.047424 -511.995117
696.849426 660.218140 -278.002777
370.580536 549.013000 -504.054993
516.017761 509.703766 -530.216125
614.962708 472.425354 -613.659973
520.709412 491.832275 -513.022522
683.987915 509.047028 -586.471741
633.678772 624.101135 -329.422028
564.930786 556.190369 -452.303711
693.086121 694.127747 -228.766922
687.106445 650.269409 -298.894745
756.032532 434.850189 -492.364380
651.130493 523.262939 -491.765656
709.643799 433.535248 -540.241699
617.458496 638.993774 -299.614441
633.223755 652.436035 -277.067169
796.453979 453.814148 -459.798828
667.176453 542.448853 -468.799164
470.351654 592.588745 -375.280945
586.169189 589.765747 -377.506653
486.813477 525.133301 -483.017120
543.961670 640.927856 -320.708282
536.134644 563.552429 -443.249359
761.234253 620.295471 -331.424774
805.846680 606.227905 -367.465149
833.716125 521.327087 -464.507843
698.375061 692.949158 -196.290878
597.395569 663.626892 -281.861908
792.090271 602.792664 -352.520020
594.989441 624.300537 -348.344940
794.708191 628.489624 -330.224731
751.518982 610.514771 -351.412628
718.179626 492.970367 -541.086792
565.701233 614.946777 -348.050690
667.121094 499.529419 -545.249023
536.911072 550.774353 -439.252991
482.467987 547.295898 -427.197968
727.552856 689.927612 -227.443604
542.759888 626.273926 -322.189972
465.139771 558.951416 -407.456116
640.009460 493.072357 -505.352844
740.960876 522.539429 -504.613892
579.187988 486.930634 -554.932739
624.412659 648.759705 -296.046448
761.246155 667.110046 -244.839996
678.179016 482.734161 -607.887817
369.087036 557.797791 -481.931427
679.557922 633.918579 -305.494995
818.350220 600.345398 -363.706696
721.302856 449.294861 -529.255981
443.597260 491.569519 -559.914490
538.599426 608.545105 -358.349762
628.223206 589.300354 -396.042419
810.777771 570.959290 -423.016144
547.454773 457.302246 -587.565186
437.339325 519.963989 -511.404175
583.200806 570.685608 -412.858154
648.493103 702.276978 -201.073807
531.302185 553.701294 -403.791168
649.662537 572.403564 -409.184204
535.057922 486.570221 -520.323853
471.794525 563.540466 -446.487305
601.577087 507.518921 -530.838928
569.609985 483.042847 -574.891663
705.642273 664.852295 -268.468384
648.214844 511.053284 -492.623322
599.723938 611.297424 -349.287659
681.019226 553.409729 -430.677673
827.998535 614.527283 -337.166718
647.182617 591.309998 -397.295166
704.930054 549.816345 -453.886139
587.557068 577.892395 -420.402802
834.742310 550.054382 -458.829773
503.039917 584.147217 -387.101624
466.716400 486.271484 -552.164551
647.881653 498.527466 -535.888245
807.879578 659.120056 -256.778198
833.863953 495.226318 -451.902130
660.800171 642.034180 -313.013092
784.198120 500.439056 -469.484436
566.589478 586.479187 -387.195526
630.668518 647.324646 -282.654358
809.916016 588.729126 -366.886780
541.639038 504.425262 -534.097229
682.158875 440.726624 -564.961792
618.911804 637.760254 -300.373962
406.818329 583.338318 -401.974457
680.318359 520.808289 -458.096771
484.409149 580.857422 -402.135864
826.314453 572.881165 -404.698792
640.275330 538.810059 -453.496643
810.154663 577.828918 -444.373657
408.711426 566.988892 -443.464020
844.277588 602.042664 -374.204651
752.904541 615.552185 -301.228821
767.703369 524.758606 -499.027435
339.405701 560.827637 -459.796173
738.798340 611.700623 -336.198273
534.642029 524.130981 -489.599121
578.102905 619.795044 -353.502777
905.422302 611.951782 -396.245605
392.761261 516.352844 -507.933075
719.336426 458.829376 -543.040649
635.076904 657.172791 -290.275482
723.871887 661.924927 -272.987823
784.420532 594.330811 -362.302338
539.865662 484.805573 -522.809082
612.021057 603.122314 -361.040771
641.630554 686.947632 -233.221756
689.937256 478.399384 -578.858887
733.965515 644.490540 -307.100098
461.654999 542.507690 -455.211884
398.311646 558.290100 -464.514832
660.301392 638.361084 -319.153534
671.961487 601.327698 -374.836670
846.702087 558.831116 -459.735657
674.712830 603.911133 -355.607178
470.289124 589.633118 -412.274933
791.222046 646.559937 -305.609528
918.115662 634.632507 -353.609009
797.523071 630.736511 -299.637329
649.352112 546.305237 -415.776550
817.088196 555.724670 -447.176270
722.069519 651.941956 -289.570648
632.486938 542.362183 -453.143188
694.045959 541.379456 -469.502808
364.316589 540.332336 -465.187958
745.873718 685.435425 -229.142487
690.379211 694.454346 -217.838516
623.641235 627.485229 -287.870789
605.924866 608.633362 -356.837860
689.497131 502.386414 -557.531189
577.100586 469.691467 -563.054810
727.570496 643.218262 -308.492004
880.360413 629.889099 -328.885773
525.791077 572.171814 -405.668182
700.349304 641.071838 -311.332733
822.104553 609.343445 -349.275513
625.803711 641.372253 -317.840057
412.926086 539.386169 -467.617981
747.707764 608.574341 -331.648315
623.200989 626.162415 -341.717377
560.960022 448.412109 -570.583923
416.280151 579.833496 -403.416748
612.215881 574.352234 -401.437103
589.352844 587.906311 -353.987701
905.761108 623.224976 -384.416138
813.396118 509.313721 -467.539154
660.747803 555.909912 -427.543518
598.375610 463.112213 -577.751831
480.727875 614.259399 -366.539673
692.489319 643.095337 -288.878815
601.363159 507.593292 -502.091309
645.744324 670.644958 -210.708237
422.596436 528.348083 -452.911560
796.387939 556.107178 -446.882538
481.374298 583.767456 -421.576019
562.011475 494.637482 -497.230194
717.847290 691.406250 -217.033752
782.687134 578.857422 -405.721649
799.057922 639.075989 -277.715149
885.936401 596.898621 -441.258301
802.682678 661.894714 -266.361969
640.350464 511.986633 -492.275757
462.895050 575.764343 -382.865784
871.454407 627.147583 -316.699860
577.549011 469.578552 -586.274841
741.388123 443.533691 -528.450928
673.404297 579.057861 -409.429718
729.814514 610.073303 -357.903717
534.886475 575.080811 -410.927856
775.685242 642.621826 -312.818359
476.257538 476.534271 -521.682861
741.698730 456.573090 -508.104553
494.198730 583.598022 -389.862030
464.482941 610.414917 -353.383453
540.578369 565.134094 -424.861755
546.513000 467.840759 -594.167725
683.311218 481.551331 -591.436157
713.848755 649.378540 -276.939178
675.357666 584.114502 -386.323578
766.276245 687.472778 -197.744705
451.556244 564.112976 -426.409454
643.473083 587.411743 -406.873322
833.226257 608.976929 -359.793030
615.038269 653.881775 -298.893280
799.847900 474.741241 -465.691376
657.235352 626.466370 -319.953705
728.488770 567.279968 -413.737793
646.572754 483.897797 -525.737427
699.014282 614.544800 -356.468384
726.297546 697.990479 -177.245148
839.497559 611.503357 -342.941132
588.895630 469.958893 -586.898682
495.811798 543.969910 -452.941498
368.595367 538.349670 -484.822388
838.403442 624.190002 -311.709015
749.901001 587.563293 -378.372498
667.342651 559.296753 -441.723938
844.300049 545.981689 -457.112518
654.882019 558.251892 -417.418732
576.799561 660.394775 -270.393188
416.007690 498.766754 -553.852905
577.104126 557.849121 -415.617188
539.610413 592.610840 -402.668427
686.524597 559.165039 -393.642761
702.082825 465.209534 -576.828369
514.965271 635.629272 -311.036957
390.404694 509.614746 -477.053741
542.922363 477.098572 -553.927734
669.362915 531.748962 -463.737671
797.666260 538.245178 -492.068634
416.352905 549.053650 -458.578186
750.072388 579.421326 -392.033447
817.435730 483.326843 -449.197296
806.212524 520.323608 -461.072784
611.510132 641.968689 -274.199158
707.273865 680.296570 -246.010223
563.845459 629.834900 -327.924713
496.962341 550.348877 -444.593903
826.440063 567.406982 -438.312164
714.772217 447.827271 -558.375977
375.595184 524.494873 -479.072449
652.739258 618.541199 -327.463745
654.530396 648.538940 -304.649963
581.520874 556.366760 -417.953888
758.552002 488.480011 -492.206696
661.302917 502.558289 -578.783936
617.693054 629.366516 -324.432953
529.527954 588.150696 -376.779114
621.421509 618.727905 -355.245819
573.621643 529.234497 -480.864075
619.064697 614.165955 -340.299469
674.262939 509.034973 -499.571899
851.066711 644.351440 -291.250549
691.556885 600.271545 -374.649200
559.737427 505.885773 -508.460083
586.436768 576.753784 -403.153198
873.905029 605.344482 -363.400391
820.239197 616.453369 -339.549255
642.752014 497.545502 -520.931885
736.986389 637.316589 -313.645874
626.763000 565.577148 -433.643433
676.263428 610.860413 -309.898865
798.771667 457.147583 -464.746643
562.732605 608.475342 -356.629883
620.733215 470.297180 -602.143250
553.262939 453.446960 -587.912048
740.040771 441.854492 -527.555298
605.389282 469.158966 -561.910278
819.774353 516.663147 -474.177490
589.766113 571.991089 -379.650848
914.407898 632.158142 -416.611267
524.388550 625.789795 -322.299561
671.494446 599.791016 -356.411285
808.704895 577.634583 -425.356659
755.901794 604.742126 -349.401978
831.283508 591.456543 -397.691589
613.769226 671.202148 -246.019745
597.344604 662.056213 -278.697388
566.261597 455.973785 -628.649231
443.484039 592.545227 -354.507385
666.489868 654.471802 -261.278809
502.279510 583.398926 -420.633453
826.104858 524.438782 -466.272278
738.118164 674.760620 -247.838715
804.826416 485.134705 -461.216736
505.263641 509.047333 -533.122620
838.197266 516.319519 -459.514008
622.995239 592.350464 -400.093384
542.543762 621.710815 -327.834290
791.771851 655.251770 -283.878265
614.701965 642.787659 -315.543365
575.216003 486.093658 -535.942017
832.311279 536.238770 -460.121246
722.180298 720.952271 -169.920441
509.175903 589.075317 -353.008606
799.639160 582.338318 -424.722931
806.358093 584.792175 -391.115692
482.977783 594.588074 -389.725830
601.350891 639.784180 -278.402374
552.566284 600.414856 -389.301971
762.363342 657.897583 -275.817383
609.513062 650.146667 -270.510712
709.772644 660.440247 -284.812927
433.268616 570.516785 -413.424866
497.687164 521.232788 -512.979675
541.383789 525.967224 -483.351593
688.107300 686.173096 -226.050049
779.525391 653.609924 -258.586853
824.597229 561.376831 -459.666901
610.727112 574.272461 -425.623596
681.726013 474.103333 -571.861084
514.450439 557.337463 -419.245026
573.737244 623.112061 -349.973694
592.195007 475.610321 -572.877441
740.112976 690.485229 -220.179321
642.029419 609.625671 -314.444244
800.198181 607.426392 -345.517059
522.818726 550.501282 -465.908875
647.930359 600.895813 -352.620880
403.480347 516.083496 -521.562073
687.291199 554.551636 -446.823517
507.715179 584.467224 -406.439087
784.388184 456.426178 -485.360474
