ply
format ascii 1.0
element vertex 1405
property float x
property float y
property float z
end_header
-838.197266 -78.048676 436.915436
-807.009583 11.663528 660.304993
-762.380920 -122.616676 498.743195
-642.709473 -136.267227 617.137268
-883.484863 67.467178 571.229065
-645.668091 -102.668976 656.439575
-735.629700 -165.228485 447.687134
-718.266724 -199.333817 399.459381
-879.804626 13.472526 456.960602
-775.051636 -86.559517 537.376282
-665.523743 -16.992043 785.983521
-627.881836 -66.781013 732.233154
-739.380615 31.856474 780.648132
-800.673889 -138.657471 402.977264
-738.153381 -141.162430 445.813354
-798.882996 -26.726931 605.591919
-777.714539 -124.151688 475.812134
-631.549622 -228.574554 497.428772
-801.671814 -167.510223 381.144104
-738.172668 -97.166748 579.348816
-887.694275 65.529213 669.085815
-785.228027 -39.184139 588.241699
-751.757141 -87.301231 573.529358
-816.252197 96.779724 773.768433
-668.497986 -216.745224 469.139099
-786.935608 -82.017166 501.539368
-849.655029 -24.836180 563.198547
-817.624695 13.324544 620.546143
-702.084106 -27.067661 719.454834
-602.928894 -123.971840 683.226074
-875.467896 19.354530 564.814575
-702.851257 -168.916321 494.541687
-616.713196 -144.070602 618.610718
-758.746277 -93.861313 529.849792
-884.488098 82.879257 707.043945
-742.153931 -27.463921 682.089172
-855.403503 70.030952 689.446838
-592.476318 -67.249443 748.037781
-776.234802 -81.827232 482.529663
-834.855835 -100.071251 439.367462
-780.252258 -128.140244 471.451630
-725.528137 24.086594 781.484802
-788.096680 -40.708977 558.635071
-748.215881 -83.573044 517.844421
-600.696960 -97.805298 717.039246
-630.093628 -49.136719 740.505554
-892.339417 20.391718 491.449402
-768.721252 46.137741 750.338440
-622.512451 -262.922333 425.851440
-880.410461 6.317723 607.046326
-879.307983 67.002373 560.996033
-603.635071 -69.557480 784.802307
-844.705444 12.575073 633.293640
-659.346436 -191.865524 519.362305
-890.661133 -19.977171 494.981384
-668.901855 -53.497883 714.183960
-737.589294 -123.670860 502.969208
-689.549438 -183.628372 441.777771
-680.460571 -97.561569 625.920532
-773.956787 -34.726864 601.998169
-672.068298 -6.948893 776.181213
-712.504333 -25.526661 700.239319
-682.915527 -140.815018 551.484680
-770.085938 -34.680958 637.283630
-862.208313 80.993492 563.294434
-681.866699 -14.104321 780.016052
-900.180420 -12.281378 525.722046
-615.432434 -217.878403 538.086243
-709.862976 -204.334076 439.962372
-888.227356 9.814108 464.031219
-773.027222 -24.919558 627.410156
-642.184998 -222.258804 508.698090
-869.983521 48.014915 480.093353
-626.335754 -90.563911 696.650024
-744.801270 -104.444885 548.545593
-694.316895 -80.964691 649.771423
-807.950256 92.208763 770.969238
-769.342285 54.768040 773.611389
-793.466797 21.276831 674.554626
-847.294189 36.953899 613.551331
-684.274780 -188.419968 459.460236
-648.179443 -252.416031 389.567169
-803.864258 25.105127 669.909058
-823.158997 -23.771589 550.171204
-702.257385 -242.534592 392.271332
-630.802002 -236.425613 488.545776
-654.968628 -75.609505 692.287720
-780.600159 58.838821 774.300598
-769.760254 45.799164 757.365845
-805.830322 -132.460312 416.726532
-706.317871 -35.687611 712.675110
-647.580078 -201.682526 466.575012
-640.273438 -279.994385 416.873016
-696.147217 -168.841370 458.125214
-640.918152 -159.721588 584.677551
-905.068298 51.686943 687.384460
-737.472534 -37.776779 644.818298
-658.752319 -135.851929 580.314453
-841.474609 -98.841644 392.294464
-844.912109 -131.047684 374.289307
-656.804321 -74.760796 711.100098
-647.011780 -117.097389 645.703857
-656.183350 -35.111801 779.170959
-762.841614 -144.492203 457.297760
-789.467407 43.376953 717.500488
-594.475464 -62.279594 797.592773
-617.105347 -69.911049 753.711609
-790.143494 -41.146095 593.403931
-634.029175 -273.606018 421.652710
-781.606934 -17.351809 631.441223
-897.250854 10.374171 466.974915
-747.322327 -178.370941 387.128143
-682.370850 24.057827 822.567749
-881.015442 35.518127 647.349609
-661.754211 -270.299896 390.318695
-747.433594 -153.076294 436.638184
-619.038147 -85.422691 711.928223
-869.726563 45.435974 537.007935
-659.163147 -27.251209 726.492249
-787.229980 60.424248 755.507751
-789.668518 53.837227 755.620361
-838.775330 9.304172 595.826111
-873.382629 -7.152502 564.746460
-757.688416 48.197262 774.425049
-861.062073 68.901161 482.856781
-631.491272 -75.081474 740.381104
-624.121765 -207.716202 517.534973
-598.600403 -35.265144 803.185059
-692.407288 -96.419930 607.371033
-673.416199 -56.293011 709.082275
-660.686462 -260.540649 406.880890
-653.672302 -111.241600 632.713989
-624.679382 -47.166946 771.510864
-626.111877 -168.271545 566.367859
-812.438171 -78.114616 448.889038
-734.962280 -1.276780 739.611572
-718.230591 -194.179428 409.607086
-607.933167 -34.016544 797.090210
-759.485474 24.225674 727.237854
-708.208252 -185.627762 429.845428
-771.539368 38.256355 754.623108
-589.958252 -98.501892 748.855713
-617.527710 -120.403999 682.021240
-825.302917 -82.006523 418.757690
-670.464172 -193.552643 509.323975
-709.453674 -24.530659 729.878540
-612.812927 -45.891575 801.976868
-693.585144 -17.639154 747.743225
-651.602173 -168.884064 567.249756
-649.693787 -206.105026 509.192352
-871.398193 42.099400 649.675842
-696.569397 -161.281738 525.354980
-682.481262 -112.153534 591.735474
-706.111755 -91.730919 601.221191
-631.517395 -65.356636 742.342285
-769.002930 -100.353043 477.816833
-883.240784 88.947845 603.507019
-784.160461 55.012737 713.057007
-887.413330 73.433350 573.765991
-831.143433 -146.930145 371.402802
-830.461365 -103.677719 399.985901
-772.157288 -110.579300 509.200256
-702.204041 -138.991837 554.356567
-876.383606 65.185188 499.854889
-817.157043 52.011539 692.354797
-717.724426 -236.715332 375.676514
-687.593079 20.319563 811.427979
-821.979431 27.102270 672.184753
-658.225891 -96.150658 678.391479
-688.845581 -24.855843 745.723877
-806.008972 -142.613129 372.035339
-754.585388 21.486605 706.233093
-717.244690 -212.934357 404.310822
-890.373779 20.945879 509.977722
-833.417419 -110.274910 426.016968
-714.069946 -87.361839 558.268372
-616.870850 -29.178146 816.075134
-714.596130 -208.916626 427.574249
-619.380737 -197.298019 533.682678
-620.398438 -17.507929 810.390503
-683.959290 -22.121580 753.106812
-653.753784 -270.971344 422.586334
-655.742310 -187.077835 480.524200
-639.281067 -244.982956 420.190186
-734.136230 -120.787567 493.897797
-764.095886 -9.861398 660.801697
-675.013794 -1.046727 805.892029
-725.952271 -95.543739 547.627563
-717.179016 34.924576 796.979614
-623.685974 -177.926392 555.301270
-656.781189 -196.784256 514.367249
-825.428223 -121.191139 365.545319
-642.472229 -63.932228 753.252686
-586.636963 -55.642258 810.944336
-615.460693 -26.368555 819.934204
-603.161377 -129.815659 673.141357
-675.881653 -13.217718 784.353333
-696.377930 -146.303558 552.008911
-811.887207 -90.200928 494.106537
-679.016052 -200.200363 457.043365
-822.549438 -84.537720 429.141571
-758.763245 -148.005905 467.383820
-662.310791 -198.386414 472.713318
-685.953918 -139.509689 494.434601
-633.878906 -95.905045 711.243774
-659.969482 -37.506954 770.427795
-701.475769 -56.379375 686.577332
-615.060852 -116.598457 690.831848
-599.567993 -54.962128 832.064148
-717.165283 -118.664223 542.134644
-784.091858 -79.096779 517.531372
-883.643188 46.706406 565.609619
-913.815308 -71.543716 451.481628
-643.834717 -56.927204 725.609924
-839.650574 -22.089462 516.492432
-789.809998 -14.491954 603.526428
-776.842285 -126.665260 441.715302
-808.628906 -15.859259 606.107239
-910.930481 -31.979177 475.721588
-613.677429 -39.511543 820.735779
-823.188110 -17.539026 590.653015
-886.056030 8.348874 537.847839
-650.590576 -265.684998 431.252686
-597.821594 -125.413132 676.171021
-799.665100 -88.413399 512.726318
-735.173645 47.293446 743.038147
-764.230835 -83.139343 543.022644
-613.868896 -172.873505 593.181763
-895.228516 1.233243 511.461456
-702.085632 -143.397629 544.066040
-628.295837 -154.241379 586.092224
-721.868347 -102.706284 580.285828
-819.834351 -161.621567 365.823151
-806.036560 17.641562 650.499084
-707.577148 -62.382023 645.834839
-880.401611 4.779265 495.507538
-664.295410 -80.015465 634.849854
-605.835876 -157.133987 640.491699
-802.294922 -56.990578 495.060120
-684.033264 -146.315933 509.689728
-800.365234 -80.692757 513.587952
-632.249573 -238.270370 490.584290
-842.582397 -78.031601 454.141571
-735.041016 -74.142029 621.044189
-831.434326 -47.867916 537.187561
-649.366638 -146.409897 577.795410
-721.928223 -207.186951 416.735779
-756.321594 -85.996826 551.422607
-837.279724 25.611660 641.745667
-619.562683 -131.127548 652.081665
-623.703796 -272.456207 432.052155
-844.412659 -46.848679 502.822845
-652.098389 -138.515228 591.863098
-891.056580 -3.920179 523.143250
-632.190979 -167.733841 575.581787
-692.936890 -156.963165 484.736603
-905.783386 52.814697 647.766174
-897.768860 -43.808567 489.065918
-777.870789 72.109123 795.184509
-646.674744 -31.069788 784.730408
-683.981934 -184.670013 467.949158
-715.742737 -93.216179 578.181030
-807.748718 29.181458 657.489746
-658.979553 -255.514404 399.296631
-766.751221 -59.856503 578.382813
-683.644714 -191.943497 453.923889
-671.371033 -231.646820 404.063354
-754.850586 14.467009 721.843628
-717.190491 5.039579 704.985901
-729.486633 -147.871704 445.771820
-657.109924 -29.614220 712.105164
-865.490540 -87.642342 425.869293
-696.948975 -115.103294 574.036621
-843.264282 35.236435 649.694458
-827.939941 71.044815 720.236389
-639.257141 -83.086067 708.001953
-889.540039 -13.962904 477.628784
-838.002258 -116.672859 382.785736
-704.541931 -89.928749 595.719299
-697.848511 -169.971451 508.959137
-750.177612 -0.895228 713.289612
-623.077881 -156.564804 620.770020
-810.865356 45.936069 712.717651
-638.564697 -181.847244 533.389832
-769.311768 36.857895 734.944092
-754.574341 -177.192535 428.719177
-878.888184 67.515038 642.372620
-646.751465 -146.238876 608.874756
-837.916626 -29.238293 551.538025
-724.686707 23.573189 786.149475
-873.867310 -76.357681 436.555725
-827.041565 -59.076969 511.845703
-798.337097 -153.816467 408.397522
-622.891113 -122.445000 648.893066
-744.283386 -47.542175 614.187988
-800.054199 -108.997734 436.775848
-751.710938 -93.999451 567.430359
-664.819824 -151.539703 524.804321
-692.576233 -26.266617 742.063904
-744.889343 18.696384 743.352905
-607.650513 -169.101212 603.978333
-725.349976 -81.345795 576.268982
-656.028687 -211.226837 492.923065
-730.310486 9.892555 719.272217
-752.358398 -72.000999 591.652161
-614.270996 -105.986832 680.206482
-695.229431 -174.961227 503.854034
-877.392395 -79.290283 419.946350
-796.364014 -60.378292 524.590576
-884.567871 37.375408 578.739441
-682.701172 -27.758242 731.344055
-627.081421 -66.322952 749.180786
-872.377625 60.318981 495.120636
-662.878784 -32.727741 747.116272
-613.668884 -81.174957 747.257751
-723.856567 14.462531 713.619446
-621.168518 -119.983582 671.512390
-638.245361 -201.073563 503.605896
-775.615845 -115.821526 488.488983
-672.823242 -211.129623 399.188751
-602.512512 -146.762878 638.886902
-765.303345 -57.074493 572.520630
-736.818787 -169.918198 418.305939
-818.431152 -45.396851 551.287781
-871.714966 46.190598 619.576111
-682.496277 -224.253799 433.286407
-854.963562 -17.043018 571.521851
-603.737793 -34.395123 809.563416
-903.935852 76.208206 786.180969
-656.650635 -251.403793 386.584137
-882.701355 -12.727735 537.210144
-841.226624 47.014389 656.222717
-669.834290 2.467370 812.779541
-779.795227 -71.536919 537.383484
-665.268494 -125.850937 598.430664
-733.311768 -59.212929 637.768799
-700.479065 -116.803589 590.129883
-802.201233 -76.393860 494.576447
-686.108093 -105.957039 610.586548
-897.749084 75.333839 648.607666
-688.756348 -200.944473 438.793549
-703.026794 -118.102699 566.475403
-606.583801 -68.932266 783.830383
-799.049500 -129.359756 378.510590
-631.824890 -66.835976 719.462524
-752.020081 19.658894 735.934143
-639.334900 -176.399002 548.061096
-851.579102 -99.860321 402.687225
-684.191467 -142.473312 537.268311
-686.146118 -178.992935 504.455017
-791.376404 -163.273590 363.447632
-817.192017 -74.541367 485.880096
-796.240967 77.291542 766.672974
-838.490601 67.155174 735.628601
-771.542480 -42.074631 596.332581
-837.639709 56.212280 682.507507
-737.581116 4.186829 725.284302
-819.582031 39.438740 672.501160
-796.268799 51.764271 717.240173
-736.523376 -41.808075 651.243896
-698.690613 -90.813843 620.504578
-587.800537 -86.026749 730.300659
-777.201050 -30.030054 606.740784
-804.636353 -44.066471 552.186096
-829.055786 -109.944862 438.892090
-740.900635 26.907366 752.356628
-695.713440 -15.002093 754.094849
-590.553711 -98.184883 708.669373
-895.429993 -21.923063 506.053558
-752.516357 -119.877975 483.910950
-774.497192 -57.031658 566.710327
-654.349609 -109.793335 659.205200
-874.103638 63.977661 620.452454
-671.922363 -148.520142 533.693420
-757.568237 -73.557541 566.467163
-813.790833 35.240685 640.625061
-629.674072 -212.122864 463.134491
-683.619568 -160.864777 512.148621
-795.571411 -108.494553 454.823914
-876.651062 -1.711547 577.198608
-608.529236 -105.867043 717.178284
-639.644714 -191.304703 498.356873
-666.564941 -91.484993 679.400085
-866.454285 12.322396 616.770874
-699.360840 -96.278572 563.756104
-878.882629 11.836554 486.202576
-701.628845 -75.012810 635.089844
-690.302368 -197.164764 434.127045
-646.670715 -50.913109 714.174866
-791.330139 8.636662 657.330872
-611.241821 -176.846710 611.082275
-864.851257 95.507561 729.135925
-713.917358 -57.876656 654.077454
-774.378906 -4.614750 617.649170
-602.988525 -132.558960 691.704468
-848.267334 -63.560902 453.094788
-627.933411 -238.065918 459.951782
-755.201355 -90.397118 503.478943
-706.797913 -218.954178 369.331390
-686.966736 -206.689758 466.923462
-647.968140 -230.444275 399.421356
-883.233154 58.436226 614.755066
-739.758667 -177.468201 408.257568
-770.211060 -106.956032 491.737335
-612.703979 -29.783697 822.834473
-647.370422 -78.305222 716.624512
-671.301208 -93.366982 665.511414
-833.428528 54.207684 710.373962
-655.560059 -230.937943 447.249573
-820.987488 -120.563362 419.544830
-609.525940 -112.175011 718.687073
-872.617798 34.600071 574.248413
-775.376526 -96.624168 504.656158
-662.966553 -101.687042 629.810791
-663.611450 -116.476875 594.602234
-808.065674 38.158962 683.331970
-745.042480 -59.059765 566.813904
-769.026733 -139.931183 431.857147
-832.683716 -150.134186 354.959839
-621.237122 -38.194630 804.854065
-875.442139 29.846630 604.324158
-917.186401 -94.376740 420.958038
-766.091431 -32.436028 637.384644
-661.832397 -196.813934 483.954010
-768.086975 -114.904320 471.569794
-725.130615 -187.641373 404.532562
-606.971924 -54.016716 770.858948
-749.527954 62.869026 781.459961
-613.131714 -195.649185 568.704590
-623.111267 -82.419342 737.009399
-764.228577 -66.995430 568.537659
-745.742004 -184.847534 409.210663
-872.766052 23.890703 600.833740
-757.805542 -148.520508 384.248810
-626.390076 -118.450043 660.986206
-661.398499 -138.240372 585.574890
-660.571533 -156.737442 547.347290
-680.309082 -238.679703 402.993744
-758.892639 -99.850166 522.348389
-776.578491 51.350376 764.339417
-629.056091 -113.851753 670.226807
-793.826599 13.294736 680.093201
-598.793701 -93.921547 724.295227
-865.052185 31.805267 444.606903
-743.566956 -215.603561 373.720490
-782.271362 -45.573925 576.012451
-773.012695 -165.702515 375.908203
-725.866150 -167.548294 441.917633
-648.535034 -39.456512 752.898804
-645.232788 -230.329636 478.082733
-774.632019 -135.618927 429.679657
-775.551331 -158.595566 384.889771
-784.263550 -77.779274 539.784607
-664.249756 -15.775923 762.628174
-830.311157 -78.891647 443.098663
-727.847961 -75.649208 619.349609
-926.073853 -65.501999 451.944580
-723.241638 10.950258 774.872070
-681.859375 -154.222107 550.639343
-790.492798 -100.453499 471.633087
-811.819519 -23.521135 553.202271
-809.886047 -46.180378 557.888367
-725.404846 -24.547022 706.279358
-622.747864 -205.949844 520.999634
-684.416992 15.539612 807.272400
-716.353821 -130.329956 521.108582
-768.837646 17.037359 690.259094
-596.807983 -73.616005 791.938293
-615.801208 -81.140892 745.675903
-688.590942 -151.736221 515.143677
-637.315186 -90.981140 715.237366
-668.512207 -166.293381 522.080994
-868.015930 93.679649 787.324219
-605.826660 -165.058594 605.634705
-699.763367 -168.709427 473.582520
-791.916504 1.172531 640.270569
-690.890686 -192.448120 469.608521
-614.252136 -53.332748 787.804260
-844.379089 -93.137604 409.625061
-605.664185 -139.263474 658.968323
-674.200378 15.726614 832.237183
-632.540466 -135.506180 643.167358
-825.944397 7.508239 623.261353
-886.006165 47.174801 570.963806
-646.835938 -90.916283 683.537170
-796.343811 69.187576 758.176208
-703.527466 -179.688019 464.539093
-601.963013 -72.171059 777.482178
-818.426514 14.843800 617.974182
-802.150940 -28.753559 573.579224
-686.715271 -164.952896 494.676727
-729.995056 -193.647964 381.940857
-719.961182 -205.798141 408.904266
-781.887878 75.552353 790.630127
-867.413025 53.563854 688.072693
-700.694031 -128.923019 550.008118
-665.670288 -116.405212 637.611328
-884.385132 44.057636 563.025452
-618.382202 -131.063095 625.815796
-604.590698 -112.144432 691.764099
-893.523743 -62.463711 466.642090
-691.674805 -37.640987 693.776855
-887.556396 3.183769 448.179199
-748.111877 -119.181038 475.856110
-764.354248 -165.923843 423.743927
-877.194641 -37.331085 522.664490
-872.294312 -116.602951 366.594604
-693.000549 22.125813 793.572937
-770.501038 -172.574249 384.012146
-865.853516 62.180420 703.020203
-885.917480 19.122978 480.610657
-820.299866 -3.871686 614.961731
-614.932922 -154.311035 602.372192
-769.008850 -95.448326 503.346191
-781.621216 10.111789 698.334839
-677.188721 -145.274353 547.722046
-701.237305 -157.850571 449.736938
-677.092896 -61.862309 633.375549
-701.668274 6.823330 787.337097
-600.647461 -71.401321 751.367737
-738.542419 -132.833420 481.507965
-716.169434 -188.804520 414.022186
-783.671814 -102.501122 474.394928
-750.693237 -3.725540 690.566711
-820.572754 -114.962578 408.123352
-808.733093 -114.534760 416.742584
-796.487976 -137.076950 435.842957
-617.722839 -116.722374 664.208862
-735.767151 3.771969 712.130737
-701.920776 -143.328445 538.846619
-744.192993 -184.938248 378.289886
-607.625610 -44.154175 811.474121
-926.756165 -57.086529 489.450012
-880.339355 2.199848 510.921814
-850.469604 92.016029 526.305847
-677.231567 -247.074554 382.166687
-690.549744 -4.356382 760.001099
-843.537659 -50.940781 502.518494
-829.040527 -115.911873 413.001373
-787.711487 60.215893 755.479736
-795.434326 -181.385773 371.571594
-675.943115 -256.531952 381.631958
-799.759033 73.179283 758.948792
-882.387939 48.028049 626.008667
-788.198914 -76.943169 508.077881
-742.624756 -40.157337 665.697937
-698.846008 -148.394165 539.939819
-758.869080 -125.905045 478.592865
-761.590881 -10.277169 624.060791
-639.170837 -195.611572 479.106964
-691.537903 -117.310867 580.568359
-894.745178 -120.528542 358.485718
-871.834351 46.523357 474.309113
-717.497131 -135.284668 491.250610
-642.002991 -249.044083 420.038422
-645.479004 -133.968643 632.651367
-913.476990 -56.197121 470.817444
-866.719849 88.256241 620.330078
-694.581909 -36.413906 723.595825
-689.807312 -114.046410 611.565308
-630.109985 -49.378014 771.976013
-621.663086 -90.839119 731.343689
-597.661316 -49.109138 782.225708
-891.288086 -9.938820 486.784332
-741.117188 -49.352985 632.438232
-835.435120 -39.197639 503.407043
-829.125977 57.570686 686.889954
-816.311218 -24.262241 552.271118
-694.677551 -11.042395 771.394470
-876.389587 68.740761 614.101379
-788.209595 -106.457748 457.853699
-826.332153 -152.860977 371.970276
-614.121704 -49.341526 804.861755
-777.614136 14.670616 680.567810
-774.620728 -6.316318 651.478821
-878.674255 56.080997 554.514587
-702.011047 -15.267729 744.714355
-878.481628 67.807976 547.181519
-637.738953 -28.862165 788.732422
-698.713135 -83.049118 614.127075
-866.894409 60.013889 704.394348
-806.336243 12.892483 621.895813
-861.429504 -59.916168 487.518524
-761.863647 -177.239944 406.076538
-761.406799 -24.175528 628.366211
-683.663330 -148.175385 539.693604
-634.686646 -69.358215 743.906555
-775.284851 -63.658379 586.480164
-883.742859 77.699791 545.822327
-883.198730 81.827812 619.614563
-700.032654 -100.087440 623.707336
-797.403870 -116.147667 427.690338
-673.838013 -171.426941 500.993683
-752.461792 21.881969 743.775269
-679.034485 -170.045593 471.369995
-772.144226 -95.858665 538.196533
-789.201599 -144.048157 369.104919
-820.636353 34.129005 632.058777
-614.636597 -217.999863 507.978241
-623.361816 -29.582653 837.452332
-684.098511 -60.096710 701.673828
-616.129517 -91.768059 677.498108
-621.123779 -68.718140 746.666504
-751.754395 -9.122358 691.637085
-719.236084 18.913525 781.659424
-656.648315 -242.029251 385.011719
-805.140991 63.939400 740.222595
-637.285645 -256.636536 428.937378
-784.640625 -134.095551 449.225098
-641.500671 -256.253540 438.737305
-786.622742 -140.629761 420.352234
-751.916443 31.706482 768.361145
-735.752991 22.023252 750.287842
-666.888794 -62.344307 707.817993
-844.989136 -23.610632 545.121460
-683.302673 -201.532837 435.496552
-594.932068 -110.171669 739.192810
-718.826538 -73.074654 632.560852
-609.751282 -111.175636 685.068909
-750.910645 -150.612610 463.550812
-715.023743 -127.019875 560.566956
-701.998413 1.962692 772.543823
-790.986755 -43.533810 573.718872
-684.064514 18.917501 827.751709
-741.633789 47.762005 771.254272
-856.479187 22.632233 649.250732
-684.341370 -19.583862 761.815796
-657.558960 -11.512898 813.081909
-689.143860 -35.781769 705.252258
-630.380676 -179.717773 506.677856
-757.572571 53.712257 785.373230
-634.067932 -180.646881 540.444763
-619.013672 -164.836136 590.172974
-734.541992 -105.041573 525.065308
-736.881836 -30.028698 651.169800
-776.562866 37.437820 737.092896
-891.837341 58.843746 712.691101
-589.002258 -42.279140 800.494751
-639.679260 -139.021011 600.072937
-623.604492 -126.338249 658.511169
-875.622559 85.629753 567.512146
-808.910828 90.460632 748.951843
-828.092285 -52.944355 493.534210
-751.567688 -11.225733 692.825867
-884.383240 4.849624 591.836365
-717.014282 -167.329880 433.132355
-824.850708 -67.003975 503.034271
-608.136841 -97.666275 712.200989
-709.258179 -187.593842 424.952057
-729.606201 34.047295 792.645752
-633.354187 -260.864746 409.903564
-634.354980 -101.562874 670.614868
-687.546448 -87.342728 639.701294
-819.259521 -132.891968 411.688629
-824.119751 -56.642735 474.496033
-640.175842 -131.535767 616.355530
-645.034729 -202.780594 517.375549
-607.287659 -169.132385 601.965881
-628.638977 -132.303772 641.044250
-897.963196 32.517445 667.139160
-895.302124 36.941944 639.510620
-886.373962 67.012375 540.226990
-753.867004 11.336372 725.761597
-650.454163 -119.698471 607.166382
-658.738708 -121.752235 610.343628
-702.708862 -116.803177 546.297607
-863.667114 60.268108 601.419556
-647.732361 -15.509093 814.741760
-784.283997 -39.241772 603.577698
-787.420166 -147.461212 418.316223
-880.110962 27.110195 508.006073
-805.481323 -53.518143 543.388000
-832.017578 74.487823 722.262451
-711.184326 18.137741 788.716858
-646.422729 -164.175110 561.662781
-648.748047 -194.901016 476.597321
-632.305298 -81.519577 673.992920
-603.409485 -120.886726 649.627258
-669.032410 -144.972855 520.521912
-677.745117 -91.549873 645.410461
-749.668884 -51.389084 613.057983
-863.380066 -53.098721 489.566315
-797.429016 73.479706 751.251648
-704.505615 -52.442791 666.134033
-612.161926 -77.343277 760.023499
-723.300110 -163.707794 488.953217
-726.059448 -124.393494 518.477600
-649.078796 -118.698013 574.659546
-882.402893 48.280327 585.053467
-683.270020 -111.482948 556.209656
-831.366882 5.957590 589.219543
-868.504028 -55.863453 467.427582
-881.559021 0.643142 458.437653
-758.573608 44.912376 777.457214
-828.196228 10.931416 621.206055
-692.739380 -99.901871 600.407410
-874.389465 39.029045 578.566345
-849.137024 -142.118851 357.261749
-892.203857 16.921511 485.825409
-714.564392 -186.766403 437.662628
-881.737244 39.534054 538.790466
-706.081360 -66.054726 650.572815
-833.060364 23.836586 660.872009
-610.488098 -134.077835 672.767456
-757.616699 -89.887505 536.807373
-786.433105 5.488834 655.464294
-782.801758 -30.681257 563.284546
-642.018005 -161.179260 552.505676
-776.874939 -92.437584 537.665527
-600.377625 -60.244225 774.656372
-724.150269 -90.338921 569.993408
-738.526855 -86.336876 558.212463
-633.481934 -204.749939 506.856201
-708.184021 -178.798248 444.771667
-833.303284 -30.445169 554.385925
-715.726013 -104.061798 593.594421
-825.097412 -69.510918 498.405396
-598.568481 -123.220299 687.267090
-786.920410 -54.221928 535.628601
-869.011230 63.566730 638.068665
-662.702454 -150.559631 586.526184
-687.364380 -142.432388 531.936768
-777.427856 42.312447 744.822205
-720.190002 -232.649261 387.113220
-622.263672 -110.580788 682.969604
-847.049500 105.322411 802.552795
-720.114624 -212.126465 396.250275
-688.709412 -74.013924 616.332886
-816.616455 46.439301 690.803223
-700.640015 -90.464516 606.830139
-819.085999 -10.545527 577.467957
-826.505798 70.862282 728.382874
-612.504456 -108.969238 709.118530
-761.453491 -69.678192 569.237732
-882.385803 59.821468 507.014130
-649.341675 -143.008606 560.693054
-799.441956 -100.325958 462.259216
-750.111206 39.887600 771.625549
-723.261719 -162.953857 452.964996
-597.035095 -96.175354 738.216919
-706.046814 -185.297134 474.651001
-796.526733 73.127182 756.285645
-900.013062 -27.377785 519.455566
-794.191833 -131.611420 421.506439
-678.481262 -36.637863 752.745117
-893.340759 45.778076 538.208557
-627.970093 -226.083313 481.479553
-844.034546 10.783936 567.742920
-899.103699 3.166250 531.669922
-716.847656 -128.811737 518.345581
-629.025696 -114.043030 655.273010
-889.887878 7.741403 507.014130
-736.959229 -176.062683 452.902740
-807.718811 -124.672615 412.749115
-796.294312 -16.490744 604.925903
-877.064636 98.291679 597.910828
-787.737854 -110.349350 480.890930
-880.728210 60.699329 504.156464
-799.043762 26.111580 683.320129
-712.469299 -164.811935 492.376282
-735.687256 -136.483978 478.793701
-740.411255 -37.495285 638.855408
-805.321472 87.145531 770.745422
-797.581055 39.399872 712.072876
-715.178528 -143.246201 527.413635
-622.666138 -48.877621 780.309570
-660.153442 -6.688413 744.959473
-636.626221 -140.587204 568.792480
-712.387268 -187.362457 401.546082
-608.821960 -77.875076 747.785339
-684.976990 -201.891785 386.953339
-881.731689 52.809078 629.025940
-762.686829 -148.054382 439.969147
-868.690491 27.325642 659.036255
-750.935974 -109.856422 503.768127
-703.392700 -167.386887 473.646423
-812.539429 69.064674 731.127075
-860.068237 35.074261 650.706177
-638.944214 -198.160767 536.346008
-753.684448 -148.854889 415.389008
-794.195129 -33.094646 576.414307
-849.624939 84.661140 769.418762
-769.633484 52.404892 730.253784
-703.057312 10.211690 785.248901
-611.944031 -122.034973 674.318787
-703.863098 -170.482452 494.686737
-620.784119 -185.341736 551.264709
-647.599670 -31.466654 781.747986
-641.647644 -22.516531 794.567505
-855.022278 24.424902 645.560913
-741.664307 -179.176468 408.572693
-638.913025 -185.748779 522.171082
-790.634949 -129.596329 416.902527
-699.189331 -171.013107 500.113098
-691.430176 -223.819626 400.296997
-895.820007 -10.692695 533.100708
-720.902405 -125.245125 483.546143
-831.920837 85.085808 760.236511
-873.971436 85.017761 754.551453
-761.979553 -67.083084 565.676880
-709.218445 -179.330383 443.239777
-679.102844 -82.072083 598.295837
-808.110657 -98.118500 445.167725
-627.940918 -26.495846 813.682251
-799.776550 -157.927460 398.738068
-695.417358 18.907526 815.999084
-691.788086 -216.185516 424.402618
-712.968506 22.734726 770.426453
-756.591675 21.668491 732.605713
-700.946045 14.369864 731.076660
-744.376892 -61.114586 630.535339
-687.174438 -181.812790 466.718018
-688.094482 -170.848267 508.817627
-888.105103 34.488117 554.860718
-762.151001 23.476784 725.393555
-841.605774 -97.111702 443.005249
-613.387024 -158.527878 607.982300
-700.096985 -187.101288 457.442932
-887.647949 12.731944 536.837708
-927.289551 -64.906776 456.806335
-670.726013 -115.532028 630.768433
-777.408752 48.645412 737.981750
-885.992615 59.282051 596.437500
-680.919617 -72.944420 663.193115
-618.837280 -102.505058 678.495850
-711.912659 -148.296158 523.265808
-631.827332 -23.331827 808.093872
-659.500549 -97.174049 648.142822
-793.148438 38.312908 703.460571
-827.242676 -43.709778 524.660095
-884.673645 85.566795 604.139404
-622.065552 -140.047928 621.278748
-670.207520 -167.036194 521.119202
-818.147949 88.141411 766.967224
-823.290649 38.233383 668.232422
-818.732666 -84.050316 425.556030
-802.921570 -56.506153 552.615662
-636.959412 -198.210236 537.919861
-778.228516 66.499550 723.185608
-795.214355 -148.966736 382.443817
-610.372925 -63.541897 752.820679
-796.621765 -30.792061 599.073181
-679.272888 -193.659622 488.640717
-758.860046 -189.423325 389.580231
-674.542297 -39.220219 716.979065
-885.656128 -15.560951 479.569061
-886.987305 -21.223280 472.742249
-810.078003 -54.818420 521.962891
-662.938416 -71.807198 676.882874
-602.090820 -196.563675 543.920105
-738.628052 -177.611389 426.971649
-662.850220 -62.512466 700.572937
-677.930481 -107.401924 601.183594
-761.013184 -82.795349 551.053101
-861.016174 -45.434986 516.623047
-772.891663 -11.058461 669.329590
-769.008301 54.007217 787.443176
-663.811401 1.565845 817.891235
-623.166321 -49.082954 787.203308
-721.368103 -164.231537 450.084045
-733.978638 -82.146973 575.330566
-793.887817 -127.185043 447.054657
-816.826599 94.367256 770.784058
-738.779541 48.828011 775.582336
-746.393188 9.130055 698.810120
-902.463684 -46.214085 466.531982
-916.042542 -51.924641 453.445587
-662.332275 -56.661846 734.304932
-829.823364 -46.474747 529.844727
-833.998230 -158.549286 357.685822
-787.430115 6.951290 659.347717
-645.161133 -257.534576 398.156250
-619.710876 -47.352135 766.868713
-639.205566 -26.335697 754.983093
-729.482544 -156.186920 436.231049
-892.348633 75.748558 747.499451
-655.558228 -8.112039 801.802002
-878.985535 20.074905 569.684875
-752.290771 4.430844 684.172607
-773.446106 -160.895767 390.600708
-645.152222 -240.332275 430.827240
-663.300720 -35.257370 742.519775
-717.880920 -88.074959 616.444397
-654.993103 -260.629242 390.614319
-614.659485 -46.499859 808.404480
-709.501160 -151.294739 450.707855
-656.371704 7.143729 791.433228
-715.288147 -65.697594 632.547607
-793.851135 -93.077972 486.187927
-713.960022 -125.951439 537.649475
-797.022766 -168.754288 380.635986
-893.071167 14.721376 522.288086
-819.120361 -73.463097 454.963806
-718.983459 -202.556442 433.167847
-673.742859 -119.244804 596.119019
-877.646362 -35.097637 510.468170
-821.017517 -141.746811 390.668915
-619.887756 -212.909576 508.725739
-632.001892 -1.841862 782.741028
-786.425537 -73.446022 531.769287
-602.507080 -75.653687 768.472046
-617.976746 -58.285671 767.539185
-698.540894 -20.216444 740.516968
-689.651001 -22.565113 753.489319
-739.737793 -60.286076 605.287537
-742.569885 51.776855 750.148438
-751.313660 -4.103884 710.629028
-871.153198 78.524986 733.926392
-629.054810 -153.603851 598.197083
-633.115601 -157.929657 573.042480
-725.890076 -158.594666 494.170807
-695.470459 -16.134274 735.498291
-714.024536 -88.845345 585.002991
-704.002930 -112.119957 559.610840
-805.309631 21.104456 635.806091
-894.578247 -23.342506 529.999695
-800.266418 -144.982880 386.009125
-872.779724 44.982998 584.625916
-922.140930 -97.338051 423.531128
-836.235352 68.924553 712.621033
-710.207275 -39.282604 702.292908
-667.324829 -161.402695 535.191040
-811.256958 19.057682 656.167725
-803.274536 80.526146 756.337158
-749.073486 -197.483047 370.598083
-749.561218 27.760666 758.970337
-753.921875 -168.433853 444.455536
-682.489685 -197.631226 453.230927
-746.537842 -9.906056 697.058105
-743.224548 -114.686775 517.832642
-672.377625 -38.146488 757.268127
-810.281067 53.618294 709.463989
-893.987915 -75.392708 455.991791
-836.147827 -51.513912 497.720398
-698.968933 -53.247711 694.869812
-680.351624 -59.647602 673.770203
-882.369446 68.572685 611.153931
-652.638794 -135.346756 621.263794
-638.687744 -226.186630 453.848267
-676.506104 -194.340393 484.195343
-899.886719 0.303009 466.040649
-687.550171 -170.744354 488.586823
-787.355286 78.570847 739.323425
-879.567810 81.244034 644.818848
-680.131836 -94.295738 644.693420
-679.373901 -171.396698 492.476379
-727.691833 -7.148110 709.851196
-752.489807 56.119541 801.185486
-618.027344 -137.025513 651.535034
-722.706482 -7.501632 729.546021
-765.385315 -7.010667 624.811462
-887.600281 59.162636 601.274292
-640.438110 -202.035019 527.037048
-633.758606 -152.329025 551.728821
-593.856323 -87.343575 759.675903
-884.443787 41.198658 580.334167
-648.069641 -81.223228 714.267700
-850.348450 -35.725998 525.954102
-815.621704 -154.287857 380.258850
-730.145569 -48.513889 636.228882
-726.613342 37.704731 800.820557
-883.441589 64.614548 594.487427
-681.783691 -193.191681 453.797607
-888.889221 67.181244 708.023560
-628.219543 -177.897781 595.317749
-744.460693 -169.079712 419.343109
-657.324707 -15.154647 801.924927
-680.528320 -202.561661 440.743835
-630.237854 -87.126442 693.474792
-885.065063 82.039726 712.010498
-780.585815 -166.791473 363.620300
-682.761169 -142.874252 537.209412
-813.265930 -3.299114 607.473694
-730.261902 -73.901970 583.553894
-773.020508 14.831865 652.280579
-662.704224 -122.535194 635.611328
-804.531616 41.060265 671.695801
-726.010986 -93.708542 537.022034
-745.754456 34.237476 767.017029
-684.103943 -145.897369 519.262329
-884.738586 2.531231 464.407593
-745.339172 -25.065357 660.776428
-687.110352 -237.410263 395.237488
-702.667908 -125.580383 541.638794
-830.058044 -91.916107 427.024994
-762.675720 -75.853790 554.688599
-627.301697 -205.650482 515.923401
-587.715210 -52.218403 809.160156
-757.518555 -46.073265 608.941833
-695.594849 -128.652084 549.322144
-650.935730 -99.354492 667.942871
-719.856628 34.965546 755.474670
-685.180969 -34.343792 740.919373
-737.741150 -126.841248 491.448395
-850.675964 69.137329 718.597351
-844.588562 -116.249916 369.741974
-618.428223 -36.682621 813.218262
-677.392517 -171.351349 497.732361
-902.956604 63.136574 727.023682
-654.379578 -202.084152 455.067139
-767.107239 -47.165955 613.359070
-698.474243 -215.314209 385.352905
-636.199219 -208.121033 442.951935
-678.840271 7.026541 806.297729
-603.034973 -143.193817 666.165405
-868.428406 48.374866 511.459045
-765.818176 -177.016800 365.922577
-827.736694 -46.105015 489.816315
-755.009155 -159.593689 442.617645
-787.487427 32.686192 697.133484
-677.186401 -138.325409 576.733582
-651.277588 -33.710690 763.571777
-725.849487 -40.852165 686.099365
-703.839355 -49.548279 678.345337
-634.703552 -27.391335 784.408447
-674.443420 -37.427826 736.370117
-710.000549 20.065279 740.017639
-885.507751 -23.852901 519.022400
-644.102661 -94.211929 697.186096
-875.246216 55.728020 594.480408
-701.455811 -106.202019 545.121582
-862.862732 98.250458 582.094421
-879.561279 68.718864 596.990662
-788.806641 -74.789627 525.708374
-703.801025 -102.961342 583.433777
-834.839355 82.078247 755.445190
-651.566467 -115.216736 642.069519
-697.137390 -179.061981 460.298981
-768.666260 66.981293 810.876465
-859.895203 84.242630 546.467346
-755.306335 -73.736877 570.168701
-754.559509 37.304649 765.974243
-715.447144 -104.446968 591.112854
-738.628967 -37.260883 675.755676
-852.168884 110.131973 809.194214
-601.350464 -73.019989 750.528748
-870.315857 51.228649 482.182983
-804.263184 -142.867401 418.717224
-744.817810 -49.136795 645.145813
-632.159607 -149.432892 619.012024
-821.966064 -179.115479 352.892456
-752.707886 -116.294029 495.269135
-658.940674 -61.782612 728.388977
-875.343689 5.688307 576.733398
-681.653687 -150.963593 530.260193
-656.224731 -59.891071 738.493103
-863.071228 103.367920 816.950806
-670.995789 -158.061447 527.844421
-862.571777 58.182148 663.516479
-664.399414 -76.856110 703.759155
-717.173035 36.852791 812.338684
-811.446655 -12.098724 616.864197
-606.486633 -24.661133 806.662170
-683.047180 -101.900162 637.298950
-873.270386 7.847253 595.214783
-652.103455 -252.205200 392.130951
-818.295471 -115.624352 368.907959
-636.292358 -63.938896 718.975708
-788.588806 -78.989174 537.449402
-717.762329 -39.978104 686.258972
-800.787598 -123.935112 385.343750
-622.010132 -85.986076 708.047546
-620.420166 -96.389008 722.408020
-677.164917 -18.491278 755.933472
-699.497986 -80.530190 650.964783
-637.776733 -41.376797 783.391357
-703.304382 -174.912201 457.767700
-734.336426 -162.110947 470.295746
-632.102722 -236.394104 453.353455
-606.100708 -79.238182 732.609009
-676.348694 -117.129532 624.389099
-849.360840 45.219002 678.681580
-761.281677 -126.729607 468.351563
-772.916626 -71.665352 564.748840
-648.225769 -103.420219 661.948486
-878.828857 56.307037 560.190308
-849.235352 -52.350124 459.502472
-641.598572 -134.578796 610.567810
-710.180969 -221.921661 408.127167
-813.487427 -53.863113 543.084900
-894.215881 -5.059624 450.074463
-770.702820 17.951019 715.130554
-897.240295 -5.860467 521.257446
-597.210632 -143.918793 654.807678
-827.027039 -86.398041 435.133179
-695.320679 -223.206619 414.292114
-656.156860 -218.474380 478.762146
-817.345459 115.718880 781.870239
-795.013977 -51.806976 528.269043
-860.567261 15.029287 562.609558
-624.633301 -198.655823 520.387146
-722.771790 -113.723511 517.664246
-607.553894 -140.311829 650.784729
-816.514038 88.552101 725.793030
-761.856689 -60.660789 608.647034
-875.022217 46.550266 563.290405
-843.840820 -58.423893 488.387360
-636.535583 -32.901279 804.343018
-733.108398 -183.845551 404.556519
-723.032471 -82.845955 583.038635
-784.799316 95.281998 775.042969
-799.229126 2.079052 635.391602
-700.309387 -13.697968 735.449524
-668.296326 -63.101421 661.005432
-809.117249 -59.513241 539.325378
-703.746765 -121.821075 544.776550
-666.293701 -32.309784 736.325745
-724.170227 44.495415 805.585571
-641.440918 -244.580887 475.447357
-791.846863 65.037285 769.444580
-636.402344 -71.452179 716.299683
-787.368408 31.506327 725.554810
-660.403687 -16.868288 796.813904
-682.742065 -180.247223 477.402222
-745.801819 -92.172905 506.991180
-786.306519 -173.150528 381.039764
-627.452332 -241.269012 442.679504
-881.531616 38.671837 606.747070
-650.006348 -185.895493 530.682007
-806.605164 -92.224846 484.911469
-806.714417 -39.150650 576.752441
-678.610046 -180.405792 481.290894
-643.970215 -207.603058 476.416077
-665.672852 -96.771294 646.086426
-638.568665 -178.213593 539.644714
-590.989075 -90.771889 756.257263
-735.349060 -61.482780 619.533569
-755.459473 56.169403 782.888733
-622.514465 -255.402161 453.604950
-769.597961 -20.509687 632.948120
-775.333069 82.281448 766.416138
-674.792358 -44.282070 715.583496
-885.154114 85.265793 615.033508
-665.516785 -101.618309 650.449707
-629.560669 -48.615543 779.149536
-635.665527 -91.236130 710.778931
-646.853333 -266.435486 425.152283
-642.097900 -106.526314 644.915649
-668.857788 -92.951279 609.497070
-683.720520 -40.986771 709.711182
-682.659119 -119.401604 615.049500
-706.992981 -76.185898 584.976318
-653.265503 -276.179352 392.622375
-690.263489 -58.651806 663.498230
-894.883911 18.340567 484.860565
-881.237061 24.164503 503.655853
-800.532288 19.074625 654.762146
-895.578735 72.800560 644.261780
-887.241333 36.052387 558.833740
-833.321350 -117.085495 378.442993
-749.316956 -178.615585 388.009399
-587.957825 -56.054214 819.861938
-756.171509 -79.874847 562.782288
-862.046875 49.386047 629.336975
-904.101807 -46.518173 459.863922
-905.299194 -36.824627 461.798309
-804.124512 -149.387039 363.095367
-850.864990 101.904457 564.852783
-667.440308 -178.943542 495.573456
-729.449280 6.666747 692.331238
-645.657166 -16.328489 815.111633
-775.185303 -169.669098 365.672058
-595.088623 -90.140259 780.075928
-799.490906 -17.216242 588.251770
-686.706299 -116.832794 576.574280
-885.689880 32.136753 529.017212
-816.099731 -27.356525 555.470581
-620.916504 -176.252350 518.026978
-588.355530 -69.031181 790.246582
-798.584534 3.400821 651.437866
-677.486755 -167.783966 516.362915
-628.225037 -181.382584 574.762268
-622.857666 -166.061508 580.261353
-691.656921 -83.842796 629.351624
-658.474243 -190.857040 528.927917
-628.383118 -206.687561 502.684692
-772.257263 -108.233452 485.567352
-877.472412 25.733074 518.605835
-833.383118 -63.041046 508.633362
-612.182373 -33.459713 818.072815
-632.160339 -143.251678 581.382080
-756.417053 -9.289475 631.923523
-891.688843 68.386360 651.177979
-735.078552 -51.795551 625.443604
-620.398193 -103.601379 697.137207
-746.900024 40.368168 718.542847
-870.442444 85.700180 630.448853
-584.272705 -46.756584 807.830383
-748.303345 -152.615814 467.228729
-602.731995 -89.631676 719.325989
-885.812622 40.472889 500.872314
-828.660889 -34.137867 555.262512
-787.372437 -129.411713 462.776245
-651.873535 -222.859558 452.848236
-796.853455 -22.995806 589.937012
-717.147034 -216.240509 406.327881
-734.775940 32.756493 774.635010
-908.118958 -27.446527 470.003906
-869.930603 29.306664 465.227051
-809.254883 -106.155685 437.185425
-803.595764 -101.849968 445.618256
-710.078613 -16.601788 718.477539
-671.285889 -77.982185 628.580933
-587.887329 -44.908081 795.132080
-694.034119 -81.486725 656.013428
-879.349854 83.462318 579.163574
-751.880615 55.775257 791.473816
-881.914307 38.398914 518.402527
-725.148132 -171.753555 430.413055
-796.808167 49.578598 712.297180
-690.963867 -196.064285 442.688232
-713.782043 -21.628845 729.899475
-723.049683 -40.594250 666.645996
-782.375732 -177.966415 392.036438
-799.303040 22.682743 667.694397
-782.463501 -107.658798 490.836334
-794.711487 0.571603 636.044434
-773.023865 -109.843781 463.037598
-695.375061 -87.935074 643.821960
-732.162354 -172.892883 419.426208
-886.515259 34.131618 518.489868
-618.185059 -24.440578 800.240356
-619.854553 -165.199829 579.434570
-613.162231 -147.377884 589.360291
-794.455017 -12.146027 631.537354
-654.804199 -191.371841 502.496704
-692.857971 -28.862597 748.040955
-822.132019 -97.281464 453.695984
-784.907227 -10.848949 627.997620
-701.653137 -184.636826 440.662292
-862.472595 80.834595 757.554810
-892.892700 -17.734650 479.698456
-589.782288 -89.699341 752.530579
-888.509888 34.295139 637.695984
-742.324158 -164.829773 394.782379
-673.494751 -219.216705 454.789764
-640.909668 -229.935883 448.806000
-717.865051 -151.921585 459.660645
-759.759094 48.273415 782.561768
-632.552368 -61.795593 756.943787
-893.130493 -2.519016 472.924316
-701.225708 -130.509247 535.537781
-655.405579 -149.641251 593.688721
-593.880188 -78.543732 756.707642
-783.665100 -72.827248 548.979187
-855.831909 100.250145 587.529114
-694.309021 11.944082 781.617737
-663.426514 -190.028732 523.566040
-757.080383 -195.667862 377.140839
-727.271179 -22.688807 714.763550
-767.144775 -66.441803 551.786926
-825.405518 32.905540 652.772095
-673.664001 -143.789841 547.746460
-821.003845 -81.801628 489.219849
-862.193787 65.469536 502.307953
-643.490784 -9.633261 828.127136
-830.879333 -8.203527 588.365601
-750.378723 4.961362 720.052917
-639.209900 -113.882317 611.900391
-719.498047 -52.066551 646.051331
-635.858826 -262.538208 422.091583
-878.642578 27.975531 520.105591
-888.177856 63.952919 667.052673
-674.397583 -37.673008 726.716797
-669.879639 -139.303497 591.820435
-836.534973 24.647640 640.165161
-721.242737 7.608876 761.618530
-742.297913 -181.670212 404.574005
-775.969177 41.454674 749.666809
-614.046997 -63.639500 714.195251
-790.489014 -115.567795 438.997375
-606.802429 -123.885704 671.994324
-703.378235 -98.477928 591.764465
-704.155579 -33.472107 705.553467
-889.597900 20.013474 508.618622
-762.941833 -171.511032 378.404846
-833.231567 82.560013 730.687622
-610.382446 -139.249390 649.307922
-809.400513 69.748459 739.935120
-640.612793 -54.084621 740.504883
-619.376282 -186.732941 575.674683
-672.526855 -38.133640 740.332825
-771.459229 -176.020203 356.753052
-710.445007 -12.889975 739.426697
-689.445435 -143.700363 560.448364
-849.178406 -48.190155 480.510681
-722.968811 37.737587 773.922058
-681.491516 -68.443329 668.644043
-644.992493 -167.614014 554.457031
-738.223511 7.536181 735.602173
-634.251831 -42.471992 777.292419
-841.589233 -126.661919 348.314941
-888.035156 57.476196 641.827454
-691.320313 -60.797264 692.138611
-694.313416 14.173477 801.280457
-814.047913 -81.892960 446.424652
-856.671936 -150.916275 334.811554
-743.871460 -29.456795 677.420654
-756.153442 -189.077026 371.403961
-870.157532 -86.891678 422.087128
-780.928223 -35.398277 611.265564
-883.750610 24.886683 575.778381
-818.496460 23.419006 671.541687
-833.862915 -83.417992 438.763672
-808.708618 56.383560 713.991943
-608.226563 -34.253597 808.564331
-635.669250 -199.926147 510.136200
-682.275635 1.353245 760.066223
-724.576477 -202.908173 425.855957
-704.087891 -23.538406 734.994873
-755.259644 -127.303322 446.184937
-886.301819 16.695623 503.357666
-888.585388 74.731438 616.583984
-765.241760 -142.512329 430.826813
-650.162537 -97.235283 672.375854
-807.236084 -25.734482 580.348450
-735.410767 -45.776356 638.838501
-600.107605 -110.812431 712.423645
-652.362793 -16.797022 808.857483
-806.435059 -15.980743 588.257690
-623.092712 -39.561943 816.304626
-656.201050 -164.553818 538.973999
-647.331116 -118.204918 642.681702
-639.765747 -259.059296 421.812958
-787.975159 -74.684258 526.160889
-665.456360 -0.686855 782.440430
-649.088989 -251.647156 452.141968
-721.023254 -142.645081 524.347107
-794.696777 27.389811 684.212463
-759.859009 -196.954422 389.990143
-620.580688 -75.285347 751.770508
-683.319702 -133.625961 588.497559
-765.469482 -19.903780 665.723633
-749.752319 12.191768 744.573914
-698.793091 31.845608 814.994019
-669.640564 -94.132713 652.398804
-713.543945 -125.665565 560.930847
-658.161987 -45.361679 745.671021
-753.979126 -51.620567 630.024109
-773.513367 37.611156 733.396301
-824.287598 -14.828211 591.181396
-712.024475 25.652622 798.931335
-618.899475 -204.025101 518.721558
-718.872986 -169.205414 478.472137
-710.924744 -185.004364 430.759186
-885.685303 -32.260628 515.609192
-890.216980 60.605995 683.298096
-689.156006 -223.311493 397.128815
-723.140320 -108.585426 571.576172
-768.310486 16.469372 694.450500
-787.598877 65.577385 738.528687
-811.073486 86.647690 784.622925
-629.278076 -206.472656 477.505219
-596.367493 -34.540894 835.260620
-835.892090 36.694065 672.388123
-714.468262 -8.554366 746.344543
-658.478943 -177.837845 550.313049
-811.960388 -63.834229 525.723328
-884.261353 2.581216 547.140686
-727.498901 -77.431046 586.573364
-599.394592 -115.493179 706.470764
-680.475464 -144.395187 517.399902
-769.322327 -92.077362 519.728210
-798.971069 6.413660 636.322754
-672.448669 -50.799309 729.649231
-765.567993 -14.273796 651.323120
-782.200867 28.815329 709.714905
-621.134033 -208.227493 513.517883
-642.703613 -97.648621 682.475708
-643.252136 -0.311488 805.133667
-674.768860 -44.540081 726.729004
-636.631653 -93.443321 697.674927
-842.791931 -39.680061 500.984650
-822.192383 -89.544075 420.336670
-728.602722 -80.549599 610.221863
-600.121582 -98.722054 729.330322
-818.935059 -77.361839 498.866638
-684.313965 -86.790619 664.091797
-659.659912 -209.572739 467.197815
-733.957336 -162.139084 440.011200
-881.203857 -31.271492 510.827240
-774.374939 -81.623741 546.485779
-735.206543 -67.228096 613.539368
-623.524353 -147.067871 608.629822
-733.565491 -206.405197 388.030579
-877.268555 21.750751 604.851013
-723.592041 -165.206345 449.320404
-873.128052 23.628712 513.031982
-694.108826 -23.390425 740.850159
-622.300415 -51.247349 722.835449
-728.916809 -201.215027 409.824646
-880.391724 62.840397 509.105469
-665.583069 -135.058685 574.856384
-760.830261 -145.692871 403.442932
-771.729187 -167.490829 355.634155
-745.750305 -119.670609 527.916565
-769.381836 14.291219 685.610596
-603.755981 -125.302979 678.588684
-789.132202 4.785921 669.842041
-680.698120 -32.114658 757.193176
-787.716614 -74.526863 523.423462
-618.618591 -243.488297 460.483673
-730.712524 -120.022423 513.724670
-806.061523 -84.942650 498.691010
-737.873474 -125.723022 494.320313
