ply
format ascii 1.0
element vertex 1417
property float x
property float y
property float z
end_header
-12.906161 697.877258 -594.847107
224.531860 797.008972 -646.716370
62.573135 747.261780 -445.423462
-59.786030 666.483337 -742.282043
153.112549 788.562439 -465.766418
188.677780 762.330933 -615.757568
186.189651 790.572021 -534.498291
-4.004409 729.916138 -452.100647
289.137482 863.371033 -461.364746
197.501450 743.368042 -757.056885
187.934097 822.573181 -477.149658
118.163757 775.121582 -493.644867
163.033920 780.916199 -599.234619
189.433807 779.322327 -721.898621
51.413807 729.315063 -519.010193
121.718201 770.590576 -499.147583
239.072937 799.393738 -678.594299
70.547577 777.695557 -413.473389
3.695931 684.177856 -755.999146
-39.309891 681.838562 -586.881348
63.459908 724.282532 -595.853699
96.513657 758.053162 -511.720367
190.643326 829.364563 -445.535339
291.722015 857.226624 -544.078857
45.097672 742.322144 -435.077789
117.808533 692.233032 -761.554199
245.291718 826.731934 -520.186646
8.599538 720.190979 -542.025208
-57.539562 685.960022 -444.509186
-33.744083 679.374939 -550.165527
182.376923 750.572876 -741.504395
172.924667 772.095642 -615.461914
211.785385 825.329590 -501.815643
-71.607025 673.765015 -529.111938
-41.013226 674.482483 -552.497925
82.839638 768.388855 -437.673370
231.769379 813.540100 -588.004944
181.527267 739.086792 -759.885315
257.582550 813.968262 -718.274841
175.217392 806.393188 -493.036011
117.362465 770.299011 -515.282776
146.770126 782.743774 -550.670776
164.867920 789.601440 -520.503174
175.438004 671.410095 -759.392883
-66.491302 670.296387 -509.220337
300.567719 826.397827 -536.894104
173.280838 781.996704 -593.896362
76.001648 749.552124 -503.649261
287.755829 828.572144 -518.129150
48.900764 697.228516 -753.977295
203.782516 790.104187 -693.353333
-29.111700 668.794617 -614.389771
78.106079 721.497986 -633.264404
77.631264 780.716858 -416.723694
64.056496 717.239380 -617.251709
160.498718 740.176025 -714.575562
176.232285 803.790466 -471.448334
154.326019 770.362854 -460.788147
216.300644 757.240295 -761.931885
156.661469 769.162598 -726.978149
207.328171 809.962891 -531.863770
226.487061 825.441284 -414.207764
259.730957 848.419922 -431.995697
205.341629 800.183411 -445.315735
167.022888 770.364441 -683.714233
-108.410881 641.688416 -549.546814
243.585526 822.770813 -536.820068
91.710587 704.737915 -723.579773
211.379684 797.757935 -627.401733
161.760254 775.614014 -564.989380
218.119232 801.295471 -607.621704
302.328613 839.946106 -637.732056
182.563995 800.307007 -557.415405
141.688568 768.541199 -575.592041
153.843597 762.887512 -524.310120
145.728378 783.068787 -562.615601
169.344055 809.244141 -495.001160
-86.651001 637.850037 -571.321472
161.429855 771.170959 -636.252380
259.595612 849.672241 -478.266205
185.815369 735.721985 -760.115723
103.213539 781.037720 -418.509766
271.412689 855.079651 -481.743347
140.830872 728.187988 -747.485657
44.699097 691.811768 -650.350403
-48.476524 682.739746 -743.523743
-14.096700 691.294067 -597.933044
300.236206 868.520447 -490.719727
294.620361 841.732971 -587.114380
-22.464348 703.363037 -451.207245
-74.286339 650.671082 -654.434143
-58.724712 649.838318 -573.163635
19.241266 738.260742 -487.897491
270.120605 819.627380 -653.239685
-30.895100 661.601257 -687.636475
273.291779 851.938293 -499.496765
62.411858 762.153564 -477.612488
239.257080 854.398254 -423.206146
240.957352 793.672607 -590.314514
265.438354 850.485046 -486.371979
104.857750 764.792053 -470.593903
236.277863 841.594238 -427.812622
117.815300 675.492493 -765.670471
292.513153 864.001343 -510.998749
-106.969711 652.187500 -583.327393
78.058212 719.412231 -688.078674
99.456245 712.571289 -642.263611
204.762878 778.230042 -679.738342
59.973682 673.594849 -748.040344
81.736740 701.681458 -679.201538
132.672577 784.820618 -443.216309
93.591614 725.459595 -573.172791
176.571136 763.786804 -715.238159
207.006836 754.252014 -746.264282
123.329445 777.046753 -498.127747
191.410904 779.115112 -627.491089
36.426502 737.710327 -461.743744
274.924286 837.427551 -591.714294
-4.872424 697.614868 -603.842468
263.554504 799.115784 -723.244446
140.428131 793.989746 -492.595703
238.431412 834.234375 -455.038788
56.208405 741.993408 -543.475708
-70.008499 683.641785 -443.450836
88.994492 721.589478 -727.195801
101.901115 788.069214 -447.275482
122.681740 688.491821 -753.068542
158.264526 802.690674 -463.580353
-79.128868 626.444153 -677.245056
-38.784077 667.305603 -600.047607
18.610710 671.250000 -731.817261
164.544525 734.022339 -747.586060
-38.897110 685.850769 -570.833374
66.989578 725.825989 -569.442566
187.411301 802.433960 -576.091736
28.220322 708.943115 -535.523926
31.732014 716.668640 -546.153137
33.006310 694.603333 -741.712524
120.555305 730.459900 -680.936279
133.929199 784.041382 -461.290680
167.164597 801.439819 -501.870941
309.355316 853.136658 -614.935181
52.673496 715.407532 -554.809509
79.208504 752.067444 -432.541718
-81.899963 665.992798 -486.021515
299.620758 841.216125 -644.024902
143.825958 787.371765 -500.579956
108.735352 757.054138 -600.924011
235.205414 799.678345 -702.840271
185.633575 816.366699 -486.458435
168.091721 761.209534 -539.822876
252.441422 818.234680 -567.259766
38.348194 690.658386 -661.059998
276.954865 852.227173 -523.797119
73.717056 710.864014 -665.671570
304.280914 859.696045 -437.870148
269.541382 828.044006 -570.751587
111.794441 753.777161 -632.507935
277.888092 828.189758 -504.762115
227.044785 773.317566 -695.519348
88.242264 753.439453 -507.621399
200.103836 832.255554 -416.078033
266.619385 843.960266 -523.159668
47.497726 723.040283 -569.803772
-51.375069 684.586975 -555.750916
69.438179 715.315002 -696.668213
15.760734 724.437866 -476.880981
161.728333 759.934753 -622.908752
252.631729 856.749634 -451.004883
306.032288 862.817566 -546.166809
39.210346 737.309143 -475.398621
-114.936501 645.975464 -487.453522
168.037842 737.229370 -757.927673
233.239471 825.737976 -498.232574
215.658173 828.906921 -452.915070
287.336731 830.569275 -631.509338
-19.118223 678.703979 -550.818909
295.949463 849.626282 -538.615967
85.160706 744.297363 -589.026428
286.285034 854.681946 -503.716461
-86.503723 665.072083 -563.439392
-145.132385 664.573975 -422.244141
-22.682367 719.464905 -461.327362
27.415979 712.544128 -457.595642
-34.949528 676.962463 -560.166931
166.208908 700.905823 -747.821350
212.010010 816.218689 -493.064148
232.982147 801.537537 -758.262085
74.074013 718.251282 -623.384644
132.053665 743.417969 -758.906433
169.331619 807.982483 -469.178986
118.116280 741.945007 -744.641357
80.443222 686.221252 -762.718689
29.403645 662.816345 -762.414429
-110.707199 639.249023 -646.071533
135.336716 653.901306 -755.114502
264.341522 822.073181 -615.264282
93.073006 759.064941 -545.842224
-23.687143 686.384460 -544.272095
199.339340 769.261230 -746.139160
-92.741524 664.270752 -553.251343
87.964691 728.183899 -746.311462
-121.173096 622.091736 -654.506287
96.533669 741.770569 -492.599152
33.660393 719.904785 -583.287415
277.415527 822.416016 -497.909607
77.287819 729.138611 -607.605225
158.892715 785.552002 -582.477783
119.433983 734.480164 -742.258301
1.219031 683.881348 -662.404602
-105.389809 633.926086 -670.535461
27.920238 716.321838 -586.042480
181.446014 800.680603 -497.811401
279.539520 850.426880 -756.236145
-23.223934 712.524597 -508.725647
-58.635406 652.225342 -574.669495
284.775452 825.970154 -617.027710
69.871452 732.853699 -549.798096
292.477905 811.013855 -616.593445
-75.736694 645.248047 -618.580750
-83.111565 634.693237 -636.897400
-58.661366 684.363037 -528.399231
-11.319351 704.306091 -495.102539
71.018143 715.735291 -720.630920
220.656143 838.635254 -446.419342
270.438660 833.326172 -589.026184
107.187004 633.953125 -755.547302
252.898666 833.903931 -427.950531
-103.933464 619.495850 -596.827942
-100.625412 654.063904 -576.901489
-108.081406 658.159668 -511.792542
266.050751 811.573303 -608.302246
253.894287 831.533325 -441.603119
250.460709 835.754028 -489.680786
-6.534227 686.084717 -669.791992
107.701035 747.975464 -575.683655
312.023712 838.991760 -673.722534
191.375870 779.221558 -742.772339
158.367371 712.256165 -763.041138
189.306259 808.629089 -504.319061
303.082123 851.226318 -598.833069
171.693665 776.591064 -594.728149
271.863190 869.269104 -765.686279
299.774628 861.996582 -509.656769
296.967834 806.558960 -717.162903
154.292053 760.141174 -629.458618
33.732613 712.381714 -624.505737
267.226440 813.683044 -551.116638
-83.138176 661.555664 -554.126099
112.351616 737.015137 -696.816528
13.585462 705.919312 -755.672180
136.269684 783.738708 -536.581238
201.989487 806.707336 -767.648621
279.315308 861.251038 -478.827911
54.329418 671.482361 -766.878174
204.034683 809.351379 -748.875122
2.309993 716.730591 -431.127075
29.135027 734.245056 -523.141541
223.078140 782.710022 -640.913818
-104.835480 672.378418 -493.964722
251.979248 849.364380 -477.596008
153.905762 802.797668 -439.190521
-9.120218 709.669312 -451.548584
125.179321 745.017822 -677.084900
187.572693 791.986511 -437.750702
307.646606 837.454712 -684.644592
-12.629851 710.898499 -446.010071
280.408325 847.591797 -533.464478
178.359772 813.331787 -465.175629
156.747070 778.142273 -595.309387
137.325928 722.727661 -753.327209
-10.313124 685.076660 -594.308960
27.296000 721.331787 -514.071411
106.164688 729.998047 -737.502930
146.021790 749.729675 -658.894409
73.041428 700.865234 -754.348389
-21.111467 672.447327 -689.170044
302.538391 848.234863 -542.674744
221.942383 791.021057 -757.758118
-107.595650 654.947449 -465.419006
169.920822 774.301208 -507.916687
-27.841181 697.709106 -544.486877
259.460052 861.729187 -439.172211
283.129486 818.102722 -692.169434
59.347424 720.956299 -556.369629
218.213806 811.144714 -568.096069
46.462463 730.978882 -494.907135
252.164566 821.484192 -577.856140
226.241486 829.892029 -482.920807
189.774811 802.558777 -509.360687
99.704620 766.472290 -457.203857
-17.541052 653.627563 -621.068542
21.058542 712.883484 -601.788696
260.319244 828.869690 -493.562836
186.090454 814.949158 -421.659180
263.700897 818.988220 -598.933167
77.855324 765.553833 -444.982300
82.561577 742.518250 -598.854553
-13.941127 721.470642 -437.230804
219.198441 752.927612 -759.173767
211.535660 789.159607 -637.275879
99.364136 739.402954 -705.507385
83.090691 730.894043 -713.746338
264.354431 857.728210 -435.295319
256.202606 826.601013 -469.497894
162.534943 805.619873 -486.994507
-48.282803 634.565857 -663.747314
108.961075 737.318237 -685.816833
-76.621628 677.972717 -552.206787
242.309128 812.413757 -581.584167
42.596916 718.203186 -546.899353
202.630371 735.823853 -761.212708
283.719177 864.300232 -455.898682
178.546875 709.853149 -765.671753
58.826355 738.762268 -514.366028
233.452866 846.543396 -443.506073
20.236349 723.374512 -539.758972
146.440018 693.128601 -765.556274
192.456390 820.186829 -501.006134
131.587219 748.401245 -610.574890
252.832291 820.841125 -487.123047
200.796539 770.351501 -605.782410
-65.675385 645.227478 -634.765686
170.485199 674.788025 -762.259399
252.613113 849.395142 -499.372650
70.413078 762.280518 -426.948792
244.495773 806.564636 -646.927979
132.416763 644.003845 -751.403809
239.913376 818.640442 -601.116577
278.646210 869.202209 -449.568329
127.560440 743.843506 -637.152039
116.760895 695.126282 -760.819885
162.388504 729.166199 -747.924072
-0.301436 721.016235 -428.475403
-44.377213 640.308411 -680.772095
-63.819500 675.802185 -503.105499
269.277008 844.039307 -569.447144
202.974808 711.210022 -760.907532
180.000458 767.605774 -714.261230
51.214100 766.533447 -434.781281
187.727676 748.003052 -759.281494
65.057968 746.553955 -494.214264
94.165054 741.201721 -623.173157
306.580444 836.445251 -683.068787
100.209175 777.948608 -485.171844
98.461594 699.608887 -757.124023
235.405151 824.284546 -567.464478
66.546532 744.358154 -480.289276
-17.432013 698.528748 -498.514587
-48.808151 686.436218 -542.180603
70.792076 740.169800 -583.303772
273.082642 849.946594 -513.387024
133.050659 752.888855 -657.701416
155.582336 722.151123 -740.118958
279.201416 869.340515 -446.967621
-116.634125 657.835754 -546.676758
-83.712830 624.207581 -584.239624
82.886276 764.491882 -475.054291
44.668068 654.624451 -762.131836
2.276681 720.555420 -497.489655
260.510193 861.782349 -443.947266
153.120148 766.393433 -508.211639
90.011467 735.858154 -585.984558
-139.153091 641.225952 -539.020447
-73.711258 678.924438 -463.226959
37.807407 749.812073 -418.494171
-162.755936 651.297729 -438.914429
-85.885872 631.472595 -688.921387
23.032461 739.832214 -427.126282
-61.793644 650.279297 -617.952209
212.022247 838.400940 -445.984741
-88.336937 635.262329 -670.898010
35.976280 650.339844 -750.380737
261.848541 845.075745 -753.151917
105.321083 718.756592 -739.197876
63.418594 698.855164 -652.553833
168.209503 768.966309 -670.892151
173.711456 759.954895 -570.674316
146.637527 653.609497 -762.014404
258.418884 843.664612 -472.959381
55.356747 699.944702 -632.283569
202.553848 813.712402 -544.120972
84.751839 749.311401 -536.432495
-87.591835 678.864868 -495.597778
258.163635 848.035828 -514.936340
45.041382 738.554504 -537.138550
26.717474 706.063232 -567.868469
170.319916 772.343079 -662.476990
134.755737 773.501587 -592.224365
96.293404 736.290527 -649.555481
237.445099 792.788452 -688.619324
209.034515 833.921509 -431.624207
282.837891 869.897461 -427.577362
216.709747 804.024109 -570.548767
70.875961 762.809326 -428.952362
175.034592 781.360107 -722.917908
67.895264 731.776733 -559.686523
209.144257 819.692444 -532.415283
203.511902 804.943787 -587.955750
152.122269 770.091553 -555.610535
30.427437 725.656799 -550.226135
239.706848 791.894165 -704.443237
86.300079 759.648682 -529.958984
-102.056946 681.491699 -454.116699
174.273575 749.536987 -763.497192
-126.351143 654.987793 -452.819061
188.000916 704.088318 -753.377197
179.055664 792.030029 -585.843933
-31.755924 707.232788 -434.831573
-130.392166 646.377441 -556.299011
114.113831 773.789551 -510.389832
301.765839 840.313782 -620.996155
22.154627 680.703308 -681.253601
-101.285103 653.982971 -567.202881
141.913208 765.786438 -644.141846
28.047848 746.165588 -413.269379
68.731728 718.434021 -727.005066
171.170654 791.395813 -497.199463
165.449631 811.071289 -424.874207
112.610764 731.985352 -712.686829
287.654388 857.521484 -476.277557
-7.388077 653.882935 -654.212524
192.309174 786.080505 -650.460510
64.692177 673.243774 -762.542786
-97.862976 672.718262 -440.642822
258.294891 835.746521 -464.928223
-109.754776 674.630005 -480.204895
156.708115 759.467102 -544.937622
98.167938 767.090210 -524.919678
251.244980 842.804199 -515.648621
182.345871 772.605225 -672.748352
70.802635 731.618286 -482.488800
-8.302483 726.889099 -458.363403
257.491669 847.067871 -415.139282
140.218445 798.531372 -417.303009
-71.568512 704.583618 -436.273621
291.005432 840.240234 -607.463806
210.685684 742.981079 -769.332336
286.490601 841.808167 -576.218262
265.048767 833.200745 -588.506409
-113.596924 672.054993 -468.556885
20.069725 697.057434 -594.877686
240.712509 792.728882 -649.032837
-64.294289 639.592407 -649.403076
261.431061 859.094727 -439.334167
168.511292 789.674927 -511.012573
-56.848854 672.244568 -597.915466
-92.646370 625.077820 -672.396240
102.103859 731.523682 -525.710938
-114.407928 650.216370 -550.499939
128.246780 750.892334 -726.129211
64.460220 769.190735 -426.802612
166.195847 799.178467 -466.689972
192.259781 799.545837 -768.029663
234.502594 793.092285 -739.329346
161.825333 764.257324 -708.551819
223.867538 827.508850 -495.632874
202.700531 800.884338 -568.929199
132.850403 764.553894 -604.678345
303.520447 868.540894 -500.753723
-8.101178 676.633545 -576.602966
266.895111 863.492737 -425.440369
19.541681 698.198486 -589.521667
91.632538 766.556580 -487.534332
286.733032 845.367920 -589.531860
18.696087 703.932922 -534.066650
-102.060226 657.578125 -578.374268
-113.508507 662.430969 -496.581055
123.068047 790.848572 -421.961731
-110.229927 651.737305 -556.258118
122.804985 745.279175 -662.532410
119.344963 734.228394 -675.218750
194.545334 806.368652 -549.747437
-135.787491 619.747314 -696.178223
213.625046 797.908142 -579.190918
259.975861 851.191528 -478.769043
207.762665 781.182373 -690.176514
134.300247 760.541138 -560.662720
88.795403 747.152283 -544.062561
-55.720722 677.946655 -501.937531
109.143684 770.967041 -529.979492
216.487061 810.333069 -578.230774
237.875580 801.727295 -658.420532
142.040268 794.786926 -460.184967
211.827469 803.242920 -616.301208
70.609711 754.759644 -435.257751
66.850060 760.278564 -442.858337
205.728714 821.923035 -508.749878
204.445343 789.020569 -658.718994
92.047478 760.926331 -470.206268
69.176224 752.578979 -444.750183
200.557220 774.934631 -676.009766
-18.829908 707.472168 -452.818359
227.321030 777.342163 -663.060791
166.496414 770.085632 -630.168640
-124.697815 651.628296 -530.835754
202.987381 761.381897 -687.188049
-51.188038 694.342224 -510.382629
44.269077 693.629272 -656.835632
38.884220 756.681030 -429.472809
160.044754 791.275085 -526.302551
183.108337 772.179260 -645.167480
68.961205 744.469543 -489.992981
-64.468536 694.243164 -480.215851
-5.196081 689.419983 -633.437805
-68.610603 647.114868 -513.866150
95.564690 769.147827 -439.950958
188.452408 772.570801 -730.994995
72.977051 765.365845 -413.294708
203.826172 807.713196 -502.760101
143.578201 788.092590 -466.627869
160.058014 808.492371 -422.060730
281.265533 863.365295 -482.889160
-112.501892 653.621460 -555.348206
198.763626 789.554993 -726.731812
204.396011 834.946472 -419.271515
-74.069077 666.806091 -584.132202
42.013504 683.220642 -736.169189
88.653740 713.779724 -673.492065
206.413757 837.457275 -412.210571
-43.844151 685.440979 -744.240479
84.100304 695.226135 -753.695801
299.068024 836.592896 -640.735840
151.701096 751.310608 -738.257202
145.073776 749.911987 -663.878357
80.580956 726.274109 -612.505798
-122.091927 661.802185 -509.500641
271.202087 828.804504 -752.229187
-14.835577 688.586426 -463.046631
193.248871 817.822632 -484.318909
311.388367 827.087463 -680.418823
-78.213089 642.933594 -621.105225
156.659882 761.631470 -737.098511
310.044434 831.551147 -564.963806
104.339066 728.902954 -739.539490
-110.230103 629.206726 -519.527832
-29.433161 660.427734 -645.673218
186.536499 813.098389 -474.664032
107.256027 711.449524 -742.938416
-34.539917 653.237854 -580.289795
287.231750 865.481445 -490.252258
172.122437 776.849243 -598.546570
72.185616 757.676208 -436.172028
-76.937553 638.756775 -628.386047
192.806900 792.774231 -768.936646
198.118591 808.652466 -525.188171
143.365189 755.987671 -623.019165
108.819771 781.510803 -425.085236
38.130157 751.672852 -443.493439
-13.311389 679.466797 -519.028625
148.295441 700.371094 -751.113037
226.744324 840.457397 -465.605896
148.366501 753.592834 -720.909973
126.701401 770.682190 -560.818298
80.219803 760.785339 -472.265717
45.378784 733.478943 -508.571808
207.935486 818.986267 -519.617493
90.896072 770.867676 -455.600983
31.850758 698.534729 -666.256165
-12.776096 688.674133 -467.516266
123.504265 781.852051 -471.422272
235.178238 807.104553 -644.005859
-91.033981 640.176758 -677.442932
95.898949 729.175598 -722.187439
166.461700 775.218994 -592.614685
131.388535 777.702637 -470.967712
307.550201 880.394897 -481.251129
89.119156 737.536621 -564.649414
-28.337074 671.773987 -559.416809
302.176819 853.823059 -523.678589
198.568527 775.686096 -663.625000
40.965675 721.266663 -482.025787
271.732697 867.459839 -434.498505
138.972015 743.401428 -700.466919
200.445419 772.747437 -665.707458
284.067963 848.733582 -560.314819
268.647888 839.016174 -469.846741
15.633673 738.815308 -458.945587
21.248085 699.718811 -516.704468
251.507950 829.021362 -559.639648
-95.439140 671.940979 -439.944183
29.281939 708.743042 -489.423248
-22.302664 705.192627 -437.891998
252.980545 835.341003 -498.432190
329.841797 848.160400 -665.869751
81.884247 749.582458 -514.183838
-56.455101 690.452637 -466.297760
309.327484 872.284668 -465.097626
287.571106 850.332886 -552.491150
198.299805 787.657166 -654.699280
279.577911 838.555603 -502.008911
-28.831438 655.167908 -657.760376
286.383148 852.180115 -543.094971
224.168930 832.828857 -468.763062
42.629993 739.051575 -539.477966
-126.202034 631.228638 -483.303009
-23.360209 694.884338 -510.597870
289.551392 886.266113 -754.528381
192.605865 770.893982 -634.832886
79.372955 730.918884 -573.420166
18.311455 713.446350 -520.898499
-114.996208 644.446289 -586.985168
55.995377 721.245178 -729.269775
297.736664 884.972412 -411.903625
277.762695 827.718750 -471.321564
77.730759 754.685974 -477.166840
164.556503 720.330994 -739.424561
296.226685 835.270386 -611.812683
144.447647 783.115784 -551.328979
-118.113159 656.814392 -516.270569
207.526031 813.332336 -465.531433
228.826508 797.842285 -763.397827
248.109085 807.424988 -590.985046
266.901642 863.055603 -454.764343
88.682617 757.146057 -503.972137
29.505083 740.348450 -427.394958
272.165161 846.483826 -541.532471
-48.767494 678.172424 -452.620697
80.006882 769.550110 -422.727051
82.429077 731.193237 -588.660522
-47.906185 634.358948 -655.148804
92.958687 719.171021 -731.162170
-64.921806 677.289001 -499.021729
283.753479 816.663391 -667.585571
190.992432 767.664001 -666.474121
111.454216 776.767639 -474.962921
17.028055 665.490784 -677.666260
-110.195747 657.313904 -487.796021
145.559830 742.586487 -690.567871
26.029762 693.139465 -714.672546
153.264542 796.520020 -480.887329
215.742676 816.663818 -535.078735
-102.845047 653.767090 -512.239075
-59.438263 686.451416 -529.019775
135.548782 747.444336 -563.960510
-113.046844 648.181702 -512.862610
207.087753 737.134338 -767.348206
100.139481 756.971008 -510.930756
261.430695 810.487671 -555.876892
263.624664 873.089417 -413.861847
247.870605 798.385925 -670.609924
131.029129 771.305542 -501.917267
205.063126 808.389404 -548.150452
260.953156 841.187317 -533.330383
21.219179 733.044678 -500.865356
152.213013 773.543030 -625.766479
131.373489 775.135010 -439.628235
89.710442 676.043213 -757.612366
74.738853 717.354065 -568.894592
168.919983 790.347351 -538.450134
220.470108 822.742065 -541.673767
216.944489 817.477051 -421.921692
22.213804 666.252380 -760.016113
132.841827 776.273682 -499.445435
210.428238 816.080688 -454.962189
55.295616 675.252869 -756.728943
167.490158 826.250366 -413.094147
0.209542 687.461121 -589.313232
90.752884 747.699280 -610.326172
175.387375 808.494934 -461.570251
139.716446 784.905334 -471.957642
323.804108 876.227173 -438.071503
218.609482 826.987671 -425.336304
-2.290278 659.440125 -637.231934
290.565125 867.641968 -484.477966
-44.987366 668.925171 -659.346985
283.507080 835.754578 -619.290100
-51.330296 673.100525 -464.585602
3.628066 676.974243 -648.928833
90.035744 719.575684 -589.328430
68.698021 755.534424 -465.531006
183.447647 695.804565 -766.938354
-13.870019 674.008179 -626.354248
233.383270 848.184204 -433.388031
-89.752228 628.212769 -726.422180
-77.023148 641.503540 -676.481445
27.200666 703.657715 -539.603149
-10.126709 659.885681 -733.700562
-87.098526 654.189697 -611.008423
0.958619 717.337036 -523.941406
296.884094 828.294128 -668.402283
116.571922 746.009277 -521.018799
243.249863 827.786804 -509.184509
248.868317 819.331909 -564.756042
235.901596 809.385559 -613.460999
199.941772 756.435974 -767.810181
-119.337280 655.977905 -535.080078
9.860394 712.106689 -498.050751
245.349152 817.766296 -594.174255
95.438751 729.844543 -600.859070
258.074799 803.586975 -691.573425
75.092560 725.621765 -721.580261
53.446640 760.476868 -415.381470
6.926941 726.872131 -492.832001
53.407215 677.253174 -746.222961
101.601089 668.225342 -749.723083
-71.828926 652.827148 -519.467834
280.464203 862.583557 -461.918335
152.841003 774.762695 -560.228577
214.447021 826.862183 -438.696625
77.029274 727.425964 -474.535980
119.658958 761.126709 -593.597656
294.430908 859.497925 -518.506592
11.322128 691.478210 -621.590088
130.633423 729.044067 -742.208923
-12.064775 681.649963 -615.421753
82.337700 749.390076 -519.554504
38.317795 738.204102 -470.450500
-102.375038 641.951355 -545.888245
290.995789 869.570313 -462.323059
-51.423382 674.854004 -528.633057
201.247330 789.670532 -508.027161
80.820518 715.686951 -657.283997
40.141514 740.306702 -464.821625
34.534023 709.117188 -503.313599
222.400467 829.877625 -429.565765
39.628910 741.877747 -431.099640
216.906647 827.862244 -475.283234
254.061279 802.535339 -678.060364
96.955032 748.773987 -547.769043
248.296616 799.610901 -679.921448
265.448059 816.086731 -638.341431
111.918945 756.294678 -527.599854
-93.748192 666.165283 -541.940063
53.410328 711.032410 -628.940796
226.645706 812.765320 -572.770630
133.643723 741.130798 -671.283020
164.240295 812.997681 -423.792938
266.118805 836.418701 -527.357117
-122.390663 643.559875 -560.587891
285.353546 871.245972 -418.186554
212.738586 804.538330 -540.089050
-44.360546 670.200745 -566.496216
21.952860 714.246948 -494.170441
210.391647 809.022949 -528.604736
-32.765839 679.639343 -582.162354
316.804260 853.296387 -711.653748
300.569397 821.732666 -632.101257
5.537673 715.861267 -479.518036
203.236710 755.879517 -762.666748
12.458427 722.057983 -482.154358
224.694870 817.127869 -523.219299
-80.007973 668.166748 -539.894409
253.165771 849.190125 -470.905579
36.366215 708.491882 -727.689636
247.371857 832.929810 -553.769653
-107.835159 689.114563 -420.883148
76.762413 718.856750 -751.103577
143.393951 713.390564 -748.942444
168.716110 822.317322 -410.579132
-46.752495 693.857971 -460.159607
-106.167282 635.417419 -494.176666
252.889252 845.812500 -459.636475
114.027420 772.442932 -547.569458
-105.518295 661.904053 -454.889893
257.693939 813.883850 -654.921265
82.458839 649.523315 -758.241089
147.958939 794.998230 -517.651978
36.125214 717.042542 -556.757385
-91.347229 644.509155 -519.541199
-53.183838 683.607300 -572.100830
21.045597 740.647400 -429.961853
-67.471077 676.913452 -574.323425
209.001709 824.472473 -510.909363
110.138565 721.751587 -621.229004
106.348503 759.037781 -530.656555
106.411888 698.860962 -758.534729
-134.023788 636.331604 -728.789368
121.143143 756.863159 -611.991760
86.481712 767.796265 -462.753723
71.131889 705.346619 -756.176270
287.919281 844.531006 -564.218140
200.756912 799.988403 -551.768738
297.109131 821.684082 -610.897766
158.983902 764.235718 -700.184204
303.286011 871.395569 -750.957275
256.259094 828.664978 -590.947815
131.940308 763.305969 -609.003052
148.842346 771.416321 -569.614319
39.603222 656.033447 -758.575317
81.147720 772.589050 -451.891083
14.316929 678.631958 -625.958069
-54.457058 689.132568 -527.937317
302.184509 853.943665 -587.271362
200.482788 788.111877 -677.205933
307.019775 863.703552 -520.808533
75.539650 760.999268 -442.337769
306.925659 827.086609 -616.899658
-8.909945 730.537354 -414.683807
96.229118 763.056580 -482.697540
210.708115 815.195984 -572.299438
286.476379 850.074219 -551.720276
116.391014 691.592346 -761.811035
280.850983 858.337097 -506.020966
73.744568 748.595947 -540.528809
-55.932526 650.430847 -628.743408
308.659454 822.328552 -631.235046
68.817429 749.101257 -491.295471
-70.465378 673.001221 -482.096802
132.008667 727.147461 -720.134583
160.998413 790.881592 -492.290253
310.147675 838.635559 -717.427673
-81.483643 692.549316 -448.912170
171.637695 804.404419 -439.828003
71.395950 753.530334 -452.033752
206.302338 778.545349 -629.485413
242.455643 840.622375 -429.236298
342.724457 858.728821 -718.026550
118.817703 757.902222 -575.987061
52.402485 711.819946 -602.103027
244.006897 857.233521 -422.293701
-96.108040 691.173218 -441.363861
176.904938 802.694580 -477.309235
168.760147 777.659546 -461.246765
-39.293144 667.926270 -644.035522
113.888634 687.149292 -761.287354
103.326439 720.750427 -728.433411
110.433594 738.243042 -677.072510
-13.153749 714.427368 -447.287079
159.766556 701.934021 -765.986450
-32.256096 695.556885 -544.491394
172.059464 761.756042 -745.988403
251.323090 853.719482 -450.363983
-87.736259 680.877319 -488.270599
113.371811 784.836487 -486.779907
172.891220 807.186035 -429.698456
-63.269093 624.103882 -672.800964
46.338139 737.244019 -530.129456
309.160645 879.314392 -485.701141
80.643280 732.317139 -504.263702
-74.988190 642.575317 -629.214294
99.036316 724.306152 -702.415039
180.494644 793.345825 -594.341003
-117.182060 622.052429 -616.953613
140.972839 710.907837 -745.789795
251.203430 857.759705 -421.004242
115.427116 741.111755 -620.402832
-114.542046 657.196106 -441.066162
209.278198 815.225281 -525.292664
184.430588 795.641113 -557.649414
-62.627197 637.780579 -612.941162
171.390121 784.842102 -528.934692
290.099030 823.191895 -693.159485
-134.179199 663.346008 -485.884064
-28.323906 655.196167 -667.170227
203.222977 807.339783 -533.162415
-49.781727 694.195251 -438.705292
-141.447800 645.904541 -459.427917
211.276184 810.119385 -744.957397
17.036945 701.308411 -642.867371
167.526276 755.078796 -733.478394
133.824753 729.699646 -751.375793
-32.130829 723.508667 -435.315125
-132.321671 615.608398 -711.164856
165.000763 806.874512 -495.482880
22.297569 703.660767 -594.338013
90.063629 748.801331 -586.389465
201.124176 800.025513 -561.675110
143.982193 713.828979 -767.235657
299.087433 860.657471 -516.712646
-1.919649 722.226318 -476.718445
12.633306 732.070801 -422.585907
188.046097 824.928345 -465.274078
218.738510 827.577209 -529.260986
63.295097 742.474487 -559.040039
-65.392548 634.367859 -676.505798
-99.309959 647.148621 -635.091675
262.592712 809.661499 -690.695618
231.750015 824.605591 -498.450592
195.614639 780.901428 -712.887390
254.122849 874.837280 -419.638489
327.233490 862.158081 -601.194336
217.261444 832.437683 -480.887482
157.183548 791.830933 -540.518066
130.623886 747.664917 -634.237244
183.447754 793.851746 -545.109497
80.721764 732.003113 -715.904602
5.296980 684.112915 -649.566528
241.537811 819.833374 -577.430481
223.119110 816.565552 -574.644409
-59.432316 620.310364 -677.311096
102.037048 710.284546 -754.952820
77.044426 762.667969 -431.493988
-76.076599 648.580994 -650.215637
209.471237 742.715942 -763.914124
190.771423 772.851196 -668.261719
250.974533 846.493469 -493.957092
76.756653 735.914551 -572.171021
218.720612 807.067566 -579.007690
-30.860950 679.861633 -554.872864
46.028637 690.920776 -670.386169
290.510864 847.481384 -578.851074
115.083946 768.049500 -429.665680
269.598511 823.400940 -619.186096
268.266907 847.725281 -529.520325
266.968353 852.014893 -424.172852
305.458801 857.491028 -571.076782
3.726549 697.794678 -566.350525
-32.684711 709.004211 -482.737305
60.544308 721.377075 -637.667175
-131.351456 620.045715 -656.246704
49.407764 693.259766 -700.636230
254.935028 851.507813 -452.932373
31.032133 715.191528 -607.310181
109.693764 747.493042 -601.056519
280.233459 866.890503 -432.751801
32.681599 749.597107 -447.563263
73.309769 732.470947 -579.288818
182.185577 802.102478 -553.410950
56.444061 753.625977 -500.305298
-10.425598 707.081482 -763.904907
18.570745 700.561768 -588.165833
249.860718 846.727783 -488.666840
191.539185 805.000000 -556.276489
249.563751 803.300964 -650.596375
221.940384 817.165100 -569.143494
136.480942 763.838257 -566.312805
115.081032 784.745117 -443.642792
285.282013 823.254639 -714.447327
-38.953995 657.294006 -702.192078
240.037369 845.844910 -463.257416
164.725113 765.512207 -758.196350
30.057526 674.818604 -763.674683
205.065598 823.915100 -512.495605
-145.101120 645.179077 -442.201080
-35.671978 642.136047 -626.409729
155.057114 810.283386 -428.401001
-4.975012 676.106201 -587.112488
286.282715 854.869446 -486.704865
188.329346 792.923950 -736.785950
114.289940 766.792725 -514.641296
200.373062 767.000366 -624.659912
190.580688 774.691528 -643.660156
-12.931340 708.313416 -492.628387
6.648186 701.428406 -563.193542
287.217468 845.744812 -574.491028
112.627518 748.168335 -584.961792
278.598877 853.519714 -543.257202
163.537476 797.889099 -539.669556
226.258408 791.102661 -537.151001
39.534691 716.450623 -552.355469
181.874741 724.714172 -767.138855
173.247391 803.189087 -524.215149
192.779694 823.934143 -469.252625
66.047455 703.841919 -671.618103
-91.261063 675.212402 -457.760376
183.510773 790.080811 -600.893311
38.590874 712.159058 -627.682495
-78.775002 660.910095 -536.789734
279.999329 831.745422 -643.780273
160.085678 768.278076 -616.207336
101.749702 761.347900 -499.939758
62.727467 722.778809 -578.791199
18.131563 736.213257 -479.936005
194.297134 804.402344 -767.335510
161.662582 799.088074 -432.799408
85.584785 747.258728 -437.335297
237.102951 844.581055 -430.686676
-48.889275 646.687805 -652.249268
-98.894608 646.529541 -442.365936
87.328461 756.233765 -470.331360
235.469620 832.955139 -437.208923
-121.426804 672.010620 -442.453156
161.172043 814.322998 -454.768494
161.379333 799.057129 -430.461823
109.697746 758.792786 -549.516357
174.802612 761.733398 -732.623657
230.152283 835.112122 -519.201233
304.941742 822.662170 -689.708801
55.209728 728.796692 -601.556396
188.613266 788.427673 -633.506592
72.242012 719.555908 -720.041260
-89.250801 663.635498 -593.848083
312.255249 841.364929 -644.705505
92.904968 741.519714 -586.366272
119.855408 717.575623 -752.296570
187.352814 751.909485 -681.356140
-113.951073 647.206848 -490.451538
276.587158 847.493713 -538.732666
330.799042 868.817444 -587.202148
151.380875 772.999695 -606.379517
220.005127 753.331787 -755.927246
-22.538691 685.010620 -549.861633
144.186768 769.631165 -630.630249
250.156982 826.809875 -496.973267
176.749390 773.116272 -760.967773
196.359314 833.368408 -414.961578
258.277405 853.903442 -765.942932
299.972687 856.902649 -480.424866
269.748413 814.380737 -698.542236
-94.335281 649.543274 -533.701111
104.812447 737.862366 -632.036316
300.362305 849.570496 -548.230408
-15.814221 735.713684 -443.100281
76.218956 717.606934 -606.754211
229.542191 843.100952 -437.304962
132.703751 792.531799 -438.200256
7.341854 707.069763 -521.919189
154.898560 726.418213 -746.413025
97.946236 773.004700 -429.638916
195.112335 775.691650 -535.036865
139.628738 762.128723 -566.428040
203.315308 831.762024 -419.490540
282.625610 851.009583 -534.929138
157.157776 745.932434 -755.185547
185.767838 738.950195 -746.828857
72.252632 723.667419 -587.353088
63.144703 712.617493 -618.677795
-68.288010 646.195007 -614.827148
197.933105 812.495605 -538.193848
-100.067795 628.158569 -700.054871
-101.298531 610.635193 -697.352783
94.690063 744.525879 -614.286072
-121.068825 631.970093 -613.185242
237.795029 842.615234 -468.357666
50.856396 713.480164 -590.812927
243.832108 826.305054 -563.549927
225.501358 796.752319 -629.315796
-100.224228 647.949463 -559.735107
-98.597626 668.555420 -487.609222
-82.811211 662.059143 -504.566528
151.883286 750.522400 -734.033508
-12.263816 670.836731 -722.861694
297.830078 852.263000 -475.549591
209.507736 716.699402 -764.880859
-70.188583 687.316284 -498.185364
162.790939 774.351624 -623.891418
77.823914 741.451782 -549.506836
152.354782 781.406372 -570.679260
294.647003 867.312805 -487.105499
302.559113 836.977417 -569.145264
-31.932629 722.281250 -432.080811
217.981018 824.768372 -444.129974
196.760117 799.261047 -586.834717
207.776703 771.214905 -770.200562
-144.214371 639.131592 -538.638062
-108.751022 667.892090 -509.536560
150.760742 791.259705 -529.821716
24.469881 713.516724 -532.620361
68.369316 716.239258 -676.304871
-123.739632 663.783142 -474.946625
11.655789 688.129456 -522.760437
44.862877 721.542175 -599.476868
258.958649 796.697876 -647.013489
-24.353945 686.234802 -757.603271
-51.746063 704.681091 -461.634827
226.933105 802.238831 -664.063110
-117.528824 615.371216 -693.914124
214.983368 762.159424 -761.237915
25.949034 711.733887 -543.226990
201.040054 725.061035 -767.015137
34.443501 735.635132 -527.758240
129.911957 719.897278 -756.743835
-67.244804 624.252625 -626.780945
184.698013 785.799927 -624.057129
234.694809 852.715393 -433.361572
115.275810 709.198242 -752.550293
151.504959 779.841858 -552.850525
159.525116 754.400452 -639.626160
84.977707 718.316040 -745.450317
16.208899 718.405640 -572.690247
254.728058 813.884338 -678.923462
-48.027214 694.236816 -447.056824
33.272224 712.763977 -507.928131
196.347900 766.826843 -686.425537
111.346397 755.175537 -618.412903
258.622559 855.676208 -444.298401
-113.642891 610.538818 -628.774353
276.197205 851.458923 -751.981934
33.275333 640.733704 -756.702271
212.944458 778.079102 -595.789856
-71.873062 685.282959 -503.518341
-14.363408 662.814575 -666.111511
209.222809 827.371277 -484.251038
292.964081 858.240356 -455.110321
-5.693949 676.299194 -635.233765
97.430077 669.689087 -756.398438
2.348897 716.037720 -464.585175
113.458916 742.875183 -609.089294
227.322784 823.749451 -551.757385
74.385460 725.375000 -656.934448
197.597763 786.261658 -516.007141
255.345047 793.112122 -672.686523
221.602463 786.993103 -679.921204
271.220734 855.873047 -493.280640
173.280502 798.745300 -486.205566
2.844747 683.193115 -668.074158
-41.740795 702.243958 -436.782623
-62.188526 689.738586 -445.066284
98.911797 737.347717 -731.496704
260.408905 830.831848 -540.891907
92.874100 645.297546 -752.705994
-77.921349 650.792175 -717.635071
183.402939 707.253540 -763.173462
112.425224 759.123474 -583.805542
164.521500 817.047180 -449.243958
113.676399 789.169861 -442.278870
276.528748 804.313416 -617.914368
234.991104 831.310608 -501.379242
81.124901 733.843201 -572.962036
81.640060 745.624268 -528.598633
30.884220 681.685974 -654.316772
126.944313 701.796448 -745.743896
100.306641 792.004028 -417.492798
220.211868 830.156677 -496.194031
-96.201805 650.654175 -543.789307
-68.486633 680.747803 -497.668823
188.021652 783.360168 -686.184387
-81.307251 677.343567 -453.930573
-33.412651 710.716370 -472.695404
8.171982 680.554810 -703.762573
297.437988 820.320618 -658.250977
-59.972473 657.853638 -589.566528
-10.087902 717.598572 -430.519470
91.755013 722.534546 -662.837524
262.877869 856.402405 -451.772736
49.320751 708.038086 -690.392029
41.464985 730.488098 -513.775024
-150.288879 632.737854 -566.572388
18.038681 679.218384 -740.754272
341.608582 850.142883 -697.276367
122.546867 772.280579 -519.879883
-32.582458 677.394287 -573.226196
144.188217 800.285889 -480.657623
160.497452 787.306824 -508.647369
132.083679 785.850586 -491.239685
100.398842 765.523804 -482.869720
63.529350 760.355835 -481.112732
164.651611 758.523010 -734.353638
221.357071 838.773560 -451.700470
-120.025108 640.721985 -594.267700
280.810425 840.326477 -617.335938
23.243183 722.779053 -508.414764
-90.628410 640.900818 -714.775696
-22.677643 710.949646 -509.596466
210.686600 789.421570 -631.495972
320.652802 856.242920 -582.580750
31.617603 708.997375 -627.603394
206.066254 779.321350 -682.081604
262.270508 871.262512 -420.233765
296.765198 817.463318 -619.002747
106.777885 748.764282 -570.166931
43.744129 705.267212 -544.158264
102.934509 696.097229 -762.116455
72.088570 707.547852 -668.188293
21.884518 699.256042 -548.312622
111.416962 697.839233 -745.360535
133.788162 732.920593 -695.109375
149.917099 749.827332 -639.206055
274.412750 829.737000 -458.535736
268.021759 813.403137 -661.639099
162.761826 784.863403 -536.547485
139.394333 673.949402 -766.018860
-54.913391 704.953857 -420.584564
280.129913 834.183777 -529.584045
325.223602 850.597961 -648.817566
-101.092682 611.005737 -690.456970
-114.781853 630.538391 -647.608948
304.945587 857.984253 -523.905090
-125.210373 643.299011 -575.054382
212.138519 793.571899 -675.836487
35.477180 684.533447 -693.659424
118.303345 743.253662 -665.380249
-3.966224 670.105164 -617.784241
226.966141 803.439819 -620.027893
154.945633 766.016724 -722.802856
292.283478 829.991028 -685.715881
191.656219 772.012512 -629.212769
218.018646 798.646362 -613.769287
119.454514 755.431458 -487.259796
218.800583 823.653442 -507.213196
216.399200 807.896973 -532.067383
195.530823 819.999207 -452.688599
212.222092 761.195679 -768.607849
48.552326 656.489868 -760.636169
-77.388824 680.618164 -443.207306
28.857437 721.629456 -501.267761
218.715393 810.583923 -561.692871
100.723412 771.104431 -514.047607
265.250610 818.958923 -519.840881
-21.686457 678.588135 -609.801697
136.851913 748.931091 -636.454468
313.195160 862.652588 -549.670532
196.061020 788.602356 -603.143677
-1.780281 685.107788 -599.335876
75.913155 708.677002 -677.087646
-68.670982 669.079529 -507.657532
305.507446 853.462097 -704.184631
-71.399063 654.185669 -578.419983
329.799072 855.906067 -535.602417
30.031227 745.416626 -464.259827
265.790894 843.273071 -533.152161
144.427582 765.064392 -580.970947
-1.132509 690.215210 -576.769043
273.268341 825.775757 -700.107056
190.045792 807.784729 -759.994751
-82.591263 703.861816 -435.854767
-27.457035 679.624207 -593.128113
202.830673 794.125549 -697.623962
-19.682186 671.796570 -617.696106
-88.463234 605.300537 -668.001892
241.877106 791.242859 -654.509705
30.727486 726.919739 -478.983246
-104.350922 602.662415 -684.612366
96.214424 730.397644 -633.444092
142.959839 639.458313 -754.761658
162.543701 679.549316 -768.691650
139.886490 753.831726 -740.790405
29.939266 695.247620 -746.464600
0.554188 722.325684 -516.294678
219.203461 743.647705 -759.736328
139.701843 731.730286 -751.246948
-84.433121 635.489746 -634.271545
28.158773 725.588623 -497.188416
265.345917 825.136597 -616.154785
-132.017487 637.423767 -585.360718
227.637909 799.511353 -585.093811
134.862061 782.786255 -436.160339
29.746576 667.328796 -766.667419
257.587280 845.606262 -535.747681
261.658966 858.563293 -467.046570
-85.884995 674.436340 -487.498260
90.127838 678.683350 -761.340881
67.688263 649.988831 -768.556458
3.852739 693.051880 -750.145142
36.381775 691.268127 -655.878540
156.317429 734.178467 -760.300293
157.113770 764.075256 -627.423279
-0.470831 704.518555 -539.640137
90.042824 744.528625 -532.299988
60.817760 740.740540 -573.897034
131.780197 638.917419 -759.559814
32.422127 698.654785 -675.100830
55.272182 735.397705 -520.317322
-115.073341 659.218811 -529.108093
141.543991 774.004517 -512.478210
282.452301 825.844849 -647.494690
215.715668 809.995422 -596.868835
339.580292 867.945251 -681.450684
204.139557 805.814941 -527.120361
190.069855 837.199097 -412.835449
91.924637 768.177124 -503.544891
186.883713 779.825500 -611.116150
93.095314 772.614502 -431.078339
149.431885 786.484619 -422.447266
173.326874 795.726868 -481.690948
-116.218834 631.241821 -638.297424
180.528259 806.119385 -470.098053
-18.203419 692.234070 -589.567627
216.244186 840.016235 -420.894531
-65.414169 659.616455 -523.234436
196.837860 816.706055 -436.021271
25.236185 716.023560 -543.970276
20.414833 706.768311 -575.363525
101.257843 713.561279 -752.263855
74.772583 636.979004 -756.716125
195.987778 773.623169 -684.941406
-11.867956 712.858643 -457.294556
-50.833427 665.509033 -661.733826
-73.540344 672.484131 -499.660583
-94.731819 693.314636 -431.539337
153.463272 711.264404 -757.000732
165.021271 763.761902 -727.230774
137.627640 778.871765 -424.111115
229.387543 811.346680 -631.423767
272.469727 822.410767 -603.553284
244.405548 794.559387 -667.917053
109.452843 784.138000 -439.679382
171.077652 811.519775 -492.722778
308.761536 852.178284 -568.092896
192.769958 807.630615 -538.234070
141.197449 800.140259 -422.325470
40.735287 696.570129 -690.734314
189.957977 798.602417 -530.347412
82.066261 725.160645 -691.533813
91.113304 760.686096 -536.442688
272.262451 813.197021 -658.959412
-56.167980 689.213196 -476.612000
-70.173218 671.559509 -571.496094
97.398903 734.847046 -598.288940
-20.966097 669.330139 -547.317932
-0.251875 708.771973 -555.113647
88.315628 771.147156 -435.479675
18.392776 702.110901 -628.043823
39.993950 694.804199 -718.555359
135.695450 794.561096 -482.128296
11.551426 739.729431 -463.037170
-45.282421 642.321045 -683.641968
150.726334 755.974060 -644.743530
8.128106 716.183167 -548.307434
-69.458740 649.833374 -630.260498
270.615387 855.707031 -447.347931
23.836344 681.879456 -668.920776
255.333923 818.421387 -598.846619
203.507965 789.420532 -656.864990
-63.452648 674.847107 -499.374603
70.242889 733.898621 -612.199097
171.871002 777.864868 -630.066528
55.537865 727.426575 -539.442505
256.535278 840.917725 -476.766907
292.364899 841.799438 -518.647034
210.452881 755.264832 -752.697754
197.158630 809.771118 -760.355957
151.437393 755.935791 -648.634521
146.001038 747.762695 -576.031067
156.173431 794.983582 -485.494446
239.864716 837.337769 -425.934570
216.781708 787.639038 -756.704346
-19.803410 695.214661 -598.578979
-96.332939 653.972778 -506.636261
65.498764 697.168701 -681.149841
264.706909 864.199097 -437.927307
222.502151 795.138367 -772.219788
155.010086 806.197632 -420.449738
-139.337631 651.664917 -532.027100
35.459862 727.178284 -507.306244
119.065529 655.011475 -768.325195
-9.885074 688.093811 -512.630371
294.943665 896.304077 -416.527405
-109.839767 639.844238 -484.575623
6.693723 713.098511 -499.596954
322.459320 848.564636 -673.757324
306.567291 821.423218 -702.359863
-83.736748 690.974792 -418.236420
-9.227953 677.153015 -615.028442
-85.313660 618.924255 -690.300049
100.917007 793.317261 -413.548492
-40.205383 671.183777 -603.959961
-73.641647 654.893677 -724.022339
117.623077 775.633301 -540.435974
-57.990677 680.817261 -555.184753
240.935837 850.206848 -416.251129
200.986740 782.918152 -637.539429
282.625610 831.253296 -501.110687
311.487885 878.999878 -495.953308
173.791641 787.169250 -538.640381
236.676880 818.273010 -605.177795
205.891098 776.616760 -678.915527
-134.649902 644.026123 -592.143372
-65.373550 683.898071 -436.378632
218.494812 781.913086 -591.217957
246.047897 808.984619 -579.675720
166.886353 779.157349 -561.737610
258.135315 877.030945 -418.844208
38.169262 712.197205 -745.973938
26.888134 719.529541 -578.868713
9.567947 693.220215 -645.273804
70.071228 712.430420 -719.612732
187.687302 768.944946 -634.922485
180.041580 812.302490 -475.364899
-107.134880 605.466553 -651.119507
-130.966980 647.613342 -462.258179
170.290024 801.571472 -462.560272
318.792786 856.607239 -619.216064
-130.379532 634.059265 -602.830139
160.098602 758.158691 -653.391113
293.637665 847.538330 -504.228729
153.905807 761.702209 -638.738586
-56.903275 693.301453 -431.407928
289.846252 870.951599 -463.602142
48.336521 748.191772 -442.674438
65.703697 712.356812 -629.856506
230.584091 841.633362 -486.695953
91.833344 766.483398 -515.154602
77.005524 726.527100 -741.943054
244.200729 817.560425 -729.611206
270.768402 854.332092 -508.624329
-94.013657 655.978516 -509.542694
290.740417 851.695618 -745.033508
117.083305 748.319946 -590.326599
-100.807671 677.106262 -473.218231
94.969681 741.982910 -625.490906
33.539822 724.508911 -480.412445
-132.731918 628.786987 -669.899841
-75.805130 686.586853 -465.265625
32.243587 672.796936 -754.736206
224.342865 790.894714 -764.409973
217.947968 745.270020 -762.254944
116.403992 750.298096 -632.024170
-47.444061 680.573303 -576.258301
9.003134 703.192200 -620.953064
70.227394 700.469910 -679.542480
159.172379 761.470886 -728.905151
-34.731983 689.809631 -756.469666
-8.462515 703.429565 -440.715149
209.086792 781.499146 -675.551575
89.079819 692.768738 -758.927795
204.334152 694.461060 -750.773010
33.330971 718.302246 -531.892700
-124.220352 655.156616 -524.659424
12.996352 707.597168 -616.998169
220.469849 794.212036 -635.420776
-86.924225 641.438171 -606.632507
153.934814 746.513489 -713.885498
-13.910556 678.446167 -654.349670
316.154694 850.783081 -633.930420
-37.785118 661.531982 -726.616272
84.095802 739.703308 -520.293640
121.628395 777.228760 -472.209137
28.157415 709.044006 -583.986267
80.844765 748.949951 -490.561218
317.726135 844.468384 -664.039429
-133.278732 654.643860 -505.098053
103.566521 743.151978 -622.503845
226.851624 820.144287 -511.672546
88.643738 674.349854 -763.437134
76.200768 718.128113 -719.145813
217.880829 789.962585 -649.567017
-32.936440 660.859009 -695.549255
26.078104 728.281067 -459.460510
138.017136 763.463684 -496.049652
122.500923 677.875427 -748.519775
-17.010714 655.685852 -677.940125
122.892792 750.320190 -628.227173
-13.073635 724.415039 -459.342743
79.446922 733.999756 -558.909485
204.085312 810.901489 -486.897675
