ply
format ascii 1.0
element vertex 1432
property float x
property float y
property float z
end_header
65.916237 1036.013916 63.001492
-117.749542 884.324524 116.131920
-317.034302 721.708679 156.790451
-376.561340 791.175049 16.448084
-206.231659 862.260681 89.235092
-331.577698 782.315369 94.054581
-76.927704 915.762451 122.485306
-40.260597 941.068298 94.402786
-307.994049 874.049377 -24.329994
-216.319031 926.978027 -36.100094
-271.721924 760.504395 160.180557
-225.179810 1019.199646 -94.373177
-382.450836 841.346313 -16.346045
-208.364014 939.268372 -21.317204
-41.308399 957.876160 54.207813
-192.850540 962.098816 -24.065908
3.633094 1087.434570 -41.518597
-292.218384 834.323303 36.848282
-6.541663 1100.602661 -39.477268
9.619035 1066.859741 -19.824255
31.084553 1002.530457 77.182495
-108.955849 1000.053162 -13.346748
-163.938690 897.187561 77.103760
-16.503397 923.202026 133.259857
-293.812103 745.789856 144.400345
-212.469574 961.173645 -60.816010
-36.722805 1078.987061 -74.292297
-204.399734 905.101563 42.590313
-85.911728 1016.846558 -42.511822
-284.434753 781.569824 111.198151
-169.582214 1070.846436 -128.558090
-326.534912 843.395752 -20.019178
-270.315063 967.560242 -124.696083
-66.145668 944.620117 87.048256
-176.877014 987.705627 -56.536091
-225.272079 812.654846 83.367004
-128.409210 931.616577 43.405609
-184.053772 879.153137 90.308060
-313.868073 877.587341 -21.297579
-111.357094 932.377197 65.322128
-158.797165 815.881714 159.235672
-47.801567 917.765686 128.376678
-296.344421 772.359192 126.888016
-171.944092 938.336121 27.127384
-65.538269 1079.006714 -69.262123
-218.518845 899.015076 23.925579
-237.908875 988.441101 -150.411072
-247.360092 986.857178 -122.458946
-71.775246 975.044373 47.068829
-181.144241 1055.108765 -103.426384
-63.224453 935.102844 101.528000
68.960640 1022.891541 102.070976
-123.459015 902.162598 49.899811
-326.662170 826.395325 18.698112
-169.257065 1057.425781 -146.454666
-8.794701 967.843811 109.509010
-201.082748 903.215881 0.151381
6.950420 964.842041 113.177353
-79.394127 1025.875000 -21.430672
-254.348755 752.102844 159.303284
-38.578255 1086.596191 -84.390244
-103.692963 1016.174805 -40.831604
-199.905716 789.676880 163.609146
-96.233749 961.456482 39.544403
-64.339630 978.691589 44.860165
-221.604309 922.374268 -14.721312
-28.773560 1007.164734 36.089935
-239.594910 1001.250549 -116.381844
31.840981 1016.430908 76.794182
20.837145 979.184265 120.918404
-41.273899 998.739136 2.514670
-248.469788 783.188538 150.360718
-72.957802 901.862671 126.627510
-166.368225 1101.223389 -128.388351
58.924156 1016.184814 100.586983
-290.341980 767.877991 115.757118
-38.947151 946.956604 107.076836
-338.982330 970.368652 -93.291084
-141.311462 857.851379 133.522797
-195.199295 817.969788 130.374359
-237.162445 790.724976 139.673355
-324.500214 938.739746 -72.620972
-172.117844 865.333008 67.784576
-235.533096 822.399109 114.106346
-107.205681 985.351135 17.631592
-284.982635 958.868225 -145.330551
-258.453613 781.037903 143.560654
-190.660324 861.088379 105.588234
-118.073990 911.183594 79.078575
-242.172943 925.984985 -9.650698
-87.633698 929.242310 93.133545
-336.970001 863.003601 -48.152065
-147.329880 1114.443237 -126.434509
50.011837 994.616516 89.248299
-172.886108 931.381042 16.359501
-67.802742 920.632446 103.881973
-17.446312 970.376221 104.174911
-156.522339 887.368591 65.986549
47.246857 1026.151367 44.972347
-316.957916 955.814331 -131.663925
-77.957779 1057.219604 -34.098186
-46.282875 940.969910 95.388245
-311.244690 809.814148 50.393818
-181.247467 924.977905 36.493000
-46.135513 1157.284424 -104.294533
-399.021118 831.548706 -47.264072
-151.093094 1010.902588 -55.342678
-281.455902 766.846985 97.623535
-181.955688 919.492615 22.004978
-222.678268 910.374023 23.298143
-241.737747 999.550781 -89.404495
-12.928619 1093.488159 -31.864286
-138.999924 949.184814 36.503735
-373.022369 814.839600 27.462147
-202.691071 975.361877 -176.441971
-300.615692 846.279541 17.303558
-183.592270 846.759705 108.094986
-192.534897 842.860657 99.253639
-68.499344 1070.326538 -54.208912
-14.542607 1084.390015 -26.368502
-244.463867 781.441589 159.673386
-308.442902 721.089539 135.859833
-159.131989 847.070740 96.406197
-46.094273 1031.164673 11.183534
-221.247345 877.924011 58.760406
-267.497131 948.490662 -148.464294
-180.433456 1057.896606 -119.122986
-137.396835 864.016968 125.276314
-175.409271 938.391846 -2.612133
-352.790710 828.744690 25.022076
-195.424545 839.004578 108.978790
-387.250122 839.589233 -39.713215
-255.581940 968.756897 -158.220932
-285.709717 750.389771 138.864990
-114.887917 971.679077 7.169656
-143.405807 988.222229 -26.275806
-8.319939 1087.690674 -45.285419
-19.599688 1095.687500 -52.744583
-307.173920 970.423706 -106.194145
60.464844 1007.950989 104.615517
62.563202 994.461853 125.864227
-189.476563 1049.503174 -95.595932
-147.726547 946.635864 38.482807
-310.859985 873.522888 -38.949509
22.061558 1070.901733 -8.755406
-311.415985 853.659668 -18.693293
-113.798119 1043.999512 -47.240105
-236.998505 853.861572 44.351906
38.184959 1044.129150 52.593884
-209.919327 878.369019 46.542000
-20.435204 982.278015 59.194969
-9.377532 1081.126953 -25.550285
-1.156995 1092.578003 -24.111937
-80.333824 1055.226074 -55.405941
-89.081718 953.781006 71.033203
-239.259506 801.884705 134.936523
-73.984818 941.706299 88.897575
-101.943359 956.859924 57.511585
-248.306229 791.496094 86.920410
-145.312744 971.245667 12.116609
-62.192303 1046.287964 -61.765945
-87.517998 1112.826172 -86.553719
60.646919 986.247070 111.904648
-79.406570 885.093689 142.657257
-287.856628 942.488770 -74.247879
-351.887482 848.061340 -19.884827
-21.869720 1095.874512 -66.689766
-140.407700 1103.023193 -108.419304
-182.888535 830.574219 164.881302
-261.015076 891.210938 19.219574
-221.936554 931.909180 -17.906872
-45.727898 980.623840 53.274338
42.570942 983.357300 127.767265
-15.098447 955.245300 108.557648
33.274609 1090.990723 0.296965
-227.627808 895.955383 18.243519
-66.883179 1087.584595 -84.521126
-188.676590 829.957703 139.895737
-151.093765 1112.043579 -119.352417
-235.761108 998.229553 -80.900459
-40.908836 977.274536 64.459183
-318.823883 815.213684 37.477699
-59.661526 1020.043945 1.671318
18.942600 947.243530 140.062454
-358.988922 867.241882 -37.001804
-302.828613 892.448364 -21.731438
16.081572 1026.052734 54.571156
-113.211235 918.654236 79.744606
-130.949768 988.823120 -16.928059
-183.917953 952.584534 -10.625518
-161.906693 832.897888 137.088760
-243.374542 889.881836 12.766472
-285.613892 889.838257 -22.523731
-60.632362 899.872009 108.347420
-110.973091 1031.529663 -40.393620
-245.622253 949.357239 -42.230114
-107.133926 878.299500 128.383362
72.009521 1015.892456 99.339394
-321.688843 777.157776 105.146973
-205.730377 803.629639 165.492096
41.321575 1083.703003 4.520343
-35.325871 1102.855713 -79.611168
-259.457733 921.501343 -13.169740
-25.944126 1023.988831 34.408680
-151.840118 853.375427 95.201973
70.741043 999.485046 123.632973
-87.100960 971.411072 50.758366
-62.832031 906.791077 137.973328
70.176788 992.732117 114.946831
-182.027649 816.139648 129.209106
19.413530 957.385010 123.679268
-385.579834 800.237915 -16.723978
-109.432457 974.655945 28.701290
-284.163879 979.303711 -99.983528
-130.066132 920.720520 63.508331
-178.914429 827.848511 156.823608
-389.560883 891.134583 -62.397842
-184.807648 920.766296 18.122849
-275.054016 759.826538 158.432800
-283.028442 732.279907 154.767517
2.863268 1082.898682 -14.284944
-192.169357 1010.379517 -172.531708
-342.747192 806.336731 8.893595
-149.486328 858.068665 128.707199
-74.401489 980.369690 49.035072
-229.496796 902.432556 27.989429
-146.020218 929.244141 40.168175
14.660102 1040.360107 49.468346
-11.863060 927.373108 129.728302
10.336942 1106.992676 -35.934120
21.748362 1065.773926 16.498875
-279.719025 884.527771 -6.754585
-159.178131 908.856750 49.749264
-43.195953 941.650085 109.189804
-3.375816 1110.880127 -50.380562
-315.151245 781.089111 80.213104
36.059631 1008.781616 80.389587
-83.259804 934.432434 86.445770
-73.100204 894.939819 145.776398
-319.631409 926.246094 -129.871445
-83.400986 918.046448 96.676521
6.452775 950.527466 133.004333
-297.599823 725.415771 161.150085
-249.122360 807.166138 98.854507
91.520088 1025.973633 105.234741
-215.430313 1014.879456 -83.274109
-115.655159 903.623108 101.832405
-233.222824 848.559265 53.394253
-259.111786 978.110718 -151.313583
-60.824093 1057.959473 -21.577721
-329.464966 765.290527 113.955727
3.893122 1066.692627 -3.475998
-151.907883 1121.554321 -112.773903
-0.282443 979.596558 103.419434
-120.438667 926.169739 65.217026
-207.124802 986.112122 -76.514687
-278.542358 780.756470 128.859756
-268.103058 738.068176 164.278030
-58.897488 1059.098511 -39.469078
-139.414993 912.101563 70.805115
-308.168030 787.003357 74.956032
-6.038376 1060.739136 -38.879814
64.063683 977.335449 133.270370
34.068535 1003.172668 95.265320
-247.763779 875.960876 46.750111
-235.898193 966.632263 -80.487953
-125.030922 841.547302 154.797699
-274.224548 750.419006 124.393204
15.542018 1057.840210 -3.241716
-138.651321 881.298828 99.119362
-46.015629 1090.251099 -60.145386
-42.179340 959.980530 78.414009
-179.023209 983.018494 -49.946503
-211.535812 814.927124 124.190956
-104.506691 1062.808105 -61.831089
-106.528000 1153.219238 -109.668968
-340.601288 767.720154 82.115326
-268.551300 831.539429 56.481445
-234.487305 871.047363 41.300888
-206.929489 871.287231 55.946144
-209.296494 889.104614 41.910084
-56.034939 984.567200 49.778130
-338.248413 868.223267 -37.747803
-138.972855 955.800598 16.615892
-108.619980 894.015381 124.469826
-351.692352 842.356628 10.962120
-232.354279 840.374329 72.299057
-278.687927 761.590088 175.174500
-255.043198 786.972168 146.862961
-160.239838 922.556763 35.946888
-53.789509 907.376831 133.822556
-157.898224 907.794922 78.683121
-337.500702 840.570801 17.142685
-7.795464 982.849854 95.319832
-259.755463 883.965454 10.605801
-211.936935 922.019775 3.087475
-131.035721 840.250671 151.329453
-285.958588 913.658081 -22.921082
74.097153 992.541931 117.153008
-8.740358 1111.407227 -48.484135
67.805573 1015.181458 100.183479
-140.189850 1085.844238 -139.319839
-277.563751 973.131775 -127.672310
-181.506348 1004.743774 -56.284206
-166.699554 820.078064 125.240471
-255.953110 846.488831 48.167152
-73.976608 933.033875 95.625130
-44.172260 1023.181824 15.945463
-235.256592 840.140625 89.521049
-293.946350 956.269531 -133.336624
-81.248566 1179.289673 -90.557976
-75.345665 913.491150 71.147179
-52.597267 978.988403 58.405090
-285.520050 861.009216 -5.702489
-264.407867 840.797302 48.493233
-88.639641 880.246155 138.405518
-435.984619 872.592896 -56.769588
0.176728 937.349976 129.915649
-301.368195 776.906189 118.960701
-204.603561 1011.336060 -162.324570
-218.643188 777.345215 150.137543
29.021540 1052.843628 34.940399
44.031013 1021.384460 60.207935
-276.395050 960.433411 -75.627853
-374.521729 896.002197 -59.918846
-136.922928 989.475342 -0.997613
-82.791267 1044.587036 -46.950302
-274.873688 849.649536 30.856802
-155.747086 986.428101 -27.184395
-256.549774 963.063843 -154.387054
-176.411362 894.938843 50.915070
-3.461749 998.516907 79.918594
-116.640312 934.069397 30.438639
-227.691208 963.164978 -45.484249
-244.250427 921.212646 -1.066535
-226.613708 984.761841 -66.491951
-71.236237 982.624634 24.468134
72.916237 1001.133240 70.953232
-220.813339 1010.458984 -90.586884
-54.602844 1083.936523 -60.179409
-77.955307 961.215210 23.446966
-134.933273 968.388550 4.524051
-305.785095 984.522400 -86.698257
-133.721619 986.489868 -25.069004
-62.281773 953.314270 35.908932
-349.201294 752.538391 97.234055
-224.343735 1034.425781 -106.852867
-30.553320 961.909729 98.170815
18.301554 1039.143311 0.512764
-280.393524 865.995605 7.280325
-378.041534 847.632141 -47.893925
-190.804672 1005.997864 -153.591721
-384.309296 812.864075 23.613588
35.278450 1005.653564 76.608719
-206.136124 827.440186 128.933899
-129.280212 933.820618 39.797344
15.461392 1039.250854 38.862419
-165.520584 1058.295654 -156.723221
-195.084442 988.760132 -49.867584
1.887120 979.208923 93.616188
54.580799 1044.070923 64.646019
-200.104584 1036.458252 -85.605278
-163.285980 1137.618774 -96.597137
-19.234392 976.677551 75.427284
-122.773087 1140.009888 -109.715851
-48.322960 908.590576 130.854279
-313.724365 783.249146 105.234795
-223.969360 780.846680 148.942261
-90.650269 1126.307251 -108.847458
-47.979324 1081.626221 -57.296780
-279.560516 988.868225 -102.457947
-305.352051 767.392761 84.148468
-195.112122 992.526184 -75.519455
-90.286568 889.125061 99.633476
-103.414185 1032.045288 -35.351665
-27.658533 968.370728 100.365067
-67.470528 1162.492065 -105.365166
-146.746216 1128.855469 -111.026489
2.718708 1006.263184 73.885925
6.104435 981.447754 94.200066
-83.113197 971.080872 58.705837
-306.885315 756.407104 114.297470
-23.277277 988.513794 75.185677
-104.890022 953.711792 62.871399
-190.124588 816.627136 137.775177
-78.715645 910.159607 114.778305
-351.802399 858.438721 -38.740456
-172.456375 1035.296875 -166.858948
-5.051900 1101.246704 -40.908943
-222.676697 958.016907 -176.747757
-375.266418 835.354858 -2.139947
-191.244370 989.779541 -167.985245
-127.507004 971.917114 26.095551
-152.392090 913.062866 53.716164
31.746574 1022.749146 28.656021
-150.668655 964.283081 -30.101578
36.954964 1065.916504 28.707943
-81.783958 1007.072449 4.687081
-259.197571 793.887268 76.153595
-100.112907 969.149353 34.613186
3.660449 1004.814453 81.552757
-265.530304 957.146545 -77.275551
-4.265861 985.738464 65.951958
-199.404953 789.620728 158.524673
-40.920963 949.353455 64.404907
-269.922699 838.694458 34.714703
-312.305511 832.618286 22.684599
-163.413239 1059.159180 -101.645340
-413.374695 828.346863 -31.096674
-92.334648 1004.559631 -0.426957
-263.865936 815.499756 79.353828
-289.688141 783.186462 92.784706
-308.616547 850.031128 3.695910
-42.601505 947.789185 92.448860
-172.620071 1094.012085 -96.557320
-187.680206 960.955566 -36.220501
-107.975182 1042.090942 -45.800732
-95.928711 932.464783 84.094864
-122.355499 932.257202 47.200222
-320.161346 838.457764 7.538877
10.005529 1007.423645 74.106079
-319.638123 725.048279 170.605377
-60.484577 1005.635132 27.679262
-302.826477 870.003113 -7.634130
-234.063385 1012.739136 -117.204979
-244.996567 864.175049 64.231445
-202.687729 924.716064 17.745098
-227.833908 995.286743 -95.086349
-135.676865 1009.385864 -41.380680
-394.341736 834.750977 -25.784416
-290.424042 879.844055 -21.069939
60.362988 1041.211792 71.996765
-234.358582 908.576477 1.600599
-294.034576 917.639038 -60.169220
-151.038620 935.691956 44.834866
-81.000198 978.963440 51.045620
-187.605011 873.078430 76.378479
-46.421215 1099.125000 -100.429199
-231.143036 839.228516 96.783661
21.087027 1090.397217 -5.821406
-144.895248 944.395569 39.208748
62.378811 1001.144043 120.068985
49.084286 1024.473389 73.204262
33.629063 1045.684326 31.780746
-1.805393 1052.390259 14.713862
-32.087254 920.589294 153.062256
-386.927917 805.850647 -3.077977
-308.210754 750.267212 152.448212
-55.568344 956.264404 85.976318
73.440926 1046.697998 62.706432
46.859615 1050.347168 55.521164
-420.020538 862.109436 -57.665546
-270.125885 901.519226 -26.827635
-308.497070 932.481506 -88.094269
29.520393 970.940796 136.742889
-350.213440 799.040894 28.510469
38.989983 955.998047 118.021454
-100.019081 882.851257 121.810242
39.952698 1050.843506 23.550629
38.162933 1010.450745 98.196671
-301.887115 878.312012 5.654345
-244.716537 991.739685 -152.551865
-73.256256 1080.064575 -59.137218
-245.743820 851.679138 52.402714
-57.266819 902.456299 129.206650
-343.169647 762.408997 72.732239
8.231285 941.257202 126.754616
-19.891977 902.144775 122.731697
-27.298824 1043.626831 11.122026
-282.565094 978.015686 -107.801239
-61.902576 956.742798 80.892227
-344.850861 790.431335 12.446937
-174.340668 1004.296265 -50.858639
-38.989296 1016.785461 35.723282
-201.759308 1018.203857 -152.108276
-227.687714 950.335266 -29.310484
-12.665637 1028.464966 44.375751
-102.692299 1036.611206 -42.660549
-124.876953 1072.283691 -83.561096
-283.958832 811.869995 58.902817
-168.552856 947.165527 7.381755
-5.164393 1041.592529 10.912988
-204.794327 964.292358 -29.572998
19.799726 1015.455811 74.902969
-167.553101 881.424316 72.694504
-160.434006 1000.950989 -67.679146
-76.432053 999.359558 25.941862
-132.069275 887.099365 102.137321
-152.199051 879.094910 115.774620
-38.799282 1029.174316 18.546482
-83.319878 889.723511 124.004906
-294.914001 777.179443 122.392982
-44.352730 1039.224121 -5.196774
-257.828308 758.691956 145.135498
34.170429 1049.625732 46.765270
-54.440556 1153.230225 -96.369522
-111.783318 1068.263916 -90.659050
-176.395950 942.125671 11.475971
10.974756 1023.912170 14.363891
-13.494677 982.879456 91.181458
-113.024452 998.846252 -1.624778
32.860672 1046.083496 50.757519
-88.305214 965.774841 37.265423
-199.513809 1030.208374 -150.090714
-189.833374 1049.784790 -128.046799
-277.058899 770.601318 119.094772
-178.535950 1057.901001 -107.288116
-235.704239 838.270996 79.183525
-312.315826 949.832397 -128.873566
-59.808220 996.066284 47.073883
-114.938286 905.840210 86.880821
-323.626495 881.969482 -18.615210
-103.113960 885.456055 138.544510
-353.568420 817.320251 30.750708
-302.357391 954.181946 -111.987259
-224.324829 1016.597168 -138.746063
-15.998566 1076.551147 -36.639351
-171.508575 1056.246216 -120.006485
-201.359802 1043.609375 -122.696457
83.923508 1000.241150 104.495972
-38.175961 914.669617 129.610336
-195.975983 1011.209290 -171.382202
-55.900990 1060.018066 -20.477575
-59.590378 1055.147949 -59.375492
-200.796112 1024.715210 -81.465347
77.551407 1002.076782 109.667465
-138.420303 1012.612793 -37.246540
-77.946640 892.285767 125.044006
-158.255936 825.829651 152.576172
47.430622 1057.106201 38.502102
60.301453 1040.624878 73.264175
-131.120071 950.885376 19.752831
-289.494080 842.147583 48.950951
-2.417067 957.554382 126.587448
-192.643448 798.681030 170.379654
-121.766579 1054.476318 -63.170795
-7.150513 1055.114990 8.847576
-3.011618 974.973877 79.588577
-98.414551 910.904907 105.188461
-121.627495 900.783447 92.089577
-191.027115 1026.630859 -166.096985
-208.939209 1018.135193 -156.748871
-190.386917 915.527222 12.510502
-268.527191 989.449951 -110.851791
-230.450378 962.462463 -78.897118
-273.267914 845.138428 57.084919
5.083451 982.070068 79.695427
-263.375610 939.813354 -167.703873
-262.324554 979.053894 -130.232727
-367.555878 783.976501 44.988190
-341.177887 844.885681 -17.121731
-220.135361 778.355957 159.086304
-144.940002 1013.031616 -60.112034
-84.055725 1040.788330 -30.602901
-76.755493 880.376587 155.777176
-246.038605 850.737732 78.227219
-87.074837 882.040161 142.831055
-212.927628 785.624756 149.248779
-179.822586 970.298889 -32.349743
-288.813568 793.865906 94.307060
-108.676262 932.374084 81.755379
-212.385086 822.544006 115.695038
74.443214 1002.355957 94.228081
-314.937500 730.175537 160.645813
-153.964264 1099.775391 -127.668907
-31.101051 1056.162354 1.297638
-183.758408 969.418579 -33.593056
-42.958538 1078.118530 -78.571587
65.416405 1053.048706 63.531528
-302.755707 988.131470 -97.713097
-54.406330 1087.687256 -74.667931
-112.457840 1035.836060 -54.068752
-96.729424 1092.603027 -97.025581
-224.606369 900.266235 19.565069
-158.436523 1037.101318 -78.625710
-221.912689 805.192749 107.616890
32.368988 956.294983 104.494118
-246.431580 956.672485 -54.144505
-364.023529 885.726807 -58.487957
-218.348358 1012.722534 -118.321587
-150.073486 913.466980 68.584442
-298.463715 721.856873 161.172012
-305.001831 877.575745 -25.663530
-261.090942 894.449707 -33.702358
-370.434998 826.780579 -1.406866
-164.828384 920.389771 54.442211
-179.375687 947.704285 -2.044810
-85.606628 1085.592651 -74.429230
-77.304977 972.496643 57.597862
-109.828186 912.018616 88.421722
-271.849152 864.261963 42.473515
-282.240021 730.185913 148.880463
-170.046646 1070.715332 -140.142212
-100.462387 943.205200 76.149193
37.104557 1006.083435 68.596390
-125.024384 928.573608 74.650230
50.669594 1043.002930 33.344624
-188.192520 968.520935 -39.598190
-112.880280 859.727661 147.578873
-307.749298 778.462585 109.887161
-24.151703 1009.000366 44.214417
-270.908325 915.057373 -44.049824
-167.192017 872.490784 91.764709
-349.314087 869.854126 -32.995899
-37.743263 960.846375 84.016129
-99.858643 932.966614 88.867180
-161.758270 1089.913818 -113.559967
-23.187645 1016.695129 42.110394
-159.368607 856.327698 130.388031
-11.437748 1073.682129 -9.745034
9.551538 969.775940 122.627205
-52.797176 899.609924 113.732864
-361.291290 830.795410 17.908676
-148.772751 892.936401 83.803642
60.626312 1026.985474 60.324905
-125.855309 887.386780 89.197784
10.819732 1026.738281 11.045209
0.881104 950.919861 128.459885
-224.470428 974.546448 -167.267807
-79.035210 986.976990 43.406582
-42.937855 1101.134888 -66.162224
-283.063110 884.801208 -13.073764
-98.978943 900.894531 79.750870
-38.059105 1059.741577 -24.867477
-275.761353 766.938782 127.901108
0.876830 965.429443 121.314995
-339.671722 766.711670 71.662964
-312.822540 854.786255 -5.938009
-152.705841 1066.486206 -136.893875
-36.286900 918.012268 128.338837
14.293216 997.709290 88.193214
23.870441 1057.840210 19.794317
-203.446579 1009.053040 -166.278320
-151.175568 825.523560 153.904099
-77.878967 900.907593 113.050911
-36.655537 929.297058 123.977158
-152.839005 937.649963 32.842907
-265.926544 757.016296 143.576202
-248.578415 892.560425 29.005728
-299.446869 733.385132 186.410797
-227.911819 990.391907 -157.960220
-162.227951 1098.629028 -129.526993
5.232697 946.745728 118.312973
-253.415039 973.112793 -164.303162
-264.489563 797.149597 102.080284
-272.768005 861.852905 19.081793
-179.075851 1055.056152 -150.515579
-145.683975 918.909241 65.806816
-326.037994 754.360352 80.956467
-80.404228 875.713013 150.194916
-33.395435 1104.512817 -62.355732
-232.506714 839.581848 77.965324
23.120785 1051.009888 13.823291
-349.957001 851.282410 -37.147503
-137.847946 1135.131470 -111.455612
-251.336853 920.441589 -9.521480
-215.011185 939.614685 -37.303837
-12.497823 986.070435 76.703499
-269.729767 824.209656 91.787682
-138.247864 1025.980347 -55.365986
-262.308136 757.878052 137.565247
-274.548187 821.195313 63.627918
-56.135017 901.556152 133.923462
-85.913620 1087.038330 -103.862259
-176.130615 1041.646973 -148.788849
-154.881958 923.989075 33.347313
9.559281 980.928650 90.442497
-35.218788 1116.778076 -82.952049
-44.706337 941.955017 97.198189
-42.664986 917.467773 131.607361
-130.986099 1098.268677 -99.663795
-0.059651 1066.111694 -37.359638
-204.991806 1020.544128 -137.575790
-108.424400 1053.968262 -62.984772
-81.965042 916.770508 122.719452
-197.141617 828.191650 103.382317
-29.288849 917.790833 127.771957
-396.813812 848.237305 -53.873367
-211.377502 939.023987 -26.068340
-6.834047 1082.144165 -40.865986
-263.412048 880.437378 6.840225
-198.390030 989.245117 -44.459488
-281.022430 930.673706 -53.602821
-236.344330 902.171509 -0.678919
-225.523636 872.919250 46.886772
-234.794235 810.393433 87.157295
-265.521088 807.831421 85.594055
-198.502792 849.092773 90.861382
-179.975220 924.445068 22.910814
-40.195316 995.567139 40.653290
-166.301270 1054.399414 -141.884186
-373.070343 805.957214 4.548254
-264.471008 888.664612 1.348917
-134.846481 850.063782 155.887680
22.686405 990.412964 96.555420
-258.585754 1008.440308 -102.186096
-264.813049 903.621033 -34.826431
-309.593689 717.433838 158.156342
-78.744781 897.633606 139.354187
-21.606861 955.321899 62.316311
-287.306763 829.813293 45.519550
61.527962 1028.988403 90.348221
-308.933014 775.220032 118.730576
52.024189 990.118103 115.700829
-217.878143 1031.269775 -109.225716
-77.730553 894.356934 138.979935
-183.986465 833.898743 92.703003
-337.835449 965.447754 -85.213326
-273.351257 804.612427 84.776657
-68.422127 907.030457 84.048729
-34.279949 1004.992249 48.433846
-154.612976 977.843201 -20.427771
-266.710510 909.032776 -25.549644
-175.060150 1068.442505 -120.009407
-137.376266 909.065857 89.497444
-264.133148 987.822815 -122.151779
-46.752441 1052.953247 -6.167036
-24.482016 1102.465088 -59.853058
-163.934021 1106.194580 -126.949211
-194.411270 1038.620361 -130.379242
-349.025757 974.984558 -80.740982
1.298816 955.231384 124.110786
19.381174 964.943481 141.308868
-218.747040 1016.244629 -92.301727
-270.272491 994.570374 -103.941132
-197.053787 1006.805908 -156.234406
-299.868683 874.639282 -17.650999
-155.508331 1025.581665 -66.696487
11.415396 982.864197 96.459816
-209.876877 897.075439 32.347710
-63.755035 934.615295 112.181114
-48.945789 927.369934 115.432343
-136.256302 1009.772339 -32.330761
-296.538910 890.061890 -13.991261
-35.513165 949.035767 107.399155
-0.148668 1000.068726 76.679260
-110.696999 910.497681 104.520126
-39.127651 911.471985 144.166779
-285.931152 834.925903 40.551365
-199.291763 1014.826599 -122.081154
-13.956091 990.874756 53.466736
-11.163883 1091.118652 -68.123947
-36.039585 947.951050 92.522675
-98.259445 1008.831848 -14.380028
-77.574089 923.097473 105.734459
-5.600940 998.665100 78.122002
-241.538193 952.800171 -165.477707
-198.442719 795.906555 161.271683
-64.418968 908.912537 117.077507
-65.655830 1035.364868 -52.901402
-389.267334 840.833618 -45.579563
18.098898 1022.859802 43.214428
-133.840973 983.632385 8.123468
-44.093842 1003.601135 45.187031
-189.016220 877.058105 71.723694
-155.201920 848.479919 119.980331
-175.466965 891.660156 83.943665
-91.577774 1040.546265 -58.439651
-352.844208 874.635498 -58.832947
-35.301968 972.090332 69.611183
-10.786592 929.525757 136.938202
-42.171627 944.281250 113.828392
61.333271 1014.521973 94.079826
-3.120723 1006.667664 69.422470
-381.123352 767.560913 70.175743
-350.314545 878.431580 -42.065948
-331.046692 846.956848 -8.134812
-17.469921 1084.365234 -35.154850
-236.651245 890.144958 17.686338
10.083348 1010.300171 30.883846
-309.841125 715.943481 167.982697
-261.119873 859.995056 56.077316
-242.540588 982.666382 -143.520706
-25.043449 980.987549 76.387199
-121.305542 962.569336 18.843088
-40.407696 1088.742188 -56.881561
-219.490952 828.034729 100.458611
-261.767487 778.206238 118.973816
-299.443420 848.000427 13.446690
-60.782063 1026.134521 -2.594711
-265.081299 806.155212 109.869736
-87.768822 977.217896 -1.219489
-186.985260 1002.150146 -69.077621
13.058071 1021.149658 57.970581
-243.610016 872.471619 47.482201
-48.318359 981.528015 58.588722
-28.221670 1042.769653 3.864211
-228.640259 1026.873047 -87.951294
14.836709 948.565308 121.260170
-241.493057 785.709900 107.468155
-161.652298 941.081970 22.924128
-96.354599 1059.023071 -51.647087
13.056496 960.106201 115.447990
-142.490265 968.818542 -1.399062
-280.240540 914.720825 -39.667511
-182.505753 1045.881714 -150.532516
2.824896 994.561035 92.722763
67.060234 1005.914917 121.778732
-321.020599 826.981812 23.052923
-125.935112 949.881165 39.195724
-50.967571 976.318359 62.720638
53.264565 1002.966125 112.728966
-355.185303 835.332825 -33.521393
14.262228 994.631958 67.643898
-263.769379 931.514954 -68.511528
-240.122513 830.410767 88.538902
-33.901325 995.889282 50.182396
-11.620323 940.058716 128.569153
-195.253708 1028.270142 -83.622299
-259.850525 742.487976 172.416992
-322.713684 908.115601 -78.609192
-102.252777 955.694397 34.412354
-281.724213 984.940491 -106.362236
-97.286346 981.006226 27.214060
-14.445134 1081.899658 -42.435379
-321.457184 911.549011 -58.864594
-107.528221 970.354736 42.206741
-178.603302 833.086304 164.709564
-245.142273 810.604675 122.266174
-131.500305 1124.862427 -109.632301
-205.500015 829.426819 105.632133
-44.275967 1005.089600 32.722725
-278.288605 956.963318 -134.820831
-177.329895 923.014893 38.768948
-180.137741 1037.765991 -134.597305
-197.993958 1039.196167 -106.985046
-184.721237 832.591980 139.379807
23.260071 991.123718 100.637169
-269.907806 846.809937 65.238647
-235.735596 977.952087 -69.113441
-222.665390 910.471619 -23.125656
-51.296597 974.101318 52.648548
-2.048435 1047.443359 -14.259597
-333.923462 858.668884 -25.131649
-383.338440 866.767456 -48.101994
-65.937454 1109.999023 -95.721306
-103.928513 1098.862793 -101.547333
-212.083496 1038.896362 -120.792641
-1.702466 946.194092 143.466766
-219.164032 889.980591 50.814812
-165.815201 885.712280 77.912277
-245.864563 938.887329 -29.147198
-73.049835 1002.657898 0.076883
-148.268234 1134.150024 -112.883904
-307.554443 826.987671 63.398682
7.364784 1137.040527 -53.783031
-28.064882 969.292236 73.240555
-233.700821 952.643127 -30.300924
-84.597214 909.566772 98.425232
-194.960876 1053.387451 -101.160233
-244.482849 901.971924 -7.097439
-76.746681 1082.648438 -70.330673
31.361153 993.127869 91.614967
-9.650360 969.950684 88.861069
-215.897812 948.798340 -33.695866
-131.175110 1044.648804 -89.626862
-169.075897 971.387268 -34.351582
-175.714340 951.805603 -10.701526
-212.929321 823.687744 106.718994
-120.468315 877.657837 116.199257
-100.962769 864.824280 149.984756
-222.367462 857.630981 67.686172
-64.821854 997.242798 -11.206426
-114.948608 1051.428345 -82.950188
-38.051815 1071.902222 -35.324646
-157.631485 838.292908 124.750740
-25.415331 1057.259033 -49.676537
-275.912476 949.976440 -69.129082
-230.672882 1025.687866 -131.956009
-79.551414 1079.130981 -74.170708
-38.828403 965.846924 90.976196
-205.214920 991.541016 -64.381935
-28.036465 1118.825317 -85.658432
-382.331665 819.248291 -27.549545
11.425663 945.131165 108.137733
-60.289490 947.304077 99.133720
53.727970 1018.932495 86.205116
-142.529663 1045.077881 -79.602684
52.532345 1011.376221 96.300224
-0.005147 976.876099 110.957191
12.673724 962.246216 134.237961
-249.105042 924.964294 -37.668629
-158.015747 1126.440308 -107.858887
-93.197624 1076.282471 -97.885551
-238.457611 838.568420 63.225334
-147.298843 983.506897 -17.397774
-137.252747 919.404663 56.390388
-1.391750 1078.785034 -11.449917
-35.643227 899.559631 130.033188
-187.706879 935.324463 -25.232124
-85.368279 898.209351 120.480034
-279.252655 757.503540 153.217361
-315.303314 963.358276 -83.540443
-117.446648 1056.441284 -83.318726
-289.751709 777.934204 85.291992
-133.125519 858.577332 133.161743
-279.100128 747.202820 123.679710
-109.986122 918.816223 84.363243
-26.715904 1044.051514 -37.640526
-245.520935 1019.155212 -102.590607
-8.934005 1050.012817 21.518185
-160.546921 826.040527 123.105904
-24.365791 1110.733032 -104.035843
-128.394806 955.901001 28.767151
-124.100304 853.651062 137.651154
-251.877777 870.519104 23.996231
-113.214531 922.083862 93.604141
-364.016296 813.447632 35.914253
-92.096985 1181.921387 -92.257904
-330.753204 840.921814 21.051420
-90.230171 1013.254578 -13.498841
-41.666901 1075.934937 -61.362190
-173.059616 828.690857 135.566788
-44.898983 1092.677002 -65.776199
-74.517212 1022.222900 -25.137440
-223.701141 991.156250 -158.912140
-390.586639 830.985168 -60.268150
-247.076736 966.904053 -63.330315
-218.307861 796.469177 113.051811
-205.431992 1038.632935 -112.183128
-169.838120 1104.822144 -124.544601
-177.408646 988.307190 -64.526436
-300.738678 922.672607 -57.441380
-108.570496 878.511230 131.284195
-363.032806 825.586548 -8.876694
-343.376007 778.505859 60.364826
-0.760143 961.187439 124.118919
-202.333710 1026.898560 -123.858696
-124.745834 946.933411 5.716568
-192.604370 870.348694 67.623672
-392.345367 877.365295 -64.431259
-5.151097 943.529541 136.527847
-188.559341 826.387329 118.718803
-10.756132 940.593384 145.590988
-33.562321 985.336975 71.905647
-292.984375 799.101563 61.218037
-96.333374 974.725159 42.190186
-204.261597 989.590393 -68.539619
-139.065933 925.258850 69.469788
-239.088562 936.610107 -42.988777
-289.669495 853.114441 42.758564
-255.880188 794.956604 108.740143
49.799198 967.809814 112.726547
-239.411591 989.225403 -144.969955
-175.918213 1016.029602 -80.269798
-155.478622 943.236938 19.154325
-85.769760 950.541321 23.060972
-120.751488 922.987000 68.587524
-181.773560 949.701050 -5.945551
-185.121643 876.357056 73.058075
-329.095398 903.915894 -47.105476
-340.130066 849.326538 -36.951466
-255.368530 906.471497 1.999693
46.668346 1021.213013 79.196114
43.127754 1027.714600 70.610725
-410.694672 817.656006 -29.677582
-342.741119 859.947632 -33.789829
-103.653931 1049.657593 -89.119629
-362.875885 775.037170 33.426517
-174.152328 870.683411 103.246208
-146.047440 821.217957 162.873535
-120.486473 842.054138 160.879395
-211.233521 926.546936 9.026149
-298.854309 910.298218 -68.836639
38.636055 1056.092407 42.383495
-185.929840 955.109192 -3.714033
-106.086464 953.795349 58.052303
-345.840637 795.564453 40.101154
-158.764999 890.530762 92.465157
-161.729919 1024.721558 -63.465271
-78.481895 913.446350 110.663719
-339.961426 830.556458 34.478958
-20.123465 987.329346 79.576248
-128.443558 1019.470764 -50.544216
-313.103363 728.186157 165.069534
-22.536850 1088.471069 -59.082325
-237.664047 1007.840088 -148.976349
-143.989471 934.331482 27.406502
-240.683716 990.697449 -124.682846
-105.651634 911.311279 100.190041
-298.244171 828.182312 37.870628
-54.067436 1004.617493 36.542763
-25.787827 1059.721313 -12.217662
-364.119385 822.717896 0.608920
74.704330 1023.406067 93.463173
-114.065735 1024.832397 -35.672672
-101.186554 983.819885 10.747279
4.319315 957.487976 79.670265
-444.712341 867.007446 -52.892937
-224.215179 957.817688 -56.969837
-96.239693 1158.666870 -110.796921
-312.371246 722.417664 149.780197
56.950157 1023.855713 82.341530
-9.008368 967.025024 109.588593
-230.510498 889.803528 25.776447
-259.344849 990.985657 -121.479385
-256.053589 804.312561 96.738495
-211.452301 1033.785889 -106.882591
-285.782959 769.491638 143.036484
-211.994034 1031.627319 -97.459763
-191.718155 914.694702 10.777761
-231.842224 805.192505 142.161667
-213.873001 1023.370728 -132.311157
-44.905472 906.790588 140.881470
-276.761292 816.078247 40.448067
-231.278366 995.428162 -157.961365
-54.223892 1011.971252 -14.929850
-122.180672 905.881042 81.708000
-343.973083 843.029541 -14.401470
-141.413223 861.993225 90.680885
-308.856354 871.755859 -13.716280
-235.848648 944.491394 -53.670521
-375.456238 823.306702 -18.367910
-108.588005 1052.021484 -72.778732
-286.239990 838.707275 18.469297
-140.447830 834.893555 150.126694
-319.536133 948.672485 -118.157326
-319.898926 822.382996 25.721071
-279.552368 832.736328 19.454348
-333.120056 901.189575 -56.904560
-113.677055 1033.297974 -46.291939
-204.483856 806.503479 144.942688
-249.210754 960.738403 -152.204422
-174.665283 892.239197 55.320351
-23.893051 987.017639 67.315926
-168.367920 880.468262 101.155998
-101.555130 909.501953 96.228989
-156.006668 996.446411 -25.281904
4.206778 987.441650 72.943275
23.995840 1057.091675 18.947729
-42.099655 947.273071 92.011978
-76.353287 979.416687 34.809639
-172.239914 990.851013 -48.347984
48.226154 1011.303223 103.213142
-69.934128 915.223450 125.317245
-103.188431 1031.770630 -43.570961
-211.591232 996.851135 -170.949860
-303.213898 973.027100 -82.115417
-337.674591 865.931885 -40.913723
-319.374146 949.977539 -133.356522
-184.541336 1049.919312 -88.571487
-113.441940 852.208252 150.698349
-219.112411 1021.927368 -136.223328
-30.830172 991.051208 52.156033
-108.673225 1031.144287 -47.914989
-297.927704 959.464478 -80.200623
-173.451340 821.639343 150.029648
-261.669525 957.691528 -82.180580
-183.789368 992.592407 -176.184616
3.017516 1046.255737 28.050804
-53.814613 1097.033325 -82.705124
-164.699356 889.471252 68.295448
-23.641790 1134.465942 -86.797089
-182.110214 807.523865 141.821899
37.537479 1030.046509 61.368134
-80.444473 1073.232178 -56.655235
-0.313743 1016.905151 32.197449
-210.073578 1030.941406 -130.138657
-176.575119 897.720947 56.125820
-148.905167 927.574585 38.424370
-138.777328 887.217163 97.073570
3.943501 1058.028564 -0.454199
-295.224030 883.553284 -37.613548
-197.956543 1042.643433 -88.967484
-169.191193 864.306213 99.077271
-17.001726 945.663147 77.387444
16.637989 1059.422119 -5.057194
-296.638184 871.064209 -3.571096
-278.758484 905.579224 -55.251831
-1.020270 995.505493 68.404335
-264.412933 818.540527 96.512207
-137.754074 1138.190186 -110.597000
43.241417 1028.402710 62.353157
-214.559036 897.691528 48.011505
-196.116852 790.836975 169.696136
-259.885193 906.244873 -14.136160
-34.787884 983.494690 72.509926
64.617371 1021.694336 88.212845
-274.030121 882.162842 -1.892581
-39.401424 1005.249756 -3.279768
-117.913094 1097.540894 -96.295502
-26.269672 1102.371582 -98.097084
-302.192383 793.579651 77.152191
-320.448669 829.811401 22.409397
-61.346329 911.596130 133.494049
-88.807564 947.307922 60.811321
52.737026 1036.081909 66.713821
-31.640764 1126.747803 -70.367310
-40.873650 1040.733032 11.141332
-185.577286 803.498840 160.430023
-328.892151 938.607849 -88.775795
-250.845520 904.107483 -22.998730
-41.204727 959.523132 76.193222
-328.174622 888.663269 -59.489830
-99.250504 912.575867 65.493881
-251.125198 776.816406 115.846939
-176.417572 861.046631 115.644165
-172.369675 1048.397217 -159.983887
-151.859741 1128.082764 -104.009293
-33.680729 1001.230469 27.977345
-159.721191 907.168579 55.192425
-307.461029 771.426758 91.914032
-54.814846 950.412354 102.581078
-247.239731 996.501953 -136.631561
-90.459900 937.001831 71.244995
-253.711578 970.967041 -76.113281
-64.040115 1044.442627 -14.465581
-88.714752 918.467590 103.558510
-93.560776 906.717041 103.216301
-117.327316 964.671509 24.449970
-84.768875 1079.220947 -83.821579
-37.093063 955.647034 109.114029
48.482227 991.151123 104.329002
-315.039032 803.223694 22.970230
-259.200500 893.046692 15.643647
-263.602661 811.233337 105.292336
-77.556007 911.240356 117.693359
-128.440414 1030.961182 -63.722958
-118.388290 1120.621338 -105.974739
-44.351463 995.698547 9.313313
-191.708603 841.654663 125.220772
-94.115562 936.903748 76.692131
-128.787399 1119.197510 -119.866508
-322.018402 737.674438 166.413910
-7.030884 1084.547363 -21.306360
-73.728546 1019.293152 -6.743328
-189.450760 919.412476 15.980776
-52.274338 898.243958 148.650955
-286.092834 969.273499 -110.006477
-205.958191 821.248474 115.497391
-207.426422 1009.485840 -160.151398
-145.889587 1121.006592 -105.568260
13.047193 1105.049683 -27.509062
-105.378098 1010.172058 -9.481581
-114.323723 1020.788269 -21.911795
-403.164276 851.870239 -50.881371
-168.091583 871.215942 106.936195
-165.465591 803.489563 167.723907
-182.427948 961.865723 -1.590426
-53.479031 918.499390 114.987007
15.151056 969.709351 120.739525
-206.776459 843.524048 91.183144
-291.441376 754.120056 165.445114
-113.043671 1018.101318 -33.985016
-327.174713 753.850769 114.215576
-313.833344 942.904175 -119.165329
-277.918243 751.904358 145.330231
-100.067543 1059.478516 -75.468636
100.317535 1020.610535 95.516785
-26.892187 1059.625977 -19.105028
-217.457870 937.428406 -5.141496
1.326832 964.053528 97.941360
4.209817 1048.226929 28.066429
20.191547 954.757935 139.600372
-265.850220 986.855103 -97.979492
36.311382 1071.229004 25.472395
-23.901539 952.231445 91.836929
-22.355848 1043.052612 8.444428
33.511997 994.419556 102.917747
-191.248367 868.647034 79.027107
-11.903028 964.079834 101.798111
-54.504101 1077.498413 -52.762642
-291.933899 761.346191 135.323059
-265.408630 992.641052 -113.120407
73.404991 993.306152 139.495056
-136.962845 851.353821 140.484924
-106.140488 1050.348999 -63.511860
-368.209229 814.220764 22.682041
-212.538513 833.980896 116.662460
-183.274002 1036.362183 -164.239151
-191.767349 1037.527832 -106.055389
-367.596710 812.709656 23.230198
-151.948578 925.061218 59.898361
-254.910934 899.819763 -23.194630
42.710384 992.375732 93.359955
-68.282242 984.076904 29.638691
-240.809372 994.570190 -147.739990
-142.457062 1014.697754 -61.537685
-183.512894 1045.994995 -138.561188
-276.285858 969.834106 -122.674858
-70.700256 928.461121 89.365028
-87.799377 1038.853882 -68.898529
-176.906952 905.442261 67.225708
-179.376633 1065.916016 -101.505615
-158.855682 980.084778 -33.980465
-14.946208 968.484253 105.372261
-187.932556 818.529358 144.152252
-280.799377 930.818298 -40.526779
-181.198746 959.372864 -5.669062
-50.542988 951.291016 90.810562
-301.836792 988.668762 -92.233643
-153.979782 949.782654 10.577531
-207.680527 993.368530 -158.494522
-60.293095 1013.972900 -26.121111
-384.741669 812.615112 24.402147
-5.891469 964.677673 110.866867
-234.227524 931.056641 -36.974510
-120.924728 1003.964844 -37.739178
-97.046211 905.151611 109.275711
64.385483 996.479919 130.606400
-203.766647 955.564514 -25.034502
-245.433258 756.034668 162.329025
-17.802214 964.367920 97.860405
-60.479652 980.463928 42.300148
-31.608751 914.528198 138.213470
-228.779831 1028.958130 -93.213875
-163.934830 1080.282471 -132.347946
-186.355865 1028.692627 -85.146126
-322.645752 780.274536 91.787674
32.739323 990.447144 95.011772
-166.480972 1005.130615 -67.240303
-360.969727 948.014465 -97.138260
-339.356842 815.688232 42.608643
63.896118 1012.622925 109.453331
-195.957916 925.513428 30.132751
-312.212341 742.213928 124.203575
-7.965332 944.495056 114.686630
-9.681868 962.028870 96.650787
-82.555702 875.476440 150.163300
-161.013931 1018.590698 -171.009628
-198.300156 1027.566650 -92.895798
-213.796600 964.451355 -65.255096
-257.515076 930.298706 -21.740480
-361.638733 815.822510 -17.211454
-164.742188 997.894348 -66.879654
-111.683479 996.675110 0.658824
-311.781555 815.143372 65.917793
-398.676514 826.841248 -56.015137
38.285061 953.560181 121.158905
-214.727768 852.826050 73.833534
-218.051987 896.312012 39.302849
-216.660980 824.772644 125.767807
-57.498699 947.845764 91.937973
-280.526886 900.873535 -31.660313
-140.244690 1023.689453 -52.889996
-80.160095 1024.092773 -9.583978
-144.735336 1046.281860 -71.774918
-91.336098 968.459961 51.337715
-269.144836 739.499512 159.777634
-99.214935 960.446045 42.187428
-55.501099 983.572021 43.013882
-199.907776 1028.521118 -124.749672
-122.923950 916.401978 42.976074
-296.410126 811.140076 59.072536
-14.021567 928.768188 141.669662
-317.270691 906.824097 -64.983879
47.556347 995.311829 111.959496
-305.622559 799.753479 61.937096
-217.341187 851.565552 93.825493
-71.712685 965.118164 63.477715
-124.663139 989.808655 -11.577284
-442.095856 856.733704 -55.328873
-273.878967 776.493591 136.801712
3.670695 1049.715454 21.750835
-142.937042 1135.484985 -108.484589
-130.317612 937.021301 44.570045
39.591866 1034.128296 61.889671
69.667145 1028.445801 71.462990
-2.381184 1029.638916 4.938067
-71.753052 961.725342 53.139568
-227.232620 1032.905640 -91.931862
-65.680595 1081.601563 -72.986671
-60.996063 1100.589111 -93.245956
-25.513920 950.409241 97.522530
-199.933029 885.809753 50.616417
11.680017 952.774841 129.943466
-169.706940 949.738159 13.162448
-283.528992 984.483459 -80.130951
-185.673218 982.730347 -48.283085
-73.896751 988.429993 39.304901
-210.868484 785.473206 177.608917
-294.742065 900.940735 -25.750189
-127.156570 1125.514771 -97.482941
-285.016235 835.606140 22.903095
-367.471680 796.584656 22.188246
-102.683449 956.773010 43.459961
-264.366241 847.103210 41.699459
-290.861694 944.893555 -75.236839
-302.099884 899.989258 -60.928757
-137.461090 952.310425 35.801643
-165.928223 796.094360 146.470291
-120.983887 889.633667 102.431412
-179.199341 1046.709961 -159.732986
-142.821976 844.535339 130.885712
-319.564026 738.303162 102.407639
-162.536407 1033.990723 -166.337143
-394.246765 837.511536 -27.161085
-131.524948 1016.954895 -30.009373
-239.472229 794.119568 143.112259
-200.630096 957.121826 -9.736594
-278.596832 946.030518 -63.816799
-291.103516 971.532898 -121.059502
-219.502930 930.745056 -20.573025
-354.928497 808.848145 -3.226332
-178.573105 876.622253 75.202492
66.525993 1006.865845 86.846794
-330.573822 952.341003 -101.738647
-20.224573 917.727600 117.397820
-238.154587 968.936768 -169.923431
-189.068100 854.283813 94.448441
-44.850040 1017.504822 30.466808
-251.401459 841.338623 67.130730
-180.698807 1030.811401 -142.683594
-117.248978 939.697998 55.410656
-110.424011 1166.389160 -102.133659
-123.014954 944.145935 47.565689
-78.278236 1114.601807 -97.694984
-359.388000 840.798950 -2.892145
-301.221375 962.471741 -100.287491
-219.569443 1029.516968 -104.411995
12.897916 1007.127014 48.536217
-271.377106 941.416260 -68.275002
-271.622223 978.881470 -119.404190
-276.408508 734.576355 140.183670
66.849609 1009.850281 110.109543
-150.573486 1083.845337 -95.057770
-394.979126 801.056152 11.227783
-345.742706 857.420105 -2.638331
-181.119492 813.541443 121.877151
-338.604126 862.644226 -34.556007
85.103279 1021.197510 87.255219
80.858192 1007.800964 132.172989
-378.376495 861.530151 -66.009697
10.922100 973.537109 104.665253
-117.021561 869.461243 144.038300
-297.814545 817.405457 73.590965
-305.071747 758.536560 124.165588
-44.244026 1041.451782 -17.029503
-180.921326 1070.845215 -131.362015
-123.396141 987.903381 -10.800423
-279.152069 805.376770 80.698235
-150.650864 833.173523 135.392212
-214.884750 1025.154175 -112.351852
-333.268921 782.529663 64.666878
-239.321747 1019.114624 -85.652351
-220.587891 940.935913 -33.565186
-162.993347 894.036926 89.889488
-8.491153 1107.475464 -42.644871
-51.484592 1051.078735 -38.437370
71.497414 1029.301636 84.892654
-283.697601 771.800049 79.694740
57.200775 979.937134 121.544830
-202.991730 849.316528 89.011368
-378.580231 791.072083 20.399801
-97.600929 896.431335 135.563049
32.446941 1023.005066 49.402493
-140.966080 914.935303 66.673119
-255.824020 835.673523 87.781967
-188.693710 900.609924 55.943348
-339.376129 766.440369 105.621620
-235.186432 792.535645 131.475464
-373.300110 821.220703 -13.514994
85.810219 1029.146973 111.848351
-16.806957 1038.608276 17.950859
67.750282 997.881165 108.460922
-97.552162 1012.901306 -14.369847
-36.578140 1068.220093 -16.121546
-158.037628 904.879944 52.861694
0.446205 1075.362061 -43.523998
-172.311539 1073.412476 -94.523735
-363.460052 804.645874 15.016297
-226.227936 939.941040 -39.682793
-74.039795 867.891113 119.513351
53.782360 1036.507813 76.604523
-285.597839 765.067566 114.606422
-355.313538 836.143372 7.178507
-100.628944 884.252686 131.073120
-102.003494 902.649231 108.290199
-230.646713 760.504272 168.563812
-70.927040 892.850525 142.181473
-180.063293 980.497559 -43.453979
-287.342560 931.759521 -57.109238
-131.672485 904.670593 71.960815
26.767685 954.795349 128.495651
-363.707001 827.251953 2.499669
-89.953835 990.419006 2.960224
50.593395 1053.419312 55.887356
-285.242279 969.758789 -80.698746
-31.339144 1001.405884 46.873070
-243.205261 872.718994 56.023315
-161.969452 1052.204224 -139.508133
-53.469288 896.622253 153.007141
-189.677444 982.469116 -57.878063
-158.195618 981.551147 -30.721905
-230.995453 768.785095 142.805283
-212.988739 916.004578 24.111027
-92.020622 1019.630920 -21.590473
-324.560699 819.593872 32.847824
-210.425720 851.780884 98.462379
-109.321907 1117.157715 -89.372734
-183.575745 856.294922 86.007820
-308.159912 823.389954 39.014923
-28.647776 1124.526611 -90.484184
-61.434647 1035.160278 2.719329
-180.014816 811.999268 137.945618
-316.839203 780.846863 74.388306
-101.886986 899.984375 99.177963
6.727969 1078.600830 -8.708484
-219.140930 923.993225 9.931752
-345.905731 758.259766 71.970802
2.905969 998.187927 75.514336
24.727291 1058.130005 23.170128
-257.845612 996.921204 -124.999191
-197.999405 862.045410 73.039215
-269.800537 869.710693 37.892906
36.232697 1051.572388 41.033791
15.111329 984.401917 106.658661
-286.582275 991.162354 -99.529785
-269.175018 972.533691 -90.356857
-102.473869 907.933716 112.245735
-215.120529 885.106812 59.809410
-173.517212 922.638000 43.011234
-87.778526 905.058105 107.600838
-393.055664 816.705261 -41.138401
-304.313904 722.989380 161.504181
1.884219 1091.383667 -29.041967
-42.122314 909.030823 151.587845
-411.778137 923.541870 -65.881912
-130.661728 924.893066 54.368221
-68.726868 957.850952 70.293694
-301.744171 798.489136 84.046898
-189.812454 879.984680 65.337997
-218.841904 975.372620 -51.577904
-226.026581 927.903809 -22.479980
-214.409241 922.093506 -7.011745
22.327616 953.649658 141.802460
-89.253601 883.313477 106.516144
-282.707275 759.206787 165.085022
-244.899277 802.127136 115.742233
-326.702393 883.531189 -60.963215
-75.724701 1079.141479 -59.365936
-76.429054 1050.255127 -67.032883
