ply
format ascii 1.0
element vertex 1438
property float x
property float y
property float z
end_header
50.616001 363.019989 744.476501
-231.682922 575.066895 874.656738
6.109634 436.796570 760.329773
-196.424210 407.213165 930.253967
-108.845146 537.460205 783.378540
65.959839 411.529785 679.697937
-200.480362 348.697571 966.907593
-214.444992 488.793976 884.521423
31.848961 249.974838 852.803101
-52.672817 382.463867 824.270874
-3.065636 420.691498 749.430115
98.499641 302.190552 769.347900
-279.167328 592.957581 898.326172
-36.029972 499.241699 758.899475
-38.174141 488.699097 748.492371
-182.341110 454.377319 907.809998
-48.282284 454.706818 785.111755
-197.613388 650.135071 773.477661
-141.127426 573.879456 787.280945
-60.263458 537.172119 715.727783
-200.363007 684.132996 776.389099
-103.296341 549.348633 763.964478
-186.890152 382.295837 960.931885
-179.296158 564.559814 823.668579
-58.847557 524.817383 762.050354
-51.181107 359.033661 843.230164
-133.663071 616.530212 721.694824
23.962326 301.664368 819.728577
87.955017 370.357178 722.466248
-136.139267 485.440155 844.582031
-145.225098 382.209503 938.777283
-138.823074 394.896179 894.519714
56.603630 398.437958 749.715271
96.599625 371.240662 716.561279
12.423274 316.784821 828.611511
12.516445 353.565491 814.689636
-152.189926 271.440643 950.386902
-195.410797 510.651825 869.441895
-151.359009 473.362457 858.516602
22.671991 362.770691 786.703430
27.146639 367.656189 761.869080
-127.754593 421.904358 861.221008
-237.013031 417.015991 960.308411
-144.782196 402.050262 910.172119
-80.481033 530.826843 759.468811
-229.375275 636.645081 820.442932
-19.558704 253.514038 899.727539
33.083099 350.045837 789.854431
-103.696335 596.605469 727.445862
-235.644577 558.635742 879.298645
-27.624027 419.367249 785.368469
-8.265526 463.614349 736.762329
-153.926315 508.372284 845.263245
-114.177589 646.426453 720.915405
-279.080536 510.661469 980.396301
-207.313950 346.814819 957.858032
45.865570 337.050293 797.857300
-61.676746 517.501465 760.845520
-61.892719 554.536560 738.524536
51.219509 355.949036 784.444580
-180.743530 424.718475 910.591248
50.182068 267.619141 818.841736
-155.753906 492.955322 840.658325
-178.478668 586.920410 808.879395
-218.761719 624.220703 820.081360
-119.434296 386.070526 898.703003
-187.377625 626.144226 794.355774
-286.402344 608.479248 881.966919
-210.319000 530.882385 873.399719
-253.805237 650.609863 834.565979
61.533482 357.111053 723.912048
-218.903152 336.869110 945.296997
-45.170940 394.040649 835.935974
75.042076 272.820404 821.927368
-167.237640 411.445648 904.437927
47.459423 430.207245 726.377930
-191.514343 437.966309 891.186951
-38.813400 503.574768 758.373779
-94.237251 397.736725 864.747375
109.831856 327.928772 751.337097
-78.127037 376.662567 871.417908
-50.818920 554.366516 722.545715
-116.189857 508.723877 806.794678
-229.724167 528.370361 889.545410
82.490082 321.266266 754.915161
137.117325 311.577637 724.698792
-194.003143 601.138367 812.984619
-129.775208 475.298065 837.586121
-187.531311 617.672974 802.480835
-17.170397 505.267029 723.748901
-161.011703 560.835876 805.323608
-148.470001 446.653564 846.990845
96.649284 293.507050 776.673523
15.608107 446.006592 751.352722
-60.170074 382.252319 860.624939
-188.274155 364.448975 961.508972
-174.157288 350.743622 955.472229
-36.468304 226.666473 950.144775
-147.682343 603.589600 773.203796
-246.424866 612.799194 856.566528
-197.192108 619.221558 811.481323
-309.037659 595.473450 936.029846
-168.187851 608.455078 768.077576
-237.614563 365.188263 940.371277
-121.721809 529.378784 798.823242
-221.236954 645.896606 807.223206
-199.201477 571.512817 837.109375
-60.870697 581.762695 718.358459
17.490868 276.774323 844.822754
103.414330 294.726318 782.582092
-187.815979 617.662720 798.944885
-97.300804 508.869904 791.432434
-100.792542 530.986694 776.212341
-205.292374 446.885651 936.056030
84.345261 313.749359 737.271423
28.598829 410.039368 735.107605
-186.804413 530.239624 822.747803
-169.451874 652.645325 730.353638
-85.766602 496.403442 778.966858
-241.124054 342.629730 929.128662
-1.765747 441.479889 755.866943
-154.316818 666.330017 735.924011
-54.932178 256.287384 988.830811
-210.700790 670.403320 784.378052
-62.319988 471.580109 802.997131
-53.560268 526.694092 740.478088
93.893509 290.711914 767.824341
-194.095413 505.602020 846.545044
-286.449036 546.193970 927.114014
-29.779261 450.065765 790.207520
-102.752342 541.598572 770.569946
145.664322 337.707428 708.617126
37.898411 403.933075 705.611755
-185.450836 637.781982 764.165222
-253.118713 605.818909 860.438477
15.539640 329.185272 809.555420
71.680191 362.260345 758.949646
-213.126282 667.094910 791.766235
-104.731850 552.064514 764.921021
-136.278885 416.732117 900.250366
-126.952484 489.444214 841.514526
-154.401825 394.082947 937.416199
-187.978531 449.792145 921.448975
117.178642 308.881470 758.822510
-105.841743 322.704376 914.148499
-127.778976 388.479156 884.387024
-228.178650 576.625549 870.706238
2.493256 459.554749 740.512207
129.347458 316.174377 743.369690
-98.849785 547.127319 761.237915
-218.116333 429.602112 953.898987
-3.464779 487.124695 721.370117
-193.917252 477.344696 900.209656
68.027054 318.527954 794.239807
-197.799118 436.066101 915.957275
-82.367210 575.772766 721.959045
-288.901031 537.992371 993.914246
-126.806709 585.160950 762.549133
-247.778519 439.582153 978.593506
-132.109436 432.065247 879.781067
10.344555 287.211853 828.156433
40.781452 432.250977 738.737854
-199.694656 574.729675 846.761108
-146.561584 576.410828 795.932922
-101.766754 401.392487 881.292114
-284.246155 566.769958 910.851440
-216.643188 506.795074 895.755676
25.061819 308.574127 824.824585
-212.626572 438.896820 964.353088
-222.754196 388.957977 960.719543
61.953033 317.989044 790.485291
-161.893188 607.188721 773.080872
-76.751137 274.818909 936.830750
-35.603516 284.914215 881.466248
-222.708954 587.491455 852.018738
-243.338043 603.055908 860.617310
-24.001257 289.857056 887.843994
-165.372574 637.412292 766.610535
-279.701111 578.710449 874.787109
107.782623 309.681305 758.071777
126.912712 326.805939 734.729858
-213.925171 428.689972 958.755066
6.738400 290.187561 849.580383
-151.549469 271.525665 941.042297
-238.473984 589.891357 839.258606
-218.712769 647.226624 805.246033
136.981720 317.683228 722.300171
-101.478714 408.951141 869.499451
-136.737946 552.386658 792.943115
-117.676727 555.590820 778.915283
-184.400177 641.778198 776.290100
-280.229492 589.507935 895.392639
-200.222534 599.782349 809.621521
85.259491 386.672302 735.632690
-147.991852 501.198151 851.078613
-79.725830 603.515930 714.916809
-20.244699 374.969910 807.833618
-194.609573 539.098267 847.802795
-64.229568 563.061584 725.972656
-220.556671 383.630157 961.293457
-237.370728 410.829315 966.559265
-15.120415 328.790619 837.991516
-162.565811 415.645081 914.979980
-164.440781 331.412262 960.691650
-188.818741 691.624268 757.666748
-6.035587 484.875458 723.410767
-280.647217 543.901184 946.102722
-189.792618 655.859192 728.588074
92.102676 287.397095 777.858398
-207.583221 618.422974 823.326050
-156.082443 366.419495 962.505310
-154.736084 531.677307 821.497070
46.685776 384.306030 746.601868
-5.849051 365.387146 789.375061
-98.252190 617.823486 719.568054
-196.953690 671.880859 768.854675
-84.518486 475.963501 793.211548
-25.322996 509.504578 732.343079
-128.402756 572.397034 781.784241
-267.409393 556.713623 905.379150
-47.069016 436.374451 796.571838
111.048920 315.886475 758.595459
-123.667282 327.259125 961.124878
-78.270142 446.461334 803.698730
-173.245300 657.311829 740.851929
-21.475153 505.273376 725.783325
-259.082733 412.029449 965.405579
-305.550262 596.546021 940.223694
-8.324773 374.560486 800.993042
-187.150299 517.971680 860.843445
63.935658 324.341309 775.083679
-127.539635 606.347351 747.663147
-31.330008 248.179031 918.170044
-92.386421 548.522156 755.088501
23.594038 393.741486 767.443176
-21.713331 389.190338 793.194641
-186.095657 409.111053 949.357910
-188.098282 522.390137 829.377319
13.498105 431.995209 761.047424
-71.700821 449.573090 805.871033
-144.727249 602.949036 740.056641
-190.278549 694.106201 739.909607
-188.813141 585.974792 787.005188
-56.607517 487.442841 767.886169
-217.140182 639.371521 797.487915
-82.517151 502.195404 795.883545
-232.976349 552.064026 881.440491
-229.867325 597.945435 846.837280
19.567923 301.401306 821.208496
-269.920227 494.467010 993.180603
-172.703308 503.176300 865.231567
-78.514542 542.830933 753.250671
25.781666 338.309662 812.315735
47.372448 406.246307 731.037354
-96.647820 372.244263 890.175964
-231.881119 363.755615 953.372559
-27.277243 526.642578 717.428345
-7.726184 286.048523 855.506592
-143.250122 471.805878 855.364014
-203.716492 638.535034 790.742859
-222.137375 430.667603 953.058228
-76.046143 303.225128 895.789246
-9.060470 268.462524 874.061157
-92.263130 507.661743 799.720520
-188.007553 565.813171 831.038513
-91.003883 466.539368 778.260132
-136.937622 394.130005 909.455505
-79.733025 320.757904 890.133606
-44.322914 513.610168 736.793701
-15.069380 304.943054 834.618469
-16.060974 455.371613 756.649414
0.581238 381.547913 789.058472
56.377628 413.125092 739.642700
-135.905212 552.481812 803.940918
-256.897003 486.529663 948.464233
-226.020157 525.159729 885.414429
106.997322 363.454407 732.535522
65.661911 369.530762 759.241394
-214.288773 649.258118 781.828125
-50.708405 490.806091 762.386841
109.808922 304.399750 773.185120
-134.866669 548.794006 792.297302
-112.646957 284.087341 963.543091
-93.342049 433.862671 840.498657
-119.570862 447.381592 855.398499
-194.171539 510.640961 839.092041
-197.062958 374.829651 953.149841
-129.498047 424.439209 869.499451
-2.091730 350.396973 817.352783
-94.041771 388.001495 877.486023
-197.819000 326.005035 938.358032
-77.860153 343.224792 895.344604
-247.907303 410.416809 964.989990
-222.436981 356.863342 958.510864
-179.525070 314.547607 940.040405
-168.271652 606.616150 757.517151
-227.592178 530.950806 891.921997
-248.612030 580.477051 875.629944
-217.719803 416.916473 955.406921
-221.059708 510.482513 904.213196
-156.530624 619.956360 739.151550
24.696022 435.262665 750.172058
6.450405 364.592316 792.652832
5.184616 291.304688 859.435547
-200.803207 430.788940 950.591919
-140.815063 578.095215 768.145874
-241.468506 452.931519 980.633850
-171.273239 580.172180 813.025391
21.400246 396.962372 763.376404
-67.442940 311.803345 876.644775
-274.397247 522.401184 1002.278625
-125.525627 555.097229 780.173706
99.289085 381.721191 710.089600
-317.462402 576.758911 961.991150
-45.721394 529.424133 730.434570
-163.769852 340.448120 967.860046
-149.388794 449.170044 886.814819
-202.684113 578.269897 828.032715
66.714218 357.445801 766.540894
-152.731766 647.104309 756.238220
-140.781815 354.410065 963.586487
-162.349899 682.137817 710.953308
-236.303085 501.112671 906.194031
32.116375 397.221832 750.657654
-159.269882 640.152039 740.671204
-72.574883 408.344757 849.560364
61.953323 342.472412 746.943665
-131.657532 593.833923 772.909912
-214.902557 386.751648 951.209595
65.170151 360.570679 742.883240
-199.438171 473.243164 911.538391
76.371162 295.755951 798.688660
-145.308121 640.025391 747.194397
12.307017 338.913818 824.048340
-29.558670 326.709229 870.278809
39.393623 232.831787 870.234863
-116.255684 328.562256 950.501831
-197.529510 659.205383 782.998718
-179.150955 523.129944 856.972778
72.077477 359.305084 713.591370
-99.622261 476.771118 825.063904
-117.910194 380.873291 884.673035
-302.456970 563.576233 936.559570
-239.804520 540.714539 891.153015
87.837624 398.489532 714.393066
-105.385590 562.705566 775.426331
29.248419 440.521210 729.871155
-238.878082 331.706268 927.723816
-34.698544 376.797363 823.471924
-12.523414 330.518768 831.208923
-211.444748 597.655823 832.361450
-259.733429 553.063965 896.180054
-199.901840 587.409058 817.446350
21.418053 188.463104 930.666870
-221.897614 495.709442 913.316406
-166.071899 554.588562 789.033813
-57.268642 317.076202 875.417358
-269.584320 550.984802 903.075562
-196.743439 463.270569 902.210815
-87.455612 503.052551 802.213501
-275.675018 525.933960 900.542358
-131.441589 357.522888 913.658630
-159.031967 589.661560 798.367859
-9.458004 203.002518 949.899292
-51.980545 502.238647 751.613831
-56.959843 447.718933 796.944641
-213.864105 303.721466 925.846191
-236.330704 454.812134 992.805481
-274.148193 595.955994 887.703064
-258.462189 406.149811 963.467346
-255.731979 458.716003 966.629578
-44.550846 512.165100 756.972839
-108.442619 378.266754 859.571228
49.667824 378.995880 754.612976
-112.993622 615.774658 741.459045
-199.091370 552.366333 850.301819
-265.444244 513.403442 935.213501
-24.969814 497.719604 720.211609
27.675732 457.749969 716.244202
-143.148621 284.057678 967.722107
-96.328522 503.194855 766.968689
-193.349792 338.555878 944.292664
-93.635925 594.255676 725.150574
-126.919655 475.535553 846.557129
-24.771132 414.449493 790.653748
-176.034393 443.015015 915.158264
10.667914 301.384186 840.487549
0.196708 454.872192 759.948425
-196.742828 699.174011 743.705322
-153.579346 613.027344 755.562439
-127.434883 642.012390 731.275391
98.519348 321.103424 747.826599
-295.406891 588.277222 911.618774
-35.339569 232.138443 952.801636
10.045021 381.903198 763.710632
-64.079880 414.431519 827.333374
-174.290451 414.640411 908.002258
-153.014114 368.866455 955.234680
-92.757057 456.447540 810.950439
-31.357534 536.744873 717.486938
-201.495865 361.246765 969.451172
-85.719383 480.006805 799.385071
-118.771111 360.339325 897.268005
-205.071686 520.026550 879.668335
-117.631279 507.953247 799.046814
-251.221909 613.613281 834.271057
-191.397873 305.158508 935.444763
-271.735413 498.960114 985.281921
56.303940 426.600250 711.847046
-106.241371 642.561218 718.882446
-140.520828 551.477539 806.248535
-75.791489 373.058838 846.444275
-88.268135 434.446442 844.024353
8.457745 456.626343 731.024414
-182.786102 282.803436 931.335144
-1.899815 368.516357 776.519714
-4.470735 341.468262 825.006409
-127.207329 563.137207 768.375854
-248.458252 557.215698 866.251038
91.653328 276.334015 806.121216
-145.447067 618.608215 763.079529
-133.373779 502.706696 815.189453
-260.146149 504.489502 985.630981
-32.655331 373.604645 818.767578
-221.835648 394.993835 959.971802
11.653594 447.304047 731.800354
35.701832 360.714111 794.808167
-150.397095 578.797180 788.824402
28.431042 309.037201 808.856995
-40.542049 457.714996 775.109985
-263.106171 382.751434 949.706543
-153.270752 286.840149 954.779602
81.406906 286.296448 807.522339
80.633835 323.669586 754.283142
-177.001495 465.637939 893.411560
138.810165 309.874512 751.040161
-146.803070 630.964783 740.906372
-192.910248 670.436584 769.999695
-12.533415 206.231201 952.590149
-93.041893 335.526062 884.593750
72.749496 400.853699 736.353699
89.001457 385.932037 714.882690
-220.767242 456.730652 945.805481
-12.100357 355.705200 833.465454
-56.272491 516.600220 724.421326
-180.278610 499.456177 879.546387
71.403549 333.384674 759.464111
46.968330 400.524292 732.247498
-112.382675 442.963806 842.652588
-241.830704 465.069122 978.933960
-112.961510 580.355652 747.957947
-108.454514 292.139465 988.945618
23.578146 241.354752 864.272766
-275.935669 537.866272 893.120422
-1.488994 376.828033 795.784912
-19.489012 286.236694 870.787170
-66.170265 479.314148 786.027100
-91.350639 542.064758 759.708862
-46.636639 455.685516 784.100952
-157.693024 538.153381 832.408325
-225.979736 633.601929 796.624268
-268.996796 500.338867 1007.283630
-13.825515 225.760956 896.960266
37.044376 309.535980 800.832520
-138.734451 322.249481 974.305481
-74.026146 575.987732 738.712646
-145.163010 508.528473 830.463013
102.911850 279.180267 795.718323
-173.917450 347.691925 966.982666
-147.292908 682.492432 718.304871
-99.271515 387.475067 883.737183
-136.241333 512.062378 817.968445
-198.168839 355.899963 957.408020
-138.142532 417.923706 884.896545
-6.208392 365.438293 802.778137
-60.309116 338.535889 863.813110
-135.832413 654.209045 727.438660
33.337788 234.141083 851.248291
-132.385315 573.239502 771.799377
-264.558533 543.532166 918.188416
-118.939957 299.963318 988.758057
-181.992828 663.184753 761.851807
-148.159653 552.153870 800.113525
20.824009 450.928619 743.316589
-85.719398 320.677094 916.426819
-134.405365 421.318207 887.550415
2.998490 490.702301 730.336609
-221.940216 480.978699 924.885681
-37.926647 529.877808 725.782837
-288.719818 541.803467 899.550476
-181.146927 643.398926 777.727966
-192.443924 430.811005 918.310608
40.660076 425.149231 743.493591
-174.467010 540.828247 829.037598
-244.247803 586.800537 827.137085
-157.078522 679.306519 718.849854
-79.125839 580.394226 720.873352
-151.956512 485.867523 849.646362
55.743523 257.554657 849.522400
-128.446411 432.377930 863.864563
-237.591812 622.534851 841.974304
-265.157990 505.801422 1017.052185
-201.711975 647.290039 776.637085
-108.948845 472.278687 824.485535
-164.337372 389.028076 952.950317
-79.429771 476.544189 792.947815
-99.663300 470.625214 809.604797
64.155029 411.248962 720.364502
18.500454 407.256104 759.717468
-170.118256 608.815674 796.055481
-68.391174 418.173401 819.033386
-70.974815 320.372345 883.035034
53.328110 294.014587 799.700134
-166.095459 614.169739 780.097168
-191.449097 307.719818 952.091492
-61.516609 268.907104 908.985291
-271.308533 614.216309 849.132202
11.689830 410.566742 757.473511
-267.812164 398.049744 943.339966
-113.678772 582.701904 757.410645
17.028635 302.632904 798.729858
56.358852 403.055420 745.563171
-260.399963 595.334290 862.165894
-196.369263 391.380066 953.182495
-23.866161 389.968811 825.293701
-26.562111 451.246368 769.341492
-101.460106 392.077515 861.668945
-2.333887 311.608917 841.218811
99.696564 382.322510 709.895935
-162.255035 671.214905 729.151611
-108.478065 406.292236 867.731689
-223.946823 540.358643 879.252502
-20.336248 344.064728 827.875671
3.334270 370.422699 791.333984
-202.635864 643.346252 793.909058
-168.989059 615.389832 773.466064
-256.440735 553.077698 898.339661
-116.224510 547.215759 792.256958
-193.858292 400.834686 947.892029
-166.233093 469.581635 846.640503
47.960926 367.545441 761.121521
-19.268860 397.377197 810.826416
-14.525708 407.510742 776.034668
-54.621082 226.110733 939.932556
-191.013977 303.237122 951.610229
-153.779922 529.547607 820.703735
-135.823746 445.182281 866.295166
-125.056732 368.999176 897.346252
-39.105637 477.994507 776.797607
-50.708435 410.557861 829.926575
-8.321401 386.244019 771.218445
62.200809 360.303436 753.952271
98.714355 294.048920 776.389343
83.290634 297.722534 769.139954
-305.364349 547.835632 938.816528
-206.972794 578.812927 839.378540
-217.930237 526.970276 873.890808
-253.551834 508.462219 1003.733398
-125.842941 604.194336 739.818115
-220.219162 635.658813 803.722839
-229.970108 476.487244 936.886780
-272.196350 412.732361 963.731323
-125.865997 607.916077 737.692932
-117.519218 606.289307 735.390747
-30.027393 225.259201 896.143921
-65.134262 347.748260 868.257080
-188.197510 330.643951 957.889343
-299.842285 534.084778 969.656067
-111.986084 355.525391 895.815735
-96.297661 390.165222 884.280762
-1.114969 335.512390 811.981995
-163.251434 656.136169 744.470520
-111.290466 514.313782 793.727112
-16.040371 377.931244 805.815979
-281.500397 500.572906 983.118896
-253.145584 469.771606 998.092529
-6.545479 209.385696 936.074341
-290.711914 560.544739 963.067871
106.852074 336.142792 723.999817
-74.477074 528.806519 731.916565
-182.408890 418.862640 945.676453
-153.036713 449.773834 884.861206
-86.779678 285.886688 990.148804
-183.417236 603.730652 792.695435
-8.027394 504.549652 720.662537
-22.220812 364.374054 816.819397
-254.445267 531.693909 907.049377
-16.731302 294.913452 857.111633
109.749474 276.074615 789.957764
-11.440862 420.776855 793.262817
-185.896286 518.275085 863.823547
104.599739 340.652557 725.427673
-145.416336 682.732727 730.674255
-112.222046 331.411652 914.084900
-44.578274 565.032410 718.146667
106.309189 315.799622 735.383728
-169.304642 696.766663 726.362732
-226.759613 399.718658 954.294067
-186.351944 524.408875 856.595703
-273.606415 391.258087 951.002869
60.996742 409.024139 723.321594
-235.735870 589.922241 860.428284
-141.530197 625.421326 755.184753
-282.466034 548.226440 907.448914
57.256676 380.721222 740.984680
-22.195908 367.481293 802.819885
-3.032200 455.456451 748.294617
-203.033798 568.100342 825.078003
-55.147564 348.889191 832.945801
-246.427185 358.366974 947.667542
-100.599159 456.099792 829.861145
-96.770264 420.539001 848.520508
-117.721962 392.858154 877.891479
51.952827 369.599548 770.745544
-276.715118 564.431458 905.374146
-227.667221 599.911621 848.701782
-268.440582 606.043945 891.772034
41.795757 429.258942 724.547180
-141.123840 504.209320 838.994751
-155.625229 332.866241 969.204346
-220.861084 627.769409 783.611023
127.615471 298.244110 731.225037
-84.505569 609.980530 715.902527
-161.872437 308.595856 964.366943
-4.092747 505.984100 733.818726
-157.803864 545.717957 812.489502
26.238262 313.202881 836.680603
-174.695633 572.324646 808.842957
6.924997 197.882126 899.599304
-61.768120 478.454407 797.863708
-165.280563 622.408936 765.470459
-26.274765 404.209351 795.424988
-145.880356 368.371613 958.538025
-210.566055 379.611298 952.361450
-185.766464 560.619019 816.455872
-249.759888 379.117126 935.857300
-126.574112 510.443634 811.909851
70.067123 249.746811 836.909058
-36.008965 305.041565 890.682068
-74.091606 352.828247 887.313232
-245.249084 612.396423 850.371277
-223.958054 570.792236 859.248718
-101.733315 415.451111 865.447693
-175.119568 462.484680 884.045593
-30.324322 487.648529 745.235229
1.123404 455.086334 757.363892
-305.640350 595.811340 910.899719
-265.794739 438.414764 977.223450
14.755567 231.243546 887.154968
-243.298264 441.210571 955.523438
-234.775223 502.024933 900.593323
-117.734940 542.201416 781.798706
-72.781555 334.024994 875.917480
-126.271744 585.623901 774.338501
71.814728 262.783539 783.591187
-210.399063 384.730713 941.655090
-157.137726 529.868286 829.568542
-54.802727 576.687134 714.339661
54.568939 238.312729 829.362122
-112.812477 281.069519 973.441772
-27.765606 523.650391 733.148315
-209.434708 336.226501 948.693054
-213.368515 530.685913 874.012695
-8.261856 376.271790 777.880127
71.542686 305.526733 782.760803
18.865284 448.190918 725.482361
-195.043304 507.276703 872.943726
-3.629880 422.221497 763.067566
-232.927429 472.278778 922.952087
-161.621704 447.685089 879.828491
-142.477432 308.099731 953.460022
-166.801636 640.844177 771.546143
-305.497742 577.450012 917.240417
-74.752548 592.513184 730.436584
-94.329475 547.229980 768.705078
88.251244 332.356323 766.624573
-70.085930 389.331146 860.318604
19.775175 263.279358 863.505615
-194.995117 644.763733 771.807373
-254.628525 429.412323 970.360168
85.635101 297.616394 765.148743
-187.790024 357.959351 952.718750
84.673965 371.837219 744.429016
-214.447586 374.828003 964.093201
-206.745743 427.581329 953.523193
-223.849243 472.224121 977.238098
-206.843872 464.421173 925.192322
-262.285095 558.609436 864.562256
-90.551613 530.997925 783.636475
-307.620880 567.044250 953.151062
-273.970337 565.101929 903.302368
-221.298981 665.745117 797.016724
42.288303 451.175140 714.730713
-117.040054 611.793945 730.857788
-252.225021 506.732910 906.668945
-6.495287 429.771912 783.369080
-117.340813 285.802582 964.949524
-265.963623 567.657166 895.485168
-184.035400 487.778473 873.092896
-44.004177 485.009521 737.004395
49.052731 324.840546 803.213379
60.280243 286.018402 817.787903
-253.331345 565.772888 890.545166
-53.811901 569.375061 717.613037
-107.014503 370.950195 897.174438
61.873550 268.288971 824.075623
-99.741493 432.992676 836.028748
-142.390030 368.998505 934.316101
-55.733818 479.140961 770.143799
-222.179214 545.031189 886.882751
-52.624264 575.517578 720.743164
-126.040497 451.978485 861.685791
-16.431999 489.570465 711.363220
-134.997009 625.629700 732.798767
-179.265427 505.207703 868.847168
31.985914 389.599792 776.560120
-130.522568 570.067627 771.352600
-289.543182 580.610046 907.988159
-155.302460 630.372192 761.963074
-4.946763 476.843323 746.832336
-212.871368 358.981354 960.138733
-195.455536 557.106201 842.208313
-222.152039 429.063049 960.016846
-173.111511 392.232056 945.385010
-65.091835 555.987183 724.776978
-105.029427 413.093170 847.592285
-89.336876 503.854401 778.587219
3.141427 235.683960 870.882446
-112.261871 562.377014 769.860779
80.428253 261.568054 828.996277
32.778130 311.843933 793.618103
-162.878143 660.778809 745.562378
41.596836 277.486084 790.736206
61.726593 447.347168 715.426636
43.822784 414.432068 728.352234
-109.944031 267.787415 955.611023
-193.382935 336.580170 945.522156
-128.667191 448.272461 873.322510
-172.902969 304.070801 951.131958
-119.318115 523.796265 813.896362
-241.929459 416.119476 956.562134
-272.533600 393.870728 946.943054
-97.886162 617.554199 731.246765
-1.338245 392.148865 780.551147
-254.620621 636.271484 850.164063
84.782753 276.189270 800.330750
-100.086441 376.251434 890.479736
88.742783 313.211304 781.570984
-246.533478 412.346466 964.068481
-250.650452 599.368958 866.657593
34.423885 310.070343 806.932434
-45.777969 483.108978 766.103943
93.063728 382.415985 733.707275
-167.857864 587.323669 811.696289
-158.740067 644.504272 763.569885
42.070324 357.183838 791.959961
-53.024872 568.412598 711.892578
-172.918182 564.171875 792.225342
-89.787369 585.757629 743.155029
55.283970 409.485748 747.921326
-141.660416 603.290161 737.240051
-16.869246 272.262573 871.067810
-56.602142 363.976471 849.192200
-38.562977 469.854462 768.271545
-185.220917 548.554443 824.790161
-107.617790 450.683716 851.600769
-109.597565 417.909424 877.365112
1.319762 288.102448 848.076660
-178.928177 580.146362 788.031128
-151.831604 617.230652 729.314514
95.410271 269.052002 799.520203
-12.313100 226.107971 870.847595
34.616398 424.438507 707.631897
-192.281021 663.195007 763.504822
-61.661594 562.311523 721.104004
54.086163 378.118652 763.508301
-167.246399 282.327301 949.982605
-23.388216 331.846130 861.665833
-113.629074 539.228088 789.034607
-156.135437 451.423096 884.712769
-244.020905 579.699341 871.892761
-75.058197 460.307983 799.082092
-215.984406 297.454285 931.336365
-208.461685 441.313477 961.088623
-283.812134 580.994080 909.247070
13.948110 307.259979 825.040222
61.414963 415.481171 720.152344
-53.840733 318.378418 850.432800
-102.389603 429.507813 847.781921
-246.987823 426.320862 972.862305
45.098026 266.122131 825.397949
5.541202 289.471558 852.444580
-155.051147 566.208557 810.459778
-15.607054 455.491089 715.382324
-53.537598 556.445374 721.272644
12.604306 207.577042 900.620789
-239.821732 523.208984 896.487488
-53.057961 504.731689 752.845642
-9.064278 350.850586 834.168701
-159.519806 548.154663 817.934753
-94.948540 592.733459 739.277649
-23.544390 367.794434 815.021667
-204.909592 493.748352 887.762390
-260.193939 604.575928 846.305908
101.013031 374.357727 731.096924
-12.309088 226.218063 876.209778
31.738998 232.546478 882.605957
74.189133 408.423920 715.316711
-19.373480 453.335052 775.665100
-179.570343 415.552124 927.330261
-149.529327 437.393982 854.359558
-131.721130 573.221619 783.491272
-172.022980 398.434113 954.426697
-259.913818 589.466614 856.915588
85.191711 374.271484 722.529602
-25.756329 334.046478 817.613953
81.774124 323.167023 776.889893
-314.404968 589.258484 981.802795
-100.331764 518.790771 799.781067
-167.760071 454.256836 900.301636
-172.909454 453.555023 888.348877
-195.839798 660.779602 757.427490
-55.351604 486.371521 765.206543
-63.496258 457.637695 813.322937
-87.202919 380.057312 877.017944
68.499283 285.105774 819.467224
-99.438965 619.465332 718.437378
13.078094 228.103668 897.544983
-44.992241 330.840393 845.099792
-200.278214 389.269135 962.716431
-149.670609 528.987122 814.046021
11.190622 459.744781 724.718445
-192.000046 633.706299 788.927673
96.499298 271.938141 785.151062
-239.286301 401.504150 956.660583
61.305080 347.016205 756.783447
50.777046 379.259735 768.169617
13.530123 326.656708 819.502136
-51.938763 442.542450 771.641663
8.263539 474.249817 736.788086
8.683088 487.578125 727.472595
-278.968048 593.516479 898.619507
-220.011917 329.217010 932.255432
-97.196228 505.661499 789.650879
-214.089706 585.841370 846.575317
-212.387115 298.588348 923.629456
-236.923126 493.975525 941.813416
-199.063919 316.611450 936.510254
-155.966446 510.654449 836.203735
-20.978605 533.126953 714.553589
-27.773670 542.775940 730.148743
-156.689819 603.604187 771.481689
106.081985 356.106384 736.100159
85.845116 322.385345 766.387756
-240.209122 478.411011 956.340515
-149.186279 653.732910 747.626648
7.746290 320.872192 837.219299
-101.943703 318.480957 918.128357
-105.709167 363.762573 891.990784
34.016533 345.829224 806.914368
-146.834152 662.066650 728.702820
51.403488 252.176086 808.881897
-124.761612 464.241852 834.736328
-257.624512 580.306396 884.892151
82.404129 361.879822 754.202209
74.355942 328.451965 763.897888
-265.476410 564.630310 896.064026
-157.209320 445.339996 890.396912
-114.202194 573.114014 768.346924
-65.949768 346.109375 855.809875
108.018410 272.573425 783.607971
-150.255005 408.301544 919.095093
-76.245445 457.226654 823.930481
-201.526215 439.983490 915.902100
-195.448486 455.339569 903.749878
-153.841995 519.722900 819.948425
57.268635 329.992859 776.541382
-269.971436 476.047699 990.235901
-76.323921 398.862549 858.468567
-185.273407 499.223328 843.044556
-101.892197 506.983856 786.735535
23.478884 214.690567 858.126465
-2.095255 405.621307 793.029907
-3.003000 377.627869 791.738647
-288.004730 547.480225 922.612610
58.887680 256.455536 838.591858
-116.824532 630.075439 729.231750
-2.596508 385.246796 773.226685
-241.358261 566.486450 872.547485
-230.275162 483.050079 950.767639
-36.896500 453.743042 790.786682
-173.262268 486.878845 875.999634
-37.356956 458.794128 771.484619
84.806618 315.298981 782.424805
-228.068710 465.711060 910.059387
43.429096 242.125519 838.394348
-171.000000 694.348755 729.597229
-181.733719 510.182953 858.147766
-165.122574 572.519775 800.945374
-229.777969 324.232178 926.366699
-220.195328 654.964417 796.387817
-249.885635 370.713196 932.885925
-105.183136 578.800659 760.169067
-12.392687 197.002518 918.731567
8.013817 255.919235 834.504028
-58.996029 549.970032 740.038635
-210.661774 633.792114 786.313232
10.411614 390.859650 762.564819
66.719032 303.549927 806.148682
-231.023499 560.966675 858.284180
-228.309937 365.433533 944.214294
2.717798 334.925323 804.939453
-205.005432 528.878113 854.096436
-139.628174 637.362183 752.713501
-146.546768 302.854919 954.579102
-278.139618 528.282654 996.277527
-174.355347 480.090668 871.094543
-112.109215 449.480103 838.689026
-64.068954 534.248840 759.892273
-59.843910 254.771805 899.692444
-288.001801 548.324646 892.906799
-176.411194 662.292969 764.290100
-179.149567 652.206360 748.762390
-140.077194 661.402344 730.214111
-182.027084 664.669800 767.048767
-101.602623 548.063660 780.925903
-247.943283 378.789032 956.660645
-92.685806 570.696289 733.010315
-199.059906 563.803650 853.375854
-66.794319 309.220673 912.937927
10.350326 332.586273 834.347412
-195.270721 515.914368 876.943542
-187.370621 599.805481 811.553650
-73.496407 564.176697 745.801636
-67.354622 395.970825 838.617493
-174.106827 385.299011 958.422791
89.064201 264.999878 816.761780
5.325278 442.768646 749.350342
79.369637 359.736572 758.248352
10.886378 202.996109 893.623779
-239.369812 646.301941 813.943604
-128.209747 339.736328 949.229614
45.557423 412.485962 741.371765
-156.925919 613.100403 780.161560
-184.602493 527.674194 865.346130
-31.757980 508.605286 748.364258
-248.044693 594.838684 868.156433
15.323461 438.746460 732.915039
-63.196579 477.013275 780.983582
-72.656799 535.689819 766.593323
-90.309608 602.979797 723.868958
-268.761444 487.918732 984.473267
-232.007034 374.961487 959.269287
-223.117645 516.092163 901.935852
-116.419884 595.542419 728.834473
35.551525 328.912537 793.896362
11.450655 418.665985 752.172974
-206.580048 443.886810 918.963074
-244.546143 556.919556 894.658875
-211.850311 341.843506 957.751831
-22.476465 278.414063 871.393494
21.742661 220.841736 900.727600
-187.489059 572.148193 833.289246
-210.722717 543.440796 864.498108
-198.165436 638.141968 800.218384
-92.020622 409.425323 838.621765
72.791290 245.185684 825.463379
-23.291014 351.140717 833.589050
-41.775562 249.400681 983.278442
-126.383598 354.144531 934.002991
-177.683990 693.278809 739.338257
-11.698254 213.834854 926.238525
-158.798737 321.176849 961.768250
4.037533 309.536438 831.813110
-159.196426 575.611633 807.969849
-254.276840 412.825287 965.972290
-167.686554 422.160339 915.473083
-6.576373 403.578430 783.475830
-162.527817 494.462067 844.885681
-108.661316 281.838623 985.016296
-156.207520 654.836670 751.986694
-137.089005 421.211243 854.858521
-154.117355 503.615601 854.460693
-174.759369 361.174957 967.241577
-251.247375 474.804535 988.990906
-36.435802 322.977600 843.492981
-42.141140 402.712097 825.482971
-149.194550 456.045349 876.447937
-1.950636 268.392944 859.946594
-203.757797 586.131592 812.558533
-187.502686 369.329987 944.416870
5.284667 427.788055 727.568787
-250.435028 347.602264 927.673523
-132.768448 537.282471 799.289429
-47.294594 463.517090 793.332031
-271.333344 605.835571 876.200012
25.494877 304.732605 818.115417
-45.561039 489.342987 762.686096
-1.621566 303.262146 848.493835
-108.294327 575.780151 761.073364
-131.138336 643.263245 727.847107
-203.924194 556.197754 862.126038
-76.875839 504.210541 790.179199
-264.242737 634.037048 847.295166
-57.315563 398.808929 843.240784
-228.371964 320.221161 937.207825
-153.920517 401.101044 901.278503
-25.301029 310.324860 840.350159
-51.384472 497.420135 762.676636
-228.919861 457.598633 987.202393
-225.806305 416.012726 956.734436
-102.562134 503.364288 762.678040
-250.587219 619.190674 851.535156
-206.614212 406.634216 960.617920
-157.614014 573.390564 807.950439
-73.561913 599.474243 720.264099
67.108063 258.435974 810.946045
48.147774 343.530914 744.435913
-42.643265 364.838806 838.271179
-120.676544 441.719727 869.162476
-46.437817 557.558960 717.065308
-144.949631 474.504669 851.431885
-170.363190 558.005432 815.739685
-160.339111 538.039185 788.340271
-218.650330 486.784515 908.048035
-218.389130 399.441864 954.448364
-223.429901 619.914429 805.039063
-3.254039 480.187622 731.095642
-167.605865 300.932953 957.959229
-98.761421 368.682495 875.988525
-223.379028 533.223816 869.585022
-7.150977 413.494781 776.643616
-86.994347 573.913513 730.088989
-192.000656 590.372620 811.654663
-7.870448 267.219635 852.813049
-98.924446 520.227295 781.718506
-0.871075 290.636688 865.543457
-269.026733 500.127106 928.982666
-265.500610 457.488342 986.009521
-134.180954 499.125092 833.670471
-136.904297 576.848267 785.669922
-196.497009 317.863861 952.440369
-156.105957 479.686523 853.408386
-16.903162 321.196625 829.510315
-287.154785 542.030579 957.710083
-167.910751 440.343597 902.636353
-64.114441 511.836914 758.999878
-260.134918 493.128754 986.016174
1.979111 282.005707 865.323730
-73.775917 273.412445 947.667114
19.629631 204.532303 915.734985
-259.030548 558.400146 861.395874
-57.873413 412.771149 838.077209
-104.848320 392.173676 877.031311
-146.754181 412.169556 902.804016
24.632465 356.134613 802.946411
-177.410080 358.791412 967.512939
-231.372040 369.423340 952.223877
126.765480 350.676117 707.641235
-133.308899 534.871643 817.957153
-205.020691 617.083557 777.773499
-141.682327 399.247681 917.170044
2.897501 323.821289 841.572388
-15.847170 477.604187 735.234253
-224.605499 532.657104 886.056458
35.010754 446.432281 726.056458
-62.583294 422.311310 832.150818
-169.561417 312.291046 944.939331
-98.876625 307.284668 921.566040
-275.166840 593.128601 875.856384
-39.906441 248.899414 926.916809
-20.319389 252.574005 887.973022
-21.425776 293.947815 836.897888
-245.483383 557.848633 870.357239
60.705956 353.939606 756.478394
90.627235 316.928558 729.460999
-14.566876 218.477402 891.108948
5.294422 455.363068 740.906738
-125.691727 491.872894 823.924377
-246.294662 525.872314 905.488403
5.745464 303.670074 852.072815
-164.410797 664.283325 718.110596
-212.968262 363.890656 955.310303
-259.097290 583.625549 882.368408
12.245229 357.012512 801.792908
66.953392 407.016785 720.659729
-20.893192 273.788696 858.825256
4.534462 304.456512 833.958191
-199.225601 365.419006 943.769348
-87.998138 463.869385 826.950073
-240.895081 542.888611 870.272522
-30.304607 534.838379 727.786987
-130.834045 565.796936 791.431274
16.368277 331.224121 831.969910
-46.959221 261.404205 933.749573
-39.222626 245.829178 905.016418
-20.168322 421.473450 780.165649
-51.033512 557.253967 712.992249
-217.685349 363.716125 966.450562
-143.965149 282.236877 967.957092
-35.925858 535.212891 722.705933
-300.231995 561.330505 897.570068
-153.815033 475.586151 867.739502
-174.057724 633.110474 782.741150
-137.888657 641.292053 724.494019
103.420601 333.662598 727.605591
98.212288 328.915527 735.233704
-24.447033 308.819824 842.342896
-34.662506 506.332306 751.769897
-116.179024 594.636169 763.429382
-141.008377 566.149719 803.393555
-163.385986 522.048767 845.507446
-186.560593 658.664612 773.778992
-241.085342 417.449249 962.598083
-18.750759 208.390213 911.589722
-150.783890 570.362549 789.523865
101.729324 345.020935 751.571960
-147.323181 529.572388 825.697449
-54.039238 450.079071 793.037292
-60.864235 317.764099 877.970459
-66.348221 338.424408 877.474121
-11.771981 423.390320 788.420532
-116.843544 421.264709 869.673706
28.441128 225.076416 873.458130
-254.519012 620.106995 856.309387
-147.321732 486.832123 855.355469
-109.008614 282.901428 956.463440
-250.506943 385.809631 953.905029
-98.226616 575.626709 734.127319
-8.277606 390.931244 810.552734
-78.333168 548.706421 748.921509
-187.178360 390.790131 957.386963
38.643784 324.300720 779.857910
-252.828064 505.916565 947.268433
-281.660370 507.411011 945.690857
-45.492428 352.029694 844.263611
-4.315163 255.376572 871.693970
-181.176178 491.843506 870.811829
-219.578339 601.383728 813.259521
64.608665 293.384460 806.539490
-114.116768 451.979156 842.799316
-139.550766 571.830566 748.032227
45.722710 276.452332 845.159668
126.127289 319.658691 712.053528
-96.195145 277.417511 984.737183
114.573479 335.422791 714.188232
-95.747742 563.200623 756.534485
-7.757788 307.552612 841.535767
-65.642075 370.689636 852.398560
8.086168 207.333359 903.062744
-57.930519 425.521057 807.330994
75.196228 393.800690 717.351257
-155.750580 368.903290 919.484375
-34.611938 387.508118 815.435974
-61.985905 310.968506 893.349304
-72.645447 490.474609 795.467407
39.805199 298.574921 808.251526
65.765854 320.389343 769.930481
-227.906693 546.228943 889.020325
134.609619 341.058563 709.002136
-218.871811 505.274780 890.633301
-85.802910 503.598175 781.160461
-153.471146 440.452057 889.500183
-167.864655 624.505188 762.953918
-127.198540 643.426819 717.343933
-173.651062 681.048035 754.539734
87.395248 370.696747 733.115845
-150.405380 622.171387 772.882629
-27.179930 313.494415 860.393127
-58.717278 514.942993 767.952454
93.031433 310.458435 750.741638
-158.946060 639.771179 757.476074
-241.177505 351.314636 946.361938
-189.949112 466.692871 894.046387
-74.548302 587.165039 735.132629
-33.173531 504.709778 744.472229
102.048630 357.276215 719.350769
-138.471603 664.803955 728.570435
-210.837158 617.010498 827.227844
63.417980 393.435516 730.427124
11.879190 305.369263 828.975952
-63.558865 455.342133 797.277771
-145.780380 602.939087 778.035034
33.242973 374.702454 767.607056
16.943777 287.942444 834.845642
24.832710 405.161957 748.582520
-100.507515 425.957489 841.043091
-184.405060 504.137512 864.014648
-218.282272 364.444031 948.447998
-121.198479 533.226135 792.030640
-236.412842 658.787354 813.542358
-161.203735 652.206055 751.281677
-208.051498 544.637939 867.755798
110.383224 351.660004 715.357605
64.172600 376.146942 734.983276
-88.827545 501.831238 785.187683
99.891747 283.526215 758.520996
-237.059814 579.596619 868.263245
-199.981628 408.947937 958.242432
-265.108704 522.103394 915.041443
-90.689293 273.801605 987.846191
-80.366287 386.532990 854.925842
-87.012657 467.694733 801.213257
51.586647 406.542389 730.389465
36.057457 391.078552 752.620911
27.820274 378.070587 774.929199
-169.948975 690.287842 737.140015
5.879043 396.935913 788.091675
-107.263000 527.585327 783.220581
-118.655067 340.096710 913.833313
116.266563 320.691498 732.556335
107.037186 288.071747 775.282043
-197.458008 396.949707 960.753723
-97.357376 582.393616 740.794189
-257.570618 475.065460 983.554260
-57.201645 548.491150 727.494141
-93.370651 479.977356 803.100159
15.891977 402.601501 744.388062
-120.334137 411.830383 890.085388
-81.793800 369.556641 885.601501
-220.186081 422.133972 954.382141
140.542191 307.269409 723.399963
6.250051 452.909729 759.196411
-170.779907 485.618561 839.475708
79.253120 392.597809 718.303162
-90.890434 378.848328 887.062317
1.615386 442.029572 723.937744
82.914734 397.718658 714.600708
99.981644 369.790466 722.771423
-168.989532 689.965698 711.290710
-253.101990 592.919983 856.784180
43.105648 278.923187 815.183838
-11.227284 497.574371 725.073547
96.113258 335.101471 717.532471
-236.760315 519.143738 881.125061
-149.871811 480.379700 849.607483
-67.227776 561.685913 724.884460
6.354526 301.903656 841.811462
-273.441132 519.337280 904.009888
-148.290604 674.105713 725.293274
-121.845406 415.781128 859.945190
78.832382 313.195221 771.472778
-188.446060 394.239960 958.794250
-110.399628 290.420227 943.370300
-131.065338 463.987946 857.534241
-150.709457 572.873657 769.582092
40.930264 263.420319 816.230530
-202.488205 663.461609 762.349182
-199.779282 535.096313 871.000916
-246.925720 447.968353 970.647644
-49.970116 320.794220 866.135132
-131.086441 555.179443 783.680786
69.814987 307.736298 746.617004
45.308784 351.450104 793.308777
-46.978592 481.198517 766.345581
-89.234665 549.267395 751.945435
-72.260719 548.674561 759.506897
-250.261703 379.486053 956.771912
91.339783 297.391846 740.630798
28.412172 465.606903 718.039246
-269.089142 582.360657 888.804932
-12.885624 479.402130 731.567444
-197.816422 631.631958 784.904785
-198.024597 463.571106 878.915405
68.944977 377.779144 752.747681
-29.579954 519.126648 723.742188
-64.279572 571.386475 728.935547
-0.416380 298.557953 857.581421
-12.544335 346.892151 824.446045
-150.467133 268.851257 955.319641
-235.337723 472.021057 1001.047729
-49.410458 319.665741 855.610168
28.368259 294.771851 817.767822
13.336918 449.602173 729.437683
-225.774353 361.926147 953.669983
-20.317720 413.944244 781.905945
44.966358 306.262421 799.492615
-161.775467 612.372925 779.935669
-198.136429 636.954529 798.085938
-207.032120 667.825073 755.896179
-27.944191 505.081635 746.238159
-158.508148 629.641479 750.132935
-67.294395 413.128693 828.350952
-162.109070 637.985596 761.493652
-74.915077 300.580353 932.366577
-86.266411 446.306274 819.203369
-74.343109 436.241791 819.850769
103.119644 327.381653 745.755981
-78.506386 538.862610 770.906189
-77.839691 484.637085 779.177124
11.715623 259.421936 871.320435
65.339653 374.344360 737.363708
20.286478 279.007874 820.789795
-184.809357 408.386292 957.083862
-193.890244 341.955109 946.820435
-87.652557 457.359894 820.129944
-88.429626 360.614349 876.702332
25.565735 324.963776 827.477478
-84.973549 570.645020 741.564941
-86.541824 491.697296 805.540344
-62.766556 527.195923 752.485291
-211.654922 565.897583 846.288208
-183.611847 579.816284 786.988220
33.855556 310.358826 817.329773
-306.567108 560.481934 936.801208
-189.599960 506.942139 879.180664
-143.497894 643.462402 727.835510
-102.766716 319.036407 966.955078
-73.945335 444.110901 824.934387
-64.868050 306.927399 886.563843
-74.457542 485.364471 786.821777
-184.111649 407.311920 932.718323
-60.203934 439.505280 800.397339
-156.911453 578.431763 784.372803
57.327579 425.892792 735.079346
-78.618469 375.380554 839.201660
-179.693100 498.808624 873.408936
141.428192 328.465363 710.881348
-197.300095 345.407928 954.492798
115.868896 321.451874 736.328491
-83.960632 452.111603 805.400452
-161.029404 490.091675 863.791748
-168.336823 421.739410 906.282654
-182.320648 387.473846 977.443726
-251.411911 514.070374 887.845520
-114.717567 534.119995 800.598022
-28.143578 251.025101 913.626526
-174.570831 540.422485 844.758789
35.387577 449.431396 732.540161
-266.381378 457.045441 989.502686
-201.576431 617.123596 775.452393
-25.387423 244.235870 922.732971
-104.002365 611.398743 728.181335
59.507835 365.705322 749.325134
-256.110168 394.331512 960.515137
-123.087669 331.714386 945.819824
50.974949 355.654480 777.018982
6.902976 213.785034 896.586853
-140.384750 664.484985 731.846069
-94.972450 389.114258 859.160767
-214.508087 551.090515 864.577881
90.589798 386.871552 737.751526
-250.508148 546.538391 861.749451
-89.523529 342.372192 885.504883
-139.583359 608.420837 744.081543
70.292603 394.795471 730.992920
-217.482239 566.637573 864.595520
-203.004898 393.978210 963.669617
54.175484 287.236084 809.822510
-44.115551 273.286469 911.674866
-219.944901 445.701477 945.583130
-122.928261 614.277527 730.167175
-172.564224 294.280914 947.058411
-64.880722 287.817169 897.178162
-224.112183 390.993042 952.474976
-258.879883 596.534058 867.400452
43.663357 264.786591 849.093567
-211.181686 287.128235 922.949280
-52.304771 393.960449 826.813477
-70.105408 419.599060 843.914124
-31.811380 550.123413 718.061829
-77.037277 375.142792 862.086243
-234.228241 397.278931 948.088257
-161.497528 514.739624 838.016724
134.257721 330.701324 702.178040
-281.607635 567.690796 882.663391
98.690849 265.179871 807.386292
-213.108658 643.168884 793.278687
-50.902576 495.670807 762.534058
-67.439804 514.028992 758.234863
-101.783264 523.670166 748.740051
-134.327362 466.122498 849.126282
-188.442368 470.729645 898.301270
-193.598740 582.295227 817.142334
-181.920471 499.894348 839.498901
166.011993 328.598938 723.300720
-94.229721 540.434998 763.736450
-76.471519 341.109222 873.700500
-187.238556 695.270386 756.519897
-82.047134 500.783234 783.938782
-187.386108 443.478516 912.628235
-3.958016 295.702728 864.853638
-174.401840 637.847534 781.327454
-54.787781 348.978851 848.072693
-31.092907 489.527588 763.344666
-126.297813 423.418732 843.867798
-177.956192 691.569519 745.140198
-98.585327 417.937134 861.152344
5.975352 477.231476 720.911621
-216.794098 632.869507 805.031067
-147.884537 629.208923 732.182373
-45.138550 440.396027 786.773926
-81.234428 560.798218 752.481079
-65.249283 326.029968 900.926514
90.093994 372.739990 728.855164
-155.344147 595.658264 753.420166
-178.950439 408.743713 957.663147
-122.618050 600.034485 756.751465
-143.891769 316.842773 955.647156
-119.201805 389.269348 898.517944
106.600441 359.451874 732.850403
-16.786463 384.022736 816.676514
-35.198116 541.324524 719.824341
-188.662018 505.039825 869.731506
-40.352116 516.749573 754.472900
-74.032539 337.341949 878.560608
-89.766388 488.280029 812.028564
-46.011280 416.441437 784.025879
-190.812820 658.988770 764.144409
-198.424316 364.601288 959.837769
-171.793640 409.070679 920.754395
-134.130966 389.858002 909.520630
-57.591656 391.663330 848.170776
-239.907394 496.483246 895.597839
-59.900093 333.640045 866.869141
-292.231842 583.867554 903.230713
35.450092 301.932587 813.288879
-220.339523 592.579529 825.982666
-104.915771 432.535278 843.529785
79.716515 266.912567 789.913147
-229.806900 553.921387 869.482849
-249.401199 574.894531 874.772705
-75.243179 558.300903 754.657349
0.110383 307.780975 851.531738
-247.040726 441.943573 968.202454
-56.530468 427.509216 827.528625
-47.163025 438.886810 787.517700
11.831030 455.471008 741.693848
-292.911896 557.206238 947.176086
-226.373032 469.821472 930.331604
-58.016651 414.229919 820.019470
113.046486 360.750366 712.557495
17.604336 461.132996 737.572144
-272.330750 567.700378 900.048523
-170.737366 468.068939 890.528870
-57.600777 520.304932 743.343323
-130.193665 512.151001 830.709656
-126.206429 271.362823 952.796082
