ply
format ascii 1.0
element vertex 1408
property float x
property float y
property float z
end_header
540.760254 600.524719 -492.896332
612.329590 614.326050 -545.414490
554.509888 544.769836 -722.183167
134.499741 606.128174 -505.725067
645.284607 603.030701 -581.605408
497.448212 572.551086 -608.977966
606.825989 557.447510 -709.914429
207.807037 576.656555 -594.858704
493.166199 628.139038 -462.864502
374.693329 534.016663 -765.981445
593.299500 560.090820 -678.010986
581.628784 624.678772 -499.037811
367.549744 577.142822 -591.750000
379.180817 567.184265 -572.346802
267.071808 580.280518 -528.439758
598.929749 581.770325 -612.509033
202.085495 611.294434 -486.787781
528.573914 468.381744 -788.665527
637.592834 590.748352 -618.312195
327.769348 587.681946 -593.628601
438.555908 583.573547 -610.151306
582.800781 586.328979 -621.344482
396.434052 600.539246 -512.357178
204.473328 581.160889 -583.025574
389.809387 541.530518 -773.844727
306.724091 512.015381 -723.500793
545.080322 618.355225 -514.741211
267.355194 535.201965 -683.698242
521.117981 632.834534 -466.579010
523.330505 516.037781 -792.235352
315.232025 606.956177 -492.759460
280.807343 579.169373 -566.697693
162.486191 596.443909 -507.619080
373.200470 541.258545 -780.832336
518.255371 550.702515 -690.025146
475.809387 572.535522 -645.054016
646.095093 612.772278 -526.497925
539.295410 539.793701 -771.362122
388.273651 590.973938 -556.312073
532.256592 550.995178 -722.221436
534.551270 575.939331 -562.681702
281.415710 587.107361 -514.317688
430.612854 490.287598 -807.658997
516.848083 513.650269 -787.906982
291.063293 542.676331 -681.712830
186.588791 569.560730 -559.784668
423.973145 501.165558 -788.955017
499.952911 605.601013 -557.160217
442.113312 587.728821 -599.559937
153.491882 603.909912 -499.093323
331.448212 552.187378 -698.949280
588.383484 611.924011 -554.669678
447.334259 536.897034 -717.636047
635.620728 611.151428 -539.240845
516.031311 537.406250 -681.529419
652.828186 595.721863 -573.136169
477.598877 434.979187 -775.758606
597.885559 566.798218 -784.172607
384.876770 567.854614 -608.954224
265.285431 597.259460 -501.892456
539.023621 586.729736 -612.339905
516.394043 534.941833 -796.531006
307.244965 561.865417 -626.613586
615.572144 622.576599 -473.696686
223.487274 524.104736 -721.797363
288.255981 531.654846 -696.441467
222.511505 514.981201 -699.272827
468.212036 492.547424 -798.317017
548.464783 556.298889 -772.208313
343.569244 551.267639 -650.968933
372.268036 574.169678 -521.055176
201.149139 563.069458 -557.740967
219.661697 600.927124 -492.869293
194.584702 612.170410 -497.910736
381.508820 560.628113 -643.343689
598.224182 568.046814 -673.582397
542.600220 553.536926 -773.561035
688.398010 579.567322 -670.962585
409.478821 565.275513 -671.090088
290.712128 515.731262 -736.821533
647.271484 596.075256 -585.627075
300.935303 552.259827 -621.615234
177.665161 584.354919 -580.561829
499.166107 542.434692 -772.016418
588.874695 614.749390 -486.858887
217.505920 495.734955 -750.328674
564.896973 570.674927 -790.125305
446.970673 541.159058 -657.466858
442.427002 538.018311 -697.429199
211.384979 521.644043 -771.078735
250.362900 607.745544 -514.865723
226.546494 537.671814 -674.965576
203.512604 513.926697 -715.937256
337.746979 539.264832 -719.425232
307.045471 546.900635 -692.752747
389.506897 555.881897 -658.203613
554.027954 618.139038 -523.702881
457.069183 478.553253 -800.000488
541.691040 613.088989 -494.645447
218.583984 541.687622 -706.181519
663.386108 574.210938 -777.918457
291.946869 559.564514 -672.695435
526.020325 589.705444 -521.959290
612.326416 621.005005 -516.914185
452.786621 572.075928 -627.216736
645.225098 638.513367 -470.615784
427.101074 596.419983 -576.057251
278.563690 600.292175 -496.861359
562.231445 606.468445 -560.918457
440.164612 578.312622 -595.174072
414.766846 543.133911 -722.471558
499.864807 521.841675 -788.159119
242.526260 559.769287 -612.011108
640.120544 580.745789 -644.904297
598.808899 585.601440 -611.928711
201.654358 510.233948 -741.777344
283.399597 526.310120 -709.266602
216.393326 564.476013 -632.794861
636.244690 544.808533 -667.558655
519.067383 545.744934 -762.414429
464.971252 533.835632 -684.761536
484.210052 443.634430 -782.775818
271.458130 517.597229 -765.483337
671.692444 610.401001 -508.602631
640.252502 583.122498 -609.238037
334.038086 602.023865 -497.499939
525.664307 565.603210 -670.575500
484.676147 576.078430 -538.041626
381.201202 555.064209 -662.449402
553.843933 572.549622 -653.772766
439.897186 604.713257 -530.129944
282.697388 569.592957 -604.888916
542.785950 632.353821 -484.150208
164.989929 587.090271 -512.954468
304.140045 609.811523 -472.122375
420.626465 590.917847 -567.296936
554.484619 550.272217 -699.143250
475.355835 547.037354 -695.991760
396.141510 588.699402 -551.384216
654.088379 624.282715 -518.517273
516.696655 549.394653 -725.496216
551.593567 571.169617 -616.494446
284.164093 554.655457 -632.995117
390.269104 577.756042 -562.880066
566.864624 597.428528 -535.583313
249.376633 509.428253 -723.854675
454.013885 585.625427 -607.354919
467.387268 471.768127 -807.101501
276.382782 573.435364 -631.258667
235.397385 565.857300 -594.568665
216.037903 525.783325 -732.872681
563.892639 616.494141 -510.391754
355.463104 556.013855 -641.458069
260.983032 533.381897 -686.341858
589.756653 580.658142 -605.513611
323.206604 555.340271 -637.793335
298.688141 599.044250 -514.911194
238.252197 595.928894 -504.039459
429.351746 546.602783 -688.702393
657.478088 568.460022 -680.502136
365.026642 609.343079 -501.145996
528.604431 534.362061 -774.375061
538.040771 564.275635 -598.431152
462.181183 568.863953 -616.062439
190.583115 511.052032 -741.765442
299.145172 548.162476 -803.914063
189.258698 556.777588 -614.257324
237.148438 616.047485 -500.690094
323.012207 558.078674 -677.679871
380.501160 541.057922 -671.678284
259.613922 578.381104 -614.250549
199.605560 553.963989 -651.662415
450.955261 565.962219 -644.283997
405.761444 556.961426 -648.054932
393.125305 516.998901 -735.541748
498.672943 623.849792 -507.684875
662.269897 595.142212 -598.245056
569.672302 617.063721 -475.753021
281.847443 518.257385 -765.261963
216.498306 539.144043 -662.805420
288.928040 527.757446 -682.499878
523.609009 580.746704 -635.440002
536.955261 564.909485 -675.962158
403.453491 434.480621 -784.691589
484.412903 609.365112 -502.144867
428.066345 476.748199 -802.354004
337.771454 575.348022 -565.286011
531.756042 582.954102 -588.120972
379.357574 522.606873 -791.115662
515.035767 533.073975 -760.285645
353.147186 490.459839 -795.334229
250.725464 615.562866 -501.102203
427.252380 605.947449 -550.770386
498.782349 576.828674 -614.239685
521.040222 580.098267 -626.379333
593.514526 592.756714 -614.294128
249.625137 578.626282 -528.219360
455.221405 546.904114 -686.153992
522.520996 574.346191 -632.237610
536.626160 556.877747 -677.768738
438.461731 616.489380 -513.060669
438.922363 582.377136 -621.035461
632.880066 588.390381 -602.144104
493.293976 456.381500 -790.259155
434.375183 593.303345 -561.659058
298.733368 525.888733 -749.087830
591.537231 557.040405 -717.666382
477.039490 549.033203 -717.810974
497.569214 566.038330 -664.070313
456.238586 543.789673 -700.700500
640.299866 612.469849 -522.111328
414.503265 487.430084 -809.489380
321.694122 541.061035 -691.348755
509.397644 485.999146 -780.271423
504.878906 573.583679 -620.147644
480.863098 614.821533 -524.586487
667.014771 570.455444 -663.680237
199.292572 604.687744 -495.865173
224.386292 607.887756 -510.366150
511.363220 574.617554 -623.542969
287.388794 576.580688 -611.430176
517.272217 515.902710 -787.145813
510.611877 611.284790 -483.917572
334.199036 563.103149 -592.331177
621.837891 612.898743 -493.831848
385.577942 613.405823 -491.258270
294.945068 553.726379 -636.563477
368.182953 456.108154 -795.269775
654.862671 605.168701 -535.849243
500.243134 511.548218 -787.567200
202.751450 570.602112 -606.624084
454.829803 625.893066 -467.213501
449.891907 486.179749 -785.941467
248.456207 554.797180 -667.061646
616.155029 563.846680 -738.271301
192.885056 564.065552 -633.476135
291.157013 513.754700 -742.502686
671.704468 564.330139 -694.352112
416.096375 584.826294 -549.460693
401.050018 565.819458 -633.489624
554.161743 627.684937 -472.759216
323.144135 527.302185 -748.280151
425.148224 613.762207 -522.273682
377.218506 575.831299 -622.013489
438.381500 600.145142 -573.346375
612.005066 625.788757 -494.239685
596.943481 573.219910 -581.087646
252.713181 555.322388 -627.318848
562.423645 571.408386 -792.825745
588.671326 601.445618 -568.295166
643.644714 599.439697 -577.603699
465.599854 540.770508 -714.360962
486.087036 608.014160 -509.188171
352.324402 563.374695 -627.491577
457.196564 587.941467 -524.769714
405.503296 580.345886 -578.355286
447.070068 505.187775 -790.829834
222.956482 550.827332 -637.656738
298.573395 577.578857 -532.495483
432.097076 602.735657 -515.445740
626.596008 554.146240 -696.665771
347.083221 550.718750 -661.968079
327.556519 575.400085 -582.643494
445.741760 581.829285 -574.803589
435.309357 608.640503 -515.155457
432.703186 592.754028 -589.711487
557.781311 602.848633 -547.868774
652.543945 588.165771 -616.256409
559.243286 544.610535 -714.811279
322.390472 594.329041 -522.639587
519.823608 610.390625 -523.060852
671.606262 567.103455 -704.336426
605.778748 563.972168 -758.717468
553.032104 625.323242 -475.722168
288.465027 560.317444 -587.427490
284.045715 527.622375 -707.521484
469.748993 618.281494 -509.830292
252.941467 524.245728 -716.900818
675.227722 566.749207 -691.294495
390.839386 607.520691 -536.260864
369.326294 552.025452 -669.869751
347.350952 565.632385 -626.971924
482.293732 481.092194 -805.169189
331.286041 596.312561 -517.165344
556.346924 550.297302 -708.491821
417.432831 586.324646 -487.860962
574.203613 601.035645 -572.929443
450.315399 604.595154 -512.415649
455.743896 573.331665 -650.233154
203.626450 548.894226 -633.389465
403.938721 504.394135 -791.672180
511.705475 452.059723 -778.852539
290.810822 541.368286 -716.801880
530.841919 551.532898 -783.199768
169.707123 570.484009 -555.165527
620.755188 585.443726 -599.394104
647.689453 532.245544 -713.353699
639.882751 622.745544 -495.826050
471.771515 578.698303 -603.033020
546.817810 625.398254 -482.993591
279.485291 588.918640 -583.232666
151.128601 601.566895 -529.855896
569.937866 548.266113 -654.784729
459.936462 614.750183 -498.754913
480.684753 543.300781 -738.753479
449.522491 508.919678 -791.841980
434.149078 610.415771 -490.623474
652.896423 579.184814 -653.513123
649.250977 612.059387 -540.804077
335.324463 540.077087 -695.221863
245.985535 532.946167 -656.453491
474.854431 464.614349 -796.457458
227.368912 560.784485 -565.745239
312.903015 552.413269 -822.657471
625.476257 617.100403 -502.063263
620.854248 628.009338 -487.951965
394.940094 495.596771 -796.655212
313.528625 510.331818 -745.099915
530.567383 557.225952 -691.754700
456.584808 593.383179 -561.046692
443.817780 568.757996 -619.856812
549.949463 582.551880 -629.674805
652.951965 623.379639 -504.304199
303.414337 554.296204 -594.194214
237.014557 551.660461 -677.114014
430.235413 509.468933 -784.409058
329.475983 608.690002 -490.753235
604.409424 604.569275 -537.111450
446.657166 593.387329 -533.670349
344.118988 580.532166 -575.446350
445.772461 615.087158 -476.553955
319.330994 536.444580 -814.673401
350.650238 463.762756 -797.953186
248.788620 542.075500 -702.762451
446.959076 563.279236 -650.733582
578.598816 560.146423 -790.187378
497.848450 618.185364 -495.462524
663.726685 551.747986 -712.958984
366.548035 564.801086 -651.644165
255.213318 581.057312 -585.756226
539.221191 641.584290 -458.364471
577.956909 561.048645 -804.299622
296.512299 566.689392 -607.749084
654.326294 583.006226 -629.442505
533.395508 587.046509 -587.994629
467.889893 536.298157 -778.570984
311.685455 593.780762 -562.737610
271.352020 567.815430 -593.748901
395.455597 574.486023 -528.400269
663.103210 579.423950 -636.924255
403.238861 600.783813 -532.309448
248.454224 571.835266 -577.731628
459.139374 588.776489 -518.564087
501.746887 594.471802 -587.832397
250.489120 530.669861 -797.861816
337.199463 619.463257 -491.877686
511.275482 564.251465 -671.865784
668.303894 610.194885 -555.029785
302.626343 607.697998 -522.097046
369.086670 536.631836 -694.697327
402.900055 460.782959 -789.565491
414.081543 530.549194 -730.840759
579.184387 567.098999 -799.402466
306.340668 550.930786 -825.668884
609.555786 563.016602 -674.006226
524.706238 468.127533 -781.808716
573.228333 540.236145 -796.533508
411.446930 585.490906 -601.642639
403.423798 593.756775 -549.369446
623.775879 558.630676 -686.013367
400.796936 599.684265 -518.764282
670.660645 587.665161 -570.030457
579.182739 518.400085 -786.253113
359.100403 573.544617 -604.420532
610.259705 566.806946 -603.646851
300.311829 545.052795 -698.388550
609.377380 544.704102 -715.634033
181.444031 549.308289 -694.126221
228.472641 517.603271 -673.998779
482.335358 618.634216 -493.217926
431.556091 564.654053 -652.867065
346.129974 563.198486 -652.719360
648.140076 601.842468 -523.744568
434.722076 515.671692 -789.520386
441.730957 567.843018 -617.131531
644.701660 581.203064 -627.511780
611.815735 642.570740 -459.369812
467.345520 544.633728 -725.404419
597.659241 561.627075 -728.953064
476.679871 576.592468 -647.713196
359.845337 562.688538 -621.513550
524.181641 600.789856 -573.353455
567.461853 595.357300 -561.676880
553.178345 550.869324 -688.299683
196.988419 572.284424 -568.117615
588.129211 622.492737 -468.148499
389.357666 609.867371 -538.188782
496.880890 604.113708 -476.299683
654.004150 637.641846 -459.387573
596.353333 639.561157 -459.742432
391.516113 531.509766 -710.266663
360.694672 536.949158 -682.427856
637.314209 563.112244 -735.441040
241.833740 579.181091 -598.660339
434.144928 530.953430 -780.657715
409.545746 549.361816 -669.619873
572.721191 585.045105 -623.055298
510.784576 575.424988 -651.047241
615.087036 570.351990 -777.698547
669.326721 574.112183 -639.100281
529.953552 579.311890 -619.418945
508.176483 562.796997 -653.095886
502.655121 534.517639 -733.116333
226.485168 575.740356 -529.484802
199.028091 562.037781 -632.787903
590.679749 597.851013 -573.656128
596.570435 554.931824 -638.111389
561.204102 565.744690 -807.473877
559.164856 567.520264 -798.747375
538.358765 527.549805 -795.513733
268.580872 606.055054 -501.924988
435.504333 441.825409 -794.198975
210.312500 567.284241 -608.698059
434.972015 584.159607 -576.210571
313.634521 581.455566 -608.150818
385.532257 475.318787 -808.617371
497.684418 614.431396 -485.671356
540.263977 556.337708 -704.963684
404.884796 531.347900 -739.937866
532.000488 624.651123 -492.508179
227.178528 552.049622 -632.262268
462.424194 554.027771 -668.319214
571.492065 595.124390 -549.970581
488.831024 607.024414 -552.500061
580.546936 620.039001 -446.768341
336.220276 560.660767 -660.038208
347.665985 574.737244 -621.015320
404.862640 569.044800 -608.047241
539.593445 595.418579 -573.851929
550.106445 588.489563 -581.351685
665.844360 579.495300 -780.764893
595.962402 618.208801 -485.410095
546.886902 607.855286 -459.466003
651.134277 603.819885 -541.935303
557.483887 628.080872 -458.143524
222.603729 543.491394 -706.866272
658.363037 598.851196 -550.802490
329.026184 547.838867 -696.473083
297.849274 558.075317 -660.727356
586.440979 588.432068 -614.970703
341.158173 573.273193 -560.733826
624.636108 575.317322 -648.987122
274.272461 519.945374 -722.442993
646.858582 591.950684 -571.676270
163.633377 591.175293 -522.741882
586.779663 548.829651 -747.781433
625.759033 572.427612 -652.438538
475.125061 563.954956 -657.447449
530.009216 586.867371 -616.267029
238.178177 526.733032 -715.497437
478.626801 567.009094 -676.534302
201.630295 531.263428 -719.989197
571.128723 536.471924 -800.777222
608.462769 613.988464 -490.716309
476.640015 593.022522 -593.577515
661.954041 569.334778 -695.586365
523.137634 591.996216 -567.506104
284.853607 549.698547 -650.009705
483.565552 539.447083 -721.792053
298.805573 592.147400 -519.136841
490.909210 621.236206 -487.033356
353.542053 540.588196 -682.873230
523.180481 552.276978 -666.929932
292.120789 531.947388 -697.705750
416.057678 560.996582 -671.019287
384.238403 567.658569 -606.688416
410.806549 435.028412 -787.589172
631.904419 581.281067 -589.338867
590.864563 598.197815 -586.697998
431.734619 561.837646 -685.776245
561.388611 627.796692 -469.537598
626.685547 588.976379 -629.345398
662.297119 550.556152 -735.535767
184.097275 524.207092 -745.447571
567.818237 568.391113 -674.859314
577.122803 552.385437 -704.249084
379.440765 537.444702 -688.017151
449.843872 496.110443 -797.461914
455.879974 482.567139 -782.601746
196.013809 560.165771 -605.689819
637.341064 563.120911 -750.365173
538.935120 568.427856 -677.838318
534.468689 590.159302 -521.427124
203.266891 565.068481 -647.998535
181.692657 568.260986 -560.390503
545.938049 571.017456 -630.482666
652.587402 650.095581 -461.950592
434.205536 551.050903 -656.663147
231.041916 596.701172 -502.774597
653.715576 628.896362 -502.688263
578.714172 553.252197 -799.151062
404.564667 582.710327 -566.745850
570.320374 585.297852 -590.608643
440.075653 486.260315 -787.651428
298.915405 573.432312 -597.816772
626.900574 609.590271 -525.525635
352.757141 560.573730 -667.075195
624.109680 559.893494 -710.981689
217.416611 553.996338 -624.937012
599.656433 572.970337 -626.352783
650.182556 559.180664 -696.816101
295.086243 558.667053 -631.504578
281.193390 537.345337 -784.387512
496.385254 533.831665 -769.758423
315.257965 579.968994 -575.440369
352.991180 535.268311 -808.378906
375.155914 608.945801 -486.197968
489.293396 474.792511 -799.163574
403.891266 572.699280 -618.952820
167.760971 593.605774 -555.613220
520.489868 611.895020 -502.599762
385.603577 505.230316 -790.252258
614.139587 565.078552 -658.363342
315.112732 542.403137 -671.855835
516.638794 597.804199 -581.669861
210.799362 539.739319 -658.047913
578.976501 579.061707 -612.845398
420.634308 468.273499 -803.928467
539.495850 622.138855 -517.318237
316.383301 540.021729 -781.683594
515.947083 482.492340 -797.927795
237.849777 526.557495 -803.336365
417.287109 611.900940 -498.528076
376.502289 615.820068 -503.346222
691.584351 567.387573 -734.236816
301.376526 593.797119 -504.242218
623.858948 634.081665 -480.397461
302.952087 600.741821 -507.912048
515.510254 616.876282 -484.063324
531.006775 551.446960 -686.814148
495.078644 585.368530 -583.962646
497.780182 580.152344 -601.366760
163.630234 571.366211 -568.141846
420.918488 584.290588 -572.024658
502.606720 510.190002 -784.119873
638.627014 609.111084 -529.038452
431.935364 579.411804 -573.398621
255.353714 511.764679 -749.523193
569.787659 584.145996 -626.011597
177.441391 573.433350 -570.461792
374.071381 532.533630 -728.740479
509.727997 478.839142 -785.473572
338.810638 551.110535 -630.170349
658.605713 549.950195 -719.431885
546.297180 570.888123 -616.748108
520.439880 580.732239 -625.187073
497.302399 552.188965 -712.912842
392.551300 555.429077 -643.083008
569.671204 571.170288 -654.043457
553.811279 563.642090 -605.995850
231.108856 542.527161 -657.698059
293.629578 602.982178 -519.215332
223.440018 539.684082 -702.557983
631.529541 551.820740 -648.181396
354.557739 572.224243 -637.694580
496.018982 604.331116 -560.991638
538.044739 628.164429 -464.272583
589.829163 611.752441 -544.122742
351.323700 548.838440 -640.883179
490.164368 550.748352 -705.344421
616.539001 608.843079 -526.038818
358.193970 595.749451 -536.796692
620.137939 619.460693 -490.817566
472.270233 631.643555 -477.565918
572.433289 611.155701 -541.290588
652.177673 629.352051 -499.794708
295.656677 605.743774 -477.683533
514.465393 586.700989 -607.526367
616.140320 632.107727 -450.891388
539.437622 608.862732 -531.784790
488.908661 597.361267 -554.814575
323.631073 602.877869 -537.045654
668.507935 574.278503 -632.930908
498.875092 558.761475 -663.689880
627.659302 585.913025 -642.627380
420.122406 577.029297 -593.813354
397.661652 503.195923 -780.773438
549.664429 497.001282 -791.217346
364.252563 610.692688 -496.249298
638.491577 613.720642 -514.826782
484.065582 595.769531 -539.701904
530.375305 571.271545 -656.169250
574.598145 606.247498 -528.168640
280.039948 580.348572 -592.242859
315.439850 550.344971 -805.297913
556.580505 615.640259 -522.157532
546.214905 626.476868 -497.267212
372.379700 584.287415 -566.193054
474.532959 597.312195 -557.790771
399.052063 519.472778 -791.385132
534.081299 564.928467 -653.150330
481.676819 538.106812 -709.648193
421.141388 558.954834 -646.078796
263.033264 506.027588 -742.960876
410.238861 588.598450 -555.716858
565.766785 621.369507 -465.471741
486.312073 623.050903 -472.866821
496.852417 533.074951 -753.473755
509.798615 581.979919 -623.820251
449.542175 564.867798 -675.605530
454.506683 486.448242 -799.608337
520.076294 586.807434 -604.267822
324.865021 615.118591 -503.885803
177.779434 545.313232 -730.545593
267.978119 586.729187 -535.039917
367.213898 519.530212 -808.267822
440.693207 524.182678 -801.761353
400.754028 592.701782 -537.181641
351.093781 600.373108 -556.675171
216.460464 556.200256 -586.812683
251.225937 567.857056 -611.769287
345.207794 521.888489 -736.578308
507.299164 555.737976 -698.112000
482.859344 549.847961 -686.771484
190.604950 550.874329 -672.167786
489.513733 565.100891 -666.846130
476.250702 499.942291 -774.951782
181.728882 512.924683 -752.592285
334.420410 541.760315 -643.386780
403.203125 584.876770 -520.301941
636.358215 622.106079 -515.069763
589.108398 598.934326 -537.869934
528.243896 555.781372 -728.819824
629.683716 607.489929 -563.477478
180.899506 511.966522 -768.622192
591.411682 573.599670 -672.329529
530.034546 626.791870 -473.745850
184.239395 566.000305 -611.217529
463.188965 521.117126 -794.510864
384.828217 564.925720 -631.410156
263.441986 563.594604 -577.821899
543.737122 582.887268 -628.736328
262.169800 584.916626 -560.189392
375.281006 572.627625 -606.010010
259.674347 538.156494 -712.411865
555.619080 626.641052 -494.933899
258.851715 583.959961 -545.712463
364.399933 612.110718 -483.449921
343.789520 570.546204 -631.575745
579.845215 618.042297 -501.268768
185.806305 551.392273 -612.694397
498.553253 574.141296 -616.843445
177.540527 520.849426 -723.987854
199.108704 520.617188 -684.858582
455.786255 563.179199 -589.661865
620.564697 558.269653 -720.558411
536.792725 630.081299 -470.810364
670.475891 573.048645 -775.249207
179.405701 584.417725 -519.476074
414.583221 579.414185 -566.364258
602.299805 604.568909 -576.862610
565.933289 553.419495 -664.161255
333.256500 588.727417 -581.422546
573.623291 546.469055 -707.438110
362.485382 523.783386 -717.243591
360.996613 530.367065 -746.267761
434.331451 503.543396 -797.618286
525.736267 538.930237 -757.831543
432.668793 578.174438 -596.415283
531.990356 588.606140 -583.117859
422.263153 458.382172 -787.464905
521.380554 614.378296 -511.994415
469.896606 465.124786 -801.934509
507.458405 561.254822 -680.025879
184.414948 588.319580 -540.198792
430.562805 572.027161 -612.492065
391.411682 494.224060 -800.825745
380.400909 572.880859 -555.044067
266.208801 592.354675 -529.714539
319.650879 527.552490 -712.030823
281.796600 530.426208 -732.288818
497.691589 550.340088 -725.906555
328.670349 547.943237 -640.653870
471.807709 593.440613 -568.950073
499.442963 598.569702 -531.070618
596.807190 602.369446 -575.070496
456.229980 513.375000 -791.777710
699.290771 566.440552 -733.547302
208.554916 555.204773 -676.179871
473.232788 568.212952 -621.804871
291.332001 613.100464 -507.697754
282.316620 596.429016 -502.621521
564.140381 565.246826 -674.091187
557.962341 591.930969 -603.599304
654.795654 552.769714 -701.052795
581.316650 566.575195 -630.967651
453.423157 474.398621 -800.802856
588.541016 627.278442 -462.872284
262.363708 573.519653 -579.568176
348.824188 559.067810 -639.403687
398.950592 453.819885 -800.563782
372.220398 532.142090 -742.820435
574.301575 624.856873 -493.575897
478.782837 484.197357 -798.683777
281.652344 586.932251 -539.495178
578.328857 575.958618 -642.573486
333.964050 598.367004 -500.050842
492.841553 495.635406 -795.900391
563.229675 609.373779 -494.708801
597.742859 582.678162 -565.657227
474.003204 617.327393 -514.928955
494.201050 611.363403 -497.662537
364.370605 572.581421 -635.520874
589.080383 588.691956 -616.412292
419.970367 456.792664 -799.342041
412.378387 498.384827 -804.040344
339.240814 608.017273 -527.917480
671.462830 615.356506 -531.130615
424.310516 563.393555 -634.825073
220.041565 579.650879 -605.051697
372.065491 606.004333 -543.762878
180.413498 529.093445 -718.362061
622.182983 573.861633 -576.449463
328.167603 570.489624 -532.047607
637.371094 588.169617 -567.023254
252.379181 541.619568 -712.981201
623.450623 590.256653 -508.272186
319.375244 585.427490 -556.189819
235.121735 593.177979 -554.276489
306.479523 592.599670 -532.042725
391.017761 585.482300 -516.845886
651.355896 593.889221 -554.342590
326.096771 608.720093 -506.232544
602.906311 579.219910 -620.727051
254.230957 515.378479 -708.095398
594.744629 570.029053 -656.782166
595.038086 588.863708 -587.642700
492.210571 553.091675 -792.879150
401.213898 597.280457 -532.020203
505.693542 537.145691 -733.465759
336.983124 540.689575 -679.338501
598.592773 575.150085 -621.183655
435.444977 591.220398 -589.859924
231.782761 523.178101 -762.231384
233.036224 569.644409 -602.569031
526.824097 627.297302 -447.314880
410.220123 576.769531 -524.323242
664.686218 600.912231 -580.731384
530.351624 529.568848 -722.905212
303.664948 508.595764 -752.062195
225.051025 586.015320 -548.757141
597.238586 601.123718 -549.574585
422.180573 582.836426 -576.751892
234.990433 576.596802 -602.969727
635.499146 617.692505 -501.241089
517.834717 507.302551 -794.343872
154.813828 570.370361 -571.912354
212.356674 613.856873 -507.303375
460.020538 601.836365 -566.000488
240.223587 597.127502 -505.800781
619.490417 582.398132 -628.556458
510.612152 545.474182 -767.404480
602.050049 559.498108 -610.300049
245.309036 586.794495 -522.155884
476.590302 488.712280 -791.293274
390.390381 594.408447 -540.098938
437.617065 544.309570 -724.677246
663.708374 596.578552 -568.697632
584.458252 593.522583 -590.584717
235.371353 597.671814 -525.845032
408.588257 620.425720 -491.853088
480.922729 529.355774 -745.100464
236.273895 589.789795 -564.672668
352.384949 591.985535 -575.052795
656.400574 597.940186 -572.112732
648.564697 624.408508 -523.632080
245.165604 534.169189 -725.323547
385.608185 532.598572 -771.662292
664.378418 584.863892 -639.923889
625.541992 634.884949 -479.068695
315.756256 620.155457 -475.095886
199.804108 539.810913 -661.808777
246.452484 538.665955 -689.733948
380.675110 456.024231 -795.741882
670.867554 574.268982 -733.321411
518.122437 633.353394 -485.156342
262.933807 562.582214 -609.695801
645.343628 623.294067 -512.601807
535.427612 550.259888 -780.029419
325.339325 521.970215 -728.080017
499.138733 537.314819 -769.965271
527.361816 554.333740 -720.804871
448.821899 604.291138 -556.718445
590.035828 625.261780 -512.308777
415.896759 549.354919 -662.022705
331.316010 540.733154 -658.082764
325.733124 522.111450 -724.713867
163.825241 570.224670 -587.975464
434.277527 584.594299 -565.212463
677.497559 543.989746 -691.283020
247.760925 593.607788 -512.769470
644.893127 597.834473 -567.823486
487.252594 493.427521 -785.732544
315.292297 518.325012 -736.583374
490.197144 536.952759 -716.877319
443.655823 623.373108 -467.329956
424.443146 518.745056 -797.141479
464.460571 548.629700 -716.512817
177.679276 570.148865 -580.079407
520.138428 590.690918 -600.244385
619.764832 635.860413 -475.787567
510.143127 523.148804 -783.120056
203.447296 524.637085 -724.482361
464.388855 594.884460 -586.028198
340.195251 597.786926 -503.265106
491.548798 538.610779 -718.936096
386.315521 548.745239 -700.689514
271.401825 511.999725 -739.776917
346.892487 560.354187 -626.364319
290.655914 557.489624 -626.519531
442.572937 567.410645 -647.677002
398.437958 613.069580 -518.413391
467.832886 583.311829 -584.171509
219.239746 606.761780 -511.285706
556.730713 601.363586 -492.356476
639.771484 598.405518 -556.748413
679.906250 601.717346 -564.349487
625.676575 608.788452 -498.334076
473.390686 594.085510 -552.791138
427.749756 575.272156 -633.964233
663.424133 554.338989 -708.301575
232.840744 522.971680 -710.085388
271.314301 558.876953 -617.071167
274.103943 548.879395 -598.764343
574.872314 545.785767 -662.627930
605.581299 558.712524 -612.837952
331.162354 564.511475 -659.100525
597.159912 579.240662 -808.311218
458.463531 587.680176 -558.730164
388.679352 528.127625 -791.514832
556.117249 637.411133 -457.278168
496.968964 562.538574 -657.390564
317.999573 581.788818 -508.475311
473.987701 576.112488 -615.952576
554.130859 539.513489 -705.021973
508.059723 620.719849 -467.407776
646.514343 633.486328 -461.205200
320.908936 583.613159 -571.183105
317.743835 555.790100 -616.108582
359.071777 507.542297 -795.713196
289.295929 543.447388 -699.090393
428.560669 475.558014 -796.798645
217.951401 520.565674 -803.603699
236.759537 561.509888 -567.094116
264.796661 593.239441 -529.474121
461.426361 591.035461 -597.960144
376.947754 510.965454 -798.570740
545.927551 555.095947 -786.268982
239.043610 509.934845 -730.443359
395.701355 521.538391 -779.546143
454.489532 585.891235 -526.508972
175.734802 529.839600 -695.229431
448.884644 554.101563 -663.773865
301.561859 593.020386 -554.381714
344.285858 602.970032 -507.477997
525.044434 586.236938 -598.904724
571.917664 561.690918 -667.752136
501.628967 604.328491 -549.041504
514.009949 533.870117 -710.287781
457.945618 565.987244 -631.783264
180.012131 574.954407 -540.297546
494.229584 506.896149 -779.363403
356.619354 571.557129 -611.479858
181.736298 555.180786 -563.189697
642.234375 557.255615 -701.397705
671.047180 586.101624 -612.475037
458.666382 575.689026 -603.297913
539.114380 555.493530 -721.989197
198.059494 547.069275 -640.405090
572.038025 588.489746 -596.453735
511.318634 556.897827 -693.212524
648.657043 577.933044 -780.645691
528.455383 544.432495 -733.199768
465.474640 450.092438 -785.702087
612.697021 651.548889 -459.710785
530.803223 572.903564 -570.623230
229.124207 613.064575 -484.511932
518.185181 574.368225 -614.393860
593.701111 582.640808 -604.510132
391.148132 586.097717 -558.919006
594.458923 606.342773 -573.662659
537.424866 579.781433 -629.349365
477.719543 590.501282 -552.530090
514.330017 474.284149 -798.498718
469.127075 605.920532 -530.804993
228.785172 577.646240 -599.097961
562.566467 561.215576 -696.172363
353.207031 547.311279 -645.704102
496.196991 597.084717 -580.015625
659.027466 606.781067 -530.883179
300.574615 614.885803 -515.174866
240.561325 519.185730 -693.233459
368.516968 614.927124 -473.659485
510.978821 498.692291 -782.353638
407.718964 475.919128 -810.699158
422.984406 511.564117 -795.880432
668.533630 561.546936 -708.134399
391.901703 567.387451 -570.781677
459.204346 588.043884 -582.456482
526.511536 598.838196 -578.603577
660.517883 579.425354 -660.223328
601.462769 552.473938 -702.072693
492.346313 600.951355 -524.861206
165.143723 569.671692 -553.857971
540.844788 609.243469 -454.097321
512.060547 527.337219 -717.757874
326.288452 556.039673 -647.377075
405.346069 473.806335 -798.618225
395.195129 532.830078 -706.544556
545.266479 565.306091 -679.748108
179.735336 562.951233 -629.062378
357.843628 601.828308 -500.474823
377.294617 578.980591 -614.069336
464.076355 616.148315 -488.839111
464.566925 613.607117 -485.865356
611.372253 580.868713 -633.756836
457.480377 610.571838 -517.850464
630.800720 558.083740 -701.867249
525.863281 536.280762 -770.282166
587.906006 611.660156 -503.513489
506.825287 569.178162 -656.493958
407.575623 537.879395 -766.585510
422.716034 438.646362 -794.468811
431.774780 599.679993 -527.681458
637.029236 609.718262 -544.567017
361.884064 570.444336 -533.084595
375.537750 606.529541 -545.618591
354.835724 598.500793 -486.534729
371.616669 553.500366 -699.802063
379.728333 589.378296 -581.049622
519.059631 635.809204 -463.565796
233.122406 588.356323 -582.035461
207.086075 585.815979 -576.826782
414.607300 613.003296 -519.894226
301.048187 584.602295 -547.740540
629.267456 573.197571 -644.220154
533.405945 598.163147 -483.001038
203.212051 544.040466 -703.118713
426.388763 534.876221 -716.818298
563.381470 569.631409 -650.130188
309.506012 587.235291 -546.762024
479.341553 576.765259 -593.840576
183.789688 528.196167 -758.321289
179.905487 561.184448 -634.178406
385.828491 603.759766 -521.186646
397.929016 537.921387 -734.510010
501.172089 537.680969 -716.582825
603.279236 587.361816 -539.432373
609.136902 627.861267 -485.897766
249.277542 577.801819 -581.260437
479.818634 523.478027 -787.693665
317.305115 554.948853 -670.092529
174.441528 568.781128 -574.595398
330.899445 561.904785 -653.423645
322.656647 535.509521 -725.020752
559.030457 635.394775 -470.132813
190.589081 592.642273 -500.155029
527.343811 540.304321 -708.701294
238.370590 543.789429 -698.371521
460.009094 608.012573 -471.186829
251.489532 579.304077 -609.735413
496.763885 595.422546 -587.581421
199.641632 613.466736 -497.148224
434.239502 492.839386 -803.220703
415.961548 542.584045 -688.747314
261.743256 564.285339 -604.459961
527.745361 587.828918 -577.567749
505.854309 627.574951 -465.576385
526.648499 580.159729 -604.803162
642.800476 588.618774 -539.971619
420.171997 613.067139 -523.519897
521.027161 574.657959 -656.402466
657.685913 569.906799 -602.773376
423.085480 560.367676 -682.958740
571.834290 567.318665 -653.473694
482.970154 572.601746 -615.727600
559.511292 616.220825 -500.142639
519.660583 576.675781 -614.769409
467.580688 595.992554 -533.054077
254.345551 535.226013 -651.974670
636.939819 609.207764 -537.907349
244.914963 577.972351 -557.090881
169.628082 573.613220 -542.590027
640.781372 564.056274 -696.377686
192.844467 573.805115 -591.009460
391.802338 581.867371 -607.864502
561.835022 543.574036 -732.483032
195.619629 575.860046 -547.901733
515.257874 529.182800 -773.378296
326.520050 595.999207 -530.072021
457.910583 490.730774 -799.152100
624.945496 555.547974 -701.657959
430.908081 563.937683 -643.757263
642.779480 629.072754 -463.554535
593.207825 631.583313 -490.587891
542.239197 619.456360 -492.308044
406.671417 585.436829 -543.663513
478.501678 499.817719 -786.852051
444.021606 548.669739 -670.455566
617.467529 617.850159 -497.268402
578.265869 607.134460 -558.208862
622.631836 569.487793 -592.837463
211.792618 586.155273 -576.465698
286.623566 549.060730 -603.637817
541.370422 632.847900 -460.645905
289.607056 539.539551 -820.064148
545.275208 580.295166 -611.072754
282.069916 519.273254 -776.000732
394.670532 595.602844 -527.746277
210.770676 519.664124 -735.676392
502.653656 587.000610 -526.924377
453.228485 536.774292 -748.746033
336.371948 607.885620 -496.518982
665.448303 618.225952 -541.787720
539.314270 591.406067 -553.225769
281.106689 529.378784 -807.509094
239.575287 510.795502 -769.365295
671.464539 598.829834 -794.686401
426.739471 586.575378 -600.575195
454.204407 618.178467 -487.664337
669.011597 613.722168 -507.949219
602.706360 574.828003 -646.644592
650.249512 577.472473 -651.072998
627.888550 562.288086 -691.091187
547.120605 625.133789 -493.677490
367.694550 516.008850 -734.736755
565.606689 563.708496 -783.160095
314.034637 572.486572 -601.908936
387.385437 610.001465 -500.440094
420.254486 543.646851 -723.874939
265.087463 550.517822 -645.699341
439.477844 526.552002 -742.919861
282.514038 588.709045 -574.262024
336.311646 537.592163 -799.950012
282.436646 604.896484 -488.368347
553.487427 577.242615 -613.676941
393.993011 609.519836 -535.631958
627.716064 550.736450 -743.500244
420.381317 530.169434 -733.825012
398.915222 492.886749 -789.127014
273.496735 590.777161 -454.653992
293.329590 590.134705 -571.430603
251.325790 573.814758 -575.384644
158.126282 594.047485 -517.746216
362.137390 577.616516 -614.826233
452.483032 535.987244 -769.149597
325.399536 522.854614 -762.453369
622.045105 551.396973 -713.901184
668.954834 599.839172 -796.424500
506.029083 627.734192 -496.324371
233.321106 562.528442 -660.782959
442.547668 552.650208 -659.780090
593.251038 636.300720 -453.426971
454.757172 602.975708 -536.243408
404.491119 599.500977 -529.402405
434.498444 485.489227 -791.230103
626.836243 616.028381 -533.218445
244.559692 535.363831 -797.986755
338.779877 537.272888 -691.024475
507.151886 585.508789 -579.282166
644.420715 554.668335 -642.593750
480.613739 520.416809 -789.261719
533.582703 533.405762 -767.586853
524.524231 590.455505 -574.805786
356.817413 547.078308 -702.126831
311.701569 544.766907 -679.001831
445.975769 614.768372 -522.012329
344.486176 599.323853 -486.805145
310.747650 564.810547 -606.840027
309.094604 575.706177 -576.548096
359.846893 578.238403 -613.377869
254.415070 538.855225 -725.443176
158.134140 589.807678 -537.778320
618.298950 610.540100 -489.265198
557.532776 588.251282 -580.747253
334.640839 559.726746 -625.070557
609.530823 554.954712 -700.957703
586.380371 606.853394 -555.828979
496.543335 597.185120 -546.794067
367.773438 540.935486 -780.879028
293.498169 576.515564 -546.919861
440.869629 611.868958 -527.824097
276.466064 577.068542 -605.375977
517.167480 555.366882 -682.612732
373.654816 559.643372 -667.605774
391.102295 550.007263 -661.884583
567.573792 636.430847 -458.485565
350.613129 543.059998 -716.183228
532.334778 539.644409 -732.263916
636.845764 606.487122 -538.945313
393.551575 526.814087 -735.912659
211.795166 533.654724 -682.230713
645.241821 637.500854 -456.926483
610.782532 598.167603 -577.409058
367.796692 600.997009 -504.633728
501.624756 581.121216 -610.064331
186.249481 545.684937 -688.897217
371.831329 550.167847 -695.815674
475.184601 607.955383 -507.827301
217.926376 623.005127 -505.635101
373.318420 524.191772 -748.196289
571.315735 598.518188 -502.086121
437.359406 559.607239 -662.625671
462.653748 492.352142 -800.457886
430.767456 552.988403 -699.169250
344.538940 552.959290 -686.720764
307.152344 590.276794 -536.962341
637.783630 588.871033 -589.101379
295.943115 590.343567 -562.420593
465.831604 464.380157 -795.527649
501.537628 616.851074 -500.284637
367.023926 575.751465 -601.341675
559.510071 560.470886 -691.994202
507.377930 615.959473 -509.904022
170.842926 574.018372 -513.826538
436.503876 534.183350 -744.532104
483.879913 505.453217 -790.886719
674.246826 595.787598 -542.418335
182.560410 523.123535 -709.495789
338.985168 567.275940 -618.884705
597.369324 530.509705 -715.586548
283.219574 589.841125 -569.745544
389.346130 570.774963 -639.294678
376.252289 558.937927 -636.998230
250.607788 527.633667 -704.093933
198.247986 568.365906 -611.755981
577.075378 568.037292 -652.847412
450.865723 577.681091 -641.590942
269.085602 528.067749 -677.834229
410.378082 556.975037 -603.041626
262.980164 564.229675 -604.362305
459.294556 467.807617 -797.414490
490.472900 532.800964 -726.056763
350.266815 544.311218 -707.768799
265.562836 583.430176 -543.292786
505.025574 492.519409 -798.336426
619.901062 574.931763 -654.888794
418.765625 615.857910 -515.301819
304.689972 559.720764 -657.465149
450.127655 495.415680 -797.322815
251.365036 536.225708 -677.069092
489.255585 637.265564 -467.651825
341.782776 606.311096 -493.824493
341.053558 590.662903 -545.515381
458.231903 595.637024 -551.748718
641.312439 551.681519 -651.403809
584.848267 616.832397 -530.229980
230.546814 575.964417 -588.400452
280.418793 558.449097 -591.551880
257.630188 592.460266 -572.244995
322.310120 538.768616 -821.237305
535.164856 529.194580 -782.378113
628.554504 597.533020 -580.349243
554.877014 573.858154 -652.677246
155.340714 596.083069 -508.447296
244.632660 602.359924 -496.482483
456.325928 590.567688 -561.645447
244.006073 527.549011 -738.058777
573.741943 640.705139 -464.687866
497.220276 524.717102 -793.008789
574.464661 634.550964 -466.655823
304.129517 543.220581 -667.997192
180.657013 425.597229 -1128.731445
446.758209 617.638489 -522.781006
184.610489 570.479126 -552.802795
642.750061 632.149597 -489.743469
394.121033 583.822327 -562.323181
302.663422 596.442139 -511.468689
284.529449 554.245178 -674.614990
607.287720 608.105042 -545.558655
173.569809 541.641663 -648.585938
382.840424 552.548218 -690.499939
335.650726 538.328369 -692.724915
584.060852 543.090149 -721.785706
543.667786 528.385986 -795.136414
570.930786 566.692322 -792.652405
460.012817 565.481445 -590.633728
330.127045 543.534180 -819.855408
216.797058 597.219299 -537.319885
483.706512 568.829895 -633.722656
209.874496 558.617981 -659.281433
615.679749 611.057251 -550.078003
543.342529 551.568054 -769.713013
260.361694 535.575745 -803.218872
172.924911 596.582397 -547.043396
606.089417 566.970825 -668.240112
214.053925 571.731445 -622.366760
562.514160 573.313416 -559.540649
460.252960 620.518860 -515.178467
511.089905 486.678497 -794.819824
256.710541 537.130310 -675.897095
177.266190 529.413574 -691.582214
413.367065 427.938507 -783.447205
265.801483 601.620422 -531.901917
391.228241 575.095276 -588.102783
649.756287 613.077576 -545.381348
387.970795 567.347778 -632.032959
468.496277 544.689148 -698.400146
601.177673 582.005249 -624.519836
478.006989 584.083923 -590.528259
304.101593 603.340515 -490.376862
435.059143 598.301453 -560.251404
375.632324 490.224518 -798.070190
307.833923 547.559998 -656.471680
469.294586 591.509521 -587.125732
282.629425 555.546509 -636.619446
544.148499 551.956604 -690.836853
589.327698 616.348206 -523.526550
608.477356 530.876404 -715.074158
275.191284 515.121460 -697.095398
528.818237 609.273376 -515.475098
207.567596 567.706482 -632.578125
448.529144 561.257507 -674.707886
349.694000 545.020569 -678.307739
461.453857 518.762024 -762.323425
284.121643 604.440491 -531.106018
487.489990 523.481445 -752.023926
475.434998 518.551331 -763.650574
294.024017 524.967468 -756.756104
562.190613 546.994873 -688.301331
547.384888 541.228271 -809.533508
613.828064 623.106201 -470.190216
499.234253 588.753418 -591.868713
480.773438 494.353546 -780.271057
366.594330 594.997375 -539.719238
506.921173 542.193481 -663.891724
436.066406 526.127747 -778.860535
407.125214 622.316650 -487.585297
532.880188 627.516052 -460.957153
567.905090 618.168884 -472.107208
501.971527 620.746216 -474.694244
279.557037 606.450928 -479.297638
531.573608 593.394165 -588.148499
529.440979 597.749146 -590.546936
329.382385 620.692017 -478.875854
374.231415 483.414551 -807.322449
595.663025 625.066467 -495.638702
180.709732 609.476257 -514.391479
177.856842 586.280640 -547.501770
616.367188 563.168701 -652.556091
583.852661 642.201965 -452.912445
401.261749 563.024414 -616.497009
314.443665 586.531250 -550.505920
359.425659 537.541626 -699.312622
602.838196 594.086365 -566.703247
174.548050 532.274292 -687.437439
242.826614 560.680603 -633.333618
562.590454 626.126038 -474.111664
637.724548 579.791992 -643.907532
343.703735 523.737610 -690.587585
575.890137 545.673645 -713.298462
492.493408 534.287415 -730.041382
614.297058 625.319275 -479.987854
349.429565 597.570251 -476.776642
263.457764 520.746094 -724.844910
600.456238 569.424866 -576.839783
222.197357 530.693909 -633.555481
541.106995 541.510864 -673.224976
506.474731 610.547363 -518.528687
307.662994 511.005402 -729.990112
163.331207 595.426331 -508.610352
441.401733 467.682037 -784.622864
631.978699 598.801697 -589.933716
494.410522 558.793213 -660.782349
537.772583 555.638611 -755.172119
311.238068 581.007507 -595.561462
612.694519 616.542114 -499.144653
252.551620 592.784851 -517.454102
451.573334 598.618835 -542.024292
400.766296 556.756836 -647.463745
603.401428 610.686157 -543.515686
660.959839 621.855835 -526.607483
202.125946 539.168030 -666.351013
603.172180 555.837036 -669.698181
598.296448 627.563965 -458.443726
326.934753 594.447449 -533.189819
441.546448 531.364502 -712.251892
345.554382 594.718323 -521.950928
241.823853 538.289551 -670.973816
277.389740 571.747437 -636.873413
567.049500 581.890137 -614.775269
436.045349 444.362793 -795.450989
386.032654 579.117859 -628.075989
458.844666 598.052856 -528.816040
359.712708 532.637451 -754.674072
596.965515 597.263611 -590.367798
286.558624 570.092163 -590.138611
400.427368 510.201141 -783.527039
288.957581 547.698608 -608.186035
435.132965 609.084595 -514.168579
406.289215 571.571411 -638.595276
270.656708 584.801514 -517.238159
233.602463 600.766968 -495.096069
475.202423 597.160461 -553.719849
585.245544 599.045654 -574.304016
422.849854 558.141174 -661.031433
504.494873 513.433594 -787.298523
367.114380 564.892029 -630.219421
218.353470 575.156982 -611.492371
604.647400 634.234436 -455.593628
676.931213 565.216919 -697.623169
436.958618 464.142883 -795.621033
606.549988 599.984253 -526.796204
396.933929 563.047852 -639.799927
480.580139 597.887634 -541.343262
344.304169 568.843323 -600.417053
560.413086 601.765747 -540.047791
446.847870 557.322998 -685.525391
647.832703 581.585938 -587.984131
399.608276 598.967224 -565.650940
637.877625 612.888245 -527.664429
620.611023 628.676880 -494.595551
652.565674 561.741333 -633.664734
639.519043 546.642029 -704.273193
557.873047 554.251648 -793.468079
405.205353 586.994507 -570.540588
432.544800 560.251526 -581.813354
546.041016 551.400269 -632.715698
474.707855 597.615234 -576.595276
400.011658 541.449707 -651.094482
549.293518 630.500122 -483.411743
175.984314 576.625244 -596.690186
379.705963 539.710815 -722.018738
375.848663 540.059937 -689.360779
200.513626 514.394287 -730.239258
312.829742 609.250183 -488.030579
431.740326 520.079590 -794.013733
548.854858 588.585876 -570.881287
572.053528 605.414856 -564.515869
341.236389 534.832458 -814.088196
524.225342 604.055725 -561.930359
492.664154 612.306763 -493.512787
226.817856 554.383057 -648.455505
173.321533 419.977966 -1128.958374
543.572144 588.692932 -579.558228
299.370880 571.191956 -589.913757
286.395203 544.247986 -634.937744
663.773315 614.889404 -540.065735
258.880005 619.735046 -505.060364
461.786560 586.165833 -573.891357
401.473236 551.461243 -657.346375
303.214539 593.129333 -536.856079
244.790955 551.051819 -579.327209
305.919159 564.514526 -607.056946
516.313660 588.251404 -606.195923
281.767944 560.032654 -565.548340
229.173874 556.968140 -617.468750
523.666748 564.966431 -645.417419
263.236023 514.283936 -708.459473
203.029037 587.480713 -522.318909
422.849274 532.957214 -709.179016
427.711060 477.752655 -810.559875
542.783752 560.826111 -692.255554
412.351898 532.391479 -709.451172
347.920349 565.456848 -648.279114
535.682556 496.597839 -781.282898
337.477814 538.698364 -684.633911
391.774445 600.860413 -516.523132
308.135010 554.294739 -685.934692
412.168304 478.505035 -802.954285
264.730194 559.635193 -615.339600
273.613342 609.883118 -513.176025
584.406006 580.447632 -605.929749
453.592834 576.767395 -639.318542
541.374084 612.941956 -506.122864
625.197449 562.879578 -682.869751
592.098755 570.397034 -678.825012
557.404602 597.503357 -563.678284
201.609009 560.579285 -614.086121
238.619614 566.010132 -590.268005
374.052246 618.696472 -476.149506
564.410583 560.516296 -682.459045
614.030640 633.582764 -479.929199
486.696899 613.359924 -513.166443
442.855164 497.607361 -790.250244
658.567810 604.270203 -564.342285
254.330673 519.655396 -729.171509
357.833221 561.220459 -614.786499
467.119232 492.524750 -797.604431
308.928345 547.318665 -825.285156
286.929565 516.991150 -730.451843
256.763702 558.851563 -620.278564
271.947784 538.902527 -791.729431
402.149902 599.394592 -571.104065
380.150970 534.741394 -766.181152
419.294586 554.036987 -693.937439
453.882416 575.446960 -595.245544
440.028015 575.502991 -646.186523
186.802658 584.420837 -582.447571
604.931152 596.280701 -565.002441
417.328400 447.726227 -797.840942
406.332245 474.259277 -813.373413
184.067291 602.607361 -487.143372
417.741425 559.490173 -684.475403
217.238205 540.235840 -692.488953
239.296631 591.879761 -558.546997
381.833801 536.259033 -734.593445
454.796692 530.946716 -751.329163
