ply
format ascii 1.0
element vertex 1414
property float x
property float y
property float z
end_header
-708.786255 324.342682 284.304596
-762.346741 558.615417 198.156342
-834.701477 402.856384 145.683014
-753.216919 585.636658 205.988541
-843.974854 610.817566 130.082062
-771.141296 393.983124 231.423004
-865.276428 342.358673 131.360703
-738.056641 296.009949 266.979370
-744.835693 626.399414 219.522980
-684.336304 732.321167 250.910309
-850.854004 338.292908 158.858597
-862.955017 442.897949 138.137848
-816.565552 591.570190 154.684555
-665.561951 528.282410 305.796143
-810.856384 679.021606 128.756516
-667.429565 680.227234 267.775574
-794.297974 695.691467 163.848618
-954.008362 381.065979 104.985817
-692.245483 276.117859 283.818085
-831.779053 726.152039 88.872749
-783.960510 535.841797 183.846741
-668.055603 637.982422 269.610962
-911.996582 517.228760 85.315994
-673.764099 584.358765 268.864685
-786.033325 595.558472 185.761703
-805.410706 336.056610 213.877823
-843.785889 678.374390 121.580032
-681.542542 473.704498 284.556396
-927.207092 604.272888 62.201134
-730.355652 373.312744 244.550751
-941.420959 620.346558 98.723656
-913.270691 471.588409 85.163200
-772.697571 585.270386 195.903107
-775.563782 391.082153 215.554993
-682.449768 365.961456 302.228912
-754.020386 570.145081 218.548935
-775.311523 679.017700 175.754089
-755.850647 582.059570 208.645813
-704.136108 425.680939 254.954163
-672.154846 721.485962 238.493942
-708.555237 396.064972 291.155945
-912.693909 609.406860 99.110550
-681.073792 555.914429 266.601990
-834.429443 675.918518 123.715096
-872.524536 454.211365 124.680595
-697.149048 582.785645 249.714951
-850.710388 458.037720 131.686447
-755.835083 515.998901 213.288055
-715.753784 730.318298 217.306412
-740.272949 613.696045 223.012772
-939.619507 411.454559 100.413673
-836.786011 642.204590 107.812683
-835.275208 546.465759 146.373444
-925.237915 445.969757 92.151245
-861.227417 697.066101 96.492950
-814.848450 443.405029 150.557297
-865.475525 367.977081 131.319916
-887.470520 490.043579 107.598915
-698.556091 524.176514 274.694397
-671.280518 459.236084 295.051208
-700.179871 687.295227 219.525970
-711.484131 283.047638 309.443237
-815.866699 398.012421 178.575394
-895.423828 514.720459 51.290749
-696.044312 306.897980 316.385345
-703.358948 489.102661 259.473267
-903.041199 252.278351 141.185471
-908.880371 436.345337 99.289352
-679.707031 243.641068 309.767792
-910.960327 604.408081 43.136211
-916.895203 367.388702 119.587006
-725.788757 505.263214 237.744522
-892.521423 458.957153 11.750837
-889.930786 723.498291 95.423378
-758.438843 292.909271 258.703766
-799.677063 638.515564 160.803024
-733.011475 361.554688 222.712585
-762.219910 756.198120 177.188736
-645.699402 669.360046 263.687195
-697.345764 443.692596 288.567902
-798.548340 370.541595 193.004486
-699.684753 288.571411 314.519257
-875.796692 304.320160 145.777313
-713.135559 396.905487 268.146179
-747.205811 523.186096 216.515442
-654.143188 700.546448 255.082916
-691.706970 484.473236 279.767700
-757.376099 669.410950 195.445984
-721.699402 731.137329 209.177902
-811.981323 258.915039 213.556641
-740.124878 565.108337 233.977219
-847.067444 481.296906 148.447327
-797.652405 594.582825 178.117981
-664.547180 422.214661 302.525452
-926.518860 604.603638 53.991207
-681.246155 611.072327 257.171509
-801.664978 451.354065 193.044266
-809.310913 511.540894 169.267883
-700.342651 680.514526 228.256012
-760.335144 242.607727 239.115005
-906.658569 297.930389 131.724152
-820.608643 466.903534 155.746368
-687.435486 660.964966 258.396332
-726.931030 690.297363 206.811600
-715.407349 690.303772 208.815216
-669.882751 745.213989 250.285538
-918.909851 422.929321 56.531940
-712.705261 403.989990 282.365204
-715.541870 530.178406 262.508118
-752.793152 575.217590 218.672180
-663.725830 519.686218 308.839020
-882.801392 521.639587 12.714037
-828.178833 264.570343 206.428513
-905.164673 578.143311 63.689407
-702.821777 255.462128 283.403015
-693.029785 690.252991 251.138809
-731.082764 543.124268 205.713745
-838.616882 631.390198 124.571754
-777.750488 720.364990 166.441940
-780.012207 404.757385 207.764435
-844.562012 412.996613 159.953125
-668.760010 442.972717 316.448029
-730.315186 352.537659 273.914368
-830.105225 304.886627 183.251633
-924.137146 614.049927 86.712364
-904.427368 530.197998 31.620708
-851.758911 374.568298 158.317078
-810.698181 577.087219 132.089523
-844.569763 678.363342 110.188141
-800.278564 502.285248 166.632858
-697.190063 527.902771 260.859253
-797.551819 584.142029 164.754517
-771.019104 602.239075 177.186218
-782.052856 731.983215 164.575226
-839.793640 632.689819 120.027199
-886.672852 340.153564 139.513214
-686.465332 703.808411 254.732468
-848.766174 679.372498 106.303482
-697.006470 666.064819 222.495895
-777.961975 634.086914 178.765686
-908.887268 407.162781 37.373383
-799.971130 612.148865 172.895523
-891.079224 303.434662 137.295456
-728.158447 563.925293 242.076385
-924.767944 408.512390 86.778801
-811.262817 330.883942 190.441177
-773.829651 368.308105 205.725632
-711.168579 294.745422 279.098206
-701.962158 397.638947 278.611481
-769.425537 382.776886 234.923691
-675.311157 530.919678 300.954102
-690.527710 287.536469 285.087860
-843.572632 397.036652 164.151443
-865.015320 667.162720 106.641830
-830.271118 481.934448 140.059174
-729.033813 392.445831 253.669189
-902.639771 423.531921 32.776390
-656.352417 694.080872 259.399048
-671.760559 611.772827 247.947891
-933.730713 621.293396 94.871056
-679.841187 482.647583 306.666595
-917.959167 580.876770 72.418732
-758.740479 346.674408 254.225159
-843.946716 436.399078 140.632126
-640.345947 740.094116 275.822815
-699.108276 245.109390 330.006439
-756.356995 434.527710 235.918915
-904.919373 461.824524 89.136421
-906.112732 593.789368 104.379005
-690.760986 703.557983 243.548950
-782.852356 395.737671 209.196075
-849.743164 254.921005 179.856720
-928.780090 629.439697 71.065498
-729.007751 685.437256 205.867386
-682.145752 521.315857 280.244965
-901.968506 424.278381 116.231926
-817.127197 518.902039 160.269104
-799.050781 433.619537 163.094711
-739.147339 501.252350 226.850876
-688.993591 704.898010 248.931656
-775.761963 555.623169 186.637100
-697.179993 498.739929 271.334412
-755.698730 398.928223 241.392105
-712.607422 318.129974 281.063965
-749.901611 331.590179 265.873016
-671.835266 697.034607 261.194000
-724.194702 508.129211 254.992126
-921.537048 596.572876 55.078495
-887.358704 435.079315 109.940865
-735.810059 365.661835 238.782471
-755.987610 377.227814 237.081375
-763.433411 266.649200 251.478989
-648.558838 594.808777 278.826752
-677.406189 480.107819 290.057190
-720.383606 624.408875 234.352585
-801.653931 533.090210 172.378372
-800.730164 587.553528 136.439804
-825.551086 737.065002 122.423874
-824.799561 538.067383 156.298615
-724.244690 451.192566 251.346451
-665.710815 343.264954 292.930969
-902.339355 429.748932 115.741066
-904.032288 549.949585 81.347031
-779.971008 326.737274 239.770111
-850.937195 262.009705 178.279572
-920.647766 426.769806 82.737541
-794.079224 753.228882 135.093613
-907.355774 307.010620 126.062973
-930.314697 445.259674 101.124123
-718.268372 519.991821 235.947647
-850.997070 522.326355 143.706116
-883.599670 262.296509 129.722519
-712.092651 603.122986 248.015106
-654.134949 700.470032 239.111008
-929.974609 423.667450 115.634102
-773.560547 309.294098 221.964172
-766.224060 406.067932 222.764267
-850.036804 716.526733 101.824364
-948.631470 254.340485 134.855072
-663.413696 417.607941 305.845276
-731.656006 526.870667 234.135452
-852.969910 667.671143 102.337387
-685.026367 362.373810 293.791473
-749.202332 608.400696 201.671326
-785.447754 462.879272 190.915497
-915.883545 488.504181 89.662811
-822.216248 505.746002 159.655899
-812.649536 384.854004 184.194107
-721.571411 386.455414 281.243317
-694.376709 589.156311 248.382507
-710.321106 312.536285 304.685333
-754.021057 382.093689 231.593491
-697.063477 371.150330 284.588287
-900.738647 475.345276 98.136398
-935.386108 391.930389 83.547653
-706.494873 690.966858 234.455215
-729.811646 649.179077 218.349274
-735.366699 567.481201 235.374908
-699.542786 537.799072 270.633270
-804.724426 565.532654 171.101120
-859.749146 564.693054 122.278938
-708.846375 516.722351 251.624329
-779.111572 548.090942 186.883621
-922.482727 593.779175 98.288513
-671.785461 672.745544 267.745361
-712.830383 613.370239 249.685745
-907.858826 440.981506 26.321869
-748.631287 260.481049 265.349030
-794.433838 377.763672 199.797989
-713.930054 434.174377 271.111206
-806.609131 741.841675 118.180519
-923.329895 424.213379 100.833679
-802.876953 501.484741 175.235458
-896.288330 521.335205 111.474846
-932.125488 598.407288 97.607506
-799.822693 500.873413 192.839386
-726.297119 712.806091 214.388489
-908.629822 495.904663 95.386925
-914.669495 302.346863 133.337234
-816.632935 713.626160 108.152313
-856.286133 283.611542 137.519562
-758.436768 326.436737 258.803497
-782.049194 610.701965 174.730804
-715.593994 509.293732 249.852493
-770.083862 399.279938 230.088364
-915.344421 576.405701 55.935047
-741.803711 253.503784 280.329773
-707.432678 364.846710 292.624847
-833.421753 248.402969 180.500366
-912.726318 567.321167 42.863995
-807.240051 630.346069 164.358658
-759.337708 725.855530 182.096786
-767.446594 285.154694 234.174194
-647.791931 710.886719 268.294586
-956.831299 599.201355 103.112114
-911.906799 435.875763 33.626633
-667.014465 508.516907 289.737549
-680.505981 429.071899 293.329498
-680.187622 730.869263 227.700974
-891.942749 423.442078 118.839600
-773.909058 282.518127 225.116165
-819.239746 585.615845 154.328186
-742.100220 254.490555 265.065674
-924.200134 587.674011 59.949894
-818.639404 577.559204 149.923477
-834.146851 683.164307 94.533989
-720.826111 679.097778 223.885422
-713.970825 245.973648 285.546295
-679.846985 740.727600 254.395233
-855.055420 467.968048 137.311630
-747.450500 332.739990 262.351990
-792.370056 717.070313 127.506142
-919.634399 449.184387 86.885666
-915.940491 468.572479 99.683212
-756.573181 450.822388 218.147247
-763.506348 414.470520 232.809799
-931.234436 446.055542 79.477806
-776.018005 334.684296 219.493515
-848.961792 429.641785 140.188354
-821.417969 413.883942 164.181274
-775.390991 717.966003 148.218903
-768.695984 747.098450 167.301865
-846.087646 599.259094 124.742058
-810.286194 450.835846 176.188217
-743.617432 616.828003 217.691635
-705.528442 482.492310 274.357971
-800.094604 409.948639 175.776093
-916.552429 513.533630 64.541756
-734.729248 606.743225 214.331360
-785.678894 418.375397 196.256058
-700.870605 736.660828 231.114914
-653.204346 609.237244 289.150421
-649.041931 703.088562 269.376404
-917.741211 428.428223 41.201477
-661.313477 479.312836 286.477325
-880.322388 720.285767 88.453896
-839.707153 297.398438 185.999161
-907.160339 516.957764 26.638546
-846.457336 242.514755 178.615753
-883.908081 525.911682 21.198753
-777.900513 706.159607 152.990692
-839.699402 514.117249 137.012863
-824.634399 689.040466 128.215271
-796.908691 393.057831 189.650269
-865.481689 639.798828 98.205482
-947.513550 679.549622 100.691841
-746.627747 547.181458 224.604019
-787.728821 714.189148 152.283661
-750.325989 352.117035 240.455170
-786.540344 573.780212 186.380997
-714.913147 650.585632 218.538834
-793.033752 618.247375 164.485397
-736.910645 254.186874 265.085938
-643.735168 739.930969 257.244843
-764.545837 596.584045 191.453110
-737.567078 596.912048 214.211395
-827.629211 265.124786 183.447357
-801.898621 636.300415 140.714752
-799.359619 490.253571 169.354736
-760.498718 564.719666 172.087143
-830.342346 572.593933 136.518661
-690.354736 254.322723 302.513336
-693.096619 678.770142 238.200851
-795.351807 544.178528 180.129608
-718.948914 305.177490 273.405701
-837.292358 425.695099 167.924805
-663.160339 526.773926 294.267548
-911.410767 401.390594 111.821198
-944.783142 368.436707 98.965157
-807.708618 742.176270 149.170425
-872.884155 640.549561 92.549179
-877.599304 756.360535 89.630386
-928.816040 512.915527 103.608185
-692.437012 602.296875 247.946976
-897.154114 533.471008 28.193378
-702.774719 571.765686 261.866913
-918.723206 587.299683 88.123833
-762.059448 722.887451 161.437378
-780.685669 353.337677 234.502899
-847.472595 632.466064 101.117058
-745.922363 413.747986 236.300369
-849.950195 702.518555 102.146767
-786.503418 464.605530 188.113937
-700.543335 430.157715 293.861511
-710.928101 528.545166 248.745636
-725.144348 491.136536 260.204285
-791.402771 265.580170 188.001648
-920.514526 425.225067 47.271210
-800.987366 434.850372 185.933212
-745.317200 561.924377 189.562759
-709.228027 556.799438 223.792770
-738.716980 345.135620 255.319183
-909.709778 582.198486 100.159027
-663.532593 489.618073 303.869293
-800.301208 648.924866 160.940186
-888.337341 416.933960 117.477249
-669.268188 393.735535 276.902313
-692.783142 376.052155 288.248077
-786.632751 313.514862 213.873856
-741.371460 478.028198 230.965073
-823.779724 695.473938 131.830338
-701.551941 488.688629 267.060669
-660.661255 534.345459 271.837799
-700.292175 294.379120 308.706543
-707.140686 375.801025 238.916229
-865.477722 257.452057 157.938522
-885.109985 295.568329 147.603134
-710.333313 641.238831 229.137146
-820.270752 498.494446 154.535202
-693.836426 473.927460 292.216187
-713.302307 661.530518 234.176163
-825.341309 492.059784 165.787918
-713.154114 312.549133 300.738922
-812.460449 495.186279 142.980255
-829.551514 444.702545 157.289917
-671.915039 383.880676 272.253662
-796.661011 351.862885 175.250458
-659.658264 543.327332 299.147125
-820.219360 463.918427 162.214508
-768.451660 240.773315 260.623199
-831.987061 393.991608 163.023499
-840.237915 570.617065 141.207764
-706.603577 445.197021 266.662720
-729.007935 463.986694 246.433975
-675.609436 335.869781 306.444061
-928.988037 424.477203 55.547249
-703.721313 366.406830 303.608734
-713.972412 316.138153 250.325333
-678.949097 661.931213 265.075043
-777.834351 644.897278 144.406738
-808.017700 372.420685 205.070053
-687.535461 400.685638 282.425995
-719.420227 514.477234 245.851501
-698.812500 676.853821 232.777435
-862.984497 312.291565 143.065063
-868.890808 556.950867 103.273300
-692.477966 733.079712 217.013504
-678.751648 714.067444 255.074249
-720.151306 402.873413 275.756836
-719.542603 641.436646 238.750992
-678.505859 551.064087 282.843506
-688.247131 330.420441 297.773560
-902.087280 538.905273 85.511276
-800.397827 441.172180 176.035568
-660.728088 693.389587 273.296936
-874.189514 454.936127 126.639969
-762.845825 286.111359 259.251587
-862.412659 395.743744 119.182182
-729.677795 652.453064 225.105408
-799.443787 663.426086 163.046341
-649.741394 727.097595 253.822495
-833.882385 733.113220 113.864166
-692.230347 725.359985 233.258026
-874.135803 324.605133 146.053757
-900.636414 556.376648 57.976620
-884.633911 366.180145 117.831268
-839.733765 301.088654 168.543365
-772.632446 374.064484 206.447433
-657.475952 656.467651 281.957886
-773.418457 255.117020 246.449066
-687.665466 267.930969 295.637970
-760.905884 550.382446 203.453613
-849.547546 333.132233 135.054047
-707.169373 328.697937 267.950012
-810.456909 482.213196 181.801712
-814.962830 322.780853 172.597885
-799.780823 519.613464 175.641159
-672.127808 593.421753 257.596039
-758.635193 597.878357 174.139420
-886.900391 237.888077 167.532791
-877.400146 601.881897 91.696136
-684.509888 544.995056 266.493774
-824.629944 426.371002 152.516174
-672.460999 723.376526 248.867126
-787.843323 320.599548 228.051834
-709.631653 296.273834 283.229797
-687.758057 292.113647 315.058441
-736.528564 664.980896 201.951889
-744.989746 336.683990 269.141815
-888.233887 661.521912 93.325798
-816.363464 551.590210 151.724686
-734.413940 712.568848 211.911560
-801.084106 516.701721 186.720734
-693.281250 540.113220 275.666992
-909.182068 540.800903 32.848179
-736.354919 693.556641 197.380493
-885.325928 446.586090 97.905716
-877.175110 717.424377 96.594933
-781.385498 449.110229 217.436417
-732.827209 382.241364 236.371490
-840.761719 704.738037 107.128258
-931.268250 398.918091 83.938698
-923.797791 590.750305 99.121918
-754.371216 573.219238 203.505371
-677.339600 693.356201 257.857239
-705.093506 385.109253 291.223999
-858.899536 361.656433 137.713074
-873.276489 444.184631 135.267654
-709.766113 685.473755 237.540161
-718.060425 341.607880 268.347137
-923.207825 515.873840 68.955559
-720.847534 407.131927 255.925858
-725.087891 484.813324 245.624649
-701.980957 557.241211 256.462708
-718.650391 304.918640 291.486542
-711.134827 468.873383 257.063141
-852.781982 285.710419 168.604630
-705.362732 633.301147 250.813797
-685.698608 600.963074 229.231110
-755.216492 465.114929 220.658691
-910.833557 573.658142 84.802063
-866.684753 673.423767 103.552704
-665.421997 731.901611 265.797913
-893.580994 428.060242 111.830956
-855.052124 638.345459 106.472565
-851.426758 466.549835 151.397736
-775.320435 362.414063 205.127411
-738.232300 583.659668 229.679581
-913.169678 461.817230 58.459396
-661.440857 588.416565 292.216766
-860.783142 379.147919 133.554047
-824.210083 465.278687 158.676514
-727.992249 382.370911 244.041534
-722.511108 374.293152 259.807312
-683.905945 525.830261 287.377777
-783.155701 732.099731 163.547546
-788.802795 523.621826 181.374374
-700.596985 366.263824 280.914154
-904.918274 530.899597 20.996002
-868.566162 701.201538 85.460938
-669.551941 729.023132 246.330902
-653.709595 640.946716 285.711823
-715.604980 715.139648 210.302750
-677.003906 730.293457 256.904877
-850.356018 440.556122 150.148102
-706.018311 310.931488 289.994690
-664.407776 381.856659 297.932617
-716.818481 413.662201 272.156769
-706.127014 710.546021 233.936783
-815.823975 479.222504 182.033554
-868.997925 316.135956 150.850540
-841.587524 648.432251 102.962799
-711.392761 302.740875 304.804230
-920.724121 397.028961 60.791603
-923.788574 411.580078 94.193207
-819.882629 296.262177 196.548355
-839.365356 626.826050 136.052887
-845.470581 423.987091 144.044281
-831.524536 515.365417 141.786346
-859.420532 345.692200 155.392105
-781.517456 670.453003 141.082184
-703.140930 376.749817 288.171295
-944.688110 404.948425 113.359215
-717.219116 702.031494 221.283218
-906.712097 534.715759 24.726284
-759.644775 381.908539 232.916809
-853.063354 319.675323 147.665619
-721.459778 721.421387 218.517075
-848.340027 602.044067 99.739998
-902.259277 523.210510 14.755829
-828.793518 341.696198 168.638306
-819.355835 323.916077 180.987900
-851.896790 628.803223 121.481606
-789.892212 547.170227 187.642700
-881.043335 469.540375 13.320178
-668.973938 568.506165 274.994019
-734.561035 726.906799 202.058105
-779.002991 541.023926 191.782761
-909.911926 540.023621 87.187202
-678.192322 520.817200 271.915680
-655.639709 734.233765 281.182617
-803.343445 459.363373 189.757248
-733.063354 650.367737 199.916611
-796.445557 616.958801 169.352463
-686.949402 478.160339 275.401703
-917.314880 575.603760 49.651207
-842.266235 406.821777 152.353378
-747.564697 415.874237 230.494156
-818.479797 248.922440 211.847336
-930.780640 624.735535 87.217560
-739.077454 647.284546 181.673065
-736.285706 564.579224 234.874359
-681.172424 307.437927 323.872620
-912.581543 753.579590 96.569046
-775.683594 673.138062 185.098724
-799.860229 546.725830 161.876068
-918.710571 434.275543 116.119057
-800.841431 411.673676 164.547852
-933.787048 608.267517 99.423515
-734.980652 676.665649 192.509537
-678.312439 343.452179 306.877808
-824.317749 713.954651 124.311569
-730.407043 598.308228 229.721100
-698.851624 468.267883 265.502777
-779.490112 514.980469 194.899719
-757.489319 664.483459 191.867935
-734.459290 458.649780 249.896347
-816.230225 312.971497 170.607971
-818.346802 542.892029 161.092697
-850.452637 559.162170 136.853714
-658.183960 618.093445 274.642975
-898.174866 516.276062 16.410416
-958.399170 367.783447 111.954681
-831.235291 648.468018 133.299957
-797.333008 685.798340 121.864891
-871.176147 490.129730 121.959824
-894.710510 513.962036 113.746407
-711.348938 376.438751 291.763641
-896.364929 591.607239 35.368317
-868.361511 486.735199 115.845932
-678.727661 597.382690 271.064667
-658.755066 612.351929 290.394287
-749.000000 601.703674 215.735367
-807.611267 285.588776 198.956528
-833.507446 286.287048 169.717239
-877.362732 292.118530 139.637695
-904.696350 452.288544 109.587471
-905.971802 520.491516 42.738548
-755.841797 676.619202 184.064972
-885.224426 638.872314 93.023888
-853.908508 454.115845 130.058960
-823.041565 467.488373 137.921570
-855.086975 739.226318 92.719559
-837.018188 486.371704 141.984085
-801.945740 554.234436 169.072632
-743.494324 480.566254 239.100098
-838.246887 569.629944 127.147446
-816.145142 447.892609 173.316238
-841.062317 659.388428 116.813499
-823.386536 659.725464 145.218231
-747.632202 566.794128 226.838745
-766.624329 603.334290 200.877670
-700.927246 728.634155 235.638626
-804.532227 372.752991 190.847244
-701.299866 239.176407 295.830597
-706.920593 543.620667 264.217804
-682.005676 366.782288 282.727814
-809.718201 280.690430 219.158875
-768.540039 391.124390 215.702591
-906.115845 529.461243 35.317806
-740.106812 377.845734 251.139954
-864.336060 430.872894 122.879814
-870.544128 356.617493 152.404572
-649.688599 686.410522 277.436188
-828.409546 371.980042 188.344421
-905.834473 585.462830 35.453178
-657.586548 591.329956 290.490601
-912.438965 494.948975 26.309685
-697.044189 434.872284 297.651245
-684.097168 585.802734 241.363770
-755.836365 694.533630 179.425995
-705.220581 383.982086 285.681000
-772.404785 513.219360 199.545654
-847.247192 442.098114 155.185181
-901.670471 446.751678 23.057163
-768.963013 584.254456 199.320175
-843.434143 747.165710 111.280128
-875.456665 416.170563 107.421043
-771.262268 326.041168 247.420547
-675.482483 468.689606 304.160980
-914.817627 490.274200 42.022060
-694.549805 708.235535 237.600632
-781.248657 503.695679 208.530457
-721.410889 674.288879 223.662247
-712.393555 426.856964 273.757599
-780.043152 749.832275 161.961700
-933.210388 611.527466 75.292221
-708.357483 565.822693 240.358292
-683.544434 694.100098 230.769821
-771.816833 264.307953 250.001053
-901.630676 572.925964 100.121819
-684.966492 711.656128 240.024292
-907.611328 534.043518 94.163689
-915.716736 473.682709 71.039925
-692.672302 673.646729 247.328278
-909.934692 440.392334 33.465885
-831.729797 413.476166 173.441681
-726.984253 742.741516 202.793274
-670.567200 404.866394 302.293976
-689.117859 280.299713 311.623993
-706.617065 703.041016 191.269653
-799.677063 614.961548 148.067642
-781.889343 309.855255 219.678070
-911.297913 411.864594 39.931007
-695.223328 449.940643 270.919952
-685.763489 336.936401 272.422821
-786.784912 564.321167 177.194382
-757.053528 602.081421 212.940765
-665.728455 703.550415 269.677368
-751.900146 307.590790 244.947556
-696.490906 546.798218 257.012939
-874.235413 449.577698 127.226837
-848.974731 516.971497 126.826378
-659.217651 553.012451 298.595215
-691.824585 738.131958 216.217606
-790.849976 445.693237 184.535477
-922.178833 600.347473 55.709080
-687.882751 257.434235 312.527161
-805.264221 456.700287 191.675949
-740.533386 373.078857 251.756622
-680.432556 720.317749 244.992371
-855.580811 271.552155 178.019043
-705.571777 473.859283 258.165558
-677.370056 536.729370 255.787094
-828.788574 449.697113 153.234467
-916.974915 444.931213 98.142044
-673.620728 525.585938 294.344727
-892.730652 487.005707 30.301325
-677.098389 271.631775 327.535828
-786.169189 323.412323 187.504120
-907.026245 261.999451 135.826889
-717.723633 683.403137 214.053116
-916.294250 565.196655 47.716408
-907.114929 596.104858 55.415516
-808.007324 717.922974 147.108002
-748.016296 700.658936 203.946518
-816.398682 355.910767 178.641968
-914.183838 444.055450 38.438862
-797.084717 690.752197 163.100067
-684.654541 373.540985 293.190002
-769.371826 674.292908 173.580582
-687.121704 449.749359 275.751831
-790.158203 659.379211 168.638336
-908.073608 530.668213 90.052528
-837.209229 474.683899 140.947983
-936.447266 600.204529 63.581680
-663.226013 621.579163 293.006989
-670.704285 419.496674 319.022980
-768.331299 594.455872 186.889740
-743.328125 595.545471 218.184128
-749.882935 678.474304 189.309967
-926.071167 644.872009 77.571686
-816.217224 406.884918 189.493881
-897.956116 503.401947 47.925434
-720.383484 657.765503 225.130783
-800.778015 401.433716 207.992371
-916.167847 417.016571 40.584332
-654.500916 704.094482 272.959290
-925.782776 590.365845 84.105782
-823.375610 532.753906 128.040466
-687.314270 496.426575 253.042236
-675.231323 549.473083 267.450287
-848.727112 503.292633 149.080688
-668.122253 502.043854 272.715729
-811.037842 428.105530 153.482330
-762.167908 747.496521 184.048889
-725.161133 718.619934 193.592087
-731.875549 441.349945 243.916321
-796.861084 256.741852 194.504150
-686.173950 655.959045 258.925842
-876.748535 481.473206 111.895363
-672.095947 404.390320 296.693756
-724.236450 290.193115 292.830780
-669.458313 433.543335 317.431824
-694.002014 280.469452 297.026917
-679.052612 518.131104 274.215240
-723.136047 407.550385 257.754395
-887.405334 256.180573 127.753365
-799.808411 335.172302 220.917267
-820.260315 314.239868 166.742874
-821.574341 568.237915 154.523056
-762.988953 488.750000 214.599731
-733.589966 482.845306 237.348709
-792.521667 400.230957 215.878448
-685.671387 718.500549 241.507355
-797.237244 723.201477 128.409943
-945.579773 673.869263 91.414345
-747.544678 387.196381 243.070755
-662.446533 503.782135 302.208618
-702.180115 641.270508 243.397995
-769.158691 489.500854 216.994095
-875.622314 244.863449 142.654312
-905.993042 518.837952 60.030270
-813.009216 433.760681 184.860474
-914.636658 459.290863 64.124359
-882.387878 552.480408 112.909683
-807.296997 549.579041 165.103027
-774.413696 415.058228 210.490982
-724.081299 393.073090 274.352356
-822.176270 639.286072 150.401962
-661.478210 728.608948 263.462494
-745.010681 277.919617 277.251953
-809.483948 281.695465 194.936325
-868.894287 469.459259 134.931107
-642.837158 572.352417 286.422424
-668.410950 328.807129 295.521271
-723.789734 426.591980 245.617935
-748.940125 429.225311 245.279587
-748.225281 367.043549 239.664413
-910.117859 488.278168 85.947258
-839.149353 270.400726 185.061203
-860.864319 480.568787 141.159576
-684.373535 386.798157 269.557953
-750.593079 532.847046 228.735779
-688.452026 514.798401 240.681335
-907.148499 604.695923 97.833206
-804.643250 303.344055 195.454010
-684.370239 266.166199 324.784729
-752.078979 282.147430 263.892609
-645.396301 706.283630 280.291199
-883.403564 379.516022 116.342941
-670.399292 510.972687 284.339600
-853.596069 337.132874 149.827103
-885.607727 345.973358 131.296661
-806.083923 729.268250 143.308777
-727.901184 510.570618 246.830765
-850.333923 311.311127 172.145935
-767.571350 647.630066 186.873032
-694.691711 606.862793 266.000702
-821.187195 514.620544 164.610870
-707.739258 648.653809 201.800308
-835.392883 348.588379 161.202072
-669.421753 577.797852 262.895538
-916.715393 456.097076 84.132706
-844.419800 519.056335 130.708588
-908.330444 543.931641 19.272570
-839.336426 381.151245 161.134354
-833.407654 674.584534 132.812424
-690.988647 428.310608 276.011292
-695.891174 320.252075 313.088013
-722.709595 631.714966 237.695541
-812.169312 547.128418 149.854492
-831.800964 524.857239 160.432266
-837.072144 379.045532 158.786591
-768.473694 621.175842 182.981262
-648.229553 675.759277 270.251770
-685.103882 691.219360 246.855377
-791.659546 605.254822 170.250214
-739.388428 371.755585 267.797974
-669.660339 643.625244 259.779938
-823.454102 355.038940 159.688339
-928.413269 737.677673 95.551308
-782.369202 321.045258 233.043365
-721.595337 297.252960 272.688263
-847.529968 631.347412 95.624641
-813.740723 730.837891 110.667625
-854.277222 598.446106 104.069191
-827.800659 663.505676 128.974991
-898.444092 502.958038 107.395363
-730.442139 617.504883 216.259354
-844.530762 350.828918 169.919052
-835.627930 577.714233 140.916489
-856.382080 622.526794 114.680298
-848.618896 691.650940 114.632919
-682.112671 437.917633 304.255463
-684.001770 658.298340 258.948334
-742.371216 511.312988 222.741241
-913.999512 507.777679 92.952957
-890.112427 586.063354 108.734070
-904.555298 538.879028 78.066399
-685.969177 743.059265 236.493240
-788.708801 601.447571 169.683304
-735.968201 594.709045 215.749054
-659.642456 542.715698 301.246704
-825.869385 328.225891 173.753555
-692.216309 381.049835 288.437653
-770.660278 315.444763 244.246979
-911.788940 398.267700 59.562057
-766.287476 470.943909 227.695557
-640.646240 732.315979 272.846161
-760.370178 611.556213 204.372345
-771.703186 239.884995 231.158859
-877.554199 618.206848 93.800941
-681.018555 666.613037 256.699646
-776.449890 443.723297 181.828430
-848.232239 339.318787 166.781250
-763.839294 576.635071 205.065048
-677.757629 496.249939 280.046265
-745.276062 462.180389 228.588257
-825.272156 533.333313 157.890320
-828.476929 648.109863 140.621918
-794.858521 375.742859 211.116623
-749.380127 730.111938 185.806580
-672.116394 569.396179 271.913177
-915.219421 477.766510 54.869312
-864.564575 458.836639 119.396660
-908.235229 496.295837 29.991501
-724.243958 572.789063 238.983475
-663.007874 525.544373 258.933044
-677.641602 384.567810 294.403778
-792.158813 355.272278 218.673782
-817.606079 315.709167 193.564133
-849.259521 601.419800 99.852692
-893.131470 561.395874 16.229258
-748.432556 615.710632 193.782990
-761.330383 277.945984 253.920624
-711.981750 551.673401 252.379776
-829.512573 308.546143 171.947845
-715.806458 612.369202 232.471741
-783.867371 527.049133 183.499664
-818.151306 454.813324 178.001892
-683.562561 580.378601 278.635651
-849.163696 531.951172 114.697388
-686.384888 689.379517 240.883163
-895.655457 530.414124 35.123917
-802.658997 484.979614 170.304382
-827.645874 271.680878 196.814499
-736.920349 722.279907 189.266281
-686.690186 585.596375 274.527466
-689.848328 556.182800 260.899719
-938.260254 405.179688 85.009300
-785.336792 666.361877 138.674576
-916.416016 533.953430 37.661564
-902.795166 557.547852 94.220108
-855.751648 627.264099 107.879120
-945.841309 391.131989 93.035568
-691.040161 683.017151 247.463699
-923.745850 406.369476 78.909195
-825.514465 671.070251 133.674026
-655.970703 756.216675 249.736938
-651.218628 717.450562 277.283417
-762.472046 676.506592 190.079987
-772.152893 364.945648 233.738678
-813.926453 528.649048 156.527176
-769.240906 483.888885 181.657486
-771.268433 587.268799 186.636124
-763.652405 666.675720 188.876053
-762.674377 652.126953 180.829300
-720.875366 528.544800 249.215179
-800.127319 336.764526 196.175995
-899.712891 418.949005 32.790817
-710.510559 440.329590 266.125702
-913.871765 570.429382 72.798607
-740.685364 557.925171 232.973129
-769.263184 343.607422 241.366043
-813.458801 411.443390 175.950851
-761.570557 544.792053 196.079636
-894.168823 616.112305 105.786766
-753.538635 489.169312 232.013199
-768.289490 249.544968 233.034821
-672.157288 593.215881 262.701355
-744.017883 391.886292 259.932770
-696.938416 247.165085 309.660400
-679.598083 688.082764 252.336258
-663.296631 706.468323 270.666473
-667.780457 539.282288 297.324890
-650.410645 718.883179 277.023102
-653.309998 722.538452 232.946411
-800.603394 687.042358 120.072594
-706.268188 619.478455 251.780106
-724.088013 523.503662 208.221786
-705.248108 309.414795 304.094757
-869.038391 294.967041 158.457443
-861.746216 705.788940 87.023201
-685.147522 430.903839 289.483337
-753.731323 614.370544 207.923203
-714.565369 528.934143 260.748810
-860.674011 321.730438 124.519341
-697.092224 669.590454 233.104599
-908.330933 511.239288 109.008362
-742.966980 622.341187 216.385422
-675.131897 353.835358 320.204193
-738.495544 468.127441 231.723816
-651.363831 639.392639 260.718567
-716.927856 659.913879 220.446960
-737.503906 495.438812 234.964325
-753.057861 486.617279 236.910034
-779.015625 511.934113 189.051514
-813.335815 652.971313 148.869415
-694.584717 247.981476 301.788300
-868.937744 509.004089 122.237839
-801.303040 332.565033 213.959564
-915.032532 461.127380 78.834190
-758.596191 448.161621 208.140930
-676.841248 616.610535 270.277069
-692.878235 501.389282 273.362030
-734.701965 358.871094 265.162598
-910.465637 515.767090 47.486794
-740.112488 442.291168 216.446442
-884.667419 482.878754 16.471012
-749.930359 304.286072 244.052994
-717.606323 317.719116 247.017822
-751.678833 340.051788 240.112122
-801.416748 549.595642 167.743484
-759.052856 291.847290 263.524231
-676.073914 646.650879 252.333923
-782.899536 686.057495 176.927795
-868.114624 341.454224 132.289917
-834.073425 332.265472 144.718781
-846.798706 308.449738 155.693466
-852.397339 429.872009 135.855072
-753.865173 480.053436 215.588135
-820.589844 455.698425 157.002151
-896.419861 547.352905 25.125423
-743.322083 528.024841 223.041718
-687.449463 637.721680 221.295898
-721.710449 683.603760 219.612518
-850.122559 361.202118 170.118195
-723.604553 481.273254 248.829498
-718.235779 556.062866 207.738739
-799.271729 446.732544 176.863098
-918.342041 477.061340 73.261795
-886.408813 445.611755 108.313614
-767.606812 622.262878 184.427261
-904.609192 595.886902 71.466003
-727.824341 462.023773 215.782944
-856.103516 432.924255 137.859665
-663.714050 472.873962 304.114136
-697.905762 714.014343 233.317261
-825.897949 606.851563 146.852875
-663.009399 444.387848 284.225433
-889.272888 501.754425 31.599621
-808.268921 502.627167 169.839920
-706.390076 506.371826 235.400146
-826.854370 690.910889 120.667839
-881.396301 420.438049 130.635666
-751.014282 349.124115 256.248047
-823.272583 700.742432 131.807266
-850.244385 327.438995 155.282761
-787.197815 725.035767 153.267715
-841.382629 369.055511 154.056854
-694.310913 287.759949 281.486969
-731.353638 711.703003 208.713364
-712.946289 492.652771 266.701080
-704.917847 251.387115 301.529816
-837.749084 540.672302 135.731125
-717.003845 336.408508 269.554352
-674.362183 293.428040 290.473053
-920.727661 517.872925 107.149635
-706.240662 370.259674 292.619690
-725.709595 630.368286 230.580063
-678.417786 516.658081 274.332947
-719.488220 250.174469 293.715698
-832.173584 664.017944 124.739281
-874.745972 325.488068 120.212845
-739.572571 681.406799 196.178864
-833.582581 283.345123 195.912628
-855.172546 409.120026 140.286194
-833.459900 363.422119 161.888031
-702.112915 451.948669 265.685638
-911.530701 408.866150 67.537834
-651.658020 689.226440 270.535339
-761.705811 746.663269 171.179489
-725.530273 695.309265 205.422379
-918.244995 606.742065 65.976280
-782.998047 470.860199 196.268219
-685.332703 747.679932 240.122726
-792.757996 525.275513 175.455154
-914.526001 511.315735 87.232079
-851.017883 270.092438 174.310059
-662.649536 415.582031 286.022125
-740.319458 666.585205 206.674271
-689.773560 561.901245 259.859772
-844.609131 274.909058 163.003479
-748.569763 444.241638 247.078232
-829.084106 710.289734 113.567154
-847.836609 433.991882 146.150635
-736.438538 532.423706 225.552811
-904.493652 527.035217 31.921465
-696.034424 361.796967 289.424377
-909.606140 587.477112 91.978745
-652.914612 735.114868 270.946228
-836.282104 464.309753 141.303040
-800.696716 375.395294 196.846909
-689.520447 397.753754 269.536133
-933.554260 673.987122 82.647842
-902.221008 552.399658 90.509125
-830.417786 567.436829 116.802887
-651.347107 634.850281 290.108215
-889.269592 351.809540 127.431725
-755.440552 582.888367 201.254440
-865.934998 410.369720 147.114517
-792.854919 414.841919 190.973709
-794.451721 730.440430 150.909256
-813.045837 294.848999 217.097183
-724.081665 752.271423 209.993439
-667.942871 669.815979 269.443817
-657.344849 476.596161 267.372345
-912.096130 538.270081 91.094185
-737.734070 331.791626 276.260193
-727.569702 329.728699 250.211716
-779.621643 647.909790 170.923004
-736.614929 534.709167 228.347565
-698.549011 265.150726 302.277985
-729.712341 602.960938 233.724091
-783.204285 666.796509 152.367554
-770.766296 416.061798 228.388260
-774.466187 572.293518 197.941513
-668.577209 543.377991 285.930054
-806.815063 692.386414 114.341713
-908.362793 484.195648 48.472733
-912.230591 564.798645 49.274803
-795.084778 657.636047 160.414734
-821.921570 280.984314 183.313507
-806.584045 690.870850 124.465637
-646.881165 711.496216 272.285217
-900.909851 514.146912 110.165405
-691.719116 431.923309 294.245239
-782.204468 599.680603 175.176178
-688.497681 581.949890 266.130280
-651.250488 572.177551 279.873199
-708.589539 624.930054 248.204971
-893.568909 467.741760 102.030937
-746.428467 375.453857 252.764786
-919.167847 549.768066 73.911186
-832.944214 543.584229 148.598724
-761.958557 475.588745 214.295609
-822.727478 466.418396 162.569473
-766.082764 716.253479 178.039185
-663.310791 616.697754 292.798553
-912.136169 571.551514 34.110909
-700.965576 339.855194 272.517151
-663.300049 701.926453 229.823792
-842.291504 618.604675 132.705414
-725.779602 589.215027 239.125046
-672.785583 434.199554 261.369202
-911.635864 571.251831 74.603203
-720.441589 282.238342 260.019135
-880.675110 515.692505 110.209091
-722.682617 258.554749 270.425232
-751.157593 486.400787 225.088852
-751.077148 611.447937 176.622864
-767.121887 343.709900 214.745544
-957.397339 360.349945 120.334641
-697.887512 612.305054 262.462250
-777.015015 425.694977 207.114639
-832.700623 506.899689 136.171982
-703.543945 440.475983 265.429901
-925.052490 598.029907 101.001358
-835.330444 437.424011 132.773575
-752.236206 425.992950 243.752945
-647.626099 554.188232 284.154510
-828.999573 687.675293 126.242783
-912.282593 523.754150 46.934502
-686.174194 697.627380 222.132416
-872.819031 446.611816 104.834549
-799.124939 405.271790 193.104660
-820.307800 451.315125 179.080719
-933.551208 630.696960 79.520493
-884.158691 493.133759 20.957335
-788.617249 392.873657 197.301514
-652.020508 599.960022 292.681885
-903.968994 420.512268 118.539085
-884.997925 554.214111 22.536261
-742.850830 720.919617 188.159897
-745.308838 538.910400 211.435822
-784.125000 683.830688 166.268387
-895.030762 708.384094 79.605659
-789.315430 720.272583 151.301804
-805.089600 419.461761 179.035797
-662.728577 402.075134 283.735504
-781.881104 427.483765 193.681808
-848.442322 357.529053 151.114487
-887.715393 515.622864 94.136589
-779.634888 410.514709 184.544098
-700.066040 461.845062 273.270630
-866.130676 394.675232 117.845886
-801.574036 518.720581 163.792709
-682.507874 536.280823 268.796265
-827.467041 731.849670 118.631783
-915.134705 458.742981 48.538319
-756.941101 321.134491 239.184631
-774.108887 333.698761 235.760056
-652.564575 654.347229 273.588867
-724.014648 313.976746 266.966522
-805.629150 640.282837 142.549377
-911.933899 564.790955 37.967720
-959.505676 355.189667 117.113556
-792.826172 586.126404 167.628510
-685.915283 478.055939 290.147583
-723.109436 605.239563 241.755325
-686.549805 680.359253 253.003296
-694.394409 277.278900 300.619781
-682.773865 692.903320 244.484619
-809.270447 567.291321 157.426819
-787.911926 306.508362 212.912842
-686.252075 717.516174 238.774933
-819.956726 504.805725 168.456421
-900.522888 504.003235 23.483738
-707.069519 572.828674 249.740433
-720.708069 437.939819 251.413589
-788.152405 621.119873 174.777130
-672.201965 524.191345 286.047974
-745.715637 330.606812 244.603210
-746.649902 694.503540 177.332153
-752.238464 564.707764 200.868088
-795.554138 331.747864 210.097595
-836.154053 495.275848 123.272530
-823.203552 296.712402 184.637299
-749.175537 271.918060 272.853973
-903.738342 416.727051 50.234409
-926.745972 601.780518 68.855270
-691.073181 439.315552 283.094666
-846.291565 466.371368 145.114197
-761.175964 311.197906 259.528442
-746.155579 444.883728 226.891434
-687.619812 555.905823 276.363464
-764.141785 489.289276 203.190994
-854.335999 746.845520 95.472572
-765.604065 624.011292 197.748627
-675.299316 426.980316 288.306641
-779.437439 242.142761 211.553101
-853.333496 334.429993 144.101822
-777.611267 404.013031 222.143951
-680.601563 416.577850 292.400787
-743.853638 429.117004 237.855621
-786.565186 689.742798 166.061584
-841.616028 511.806030 136.573441
-893.703613 308.225159 133.433090
-785.375000 366.477448 222.864563
-801.344299 464.717224 184.186157
-825.897095 258.744019 182.721252
-776.102478 740.468018 168.749710
-741.190918 455.150604 251.868408
-793.198242 266.290436 196.525452
-849.143799 441.314423 131.429855
-885.986206 460.942719 118.507713
-715.285095 366.566193 265.894257
-755.648682 298.414124 246.194427
-709.816956 637.277466 209.110489
-756.815491 321.173126 255.621567
-731.296326 352.125061 258.604889
-744.328979 498.362396 224.693146
-723.703308 267.423553 284.022369
-841.987000 572.337891 107.006111
-681.813232 267.129242 318.888763
-819.391785 442.098816 185.227951
-845.325378 579.551880 122.885422
-681.201111 410.128540 286.934326
-938.061707 433.481445 98.725784
-773.252441 505.246826 211.624420
-823.092529 586.671631 150.627625
-714.389771 257.657440 304.229218
-716.614380 687.612244 231.335861
-845.374939 280.291351 168.085266
-701.965942 683.531311 236.508392
-683.914551 609.825745 254.861694
-794.252686 667.781555 155.705444
-717.201904 554.966064 254.375824
-847.905701 367.629425 149.739090
-800.753418 346.291351 183.645081
-887.012695 512.049072 23.859219
-723.974915 493.314178 247.104141
-781.533203 278.443481 244.879898
-708.770691 589.694336 254.611908
-826.185120 694.716980 125.836891
-821.991089 492.582489 159.393463
-790.308716 244.767532 211.732986
-711.283569 300.337494 277.298431
-865.520996 712.719727 87.992188
-919.890320 605.541138 83.464745
-793.251221 567.611206 167.945999
-814.405457 679.484070 136.604736
-836.653015 583.337646 126.136307
-915.963379 478.171783 77.592728
-887.891968 539.667786 19.327736
-722.770203 322.442352 265.582245
-837.556091 445.013184 145.363892
-747.401489 321.603210 269.721039
-869.621399 248.455475 129.147568
-852.476868 598.443481 113.510963
-863.772522 353.396881 131.956299
-778.630676 286.670776 225.189056
-875.774719 484.545410 124.059204
-729.198914 492.134369 240.038330
-903.547485 368.311401 115.330063
-721.219482 697.552551 211.396790
-911.189453 551.521912 53.516647
-655.809021 613.829224 284.412292
-897.592590 524.491211 74.733749
-677.182495 569.469482 274.359467
-797.010681 603.081482 162.339417
-690.731750 480.347473 270.077026
-733.114563 337.775146 274.490845
-764.462036 288.461823 240.727707
-687.281128 640.046814 263.548798
-734.633728 313.852631 260.953094
-925.052673 397.413391 74.016190
-741.570068 637.488586 215.160477
-858.385376 319.574707 166.874756
-842.719482 324.170929 167.828064
-723.419800 299.653992 252.335724
-687.707520 545.649292 269.548401
-940.004089 313.674286 133.708008
-894.377380 514.185974 79.231087
-869.932556 308.829407 118.918053
-678.081421 325.333649 313.001740
-683.092529 488.826324 291.074615
-765.280884 386.957306 224.191422
-778.500366 517.876770 193.675446
-913.488098 376.819153 72.011574
-819.567139 503.717743 154.279739
-897.227539 514.368591 102.020721
-755.927368 293.550415 240.287949
-922.424683 602.199829 49.447277
-722.890503 429.783600 269.235413
-888.872559 242.184113 148.152557
-767.630920 326.752167 245.482819
-789.538574 634.111755 176.618713
-854.882874 556.986145 112.725258
-783.089478 454.119202 209.413162
-864.388611 573.650757 123.039207
-774.549805 686.818665 184.341080
-754.135742 539.363647 211.461807
-763.872314 627.026123 159.199341
-741.088318 482.282532 220.107437
-674.754822 661.179626 267.617737
-770.410889 374.319336 205.542892
-861.737549 310.029877 159.172729
-696.705078 551.257629 270.944641
-815.776428 550.587769 157.268051
-916.975281 558.513428 59.508514
-859.441284 572.893250 126.846191
-696.989990 591.365845 263.119171
-730.166931 692.006104 218.663315
-695.419678 513.417603 270.713104
-861.544495 638.090637 94.776886
-775.627014 639.400635 175.404037
-837.671143 336.110779 160.739822
-701.954346 541.224426 269.610443
-694.501770 499.032684 271.702423
-742.807434 535.341003 218.713257
-655.051758 658.769836 274.310181
-889.456909 234.503433 139.865173
-838.448914 696.934692 116.893837
-798.797852 597.340393 174.419998
-808.692139 628.508179 153.854172
-755.212280 535.655518 214.889481
-858.111389 400.687592 141.126923
-924.005127 490.983093 85.831390
-696.584351 453.280365 287.595490
-915.981934 469.137848 64.644478
-896.841431 497.930756 15.840276
-771.756775 337.016418 222.641846
-769.372253 658.410889 177.196884
-668.837219 479.240753 297.359894
-899.015930 429.950867 37.500248
-710.202393 484.301758 256.403229
-714.734497 354.324585 270.041107
-689.327515 608.552734 268.697693
-871.453430 280.498962 152.823532
-659.634277 695.780334 275.234711
-906.104553 522.178955 108.598320
-707.495056 509.580536 254.890503
-753.351807 538.460754 225.166336
-738.043701 599.627258 222.423187
-922.992249 426.823914 101.393784
-806.238586 412.094513 197.585663
-817.241211 629.359009 145.618820
-783.707703 320.863708 231.620026
-849.492371 580.879578 125.519585
-730.663513 258.512024 281.948608
-770.697937 685.789490 187.856277
-846.455322 596.943176 117.582108
-837.790955 351.872589 174.516876
-707.847778 645.641113 236.092087
-771.911499 520.478210 196.808105
-765.524170 550.120911 191.699509
-829.187866 447.180664 171.278641
-759.531616 298.048157 242.754150
-897.599976 427.494537 32.141941
-922.779602 451.435608 56.689995
-678.639038 691.918030 263.186646
-893.459839 447.530334 117.896088
-758.730713 397.280090 245.186813
-675.696655 504.783264 282.169922
-865.327209 449.554688 135.523727
-866.851135 298.531250 146.690811
-702.119812 243.817886 291.359863
-892.620178 482.809479 13.782748
-654.800232 701.282043 267.803894
-677.962219 515.246826 278.561523
-721.970215 257.875946 289.162323
-728.685486 638.403870 231.540695
-683.948975 443.502472 300.340637
-674.970764 400.952942 307.341309
-753.253540 710.572327 156.741577
-727.140381 329.880005 261.640717
-863.776978 282.128510 167.721359
-817.982910 652.390869 151.299103
-705.931641 265.145172 290.127869
-880.804382 514.536011 9.270782
-701.964539 289.623779 290.889374
-840.123779 383.407288 156.160309
-736.271301 684.019165 212.906448
-697.291138 339.486969 276.155029
-780.571106 522.170410 190.099640
-649.168762 726.796692 279.274506
-834.425842 563.674683 142.925003
-861.957703 707.028137 95.745155
-763.117310 531.661743 203.944214
-703.899963 616.548035 256.816010
-692.491882 431.147247 276.382935
-875.090393 436.745941 123.129280
-667.549500 621.937378 262.877075
-706.227966 472.743988 275.328339
-663.223633 666.103699 278.293488
-896.140503 636.607178 95.318375
-825.796326 240.267319 205.929565
-719.267273 626.547974 202.418549
-793.796997 633.407349 161.648560
-707.700012 421.548889 283.667236
-765.109131 246.410873 262.192932
-855.787292 589.068909 117.669479
-791.250671 511.391296 193.098206
-805.963074 666.469788 149.231995
-747.525452 346.266449 241.456848
-720.487183 312.385345 293.757996
-759.820374 571.432129 211.836838
-736.933105 436.823212 258.292969
-713.855103 398.013641 263.874268
-666.302429 603.899109 287.121002
-734.506287 460.282196 241.350571
-799.224487 677.095947 154.145264
-754.517578 655.897949 167.425735
-652.407898 643.847656 290.666168
-783.820068 280.172943 241.220764
-769.390991 679.975769 169.539520
-736.197754 353.503723 250.434464
-789.123962 505.137878 179.058563
-927.151245 467.423767 94.282471
-673.402893 374.894226 310.326630
-639.961731 752.273254 280.583008
-760.460327 431.542938 223.920593
-920.042908 441.121948 54.503750
-751.924927 585.757996 213.883026
-826.918518 604.148132 135.676529
-666.086548 474.241852 294.069916
-776.443298 651.043030 176.793091
-696.913940 610.248596 243.665497
-909.941711 570.861511 96.475159
-788.381775 298.229919 210.597031
-832.271423 547.571716 129.221405
-898.847412 583.806335 77.172302
-735.690491 605.537842 224.266525
-866.534241 712.811035 84.995407
-725.234497 537.981079 229.476822
-687.361084 257.043579 308.902039
-712.671753 743.620361 216.080292
-736.352295 525.947205 231.982132
-895.568359 406.291809 112.585548
-691.314758 326.127411 294.957489
-691.845703 243.074829 312.878204
-773.343201 623.785339 155.870239
