ply
format ascii 1.0
element vertex 1380
property float x
property float y
property float z
end_header
-470.507385 868.705627 -73.776840
-552.021667 667.212952 -27.731014
-491.658691 765.310364 -59.692104
-451.345306 890.768433 -72.649353
-637.497253 587.201965 -107.958992
-667.826233 665.917358 -256.985809
-676.815186 762.719299 -323.850800
-592.971252 730.002258 -152.250946
-482.782745 903.476013 -132.488831
-572.455078 747.497681 -152.571625
-559.733398 880.612915 -262.317444
-678.652039 580.737061 -182.419205
-632.911438 621.118286 -112.245468
-579.448181 739.835754 -165.565231
-605.495239 759.005737 -206.436340
-567.943481 775.200989 -150.768814
-794.799866 525.590454 -259.131348
-630.204590 549.947693 -17.709936
-667.184326 580.596802 -180.625717
-636.072693 657.373901 -171.399826
-508.581055 783.696960 -58.684475
-548.036865 835.319641 -187.481613
-661.417908 609.096191 -172.026382
-553.095703 922.075867 -271.951202
-541.349609 890.871338 -255.161987
-667.192444 626.958984 -359.536041
-637.204895 629.675537 -120.306969
-615.404785 670.306152 -124.771400
-719.182007 488.095978 -163.208008
-599.150146 662.399231 -88.236290
-527.508972 898.569885 -260.414429
-667.709045 505.456543 -76.013092
-635.276794 629.508057 -151.806564
-671.130676 777.252014 -309.606262
-698.187073 674.547241 -292.067810
-651.525574 583.959290 -135.777390
-477.521515 820.114807 -75.360130
-511.460541 839.537537 -114.781219
-525.032532 732.748962 -42.510990
-533.010193 843.517761 -159.520401
-683.942566 735.354797 -330.615631
-626.238037 539.486084 -9.797875
-560.849976 658.020508 -45.633587
-495.988312 785.982056 -56.408550
-563.049866 860.209229 -234.869476
-678.121460 589.249817 -212.276688
-501.152710 820.382446 -76.054817
-621.331787 835.295349 -299.860382
-676.417664 550.563904 -130.620193
-636.680176 856.256775 -316.482269
-679.987366 734.923706 -334.686005
-593.073669 587.919617 -37.765419
-549.888489 920.468018 -264.585175
-613.136230 767.973572 -266.842133
-626.106750 735.700134 -243.089844
-456.517700 858.620117 -60.170418
-566.079346 944.865601 -315.032928
-537.675293 816.686279 -200.475739
-522.720947 852.362305 -219.567062
-636.799255 721.779968 -212.335251
-711.958313 563.178650 -189.279037
-589.693787 649.026184 -78.611061
-631.866760 566.393799 -72.064133
-628.555786 518.541260 -58.941006
-445.554535 917.272949 -79.589424
-675.315308 655.732727 -227.916916
-633.933594 695.520203 -216.573715
-548.277588 939.778381 -278.052948
-581.825439 920.291260 -316.475464
-617.181641 564.813660 -18.693167
-621.588867 559.118042 -4.797975
-462.697479 876.411438 -69.401978
-525.089844 875.550598 -204.349197
-595.312500 791.203613 -240.629883
-553.561279 838.835938 -208.969177
-640.375610 523.123535 -29.988325
-599.932678 809.151001 -251.704910
-568.588196 878.116943 -278.202911
-549.505066 678.299622 -19.734537
-630.571899 695.107727 -178.795837
-458.722290 899.891052 -88.922028
-699.509155 653.176453 -257.089264
-658.661194 667.367981 -230.589035
-660.038330 705.420044 -347.890961
-496.159576 786.294189 -45.350765
-571.625793 667.538757 -46.218891
-582.626526 667.720459 -124.811745
-552.530762 672.102051 -76.175690
-703.845947 523.483398 -211.829132
-506.879486 830.393982 -110.748924
-609.073303 612.739624 -64.004211
-557.679138 721.064270 -101.812653
-662.894775 771.880432 -295.780029
-569.124146 873.614929 -270.774445
-681.404541 539.245239 -160.195953
-556.142212 763.935242 -115.975563
-589.643616 654.585815 -98.921295
-541.245056 903.741333 -277.734222
-635.615723 673.555603 -200.062729
-691.275085 597.129028 -224.690002
-538.267212 906.668762 -244.448380
-708.228027 492.682281 -98.209938
-748.491333 472.760498 -214.028152
-547.962524 882.472534 -251.104858
-592.645935 853.019409 -270.296631
-654.517578 897.269409 -340.927094
-615.035339 799.462463 -291.530975
-673.481445 864.939026 -344.640594
-662.045776 788.653076 -321.829468
-641.936890 574.031311 -105.202698
-519.067688 866.576172 -164.111053
-670.199097 638.730286 -191.830856
-638.912781 603.106567 -128.632874
-515.944336 775.398071 -84.119492
-483.166931 933.666443 -167.958206
-495.495789 903.330139 -184.726715
-668.366455 545.562256 -123.187546
-554.103699 835.258301 -189.119766
-652.537720 696.776917 -251.669098
-676.313293 532.710083 -100.025162
-639.808716 714.955383 -258.111359
-709.154724 500.035553 -127.616463
-585.774475 800.483887 -230.445465
-481.042694 901.976685 -147.856018
-568.618530 960.376587 -321.152374
-613.514587 761.785156 -215.218536
-694.860718 482.047913 -117.092133
-664.432068 732.776733 -291.039703
-595.238159 781.502441 -221.394302
-463.438965 919.543823 -145.953445
-703.853638 642.187195 -347.290405
-476.874481 842.807739 -91.408142
-581.119873 779.398865 -212.255157
-591.895020 858.736206 -274.576294
-716.652100 511.060455 -159.025208
-704.468933 696.911072 -308.229431
-556.641724 915.137634 -282.588745
-583.869141 655.807556 -102.343254
-569.929932 645.881714 -96.565331
-758.143494 591.706482 -272.811737
-721.672180 518.288757 -182.289612
-592.123047 982.277527 -332.044128
-556.174988 707.078735 -85.974457
-536.861206 732.187378 -76.248543
-526.212219 762.724548 -60.433872
-629.333801 752.631287 -290.757141
-620.124023 502.970795 -10.165677
-561.164246 690.214355 -66.154510
-509.203827 833.264404 -130.363403
-472.355255 837.203979 -57.636814
-508.533997 810.633545 -78.550598
-672.074280 580.834412 -143.210800
-512.591187 783.920654 -72.962875
-618.862671 734.325195 -236.654633
-644.446350 563.514099 -102.372986
-651.557556 710.609863 -357.161194
-595.156555 729.826721 -175.813904
-509.162903 917.780884 -221.634293
-622.504700 624.458069 -92.052834
-635.364136 465.023499 -3.348499
-561.275513 881.416443 -255.355087
-568.126831 820.623840 -224.176620
-811.111938 536.421387 -257.353119
-646.514099 786.011780 -366.630951
-715.598389 679.061707 -288.848358
-710.492493 563.775391 -231.419464
-558.306335 674.765259 -47.220222
-683.833008 528.574036 -158.157013
-597.896912 610.664673 -34.473640
-657.422913 570.759094 -100.591507
-718.932312 516.390015 -190.050858
-588.840515 739.078918 -171.230392
-581.630798 714.545410 -109.924538
-542.134216 939.201111 -270.000031
-667.346130 761.520081 -331.832123
-650.450867 793.347534 -368.307861
-541.138550 913.795837 -255.988541
-518.048584 755.912598 -49.686657
-685.928040 711.817017 -318.752777
-559.972107 919.616028 -301.937042
-499.718811 819.949585 -90.547058
-608.412781 763.603455 -236.126358
-480.638428 832.667969 -81.061371
-740.634644 495.979797 -191.930435
-566.072327 825.701965 -212.393356
-641.735046 657.749023 -199.917892
-660.507751 589.715942 -130.575775
-690.322266 514.653809 -98.208054
-602.493958 714.925964 -163.238297
-558.674011 803.281921 -179.359467
-487.370514 932.239380 -166.631027
-597.174072 548.276367 -1.239713
-566.929932 931.327393 -318.623474
-528.507324 899.057678 -235.904984
-594.954834 675.407837 -89.188286
-588.890015 587.503418 -14.658498
-602.083862 670.841797 -135.568939
-571.666504 699.664978 -105.768517
-570.617798 675.080994 -51.250904
-629.997314 752.169312 -259.869720
-732.064087 559.383484 -241.841629
-597.258484 646.152283 -99.895309
-618.830200 741.349304 -212.919434
-537.524963 746.279602 -67.793015
-446.609955 908.474976 -103.657082
-617.410095 615.420715 -99.906448
-502.022308 814.707520 -103.893257
-681.549194 765.745789 -326.090637
-576.525269 609.037842 -12.172134
-700.260803 461.953156 -66.430702
-530.070862 844.536011 -158.068359
-596.909668 740.775208 -169.406586
-653.493286 901.495300 -344.644562
-662.124695 497.395599 -31.489588
-608.085632 621.884583 -95.600182
-719.267883 516.223450 -192.800766
-483.793884 881.137512 -113.144836
-612.334473 794.512512 -252.039886
-675.775940 721.304321 -338.978394
-600.807190 756.355042 -214.147476
-673.535339 802.351196 -341.375671
-585.142944 809.524109 -245.339920
-671.383789 561.328125 -172.667282
-489.593597 909.250183 -174.241669
-628.989441 545.639771 -8.043832
-491.579895 851.797913 -88.377586
-633.684998 462.018921 11.905265
-726.837219 635.627380 -280.260620
-988.077209 461.334564 -540.224548
-489.331787 800.599915 -49.712662
-551.987000 721.088074 -96.400818
-526.200439 855.521423 -159.384079
-649.921570 723.488647 -353.003387
-638.520752 835.481873 -315.390106
-626.238037 792.044495 -288.031158
-690.026550 478.468811 -70.296051
-615.135376 576.870728 -27.816000
-631.242615 605.887512 -84.853683
-586.652832 676.981262 -88.722427
-489.256134 867.024597 -104.322426
-484.278076 905.713501 -179.683624
-562.534790 752.881226 -140.687042
-637.335876 645.954712 -172.885132
-695.047180 571.755188 -206.491745
-495.445435 781.876160 -52.465652
-645.607971 705.901550 -245.682098
-534.460144 765.251282 -92.082283
-610.682068 689.216492 -136.581573
-655.793579 731.778870 -299.152649
-607.701843 671.214966 -146.984818
-639.796936 696.076477 -370.793213
-640.592041 525.164978 9.214983
-660.714355 747.219788 -341.308899
-566.801575 794.042053 -181.009979
-598.442261 559.944763 1.069873
-578.863586 845.974487 -256.140259
-464.760803 932.296814 -171.504059
-666.835388 838.910278 -354.282318
-682.876099 548.336365 -155.916473
-675.085327 775.163574 -318.197266
-512.875000 808.535400 -88.589661
-704.323303 632.416565 -344.780029
-509.671265 906.871399 -199.101761
-603.291931 852.297363 -291.347260
-701.955078 577.295105 -185.486450
-650.943970 780.545898 -346.845490
-680.237793 636.691162 -217.031555
-539.285950 677.988831 -42.762497
-652.100586 625.687378 -153.408722
-651.821533 639.514709 -182.132050
-573.124023 618.277039 -62.301121
-639.822571 683.214600 -372.914215
-733.590332 656.525513 -294.435669
-584.844727 851.820984 -266.726563
-569.915039 657.409729 -50.639267
-630.082153 494.675385 -14.554531
-722.460022 629.054199 -324.185852
-706.513062 662.680237 -318.517181
-651.491882 592.827637 -106.549530
-474.488251 888.474304 -122.951447
-540.995728 896.595276 -220.197281
-528.048340 763.479004 -77.981026
-602.550293 821.546204 -286.054749
-574.037354 728.830811 -145.111237
-657.422607 694.741150 -262.974854
-634.537354 762.391174 -263.111786
-644.768005 485.754486 -4.077097
-610.754761 535.071167 -9.297671
-661.432922 471.263794 -50.088211
-702.118835 835.863464 -326.842468
-529.113037 755.086914 -50.112579
-644.718811 602.070496 -141.653534
-712.043457 643.857239 -314.578125
-703.605347 482.963440 -116.576599
-495.546204 757.405090 -57.486923
-625.940369 638.094482 -132.359940
-593.021484 785.888306 -228.699463
-732.482727 634.854614 -318.813141
-565.170166 780.256714 -149.035400
-547.898376 720.882507 -117.588173
-506.625153 893.171631 -165.110794
-567.659912 781.985168 -165.503723
-611.903931 751.109070 -226.077240
-730.993835 550.613403 -209.362228
-461.286255 857.812988 -54.287346
-605.356384 660.434326 -126.261917
-482.900757 932.757507 -169.920685
-564.548523 757.827087 -143.658783
-639.928162 691.806641 -198.782486
-664.533936 589.848022 -166.529160
-727.678955 578.168030 -244.599533
-691.566345 542.549988 -182.604065
-579.647522 607.909302 -30.341381
-677.523560 712.643921 -330.292206
-670.843933 672.134888 -269.452515
-669.594543 719.105835 -303.850800
-643.660828 520.550110 -61.135777
-538.974182 648.947021 -54.770073
-554.680237 840.778198 -233.408691
-743.193787 490.266235 -174.773636
-609.379639 889.820251 -327.378326
-640.652466 587.854919 -119.770119
-635.876526 885.090881 -351.345184
-579.094849 819.333801 -232.843170
-636.655762 665.285217 -191.819977
-491.842255 833.257019 -80.230301
-691.247559 540.388428 -160.424820
-460.283051 880.457153 -69.916100
-701.251831 565.106567 -195.255905
-687.266785 472.947510 -63.172047
-551.651733 671.255737 -75.256325
-670.041626 753.001953 -290.565155
-555.931030 675.776917 -53.838135
-656.128662 550.673218 -132.561920
-588.213623 663.102966 -71.285881
-488.161224 820.342285 -81.593735
-619.736084 674.697937 -160.727463
-524.621704 796.474487 -116.998138
-615.848145 703.779663 -166.055008
-587.570496 904.951904 -330.589355
-685.928467 635.399231 -239.911240
-570.748230 679.571594 -56.709194
-662.894470 850.282227 -354.305115
-675.253174 715.377869 -269.334625
-564.551697 710.391968 -103.570320
-694.638062 482.069855 -67.489807
-641.299072 512.568787 -16.277197
-659.927124 646.407349 -216.125702
-607.507935 635.122253 -108.004997
-638.097290 681.186584 -240.520020
-615.529602 667.205322 -141.286438
-650.684875 572.270447 -107.156754
-718.142090 607.746582 -258.567688
-647.203796 931.576538 -341.153351
-446.205414 901.712585 -113.038887
-521.531494 935.503113 -237.987610
-541.131775 769.337158 -121.685577
-669.497925 690.163513 -366.960632
-640.954834 751.860291 -375.814758
-517.226929 824.828674 -172.773560
-611.664307 636.168152 -77.945480
-689.587524 529.898560 -148.410934
-538.639343 732.994507 -85.663109
-584.944580 608.911316 -54.068668
-533.408997 692.514282 -27.369230
-622.834167 628.723633 -93.081108
-651.555847 575.022339 -125.986008
-684.614563 680.235352 -285.972992
-443.586548 914.888672 -65.679497
-584.355103 747.399170 -177.238754
-608.944946 614.464111 -101.426331
-476.546936 869.201782 -92.790466
-721.352234 615.762695 -251.916092
-599.329773 849.199707 -281.941010
-601.140564 623.084839 -76.522507
-617.969604 554.929260 11.718797
-615.599060 676.728638 -165.991730
-677.483154 621.247070 -209.672729
-544.850830 840.509338 -205.526947
-645.502625 635.727905 -371.455414
-630.597778 759.780823 -257.245209
-618.843262 860.539001 -330.321899
-641.942139 563.394287 -114.326500
-568.160583 659.779724 -65.662964
-709.827515 563.974060 -225.634308
-576.734619 872.599304 -275.776062
-600.651489 617.235718 -68.322777
-771.082458 557.977661 -257.749023
-673.662781 520.629761 -115.129684
-610.569580 914.779358 -343.957581
-639.489258 748.622620 -246.207184
-695.047791 662.143066 -329.532684
-600.650696 660.839844 -95.963142
-674.080017 715.691772 -281.170624
-516.701111 901.141724 -228.320618
-546.749878 806.133850 -144.528748
-515.151062 848.073669 -136.396423
-497.988068 830.385254 -142.757980
-577.475037 739.703369 -194.223618
-575.675232 924.004150 -310.507935
-660.108948 474.727875 -22.625360
-712.903015 547.249390 -212.575638
-624.197021 677.746887 -171.690018
-567.030823 771.834351 -168.543243
-656.976746 753.102417 -370.142365
-546.286255 712.207031 -70.521797
-522.833496 782.830078 -104.143471
-558.085327 835.046326 -196.895325
-604.566223 795.139893 -243.395050
-554.362915 705.369812 -53.098293
-497.874176 845.564514 -112.388245
-577.609192 723.277710 -127.343033
-685.522278 637.931641 -260.468964
-539.371582 901.804260 -224.294662
-457.225250 898.529724 -112.822334
-592.094177 834.460754 -280.805389
-648.863770 672.250427 -235.696884
-606.007874 541.280579 -2.931938
-580.223877 657.174011 -68.794296
-541.676453 866.791382 -200.206558
-659.151123 501.979523 -57.274841
-617.397827 562.859741 -41.440575
-621.088196 639.195251 -109.256393
-642.877686 524.046143 -62.089241
-509.914612 732.122253 -60.293224
-572.482666 786.324646 -194.189987
-479.937988 835.587219 -128.437119
-478.631775 931.370667 -158.155487
-595.927917 607.458679 -48.702507
-621.329712 536.718384 11.883101
-666.256714 529.309570 -74.540192
-610.842102 652.005920 -118.685829
-668.101074 717.330383 -350.232147
-642.689331 551.119263 -69.719017
-663.891357 579.595337 -114.821228
-697.242859 624.263672 -236.042709
-685.544312 519.068481 -112.803009
-508.801788 898.209351 -212.379868
-655.676331 475.434814 13.330688
-605.880005 683.475342 -147.818390
-478.702240 839.614502 -75.601280
-669.642212 753.079956 -314.143616
-694.011597 706.903442 -323.845123
-548.909363 882.292786 -237.053818
-507.552216 832.984131 -100.129799
-579.664612 883.235779 -280.181458
-594.807373 605.525208 -68.244797
-589.357849 691.745605 -98.559250
-671.973450 547.977539 -108.351624
-662.533264 555.407837 -94.115593
-453.449738 880.703003 -66.203018
-572.068420 739.076416 -139.108139
-598.135681 750.399780 -194.630569
-572.414001 778.051392 -187.250153
-691.456970 485.690918 -108.625679
-632.317200 538.790283 -42.458256
-674.300598 524.913757 -75.113777
-557.529175 860.567383 -218.733307
-704.194397 659.131836 -315.880188
-628.260803 577.869263 -84.282021
-569.932251 775.055359 -148.070969
-676.018005 684.401428 -357.899841
-686.671265 598.349487 -216.137375
-609.180298 616.977417 -52.662811
-613.024597 655.021484 -151.403488
-496.985046 860.357727 -118.586014
-610.548584 859.060181 -319.057709
-689.089111 621.603333 -205.095978
-670.666870 741.597534 -324.591858
-686.460022 673.182800 -275.268646
-602.036316 852.004456 -306.945984
-548.658325 776.518433 -144.461365
-525.103149 828.975586 -127.660057
-741.202637 490.481293 -156.369583
-644.687927 690.488159 -370.444489
-722.838135 638.911377 -329.737335
-653.786987 778.017639 -362.966766
-498.649750 857.053345 -172.505814
-559.826111 797.071167 -171.185532
-564.427673 632.091614 -17.948158
-676.965149 545.926392 -146.397568
-619.017151 518.121460 -10.995455
-564.548706 842.571716 -218.119476
-598.011597 795.645325 -225.380447
-602.426025 754.573120 -250.691147
-702.424805 558.589600 -173.218430
-711.897278 655.279419 -298.174591
-675.868286 620.594727 -213.492599
-561.030945 908.012878 -300.805847
-568.359314 756.293213 -125.612694
-580.149963 619.329895 -32.385941
-738.255188 561.983154 -242.410294
-656.199951 500.227478 -65.671303
-583.497620 814.332642 -263.298340
-687.790588 585.095825 -179.179001
-646.894470 779.307251 -325.525970
-570.588196 757.221863 -130.397324
-610.422302 619.735535 -66.598335
-608.509399 544.400085 -14.240385
-680.693787 676.047241 -258.510986
-635.618469 721.362610 -221.249771
-635.785339 701.799255 -233.238602
-607.383179 547.728088 3.488708
-441.422302 905.956360 -75.069313
-482.049713 817.868774 -56.024452
-697.779175 675.289734 -338.001129
-536.270203 867.787109 -192.175949
-665.479187 765.795349 -358.186157
-496.841125 855.305298 -129.094666
-659.613220 838.870239 -350.833160
-614.874146 615.066772 -95.108986
-650.914856 635.019531 -160.463882
-512.424072 863.441040 -137.451416
-528.539368 896.933167 -221.195007
-725.399780 513.554749 -193.193878
-567.215149 872.445496 -266.078339
-556.013306 758.241760 -131.795563
-644.899231 771.006287 -375.035889
-668.792786 479.430542 -59.852787
-545.525635 690.939026 -43.798397
-725.501099 637.235291 -299.030609
-525.497070 893.658508 -190.779510
-749.950378 512.931824 -213.583313
-659.228027 607.801086 -145.761002
-668.315247 659.806152 -367.502319
-449.472290 883.342590 -69.858032
-707.392456 681.084656 -278.466858
-557.886169 758.359619 -126.509483
-527.511719 808.062622 -106.054680
-623.695374 734.692505 -213.945114
-693.513550 608.703796 -344.759064
-577.438721 743.727051 -139.598312
-697.198181 623.252258 -257.812805
-474.721741 886.795715 -123.608765
-455.601929 867.483521 -78.722206
-526.006348 905.636841 -215.866135
-560.969604 851.936768 -262.672791
-510.049835 915.179626 -196.987045
-671.400635 479.429352 -64.482559
-636.410034 675.422119 -186.113724
-565.052063 691.797852 -82.523682
-598.947144 526.796814 -26.441906
-448.785675 904.370972 -94.651047
-492.992737 800.492554 -40.810219
-516.258789 870.210999 -179.922302
-687.256775 753.424500 -335.885437
-553.276001 709.490906 -57.167110
-573.403198 689.708191 -89.458351
-724.051270 514.033936 -181.190460
-595.701050 844.854492 -303.299530
-592.332886 791.336182 -226.880508
-545.172729 681.810364 -29.810207
-468.042969 916.182983 -162.955521
-613.092773 689.663391 -141.538498
-604.521729 659.042114 -89.912987
-556.134155 800.592957 -161.885529
-646.715271 682.710632 -201.816849
-508.403870 883.430054 -197.946335
-545.014282 853.980164 -252.190201
-551.126465 641.309570 -65.718903
-654.235901 599.878784 -153.537399
-566.373108 887.532227 -258.039520
-693.733521 662.257324 -338.641174
-645.404236 645.490540 -371.262177
-485.608917 907.109680 -145.891510
-528.029724 910.775635 -219.975204
-515.485168 885.853027 -180.143295
-653.313721 642.553650 -213.011414
-444.335724 867.912537 -96.034317
-602.284424 923.456299 -335.180969
-675.700562 588.704956 -206.866653
-582.912964 809.622131 -221.080719
-517.816956 747.425903 -33.942924
-707.078308 617.654297 -252.213043
-557.926453 886.515320 -309.935333
-591.360474 841.324890 -282.940796
-661.722168 662.920166 -205.317886
-755.597351 501.902161 -235.459229
-710.036804 536.997925 -162.694489
-592.243530 626.020020 -64.206993
-438.787506 901.877319 -77.441277
-641.097229 828.818604 -358.444702
-570.463196 842.153442 -237.642090
-664.940796 581.857605 -117.480560
-479.462372 892.434387 -151.998215
-494.121887 923.076294 -181.302811
-537.081787 701.585571 -34.096600
-644.915222 603.026794 -114.252487
-692.575623 690.629639 -323.670471
-650.863159 651.018860 -204.354691
-479.749573 890.532837 -138.592514
-444.805725 912.516357 -102.135124
-470.971985 926.753479 -141.756439
-609.209106 775.742981 -232.157791
-561.323303 750.977600 -145.811417
-505.789276 865.189392 -143.221375
-527.998230 878.750854 -189.091156
-571.245361 633.822205 -79.542587
-666.994263 496.843475 -29.816368
-481.976624 858.294189 -89.989693
-671.221436 743.105835 -340.025635
-702.071228 610.383423 -255.031723
-529.961182 777.162964 -98.708656
-663.540588 484.418762 -83.465187
-650.353516 620.502014 -187.638458
-545.395935 818.745789 -158.335480
-572.376282 717.135498 -117.421379
-632.366638 757.894348 -284.055237
-644.031555 553.554321 -92.212044
-636.838440 582.241394 -67.294876
-664.345398 818.313354 -360.584991
-488.277893 905.261780 -199.835693
-661.230347 780.671753 -347.730774
-626.057251 640.672363 -147.169983
-455.242950 897.712219 -80.505180
-676.295166 545.308289 -137.409363
-626.290649 707.537354 -211.556549
-676.549072 821.632385 -321.224091
-691.630127 521.381653 -101.503700
-667.565796 787.379028 -311.908478
-661.476013 773.515991 -314.584351
-553.000000 787.080322 -134.515244
-506.748810 802.848816 -60.028049
-739.214233 635.613281 -292.812958
-655.591187 486.322357 -36.115547
-435.857239 881.572632 -74.008286
-648.968506 659.802490 -215.764679
-626.921814 899.774231 -330.325195
-667.229065 720.556885 -363.418243
-455.029083 865.151550 -114.451225
-618.965210 657.503296 -150.425980
-535.302185 812.010071 -124.460472
-634.188171 683.081604 -177.817047
-605.134277 896.350647 -336.804138
-482.392822 831.505859 -95.895752
-722.586731 629.537415 -327.883942
-521.571350 842.154480 -161.351791
-714.819641 543.287903 -204.199402
-551.115479 708.474060 -74.095100
-661.194580 742.114258 -364.299652
-457.486633 878.579834 -108.689468
-534.382690 797.160156 -132.605270
-481.564514 819.307495 -44.164005
-685.616821 826.456055 -330.080872
-669.698853 688.024292 -265.107178
-548.121948 790.799072 -129.765732
-671.746887 531.096497 -89.690292
-453.746063 893.022034 -80.478676
-707.702332 581.250732 -245.677490
-756.126465 510.193512 -221.403122
-646.775635 674.088684 -181.449051
-577.363831 874.314087 -285.284149
-529.818237 707.644714 -28.740473
-600.469177 575.406067 4.658211
-490.307892 809.579651 -60.595993
-600.800476 785.597839 -244.039871
-669.044373 683.395813 -360.633301
-562.660034 876.658936 -238.621872
-503.158844 885.771423 -218.379532
-567.923584 905.842163 -297.636078
-443.026459 885.549988 -86.336006
-651.546814 838.991089 -356.021576
-619.442139 661.270630 -127.085121
-593.237000 892.663208 -320.107178
-623.322266 724.505981 -222.285522
-611.013123 643.439819 -129.067825
-643.761780 656.362610 -208.411713
-513.338562 898.288574 -175.506821
-554.447754 942.638855 -305.734772
-664.070068 682.804626 -349.921814
-604.670715 655.031128 -116.602455
-560.402344 755.934631 -122.834282
-645.848816 514.506409 -47.088970
-456.323334 893.559937 -84.486778
-606.968933 899.971313 -341.194183
-613.488831 780.763916 -259.308441
-572.661316 851.660889 -248.912292
-443.303894 925.341187 -100.869759
-648.818481 783.461060 -315.278900
-650.827087 655.437256 -210.625366
-656.315002 846.996765 -351.478577
-647.794983 590.100952 -145.317001
-480.591736 889.848938 -125.837212
-673.875183 706.071228 -264.825958
-673.876831 585.070923 -140.203857
-475.991730 882.048584 -94.624298
-591.340027 599.546997 -36.816956
-634.954651 706.268433 -219.238525
-650.792419 546.998596 -91.984138
-609.219543 567.821228 -69.029167
-642.731262 487.760071 -24.960192
-657.390564 798.301208 -304.946350
-586.168884 853.119263 -279.547333
-540.591736 741.105713 -65.009819
-587.330444 647.368958 -83.419678
-604.353210 663.805664 -95.188187
-533.684631 731.693665 -99.459328
-516.450684 835.654724 -182.147171
-517.654114 762.401367 -81.006897
-647.206482 741.571167 -358.234955
-615.793945 726.390015 -213.930084
-621.282043 775.977356 -272.333618
-609.898865 655.681580 -95.738213
-509.026825 913.157776 -190.090057
-550.552979 888.144409 -230.496414
-599.656250 869.051758 -299.818970
-646.262878 915.576111 -343.378571
-540.782043 762.037781 -120.129868
-664.549805 673.097717 -221.710022
-662.603027 736.451355 -361.266876
-653.059326 519.678223 -76.071815
-599.838928 816.036682 -269.260254
-701.167786 692.020813 -293.103851
-489.945618 915.840210 -162.038116
-456.391632 872.133789 -74.825462
-524.190369 903.614990 -244.452881
-661.807678 633.311279 -178.159180
-580.373108 793.481323 -215.008759
-617.227600 765.863831 -236.111862
-630.592407 656.833862 -161.336990
-652.765015 758.330872 -362.350342
-538.877686 823.345215 -216.456299
-619.874390 509.050049 -5.843114
-482.461151 914.327148 -154.563919
-654.869751 583.214417 -129.501709
-559.964111 789.251526 -149.143997
-630.095886 710.525574 -214.096558
-447.143188 905.081299 -77.581863
-527.691528 725.891357 -62.037750
-653.413391 564.033447 -86.694183
-652.144470 547.328003 -111.364960
-504.876373 920.654419 -194.712097
-668.958130 685.262512 -244.500916
-722.085632 660.767700 -320.619171
-688.847900 634.673035 -340.840088
-539.119019 742.896484 -87.838539
-554.443420 798.088501 -149.272980
-523.268372 778.197693 -105.460365
-594.543335 668.579590 -112.826111
-648.254822 588.995972 -133.017578
-578.679688 688.950134 -98.713821
-628.696655 554.848206 -28.715525
-552.295715 699.070923 -67.582359
-545.510986 854.442566 -231.799927
-676.500671 766.951050 -328.283386
-659.102051 732.056763 -329.662109
-564.260437 871.619568 -250.315277
-658.792419 741.213806 -364.339569
-583.965698 715.585266 -133.450928
-617.217834 634.075989 -118.796799
-627.746277 546.806458 -50.555008
-518.977600 756.241455 -45.710907
-738.338257 646.604736 -301.474182
-573.392578 702.085938 -75.893784
-517.317688 803.455444 -96.564621
-596.421936 562.560364 -6.913763
-485.142639 909.930664 -160.865112
-603.389038 694.737305 -127.999382
-577.364258 852.238403 -255.782669
-621.152893 598.230835 -62.145954
-643.723022 753.282715 -271.789063
-648.390808 676.326477 -366.563721
-640.159546 729.609558 -227.421646
-521.850403 795.821655 -90.392693
-502.979950 807.489990 -103.542908
-579.188965 818.776855 -217.395660
-665.730103 512.998230 -60.892754
-504.679474 740.643555 -43.230923
-463.135254 868.417908 -77.376701
-668.409485 504.579742 -45.792511
-529.309021 805.953064 -131.961487
-711.097351 534.733948 -193.883362
-585.245422 933.214233 -344.608063
-607.505493 745.042664 -194.459991
-543.076843 925.969360 -261.719421
-496.727539 885.875122 -177.090454
-561.890869 924.506592 -312.527557
-608.527832 587.682861 -27.365097
-532.288757 734.172485 -61.404392
-589.864929 608.602478 -47.628464
-663.385498 776.849243 -324.378845
-567.985107 841.070313 -219.461029
-570.375488 830.165100 -228.105469
-658.969666 616.131775 -199.832047
-468.133209 854.192871 -54.222282
-702.834229 599.871826 -255.903992
-525.286743 816.589722 -128.617722
-726.687195 538.645325 -225.731018
-623.964478 603.006226 -79.959343
-590.633545 537.244690 -13.872187
-467.637482 850.307800 -62.845787
-663.574890 861.906494 -323.383942
-597.660522 794.358887 -244.749268
-684.504700 513.441956 -84.481674
-559.454956 772.953735 -131.079498
-555.891724 792.542236 -141.080566
-707.722351 508.226257 -130.789871
-504.659149 832.382690 -110.592773
-678.212524 697.599976 -331.644775
-636.148621 510.273438 -39.085873
-734.353271 487.655884 -135.572220
-693.239746 496.311798 -129.145126
-678.868469 483.677246 -83.903465
-558.202881 685.175720 -42.582752
-689.937500 534.588623 -154.069656
-589.267090 671.613037 -109.989761
-498.588684 872.478088 -153.950668
-673.638977 576.295105 -168.022949
-586.329102 738.689758 -166.162872
-690.520935 585.137207 -184.268494
-525.780457 924.599426 -236.265076
-562.249512 880.691772 -310.940094
-680.828125 538.134949 -122.652702
-686.525574 701.763367 -338.711823
-487.630188 918.642944 -163.152603
-614.845398 749.520386 -238.983917
-636.218628 724.408630 -226.939529
-582.686584 590.785645 -26.314829
-623.572815 681.888428 -187.024780
-755.367920 619.573792 -313.437592
-602.067993 609.035156 -69.786247
-573.924622 900.577576 -317.372681
-692.301331 656.198730 -343.602936
-661.166931 804.689697 -309.260864
-521.742126 775.602844 -92.428383
-576.801392 920.366516 -315.689514
-589.373962 810.029480 -246.240768
-502.110535 803.795532 -74.172569
-629.003906 739.354004 -375.185577
-472.960754 873.917664 -159.074356
-547.870605 795.135925 -133.495377
-685.043091 697.811157 -345.624115
-522.700134 769.798157 -80.137810
-467.701080 847.660645 -118.238594
-686.441040 557.292908 -141.373657
-629.852112 631.812561 -144.950714
-656.268372 734.980042 -364.128784
-559.339111 823.478516 -189.526672
-651.284363 513.790771 -30.718451
-704.002930 520.677307 -135.647171
-474.561890 826.459534 -71.370949
-467.312988 890.943909 -101.538040
-574.811523 879.060364 -279.939240
-553.148621 736.714844 -75.153549
-538.908264 805.790039 -142.367020
-565.831482 712.718872 -99.371727
-618.211487 768.613403 -261.704865
-659.032471 788.475159 -350.041443
-644.473145 570.966248 -72.236404
-571.688171 627.563477 -43.923233
-719.042664 552.473267 -244.779617
-556.428284 704.046570 -71.543106
-665.194031 538.646912 -94.288750
-625.451721 628.307129 -96.010056
-629.644897 549.655212 -80.352226
-655.600586 701.609497 -237.948074
-705.798035 697.801880 -320.079498
-679.463806 517.636230 -80.830521
-705.866821 684.026672 -309.578461
-564.460876 679.185974 -43.111835
-577.540894 724.312683 -173.480377
-539.039795 772.945740 -90.649956
-669.757019 807.852295 -344.173584
-445.998138 909.530762 -82.699562
-617.518066 617.892822 -108.455719
-619.858643 619.716797 -104.846657
-553.434387 769.077637 -131.080490
-575.182556 761.841431 -149.312241
-584.826721 836.749939 -268.992310
-496.395294 897.300171 -190.623505
-579.120239 719.248901 -138.326553
-722.609985 514.492981 -169.218933
-620.023621 799.877747 -286.033234
-579.519958 655.646423 -34.035496
-727.712891 491.208130 -209.556870
-506.946838 906.739685 -179.548309
-518.080139 904.225769 -211.005447
-487.201385 831.291443 -73.983894
-700.725098 653.926636 -348.254120
-557.830139 676.259338 -58.065639
-718.684204 479.877411 -127.021667
-781.018311 601.387329 -278.627930
-653.735291 683.548950 -249.372635
-658.218567 570.296570 -133.960907
-635.457275 697.072571 -226.773163
-655.233521 607.996948 -183.480896
-551.220947 666.291321 -39.351116
-600.654846 555.364807 1.364026
-625.162231 497.781189 -29.690716
-530.869507 869.243774 -184.152298
-606.450867 749.008911 -189.165863
-636.391479 772.179321 -378.865112
-652.733093 760.170288 -363.773407
-484.616058 891.179932 -125.429916
-675.033630 733.076355 -350.380615
-656.261841 691.365784 -246.616409
-529.022766 723.769897 -30.959045
-694.803101 643.798401 -241.380020
-650.621765 905.702271 -341.272003
-488.015350 803.042480 -75.824638
-568.004822 848.834778 -239.879517
-475.084167 863.536072 -90.090050
-723.337585 600.052429 -313.621857
-606.560181 776.108093 -245.241104
-589.943542 801.526245 -241.166046
-540.228394 883.617310 -232.537216
-694.654053 691.588379 -327.292419
-525.984192 753.240723 -59.342541
-693.729370 676.890198 -342.152557
-650.528870 551.097290 -83.437515
-579.211426 755.767456 -164.599838
-625.734131 749.995911 -381.685852
-534.740967 750.374695 -76.197334
-594.595642 578.462830 -18.768171
-609.081177 812.794800 -278.752563
-693.695740 565.038025 -196.958313
-451.203308 858.550293 -66.240707
-708.362610 506.896240 -165.479050
-520.778870 884.594849 -187.060989
-570.417297 664.558777 -69.408478
-614.544556 689.130859 -147.904449
-482.405945 864.274109 -105.214722
-604.098572 613.333679 -91.775581
-554.407715 646.428345 -16.970518
-674.233032 591.822693 -184.150833
-514.243530 754.868591 -36.879429
-676.900269 712.513306 -280.218750
-669.870605 679.008911 -344.286926
-590.176025 672.738403 -108.587425
-688.448730 653.901001 -337.194427
-587.223511 625.177124 -17.774250
-490.970093 783.291443 -92.995934
-617.404541 705.403687 -168.150604
-707.213318 548.632263 -161.691254
-661.401489 658.885742 -232.896942
-665.910767 594.124634 -146.255005
-587.207458 760.423035 -202.259277
-632.495911 639.791138 -145.761230
-669.649475 596.517151 -179.086700
-664.144531 684.004272 -276.092072
-501.435303 778.037659 -61.271027
-695.578674 626.798218 -346.625122
-718.407715 621.457886 -331.057617
-626.530273 497.618958 7.086358
-551.924866 646.927551 -21.452684
-703.691223 558.088745 -237.830734
-490.323273 910.034546 -160.297897
-460.742126 884.173706 -110.229561
-556.777100 807.936646 -186.407272
-659.725037 740.022156 -294.777008
-450.491180 884.938416 -97.049149
-632.898438 680.865906 -185.060181
-515.850464 848.847961 -147.368866
-669.500183 611.493591 -215.442657
-689.633667 590.188232 -184.049698
-573.052551 610.064636 -26.179171
-487.468475 899.968445 -198.225677
-643.765747 534.402527 -90.883583
-584.362732 786.633057 -250.956650
-493.762054 895.387085 -144.584534
-580.627930 604.134949 -29.752579
-557.202393 695.258606 -65.608047
-722.038818 548.752136 -241.995041
-633.922852 682.727173 -207.562149
-663.870911 838.940735 -354.204865
-626.750671 606.497925 -122.491760
-585.385193 748.919189 -156.333801
-605.680725 828.481750 -289.731140
-594.485718 743.415466 -187.500549
-682.563599 604.986267 -219.502029
-562.298889 777.304626 -147.087891
-524.998901 713.981995 -43.554756
-491.709076 863.124451 -100.783195
-714.072388 571.567383 -221.924088
-556.869690 787.710266 -203.417755
-719.716064 665.128174 -295.642212
-524.144836 856.765808 -178.259216
-671.143921 853.594116 -330.869629
-609.058472 744.268616 -189.173615
-584.997192 828.722107 -277.308319
-703.466187 560.395264 -214.400681
-554.958801 704.288391 -54.334904
-730.311340 522.782715 -178.554443
-490.721344 914.815063 -163.686600
-442.464111 913.220398 -146.222336
-610.319885 779.906006 -259.715576
-748.383423 631.740356 -281.440155
-561.559937 905.293945 -285.673035
-515.745422 735.160095 -41.446732
-457.025604 933.091431 -106.063126
-680.389343 505.926575 -114.513710
-645.540771 612.072021 -154.401138
-624.363403 547.516113 -15.884359
-661.158264 734.408813 -355.979340
-534.973694 693.009216 -62.149406
-595.519775 639.320801 -118.645523
-605.895264 604.273560 -50.629345
-632.309387 658.857361 -176.482407
-631.868958 579.380371 -94.452782
-685.415649 656.253052 -248.319000
-681.622009 662.104309 -361.731323
-720.945679 632.948486 -334.865570
-700.322876 550.965576 -221.766647
-670.289368 553.253845 -178.563248
-675.734192 561.772400 -125.859665
-534.746094 913.687378 -241.386658
-620.649719 780.340332 -252.337952
-647.140320 698.156982 -234.979065
-635.591125 917.369568 -339.456177
-619.845520 747.653198 -237.444275
-701.891357 498.521851 -117.185112
-537.197754 897.825500 -242.249115
-676.017578 586.387878 -217.214203
-613.674377 821.320984 -294.323395
-702.535461 660.323486 -282.713745
-437.216919 930.560608 -99.162216
-542.209717 741.004089 -94.086212
-593.035461 561.457031 -9.955100
-633.641418 489.663422 3.074192
-657.617493 724.919128 -277.765320
-571.432983 913.095581 -308.278046
-450.706238 931.731934 -134.303253
-545.019592 929.395447 -270.070679
-501.821411 863.532593 -136.889481
-529.925354 839.613220 -187.600052
-631.430298 682.627136 -188.598831
-708.062073 496.733704 -154.683365
-685.742310 660.841553 -335.307007
-623.765503 619.919373 -108.968307
-578.841858 815.094910 -216.800034
-668.711670 705.642151 -343.264893
-704.142395 617.383667 -273.546112
-787.302979 611.738037 -282.013794
-703.551880 529.493896 -180.816818
-513.608459 790.120544 -58.532360
-503.475769 895.505920 -200.731216
-709.649475 527.823730 -218.565857
-643.817383 548.596436 -87.155937
-560.490173 868.683960 -225.538971
-506.390106 919.595154 -211.948273
-530.445862 862.465637 -174.813858
-637.656250 798.577942 -359.161072
-498.302185 774.468201 -52.107288
-594.926086 798.417969 -229.204117
-515.421387 728.315491 -58.290592
-623.104553 934.283630 -343.203461
-541.672180 733.838013 -85.244469
-677.373840 739.660278 -335.870605
-627.418213 709.818665 -218.462219
-648.041199 772.509705 -354.211273
-641.213989 781.971619 -299.954224
-665.041443 710.544983 -360.311707
-715.266907 476.601501 -116.492348
-505.220947 801.510071 -115.218323
-481.296661 869.686951 -101.233025
-539.778870 880.501953 -214.054398
-592.363037 566.410645 -35.947239
-523.639221 792.768005 -122.959045
-640.980225 550.242371 -40.582493
-504.118500 764.738708 -44.352440
-701.842712 582.379028 -230.024155
-754.160034 620.727234 -297.368652
-664.890991 696.472412 -345.103027
-697.595154 482.585144 -122.363960
-717.292419 646.474854 -334.698853
-548.452271 894.129944 -296.863861
-633.631653 675.281921 -169.048447
-750.819946 555.244812 -253.517136
-673.304504 835.843506 -340.451843
-534.077515 736.836121 -82.115738
-565.039307 826.689331 -201.101273
-622.373169 634.720337 -97.549713
-651.699829 732.502319 -284.064484
-487.484833 829.866882 -92.804932
-600.663330 747.287170 -214.157883
-627.931213 681.980469 -199.661743
-583.850464 673.571350 -96.338547
-678.520142 736.917480 -318.161316
-722.299927 502.214600 -186.411118
-630.610901 570.991333 -83.291756
-563.003845 667.901672 -56.341259
-494.600311 847.604858 -101.032738
-620.288818 508.420227 -29.307545
-623.008606 536.322937 -40.220871
-681.369812 551.521118 -125.690598
-651.152039 673.619995 -365.049957
-472.010956 882.769897 -99.860825
-532.345337 790.831299 -160.115906
-546.398865 811.291748 -149.454437
-677.742859 663.482849 -341.113556
-714.196167 553.968628 -224.844559
-580.027527 618.843323 -53.660656
-684.337341 739.117615 -308.040344
-603.079041 877.579712 -302.333405
-685.247009 615.959839 -231.851944
-633.019897 897.650513 -329.986908
-475.937866 870.379089 -86.794960
-473.580719 869.183472 -106.422646
-658.236023 608.660278 -174.095535
-623.029541 576.380493 -74.211113
-670.633972 701.881287 -254.425049
-634.777161 494.780151 -23.671679
-612.834412 848.747375 -299.603027
-667.334900 799.253845 -320.617065
-623.712158 656.285095 -127.424744
-649.320618 724.300049 -372.629089
-631.759277 602.510315 -104.866264
-548.708557 918.474487 -288.879669
-595.821167 821.088928 -267.600677
-475.273468 842.074463 -86.839088
-530.928711 926.796143 -239.792709
-511.198486 911.324402 -190.097672
-718.329041 674.162292 -288.379425
-600.832336 636.517029 -84.862022
-679.907898 652.332336 -264.226807
-622.909058 780.992615 -257.746277
-517.183105 865.859131 -164.785568
-566.785889 845.246643 -224.723831
-463.844971 857.733337 -97.291351
-633.421265 538.656128 -59.259983
-654.803284 557.666199 -111.983673
-621.340332 774.990051 -247.048431
-553.737488 748.574890 -160.769028
-551.925415 896.667664 -307.173706
-665.613586 610.665222 -161.285049
-595.770569 746.700195 -203.804932
-494.616058 792.811035 -43.692440
-646.515137 676.740479 -213.098190
-445.531830 917.525513 -104.466614
-584.536255 724.544861 -126.445892
-516.374146 814.371765 -103.780319
-606.114502 755.510925 -219.745560
-590.242188 722.659546 -129.139877
-606.637878 743.907410 -220.020172
-567.068665 880.250854 -252.910080
-511.054108 808.810730 -104.136604
-686.091370 560.607849 -175.290146
-588.600830 715.388855 -124.445488
-633.619080 678.123718 -201.253510
-666.858704 673.851746 -240.517014
-742.518433 508.628967 -217.486328
-685.565430 734.933044 -299.218567
-633.598816 660.831848 -167.958817
-669.959900 634.491028 -217.008514
-581.002319 749.387451 -179.458847
-525.740295 819.888000 -120.860229
-563.152405 632.229126 -17.391832
-589.447998 612.049438 -11.620578
-754.996338 636.490601 -313.905151
-508.719421 914.471069 -231.903320
-647.307861 718.867004 -267.902405
-636.447937 509.265411 -20.827131
-438.938782 881.313171 -80.921616
-623.128601 629.392151 -140.179916
-481.480347 879.031067 -102.434792
-500.143036 850.623230 -130.578873
-650.638916 514.155701 -23.112198
-661.998840 486.667084 -52.027950
-462.201385 904.978577 -107.160149
-671.402893 584.897339 -135.179916
-737.843811 584.607727 -267.016602
-550.238892 730.149292 -103.177879
-527.625732 894.846436 -195.508850
-475.486542 848.278809 -71.323898
-550.826904 876.378357 -223.882721
-626.200989 731.775757 -245.972046
-598.833740 608.008850 -57.048038
-520.188721 747.281555 -55.806561
-477.528442 877.521790 -108.804176
-666.850464 664.789185 -249.813034
-605.062378 821.879211 -298.124023
-588.656677 676.923096 -116.883987
-634.336304 521.157410 -39.052967
-653.754395 657.785950 -216.844391
-665.480774 602.415466 -152.145920
-537.999939 774.576599 -116.569641
-719.464539 591.591370 -259.994232
-690.124939 681.161011 -263.943390
-548.057800 936.437988 -285.725647
-579.224548 742.506470 -157.198715
-620.983398 728.093079 -224.339905
-528.048950 904.347534 -224.684769
-578.854492 580.921509 -60.834858
-665.924133 707.372437 -289.333038
-576.728577 762.506042 -154.427719
-636.612305 726.431519 -248.724655
-528.360352 716.637634 -49.989368
-499.839233 839.381653 -89.434181
-440.362183 907.162659 -107.012962
-626.562073 673.001038 -171.516754
-513.557068 844.840088 -129.193375
-474.930054 925.461609 -166.200027
-530.634766 697.918762 -22.378994
-579.629639 627.044861 -71.405144
-563.431213 920.565308 -282.822327
-566.376282 853.998474 -234.865387
-631.038147 784.833252 -370.275787
-518.207886 892.213135 -180.941727
-699.916992 672.797974 -302.803436
-648.606140 542.408508 -88.593452
-697.674927 544.223389 -205.421417
-588.095032 727.409424 -159.461746
-583.184875 629.679321 -25.557173
-476.560059 843.796387 -75.842529
-607.324646 580.855408 -56.424625
-536.322937 771.950256 -86.164154
-647.200256 635.600708 -191.479797
-640.087952 706.543213 -229.796295
-637.972778 711.273926 -230.993210
-714.715637 701.783447 -297.160370
-549.065491 696.309937 -36.511246
-646.345337 497.573639 -72.924423
-554.444580 855.612610 -241.085403
-651.478149 658.808044 -186.032059
-451.493896 897.253906 -63.094715
-542.219727 730.402466 -73.134895
-571.602905 755.672180 -133.951813
-532.416138 777.951538 -103.340836
-713.833069 549.528870 -218.368088
-520.668884 753.602417 -71.022285
-602.932251 657.245789 -122.749840
-611.039917 724.746704 -203.613907
-489.526611 841.525879 -97.761604
-655.042908 678.552246 -255.633621
-530.071777 705.660583 -34.575912
-621.157043 665.354065 -153.550049
-550.204407 792.789978 -136.703949
-616.897339 515.302795 -13.770809
-599.336060 846.925537 -316.487854
-630.271057 537.547729 -37.818466
-651.257507 505.919495 -8.042487
-721.642883 516.958923 -195.544159
-809.212769 541.180969 -258.684753
-691.109314 506.282349 -134.623032
-580.804443 861.415833 -271.769379
-513.984497 783.341736 -87.596519
-733.802124 617.314453 -290.548798
-572.649414 866.024963 -270.786102
-669.303589 475.435120 -24.525120
-523.401611 749.719543 -68.563377
-432.662628 912.359924 -102.089890
-522.713745 811.170654 -129.918610
-663.532104 708.101440 -341.502167
-608.234558 708.266724 -156.831253
-542.872681 673.964294 -16.387325
-627.714722 725.205994 -244.731323
-467.371368 896.003174 -122.523270
-536.703918 901.075073 -224.828079
-772.007202 616.846802 -289.903900
-556.952576 869.841736 -219.803848
-524.829468 744.349304 -75.070145
-620.400085 573.150940 -92.107101
-547.692322 906.904724 -309.931213
-617.086426 725.621277 -190.602173
-453.320984 889.401489 -78.458893
-593.352051 625.420349 -21.103104
-568.880127 661.939880 -36.923958
-494.305267 933.634521 -187.400238
-589.601135 579.937500 -5.918008
-660.720459 757.407227 -359.587128
-485.261780 886.048279 -146.177750
-546.712219 823.338562 -198.314377
-570.359131 650.658203 -45.355320
-663.652771 637.232971 -216.086670
-650.784302 825.788452 -349.781036
-568.156494 650.164612 -53.029732
-546.862427 852.213196 -220.170029
-639.636597 477.744263 9.028820
-442.865692 884.236450 -73.420738
-525.786926 727.251038 -51.774853
-534.405884 789.120789 -111.974953
-704.605469 567.750793 -179.261292
-666.519348 814.780212 -342.739838
-702.453369 551.454590 -227.309341
-555.430725 748.324646 -119.935997
-550.579102 875.655945 -226.670532
-566.105225 726.629089 -120.171646
-572.621216 822.562256 -222.569473
-686.741821 685.487061 -339.175751
-651.396667 797.433167 -320.368286
-676.378662 750.692993 -315.926727
-634.775085 545.923279 -68.328842
-692.183899 710.946045 -305.772247
-645.337646 793.391846 -288.382629
-681.474060 577.761780 -207.962296
-479.058777 898.172363 -163.364044
-527.426270 927.049866 -248.990509
-467.419464 925.676392 -134.081619
-659.101135 757.740967 -343.719543
-574.019043 735.720825 -152.211624
-601.848328 701.936951 -195.838089
-658.865845 534.526611 -96.412315
-726.546570 619.524536 -327.602692
-709.047241 515.869202 -177.589020
-505.293152 904.705078 -182.811081
-780.688171 611.167053 -293.392365
-643.086243 766.076843 -381.406158
-662.456909 659.829895 -206.807037
-498.007416 849.865845 -109.324257
-553.499939 800.087036 -170.899872
-459.223114 883.268738 -68.608833
-570.031738 682.154724 -74.926460
-619.534241 604.823486 -94.976654
-703.530151 514.856445 -122.821106
-655.401001 706.353149 -278.378235
-646.104675 546.826660 -82.464546
-652.154846 576.848816 -98.929230
-521.788269 902.655273 -235.779587
-565.646362 678.727051 -62.370895
-655.431519 501.396057 -12.109373
-534.122375 758.682251 -84.963875
-513.760376 799.783691 -73.430885
-547.574219 797.870911 -172.057083
-725.336914 668.654175 -288.399109
-541.492371 703.602783 -21.850439
-452.989410 843.109985 -81.092636
-658.255371 766.866394 -359.763428
-587.202271 620.546204 -67.562622
-664.861755 838.582458 -346.270386
-659.621277 742.488464 -357.312836
-667.899597 677.536682 -373.179810
-624.826416 847.482117 -305.711548
-612.807190 732.999573 -204.353897
-566.614746 707.462830 -75.366974
-604.116638 583.918518 -85.326729
-507.776459 803.904053 -107.173538
-655.759033 590.600342 -162.355835
-480.526245 923.511475 -147.373535
-533.207153 756.342896 -99.890099
-560.377625 748.105835 -104.517754
-544.831726 727.534851 -82.808617
-582.562744 783.732727 -207.404663
-662.842896 553.960876 -136.637314
-579.789063 913.318054 -321.913788
-509.246796 831.302917 -115.383049
-686.642883 687.720398 -355.967438
-755.858826 488.043884 -211.791061
-568.059387 765.897461 -162.877594
-481.124573 911.716797 -151.713120
-648.921875 635.579102 -156.287521
-653.662415 750.233887 -363.722107
-567.980957 594.682373 -45.068905
-550.028076 770.351318 -134.557144
-540.735474 762.552734 -86.527382
-717.460571 657.822632 -330.983063
-644.528320 688.071411 -234.795410
-555.883972 941.003540 -294.607635
-541.717407 813.573425 -166.209320
-658.695984 677.497681 -228.651672
-709.049194 622.658752 -343.478516
-625.168335 762.876831 -263.374451
-626.467224 542.487488 -49.041557
-666.287964 828.579651 -350.629791
-512.790833 928.123840 -214.365860
-631.071594 554.189758 -27.492231
-553.358276 732.493896 -103.845406
-498.355469 804.404480 -104.476494
-646.748596 694.314331 -376.057404
-525.140015 798.009155 -110.571053
-542.052185 909.448181 -238.133652
-548.414063 880.356262 -227.146667
-524.244934 903.235901 -222.150620
-575.257874 673.284668 -86.415657
-735.438660 550.129395 -239.299973
-602.101013 712.763306 -150.858215
-575.643066 762.668945 -173.202820
-583.569763 708.943298 -129.857803
-699.577698 671.235291 -322.751007
-663.298950 488.192261 13.068439
-471.421936 875.540405 -91.768982
-570.107117 713.987488 -122.524391
-459.379944 873.366211 -89.587379
-542.471741 783.403625 -140.632202
-691.740906 671.157959 -357.162476
-681.390198 520.473511 -122.307526
-492.243195 807.345581 -61.523434
-712.944397 666.141907 -327.256409
-504.718079 774.903931 -109.946358
-466.675171 921.408447 -150.971619
-665.200195 537.596375 -131.207535
