ply
format ascii 1.0
element vertex 1433
property float x
property float y
property float z
end_header
777.938293 506.795319 -24.631861
833.712219 472.238434 -15.275747
868.979248 433.043610 -134.169067
732.599548 527.353394 -45.920078
625.567810 524.228149 -138.997345
978.338440 425.774109 -90.576576
859.410767 383.452728 -318.880066
758.236877 474.361633 -118.655220
834.570313 437.606659 -220.846954
584.120422 531.907532 -184.815475
841.616150 518.454102 83.087532
744.071533 489.708649 -152.252579
584.081116 500.777924 -244.626129
839.528564 444.700348 -226.740921
1000.629028 419.012268 -118.112892
854.335876 499.867188 114.622505
840.564087 517.372437 67.413940
922.036499 351.621277 -250.607346
916.749268 373.806763 -265.029663
709.815186 487.015198 -152.894501
890.326721 363.440308 -280.050812
953.419617 422.992554 -147.156525
720.328491 541.816345 -35.863628
942.874451 451.273041 -12.310801
992.917969 465.105652 30.521145
586.793274 534.575867 -173.612015
834.644592 484.474854 -32.327225
989.290588 437.954468 -70.023254
636.262207 525.455627 -142.294846
758.259460 423.295166 -380.584106
806.786621 510.876312 41.186970
803.521729 482.238953 -107.548401
882.370728 373.886627 -306.153503
887.957458 371.567596 -309.297821
867.813721 438.703125 -337.203552
648.000000 496.833527 -287.007202
804.679443 495.266846 -89.419556
989.883972 455.167328 5.716208
799.586670 498.900543 -62.125252
853.476379 473.960541 -59.004242
844.395691 462.656860 -99.753403
871.165955 420.938171 -253.045853
815.135010 508.032715 70.475388
900.084656 425.453583 -263.100159
833.485168 475.933533 -83.577896
874.975464 496.504456 125.743629
946.376099 369.620789 -242.356857
669.701599 492.001373 -176.920349
845.969971 489.071381 -25.297768
897.333130 438.909882 -179.611008
659.282104 521.409851 -160.843781
742.770386 516.968079 -48.370457
832.385376 470.603729 -141.957275
787.138733 465.674255 -234.353088
620.076416 491.596558 -245.087830
602.923340 511.687134 -283.277405
980.033997 361.616302 -196.241135
803.941162 482.082825 -133.588486
791.896179 520.877075 39.189217
903.648804 386.298859 -294.714630
615.571899 532.691162 -204.637207
700.337585 471.140167 -312.337555
928.217712 457.038300 -50.705524
573.951355 533.799377 -235.257095
923.823486 344.155853 -246.693222
713.981750 463.314514 -320.753479
855.597900 433.413696 -149.358948
943.339661 473.489075 30.238834
849.695129 496.146027 -26.496351
704.437927 497.567108 -224.471436
898.743530 448.406494 -146.444031
725.061035 516.256653 -121.559387
784.199646 495.780579 -44.611034
801.012024 518.837524 3.880717
968.566956 461.002533 9.075512
1006.078247 437.090302 -38.441116
628.487305 538.055542 -116.697678
912.501221 481.748230 4.210632
721.960144 463.973267 -333.773499
1038.811401 403.812073 -71.495277
1005.529053 435.447327 -188.851929
823.183777 463.389893 -164.195053
882.290466 489.461945 25.979433
942.911499 482.846863 78.023407
962.523499 453.229980 41.023605
704.545288 488.878021 -240.933746
921.088257 465.035004 38.307224
830.227478 488.426117 -75.456970
767.181763 522.141846 60.786343
911.964661 461.774017 84.534431
692.194519 445.781860 -352.240906
667.292358 533.679932 -66.890976
618.734863 523.331604 -179.209534
725.212769 482.771057 -152.396179
642.262329 537.774414 -140.368835
805.556213 513.607727 72.025833
762.240540 441.362152 -301.775909
962.523926 417.142609 -126.263840
827.844727 477.993317 -85.640198
914.613159 471.193298 52.456997
972.587952 409.240326 -121.991821
1009.475342 429.333496 -178.696136
710.983948 503.664429 -112.997879
865.373108 477.145935 -58.507111
641.283386 541.768066 -132.491318
906.624268 413.565338 -170.066727
852.295471 497.957245 92.425880
919.089111 419.467804 -149.374817
769.631897 481.612061 -137.657333
863.375916 399.370056 -333.046997
824.324707 437.890076 -265.900970
970.888428 434.089691 -17.666796
658.064453 474.331329 -277.160065
726.835632 485.570618 -174.641357
964.152649 436.766663 16.938295
656.664490 523.327515 -101.130882
964.703491 458.842346 24.656998
709.153381 466.929871 -204.598557
891.462158 429.343445 -283.147583
669.188171 472.670715 -291.837128
989.920044 361.093781 -186.942581
673.299866 528.586243 -143.131363
956.020081 323.939423 -664.880554
1019.150452 417.915253 -5.511285
922.668823 487.459869 80.942207
700.933777 510.045288 -175.621567
831.409607 458.461823 -136.059875
842.060425 440.559113 -372.760529
939.302307 443.561188 -86.552231
1001.314941 428.276917 -189.666122
908.435669 441.939270 -84.734703
660.489319 513.099915 -226.114700
943.873413 484.725616 74.357864
950.072998 449.744232 42.467117
719.027466 473.472839 -301.748535
921.879028 459.485535 -5.729096
676.185303 480.615265 -254.050781
651.826782 466.129791 -306.232086
709.147827 483.782166 -202.732925
869.158630 448.511505 -186.712143
659.386658 514.447693 -138.019135
940.328674 458.400269 36.918156
711.810059 493.544312 -159.886688
840.235291 420.062073 -233.915634
753.505798 513.420532 -31.134407
721.490723 493.024963 -149.576706
957.868225 418.403900 -149.431519
805.508118 447.373779 -229.349777
831.187622 456.437347 -168.798828
736.853821 462.335480 -193.290649
986.417297 406.085449 -206.150314
754.085815 512.861328 -62.762867
702.984131 500.509644 -167.905365
917.478821 452.663391 -65.727470
768.961487 513.862732 15.364387
810.595154 465.568420 -187.467560
965.361572 423.250519 -198.791382
668.637390 477.105774 -259.488312
816.909119 437.842804 -279.657196
832.507874 439.822845 -229.415909
836.765198 493.446503 1.360722
928.273193 484.257324 49.843349
768.042419 445.586578 -273.021149
882.172424 446.717468 -163.258636
836.131470 480.138397 -66.567581
698.126648 507.269989 -170.813644
850.363220 506.028564 124.812828
657.133484 529.865295 -102.545845
880.373779 425.981720 -244.377945
917.788879 396.386169 -274.027557
873.982361 470.918060 33.176815
756.358887 468.692444 -214.179764
796.067261 509.663757 -1.850441
943.179626 397.548706 -242.449738
794.600098 526.432678 55.349560
837.341370 441.949036 -189.632080
976.393677 432.916138 -56.747562
667.244934 488.787598 -243.251282
773.561157 494.234467 -102.777786
958.575378 453.197998 -22.915031
596.881897 535.497009 -163.706528
777.466431 511.282043 3.009977
955.490295 424.284149 -195.050278
952.624084 454.609650 -3.374725
709.302490 537.934387 -29.867769
955.952698 450.341522 -24.253319
704.286743 525.537598 -103.362923
956.369324 483.287415 88.690872
855.438293 439.336365 -228.390823
1060.200684 433.680786 -148.345322
871.804504 511.479370 89.193367
784.430664 454.442841 -227.506439
895.146240 467.651215 -63.961784
848.291321 526.511597 109.337349
814.631226 434.316925 -326.207916
894.763367 445.383392 -130.250931
811.151245 487.085724 -98.567085
791.333252 463.848816 -88.017418
695.346924 446.753906 -345.021088
964.203430 462.546844 -9.967949
798.205505 439.344269 -285.716034
761.051147 510.936920 -24.776569
818.616333 498.677155 -4.035641
694.426636 437.857605 -349.719696
862.601501 476.202606 -47.482292
767.069824 504.359070 -103.632378
846.216919 441.808441 -361.946198
983.594299 459.592499 20.687820
651.219666 523.232056 -106.678596
968.012573 350.450745 -215.410049
692.817810 514.446838 -173.350601
854.366577 452.684204 -125.539146
1002.599609 430.277496 -14.258904
778.940125 483.077057 -129.487976
668.916321 542.171021 -99.872643
685.273621 522.594177 -98.255020
929.761108 446.087891 -96.953072
680.144470 527.057373 -123.809364
661.675781 486.744904 -247.932144
840.738464 515.009216 112.459625
847.143188 446.832520 -156.752136
930.934570 440.185730 -124.243843
904.437012 465.428101 -20.104973
958.339600 464.822540 21.509359
885.307373 455.212128 -14.860479
801.036743 443.314911 -221.606125
844.441345 464.189758 -112.619316
991.253601 416.896912 -119.288559
934.818542 433.968719 -116.378426
676.145325 504.629608 -238.201797
991.776917 448.857574 1.097424
751.713440 475.151764 -200.347809
895.311646 480.222260 -14.051433
845.378723 466.977753 -134.587418
704.383484 508.650543 -117.198235
742.856506 454.331726 -270.630280
759.493896 434.795929 -328.134583
742.948730 522.716919 -12.344375
651.467957 499.466400 -222.751602
679.504211 539.920776 -77.742752
822.360962 508.616302 73.782539
717.409485 489.516754 -219.032806
921.218201 487.751587 78.156128
810.508179 432.979340 -315.401703
770.197449 432.791534 -285.237305
815.195923 470.787811 -136.248291
960.014954 423.918915 -219.559052
666.699219 544.069458 -80.933167
916.370300 426.018219 -180.210220
705.900513 537.062134 -48.797405
820.715942 517.315735 45.484604
871.551025 473.638214 40.986763
1035.210571 426.887085 -27.565657
1046.061890 429.764221 -87.865707
915.690735 467.651703 -36.022461
991.261658 433.921570 -150.073929
859.840454 475.627960 -29.524954
586.053955 493.499878 -271.475372
821.748352 531.386414 104.282402
921.515259 404.612152 -263.923370
751.187073 436.657471 -368.454132
861.193481 478.954224 -66.580620
720.522278 511.979370 -118.987427
642.556335 523.177002 -128.063232
631.641541 518.968811 -159.961853
780.348389 525.373291 24.007748
565.795837 524.467896 -220.447815
714.412476 460.851196 -281.589478
981.614502 461.090149 38.777187
852.680786 356.088379 -317.754913
726.273987 503.410400 -107.151566
822.547913 424.023132 -288.387024
795.352661 456.441681 -243.278137
668.259155 512.698364 -157.215210
1017.262451 417.489807 -64.379128
934.861450 441.894531 -79.223740
881.444946 462.221771 9.681189
693.247314 461.900940 -275.669037
851.086426 491.005188 0.336252
694.181152 510.687225 -133.345032
572.335815 518.446960 -227.934555
699.018982 484.336029 -213.964630
843.729553 482.699921 -23.514133
694.144531 542.057617 -71.045647
988.655212 367.593536 -176.742310
817.511108 457.146484 -149.006454
929.079163 368.009460 -240.174911
944.063110 452.655518 15.599166
875.768372 459.666168 -142.784500
931.226379 379.678680 -267.018921
928.009705 465.067017 -12.379133
798.505188 445.181519 -210.621765
560.067078 522.422668 -234.912857
918.767639 424.366760 -226.314957
711.479858 497.413605 -83.328217
899.607788 416.342010 -209.416077
872.203491 519.512878 118.865936
800.119080 479.525726 -126.694336
842.802002 466.771423 -140.712357
915.510254 454.156708 -22.897318
785.866028 488.271362 -110.542282
678.744568 512.982727 -181.963364
661.208557 473.192474 -307.205231
915.026978 414.606323 -270.062531
793.462341 424.573090 -338.759979
609.148071 522.685974 -178.916092
837.510925 497.332825 26.093384
1015.423584 390.115051 -175.957840
836.381714 511.425781 35.958942
864.040344 513.766418 134.192444
866.743103 526.818481 159.410309
882.838745 493.613983 23.052673
823.657837 474.250854 -106.616989
866.720642 491.661133 -0.718049
854.064270 488.835114 8.945548
565.749084 527.716492 -201.467697
893.705811 477.897919 51.986053
759.031067 460.005066 -301.715759
939.807678 364.991089 -247.929718
689.702942 504.324005 -205.484131
942.911865 467.533051 1.307746
869.548401 469.714355 -54.632565
888.100891 485.896210 86.608887
763.754211 500.223511 -49.333515
607.243286 507.649628 -248.000885
950.261230 397.076233 -215.774048
947.150513 348.817535 -235.835037
902.780762 422.532898 -196.005127
619.252930 536.957886 -133.946808
916.799011 457.893585 54.626343
887.800964 356.278412 -301.104645
665.218628 483.772400 -214.999268
888.588562 498.193604 84.813507
751.783936 499.052063 -80.528099
842.660339 499.536804 80.969971
1040.361450 433.321167 -23.465017
867.567261 494.146301 48.576385
797.084351 511.283630 -5.310405
763.981628 503.033600 -77.231430
732.065979 461.737885 -310.380005
713.881714 463.911102 -345.859894
749.094849 450.613251 -279.150818
971.403870 426.550018 -165.226532
764.666748 497.747620 -78.946571
743.459167 419.892456 -366.469452
875.990112 495.995209 21.675461
982.531311 410.541351 -127.937759
740.764954 524.504761 -52.119610
596.611938 524.856934 -192.462402
607.001526 516.442566 -278.453522
874.304199 487.490509 71.226143
793.116577 507.522186 31.320557
772.419495 514.652588 13.322311
789.898315 502.694641 -86.309776
892.892151 424.922394 -283.150360
884.666382 504.273407 107.869919
918.000366 470.201660 -34.659134
678.599426 491.251770 -271.762817
751.650574 508.699432 -108.696632
741.457275 491.716980 -143.931793
890.862244 475.340149 -42.025391
854.383911 499.604828 -4.720302
974.171082 407.928040 -190.185501
912.376221 460.976318 5.584791
906.421143 338.752197 -271.059143
917.475647 446.238037 -114.148170
848.822388 459.813477 -43.688915
684.762878 512.841553 -117.472137
870.794250 431.945801 -247.495041
661.028931 483.249695 -333.174866
630.003418 501.353638 -198.871002
959.531982 455.028687 -49.959877
678.168396 521.764709 -103.006386
753.253235 442.252899 -389.475128
973.183228 420.914917 -114.994644
950.202698 389.586334 -202.305313
669.302551 497.133636 -170.988556
832.330933 430.917847 -286.762878
760.948914 426.150177 -382.720673
639.043396 526.017639 -183.414322
750.272644 481.171570 -161.244324
826.178711 435.186890 -240.559494
827.898682 472.583801 -21.427361
736.321472 527.428162 -2.493771
944.641968 422.816620 -236.233704
801.345825 459.094543 -202.507599
676.751831 481.260590 -335.842224
867.670837 422.070892 -222.651871
944.155884 375.125427 -242.486526
972.130249 378.772980 -209.145554
721.746704 455.737701 -317.670990
798.211975 486.765778 -128.253220
645.909912 522.357483 -190.139008
839.296021 472.491119 -17.839586
879.054932 498.602997 62.515511
662.753967 502.140961 -143.541443
739.313538 442.023254 -327.072662
885.170166 343.039307 -279.573090
758.767212 499.009064 -99.890625
623.054993 508.440216 -309.639709
793.281799 509.039215 59.435875
629.360840 495.050934 -318.569092
712.458069 475.091492 -233.438934
651.515686 503.788971 -231.926041
923.520752 411.971130 -156.852448
777.928589 514.199524 20.013474
861.671204 436.727203 -169.449234
996.487183 436.750488 -64.538368
925.492249 474.422211 53.533413
741.012268 519.068542 -7.748773
705.299072 505.295563 -143.473480
709.760864 518.773682 -59.149349
829.811707 514.332703 100.071014
651.500671 487.353271 -315.425598
753.463989 474.261871 -201.695313
981.979492 365.868988 -202.333145
895.283508 424.767212 -275.775726
958.700928 457.219574 63.815552
939.755798 346.561951 -225.108902
757.149109 532.067505 -14.842347
891.678467 460.867218 -60.832867
896.918457 472.547699 -4.084810
916.851379 392.527588 -256.406036
889.085205 432.746613 -165.569748
954.359619 397.664001 -231.150253
692.734253 511.645172 -158.239380
1019.981689 412.696411 -32.164928
744.266724 512.830627 -23.426460
743.596252 511.931519 -71.896111
901.270386 394.590515 -287.164734
962.088013 419.569855 -52.472492
1018.040955 413.926819 -176.636139
656.454956 535.175964 -98.888969
966.947205 459.501068 28.861380
739.914795 499.384857 -148.361481
893.157837 491.130768 48.581821
724.293274 513.880066 -117.659180
1098.373901 429.729889 -25.795109
747.605530 495.281342 -119.591629
680.164368 512.892639 -182.299927
913.116272 480.789490 -3.930645
785.088928 431.863983 -272.709961
981.266174 417.062286 -32.458733
903.084900 438.243927 -215.777252
876.951843 449.754120 -364.013947
792.446045 466.115723 -178.686447
626.626221 538.224731 -128.486786
1015.562317 429.587494 -159.375671
695.845154 473.798187 -259.970062
835.140564 520.106812 120.504356
608.342407 496.286469 -270.270233
951.335083 470.990082 36.279682
1053.877930 418.109650 -27.417665
835.276672 490.331726 57.285732
852.253784 442.881378 -224.123535
609.702393 506.865570 -244.975159
958.902100 473.197510 51.268215
1018.319885 418.023682 -57.745495
951.172363 448.573425 -82.294609
737.508301 456.034760 -443.433258
915.028748 393.152832 -260.686554
699.068665 450.436005 -298.048187
897.415771 511.482849 111.057816
645.301941 537.435852 -136.763184
660.448669 495.553772 -185.974411
907.623840 377.643311 -270.113037
689.886902 473.985687 -275.792633
1033.754150 434.687744 -1.823096
924.395447 356.892853 -262.580444
546.954590 533.234253 -219.771301
776.986389 505.815186 -49.291374
870.183289 474.156311 -46.551941
750.686890 529.884888 -17.020823
639.350403 508.955292 -264.520508
741.206848 476.466217 -189.344833
583.530823 507.647247 -253.054428
643.887451 541.118347 -96.843185
799.785645 444.682495 -306.922180
851.548584 495.958618 59.335197
946.397949 465.017151 -7.300868
967.128723 390.941193 -196.718430
934.031616 401.227844 -212.339935
642.098206 462.255707 -287.845154
919.742615 457.132202 -74.892624
856.712463 454.440491 -136.039352
940.377014 381.487823 -249.702499
973.299316 432.106262 -168.558990
1021.638428 414.643158 -171.903854
950.518250 448.645660 -38.885422
1024.893066 439.999664 -157.566757
692.000916 515.170288 -97.455231
931.455627 471.772308 88.626419
738.729980 513.182190 -42.680191
735.440735 503.145172 -28.291283
823.285522 497.179688 -51.405834
867.918518 437.476746 -178.008743
836.562988 475.495361 -114.380333
891.714417 409.958984 -279.697021
651.955872 514.914795 -146.030533
888.950439 469.745392 -24.564802
868.389526 462.555725 -90.189507
868.697632 505.172028 108.295258
1029.833252 418.212952 -168.937317
669.765442 510.418976 -206.811417
791.385376 478.783539 -23.970421
789.573792 496.849365 -104.578178
656.066528 477.103943 -252.762955
684.259033 483.910187 -292.732422
888.492371 492.487366 102.388901
905.164001 463.149078 -60.228786
699.274719 521.027161 -60.355038
822.800537 438.939301 -216.219757
800.490845 520.368530 47.762943
763.257996 536.789917 5.982566
915.852295 359.962280 -288.028320
744.767822 512.504517 -63.204277
855.890320 511.702271 101.728218
597.338562 496.168884 -278.450775
738.339355 490.236176 -144.758667
873.201416 489.871552 21.342052
935.534485 400.337830 -209.864304
750.341675 496.188599 -110.765503
770.952026 492.919556 -68.084419
938.816772 379.281830 -249.105820
758.290833 451.381195 -418.033508
1002.245117 411.351471 -124.566505
742.803223 486.706238 -85.383362
956.709839 408.429474 -230.944687
657.232239 497.540314 -290.032227
722.332153 450.726288 -403.612488
808.566711 464.991608 -164.464447
965.537781 466.432526 20.257181
930.163696 482.428650 45.762871
728.419250 506.339874 -104.291679
585.512512 507.165497 -274.640656
877.413025 430.591766 -288.314392
1012.231934 423.545959 -40.825127
837.106201 492.623688 -49.023720
901.045471 481.312378 50.845837
848.007813 520.825684 96.073708
745.938782 472.135071 -209.112991
842.176025 465.114532 -145.668839
918.332153 359.178406 -273.244019
897.096130 491.606598 52.644714
832.112549 452.711273 -365.990692
638.956848 527.878113 -176.704285
780.913513 478.524597 -187.597733
605.708313 518.991455 -231.843353
720.257324 466.489868 -198.324280
762.997131 447.363983 -313.386841
1038.379150 448.893524 -9.253803
869.971313 523.724915 146.706314
869.375488 479.584015 102.465904
965.400452 459.789948 22.844389
704.477600 489.686310 -209.832001
970.695190 367.692688 -194.924667
840.987732 437.228394 -249.963303
760.367493 482.240204 -143.050644
848.233643 499.924805 62.146641
920.244202 430.929169 -211.330276
755.656311 523.451355 1.812589
794.000122 469.755219 -149.286636
648.226501 526.705322 -126.175255
912.670532 493.242554 125.413574
650.144348 490.830292 -268.392792
771.444336 507.847443 -25.770256
946.890503 416.843872 -166.581451
856.409363 506.489624 78.226234
605.868225 534.098328 -197.346710
691.286072 525.148193 -63.405346
987.076416 428.711395 -82.278175
830.140686 472.877167 -90.852058
757.107544 476.865356 -188.414688
708.080383 513.758789 -150.410202
806.311584 506.493347 -38.790932
583.414307 513.752869 -238.937958
869.973328 450.990021 -349.039978
622.108643 498.192749 -266.058563
826.102539 448.964355 -211.202011
913.016296 440.462585 -110.050339
898.146545 414.429260 -295.717560
970.865356 451.034149 -46.109074
894.459167 432.778351 -299.539825
865.452942 493.963898 3.150459
927.611694 366.946350 -252.821930
915.342590 418.446930 -248.961151
853.743591 443.004700 -108.157997
857.320190 513.119141 87.937759
628.089966 497.420959 -202.362457
811.523743 497.806915 -68.282936
882.734619 489.985352 5.069375
839.095032 426.227325 -299.893463
903.543335 439.456482 -134.602859
1021.116699 410.023956 -175.745544
829.677917 444.967926 -208.607788
764.116028 470.486481 -228.704697
867.495544 447.013947 -132.085678
799.513672 465.303528 -224.442032
1019.844482 456.981079 32.453442
960.638794 375.227570 -225.827774
690.716309 522.056885 -61.097641
721.897217 467.746674 -302.925537
674.262634 501.235474 -238.415985
917.430237 438.017975 -154.194977
702.408264 475.832520 -319.687531
916.623779 433.789398 -203.847656
580.992188 518.952576 -167.858994
702.278259 517.459900 -99.282173
781.762817 425.803802 -327.371307
881.559021 493.225769 28.211910
626.961365 502.948730 -250.617676
790.309387 506.237946 -65.592712
699.918396 485.241669 -284.000763
696.287415 464.979767 -343.595459
881.898071 488.939880 27.384447
611.498169 525.204712 -178.849548
944.273743 425.505676 -57.090450
806.187500 516.381348 27.728302
871.517334 465.464905 -119.661324
821.385193 498.571442 -47.600826
670.676941 450.589020 -301.888489
908.207642 509.975433 109.569916
818.070618 481.184204 -118.430702
838.893188 497.140686 41.822506
766.771240 503.102661 -72.992241
1022.688293 409.909241 -174.683411
711.867676 484.241760 -275.008514
683.266174 517.933044 -114.337402
580.794373 506.874176 -212.949448
1050.941162 430.586334 -131.729233
686.397522 450.920868 -360.850647
605.986511 516.312317 -219.794449
796.823181 478.441315 -123.730141
672.391541 483.836273 -332.482330
904.038940 497.877197 79.761314
701.805359 511.748016 -156.903931
783.416443 487.542358 -116.010559
942.376953 481.873260 63.963032
723.064453 496.926697 -153.164001
815.670471 477.714996 -115.343651
877.535767 450.777374 -116.255898
820.728210 502.802948 0.275669
851.721924 495.294556 -12.514684
933.342407 356.470642 -250.545929
658.486511 522.522034 -120.255966
940.592285 425.215424 -161.841949
624.682190 519.982971 -162.495956
992.271667 356.186188 -188.382813
697.769592 517.480103 -41.298367
714.827515 520.667236 -119.639122
989.277100 418.856506 -162.454147
821.003174 458.514038 -87.786522
639.865662 510.051117 -240.366745
881.502075 501.298462 44.067837
943.839172 454.344299 -17.667185
733.374756 535.936951 -9.554384
898.275391 448.188873 -157.453491
903.968567 489.992004 76.381470
753.584534 513.377686 -5.993789
874.890625 441.493591 -77.062775
727.533020 428.299652 -395.121277
851.356873 470.421997 -133.899414
790.317444 504.789825 -12.494049
777.919922 455.873688 -282.918457
929.338867 434.982849 -196.527969
779.735474 492.636841 -142.763229
925.216492 451.561951 15.889575
768.280945 436.521698 -273.340179
886.374023 467.614349 -7.585661
846.672241 511.028137 59.016968
962.151428 427.983063 -8.185453
821.331848 498.584534 -4.276704
908.826782 403.999756 -251.065857
855.386047 488.714691 -48.841267
815.323792 532.831665 91.970261
1003.389771 418.102966 -165.444565
945.179382 429.848297 -138.582245
762.301086 439.100494 -309.019226
1084.373291 435.903046 -50.401188
840.825012 440.202515 -342.687683
1009.069885 391.346375 -169.967880
902.312805 469.962250 -45.514103
635.858826 506.473450 -221.021088
801.927734 527.766724 71.914124
607.300476 529.995117 -224.930359
861.984314 436.912140 -199.695190
999.802124 408.552460 -100.657028
982.508240 429.944702 8.012162
928.168152 437.282959 -133.017151
673.810852 493.390564 -212.084900
738.560425 528.606689 -18.309381
756.471802 525.833618 14.615551
728.216064 445.283295 -286.611053
933.167542 480.464569 70.074379
954.384277 446.324890 -66.784630
684.645874 483.804047 -232.928680
672.816406 523.732178 -107.379250
810.092773 500.620300 -31.699894
871.081787 464.876709 -48.101963
566.907104 543.150024 -195.101944
837.291565 429.075043 -218.769531
885.743164 494.575623 18.277475
960.209045 366.020111 -213.326233
983.365356 420.997986 -110.252411
978.034912 449.530518 -6.126818
925.358154 348.508636 -236.415771
907.978943 445.694794 -99.739647
836.165710 503.347473 32.989956
683.901489 509.778809 -178.174301
791.524719 519.830627 30.668314
802.677612 456.138062 -200.621429
1093.685181 449.514496 -105.451714
1077.068359 440.915649 -98.424347
1009.475708 436.284912 -142.109894
829.108459 483.702911 -69.063606
748.734741 473.535614 -135.608734
909.269104 455.668335 -88.669701
967.119751 457.365326 9.293620
946.384277 455.955872 33.681808
802.057068 456.174957 -235.746704
958.052124 462.454895 1.370683
779.702515 508.634735 -30.116198
993.741638 420.152283 -130.299301
778.146729 437.209808 -355.040039
779.547485 504.316650 -33.819481
822.105713 491.372314 -86.970673
613.078308 525.711792 -154.034363
695.386169 455.710999 -293.303680
666.863586 476.155304 -288.894043
885.743530 411.606567 -326.986176
671.998779 515.317017 -136.255066
930.733337 361.731781 -258.131256
933.742065 428.621979 -223.718643
802.114502 486.666809 -82.319283
799.407532 520.633240 61.707611
621.371948 542.492249 -159.178146
786.112488 474.967529 -130.408295
911.992920 485.342102 34.751492
667.603882 530.165833 -79.783409
790.433960 464.754303 -171.229568
826.931152 517.325928 102.588913
997.385010 366.750763 -190.955673
906.850403 482.904907 20.984732
935.994568 477.282654 36.774921
654.743286 513.161987 -165.061920
679.910400 514.804260 -182.959732
850.757507 528.987976 126.606941
785.922424 493.051208 -52.998569
722.835815 436.600952 -383.767914
773.118835 512.348206 -65.725304
903.227966 409.006500 -252.745300
800.980774 446.766205 -202.682083
952.105286 351.464142 -214.275681
775.738647 511.426147 2.884895
968.686279 465.459076 27.251577
859.534424 440.395935 -221.470154
1037.900635 428.254486 -80.417946
774.818604 510.279327 -9.408131
824.297363 496.883057 -22.142103
838.160339 494.092102 -42.715801
706.602539 491.072357 -247.341064
946.927734 330.328247 -214.271561
603.566284 511.382874 -270.008392
832.759583 440.790771 -345.597778
739.955383 493.511108 -141.849197
948.689941 445.994751 -34.135101
699.877441 485.095398 -267.658173
939.752625 442.252075 8.084545
700.676147 502.152313 -78.625336
887.083557 442.058929 -348.498871
752.001831 447.263519 -298.600952
851.996155 502.506592 69.179893
541.187988 533.866089 -229.155914
667.945923 495.748016 -144.741959
840.865417 457.512421 -179.091553
936.389404 426.149689 -148.183197
928.521301 476.005280 64.479767
808.737427 465.723206 -192.242279
898.282959 472.761261 74.802750
617.093811 513.452759 -198.536316
936.689331 441.003662 -112.516296
593.357422 533.204407 -172.920578
712.504761 500.889465 -188.411530
926.447083 422.693878 -163.651779
751.243896 492.047058 -176.267853
861.791016 530.588074 134.702988
878.617493 459.669067 -4.769287
885.515686 440.213501 -189.030746
738.029602 478.634033 -184.159927
791.360901 510.215759 20.728943
877.613403 454.730042 -110.351547
636.709229 537.226807 -118.528427
700.617615 499.654022 -221.025574
627.659180 520.700745 -225.352951
648.641785 507.765961 -253.541672
1043.853149 433.256470 -43.321648
910.206848 450.676910 -79.675903
873.072205 387.997498 -297.523163
908.723877 477.365601 4.016013
1067.095215 441.462799 -118.657547
552.935486 526.916260 -224.114044
670.654724 501.805145 -198.011353
834.137329 456.662415 -164.334122
993.891052 363.841705 -176.285217
833.094971 529.770935 102.579796
947.502258 403.703156 -186.334991
858.667297 463.832764 -90.529770
1007.653015 430.732147 -10.502134
875.690308 456.956482 -19.402868
998.416687 415.568451 -26.810553
625.363281 496.271790 -314.219452
897.520386 476.913818 16.376204
1049.240601 435.036560 -162.407639
789.965637 496.989075 -47.946350
977.390930 391.561584 -203.444534
751.141541 435.743317 -339.237030
796.281555 465.322479 -221.186020
1059.572144 420.197968 -80.909630
935.595825 457.743469 -12.611750
737.442871 485.133850 -160.827927
671.326294 529.523193 -80.378716
727.499268 523.142639 -29.791828
634.120178 502.890137 -300.532867
601.477051 504.655579 -276.911285
917.022095 479.236816 23.934187
599.362000 510.168335 -232.877747
939.128479 344.909454 -248.064682
695.745789 453.292480 -347.088074
819.563049 498.538391 3.474114
776.063293 455.288635 -198.680450
920.960083 471.477570 63.900013
645.421448 481.171539 -219.560898
878.496582 452.831299 -110.800652
874.086304 393.715240 -302.747681
796.221375 418.223663 -312.026062
802.326782 470.539368 -137.619446
994.828796 419.610962 -97.382278
830.425171 526.830505 84.802139
832.133423 466.891266 -129.419601
550.592407 549.862854 -223.570923
852.314331 436.190186 -189.155243
850.744629 441.469391 -192.944244
998.730896 433.843048 -48.331348
811.069946 442.772491 -235.347473
694.024597 473.918274 -317.722900
928.018433 491.336212 87.894875
677.145203 465.331940 -318.423035
667.174683 489.767212 -231.472626
1006.670349 378.561798 -178.002716
952.831238 377.130737 -229.178864
838.060303 496.329742 82.418526
886.052673 436.133545 -299.761810
1060.121826 423.518982 -55.509727
875.914734 460.264496 -89.249512
810.823120 507.687561 44.638313
824.259277 454.227753 -168.431976
769.274780 525.863770 7.542154
829.360962 439.255402 -217.276657
814.384888 494.097351 -43.915367
971.788818 446.079376 -60.553387
963.854309 405.840515 -212.487534
788.078857 441.935364 -314.829102
987.103516 400.860199 -185.440643
782.195190 526.095276 43.046635
947.463623 463.216400 5.108459
881.437622 439.142792 -296.945801
904.891296 408.066742 -283.270203
946.229370 426.018127 -162.670212
848.870667 501.444794 79.806923
656.643555 461.272919 -307.803131
787.150818 517.275330 13.954167
863.753113 502.199738 32.032940
842.343994 438.726654 -257.810333
867.683533 488.508850 63.506954
618.796753 517.047363 -195.835388
877.455261 452.962128 -145.133163
1015.981323 427.499146 -69.035431
825.808960 417.837494 -362.615997
776.907898 468.153412 -239.561035
940.148132 448.668945 -94.795395
653.586182 507.147003 -185.203537
787.679932 435.303162 -255.147186
871.145935 498.567902 124.709984
656.134033 529.897095 -94.721199
869.330750 454.602112 -165.996414
1013.012634 424.923187 -188.265900
842.804077 504.224121 67.699799
646.296875 506.487213 -275.003662
863.495300 431.432220 -352.368195
957.852661 448.811310 4.197727
920.739014 463.582581 69.148773
834.945618 443.861511 -131.099060
822.804626 499.213684 -27.366730
837.593689 512.433838 48.593666
776.552856 430.397980 -315.337708
987.181335 422.607513 -89.196373
886.279236 419.049652 -172.229996
721.357544 480.045135 -147.073318
763.161865 476.691681 -161.766815
832.801025 475.632416 -68.958183
831.338867 455.590302 -379.047668
897.907959 457.751465 -114.884224
960.882629 480.932129 67.805885
657.051147 503.494598 -195.264389
881.679993 340.498108 -292.195526
607.592834 528.014587 -148.966583
934.660767 361.431915 -247.891968
695.137390 488.121094 -259.269348
608.121277 500.923553 -269.344849
925.039185 408.161621 -262.737640
961.746399 364.042236 -234.246429
735.896423 449.911530 -332.999512
651.566040 484.011444 -334.871277
1016.813477 432.211914 -18.721794
833.836914 495.168121 -16.751196
800.476440 469.024017 -209.775009
775.220703 485.329041 -126.206993
825.567505 526.582031 84.302116
707.208557 529.757629 -35.134293
721.080200 480.581696 -198.101715
838.889282 432.645874 -228.128021
588.963257 528.459778 -265.938049
807.970398 446.533417 -287.435089
861.529785 439.779205 -116.339600
839.083923 489.662170 15.494836
1029.658203 419.147705 -91.344139
824.565063 527.854248 91.797058
797.174011 502.073303 -18.522379
781.079041 497.859528 -107.155251
965.178284 357.729218 -229.681244
600.641968 502.800629 -255.519608
985.942078 394.789612 -192.904358
841.084351 526.943970 122.488838
614.723755 552.569580 -146.960205
882.903198 418.405670 -268.066956
928.760559 482.760803 61.310162
808.520386 476.610809 -105.788445
866.185730 521.947510 143.714264
938.470581 469.445465 22.144554
1023.431824 437.481934 -18.779459
1100.927124 438.667023 -55.514252
896.679932 398.539429 -300.714172
1022.633118 443.488861 -163.142853
863.535461 468.757965 -61.192314
1015.349121 433.353821 -10.277218
966.296753 417.672729 -53.299019
878.739746 509.043182 117.565193
877.132507 482.331879 -25.544323
942.158813 386.910339 -231.053970
935.814331 489.409821 100.762329
787.174133 477.328796 -132.113785
996.235107 434.588470 2.972039
829.645508 518.864441 74.675415
892.697266 444.442993 -158.052887
942.837708 459.866821 -18.601545
859.611816 474.320557 -97.307213
586.777283 511.923187 -174.877228
829.177979 491.103699 4.090934
781.789856 507.247284 -38.467857
759.052673 527.469055 29.708462
785.140808 435.485565 -287.325134
551.322021 527.906006 -233.385757
740.779907 513.749695 -108.531502
1020.994873 447.795441 24.855303
880.542175 507.530701 120.043495
885.908569 404.329681 -299.021393
815.738647 472.767365 -120.595901
852.568115 529.523804 135.091385
974.575073 422.447388 -139.654800
904.038269 410.711761 -193.341309
900.037109 375.298004 -294.475433
734.782166 521.910583 -8.626062
839.382446 493.864716 -12.109994
664.679749 501.670898 -115.382355
885.575134 483.190613 5.370556
965.926636 465.717896 22.989513
832.046631 520.705688 116.677795
674.933350 497.100128 -151.132278
877.591431 508.131409 68.702499
898.247131 489.119415 37.684910
937.788330 451.503113 -86.842552
972.499939 374.036377 -203.606857
738.415161 535.357239 -0.669386
902.377197 476.776642 3.348504
831.889038 483.813171 -64.787079
973.035828 381.266144 -212.441986
987.948914 437.266846 -76.193794
750.631592 518.603699 -5.348803
758.882751 480.472748 -163.205536
850.597290 455.440460 -186.598480
975.263062 357.147644 -211.147919
563.280701 518.053589 -240.943634
835.194397 537.204529 105.712357
687.259460 484.006653 -200.339203
799.444275 431.457184 -256.750031
938.768555 373.151398 -249.104828
881.904968 485.101685 72.152878
910.844910 430.429169 -77.474327
775.955261 497.196686 -77.744087
670.781250 530.326782 -124.530243
774.012146 508.643677 -23.382263
818.162537 516.802246 45.219391
922.353088 495.287598 97.106201
1024.973389 435.601288 -11.321418
856.131226 492.253479 26.753412
878.886353 504.841034 88.743980
869.313843 506.827667 104.636749
807.794800 511.937134 67.123566
777.256165 509.570343 -30.812206
890.531128 409.700470 -249.294418
873.698792 488.518585 -11.544107
771.924500 458.122589 -219.313995
769.317566 482.551788 -185.353821
966.718811 442.407043 -85.182991
834.476135 519.811890 77.152985
628.058899 521.347656 -140.414368
872.173340 459.004639 -123.337769
1070.230103 446.182922 -130.289108
660.316895 546.057434 -87.914986
790.790405 464.515289 -164.449219
637.786438 492.464844 -306.780670
647.832520 529.368591 -119.462570
802.930664 458.780334 -178.028915
996.960999 419.315765 -21.040333
828.750183 495.077667 -37.662693
1068.308472 433.010681 -71.860046
749.551392 503.767303 -49.102505
647.428894 492.974762 -242.064774
838.881592 531.232727 109.637215
895.471252 461.569885 -20.992481
809.040955 429.153717 -230.302399
732.038757 475.839752 -218.455551
640.386047 489.815521 -231.000519
697.502258 470.266510 -250.676575
892.663452 387.098724 -279.461273
851.785767 422.599274 -237.200790
911.858276 464.611938 -45.072220
652.541626 498.788574 -217.683151
815.154907 461.360016 -198.438736
764.312805 483.450806 -180.693130
701.271851 480.614563 -226.016800
713.720581 457.076782 -373.740570
881.176880 478.754364 -16.486675
845.694153 469.269043 -67.569702
925.142395 397.029175 -240.605103
989.510986 451.195007 30.770523
870.025879 507.462738 115.154816
951.626343 438.059753 -93.083611
827.215271 525.479919 97.789360
724.106323 518.462280 -63.328876
906.793335 422.265717 -177.682541
726.582397 510.819489 -65.165894
837.252563 528.453430 111.773422
847.905334 470.695770 -116.195915
811.932861 479.669769 -91.643021
813.268127 510.009521 42.514790
848.504883 492.871216 18.541945
711.889099 435.498291 -388.043640
922.184814 440.558685 -91.662331
857.839355 535.123474 137.675446
915.525635 494.283447 81.766365
728.026917 448.301239 -308.657227
863.444397 429.140320 -233.905777
806.573364 461.997772 -176.365936
767.053101 521.975769 -40.637623
895.885681 460.340790 -86.816727
861.772766 476.307770 23.138508
711.145020 525.451294 -47.539928
886.763062 492.403534 46.918602
564.287048 542.792053 -246.091599
983.673401 440.527222 27.010866
710.578735 492.063568 -219.309891
654.616516 536.173584 -86.138924
975.529419 425.849701 -9.295980
989.637573 454.811707 10.957408
738.375366 445.392914 -312.001251
923.392639 421.203003 -171.772491
1034.220703 435.092468 -2.172347
818.731445 461.096436 -194.632828
898.989441 452.846832 -56.733395
892.192505 483.991669 2.884936
717.450623 523.762329 -87.792320
702.375671 512.065369 -168.220871
867.582092 414.835663 -322.050751
873.265747 445.727783 -189.708664
687.994995 454.873901 -340.386719
838.315125 471.926147 -68.132629
772.235779 455.045197 -171.499847
1002.577576 442.129395 -165.705109
904.555237 462.883118 -45.434338
674.587097 482.878479 -305.817291
606.668030 514.803894 -252.982742
810.847534 433.498779 -263.399261
742.775146 521.525818 -3.117223
825.640625 420.801849 -261.604767
887.856934 450.169189 -140.442429
707.815491 500.652222 -186.289307
966.233337 435.715424 -64.744812
863.909668 488.768616 -21.751810
700.746582 518.912292 -60.013691
647.518188 532.197327 -112.918579
955.286560 353.805023 -233.388748
747.838867 488.005249 -149.152969
919.920410 435.742310 -254.796875
904.952332 434.015594 -184.230972
865.302063 511.802002 131.073425
761.261841 425.066315 -363.377899
767.051941 481.189545 -139.624924
882.861084 472.157959 30.493591
829.268066 506.036407 -13.956343
738.456360 495.402863 -90.191238
843.948364 519.913025 71.297905
627.388733 512.473877 -255.596390
808.333801 470.738800 -192.358124
905.707153 476.156281 68.146568
669.969421 489.614075 -312.231079
956.337463 460.949371 -7.533195
553.274048 516.255005 -239.160080
644.501648 533.232056 -123.437157
687.798645 493.094208 -220.750092
667.941162 486.660950 -289.920685
773.032471 504.178040 -24.041439
766.733643 473.522552 -216.406876
913.388000 427.106079 -170.661255
821.788391 451.798676 -179.900070
943.809875 475.609741 19.521561
637.321533 489.037567 -237.466736
750.590576 481.112671 -228.680527
716.386597 468.261414 -253.710449
876.190186 429.108887 -197.961014
896.098877 385.586548 -280.083038
947.926575 469.413025 13.853106
846.910828 442.688385 -195.993317
835.730286 519.270569 53.320019
739.337952 493.087311 -121.867767
970.966248 431.803528 -177.969162
659.065125 523.462524 -98.139122
867.284607 488.350586 -17.789534
869.326782 515.442932 95.604782
994.338623 452.754211 21.359840
784.543823 492.111603 19.074295
940.273926 410.881317 -145.494324
950.576782 436.312134 -115.853737
674.966858 475.871613 -278.356689
897.270020 495.346008 58.159187
676.019958 512.703735 -124.709915
811.203308 483.702148 -135.419312
1004.873840 445.582306 8.358870
781.914673 464.087280 -168.735397
1064.569458 436.159393 -134.591492
697.024719 514.837708 -90.182823
640.302002 516.966492 -168.942413
794.299622 450.235352 -394.736450
731.600403 514.181946 -48.564125
950.577515 452.641174 -33.616619
883.664001 496.788208 25.375605
812.549805 439.305481 -222.793228
872.789307 434.550690 -166.983521
959.836426 426.515991 -148.089462
611.036072 499.189697 -258.369843
661.250061 499.311188 -255.762024
771.873352 502.656372 -1.636288
770.722900 532.850830 36.722500
793.130127 505.872986 -68.231010
852.524292 446.116730 -148.796906
886.410095 447.114868 -120.443085
959.369263 444.932526 -22.462711
904.806274 427.101898 -221.789978
616.812195 501.699310 -248.200089
1038.149414 420.488922 -169.387192
951.544861 439.572174 23.076807
599.323242 510.797729 -290.655853
626.660217 482.030884 -303.430969
910.005920 423.396729 -241.156570
550.173523 551.699097 -215.240356
798.832947 509.064087 29.137177
637.654846 503.268250 -167.122635
891.497437 502.843231 66.420441
921.348511 465.616089 -22.432493
888.169006 461.327454 -111.762093
802.184265 477.644135 -162.324890
839.454224 414.192139 -321.617188
643.492920 469.398285 -326.952759
758.493286 494.778046 -2.364412
808.794800 420.655762 -285.092255
929.757568 447.808563 -101.660408
973.810852 449.594238 4.177515
978.763977 443.882294 -26.983633
907.899780 446.002014 -126.814339
668.183777 524.757507 -111.941315
736.886230 437.487915 -379.561859
888.199890 478.780334 14.967537
681.766357 505.903900 -162.368546
923.823975 433.176575 -187.238693
689.294617 505.388611 -191.204895
879.232971 440.715210 -300.728424
1074.353760 424.855560 -26.685432
913.466125 476.430237 13.808660
606.353333 520.825317 -265.180267
787.599304 490.836365 -95.389557
571.630127 511.741821 -217.616318
671.366699 532.441956 -78.862953
841.998901 442.494629 -189.458466
1028.661011 405.522125 -55.949268
596.960510 517.830444 -179.912643
563.468567 518.816345 -221.390884
774.086365 515.456238 20.622536
835.865479 509.703186 31.090921
937.188049 361.276794 -251.176147
733.296021 494.971344 -184.254898
949.858643 360.300262 -237.220688
770.078308 432.805756 -259.804565
979.022339 463.140808 35.361668
827.117371 531.315308 114.018654
972.332520 412.711334 -199.897598
792.322510 497.728302 -42.467716
981.414795 413.839447 -191.414505
967.616455 365.057678 -213.135147
895.301941 429.063110 -114.482018
607.284546 508.176697 -280.821991
1018.822449 430.288300 -29.143614
856.693359 517.642700 109.274086
829.893250 475.490173 -77.839409
989.499512 423.196686 -166.429657
826.520142 472.282074 -139.280838
862.283264 509.036621 123.944405
913.271790 477.967102 50.090866
904.019958 500.557220 87.680183
1015.774170 418.946625 -93.949013
602.369873 533.604431 -211.571457
973.783508 435.025940 -97.019302
676.428894 477.844971 -319.848633
997.553589 369.164429 -182.110504
1008.629089 421.712372 -66.053535
690.462646 518.255127 -148.208221
902.519348 493.516113 124.652824
735.178833 526.275696 3.975182
946.986267 437.803864 -2.058617
898.359558 471.491974 0.810077
611.305786 519.405151 -217.696472
1022.750732 436.978333 -7.296881
719.275940 535.620544 -47.922890
779.628357 441.728027 -271.132568
906.451172 452.250183 -65.409950
717.670227 519.679260 -65.947746
613.905334 501.343018 -216.092651
707.259399 451.140900 -406.223358
772.151306 474.659637 -134.261108
977.296631 423.464020 -117.858276
874.231384 493.535645 85.466339
832.948242 415.420837 -277.753174
990.096985 457.548126 23.425360
804.549133 503.825562 29.008478
796.767029 503.950714 -62.995438
651.110046 535.193970 -150.158829
637.130005 521.620483 -225.161972
923.050049 372.622955 -266.107513
633.513184 514.749023 -178.588470
1029.582275 441.238678 1.613314
712.113037 457.923645 -294.269257
741.873230 427.061981 -367.359528
756.749146 491.263672 -159.245422
852.065369 512.096313 73.642815
769.909851 454.757080 -280.953430
858.900024 441.869324 -171.515640
825.819153 495.578064 7.310919
901.252686 467.794006 -31.348930
609.317383 528.298401 -196.868774
885.806946 441.994781 -142.268051
774.507935 534.026550 26.456760
997.397888 408.132935 -44.183941
799.750732 454.545013 -246.608826
805.982300 445.675323 -266.318604
858.496094 444.618591 -177.698090
705.512512 455.359314 -318.524994
787.265076 501.601440 -89.561493
636.848938 484.556793 -283.203613
748.334961 478.396729 -169.979385
989.418945 415.565704 -94.788620
1076.192505 438.475830 -106.632614
1034.539551 421.914520 -45.170300
932.765503 442.298523 -102.131180
913.407288 432.991638 -164.284790
708.286438 506.735229 -132.994537
861.672241 459.773499 -111.121246
610.187317 507.544495 -277.126434
1032.897095 405.700592 -138.394531
873.510315 457.228943 -114.644775
887.756592 512.819031 145.377869
1048.415894 412.507111 -64.251190
1005.683350 446.238647 -8.945097
732.826599 538.806458 -3.286165
813.738708 480.275848 -106.969933
709.794861 451.965912 -288.619965
717.808594 511.399200 -125.248680
981.874451 443.499298 -57.716297
696.172485 468.684998 -383.952606
874.895569 479.593170 -49.869087
620.025269 528.500061 -203.065903
851.099426 507.120392 95.666939
948.051025 445.359070 -85.730522
725.666443 516.894226 -45.338028
964.587402 444.333618 -16.532969
775.236816 431.868835 -307.799316
914.757385 427.374603 -164.198303
1023.600952 404.937683 -176.494049
599.560669 508.960175 -167.121826
618.973816 525.992249 -165.528671
545.596436 537.702148 -227.341064
755.460876 523.204834 13.261325
708.773376 474.868958 -240.247910
555.567566 545.852844 -208.653046
914.559631 456.707397 -81.558807
841.811340 454.762054 -374.846619
824.505859 477.295227 -84.658722
879.008667 469.955902 -39.085903
619.690857 495.845551 -303.669037
980.664368 447.552795 -19.208740
929.876160 353.345459 -235.763779
757.848755 522.164429 22.867218
897.733093 485.310760 83.418892
893.662231 455.695953 -109.490898
949.568237 437.986603 -51.612598
785.805603 495.601654 -98.168823
755.214661 489.962860 -179.631927
619.049133 515.630554 -202.623459
693.133545 503.116669 -202.469513
763.608276 522.761780 -28.136847
714.480652 478.214325 -290.322723
876.441650 519.062317 115.911369
742.443420 468.429199 -287.109741
967.041870 388.844574 -187.100327
648.867859 523.671997 -82.814384
816.795044 475.986633 -140.964722
1062.419922 416.808319 -67.684868
1079.762329 434.082642 -53.688831
751.017700 526.094360 -9.349847
828.585876 492.249695 -7.701008
901.576355 457.441986 -59.279266
794.872498 440.034302 -200.523468
716.272034 493.375122 -153.434937
933.774597 478.174225 65.378098
988.245667 380.308929 -198.871307
1018.780396 430.746582 -21.806694
994.448486 415.351715 -182.424774
917.536194 405.708191 -260.717102
859.854980 411.082245 -342.863312
703.167480 488.894135 -268.265991
642.435608 505.368103 -242.922668
735.806885 435.068695 -346.198822
759.371887 442.573456 -296.655121
960.928894 420.354736 -47.397083
810.924072 439.467102 -290.018585
780.923889 432.821442 -298.958191
982.024231 385.724915 -201.055511
872.866760 447.846558 -147.790833
582.159058 553.755432 -184.619690
659.467102 461.527100 -343.387390
639.958618 517.096619 -178.115326
614.874878 548.587830 -164.792328
1015.387451 423.059265 -43.995491
680.107971 535.434021 -58.722794
725.364258 442.639679 -377.456726
967.448120 432.661194 -71.770851
748.902527 454.895203 -283.153595
1037.359863 413.759674 -45.559521
927.096375 487.889435 75.853188
847.278381 488.600006 -48.381031
700.658752 502.646149 -150.263290
673.228638 488.477905 -290.636780
941.431946 459.336426 43.765591
918.412048 436.344513 -34.496593
630.912415 501.151642 -182.974625
946.259399 413.537170 -234.101349
752.470154 497.375153 -104.397049
871.944946 472.628235 -86.589752
912.967712 483.634949 8.007702
800.378784 464.976044 -175.525818
619.779053 511.027771 -211.892731
803.113220 516.904846 74.475716
761.927979 486.108917 -131.418152
945.498657 361.284912 -248.074524
941.086243 450.401215 -75.174278
700.459167 495.457581 -192.390701
639.981201 497.525757 -324.764709
868.847046 469.570404 -64.719421
749.547791 524.638123 -1.124688
836.855591 426.279236 -244.941040
740.353760 518.995911 -39.898079
628.328674 532.254211 -136.394547
889.770325 404.370148 -290.248871
980.072510 433.194214 -52.712097
693.866211 514.753174 -114.176529
933.758179 480.290894 55.801044
816.486084 456.230988 -172.251266
658.194214 515.835022 -186.833725
591.025085 520.746826 -193.931122
709.357910 533.915894 -50.134724
865.837097 428.910492 -287.110840
948.917480 340.492920 -216.976685
714.220886 515.717834 -73.635849
838.813110 539.087952 108.590195
608.327637 520.467224 -201.950195
837.700684 469.507111 -135.019485
818.241394 516.581604 68.128525
875.788818 372.116394 -316.111084
837.234802 512.763489 122.531197
705.964966 447.688446 -343.278351
608.489502 529.951599 -142.666809
830.236877 475.884857 -87.572815
766.554443 520.583130 -2.672656
799.037903 519.252136 16.389715
751.821960 449.066315 -437.307709
688.686523 539.727783 -85.455208
755.733398 517.639343 -34.203060
983.549438 413.698730 -189.914474
995.923096 426.504608 -53.446087
862.441895 441.359161 -156.232117
841.616882 511.248505 66.029335
818.820740 444.796326 -261.152435
645.014893 476.997437 -275.652344
1026.684937 418.879547 -67.005188
974.533386 353.404755 -208.337524
801.587646 523.441589 25.087666
625.756287 530.451965 -162.332275
952.023865 449.264801 -11.082175
861.730957 493.610718 42.361519
671.575928 451.028259 -328.533783
830.126587 469.707153 -30.296761
641.388123 474.131744 -274.456726
847.986694 449.401306 -373.623688
824.761353 462.140869 -189.686249
881.424744 467.167358 -47.553051
