ply
format ascii 1.0
element vertex 1370
property float x
property float y
property float z
end_header
153.725372 -915.916870 -444.422821
368.450287 -727.244385 -476.794800
207.795410 -930.860718 -460.640991
496.053864 -738.633057 -416.844940
356.768921 -664.130249 -488.780212
485.848999 -826.754150 -412.854614
165.910873 -657.969299 -578.689880
332.571930 -889.273132 -445.417633
230.495255 -582.565063 -545.030823
81.259483 -804.867798 -581.012085
200.494934 -921.889709 -512.673828
516.476501 -757.340759 -418.092224
372.309418 -810.305725 -459.772339
138.645767 -600.103210 -597.019531
390.128906 -956.524658 -423.114166
318.263702 -847.693542 -470.283112
330.133453 -716.876953 -493.380371
251.235947 -538.880432 -545.252075
163.975861 -789.333008 -525.616577
300.342102 -1002.849976 -496.576660
473.107147 -715.029175 -419.534546
224.191605 -958.406128 -461.595001
172.041977 -596.589294 -551.104309
198.299606 -915.424805 -477.835754
375.360413 -693.856079 -460.529053
435.784088 -825.601318 -416.791229
202.542496 -916.194824 -496.603058
376.069092 -795.483887 -453.074982
477.139893 -850.753357 -404.817261
269.853271 -664.062500 -535.374939
345.267517 -865.730286 -439.406555
404.523804 -721.341675 -454.694672
373.306671 -645.002930 -486.724396
391.350311 -816.626526 -446.036743
243.585938 -957.141785 -481.155609
382.602020 -782.213684 -453.498383
175.331375 -643.109497 -578.702881
216.763168 -798.384155 -515.705505
163.294327 -834.976196 -513.216492
420.413269 -799.158813 -435.053772
410.296967 -921.732910 -414.742157
496.615875 -801.442810 -417.139984
308.062469 -973.617371 -476.315704
265.230804 -636.368835 -532.061157
390.552734 -693.963867 -482.871063
157.986313 -803.578491 -537.688171
240.384293 -787.446960 -502.042542
124.381470 -589.895447 -600.132141
242.261703 -553.568726 -558.279541
427.250946 -774.517517 -448.256073
193.351379 -524.959778 -579.274902
297.830200 -765.894592 -498.750153
295.675385 -869.642639 -471.542664
384.808655 -747.388000 -462.456940
134.751221 -713.654053 -568.695679
130.365326 -863.689331 -542.508606
487.625061 -822.551208 -413.444641
466.830078 -825.821228 -410.318695
414.411377 -745.630737 -432.600891
335.202789 -717.377014 -462.153717
326.975189 -779.474182 -472.430206
328.118744 -808.160339 -477.116974
298.371521 -713.365417 -501.735352
242.691589 -634.224548 -516.319885
341.033264 -686.474854 -492.070435
358.769897 -903.890320 -440.104309
290.216797 -893.086609 -460.897156
435.118988 -697.451477 -450.269318
319.746460 -718.977356 -493.883240
455.696198 -710.972168 -457.928650
209.002930 -870.569824 -516.808899
264.685547 -821.717651 -481.793274
493.426025 -795.300049 -412.568909
535.797974 -759.924805 -400.858887
348.209351 -911.741333 -439.414215
253.351959 -866.163940 -488.883331
427.757507 -746.822266 -427.490723
142.064713 -718.820068 -543.083191
124.267876 -812.273682 -559.856628
297.076019 -685.864258 -511.162415
130.634583 -899.462341 -454.924133
197.726807 -849.055908 -519.729309
281.001953 -740.352112 -500.641724
167.337738 -736.706787 -557.681885
249.861420 -790.617493 -514.922974
438.351105 -870.035034 -420.264618
107.161423 -715.595825 -565.075928
173.681915 -521.561340 -571.286377
336.947754 -857.106201 -462.424286
265.329407 -661.888367 -537.568481
113.335793 -802.897583 -566.488403
403.373047 -887.718262 -425.869904
110.001572 -803.659973 -540.443909
311.677460 -798.580200 -477.090179
300.257477 -849.037781 -475.975922
429.690704 -906.147766 -414.743591
250.116455 -958.347473 -505.351410
420.379669 -831.794617 -435.616486
408.849823 -706.903870 -445.013855
259.176544 -830.252991 -489.414734
498.566528 -751.433594 -408.858185
268.139496 -600.953247 -519.052917
90.345093 -855.054199 -470.373444
221.312164 -687.120605 -537.758850
263.269531 -708.366394 -516.672913
374.260071 -678.875732 -479.059021
398.221649 -813.444885 -444.362610
163.590836 -627.264771 -587.381470
416.297302 -699.045227 -474.993988
155.776825 -819.335876 -523.961060
166.536606 -651.393555 -575.418701
233.482651 -746.794250 -526.648132
195.011902 -585.717651 -564.919983
299.383301 -605.437805 -522.532776
107.622620 -601.933899 -593.212402
345.471893 -1025.024414 -468.616577
404.020782 -907.585388 -421.610046
65.521057 -674.722107 -589.225586
173.442505 -820.614197 -523.907715
171.263718 -817.851929 -526.879883
32.109913 -714.757507 -614.926697
260.632477 -773.151001 -499.925903
498.076385 -732.748108 -427.462097
-219.215775 -992.528320 -652.809143
254.673019 -548.061218 -556.773254
371.552460 -710.005493 -474.966949
211.783737 -608.286682 -571.830872
152.489044 -913.162292 -456.501892
512.952332 -763.153564 -397.064606
274.101654 -721.073486 -520.899597
234.592590 -829.302490 -505.327271
327.481049 -688.445618 -510.700256
469.852783 -836.086853 -407.216248
220.337540 -952.535156 -484.352875
143.223495 -898.764709 -477.439911
216.821976 -585.044250 -538.839233
200.722931 -630.594055 -568.357849
349.843811 -719.096680 -495.496765
349.367554 -643.809937 -487.389099
304.530121 -878.105225 -457.241516
297.068512 -799.879272 -482.706482
354.250031 -860.693665 -454.962372
395.242615 -706.748169 -477.931854
72.478127 -781.624329 -590.980225
323.816040 -837.341919 -470.170319
317.481506 -826.278564 -466.095428
190.296417 -764.154724 -538.748718
438.933868 -872.143860 -415.423523
402.598328 -855.429810 -439.254822
190.278229 -931.375366 -471.555084
134.581390 -577.667297 -599.073364
200.852448 -824.227295 -518.940002
117.625427 -888.821533 -455.673462
399.833160 -659.277649 -476.327484
396.994324 -868.681763 -437.391052
371.222290 -840.827698 -457.889862
398.508575 -761.674133 -452.117401
93.267036 -602.618469 -611.886108
292.563019 -700.798828 -504.036255
442.876678 -813.732971 -435.587555
317.670441 -936.371826 -455.078613
376.441711 -951.553406 -425.204926
268.864685 -926.306030 -490.614899
218.194733 -961.042419 -452.871643
492.289154 -800.516602 -417.751801
260.521210 -593.718628 -544.654236
239.768097 -879.376709 -493.970154
450.533783 -828.074280 -426.977081
376.897400 -739.113831 -463.361237
350.715973 -894.364868 -450.893372
485.785645 -718.433899 -425.550873
114.997581 -785.701233 -567.563843
126.485046 -603.908813 -563.864014
166.626053 -683.281006 -565.183899
377.522522 -927.602234 -422.259674
497.314117 -773.653687 -418.122101
386.772919 -701.715881 -470.057831
326.223053 -890.844849 -430.562897
119.803246 -856.830566 -536.810608
329.347168 -792.611694 -475.338806
12.130638 -763.003052 -636.033081
376.753662 -700.719727 -488.525360
125.804001 -756.050110 -548.827026
510.465912 -749.074158 -418.365295
202.018997 -688.548767 -530.637146
216.400955 -816.579468 -506.590393
138.031631 -548.039246 -606.421875
95.194473 -738.143311 -550.258423
222.413437 -619.833191 -554.710938
237.644775 -616.825012 -561.843262
201.026352 -572.695496 -572.592529
173.642303 -681.796753 -563.184998
244.181946 -737.773499 -511.869019
237.382492 -658.550598 -539.428223
93.294304 -723.289246 -565.455505
92.832222 -734.792480 -565.298218
357.560211 -639.526245 -499.423218
61.891338 -726.088562 -593.191833
230.815048 -602.833496 -519.801636
284.117584 -556.848022 -540.804077
208.239594 -949.469971 -456.839539
128.859756 -845.668152 -561.715515
236.896866 -939.817383 -477.522736
91.313705 -712.562866 -571.450806
403.639679 -909.701477 -408.153381
326.773102 -817.452271 -474.575439
203.439972 -548.729614 -571.476379
278.899475 -654.250854 -522.636169
108.626480 -867.705994 -534.764648
271.609863 -980.862000 -500.481567
187.289871 -919.117371 -451.936188
223.887695 -708.723450 -542.294434
143.915817 -681.186829 -581.159668
205.732559 -920.435242 -474.790314
181.830643 -544.385864 -597.731750
144.782196 -584.999023 -585.505493
303.020782 -873.986450 -473.996063
202.511414 -921.489319 -490.826538
330.795380 -838.789673 -460.735077
319.424591 -865.104675 -456.841705
129.626022 -599.184509 -583.084717
276.905945 -925.644043 -471.143555
360.777161 -800.404358 -466.551300
180.723404 -864.134094 -524.995850
476.010925 -732.568237 -439.027802
152.614487 -599.093140 -597.472900
295.348816 -963.061707 -469.682037
457.742523 -776.551758 -434.409302
254.976105 -672.409851 -529.252319
406.391815 -780.072388 -444.668396
282.034058 -549.382080 -553.360291
131.256210 -872.355896 -510.899048
181.492020 -822.845947 -510.503723
138.702042 -896.056763 -478.772675
290.178223 -880.609009 -473.506500
522.531860 -796.079285 -399.604218
290.139954 -649.688660 -516.832886
519.025208 -808.125427 -402.327454
417.674530 -694.625488 -459.091400
397.799713 -719.542664 -459.332611
326.734375 -948.462219 -438.649811
180.992706 -658.240906 -568.583496
359.873169 -707.399292 -483.120483
492.852478 -738.942017 -424.954254
316.539124 -670.037048 -507.617126
327.903015 -888.003540 -459.375397
221.854324 -737.420715 -517.080566
377.517120 -630.232971 -493.365204
153.854996 -860.752136 -550.403503
58.025387 -732.333862 -567.563232
209.036041 -696.327515 -529.090881
34.678886 -737.579895 -603.041016
162.622604 -847.113953 -544.920654
109.560898 -676.427856 -594.815857
134.258713 -546.468933 -583.066711
400.089844 -698.397522 -465.362396
197.854996 -700.576721 -522.228882
257.281036 -616.198608 -514.389343
490.431152 -786.830261 -415.891418
416.212006 -837.506592 -437.044830
59.797215 -699.250793 -583.960205
407.023132 -864.859680 -406.370819
195.419037 -523.850098 -590.365234
171.503494 -805.361389 -528.012695
187.029266 -915.910339 -498.436432
204.081161 -798.391479 -510.215057
125.253876 -873.831848 -533.361267
171.848602 -897.992737 -512.974304
397.577545 -694.923157 -471.632385
150.810730 -639.031067 -571.173462
371.711548 -854.459351 -452.981812
180.771332 -906.030151 -501.849182
162.872482 -798.779297 -522.794128
314.820953 -927.595032 -439.828033
229.310089 -712.781555 -536.373840
326.219391 -897.516785 -448.490845
75.067276 -701.020447 -575.090820
195.913452 -733.095520 -543.141113
164.182602 -681.791260 -568.589966
92.293022 -662.758606 -588.866150
165.783066 -569.376526 -582.428833
190.110016 -931.314453 -459.007080
223.605484 -566.251160 -579.218201
355.196259 -742.104675 -476.892334
283.996094 -639.416138 -525.807861
282.913177 -916.572998 -465.489258
219.547699 -752.438110 -535.536560
362.812897 -894.085938 -439.868256
478.965393 -706.232422 -449.220367
537.582703 -768.018677 -412.432526
287.225861 -891.304260 -466.624939
161.292206 -878.300842 -498.546234
120.565353 -741.851318 -566.291016
256.374695 -701.209534 -521.421631
365.209229 -662.972107 -493.895325
431.765900 -730.273376 -461.115204
301.903198 -854.565308 -449.247528
180.932755 -932.561218 -457.831482
413.468933 -685.153442 -462.085358
179.802444 -899.558044 -515.548279
150.918747 -820.770996 -535.649292
413.496490 -876.937927 -411.335846
92.584145 -739.368225 -582.814392
84.939934 -627.409607 -625.055969
370.762085 -618.423950 -499.251465
367.749908 -712.138428 -480.824249
393.024658 -786.017456 -457.981537
87.993233 -682.428406 -598.808960
91.761566 -781.717834 -576.365051
321.305573 -830.754944 -465.966736
146.574341 -894.487122 -506.862640
369.932373 -770.008911 -466.225616
111.673836 -580.528748 -602.527527
184.632813 -513.957520 -577.781128
116.135185 -748.982117 -564.742615
193.682037 -862.500732 -503.335632
204.388458 -615.477051 -574.423523
294.214661 -644.094055 -516.968323
97.521729 -838.799683 -550.866699
146.197571 -885.790039 -488.566956
172.612732 -800.130554 -521.178772
330.530243 -723.655823 -500.452515
126.986092 -876.022522 -518.630615
351.616119 -973.673157 -435.711060
96.205498 -599.571106 -593.679871
95.978363 -716.658386 -552.358154
504.037140 -729.987061 -426.231964
479.059845 -716.214722 -446.650238
147.467163 -528.365173 -581.338379
416.134094 -875.114380 -419.232727
322.673126 -885.238037 -461.108124
208.084702 -903.189453 -506.549255
191.000717 -771.489807 -534.988953
375.302429 -749.977051 -476.096649
181.494095 -714.330933 -540.345398
290.129272 -728.145752 -512.716858
288.238678 -996.367371 -490.538605
120.777184 -566.992615 -580.026733
306.849213 -675.286194 -490.571625
158.114334 -556.888855 -597.154236
44.632088 -749.405640 -606.107300
440.512817 -825.753479 -429.201172
222.484009 -678.516235 -547.230286
361.804901 -793.807068 -472.264130
117.884193 -598.950378 -595.099548
205.496674 -924.184509 -474.895996
363.999023 -834.354614 -458.409851
26.888765 -692.191162 -621.066101
286.953003 -874.670166 -475.332581
427.914673 -702.848389 -451.895020
309.434662 -825.971619 -478.486084
108.646660 -878.740662 -499.139130
219.977509 -949.528870 -471.334961
332.416199 -595.726868 -516.331787
212.387573 -550.052795 -569.663635
175.322388 -787.904175 -523.989929
340.195862 -693.912415 -504.983124
386.948975 -853.108826 -441.373840
374.283264 -827.735657 -451.346100
277.503235 -763.697876 -511.499115
168.547531 -774.072388 -542.693542
77.457199 -729.069031 -582.726501
130.472992 -716.628906 -556.896667
291.210175 -760.609680 -503.237854
206.491180 -917.880310 -482.715790
44.857971 -685.481384 -608.844788
375.940887 -915.188843 -405.612457
192.891144 -858.125793 -512.687073
266.937042 -568.040283 -544.382080
273.569885 -569.353577 -567.361816
232.405792 -647.198181 -542.222656
451.277679 -698.421448 -447.565399
280.452240 -747.279541 -514.256226
120.919685 -849.586182 -562.033875
231.821472 -807.682922 -509.184509
226.014389 -831.593079 -497.062805
212.526886 -801.666748 -520.874878
294.406494 -656.063965 -518.167725
335.250122 -995.037720 -457.434845
388.026001 -949.988281 -417.469299
469.328522 -782.782654 -430.204895
199.311874 -786.429138 -519.222412
295.133545 -902.396362 -448.863983
341.833984 -874.579773 -447.172638
188.618439 -841.064209 -512.771118
466.854065 -770.621399 -408.290466
238.003586 -643.417236 -551.097351
185.547882 -940.038818 -453.484589
304.416992 -661.841187 -507.909180
147.901077 -792.781921 -545.782471
323.632568 -612.921997 -514.614197
249.408295 -668.120117 -544.327515
252.543655 -850.113953 -493.916626
138.991684 -546.729370 -615.243408
67.637093 -671.376221 -595.667114
222.201843 -739.339661 -513.609192
249.130478 -570.737732 -571.567139
500.667999 -795.516602 -410.570435
227.833862 -554.190186 -563.785522
193.713989 -769.124756 -522.134155
128.741394 -743.679993 -550.885803
159.224152 -895.766174 -478.255219
180.007263 -912.030823 -493.111359
351.572327 -780.791077 -477.400726
422.602386 -705.289978 -433.841736
75.874802 -716.820679 -575.685181
298.148346 -782.763245 -480.846527
188.457214 -824.542419 -503.158295
106.573334 -856.081177 -511.247528
360.522980 -706.865234 -476.150452
454.416595 -716.668030 -447.795624
244.065994 -916.670532 -499.461670
109.762505 -675.840454 -590.667725
355.169434 -620.313843 -493.942078
133.407349 -859.620178 -523.958191
200.206528 -907.060791 -506.138153
207.867645 -825.177551 -515.900940
145.347595 -663.399719 -584.153198
274.180939 -838.815674 -478.084534
206.848343 -549.050415 -585.851563
306.649139 -811.187866 -473.682190
547.495728 -770.401794 -399.905670
131.670151 -677.230408 -586.488220
124.209076 -737.233582 -566.225830
308.478058 -626.732788 -517.220703
318.384735 -795.385315 -483.261658
202.071564 -626.347046 -572.151367
249.458832 -863.021912 -491.109497
251.135971 -961.038208 -486.911011
463.027893 -835.714111 -418.516022
128.490952 -875.312317 -511.036621
96.636375 -747.975647 -562.529724
403.870850 -688.749023 -462.176056
408.709686 -821.001099 -446.709229
51.674755 -707.477600 -590.108093
121.034935 -773.050842 -535.549927
256.417206 -787.733643 -498.377747
180.908768 -607.995483 -556.524475
473.698822 -812.387512 -416.753204
118.882385 -884.478577 -479.565826
294.240936 -986.038574 -490.276520
136.602524 -765.994080 -544.036133
284.288727 -879.930725 -475.451660
351.542358 -725.409302 -478.221588
350.564331 -857.354736 -456.987823
259.180084 -671.083008 -537.789978
146.698517 -885.742981 -502.357574
464.087555 -774.430969 -432.035034
88.901222 -863.198120 -508.413208
242.607697 -536.435120 -561.889526
169.088715 -673.656738 -560.892273
120.667976 -857.266479 -559.442017
144.664032 -725.536438 -554.095215
89.373573 -643.631042 -590.456909
318.119507 -667.466370 -487.749573
401.195679 -851.300781 -407.322327
523.791870 -763.796143 -400.338013
423.595245 -817.804810 -430.139709
183.778885 -559.375977 -579.360962
431.270172 -863.773865 -408.119781
293.160706 -707.970703 -504.847992
79.011024 -837.182922 -535.522705
482.585083 -815.268127 -417.483398
187.541855 -526.954590 -595.880981
275.282654 -709.089478 -509.911469
328.767242 -838.122986 -471.490631
31.077103 -698.144165 -620.373535
59.909447 -659.803345 -596.912476
379.198578 -778.276367 -457.355377
3.327027 -741.139587 -648.294067
294.538391 -690.527588 -511.250580
394.151825 -736.123901 -446.331390
303.128876 -615.400574 -534.494934
196.842087 -874.753357 -490.823547
319.150696 -1005.952576 -478.441315
396.824036 -742.254578 -452.824677
437.546906 -795.698303 -440.744934
213.788071 -925.572754 -493.375793
142.116943 -682.936951 -543.522461
373.424103 -725.952148 -483.353973
234.294037 -957.075439 -467.368073
160.916809 -633.338379 -568.562561
442.687866 -786.180115 -440.931061
177.441910 -489.940308 -608.676819
117.642380 -874.629028 -510.336151
429.141205 -767.551697 -438.640289
212.023483 -551.793091 -557.478516
240.583878 -668.872986 -534.358826
181.004288 -694.550232 -557.026001
161.562531 -871.764282 -517.786194
285.101379 -794.730591 -501.153717
297.713531 -579.771667 -531.898560
335.816589 -598.492493 -516.865601
426.537659 -686.396301 -454.366852
220.006805 -660.484436 -551.805847
71.775955 -714.132568 -577.666992
240.313782 -867.195190 -482.500153
140.173309 -804.411560 -552.838196
289.206024 -574.250977 -550.404907
393.250183 -939.715149 -418.661011
251.665268 -910.347290 -494.346832
379.546265 -635.053284 -491.585968
197.601761 -566.951477 -584.356140
181.584747 -907.866455 -472.097015
135.704102 -604.713440 -599.220520
344.705414 -622.328369 -524.019287
490.092712 -734.938416 -415.270325
223.513336 -689.034607 -531.338013
390.635223 -643.788513 -486.627502
262.131409 -822.791443 -496.076935
239.351898 -708.568604 -518.211792
362.860748 -917.357544 -415.601196
306.143127 -712.786316 -501.989380
403.793213 -761.799377 -432.283020
290.946106 -590.938904 -554.069275
423.430695 -788.941711 -447.362976
160.271820 -599.606506 -554.377075
392.034515 -974.792969 -407.039093
321.023193 -769.757263 -483.789368
319.720856 -880.897705 -463.316315
452.831207 -772.278564 -421.649811
171.097824 -920.658997 -448.242584
180.217606 -797.708618 -531.744873
83.253357 -845.521729 -492.212799
117.895813 -759.701477 -549.909668
256.787537 -799.956177 -490.667328
243.342514 -618.810242 -529.590942
451.365906 -700.263733 -443.366730
267.614014 -765.140503 -505.342590
490.816681 -740.981567 -430.355896
140.772095 -723.958923 -557.106384
100.739540 -874.993469 -482.138824
311.735016 -824.660706 -477.493988
300.424652 -631.739502 -522.534790
179.900940 -528.881104 -601.068542
76.412277 -763.691101 -562.861145
34.771248 -698.182068 -579.373535
214.211166 -635.526550 -547.309143
359.306335 -659.846497 -488.157013
395.401764 -764.423157 -463.866791
350.404541 -840.725525 -456.085297
159.287582 -904.830627 -478.415558
362.705933 -784.689392 -437.040466
137.540344 -571.642395 -576.898132
523.654053 -798.192993 -408.739807
340.408112 -945.735962 -429.142395
338.077301 -990.233643 -439.958710
212.015198 -805.866943 -500.966431
368.590302 -695.857117 -479.775238
240.168320 -657.595032 -536.649902
113.030067 -803.913513 -561.675415
179.362335 -780.334167 -526.643127
298.982513 -675.985046 -518.367920
349.785461 -807.435364 -437.836304
125.917358 -906.310730 -476.551117
223.269882 -837.346313 -509.163513
224.951706 -947.101929 -475.747742
351.582214 -883.992920 -439.785034
225.044235 -619.901917 -546.949097
185.813217 -649.373535 -555.487793
134.912979 -849.692505 -548.084045
395.270477 -734.875183 -460.909729
405.934113 -716.981750 -475.021637
114.767677 -887.226440 -473.895996
282.803528 -815.271667 -491.117523
386.266113 -946.705444 -412.295776
383.941315 -820.203430 -449.827728
514.468140 -756.090210 -397.233704
198.364807 -800.935242 -524.796082
288.643738 -727.895081 -499.320404
155.597031 -866.730530 -543.097595
193.972641 -947.186768 -432.538940
425.653717 -685.263306 -459.906250
237.998779 -944.832031 -474.117340
101.827393 -876.750366 -511.697937
311.391815 -953.903748 -450.532745
208.494186 -782.512878 -517.841248
280.455383 -788.324219 -484.994751
9.691484 -730.180786 -606.871033
402.334900 -649.297119 -479.850983
148.038361 -667.896423 -577.721741
295.545898 -881.839539 -471.000671
184.722473 -746.109131 -515.794373
277.992859 -967.254944 -494.602631
151.190811 -778.488342 -527.714111
245.043106 -796.041138 -499.929688
214.022980 -584.254333 -559.264954
407.039276 -821.506958 -440.215485
425.166992 -911.813110 -417.356171
218.213364 -832.739868 -511.214813
137.674316 -610.212280 -567.174316
109.528969 -676.492981 -583.258789
181.920181 -583.699829 -590.679932
174.608719 -893.386963 -517.506104
420.717651 -922.135986 -414.180847
141.281494 -631.602173 -584.742920
136.108170 -866.198853 -540.461121
445.673431 -902.249634 -404.536926
422.540039 -675.116028 -448.840851
196.918289 -924.790710 -452.206848
118.447075 -882.629517 -493.988831
150.699341 -652.771118 -567.397400
498.946350 -736.642212 -423.382751
136.908310 -727.756714 -571.016785
304.088623 -888.901917 -466.623596
297.508484 -636.609863 -517.082764
385.783752 -710.085083 -481.015533
355.702576 -730.816528 -476.167847
304.034821 -760.100769 -502.331757
417.529938 -881.221985 -425.687805
283.475830 -775.673889 -495.130798
140.425903 -884.768066 -501.330170
248.138962 -714.808044 -531.053833
177.327347 -912.993896 -470.435242
451.192749 -785.841064 -409.896820
503.035522 -828.715210 -408.478180
453.243835 -724.130676 -434.749420
116.137764 -844.148193 -550.665710
244.312088 -955.658875 -486.917267
128.042862 -741.647827 -563.601257
364.456421 -803.613831 -436.528809
252.879669 -861.858582 -479.251190
185.290253 -513.674377 -583.824219
331.273712 -806.423218 -467.248077
292.030304 -691.688110 -521.818237
318.434326 -854.351929 -459.081573
451.840973 -793.808350 -438.207886
344.893433 -635.230957 -500.265594
429.521606 -867.819885 -425.683624
157.637527 -720.103394 -546.505432
377.293823 -914.565369 -412.372284
264.185211 -797.821228 -502.510895
263.340759 -585.352234 -543.857788
118.199005 -654.114502 -592.016785
156.874954 -923.924866 -441.526489
227.891830 -615.136963 -535.605652
423.848480 -680.445801 -460.391937
347.311066 -736.960510 -480.671997
378.033142 -897.566956 -440.174957
359.639038 -798.182434 -466.360321
230.826050 -791.961182 -517.179871
217.886887 -721.613525 -521.386658
236.959335 -785.840393 -511.522125
245.208878 -960.880554 -480.725800
229.730728 -884.935120 -499.114197
333.329315 -614.759583 -528.443420
375.810333 -634.659668 -499.177124
256.541809 -977.625366 -481.728821
130.296631 -870.597473 -517.564514
495.346741 -751.532532 -411.116272
184.238998 -751.327576 -534.181458
127.818871 -694.414490 -563.087219
511.429321 -780.511658 -411.281281
229.505646 -706.132874 -539.849243
553.858521 -789.554382 -395.925446
128.793060 -667.036804 -577.151306
357.520172 -642.760132 -495.064117
453.627777 -875.101440 -409.041260
339.713104 -669.374329 -495.084442
425.487976 -772.786987 -450.434509
123.283524 -715.334595 -564.431946
344.870697 -710.157654 -484.788269
378.472839 -679.230530 -477.932281
106.868774 -872.989380 -508.732758
323.571625 -767.290222 -456.133881
394.411713 -761.627136 -439.305420
487.646423 -777.999268 -420.064545
411.632416 -879.725281 -398.058197
51.449055 -689.801514 -612.437256
380.119659 -920.057068 -428.191528
395.033356 -700.861023 -473.988251
184.827652 -795.734680 -518.951416
146.118698 -733.418457 -539.037781
305.595337 -769.523010 -486.555725
186.456650 -723.280334 -528.552856
357.954926 -798.957581 -440.104248
285.316406 -574.932922 -554.886047
477.641815 -868.290955 -403.967926
130.568161 -692.841064 -569.775085
463.479095 -822.961365 -423.218872
73.285271 -705.646423 -595.779907
323.844269 -922.485779 -448.131134
295.630615 -630.619629 -494.311768
166.906219 -687.518860 -542.141174
169.964081 -584.705078 -589.861938
389.350861 -872.997192 -435.388306
270.884094 -839.920410 -488.952667
84.237312 -706.600769 -591.049988
460.541962 -830.354492 -404.410187
465.340637 -738.437073 -439.965424
174.874405 -771.182190 -532.903809
352.926941 -669.109741 -503.308624
293.310394 -857.622253 -468.458649
309.166595 -594.252136 -524.306824
221.530869 -538.324951 -568.087524
167.582108 -926.006409 -451.118835
114.918915 -727.481995 -578.969788
419.332794 -667.224670 -471.065063
268.742004 -647.139648 -539.002747
294.316010 -886.378906 -454.512848
396.537933 -801.280334 -448.314575
173.556824 -908.235535 -490.035675
464.042938 -806.948059 -425.549164
114.985023 -847.465759 -547.938049
64.298698 -688.748535 -605.127502
426.817871 -750.928284 -426.809692
478.989319 -813.274780 -413.320068
292.385254 -820.242798 -486.204773
108.411201 -850.878784 -524.354004
139.389725 -661.420227 -566.430542
276.558960 -573.646423 -522.010193
208.299133 -549.743591 -565.903870
251.069778 -719.377991 -514.807007
170.367706 -842.323242 -523.838013
189.549393 -926.532410 -461.168732
439.266052 -904.599915 -410.821960
175.724304 -785.757568 -536.887268
358.717804 -777.964844 -474.030792
122.024368 -880.022034 -458.894348
489.391815 -728.293030 -418.104645
120.855705 -893.291565 -450.610474
172.895447 -887.479126 -491.306396
352.223999 -686.877869 -484.072479
44.355968 -767.485596 -604.604065
156.017822 -876.239990 -507.569824
164.945297 -595.685730 -584.737915
53.760708 -689.947876 -589.021606
391.210236 -732.009766 -475.497864
131.407944 -816.177795 -542.779541
385.558685 -739.762634 -462.387909
149.210144 -560.425598 -596.970581
398.880035 -865.615051 -442.137695
279.960297 -977.585571 -482.265747
219.036774 -510.238770 -595.083374
416.808533 -686.941406 -471.969879
227.068665 -938.872681 -483.750244
240.823380 -726.106262 -516.673706
140.597534 -635.864441 -581.346985
134.781616 -625.436890 -568.708313
301.290100 -623.992004 -533.184265
219.364166 -666.364868 -538.835144
309.660522 -665.830994 -523.341980
357.838745 -753.851624 -468.196075
364.086761 -695.513733 -480.693512
333.646423 -741.009521 -484.115021
236.545349 -615.938477 -558.290771
162.408417 -689.274536 -552.839417
443.715546 -672.444580 -471.471619
105.358215 -748.964844 -566.581299
299.840271 -990.623596 -477.465515
345.802460 -766.780151 -454.276764
331.201111 -898.143982 -458.157532
147.764969 -588.584595 -600.631409
148.613678 -602.698853 -557.333557
231.657211 -648.443787 -537.891235
304.530426 -613.788452 -522.767761
134.527405 -807.214478 -558.228821
144.280182 -562.562439 -584.979492
382.856293 -830.589783 -453.799683
178.291504 -592.460388 -579.583008
355.982056 -677.921814 -492.446075
460.489838 -774.089478 -437.360016
491.571808 -725.200073 -424.076996
396.375519 -826.637573 -444.274384
222.556915 -933.609009 -486.113281
253.824448 -944.360779 -470.796906
316.081390 -639.285706 -511.904236
317.995789 -945.604004 -441.032776
253.609573 -819.262573 -492.305328
333.758209 -815.531738 -472.439453
292.822083 -589.460388 -532.422119
141.488113 -644.037292 -587.324219
366.752380 -773.358337 -475.403107
195.123489 -911.491516 -507.290009
360.216003 -793.724731 -460.190948
202.468552 -747.265686 -542.729126
381.240112 -724.329468 -467.510529
191.188049 -932.392212 -437.150909
249.491913 -776.265930 -506.535950
242.951035 -624.308289 -516.833679
430.891022 -708.266052 -449.597412
346.804077 -950.462769 -431.828979
139.988861 -607.140137 -595.173950
439.988586 -811.711426 -430.221344
452.659943 -745.142273 -427.993927
422.301544 -760.943176 -449.278351
293.272949 -779.779236 -501.703583
96.857010 -847.704529 -567.683777
468.585144 -743.208252 -431.387634
397.616394 -756.028015 -468.191040
365.036743 -810.207397 -462.648407
334.236877 -735.353210 -484.380859
456.896912 -776.350525 -421.129944
129.365524 -775.373718 -561.778198
399.625824 -701.184204 -481.132416
113.929153 -739.604309 -555.844421
474.983002 -845.306213 -411.122528
529.940613 -743.447876 -412.045410
337.716705 -716.938110 -494.183411
213.143478 -533.306702 -551.425781
134.254776 -660.439880 -578.388977
380.375336 -688.332581 -463.802460
441.419281 -694.489136 -429.758331
455.712067 -854.912354 -390.323730
476.041687 -780.124634 -422.883728
229.972519 -608.588562 -548.402954
142.323837 -895.331909 -452.459930
214.549683 -929.707153 -472.339233
191.596420 -565.927063 -570.348022
273.017670 -711.424194 -521.815063
172.009796 -917.728821 -443.055756
392.670715 -682.879944 -485.366211
374.502014 -670.880066 -480.553284
222.460693 -949.272461 -473.244873
405.289398 -891.559204 -419.877197
490.245270 -818.356140 -411.516754
150.914230 -891.712891 -491.300964
266.993225 -695.670044 -529.874634
121.568024 -892.564087 -449.554535
112.867622 -706.128052 -564.669250
434.731628 -786.777039 -443.616821
379.812103 -934.445618 -424.373016
391.362396 -793.866760 -458.551331
150.570709 -868.871765 -534.819336
151.039764 -531.075684 -589.368591
196.431015 -672.545593 -548.508423
407.582245 -897.650757 -398.261993
366.102142 -705.909912 -477.132721
230.005829 -918.490601 -493.164154
335.065674 -798.567078 -465.883636
158.022247 -907.801758 -444.143799
360.063049 -647.072815 -479.985596
378.659454 -875.212952 -411.054108
257.162628 -611.286133 -514.795837
142.729126 -761.417603 -542.295105
192.509262 -699.856750 -534.865601
231.487732 -848.727173 -494.175232
196.577042 -917.596985 -487.072021
334.038971 -657.526550 -498.949554
346.504456 -867.865356 -460.245728
274.278320 -676.404663 -508.448425
289.325836 -902.730530 -446.463409
415.097961 -682.148987 -448.410370
101.491333 -779.159180 -567.580688
71.621689 -679.441528 -605.083008
301.490875 -566.694153 -541.929749
321.036285 -622.702271 -509.849792
328.454742 -736.473511 -486.919708
307.190948 -742.622131 -503.789093
322.755005 -686.248840 -490.774658
276.643768 -655.408875 -523.064209
172.113983 -829.509216 -530.205261
301.254028 -724.033691 -506.899689
387.289917 -863.577942 -429.465210
345.053619 -721.413818 -478.067352
329.839813 -589.797363 -525.309875
377.597290 -657.332275 -495.041504
354.629456 -771.705078 -475.405426
107.775650 -621.044312 -588.673584
178.978333 -592.173828 -568.844849
453.092834 -810.050720 -420.041443
342.005432 -849.498901 -461.338684
242.727753 -861.769165 -494.907562
278.478058 -561.072144 -547.988281
102.033775 -773.098511 -564.660095
268.599945 -614.766541 -536.429382
268.511169 -976.409424 -489.854828
88.834183 -609.726074 -610.466125
315.450989 -632.151367 -513.351074
306.735809 -646.856262 -496.632019
457.183746 -792.686646 -434.773010
293.204163 -658.534241 -516.124634
322.718750 -643.655212 -505.250153
194.278168 -943.937256 -451.102325
312.548492 -895.894775 -462.286743
188.746857 -757.117188 -541.280762
373.848328 -737.675598 -468.232056
212.133820 -611.377075 -541.673767
458.870819 -701.890198 -441.475952
100.771126 -611.754700 -596.917114
164.933578 -703.271057 -561.186035
278.269409 -622.437683 -538.283142
125.927414 -736.137512 -545.113342
130.388535 -707.433777 -577.477905
236.555679 -641.720276 -552.357178
292.499756 -900.743408 -461.215027
400.780457 -787.346375 -445.075653
244.810684 -728.639526 -514.628601
336.552094 -739.582581 -486.055817
293.170380 -648.704590 -516.561340
321.929443 -895.948669 -453.500793
110.953766 -791.005432 -558.496765
141.154495 -900.704956 -466.281647
502.219788 -766.238708 -423.097321
322.356537 -983.970398 -466.248444
336.209961 -921.992126 -450.098724
219.647903 -675.776855 -531.383545
283.085510 -947.025635 -461.759705
192.202454 -645.118469 -558.593506
274.570862 -657.808350 -520.007263
337.489166 -623.535217 -506.760376
203.130569 -535.801819 -553.395752
239.572708 -770.431030 -520.286560
364.586487 -1036.875366 -474.786865
241.818481 -709.720215 -520.366821
197.500259 -603.089294 -551.844604
357.261932 -861.781494 -455.762756
316.241730 -874.692017 -455.658722
401.407898 -673.035950 -488.387634
230.278412 -791.044861 -521.850647
85.362381 -759.524292 -571.880188
489.889465 -792.676453 -397.636566
171.315887 -683.768311 -570.203125
53.239315 -702.732544 -604.913025
242.790161 -877.827087 -497.552948
136.581085 -764.728088 -558.197571
150.826187 -740.396484 -546.482422
270.266479 -881.798340 -475.658112
272.499542 -774.152710 -495.319824
165.839066 -885.221558 -509.209808
184.918945 -590.802124 -576.923157
459.226990 -695.445740 -459.884918
54.019905 -715.122437 -601.917175
377.721436 -913.794434 -427.163818
72.995979 -717.633179 -579.692261
193.675491 -921.340942 -473.398285
327.397858 -731.282410 -485.882019
102.927925 -868.795593 -532.919006
216.173065 -565.056946 -553.622681
124.094116 -762.440491 -547.487671
305.836182 -611.764282 -518.512512
343.792389 -901.723999 -427.582062
425.544495 -873.094971 -412.070831
324.946503 -710.901672 -506.941406
387.962280 -973.120728 -416.895386
426.426605 -900.423645 -420.880127
498.539001 -722.983521 -416.934814
161.861557 -604.592957 -575.417847
354.999847 -691.986938 -484.890167
436.506714 -693.576111 -453.797760
457.431152 -733.190735 -433.174438
376.637939 -972.256714 -415.069733
391.522827 -673.015869 -486.185974
213.481461 -534.847473 -585.953796
293.906158 -918.697754 -454.332031
186.560318 -606.682007 -570.263306
374.590485 -710.863281 -469.784943
158.914337 -903.395569 -464.493164
234.776352 -545.232544 -585.141724
214.813934 -663.307251 -540.176880
180.227676 -535.421509 -593.026855
247.767105 -752.335144 -522.536011
220.688217 -909.560181 -494.917389
214.141266 -611.312866 -553.056946
273.299744 -898.123474 -470.268280
394.349487 -913.996521 -425.372833
290.578003 -883.783691 -457.380371
328.012146 -849.372864 -440.683472
307.630188 -830.793396 -469.013977
515.523010 -776.860657 -404.090210
154.628403 -568.574951 -588.687073
319.480957 -609.934265 -532.730408
370.661499 -703.441589 -476.331146
197.798615 -562.561035 -589.168396
318.623260 -666.201172 -502.758209
519.110229 -791.480042 -407.668274
490.166901 -772.485229 -426.705658
177.077988 -752.725464 -535.992554
280.933655 -666.253784 -519.469177
345.881470 -681.494690 -484.334137
102.490410 -599.956360 -611.589355
323.242157 -744.322266 -460.950043
374.113922 -640.087891 -488.205353
189.119217 -581.755676 -588.194580
483.598999 -736.063721 -416.743103
434.516083 -847.144409 -412.505615
253.600250 -533.714172 -566.922668
482.052277 -717.093506 -426.256317
401.422424 -750.240662 -466.960846
27.168074 -700.245972 -597.184753
177.416443 -614.518860 -567.529236
109.344681 -678.645264 -566.624878
102.485886 -615.765381 -605.786804
380.662537 -723.596558 -469.492218
379.777710 -994.195129 -416.301544
212.277405 -684.286621 -549.178650
52.401608 -697.118469 -601.437561
360.644409 -962.875244 -431.362579
214.398041 -798.269531 -520.171692
285.095520 -744.244385 -510.031525
200.590347 -848.968872 -499.796600
252.449799 -564.231079 -552.524292
432.624969 -738.237976 -454.953613
280.237244 -691.010864 -514.176270
116.260536 -645.669250 -572.453918
135.969772 -866.989990 -541.019165
376.037598 -951.120544 -399.481537
353.271240 -827.860474 -447.778503
501.423065 -768.524048 -405.440643
197.680939 -942.131592 -459.351898
241.065948 -746.697693 -516.342407
190.406723 -577.411499 -572.153137
280.821259 -606.086975 -529.770203
231.645218 -934.580872 -482.353851
245.757965 -724.827026 -527.417786
324.739471 -859.602051 -464.689087
311.177765 -821.171448 -469.732269
224.652115 -552.090942 -554.399475
505.720581 -779.198914 -396.447113
432.701050 -732.376160 -459.996826
227.948853 -688.291077 -515.702759
82.711601 -753.671204 -578.929077
449.744446 -855.121704 -421.927002
450.584991 -793.624634 -432.393005
186.720032 -788.190430 -533.224548
141.457581 -906.716675 -456.397522
267.446899 -602.881165 -546.067200
288.806793 -574.589661 -539.297058
479.970703 -730.666687 -435.965698
341.655884 -830.573914 -439.151154
280.414429 -584.651123 -534.805054
144.620773 -686.121033 -561.409851
428.847137 -772.579651 -447.162750
277.683472 -625.833252 -522.069214
349.194580 -682.342468 -501.309082
278.646271 -934.824890 -467.942780
417.729858 -786.625854 -449.965393
150.889236 -824.754333 -539.534119
473.511810 -893.248474 -402.621979
395.048340 -689.323975 -459.192108
184.754303 -564.268188 -575.226318
404.762207 -777.092407 -455.201355
125.200233 -887.332031 -429.744568
297.291748 -812.476013 -486.652527
357.247986 -803.331665 -458.061371
287.218079 -848.219666 -466.112000
332.834198 -803.016602 -479.222748
383.518860 -675.167419 -471.252502
80.020157 -845.713989 -563.576843
399.104980 -832.916138 -434.863953
301.811646 -728.017029 -492.793182
92.327652 -656.524475 -583.572144
284.985443 -780.484375 -496.330566
295.801544 -564.573792 -543.948242
373.023102 -628.578796 -507.063538
251.987762 -977.143799 -484.698212
232.191330 -542.649597 -565.844666
215.389557 -716.920410 -523.269348
498.960449 -840.130859 -404.456299
194.789291 -684.424744 -555.122009
415.213318 -830.545349 -411.451233
371.617310 -953.470947 -422.256653
184.063141 -603.336609 -556.215637
269.872589 -737.490723 -504.249847
439.841858 -688.567322 -452.582306
166.349838 -896.680481 -507.326904
458.928955 -725.047363 -432.060822
467.355804 -834.204895 -421.551392
198.390244 -943.355530 -445.373779
36.542328 -700.653625 -613.337219
278.439087 -928.288696 -480.632690
67.751480 -626.696655 -617.399353
187.981125 -912.542053 -499.760986
242.974197 -907.510742 -499.048492
396.284332 -869.653931 -433.964844
415.243286 -745.231079 -461.713531
483.877441 -817.750610 -417.282654
300.041687 -902.639526 -450.003235
344.882355 -973.204285 -434.012085
330.450714 -668.482544 -491.194824
256.645508 -968.487854 -483.390625
249.958176 -572.300476 -530.536316
214.999786 -920.869141 -490.025116
336.592987 -848.829224 -456.204132
181.551117 -732.984985 -540.624939
221.179169 -688.026367 -549.114685
384.275208 -788.087402 -448.736542
91.977516 -656.254944 -605.275391
246.391449 -555.945251 -556.652405
271.416870 -862.191162 -473.709717
378.667542 -969.389343 -420.844849
398.977264 -927.217285 -419.161377
268.569489 -559.135254 -550.727844
496.482178 -801.589722 -416.032379
160.497772 -527.399597 -583.450867
173.429123 -879.305786 -530.834351
311.641449 -686.231018 -500.919556
523.755493 -744.496887 -413.088715
193.936951 -917.096008 -467.479370
82.110649 -856.730225 -552.990662
225.128036 -873.994812 -500.268311
351.171112 -934.950439 -432.173431
40.652233 -682.915649 -624.826477
375.936615 -684.196472 -483.990265
116.457352 -735.570679 -556.743103
119.327690 -875.971313 -469.800293
364.470337 -855.091797 -421.605804
282.254120 -811.225281 -498.019775
179.965454 -514.575928 -591.728271
196.484070 -660.407898 -554.032654
144.322891 -725.835022 -540.827332
419.138184 -662.562866 -471.382660
335.696075 -641.055359 -502.731567
300.195007 -582.336243 -530.655334
481.609772 -761.988220 -433.810699
185.229202 -505.315735 -592.544617
73.987976 -651.175781 -582.610840
508.342987 -754.823486 -408.850159
462.218628 -774.044983 -425.356262
360.770935 -973.698547 -429.802307
399.948639 -806.906616 -437.387482
292.461578 -660.791016 -511.838867
254.573883 -739.108398 -503.393311
370.964417 -918.762268 -438.903046
323.939240 -1008.381470 -460.125183
392.003479 -926.906616 -424.418304
227.283051 -966.188416 -459.659546
435.518768 -891.570435 -414.020111
197.033264 -950.933899 -435.254211
228.265182 -642.519165 -543.106445
215.993469 -880.503357 -511.468811
247.736954 -881.547363 -465.853851
419.009888 -935.811890 -409.544098
164.097626 -561.505676 -580.648987
283.210541 -829.894653 -478.440765
160.612579 -725.753479 -544.093750
313.508820 -881.760071 -460.894409
210.648743 -824.590942 -516.320496
179.169708 -908.809021 -509.518341
163.831497 -586.913452 -579.064453
140.685440 -867.968201 -537.901001
502.443970 -782.567566 -413.784180
189.999741 -893.716003 -486.184662
208.189819 -855.638000 -495.694336
364.635284 -713.300964 -484.320770
286.137939 -861.571960 -471.587646
271.179169 -590.047058 -537.365295
178.340561 -809.999512 -529.163452
286.140015 -777.159485 -500.598999
232.521973 -594.109558 -554.477051
214.247177 -681.554321 -541.972290
143.374146 -901.031677 -441.983002
137.254120 -886.701660 -495.304901
190.031006 -740.814575 -530.098511
63.073521 -737.268738 -593.634338
140.259415 -895.343323 -492.606293
313.837006 -634.290588 -526.413330
88.605797 -622.385193 -623.383423
436.346222 -880.085388 -413.106750
302.756531 -693.442810 -502.226257
445.184296 -683.314453 -462.800995
305.618134 -823.165039 -473.701294
200.451965 -746.722168 -537.728638
387.918610 -836.891785 -448.637421
154.592834 -528.449219 -614.055115
120.926476 -654.823303 -584.350586
286.775879 -819.998352 -479.245483
380.662994 -859.006409 -445.526276
383.428558 -968.747986 -424.996399
107.317787 -881.454895 -510.807953
330.313721 -818.846741 -464.618835
228.763565 -815.885559 -512.047363
271.966248 -859.810669 -476.480377
376.595245 -657.122620 -492.267151
136.951752 -618.978271 -597.004883
154.189926 -883.743164 -526.621460
431.975067 -799.305481 -406.596039
242.156113 -732.213623 -529.106201
359.342529 -740.625793 -477.885956
276.750549 -784.117004 -498.609253
263.825348 -892.798584 -475.952087
145.185715 -902.137024 -500.961945
327.128845 -823.793762 -464.583038
362.287140 -770.417175 -475.159698
219.035629 -564.510559 -561.216125
302.414734 -572.531555 -533.709717
451.732910 -791.684204 -416.645813
98.661140 -681.320679 -579.175293
227.656967 -745.445190 -510.818115
57.355389 -669.695374 -593.658691
297.370117 -809.063721 -487.369049
254.184174 -714.846191 -515.006592
328.119446 -674.192749 -502.614624
299.352753 -702.443726 -518.629150
288.182922 -766.775879 -506.618713
126.919563 -735.463623 -559.725952
279.162598 -950.843323 -480.215515
363.288055 -721.102722 -480.558350
168.448349 -710.723633 -549.250854
248.238556 -941.257141 -494.830750
369.875549 -858.140503 -447.187164
150.521378 -576.626160 -581.171509
141.634216 -638.123169 -593.599854
249.835205 -656.539246 -546.276978
374.939270 -651.026367 -498.068665
483.510468 -821.237183 -414.409851
259.470215 -779.131897 -508.813385
500.265778 -734.649475 -416.129974
406.622375 -949.223206 -410.432373
471.661346 -782.000671 -431.960144
319.036835 -820.934875 -481.541534
220.794678 -926.264282 -463.315063
310.804993 -852.516235 -465.806854
149.790024 -569.355164 -583.566589
246.415283 -716.638977 -520.296570
211.277802 -632.027283 -541.125610
157.699493 -734.016113 -543.416809
364.745728 -702.046326 -493.004333
238.107010 -551.244141 -560.100525
336.136932 -685.769653 -505.784943
203.681900 -946.762756 -439.741150
405.576141 -998.393127 -414.440643
237.130081 -952.673035 -494.793823
405.768585 -787.103210 -452.692200
272.982239 -886.683350 -471.458405
141.249634 -645.050781 -580.261230
147.561615 -852.975281 -543.087952
152.384720 -726.189148 -565.790527
123.675270 -618.212463 -570.329529
88.537651 -705.072083 -561.749878
256.691742 -903.315796 -490.261902
179.115509 -759.938416 -523.143005
163.322449 -607.391479 -579.979370
274.985138 -824.504944 -482.415710
359.398773 -987.274536 -435.362244
154.669250 -774.811523 -534.621704
391.213470 -918.750427 -428.510620
439.701569 -728.340881 -447.982544
318.680664 -606.824585 -500.899475
407.030396 -807.369019 -444.766510
266.740479 -919.687927 -488.088318
489.923615 -760.484375 -415.973877
279.254150 -875.419922 -465.395569
348.059448 -681.048523 -494.452423
178.506424 -809.289429 -530.500122
376.491333 -740.299622 -472.095947
281.276123 -642.535583 -506.891846
507.340363 -733.540161 -424.998810
263.664307 -771.011963 -497.479431
455.633087 -832.717346 -419.019379
305.402252 -587.654785 -525.222778
315.850983 -874.174133 -452.471619
368.258270 -906.674133 -441.915405
449.099243 -825.865784 -410.553223
451.021576 -925.108826 -406.141266
397.589783 -805.090820 -451.689453
114.483414 -892.728638 -494.704041
321.482849 -827.992249 -465.355103
301.947174 -746.409058 -492.704712
353.201843 -794.635315 -471.041748
392.202148 -774.607849 -451.601227
130.551712 -863.650269 -529.742188
247.326843 -818.051270 -494.453613
263.686401 -805.931641 -473.863342
117.836617 -870.432129 -538.777771
272.454102 -584.802124 -559.746033
171.401550 -899.993958 -488.514923
274.464783 -966.004395 -467.223755
359.527222 -848.807312 -428.911957
220.947647 -846.580200 -482.976227
274.723206 -710.843384 -507.122345
356.614075 -795.672791 -460.492371
235.296738 -624.519226 -534.686646
288.524323 -874.769653 -466.109589
186.401794 -718.349365 -540.494141
217.489349 -950.461365 -455.803375
172.508636 -923.336365 -434.203522
162.425400 -711.528320 -553.252136
285.886871 -720.617737 -502.823242
222.063507 -754.086609 -502.663055
333.814056 -1001.632141 -426.266327
298.459412 -890.076660 -470.292816
113.736511 -691.029724 -581.255737
186.798309 -751.662048 -531.979004
287.727936 -675.206421 -525.750183
278.104614 -702.440063 -502.852844
397.545563 -640.476929 -497.214600
402.437439 -708.107300 -440.252441
169.243820 -686.885376 -543.250671
422.487244 -916.861694 -417.030060
282.514832 -584.629150 -517.385376
329.389893 -628.677124 -520.204895
519.263184 -762.921082 -401.030945
355.509674 -646.922241 -506.108398
245.309631 -727.750793 -529.521606
225.510910 -534.210693 -567.127441
128.417282 -665.712158 -562.061768
113.253906 -885.199463 -503.889069
126.075783 -772.417114 -553.833069
240.053818 -618.633789 -556.388367
445.037170 -734.685669 -454.790619
293.629272 -795.115601 -484.211304
361.904144 -849.688721 -438.364471
200.917725 -912.211853 -503.174683
389.751953 -861.628235 -437.558289
105.416161 -870.220032 -522.731750
236.695328 -972.355530 -462.293427
48.258366 -659.273315 -603.594421
138.729889 -615.697510 -593.081360
414.243591 -901.898865 -423.953979
452.745361 -868.910583 -417.617401
305.705902 -934.048828 -446.651459
346.145508 -934.091492 -442.850372
202.340561 -541.947998 -593.770203
299.274689 -621.190552 -519.120972
273.631378 -988.918762 -490.122101
192.950409 -526.623962 -597.436035
258.249878 -842.361816 -481.605194
436.506897 -697.529724 -461.467865
82.490196 -837.681213 -561.611694
125.281563 -601.700867 -588.177307
439.424683 -790.316162 -439.014221
324.338104 -626.878052 -522.868042
370.767975 -943.944275 -420.498596
241.549133 -646.130981 -549.107666
127.995583 -860.116333 -535.727417
265.236145 -685.218506 -535.048035
360.200928 -658.575500 -494.124634
419.118530 -810.091553 -444.070160
199.986618 -663.228455 -552.062927
366.833435 -826.563293 -457.108337
78.337051 -665.469788 -592.989502
230.521637 -772.953125 -516.374756
356.732147 -821.088501 -455.761200
333.026672 -651.789307 -499.313782
471.125610 -773.986755 -435.376709
222.463104 -727.602905 -522.335144
275.284790 -628.139404 -508.119995
154.192413 -779.215271 -544.441772
180.391083 -543.527527 -583.380188
269.829407 -776.711853 -499.497650
245.855652 -578.269409 -541.822937
180.834183 -716.031555 -542.128967
221.524155 -949.142212 -487.341278
30.692652 -697.150940 -609.132751
153.972900 -563.489075 -604.818909
157.040894 -915.453613 -457.917419
468.174133 -862.646545 -408.346161
396.505280 -893.532410 -424.464447
475.936127 -708.547791 -440.491943
187.038925 -927.639954 -475.566864
146.964905 -850.476196 -552.215698
254.501587 -852.690491 -490.653442
126.879837 -635.923035 -592.415955
263.079803 -584.142944 -539.297546
291.681976 -563.507690 -519.267090
161.541641 -907.470154 -436.686584
455.122284 -832.641663 -421.221710
381.777161 -659.242065 -456.769440
262.705994 -678.567261 -537.374939
170.960815 -538.257080 -563.302124
110.785362 -855.616516 -545.034668
436.865356 -687.613831 -455.963409
81.524414 -670.740051 -584.132568
338.676025 -894.592773 -457.061188
225.406464 -826.518066 -493.796356
435.289703 -697.205383 -457.532013
127.972626 -756.249451 -548.111633
311.376404 -673.465759 -517.796570
401.508179 -831.439758 -439.874786
104.699326 -735.020508 -560.742065
195.057999 -626.215088 -557.466675
242.427872 -778.032715 -508.726929
533.945496 -743.684021 -411.964325
176.371185 -738.202271 -529.624634
221.587097 -755.432251 -528.923218
379.723114 -901.793274 -433.987915
345.657593 -945.558289 -428.120483
392.931854 -775.959351 -465.061462
286.812439 -779.257263 -499.570984
