ply
format ascii 1.0
element vertex 1399
property float x
property float y
property float z
end_header
-34.508896 -399.612823 784.116272
-0.322675 -462.601105 666.293823
-160.755630 -396.961304 871.105774
60.736835 -237.365219 912.288025
-1.119091 -371.064606 791.642151
-164.794052 -404.887207 868.330933
80.230522 -254.909073 875.723755
54.740425 -288.993103 852.235779
-18.712015 -349.574371 804.620667
-199.043930 -385.538757 946.056152
107.863678 -166.305435 989.838318
-58.697025 -260.283447 984.408630
-19.849308 -179.732498 1057.810059
-104.031685 -454.754852 769.945679
-55.294270 -292.128204 948.806824
48.679218 -359.383759 765.747620
-179.190720 -316.487335 1081.637451
7.069503 -246.753845 939.032166
-26.633101 -439.930786 743.617310
-154.854370 -502.791870 767.497620
52.204338 -163.340683 1022.635986
-7.581198 -262.024963 943.334595
-89.656921 -464.630615 740.042786
-69.367767 -408.681946 801.831360
-89.124290 -448.775818 760.536255
-31.136953 -187.824417 1059.370972
-39.417274 -359.613739 844.590759
-117.909714 -288.490967 986.853088
-182.813171 -277.614410 1123.551025
17.022758 -447.457275 712.849976
37.467514 -453.573761 694.828186
-20.698692 -342.161072 841.026245
-247.213318 -331.061005 986.431396
-150.667007 -219.214813 1112.704346
-26.763130 -459.398499 696.154541
-142.577713 -392.664795 874.673462
-72.026123 -513.691406 698.018005
-81.728668 -368.384705 862.398315
-7.954653 -385.025085 798.769226
-25.233473 -395.728241 769.651855
-52.541157 -198.291275 1061.157227
58.851521 -312.300354 822.599487
17.173832 -307.038513 861.835815
-2.211535 -360.476105 812.383667
-141.673813 -221.110626 1101.422852
-221.633865 -469.274902 879.378296
-39.303570 -267.128448 923.085388
20.893330 -199.859131 1001.851196
-179.795914 -323.795471 1004.842957
-32.596390 -479.431427 701.843933
-136.522217 -380.823700 878.339966
-273.901917 -346.212463 915.336304
-141.573563 -266.250427 1050.223999
-47.148556 -307.633423 925.239319
-144.984863 -195.192947 1101.483643
-53.665688 -470.749268 685.898743
-111.399208 -505.484589 699.754333
-36.659420 -359.714142 839.927429
-52.940849 -222.271179 990.664124
-138.868500 -249.643814 1065.820923
77.222023 -133.300003 1011.111450
5.103950 -201.350220 1015.979187
-119.371735 -396.974457 855.271667
-121.827759 -314.513672 976.000549
-182.717239 -482.438263 800.602234
-86.822800 -199.496841 1061.356323
-60.156960 -237.966476 1000.425598
-5.869074 -260.258514 936.755798
2.683975 -228.674149 983.880432
-3.927469 -370.556671 813.398254
10.722000 -251.465607 949.631897
93.078407 -233.249664 901.754883
52.439735 -426.612823 686.687073
-148.474274 -342.376526 933.154907
-90.071732 -441.391296 778.713440
-87.205948 -380.036499 863.601257
-33.488541 -228.777344 1012.326904
42.419952 -470.197845 663.756287
-128.218643 -520.323608 697.479309
-76.808746 -291.814911 952.656555
-163.815536 -493.195892 774.394775
-122.628166 -290.230011 1005.219604
-67.971680 -264.652710 992.618042
-138.839767 -226.572815 1082.398926
-96.727043 -216.359024 1024.790649
-24.803894 -424.827820 765.921814
-22.233967 -302.695862 914.782959
-143.011230 -413.637115 869.349976
-16.810194 -193.217957 1038.686279
-61.696369 -249.009659 962.887085
-53.778992 -243.532440 982.355469
93.901978 -247.388474 886.450500
-14.252583 -269.202423 902.834290
-215.130066 -427.484924 923.971436
-111.944809 -401.070465 833.944031
-105.186653 -495.715118 709.177246
82.596237 -312.154114 817.358887
0.851177 -247.470871 955.583008
-36.693142 -397.997314 793.549133
-76.799362 -477.740875 745.193054
-91.358261 -364.525421 874.712585
-225.719620 -420.299774 896.479370
-58.112793 -436.126190 738.013611
-20.235544 -279.830872 941.323486
26.905075 -212.560699 992.160339
-62.772713 -326.653107 897.409668
84.284889 -174.540909 966.474365
67.604683 -281.959564 849.615662
0.960594 -262.159668 943.124329
-42.887901 -446.405243 730.739441
-81.734909 -316.755035 945.569519
-89.874397 -241.671921 1030.861694
48.805214 -367.640930 781.461853
-3.482617 -433.957092 720.390015
-248.827698 -457.819092 880.193665
-153.124100 -325.097839 956.719543
-78.126518 -380.331024 844.718933
41.062248 -425.287720 717.423340
33.035648 -330.683563 828.226868
-53.548283 -297.850098 927.434387
89.710556 -186.632401 948.068359
-136.730362 -265.328430 1047.225464
-84.919899 -213.390900 1063.328247
-180.969864 -349.783661 999.294189
64.348381 -358.024567 731.298523
-80.221527 -388.357117 833.673096
-199.520294 -523.389404 727.351685
-261.720978 -381.269562 917.682495
-9.361802 -294.632080 916.750244
-59.710316 -205.673889 1043.484985
-161.332321 -246.486572 1150.317017
-80.798103 -462.100861 739.497437
-166.259079 -330.285553 998.995300
1.792609 -416.563995 758.734009
38.328278 -367.151184 774.559631
-103.514618 -406.617462 830.296936
-151.881409 -355.384125 940.562378
-186.089996 -342.139343 1006.417542
-113.137886 -412.246033 821.535217
-156.471268 -257.839386 1056.414307
-41.191288 -239.702621 1011.780945
-148.581802 -248.278198 1048.161133
-174.053070 -405.563141 867.265137
-150.004379 -406.003052 874.642395
-124.820747 -461.427826 768.233887
-107.497726 -262.918671 1032.446045
-123.480354 -282.425262 999.408875
-13.395353 -488.026520 676.453857
-182.434097 -299.223114 1035.902954
-240.639450 -388.354523 947.076965
-248.855316 -333.791412 978.900818
5.829742 -378.919098 749.295471
-159.660721 -307.213257 994.292236
32.015579 -166.331833 1001.282349
-42.564388 -254.530823 980.667358
16.008581 -322.792206 844.623108
-94.433144 -200.269485 1075.024292
-74.539978 -370.585907 840.222046
26.939531 -303.890778 866.825317
-213.082336 -529.321899 807.845337
-149.488876 -491.733673 775.396851
-231.239304 -425.941162 896.969055
-141.650970 -457.893036 783.758118
-9.649793 -277.415161 929.877014
-19.538778 -443.774261 718.262573
11.722277 -312.370575 857.595886
-23.906811 -220.342728 1000.311584
3.218367 -341.482880 851.632202
25.861149 -368.471954 754.888000
-136.148422 -354.281982 906.604431
17.775528 -241.697479 956.057495
-11.855575 -456.370422 707.399780
-114.085396 -316.710754 947.324768
64.876938 -220.595428 936.174194
-256.435486 -405.177521 874.168945
27.777946 -471.755310 641.634094
-125.003853 -286.934814 985.237610
-152.337646 -448.666687 822.767273
-35.809265 -486.302063 672.171265
-8.683667 -472.610168 676.411377
-206.505341 -444.563873 880.493591
51.538975 -325.290375 805.043396
69.784782 -270.554657 857.870422
-25.375689 -308.087738 894.891479
-61.068592 -427.975677 794.173401
-151.809769 -236.914169 1072.910889
-8.516974 -452.691437 665.061218
-151.243073 -277.920837 1000.021057
40.457962 -446.894196 671.427551
-135.078903 -294.053619 990.244446
-129.857391 -277.709412 1026.888306
-132.134995 -309.122986 991.114868
-251.539566 -301.634125 987.714539
19.276104 -257.993896 943.251831
-257.648224 -449.240326 867.573792
-192.600494 -445.357880 824.475647
49.919548 -406.309906 686.958435
-195.638199 -461.873657 822.003113
76.360825 -315.205475 826.658386
-55.172920 -282.439423 947.484802
-232.642319 -501.416077 862.592957
-27.841293 -354.041046 836.385925
59.342319 -408.641388 709.029541
28.328054 -221.280182 957.248779
-197.058304 -341.919891 1027.454834
-9.385443 -328.829468 825.038147
22.254681 -410.085999 727.062256
-109.924866 -391.927032 850.814026
-13.858006 -204.032242 1028.344849
-72.768211 -273.948303 971.871704
26.371250 -237.684189 920.442566
63.160484 -182.500092 996.149719
-86.303146 -373.395966 871.563293
9.124076 -190.595062 1027.865601
87.318359 -188.149353 968.519775
-93.208130 -246.546875 1021.063477
8.764499 -285.977661 913.354553
40.194313 -197.768097 942.538147
4.387066 -321.652527 874.754944
-48.209122 -318.163422 894.959534
-86.053108 -446.875854 758.635559
45.195812 -326.419891 836.689270
-8.972650 -368.602997 804.207764
-31.965368 -316.469055 881.025757
-94.458847 -204.490448 1085.766235
-134.035782 -199.023148 1084.077637
36.237610 -398.831787 754.779480
-235.058395 -349.386597 979.687866
-29.992292 -391.518066 778.979980
-216.898682 -357.133972 958.700684
19.173115 -231.831879 969.911926
-204.010956 -354.269501 975.566772
-212.713791 -368.081909 974.132935
-96.600479 -417.227448 803.132080
77.704269 -273.892792 865.886536
-188.780228 -343.222809 1016.262329
-103.503670 -502.525085 723.814819
39.581097 -362.042450 771.632263
-154.150467 -381.005341 912.289490
52.882095 -309.705963 850.269775
-85.205299 -206.533188 1075.717896
66.573631 -329.159515 814.237000
-186.553879 -296.624268 1113.104370
-11.744836 -492.773895 677.040527
64.155609 -345.669647 771.321533
-30.049906 -345.279755 849.770447
-109.211098 -246.404526 1039.170776
11.289734 -201.082870 1012.324463
50.319305 -239.365753 938.405945
-127.994743 -332.502655 949.041931
-16.355034 -310.807648 843.883179
-35.518295 -452.355347 739.186035
0.895963 -324.530853 855.937378
-41.500755 -210.607559 1041.482666
-95.065918 -248.385788 989.541565
-57.735435 -210.889267 1008.128418
-184.441071 -460.938324 805.938293
21.497732 -310.465240 842.151245
-97.491829 -387.030548 817.453369
-138.703308 -289.889252 1004.662598
-201.593735 -504.634796 740.767334
21.597530 -395.424377 731.114441
42.944202 -146.399429 994.656677
-189.864883 -315.991241 1092.307739
-39.763847 -241.029037 1007.503052
-137.136215 -344.562531 925.957153
-190.291046 -355.492523 981.053101
-75.224815 -453.933350 744.657104
69.208916 -335.039917 816.150513
-25.796473 -434.482422 729.138977
-67.421898 -194.534683 1029.280640
-261.008575 -437.774231 876.169312
-163.721375 -293.603638 1039.260254
-30.376535 -344.673492 844.921814
-51.234253 -275.191803 954.126038
-233.501846 -351.601746 970.847778
-114.605621 -257.104980 1033.582153
50.600842 -320.532318 825.512634
-54.802715 -420.689789 756.147217
78.884956 -226.460464 935.682434
-131.849884 -387.551453 843.048035
-275.425293 -386.139648 911.590027
-2.536987 -206.159149 1000.958130
-115.593628 -428.415009 825.545776
-23.117411 -476.612732 688.935303
-123.208633 -436.997314 798.640015
16.117960 -371.061890 796.988159
-49.508312 -450.318665 725.605530
-92.309662 -323.077850 893.551331
-127.137047 -355.430634 931.755615
-109.019455 -469.517578 768.173950
-174.302444 -502.962097 755.762451
-9.321570 -275.656738 918.206299
-126.527412 -501.296448 742.195313
-20.105656 -307.177063 898.306030
-180.744003 -282.951233 1122.384399
-44.269562 -497.461914 682.779785
-190.154160 -346.830872 997.059875
74.035103 -362.781311 792.421570
72.185280 -339.160553 784.634827
-97.213341 -359.909180 884.610168
-256.619659 -335.003876 961.740417
-0.867154 -196.495514 972.816467
-116.709099 -360.994385 897.559326
-229.229477 -328.947021 1009.831238
6.476840 -197.689316 1018.938477
33.898327 -183.976929 1015.363892
-35.351761 -480.618774 670.836121
-85.226494 -324.363953 915.244934
68.276825 -193.562546 981.811035
-110.867722 -309.260773 966.918579
86.349571 -156.247879 1013.262207
-20.044264 -201.062759 1039.437622
-12.886743 -366.398407 809.867981
-160.539398 -461.681915 791.471130
-138.795044 -266.907745 1036.522705
-59.524677 -499.349152 695.782410
-257.294464 -360.960388 931.302979
-28.172083 -247.745590 984.114197
-104.538406 -286.466675 998.925598
-201.466705 -429.634674 911.846741
-136.842194 -285.273834 1015.192688
-122.322502 -265.773834 988.853088
-78.359688 -351.471191 892.741760
-44.548042 -258.830414 973.901489
-84.430328 -231.629684 1046.048584
61.037941 -288.641022 855.194336
-246.042252 -483.256989 871.393066
-106.568275 -430.369507 817.453735
-106.349342 -499.850403 729.937073
-80.706657 -244.930038 1024.806152
-56.446285 -433.207336 754.287537
-65.225075 -333.875000 899.289612
-257.037415 -351.766357 916.688782
-97.235275 -480.056335 722.414063
-80.849144 -339.866394 892.672607
-264.527679 -393.394287 869.992065
-18.395437 -278.730042 934.977478
-5.584954 -331.951782 842.600891
-87.549530 -432.726410 778.718140
-65.871902 -185.335358 1041.652954
42.647655 -262.778259 871.092896
-85.853004 -336.704315 892.537354
7.588443 -329.329651 855.335022
62.296200 -383.216064 767.233276
-179.656448 -418.738312 877.521179
36.680771 -438.748627 693.413940
-54.123199 -272.399475 965.518982
67.930008 -362.719269 787.709839
-28.326628 -442.545044 734.529663
-119.704803 -277.549438 1018.394958
57.726250 -254.647537 886.366699
28.796280 -209.537964 981.428345
34.706818 -224.706833 931.466919
43.665688 -255.619873 913.447449
38.726513 -268.185730 867.133545
93.998215 -284.131622 856.699829
-123.001137 -352.430481 913.811340
59.732346 -231.308884 920.912964
46.939919 -281.891235 895.237488
-107.329376 -419.115326 815.509644
-219.067490 -349.958160 991.393982
-156.563873 -238.957306 1076.638306
-160.678162 -254.884567 1097.028809
53.555820 -164.216370 1014.126587
-90.475128 -310.463013 940.526001
-119.566376 -338.130249 928.267761
-71.220901 -425.603851 798.348206
-84.212616 -314.463226 934.290894
-20.130999 -394.491577 764.311768
66.849281 -226.262390 944.504456
-166.162262 -335.260345 954.772034
-206.542526 -363.956360 978.737305
82.529961 -324.772156 808.868469
43.676643 -170.629883 999.048218
-258.811615 -394.836578 904.449707
-5.509531 -438.543518 708.497803
-231.379532 -305.210815 1011.886169
-6.443584 -417.508392 742.941284
-64.817276 -473.376587 708.329041
-187.829620 -357.479065 971.665100
-46.124126 -405.254822 783.084045
-207.428894 -403.371826 939.134399
64.198013 -281.959015 883.429504
-119.734764 -225.304825 1086.769043
101.730278 -202.617249 948.207397
48.824848 -429.329041 717.945740
-12.163989 -443.484406 740.284058
-120.390854 -294.328186 976.492981
-14.704247 -305.944305 887.493591
-158.861649 -331.882660 987.933167
-49.382172 -320.688049 901.152405
-41.220779 -318.528351 911.495117
64.941048 -213.302307 932.248413
-77.319450 -316.478821 921.882202
-122.471062 -191.085892 1090.095825
-40.677887 -485.435028 670.370422
-7.861411 -257.451599 950.565369
-95.059135 -459.930847 751.491150
-45.813431 -270.938354 969.597717
-221.287521 -395.664215 926.278381
-155.875992 -346.521698 940.258972
-19.319368 -294.589722 905.279297
47.700199 -368.262909 761.800476
2.700902 -355.777374 836.400208
-26.585686 -238.502777 980.355042
13.346277 -289.195221 881.154968
-108.271896 -241.963684 1051.619019
12.982645 -201.319275 1016.409973
-23.416533 -205.249664 1029.647095
-95.321831 -340.529846 918.339905
63.230125 -223.105804 935.729004
-141.701965 -242.400345 1058.340820
-82.258560 -380.514496 843.277161
-22.886562 -353.004395 840.838806
-0.445280 -501.728455 666.220276
-245.402695 -430.781158 897.735840
-55.498013 -457.570221 707.038086
-33.089752 -476.441315 675.988098
-130.183228 -510.669678 739.233521
-34.931911 -307.056702 903.100708
-207.141953 -415.480377 945.561096
-90.237175 -491.254089 737.886902
-117.228508 -263.329285 1006.560669
-209.698242 -326.475037 1072.089600
65.735138 -305.565186 837.675598
32.047016 -451.088654 667.966187
63.472725 -355.889191 772.331055
-92.617271 -496.191315 730.555664
76.171959 -295.832184 839.366760
-107.192818 -389.010864 841.763000
-117.213158 -461.757721 772.800232
-224.276321 -422.509796 905.170959
-61.414917 -210.130447 1056.170654
45.357391 -207.804474 979.349670
-86.433563 -249.573212 1016.399475
-143.413757 -384.764679 897.585144
-228.720047 -448.311188 890.967407
22.374647 -171.391693 998.143433
-117.407722 -402.265472 828.906677
-174.407990 -345.459167 953.143127
9.485122 -317.756104 861.171570
-4.644438 -251.957748 916.889648
-43.814358 -244.342880 997.355530
76.301071 -336.388824 793.620056
88.223747 -245.772873 887.174988
3.532079 -296.993011 857.827026
-9.119758 -259.954620 953.912903
-174.542313 -485.150665 804.298828
-31.802977 -456.271606 711.030701
-215.429459 -320.398071 1059.430420
18.341034 -393.384796 774.018433
-93.812042 -462.563293 765.067444
-143.960480 -310.422058 970.552856
28.018213 -449.311859 665.661255
41.718369 -262.923248 909.183716
-121.934631 -273.802490 1023.123535
-272.167969 -366.311676 882.663635
88.040314 -140.804413 995.552734
20.635330 -273.538452 874.278198
-39.776524 -277.755768 941.683533
33.663517 -166.301971 1011.951416
-32.444809 -381.934235 830.198914
-102.136070 -382.407440 851.730530
-149.692398 -317.461670 966.694763
63.888863 -366.988373 780.531006
-163.450150 -358.837799 951.947876
-105.950676 -300.593719 963.569580
-211.239075 -319.937744 1009.638916
81.429260 -311.350708 809.888794
-241.325577 -383.074432 924.294067
-117.442825 -501.420898 743.430054
-181.568436 -541.980469 739.356201
92.864502 -223.129547 918.547852
50.927456 -184.988205 1004.123291
-0.854834 -408.336212 767.877136
3.751820 -362.772034 822.951538
16.887362 -387.504242 787.390015
-78.394943 -234.339676 1010.111328
-70.599800 -464.873138 757.111328
-58.621853 -211.887634 1051.873047
-170.932846 -381.544006 920.994629
4.494292 -322.445862 855.367004
-153.530243 -225.233292 1110.957642
-74.800873 -200.689835 1054.216797
59.101509 -375.826111 740.943054
-3.427885 -317.440887 871.344788
-229.095581 -464.372925 859.425049
52.476009 -394.342316 724.488464
-171.661407 -284.697693 1051.323975
-233.308548 -340.470337 984.850037
-35.055832 -358.042389 855.486755
-97.757645 -337.279236 915.229797
61.486568 -187.154251 960.040649
-54.194256 -430.839722 784.305420
-40.773605 -217.030930 1032.452515
-2.619130 -419.233093 743.347534
61.651180 -238.778885 902.681641
-173.069092 -396.481689 899.954041
-65.373802 -285.207458 922.519348
50.661278 -243.344604 914.411621
24.046608 -252.805206 944.363586
89.801239 -207.791748 930.047607
26.069193 -476.060516 661.505981
-110.615311 -205.264511 1057.724609
-163.047073 -384.529175 890.481262
-200.863846 -327.936127 1038.110474
-108.192970 -227.513260 1058.700684
-163.850174 -216.297806 1097.876587
-240.686691 -360.373474 939.019531
27.096542 -216.190262 938.488525
57.406673 -300.958008 835.879822
6.033288 -262.691925 932.534363
-174.585342 -406.050446 889.792542
-14.929686 -201.818253 1027.316650
-77.260284 -282.785095 963.718689
-137.535675 -312.880005 978.068237
-239.434982 -474.335327 877.799377
-63.535336 -215.613052 1051.788086
-90.403717 -372.620148 830.550049
-62.565369 -415.273499 801.925049
92.259514 -144.035095 990.462952
-39.279041 -403.821991 802.715149
-61.257553 -232.391220 1008.574219
-13.009491 -354.439636 827.442139
42.020554 -447.933655 661.394958
-30.758574 -390.717926 778.953552
-24.214294 -253.005798 976.425720
-18.332985 -204.190125 1026.856934
14.744564 -410.567413 760.973145
-132.952591 -289.325958 1011.632507
-135.554657 -361.928009 924.675537
-48.496845 -326.896881 894.873779
-150.861847 -339.656433 931.755493
62.760857 -317.159302 832.375122
61.832989 -405.751404 716.235291
53.501617 -331.893524 799.200745
-114.304016 -448.185516 777.712402
-156.894958 -437.461975 850.010559
66.185349 -209.226913 939.163269
-44.738407 -307.705872 917.122864
39.292385 -196.153549 996.859497
-64.375549 -307.618439 921.333435
-242.609131 -472.104614 865.786804
-166.696472 -234.658173 1141.558105
57.836746 -334.037445 805.215515
-85.979088 -408.512634 799.165527
26.005234 -288.205444 878.539307
-31.553633 -278.501678 934.863464
76.220207 -231.451477 929.236511
14.290456 -196.494263 1010.809265
-252.833649 -332.377747 941.487549
56.841511 -175.415421 1012.234558
-17.179384 -256.537903 972.339844
-143.578995 -346.262970 945.686401
-96.189987 -315.408081 939.091736
-84.186508 -436.830811 770.326172
78.812088 -273.030151 863.257324
-64.135338 -270.250488 985.615417
-175.077759 -289.131073 1094.552979
-184.296646 -353.097198 993.079102
-10.233141 -472.805511 670.746338
-44.947437 -398.325806 816.458374
-53.303215 -439.236542 768.724976
77.119553 -359.243164 769.650696
-226.116241 -442.131561 888.552551
-205.069565 -356.112061 1012.333069
-254.010757 -337.406006 944.480469
-9.346478 -179.910522 1036.734009
-0.897414 -229.535675 985.462158
-163.800262 -259.109924 1059.767456
-36.022816 -263.970612 946.076782
-125.413574 -360.581543 912.125916
-38.588634 -174.459366 1073.098755
-87.495697 -330.226501 904.445557
-160.009872 -230.310745 1121.117188
-44.267506 -326.179443 904.583801
-59.817677 -391.476715 817.718445
-252.124069 -335.435883 977.457214
14.502452 -299.568604 880.029175
-89.362854 -288.271484 977.209656
-134.925964 -211.396622 1116.645630
-245.755798 -316.095367 995.010437
-150.341537 -443.252411 834.240967
-218.046036 -406.407257 927.117737
28.204315 -278.350403 888.557983
52.600998 -350.014404 777.148743
-133.255280 -255.153671 1043.064697
-89.583633 -437.970490 802.531006
-249.025391 -346.539795 956.877197
-258.449341 -436.908722 865.318359
17.439852 -301.849365 873.130798
-188.389740 -378.088379 943.690125
7.555251 -185.508499 1029.748291
-44.609093 -421.391907 762.454102
-188.978271 -342.432220 1014.175293
-127.552414 -229.294785 1076.555786
-103.255043 -365.002777 869.120972
-141.819687 -235.828659 1058.063843
-254.759827 -310.965271 974.791321
-136.028519 -239.411301 1068.309082
-97.562202 -497.688202 699.537231
-193.274506 -442.875000 892.534302
-235.371704 -448.291809 891.087097
78.179092 -239.412155 908.605469
-233.264511 -408.258850 910.359131
-93.684242 -520.784729 698.359558
64.037109 -410.257385 737.371521
50.910412 -244.215927 921.892029
-10.125916 -397.677490 770.386597
-170.291229 -391.895874 888.637756
0.959183 -382.394196 780.685425
-180.790604 -510.619659 743.971741
-147.555588 -409.079590 871.559937
3.590495 -437.289215 728.818359
-204.394531 -344.527924 1033.672607
-259.533295 -357.590332 912.403992
-41.519798 -491.056946 670.316772
67.200195 -165.708084 1003.706360
-45.352551 -220.917816 1031.028931
-48.145161 -313.136963 923.233948
-91.547798 -361.891815 883.161987
-54.436527 -288.268768 940.048157
-67.958954 -354.835419 869.009705
-51.670452 -349.628632 855.621643
-60.501152 -345.607422 869.687927
-172.893921 -341.104980 973.182739
77.580933 -235.851013 882.897095
60.702042 -185.014969 999.252930
-110.649864 -445.078735 798.954224
41.675465 -332.077637 791.622986
73.287323 -161.196991 1004.191406
-44.528996 -360.545776 861.897400
-176.923553 -437.078247 835.641541
-123.691086 -387.874115 871.368591
-103.431244 -464.612823 769.983337
-115.341652 -228.007339 1073.843750
-196.701340 -305.425110 1077.778198
87.452751 -244.616562 891.659912
-158.001755 -503.430115 758.100403
-191.530228 -366.451508 1005.189941
64.801712 -339.318451 791.313965
-239.780472 -442.358093 889.854614
-5.294310 -173.158218 1041.199463
-108.375679 -472.824188 755.189392
60.539753 -181.719482 973.174316
-4.726916 -197.510712 1002.270264
-26.106077 -376.499207 780.739502
39.297985 -444.091766 647.077271
41.418835 -310.206177 858.507446
-158.401184 -241.656097 1128.625732
33.403053 -334.798187 821.924805
-150.895889 -455.303467 813.257996
5.419249 -266.745850 920.798828
-256.624359 -339.562744 959.808167
68.694511 -239.562408 897.767395
39.662941 -204.719254 966.764771
-22.814625 -387.192474 794.596375
-14.154751 -450.616760 733.233154
-105.470482 -368.909851 891.234314
-114.459282 -372.438843 894.110779
-51.239899 -356.726929 848.237061
-48.724449 -193.665817 1054.862305
46.128262 -236.720108 941.419128
-76.645767 -282.808502 959.370422
-20.281807 -391.943207 799.659668
-62.041615 -437.669739 776.678711
-106.999992 -493.316223 742.315491
-12.664789 -212.349121 978.746582
-119.856880 -403.582245 832.856873
-71.072617 -410.639771 792.588135
-18.514324 -402.126892 793.793274
-82.883720 -378.466797 850.764099
75.619972 -327.400726 792.473816
-50.114548 -477.758820 689.574768
-61.924488 -390.000488 833.434937
36.409943 -304.045258 873.111328
-36.680054 -437.168243 735.177917
-108.415298 -493.452698 740.195923
-175.792923 -473.029388 812.916138
-117.610054 -252.345520 1028.915527
49.909744 -260.976501 904.155579
-98.180420 -350.256134 898.007019
-101.110764 -361.522217 887.468506
-207.002182 -327.704468 1050.705444
-153.898026 -307.910248 978.490906
-87.413239 -275.283356 969.166260
-172.608337 -499.561401 750.484253
-11.195299 -166.729202 1036.963989
98.932510 -162.280197 958.473633
-259.440918 -346.035065 919.677002
-237.481873 -360.403900 970.288513
85.025688 -169.273834 979.742676
33.015926 -253.441254 911.211853
-43.897366 -215.169907 1017.763123
-127.114090 -347.399475 941.357788
90.560234 -134.709991 1000.859558
-69.446045 -305.110413 930.604370
-14.776259 -249.528397 971.851990
-123.377365 -219.030075 1085.384766
-128.247452 -423.290009 813.822632
-119.049469 -426.825104 815.762451
-73.213615 -437.263245 761.495911
-181.037720 -274.349457 1078.097168
-195.443497 -343.383942 1002.558533
8.831521 -375.047028 802.411194
-61.505234 -337.313324 886.113586
-68.821541 -404.672028 799.526062
-75.521217 -227.406921 1036.556152
71.067551 -330.976563 795.646973
91.263710 -191.305038 945.659363
-81.731689 -448.961792 773.899780
-159.270248 -445.484100 810.688232
8.772522 -298.812622 886.645752
-178.584946 -305.913971 1027.638672
-243.844330 -420.897491 880.353882
-171.570038 -301.927002 1057.403564
17.343847 -177.720581 1022.833435
-143.762344 -388.878815 872.734619
-160.374771 -397.704498 887.642334
-109.868797 -262.678772 1017.468384
-133.105682 -377.361298 887.338196
6.303539 -208.837799 988.822571
-191.123367 -457.552917 840.272827
-65.681061 -390.274353 814.879333
82.358101 -272.434021 873.089661
-225.637207 -334.900391 1004.661438
-46.234535 -401.820831 807.880493
-277.232605 -359.266937 886.122864
30.376261 -242.847687 929.708008
-83.559975 -352.698792 894.885803
69.835655 -367.673065 752.227539
-136.932968 -516.205322 708.582458
81.390968 -173.216965 982.680176
22.935287 -232.636002 958.612305
-42.236053 -454.853607 714.245911
23.761534 -157.501968 1024.410278
-185.328400 -449.399902 826.360046
-101.341103 -336.606354 927.339233
78.338295 -220.783829 921.190247
9.834776 -427.259979 739.944824
-141.882919 -268.590912 1029.389038
-73.769211 -218.721497 1054.226929
-200.639938 -292.569672 1084.741699
-85.603203 -362.754547 863.743530
-118.797852 -230.714706 1066.138184
31.949631 -164.157333 1006.811584
-83.080269 -336.642944 869.495178
52.217373 -291.657043 860.218567
-278.537933 -351.187653 903.698608
6.595832 -291.179657 882.470032
-18.001495 -272.060516 944.026550
-138.300385 -276.879089 1012.453247
-65.295265 -192.644379 1084.906494
73.365067 -163.409164 1019.065308
-112.678551 -296.816620 985.212891
-13.203764 -198.842102 1017.015686
-265.170990 -388.250183 879.583130
-64.955772 -352.387634 864.558655
-189.291351 -376.606262 964.306396
-40.976452 -356.099701 868.156616
-35.906509 -201.980240 1029.982910
38.785641 -251.841904 936.554993
-135.480255 -323.505829 965.032654
-171.389725 -435.740265 833.425171
17.911978 -400.674805 765.763184
70.053444 -342.408813 780.747864
54.896534 -241.909790 911.694275
-79.518761 -222.758270 1040.964966
-5.650803 -263.357086 941.332581
-33.502274 -196.412949 1043.483521
-60.776737 -289.386353 955.554016
27.831564 -364.457977 796.138306
-260.149780 -404.459534 883.463806
73.435143 -230.200165 934.180725
-178.479218 -365.912659 941.448303
-126.385231 -263.680756 1019.567749
34.150074 -296.427582 861.372009
-100.708191 -468.240295 746.342407
-96.396332 -344.328613 914.840149
-134.082504 -413.930420 855.770081
-227.892258 -477.037354 887.947571
-156.600418 -411.765106 873.489197
28.476294 -198.379852 974.374756
-182.749237 -328.996979 1086.467529
86.636818 -166.182724 968.304688
90.002983 -256.638214 876.946411
86.743202 -180.103714 943.657227
70.611488 -169.918686 987.713257
-100.761261 -309.402008 949.294250
-56.152706 -387.986969 797.745361
-54.432121 -221.633926 1021.907166
50.141907 -363.774628 784.960876
78.397446 -310.754700 815.086121
-241.724182 -308.664917 985.475342
-98.233444 -468.444153 763.909607
-244.156326 -414.006470 899.618652
-49.906097 -315.884827 910.358582
-152.416656 -457.230408 803.364868
40.460842 -482.157349 636.256226
4.180872 -401.764252 759.093750
38.184681 -155.612320 1050.464600
-105.184998 -291.537445 987.868408
-133.759171 -506.341339 740.027283
-197.473145 -415.993042 927.605469
-101.571465 -454.593719 759.126221
-3.910700 -325.874878 858.132935
-108.061104 -370.406494 868.810242
-131.562210 -284.581787 1012.750427
-64.791588 -206.759949 1054.822876
58.748203 -326.375458 782.490784
-56.084667 -510.431885 680.602722
-120.970901 -446.393738 804.256836
-46.539154 -241.177322 1006.976318
-85.144547 -218.749512 1043.525879
-124.262451 -439.962067 778.837097
21.406620 -168.846268 1039.676514
36.593796 -226.170929 952.050049
-91.947281 -205.113327 1078.499878
-105.687843 -333.425598 921.259827
-80.599739 -460.424042 761.562988
-243.310287 -324.455414 992.597107
-206.215714 -528.011963 780.411194
36.466270 -168.783157 1001.250244
-143.681839 -420.581116 856.522766
59.325993 -288.084839 850.497559
-207.724991 -484.463654 826.794312
82.055771 -164.679443 999.231628
0.025220 -173.100632 1026.791504
-74.535652 -308.192108 924.001099
71.655632 -285.574219 852.867004
91.745949 -213.139191 929.624756
-92.322327 -461.530701 757.023926
-69.506844 -288.247803 956.403748
21.116749 -263.112793 934.012390
0.005988 -220.565353 979.694092
-4.757339 -431.641754 715.019165
75.594215 -281.428589 866.060913
83.086472 -200.996063 948.037659
-256.477875 -402.485474 894.519775
62.342461 -347.753479 802.324890
-65.283844 -400.187927 822.743652
-155.018311 -377.466766 912.204346
68.245842 -297.318726 831.876282
-90.751343 -354.117371 893.126770
-223.511795 -555.321350 807.753296
-96.549202 -418.453339 805.875854
-5.052292 -283.538849 926.812622
48.388260 -373.892151 757.991760
-69.739174 -316.905884 908.090759
-50.529892 -238.449097 1013.059326
-74.141815 -268.933685 991.330750
-99.630157 -237.654007 1018.500122
41.396278 -205.729752 955.954468
-103.434647 -471.665009 737.905273
79.710480 -223.501373 918.609924
19.938334 -279.885437 893.218445
-66.416939 -368.882538 867.374207
-214.936127 -401.489777 933.825623
-199.231079 -505.425446 746.281921
52.647358 -184.337784 960.758850
-130.402084 -417.083160 849.828186
-229.577225 -375.504944 959.113037
-90.932510 -474.787170 712.093933
-161.057663 -454.843719 775.568542
-141.540909 -218.149628 1153.711670
-102.209442 -527.380737 705.677795
-161.528946 -476.097809 774.619446
-87.067284 -260.111298 1011.928711
26.384188 -321.404297 835.023865
75.670990 -218.625549 916.798523
-69.552872 -335.608429 907.039490
-72.110596 -486.419525 727.051208
44.752350 -215.643234 959.871521
90.511063 -165.626175 980.243896
-123.678986 -221.166199 1077.169434
-199.321777 -300.606720 1081.678955
-206.766800 -481.090240 846.033142
65.000999 -328.663147 807.296509
-184.546738 -398.293243 891.780701
0.732308 -397.802246 786.157532
0.308724 -256.608826 955.617798
9.905571 -152.773361 1039.399658
-4.059633 -210.487350 1018.708923
-88.197548 -512.100464 701.841370
-213.657288 -340.171906 1026.744751
-16.090637 -272.362518 930.906677
-4.901888 -454.716858 713.732788
-193.493866 -338.961365 1071.645996
47.426384 -310.060059 832.938171
-153.913315 -521.873413 728.860718
31.598494 -190.660690 1004.131104
-11.509421 -396.900818 770.184326
5.694376 -457.227936 709.507751
-246.698074 -363.799469 920.965698
-45.974648 -401.723236 812.752014
32.062469 -179.912476 1016.711304
-59.674633 -390.903931 838.751160
10.791645 -396.300323 757.672607
-71.277138 -312.099365 920.353027
-32.203121 -468.827576 687.079590
32.164051 -475.670990 643.251770
-159.459366 -478.641602 767.883850
-105.944412 -452.098145 789.900757
-220.021561 -437.088287 896.347351
49.852661 -307.186279 854.793945
-193.577209 -519.653076 739.545166
-81.002510 -370.061188 852.405640
-33.584034 -299.768463 913.110352
-60.934097 -383.311371 807.878601
-174.062500 -488.003693 779.112061
-126.296074 -327.009521 938.694031
-86.919876 -462.640747 768.759521
-184.015701 -325.874725 1059.836304
-239.024628 -406.954865 895.570862
11.561828 -387.868073 785.313660
-38.542267 -457.175842 742.571777
-51.095226 -203.100189 1040.870117
48.940411 -295.641357 861.758789
-99.660233 -284.793121 992.189148
-102.920311 -300.939819 964.028076
-138.425308 -358.542267 899.462219
-90.545464 -201.544983 1041.788696
-72.080208 -305.533997 929.815552
-12.843370 -413.873596 775.724182
15.279799 -180.763168 1017.344360
-163.961624 -350.533813 969.377930
-250.107300 -452.048462 862.152527
38.052277 -317.897064 853.064087
-91.073631 -274.782928 998.354858
-226.360840 -336.546539 996.085632
-1.974297 -444.773529 695.754395
-106.813248 -504.055054 702.176086
35.077465 -164.436966 1028.896729
-148.042450 -243.687363 1070.366577
-55.848511 -332.034302 905.756409
47.182850 -177.103714 1000.189331
-279.807587 -357.830750 893.277405
-156.758865 -394.015839 883.969849
-198.954163 -427.304840 904.816467
-218.119202 -318.954742 1051.392822
-161.742569 -390.856598 871.205139
-202.115448 -315.667786 1088.874634
-151.168594 -343.360077 927.994812
-173.853683 -465.058136 812.978882
-227.314636 -328.975677 1039.767456
-43.400570 -295.784027 943.025208
-32.693336 -177.738937 1051.227051
41.183628 -246.361923 910.488831
-96.290283 -452.959015 769.652222
-32.948193 -275.321014 955.280518
-94.312508 -354.045776 881.196106
59.189106 -439.859283 668.264465
-77.999023 -310.747711 942.175232
20.134886 -349.754150 805.655701
-168.990997 -455.704590 824.088745
-218.499023 -361.003937 963.436890
-142.107452 -456.034729 786.569580
-203.717331 -439.615021 892.871460
45.955673 -337.548096 822.022522
-87.155235 -201.115784 1038.591309
-122.454910 -375.116608 882.681458
48.840916 -229.694473 940.079163
-118.863564 -211.096161 1087.589233
-75.512985 -233.452133 1024.766602
-200.422363 -384.899475 927.311218
-142.822601 -230.134857 1043.564453
-20.027372 -382.925354 797.875610
12.436653 -469.015930 687.516846
-237.136978 -443.913177 889.359375
-105.132385 -391.773712 865.909180
82.313568 -160.872025 1000.571899
-205.344833 -544.463013 759.259277
-244.037781 -475.125580 880.385376
-144.271561 -527.227966 704.395569
-215.551361 -399.650635 948.431458
-23.436834 -258.198883 948.263367
-50.597652 -443.092407 739.504272
-7.605181 -354.104187 781.746338
46.877964 -471.304718 674.651123
-153.436188 -280.058167 1027.483765
-54.508270 -451.599274 727.525146
5.904584 -216.192261 990.338501
-10.927444 -261.271393 953.612061
-211.705582 -297.654236 1062.826538
-34.428711 -365.922363 819.019897
-219.997131 -418.489441 936.674683
-146.916351 -258.651825 1062.537476
-132.746399 -474.355377 724.886841
-42.287060 -428.759491 739.818542
28.352676 -154.133987 1043.730713
80.797852 -220.605576 927.188110
-24.272985 -297.231262 904.888367
32.006760 -494.566132 632.210144
-86.683327 -411.494690 812.215393
-134.700012 -305.830597 997.188477
2.231446 -197.963486 997.044922
-162.566025 -463.186157 772.327393
20.376162 -411.008850 733.649048
28.203859 -223.736572 973.882202
-37.488819 -480.847748 699.094849
-225.155762 -335.423584 996.726746
-133.807693 -421.821625 811.064819
-148.304947 -390.378052 902.700928
56.327129 -246.966797 928.357300
-35.766342 -363.012787 855.998108
83.534500 -202.846634 954.084839
-265.658691 -394.710785 892.921082
-192.762833 -320.552856 1089.315430
11.905294 -397.108765 727.994141
-13.496590 -469.175629 693.779907
-6.753633 -436.826416 695.742554
-22.359837 -318.475800 881.079468
-272.657379 -388.133759 857.637024
-87.249626 -367.253693 839.346313
-173.408585 -492.181763 766.105164
67.283516 -339.980072 802.238892
5.984324 -267.582184 927.530090
-265.847015 -355.854736 948.706055
-131.901154 -363.385986 897.810669
51.034126 -333.070282 823.648254
-94.995865 -475.990784 752.589172
-58.563919 -349.912140 885.579346
23.857706 -349.254578 809.764893
29.874226 -387.276276 777.929932
-96.178772 -213.312256 1076.746948
-118.385529 -363.228546 903.043091
-243.902039 -308.793182 1005.338928
10.019216 -396.249878 775.221252
34.717232 -369.687958 771.341675
-93.868568 -462.526123 745.650635
77.521706 -185.731827 965.585083
20.665052 -265.956116 921.198181
49.417622 -323.995789 822.108337
-44.924358 -260.768005 988.112061
-184.419281 -485.315094 778.980591
13.708795 -228.872910 978.523376
-181.113403 -468.466797 815.881348
-138.351730 -304.932220 981.203247
-229.484467 -324.774231 1027.763428
-115.202477 -315.296234 967.671204
-116.846840 -259.598480 1010.586304
-202.856949 -461.547638 858.740112
-94.520615 -243.037949 1031.368652
56.371185 -291.429810 861.027283
-137.007858 -456.350433 790.160828
-96.844475 -491.655975 710.196106
-228.549850 -428.113525 900.764160
-229.361465 -405.727325 923.326355
-10.297558 -409.730286 750.548035
-164.870209 -276.205475 1047.419189
-101.155769 -441.640503 776.657532
-253.602997 -354.168518 954.236084
-17.730001 -477.132141 701.102600
43.580086 -279.681183 894.437683
-59.501530 -205.344910 1062.047485
-127.536385 -317.476807 928.758179
-73.484131 -209.901260 1065.237183
-212.803741 -355.459106 1011.332886
-212.866837 -376.392670 975.635437
25.253660 -226.506210 944.942322
22.113668 -414.643463 749.949524
78.854858 -174.500107 972.044006
-12.842917 -336.172638 872.493286
-161.984344 -529.325745 737.761963
-229.222061 -319.360474 1006.765564
-269.479919 -406.358002 846.750183
-90.351196 -396.971191 853.991577
14.365445 -432.064636 709.556213
-197.478821 -318.045013 1090.509644
-6.364971 -193.955841 1016.173340
32.538979 -291.420197 877.766357
-122.845551 -381.445404 865.578369
-149.320419 -291.355621 1017.306580
-175.434647 -396.508911 881.114807
101.915810 -205.917847 939.446106
-32.128933 -273.347137 932.444519
-81.324181 -355.014526 870.085144
3.152635 -307.657684 876.606201
-11.072377 -223.798187 956.655396
14.443521 -339.625916 843.324341
88.302940 -276.247406 849.727173
57.514038 -250.977737 908.770081
59.211338 -319.838593 813.271912
-241.829773 -331.657227 992.470581
60.914921 -186.223663 989.474365
-249.974899 -381.611053 902.246521
-102.460556 -480.187561 760.833923
-33.579369 -371.874969 835.117920
44.076832 -399.340637 728.309998
-69.125587 -350.070313 870.532166
-122.124527 -427.257446 829.677368
-73.036491 -245.200058 1001.140747
-178.746246 -341.051331 1018.704163
7.498742 -438.121124 699.226929
-152.023132 -300.786926 986.393311
-8.597635 -357.373596 811.269348
1.870329 -348.843994 803.403259
-237.016891 -469.593292 870.336487
-128.975815 -392.672058 855.728760
60.295551 -246.918045 923.635864
-262.804993 -381.250916 897.880676
-94.126404 -450.254852 762.275085
92.661873 -248.363495 891.462891
-100.812393 -430.722168 776.623413
71.694221 -258.891235 879.376770
-102.902283 -484.890228 743.620422
-66.437256 -348.198090 872.076050
-27.106644 -432.761597 744.995178
-126.390381 -437.454193 798.402893
-200.767746 -446.778534 866.791870
31.759480 -242.137558 945.833313
-125.591980 -370.485565 888.431641
-177.879044 -524.672180 754.785156
-169.577820 -506.573883 744.226257
-179.959183 -469.890198 792.840271
-123.131744 -321.192261 950.273376
8.043258 -262.321167 924.053345
74.630379 -155.379089 1025.640625
-229.405258 -408.537323 928.502014
-121.815392 -411.820740 848.635071
-39.980419 -241.678909 992.929382
22.121305 -453.902222 663.655212
-43.214539 -437.909027 748.288696
-71.189438 -354.408752 867.638733
-56.010658 -283.562439 949.502930
-23.439058 -383.195465 754.161865
-159.330063 -509.009613 740.458801
-243.797760 -451.180328 882.163452
-79.860252 -214.020844 1053.103027
34.184731 -179.547607 1005.858826
7.231175 -195.681564 1017.539612
61.785358 -362.986542 761.669312
6.162854 -206.016617 1006.846619
-118.824051 -279.007446 1015.088623
62.614223 -260.301361 889.552368
-26.085945 -380.661346 824.548584
13.653093 -180.995270 1040.269653
-78.799004 -453.610596 776.725891
-134.827530 -220.639755 1074.067749
-128.137665 -288.662048 1008.817505
-33.238373 -210.778839 1039.959961
-243.009460 -371.283722 918.189453
69.377670 -395.395081 742.220032
15.801359 -278.060211 874.825806
-146.077164 -410.834076 836.960083
-251.887299 -406.587524 895.439026
56.815495 -243.689362 905.737488
-56.927219 -390.593140 832.267151
-256.170471 -411.387756 874.100769
-113.597183 -277.400024 997.212830
-185.218796 -295.699066 1080.434570
-50.692726 -385.424377 819.244690
-130.101013 -444.710815 785.311584
41.697029 -172.471405 1022.171814
-73.013641 -378.935059 842.637695
-77.263039 -245.428101 1017.192017
57.593243 -299.317474 845.437866
-100.243164 -239.700058 1039.694702
103.828896 -185.572037 958.205994
6.428184 -218.505356 956.836304
-191.230957 -341.301270 1045.415649
-82.102585 -475.742859 726.108521
-205.862106 -491.842957 780.786011
-84.024567 -352.392120 897.351746
-22.344807 -349.229767 812.748352
75.028450 -311.850555 814.175659
-174.731750 -416.545776 858.706726
-140.099960 -276.795135 1019.061707
-9.824095 -260.652283 939.958008
74.049271 -233.565384 927.499512
-181.261169 -494.658844 790.384644
63.235748 -266.290710 874.593445
-105.479378 -521.256775 713.884094
18.976856 -333.237152 833.943604
-142.749619 -291.177307 1017.505981
-139.129196 -422.774750 813.431580
62.741985 -247.527115 907.162415
-177.326767 -249.622574 1091.536011
101.676392 -157.357239 997.987366
-122.303360 -384.120941 863.702271
-53.849064 -281.403564 960.493896
-33.545204 -384.167877 765.343750
-57.241474 -472.712097 729.762634
-141.858490 -482.861420 780.890808
-110.609192 -447.234344 786.083496
-104.168915 -465.324921 749.578796
-207.062057 -295.127258 1068.816895
-41.924377 -363.594330 830.285583
82.218124 -225.090622 936.469360
-150.447266 -308.934692 986.218811
-143.526840 -282.943787 1013.225586
-37.529594 -453.401031 746.039429
-253.463425 -341.428772 958.791626
-264.056732 -395.772156 872.071655
-63.024017 -381.919495 823.084290
-53.360432 -397.134796 797.818665
-211.409668 -454.268738 890.270020
-37.619041 -342.334625 876.504211
10.656246 -267.902130 934.752563
-101.904953 -283.880768 994.627747
-16.569702 -335.665100 825.243408
-148.773514 -248.130676 1077.906128
-8.915387 -241.841782 984.689880
26.865765 -299.041870 887.270569
-98.384064 -391.701996 836.865601
-61.923519 -449.603149 750.265076
28.140348 -301.057800 850.091309
-140.877518 -358.893250 910.559692
10.361499 -449.994568 707.932739
-167.610443 -385.363739 925.979919
-259.496429 -332.643372 960.262207
-200.003174 -347.169983 1007.125366
-222.270004 -362.110992 977.986694
-72.094574 -428.590118 759.041077
-64.634247 -350.613861 862.965759
69.227898 -262.009766 874.767883
-19.267738 -500.119293 675.046875
-199.206253 -438.761505 904.246948
66.792557 -252.669846 882.470337
-55.191727 -374.193665 856.119324
20.525206 -403.912567 734.346252
-0.656733 -183.045670 1038.439331
-235.042328 -327.933258 1007.404114
0.304369 -327.271301 871.324585
67.415588 -324.965851 803.642334
35.079765 -193.341537 1006.314087
-44.802616 -190.471039 1064.150269
-211.193390 -429.968628 891.452271
3.122967 -239.857285 954.894775
22.051374 -445.716339 658.807678
0.119499 -275.552185 914.171204
-156.895432 -204.365662 1097.588501
-191.731369 -523.273865 735.296021
-7.631500 -331.480103 847.686646
-72.348152 -378.276764 834.632874
-91.373390 -419.213531 782.279846
-59.739990 -335.785492 889.098389
1.027973 -405.381989 765.255615
78.615349 -310.140167 819.958313
69.956306 -342.051514 784.949890
-217.714157 -335.838287 973.022339
-161.854935 -352.187317 965.431213
-46.531887 -296.126068 896.648804
-189.338287 -387.657288 937.580505
-151.521652 -464.312805 809.504150
-118.486801 -504.535034 739.378296
-130.307617 -404.774109 849.758301
62.159492 -163.103516 1008.781372
-4.468577 -411.077972 723.001160
-84.524818 -299.109772 939.667358
-28.968042 -200.972168 1039.407715
-138.427689 -437.538391 834.074951
55.006924 -170.845032 1015.224792
-105.400795 -426.897369 825.409485
37.815739 -362.894135 765.671753
61.214756 -276.091827 867.561157
-82.867203 -434.367126 773.177795
-35.774220 -454.148315 716.390442
13.265331 -264.660950 919.417603
-18.876657 -239.241653 972.426819
-76.648399 -204.826660 1032.657104
-33.617397 -309.379822 905.956909
-189.835037 -337.395447 1042.853516
-28.976967 -455.703156 702.977661
-16.198982 -477.473114 661.077576
-165.451569 -306.565704 1000.065186
32.694241 -172.831192 1026.213989
-12.648243 -219.876511 992.346802
-161.623184 -392.311432 902.249634
26.896091 -317.412781 826.306885
16.058361 -205.099335 950.065613
-56.226376 -301.266663 937.941956
-132.089661 -240.353531 1061.520752
20.534195 -346.891876 780.767639
-4.763622 -236.546509 971.690186
-166.931992 -258.739777 1081.812500
-272.943085 -331.477966 923.341003
-92.031235 -217.438324 1063.679077
-131.088074 -308.755920 979.791382
-36.589664 -376.790619 831.147461
38.380966 -350.823578 811.467346
-259.253143 -390.501831 924.886719
-176.788757 -522.381714 752.997803
-121.670227 -456.086273 781.620300
-1.852582 -261.048706 950.094604
-55.373367 -339.930176 871.260498
-154.010361 -350.618500 943.104675
-193.726822 -342.533295 1021.300842
37.896606 -448.070709 669.058044
-116.141373 -463.258270 788.117371
-137.480255 -377.872681 897.320129
-199.500565 -347.011322 1077.702881
-42.088146 -284.926971 934.448914
-17.873123 -335.691193 872.482544
-79.136749 -474.560974 734.708069
57.954876 -215.582733 950.751587
64.410912 -194.176895 984.307983
-254.418671 -338.010162 974.055298
-27.823025 -308.182404 894.700256
98.100349 -157.297180 977.545654
-50.165981 -378.888977 812.199646
-122.399651 -285.445526 991.631958
-113.469025 -498.027313 710.919495
48.988720 -316.518127 830.809509
17.309660 -326.792938 861.218628
-254.107574 -422.336395 890.003906
-188.220688 -517.684570 761.583984
-178.318817 -342.235718 996.196960
-3.920231 -186.455338 1013.168823
-142.011856 -466.618835 794.461609
-98.801430 -522.151245 699.842041
84.096992 -219.836060 928.001587
98.352211 -195.250824 940.958069
-20.014248 -415.491394 750.302063
81.033134 -174.106354 954.358643
-139.468491 -455.689697 784.234680
-43.659214 -416.852814 787.476196
4.836426 -458.140015 702.987915
63.722454 -313.573303 844.963684
37.207512 -299.154846 866.611816
-237.322723 -319.814117 1014.911316
-92.022888 -414.220734 792.454346
-198.750412 -469.858124 863.113159
-74.793457 -228.855286 1023.547180
-248.218033 -420.004974 873.749023
33.970680 -405.046295 723.484009
-46.825546 -451.477966 727.693115
-92.611008 -304.997833 959.162231
61.188919 -167.825226 1017.146179
-7.204822 -195.021744 1029.511353
-223.859512 -507.231781 880.158813
-269.395233 -331.194031 944.451660
-126.449272 -393.808136 848.005310
-209.806381 -342.378937 989.078491
-31.968864 -220.347778 998.548462
-92.924881 -306.827911 956.772766
-61.711933 -443.633575 767.010803
-33.672112 -278.065796 948.674927
-99.825851 -216.123077 1028.099365
-1.241576 -164.813644 1031.682739
-99.069664 -322.942932 950.051453
-29.138302 -384.750946 798.261108
44.811016 -298.821289 850.216431
30.411041 -407.337616 747.491272
-219.681610 -357.865356 991.154968
-78.118210 -489.225739 733.786682
83.972694 -347.952026 784.526733
-101.128098 -195.030411 1071.535767
-142.560837 -431.370941 816.649963
-75.872498 -406.065826 822.727905
44.698841 -236.179382 925.778870
-151.811157 -471.567841 804.844849
-179.426498 -458.496063 827.263245
-249.775711 -359.637817 952.709900
-117.058449 -284.886963 1010.491150
-207.455109 -530.643311 766.504700
-63.675434 -363.176910 849.107056
-81.591301 -421.625000 787.908142
48.131813 -322.528046 843.672546
-137.944290 -275.960052 1016.388855
-18.041449 -352.163696 852.649902
-84.185623 -334.035126 902.576721
-4.817454 -365.694183 795.251587
-183.022873 -476.005554 799.482178
-22.205563 -461.095062 720.272888
-85.996918 -362.319824 873.850159
-32.509186 -309.383850 889.850159
43.520157 -332.124146 784.051208
-74.836555 -487.373291 732.387756
16.854864 -407.000854 751.164551
-215.074829 -380.013977 936.450562
-252.288010 -326.684082 975.968811
-186.429031 -379.970978 962.473999
62.534210 -183.956161 996.880493
-98.310707 -219.636597 1065.777466
7.200268 -337.113373 832.482056
-38.244473 -185.425888 1019.048096
-113.468781 -226.667999 1048.607422
-141.869720 -442.361542 804.466553
-150.980820 -279.608093 1056.765503
-193.355850 -480.882172 814.247375
-167.986481 -487.612762 762.114380
-245.684814 -336.583649 958.361816
-230.424973 -410.955078 923.594055
22.807129 -292.730896 883.138794
-61.426167 -266.547363 940.664429
-131.394028 -361.190613 917.339539
-251.509750 -314.924347 970.882141
-169.802322 -301.048431 1022.190063
82.050003 -142.808594 1016.631104
11.354920 -183.617020 989.523254
-232.147720 -377.642822 952.855896
-21.512909 -494.804291 670.977173
39.326252 -343.017456 792.194946
-105.100189 -252.729202 987.826050
12.712330 -318.076294 873.941406
-95.545540 -354.556671 902.477295
-217.870224 -500.240479 862.988037
