ply
format ascii 1.0
element vertex 1390
property float x
property float y
property float z
end_header
-107.177864 820.765076 -560.646362
-102.009560 886.237305 -702.717529
-190.932861 685.003235 -688.243042
-284.719604 699.754333 -362.240326
-40.207417 836.384033 -503.871338
-304.268280 691.440796 -547.924805
-95.283920 834.883240 -535.684204
-24.295290 882.453918 -556.582886
-141.642670 783.728149 -490.200317
34.370998 925.839294 -536.355957
-236.382675 737.681824 -444.431702
-113.951416 792.946472 -352.554626
-56.691586 867.815308 -636.602722
31.547907 906.288330 -551.406799
45.177433 891.696533 -433.962006
-56.166580 855.608826 -514.896667
-230.200577 718.663025 -690.718567
-94.525139 807.429626 -593.184082
-108.616402 817.855957 -600.652344
-156.058380 779.545654 -477.284027
-11.538181 858.385864 -540.002869
-140.904144 788.044800 -445.881927
-78.294365 865.535156 -717.153198
-256.920776 713.602112 -592.501892
-72.444290 817.998901 -552.540833
-260.720428 735.682129 -661.441589
-300.643036 653.524963 -335.381409
50.054184 918.011475 -476.867279
-45.390110 854.703308 -446.566589
-290.977173 687.161072 -512.565186
-276.039246 689.995850 -569.282654
-298.513702 657.936401 -382.815155
-165.810028 773.577087 -623.088257
-193.868057 766.664917 -412.089203
-205.702652 752.742737 -609.038330
-73.486015 843.976257 -493.988678
-298.897339 671.844177 -388.366516
-314.265503 679.385193 -327.225250
-12.037326 862.615845 -623.544861
-278.560120 673.724182 -579.350830
-333.279877 658.763184 -413.145233
-276.100861 687.289063 -590.403381
-247.443024 726.789673 -451.964233
-85.908226 827.670715 -433.674072
-312.085571 664.060791 -365.628082
-106.289902 821.883728 -646.826111
-150.926926 686.067261 -702.230225
24.082558 920.925293 -611.432739
-287.710571 700.237305 -371.089203
-213.701431 749.274536 -623.691650
-300.296600 684.917725 -353.203125
-206.248474 726.682983 -500.560669
20.973345 901.614807 -477.774994
27.860222 895.229736 -568.696899
-215.841202 734.095032 -549.344971
-333.711945 667.867615 -371.480255
-90.242500 836.061462 -526.624878
-175.237549 765.435547 -590.405579
-199.666214 746.163940 -407.278900
-88.639832 841.015930 -494.623199
-254.948532 704.911926 -479.149078
32.233799 911.297363 -503.971527
-328.433289 714.964111 -652.905273
-74.653740 837.797180 -456.822418
-163.745239 773.508789 -561.888489
-181.716080 773.298828 -592.040710
-185.579117 704.466919 -702.998169
-163.418808 720.572388 -704.151001
-54.207565 859.261902 -385.506989
-69.656464 839.946106 -493.352356
-31.319401 874.371338 -512.991882
-168.362595 763.795227 -542.499817
5.957922 905.695862 -649.932251
-206.303558 741.157959 -603.555054
-108.970596 825.759033 -450.937195
-184.423325 721.752258 -703.708435
-76.731903 834.956421 -450.597870
-70.552925 849.155334 -655.611755
-6.827133 896.691040 -622.397583
-268.888550 688.982056 -330.904114
-80.328804 839.774048 -538.162476
-148.058304 782.271240 -359.486816
-183.375793 756.270447 -485.636261
-69.263023 875.278015 -672.388123
-54.682644 846.270813 -408.234192
-267.814911 719.494873 -620.062073
-231.413681 735.416077 -664.892761
-119.934494 807.522888 -678.909363
37.897926 918.550049 -398.880005
-171.516037 782.348999 -446.746948
-120.301117 803.141235 -405.491058
-27.329092 886.993835 -578.602234
47.140778 933.989380 -444.415344
-241.071808 736.089233 -596.279297
-156.317566 750.614929 -422.594177
-178.473221 764.201172 -430.598053
18.156786 922.080322 -683.933105
5.709564 903.041443 -434.856232
-146.757065 788.699097 -617.057190
-143.065247 821.855347 -674.150879
-186.384796 755.361206 -598.307800
-114.790009 812.061340 -551.750244
-154.109940 786.093262 -483.465302
-291.461670 667.516968 -522.489136
-0.062525 898.736572 -491.557251
-295.027252 685.309509 -312.994904
-121.699646 716.207031 -704.507568
39.339798 908.316223 -538.993042
-237.712921 716.784058 -382.097534
-56.312939 850.021606 -649.169434
-109.953224 815.934204 -555.516479
-23.033792 886.220886 -541.736389
-17.944530 893.483154 -697.547729
-328.017578 650.201355 -560.089722
-277.031860 689.557373 -575.324280
-159.397476 772.598633 -405.297150
-332.535919 647.762390 -524.745972
-149.621979 787.506104 -694.477051
-200.464828 768.800659 -689.018555
-117.358734 813.801453 -703.468872
-211.161621 726.590393 -378.594513
-116.164764 847.169067 -684.123535
-102.191566 825.462769 -368.347260
-178.163055 776.685974 -430.381927
-106.711105 820.682739 -473.193817
-50.344185 848.369324 -504.517181
-243.478943 710.158875 -352.218201
-200.189789 749.754761 -512.250610
-67.610245 845.738342 -552.297852
-233.238693 727.540771 -681.006958
-270.738922 719.064331 -673.286804
-16.216169 887.766663 -471.205353
-338.854279 664.849060 -554.998291
35.664772 925.071594 -481.217529
-263.518494 697.525818 -420.404541
-168.916382 765.944885 -472.669861
-110.272827 817.599060 -719.120667
6.227386 905.862915 -505.961761
-255.327530 708.660645 -482.504578
-168.382446 771.789429 -410.181122
-65.716972 856.053467 -532.902466
-119.788010 844.295349 -694.573181
-202.413818 744.005615 -567.753296
-156.312958 792.325867 -461.688568
-158.640472 782.829041 -562.059204
-106.272392 828.595825 -441.846191
-69.100471 835.963013 -379.473907
-28.317633 880.283020 -660.262878
-119.874336 810.732727 -503.875671
-38.419228 839.980042 -537.034912
-195.731262 748.118347 -539.722473
-279.184204 685.595581 -343.041870
-169.818237 688.939026 -696.800232
-35.111683 842.858521 -544.913330
-4.345568 893.251343 -429.369385
-138.728897 787.710876 -406.272491
-177.277344 766.787598 -586.086121
10.179595 895.693054 -380.882355
-332.235077 631.902039 -556.227722
-280.559509 702.276978 -420.300568
-143.356323 795.985352 -632.105957
-216.771149 726.364868 -349.090698
-48.239605 861.902832 -478.496735
-345.134674 645.308960 -550.198364
-31.313028 870.243774 -521.473633
-51.551399 856.881165 -367.801331
-38.348137 861.071106 -450.573578
-148.372467 797.046021 -572.216431
-54.554028 865.067749 -385.438324
-147.904175 790.079041 -583.119019
19.579580 904.748352 -566.275757
-33.119259 858.858765 -458.383911
30.575903 918.988342 -389.534698
-76.132912 850.792053 -438.679932
-116.228561 810.042053 -488.968933
17.729801 894.204590 -527.817871
26.003233 920.489929 -530.209167
-80.841362 848.343140 -610.499634
-95.566360 812.232178 -720.780945
59.893269 934.986572 -404.924072
6.468970 905.670532 -631.925537
-252.320114 705.697815 -396.230286
-243.488235 717.431396 -593.802246
-240.525513 722.728455 -357.754761
-65.853561 841.051147 -485.072784
-201.747330 748.754639 -450.443512
-106.567657 829.040649 -432.595062
-7.487945 894.947754 -465.880341
-199.020950 767.383911 -638.258179
-88.433426 830.741943 -603.058716
-311.971375 676.871643 -303.053589
-281.199036 678.948547 -354.696716
-298.981964 687.735657 -373.606598
-240.643295 706.856201 -537.024963
-235.233673 736.327454 -543.420593
-163.843079 778.011536 -690.466370
-143.297791 804.072021 -518.539307
-215.710403 735.253723 -397.054016
-267.951233 694.460083 -344.805695
-160.317383 771.407288 -407.290771
-121.739067 813.821350 -688.772888
-8.883114 894.996460 -497.664703
-173.594330 783.296631 -554.111572
-230.897232 715.464539 -340.948212
14.814317 880.537842 -445.505585
-258.803253 717.242188 -436.030426
-110.027321 809.986877 -429.382111
-114.224564 811.495544 -575.650269
-58.086010 853.913025 -409.441742
-35.478031 914.656189 -717.426270
-332.450867 665.727356 -355.197388
-175.574829 776.018066 -366.310974
-93.253960 827.317505 -573.103638
-28.093372 881.822144 -625.863708
-18.904078 856.661804 -502.762390
-44.616901 919.157654 -714.937683
-36.856613 869.661316 -618.286438
-290.411896 679.349182 -557.925415
-333.557831 654.163452 -546.117493
-313.812561 677.453552 -401.600830
-96.919365 836.438965 -712.501587
-198.789902 738.071838 -341.812195
-71.974083 847.488220 -460.486511
-250.040176 724.882751 -673.990906
-205.237747 754.535889 -379.825958
-181.988388 781.885742 -671.886230
-10.783780 895.040833 -666.378967
-33.223873 879.520996 -553.244629
-242.147964 720.441528 -424.417786
28.183258 902.766785 -403.652222
-203.559006 760.419739 -385.215179
-161.599442 797.927979 -639.819580
-186.556137 767.760254 -389.220337
-222.712463 733.004211 -450.181702
-158.945206 777.675659 -697.377075
-187.098282 747.503723 -689.636353
-252.574615 701.844543 -358.314575
-157.339081 772.304382 -366.614655
-167.156830 773.460022 -356.897217
-11.212112 878.897278 -410.436523
-203.649673 735.740662 -579.188599
-364.348267 642.615723 -451.299194
-262.876984 703.507202 -553.789246
-2.720234 886.750793 -468.995178
-318.668091 681.649963 -443.977112
47.045624 924.072327 -606.608643
-139.783203 799.539856 -367.645416
-212.379974 730.361633 -474.911255
-225.153793 746.729309 -684.490479
-152.618439 751.124817 -710.590698
-273.123718 730.191589 -659.144226
-158.050125 772.518555 -688.639587
-251.364944 708.435669 -514.354065
-257.304016 710.852539 -314.039978
-39.240967 871.741455 -388.930420
-5.113817 877.415649 -416.270813
-231.770935 736.589539 -369.034180
-202.869049 760.572205 -453.693634
-202.521072 756.373169 -346.135834
-200.355408 744.064331 -354.444580
16.296017 897.080688 -499.769104
-269.848877 708.943115 -516.798767
-293.044830 704.013489 -665.206787
-104.039810 777.509094 -724.138489
-135.448593 787.065735 -615.944519
-24.744492 855.464050 -579.401733
-26.047565 843.734985 -421.662476
-19.013042 858.563293 -627.973816
-151.796906 782.497192 -520.147949
-13.141017 890.429016 -602.263428
-0.188766 895.142334 -616.836243
14.335570 914.927795 -542.131104
-282.837128 686.587769 -379.272095
-125.718651 799.848328 -708.980042
-99.901337 830.186646 -556.004822
-264.081726 700.653503 -461.809174
-160.394180 789.059204 -537.284546
7.163386 903.257996 -519.247742
-338.766815 636.949219 -406.752411
-6.559918 893.774963 -429.345337
-331.271820 672.940125 -457.149475
4.470185 902.849304 -475.946564
-171.844482 734.470337 -694.116577
-63.358341 824.173218 -471.354126
38.294117 918.213013 -388.538330
-139.670303 797.466614 -662.539368
-310.954346 665.459839 -529.571960
-310.192841 714.447388 -652.802979
-317.213623 660.518311 -584.015747
-220.886810 716.716431 -422.940857
-245.109222 705.345154 -609.116455
-126.968254 808.270203 -519.927734
-203.068100 743.574829 -507.423004
-109.162483 829.458618 -518.016174
-159.543518 775.085266 -395.788544
-141.453979 784.803467 -674.228516
-123.599457 807.903076 -498.237000
-165.085495 777.216431 -653.543091
28.037701 911.267029 -537.735107
-189.700912 758.620422 -355.400452
-24.305620 925.337891 -709.073975
-119.630432 806.931458 -460.956207
-122.114868 783.479370 -432.271149
-93.071426 802.669128 -721.645386
1.722832 885.631653 -513.000854
33.873306 905.043701 -488.954712
-114.947235 813.104980 -444.355225
11.677713 883.793518 -617.043701
4.220951 883.931030 -395.227814
-320.148834 637.788452 -336.797699
-252.695831 713.290466 -438.054108
-141.359039 794.970581 -537.156128
-126.176163 832.361755 -669.448914
-5.519622 898.247009 -580.243225
-240.894806 713.824707 -420.168396
-138.531876 790.629211 -364.288330
-112.814713 758.692993 -722.410095
-40.862091 867.473328 -540.154358
44.493382 916.984070 -590.680481
-237.025635 734.693237 -668.753601
32.625301 925.643555 -575.770874
-166.812241 759.498352 -621.655884
-291.910492 665.544739 -486.696014
-88.550797 819.606934 -636.145630
-220.016434 733.162109 -432.305420
-11.403033 853.885132 -446.091644
-308.179871 669.385559 -309.944550
-23.196783 885.483948 -474.825043
-179.914078 754.575989 -552.613037
-216.320358 749.197815 -583.081177
-102.265083 820.551941 -524.905212
-136.289719 819.037292 -672.977722
-187.355988 780.835510 -675.369995
-137.993332 737.558044 -718.373535
-28.972837 879.822449 -638.315674
-164.904892 769.708130 -630.235229
-39.837673 841.500793 -384.286530
-223.231216 739.703430 -417.610992
-266.060730 697.782715 -558.094727
-195.294174 752.008423 -684.193787
-256.129700 704.423462 -371.159607
-147.351685 783.795044 -464.039581
25.778545 911.197510 -434.914886
-158.880157 767.264771 -455.467529
-110.383560 832.970459 -710.869934
-284.974030 684.601685 -368.547974
-117.242371 772.536194 -374.928741
-278.654938 703.383240 -413.104340
-96.827637 825.068970 -442.918793
67.710579 940.761536 -449.804596
-286.935089 689.943481 -468.077240
-205.470001 711.025818 -381.886444
-155.899658 775.199158 -389.003815
-176.725235 782.506470 -524.977722
-251.651199 728.554382 -592.419128
-216.581558 734.637329 -376.686127
-279.184326 688.711975 -410.997498
-110.369987 833.467773 -687.511841
-171.274155 749.827698 -545.826172
-29.555782 869.439636 -500.215302
-19.088902 858.487305 -541.248840
5.467974 875.433044 -617.126587
-286.695007 682.337280 -587.630188
-125.650246 802.858459 -476.180054
-148.544754 743.815918 -711.759888
-134.194946 805.189331 -708.724731
-124.374199 805.016052 -381.692566
16.127094 920.446228 -603.239197
65.136620 919.845947 -423.535919
-24.348473 883.059265 -526.367249
-357.103760 650.690674 -588.357605
-72.607262 836.362427 -639.697937
-98.273132 824.870667 -439.714966
-315.995911 658.686340 -373.419373
-105.361732 810.449341 -462.212555
-229.577484 740.451111 -635.498230
-221.530228 735.990051 -525.609619
-50.267899 851.061890 -448.262482
-101.961082 804.828308 -725.198608
-148.217377 781.554626 -501.289825
-343.627380 646.921265 -464.955750
-136.268372 724.916138 -703.380005
-120.081360 817.402344 -595.171143
-309.651886 668.378906 -501.323517
-278.539154 708.268066 -474.201599
-43.527893 856.189880 -504.779327
-78.434792 834.641418 -646.459656
-63.463436 853.459045 -463.959595
-257.825989 719.272522 -597.322510
-227.100311 721.296936 -360.405334
-194.885117 735.170471 -552.084839
9.884406 888.166931 -402.700073
-154.979843 746.805054 -703.357788
-284.370422 663.225342 -527.854675
-82.546661 830.505310 -511.774506
-46.267029 870.599670 -593.798706
-224.827866 741.000977 -669.715515
-191.619217 746.179138 -435.346100
-350.637146 639.502930 -413.220856
-288.316681 680.695007 -540.895752
25.276339 908.118225 -479.069824
-75.521889 850.602783 -566.761047
-66.708282 856.510742 -566.265503
-39.478767 843.085876 -593.706909
-184.218689 771.124146 -334.031555
-233.082047 726.760925 -341.390442
-17.214243 873.646545 -512.254089
-176.304764 768.488220 -517.761169
-58.260017 857.962952 -471.696136
-103.208046 831.958557 -390.782410
-183.951889 770.460144 -621.753357
-121.042511 833.828064 -693.056519
-53.978691 847.608521 -384.850159
-177.635178 734.476807 -696.671997
-249.296432 724.047363 -427.561920
39.452408 909.116638 -394.138489
-95.045288 835.436035 -481.822266
2.764463 903.305481 -513.401550
-288.847015 667.824463 -409.493042
2.227370 897.356018 -403.309052
-59.356712 849.664917 -390.474518
72.209396 928.673767 -437.381775
-99.404434 821.226868 -392.327606
-93.754074 838.572083 -446.310944
23.845783 975.747192 -716.201843
-268.770905 694.133850 -597.131104
-63.513401 911.921021 -720.670532
-111.541367 824.199463 -462.425812
-316.726410 681.996948 -522.197876
-309.926117 663.047424 -533.866760
-273.227234 671.127075 -477.744598
25.527800 918.210510 -466.033112
-62.916729 855.917480 -497.911469
-53.157051 847.284668 -532.883179
-171.026169 764.816833 -422.317993
-336.212708 651.985229 -506.365936
-231.751404 699.206970 -389.505981
9.236538 913.555786 -596.037292
-119.206932 833.477234 -648.229370
-56.795006 855.582336 -368.918304
-145.486710 769.017456 -708.994629
-223.981766 741.712463 -396.382813
-305.941345 730.299622 -668.550537
-83.932228 828.791931 -453.398254
-167.660568 772.672058 -399.992401
-217.536392 750.836243 -542.573730
-54.545860 856.311035 -451.677155
-291.236572 668.078003 -516.715576
-228.928741 723.912170 -505.368103
-112.963242 806.476257 -403.928223
-74.799255 836.926758 -438.684845
-116.178108 787.588135 -459.398651
-121.874176 775.652222 -437.748718
24.113308 919.540833 -646.969666
-151.823944 805.567017 -692.665222
-50.452953 861.425781 -588.601685
-133.621811 808.321899 -652.426880
17.491219 882.595764 -457.489594
-69.275261 850.627380 -598.465149
-137.087601 794.736267 -704.130249
-190.951996 766.408447 -474.897552
-61.901493 858.917603 -539.005310
-270.346039 692.196533 -331.171387
30.835442 908.260986 -411.470642
-80.547989 845.645447 -435.783203
13.093406 913.472107 -633.981445
-128.160034 798.244019 -425.132050
-214.131516 749.658752 -403.138489
-156.988358 789.629272 -375.717957
-283.987885 664.392761 -539.317993
-288.909637 701.080994 -434.416443
-163.062683 773.323303 -706.175720
-286.346588 695.904175 -371.093292
-23.592598 880.353394 -525.526733
-167.485214 786.351746 -600.743347
-65.342422 844.660278 -567.345032
-43.102570 869.324890 -621.530273
34.136398 905.562012 -549.704529
-74.770996 838.527466 -523.596252
-97.511559 817.730591 -538.790955
-267.174652 676.898499 -526.483765
-245.962097 713.576538 -670.758362
-89.935860 837.502258 -390.898804
-53.505749 857.785645 -543.954102
-163.719925 752.674866 -402.974152
-190.260117 749.715210 -385.012024
-132.983414 800.978210 -532.690552
36.836933 916.697510 -454.594849
-355.931702 648.126282 -464.598602
1.451046 906.178589 -522.957397
-243.508102 732.439209 -505.523224
-88.970863 829.254944 -556.684937
-50.478889 833.363037 -470.400238
-156.240631 776.654907 -528.112915
-291.291260 695.037659 -434.002411
-7.217760 892.992859 -528.107849
-351.928467 652.321838 -390.632843
-154.321198 799.397034 -572.274780
-176.807343 688.015564 -697.816528
-301.513824 671.477600 -572.558411
-19.496222 891.365417 -617.462158
-81.766457 826.856628 -386.581635
-42.263134 873.366821 -370.764465
-139.291611 826.529297 -668.402649
-53.983986 906.115112 -703.786255
-2.169304 889.160034 -520.527466
-163.601227 783.522156 -441.990417
-125.798042 794.544250 -606.856567
-336.767578 665.269958 -413.486145
-138.170197 804.700928 -488.171356
-338.336823 655.398315 -585.866821
-37.731163 876.977966 -423.308594
-57.178509 863.314575 -436.307953
-220.593948 730.965820 -370.937744
-193.773865 745.636841 -457.085571
21.660563 913.563293 -429.670746
-276.249084 680.892395 -585.462708
-281.213379 705.308044 -560.120300
-248.521484 684.543579 -369.022522
-186.313477 718.433167 -703.279541
0.177422 898.867737 -484.233521
-243.815308 711.822144 -414.153229
-217.818741 748.136108 -573.437744
-10.869415 897.648010 -638.601685
-81.607460 846.931946 -615.109314
-244.974060 703.617554 -551.975037
-345.197205 671.934998 -616.121399
-154.693924 792.851440 -535.561890
-2.254994 875.750610 -400.705566
40.907635 916.290588 -396.855713
-296.264709 673.812805 -329.543640
54.660507 922.533569 -431.737732
-109.499207 805.045471 -710.387085
42.039169 919.197632 -478.133789
-216.700012 732.815125 -487.582550
-55.837753 847.275879 -378.909851
-257.497467 709.930542 -442.274323
-199.031723 731.060486 -689.164001
-237.742752 727.278870 -626.177979
-137.648529 795.352783 -427.445190
-158.401138 769.659546 -673.599854
3.309033 909.220886 -533.362976
17.771774 895.188293 -528.965149
-162.545334 786.901794 -551.410278
-26.026218 874.313782 -375.113281
0.756241 896.339233 -443.404114
-223.464615 732.287903 -675.510803
24.968899 893.065369 -371.559814
-3.926777 891.826721 -469.980530
15.496807 912.677185 -430.204346
-341.116943 662.637268 -311.627411
-86.600372 841.170654 -530.880066
24.797102 916.441956 -454.981140
-10.453725 867.421814 -653.724487
-214.669128 729.139099 -502.994232
49.519054 930.558594 -454.750732
34.750458 921.184143 -597.828430
-178.568024 737.807373 -404.993256
-14.060307 892.796143 -668.069519
37.058929 925.373779 -507.413757
-100.651810 817.345398 -441.767303
-7.954216 897.927246 -657.107849
-176.147781 780.053467 -595.121826
-18.285173 868.818726 -407.710846
-298.190216 688.549500 -605.027649
-363.361145 622.309631 -521.505493
-340.850098 664.082092 -537.217285
-123.593033 818.635925 -546.510925
-105.189484 807.725281 -624.697815
-187.034531 767.099243 -657.905273
7.016679 903.474121 -385.437042
-50.107094 872.780884 -624.919556
-66.099327 847.924927 -579.519592
-52.963566 833.353027 -529.722839
-283.657074 674.737244 -481.616638
-179.859268 765.721130 -518.760193
18.593998 914.505188 -501.664001
-350.393799 631.364746 -524.704529
-128.519760 838.740601 -705.245850
-24.986473 867.569702 -430.592163
-332.653503 711.763245 -651.502075
-180.389847 762.478149 -409.480927
-275.636810 735.448547 -654.513245
-145.963257 803.314392 -491.702576
-177.108810 763.913391 -402.453278
-165.764435 790.639771 -354.904846
-143.190445 787.259521 -364.906677
-250.755768 707.825317 -479.674744
-162.715179 726.604553 -704.982971
-253.952774 688.778870 -683.822937
-323.616058 672.019836 -492.321869
-167.046127 692.607178 -704.583740
4.464583 903.048950 -470.823486
-242.985611 715.647095 -482.095032
-174.517487 779.664429 -511.474426
-351.792877 650.908325 -457.572662
-274.038605 689.371887 -405.372803
-158.918716 769.866638 -491.224182
-273.442749 691.652161 -469.751282
-33.851723 873.822571 -552.960144
-293.799408 691.274170 -545.817139
-14.255322 897.348633 -664.006226
-20.168869 885.687439 -551.128845
-108.021950 844.902893 -718.295471
-162.551910 749.396790 -686.846313
-98.299942 831.741882 -567.493591
-35.345638 847.794861 -374.967773
34.485981 928.822876 -564.325684
-39.078808 871.632141 -433.268280
-190.942719 746.639709 -424.745056
-145.985001 768.403198 -704.399719
-116.899269 779.572632 -712.569702
-105.389664 826.972168 -574.199646
-129.882889 797.659180 -382.413605
-255.223999 711.764404 -562.385498
-12.580897 925.356201 -686.432495
-298.996460 679.893860 -612.425964
-114.672096 866.422791 -690.610168
-175.969315 748.421143 -581.320801
-314.824646 663.239502 -578.079041
-277.513000 688.710510 -532.407349
-113.206505 820.833740 -631.459656
-47.602966 835.483521 -427.347961
-215.321457 737.584961 -482.356598
-291.810974 692.003601 -441.977539
-31.146803 877.344910 -437.872589
-57.309971 849.360168 -581.147095
-177.449036 765.920959 -457.599854
-175.428574 789.757202 -647.831116
-361.909424 649.455994 -531.613098
-364.549652 633.234680 -592.600159
-137.957504 809.835938 -529.037842
-194.017563 716.401428 -708.291504
-119.947952 827.889954 -641.565125
-108.885780 830.893433 -656.113525
-100.246452 769.954163 -707.688232
49.985722 935.450867 -544.488647
-194.325394 714.262512 -699.383423
-245.725204 712.465454 -529.661011
-317.012970 662.100159 -385.314148
-11.739934 897.422180 -516.705444
-212.736923 733.560547 -333.990692
-6.094566 890.201721 -646.798401
16.924988 920.070007 -387.940948
-324.453827 658.044006 -399.371216
-55.566807 862.820618 -628.964294
-326.652466 675.668640 -498.408569
-340.794739 648.594421 -471.121643
-324.761780 634.896240 -336.083496
13.512871 911.395874 -573.259766
41.288750 919.404236 -468.580048
17.303659 907.939392 -581.487000
68.395348 927.482727 -483.734314
-290.603577 668.502869 -567.280212
-60.202335 842.915405 -560.599976
-233.287994 726.934204 -331.353241
-169.170822 780.619385 -377.946045
-30.782379 853.252930 -416.444214
7.947406 879.411804 -535.497986
0.702657 872.884155 -574.342102
-46.578018 865.479553 -389.591187
-194.499481 774.920532 -623.678894
-353.571411 668.584229 -620.104797
25.694351 916.268372 -397.218567
-292.023804 698.724426 -660.069702
-218.236786 745.020020 -618.932068
-13.875356 890.086426 -500.051208
-262.446808 699.654968 -354.432251
-14.419158 913.582825 -684.856506
33.828350 924.213318 -545.822266
-160.306839 779.165649 -499.549316
-152.841385 791.106567 -554.020325
-31.602953 919.456726 -695.520264
-176.351273 731.657593 -391.472412
-318.766937 659.191711 -405.254608
41.161007 920.636169 -387.323090
-81.961594 835.193726 -599.654785
-217.865616 747.321899 -600.763794
18.265640 911.456299 -509.075256
-310.504883 665.134583 -380.172180
-326.986298 668.423401 -460.628632
-107.950348 829.240967 -479.941406
-98.486572 802.076294 -717.882019
-237.316345 723.639893 -558.326355
-307.631134 681.052490 -514.640076
-275.687317 690.279846 -537.871643
-321.034149 657.446228 -597.503845
-199.229813 748.466614 -423.541260
-330.069550 669.713013 -503.555176
-348.017395 654.635498 -465.717651
-345.734924 651.960571 -448.785095
-354.830658 618.922729 -560.555420
-322.263306 675.100098 -422.092163
-38.205429 868.374084 -586.978516
-70.941780 875.258362 -690.431824
-131.900070 798.643616 -361.506897
-94.767311 838.867004 -493.749054
-122.833382 809.430542 -636.627869
-127.618896 770.779785 -719.288147
43.845268 908.483582 -409.368835
-225.105927 697.985229 -697.346863
-215.695236 747.687012 -642.607605
-174.961563 790.476196 -672.866455
-356.585449 653.590576 -436.835602
-73.305847 846.585205 -630.371643
-335.321503 650.909851 -326.464630
36.953358 926.630371 -476.812256
-292.148499 654.621765 -451.135468
-307.726318 679.433899 -568.619385
-241.551346 689.825867 -362.083893
-211.138763 752.856628 -451.912018
-99.565781 819.275818 -454.121796
-158.321426 789.886902 -552.487366
-96.303192 826.386597 -717.216125
-194.660004 745.258972 -468.033173
-61.664455 844.727905 -446.929047
-92.200905 803.937073 -498.986847
-76.753380 834.256165 -504.313568
-265.868286 711.784973 -314.549896
-199.916092 745.453491 -470.325195
-237.033371 736.833069 -489.116943
-170.796371 761.414734 -582.080933
-210.372772 733.666138 -360.605927
-55.288712 856.171814 -498.151398
-85.236053 831.005981 -497.751282
-33.919277 874.442505 -671.770325
-77.519814 849.418396 -434.402863
-331.595581 651.944946 -381.538940
-254.584656 719.613586 -389.149078
-154.654877 711.176453 -707.372375
10.071994 883.748535 -403.506531
17.694811 917.000732 -550.685242
-263.199524 687.225220 -466.810089
-147.492432 803.169189 -525.250671
52.645802 932.934692 -497.091644
-117.462517 811.757813 -600.761597
-186.797882 738.812256 -702.535095
-216.173813 754.055847 -514.755249
-77.544502 845.446899 -612.671936
-186.683945 773.037109 -554.253967
-262.097443 700.011780 -468.936920
-81.904984 829.230347 -615.985840
-17.549616 922.650452 -688.590332
33.912472 926.241333 -385.050995
24.405857 918.118835 -670.865234
-296.194733 665.592529 -331.889099
-29.986328 868.701599 -400.356354
-278.058685 686.034485 -333.839905
-124.160042 754.602966 -706.355530
-49.987675 861.180237 -566.192383
14.216195 913.173096 -574.302124
-345.994049 637.380127 -553.973572
-281.538452 690.804260 -382.201813
-99.951271 832.775146 -473.098236
-174.643143 761.012817 -393.381531
-165.216049 775.394226 -458.201538
-133.974228 791.841064 -353.472229
-188.925446 691.953918 -691.114502
-27.028208 863.265808 -393.100159
-91.230156 827.157410 -513.578857
-115.131523 863.525146 -717.560486
-89.853951 804.906311 -379.082092
-37.170227 858.721375 -454.857391
-299.504120 659.829712 -489.048889
-48.084694 873.839478 -658.197327
-292.525818 698.452026 -423.585999
-74.855522 902.268982 -713.628113
-227.928955 725.136353 -428.432831
-78.162827 839.107605 -467.263641
-353.246460 649.779602 -498.323792
-45.343456 852.701172 -410.798920
-240.756485 710.109131 -336.716492
31.061644 899.937805 -411.743896
-283.481201 688.923340 -325.644104
29.137562 906.203430 -395.172241
30.602169 914.121216 -578.879395
-128.338165 798.715820 -622.982361
-257.927155 702.013855 -426.295410
-232.978394 735.712891 -376.411804
-178.970764 791.376526 -639.542969
-177.982468 762.736267 -577.605591
-80.695038 839.631653 -543.820740
-5.449560 897.154785 -602.756165
-205.331375 748.645813 -516.631958
-51.021580 869.641785 -481.048309
-11.160404 866.383301 -475.346100
-95.068878 838.975159 -504.553009
-51.906349 872.348938 -628.912415
-342.760773 639.834534 -385.481537
-167.107681 787.494324 -589.075867
-20.059662 867.202209 -455.989777
-343.456543 654.332397 -455.293518
-151.960632 785.250061 -515.325684
-46.011723 858.761658 -448.886932
-228.886459 737.285706 -595.769775
-211.169815 740.992554 -581.389709
-116.483597 808.546204 -633.648071
-272.469208 706.361389 -379.639343
-192.569733 755.380798 -620.015625
-177.031769 796.662659 -683.141174
-40.385372 874.369690 -524.209900
-8.480892 885.917419 -530.813354
-180.037369 759.248596 -345.192322
-237.542801 689.650940 -430.794067
-0.694807 902.010681 -427.808411
-32.540043 878.357422 -476.948761
-303.535339 685.651245 -327.762268
-3.834420 877.907654 -390.024933
-224.490646 745.546570 -457.084534
-48.464462 872.126160 -642.134094
-366.957245 624.489380 -587.420898
-208.500687 742.278564 -493.722321
-227.307159 739.955322 -489.101349
-140.218079 806.730347 -593.767578
-229.712341 722.999390 -390.213501
-71.815651 851.214172 -572.385681
-114.837517 803.559998 -437.951324
34.757221 907.392029 -617.057678
-19.031546 854.963196 -390.023254
-163.182022 758.079895 -392.726227
-86.104233 827.342651 -489.824951
-35.501339 875.562744 -499.815125
-200.902405 742.647583 -344.036407
-15.638129 886.605042 -532.525757
-294.039673 695.377319 -360.093903
-367.007385 643.598450 -583.360718
-242.830414 733.787598 -456.483185
68.546242 928.798340 -473.269989
-158.140640 773.668945 -579.999390
-300.600220 675.654053 -554.414734
-238.741623 731.694763 -386.816681
-136.111160 801.495056 -374.350586
-57.087959 849.934998 -389.382233
-246.625916 746.456543 -669.683472
-100.980110 822.591248 -426.755737
-168.826050 781.799805 -598.946289
-335.427063 651.862183 -428.772064
18.514137 900.579468 -527.718567
-111.825859 817.892822 -495.049744
-254.663254 722.054626 -324.747559
-313.327057 663.557007 -395.600769
-177.423706 763.951965 -430.815979
-41.879120 872.927185 -563.749268
-101.274475 774.291992 -718.480469
-151.322128 784.406982 -447.350616
-119.075989 842.705994 -699.304749
5.728542 902.560242 -501.635345
-18.035284 875.751770 -474.278534
-144.068619 800.960388 -464.603546
-66.935982 842.024841 -373.350067
-272.421478 685.384521 -347.183624
-131.841049 798.899841 -491.682587
-121.734383 814.697327 -651.141602
-193.964142 749.673889 -621.275574
-204.462860 737.403992 -674.633606
-158.212875 797.863342 -672.091248
-127.101089 803.116089 -350.445099
-88.708794 888.537598 -719.068115
-36.966496 854.023804 -413.832886
-253.807281 725.199097 -390.400269
39.623871 923.654724 -424.594727
-165.678223 757.713501 -679.958374
9.622919 910.915100 -603.960876
-175.561676 767.225769 -429.962158
-164.383545 764.259705 -372.196930
-113.255539 805.840698 -406.144501
-228.334152 724.309570 -484.170807
-40.636562 869.644226 -567.320801
-305.504944 661.562378 -328.001068
36.599941 926.673584 -508.484802
-251.187653 707.263367 -421.139526
-340.303223 662.436279 -355.563019
-13.229543 891.791077 -649.337646
-98.927696 819.948853 -395.266815
-182.966354 771.958679 -398.318481
-94.464668 832.504761 -359.030365
-157.649689 794.505737 -582.799072
-125.851715 804.700439 -576.764160
-131.088394 808.335693 -566.526978
-58.861481 854.816895 -618.282776
43.996384 918.528931 -422.531036
-27.196459 881.941956 -465.968201
-95.988914 843.031677 -711.687317
-153.579559 777.641968 -386.200104
-185.110550 720.589722 -700.856689
-83.660530 845.909241 -544.763733
-1.358178 905.031555 -638.168701
-154.481689 811.081482 -661.281921
-9.795882 895.738464 -619.808228
-241.763641 729.421997 -456.545990
-270.660461 681.913147 -419.115967
-11.638388 892.202393 -404.925537
-63.069756 860.845520 -602.604614
-281.657288 689.183350 -366.169952
-92.802124 825.795349 -503.847809
8.600165 901.530701 -381.733246
-49.993637 904.639893 -715.969299
19.951828 896.211853 -475.626160
-16.173777 897.222717 -558.965393
-158.685745 789.304871 -581.984070
-158.089722 813.970154 -694.143311
-178.910736 783.384155 -674.184814
-263.033051 688.848877 -542.361328
-86.149132 836.967651 -449.213959
40.839794 901.552551 -433.345551
-146.264420 750.313965 -714.004944
-160.501907 778.299500 -684.650574
-204.719574 761.688599 -495.747742
-96.513550 881.707153 -718.271484
-142.782425 790.105896 -462.993225
-386.768280 638.905762 -551.331421
-164.717010 765.143921 -692.302307
-132.508041 799.628418 -592.603149
-61.056614 850.964966 -540.067383
-47.557251 866.753235 -544.080078
3.243680 909.494568 -538.676086
-298.151917 714.809937 -669.025574
-226.800659 721.993652 -335.372711
-95.541725 825.190918 -567.192932
-61.036633 853.662537 -572.364014
-4.577216 878.589111 -663.165283
11.360753 897.428223 -506.647705
32.332798 918.605225 -471.399200
-48.661736 848.947571 -586.787415
-298.816376 687.640747 -599.265259
-29.412449 867.727173 -457.614258
-48.811825 834.757202 -479.125519
-213.059540 732.338989 -525.792786
-194.683823 742.035461 -598.221313
-160.093506 781.513916 -650.632202
-361.570557 650.112366 -508.497253
-347.946381 705.317688 -652.425720
-273.687683 711.150513 -650.631470
-13.927695 871.052185 -607.804810
-320.147003 677.737793 -415.031464
19.899218 904.941467 -560.342712
-265.666443 694.893921 -378.007935
-275.450317 687.570618 -387.852631
-223.011215 715.416809 -537.988098
-133.457214 742.604858 -715.221863
-85.563164 827.990051 -488.123962
-26.831287 867.733826 -606.288025
-52.677849 852.484436 -482.743103
-296.911957 677.714600 -333.490997
-228.964996 747.197815 -332.985413
1.283769 876.067139 -366.198273
-16.724281 881.403320 -705.885010
-221.076508 687.546082 -687.040894
-93.964783 758.711243 -717.930542
-154.586578 784.518677 -522.916138
-131.361328 797.447144 -608.427185
-171.161545 774.674438 -387.385406
-312.520782 683.193420 -403.352173
9.184407 908.776306 -573.623291
-158.504166 770.591248 -501.482635
17.374855 910.896729 -444.809967
-318.878998 717.015564 -668.629578
-105.963127 868.965698 -696.195557
-220.171112 721.531006 -421.092468
-105.585663 864.988220 -687.061218
-259.580322 690.371155 -571.193054
-114.673256 843.926941 -724.210266
-298.547455 675.118225 -326.480682
-226.891266 710.173462 -674.600403
-250.396973 706.509399 -365.931519
-231.175781 746.007263 -353.381561
-227.875305 712.141296 -679.607727
-123.580772 805.655334 -528.934937
-128.682968 795.243958 -521.426758
-72.926743 849.468811 -522.230225
41.053337 909.661133 -441.850525
-163.841019 766.445801 -349.772064
-94.748116 817.423096 -443.094849
-21.392342 889.933472 -475.943146
-233.230560 721.038757 -488.497345
7.825527 890.205994 -648.620117
32.323208 908.796448 -522.938232
-334.296417 657.393372 -427.815247
-254.492691 697.674316 -576.794312
-310.567871 675.693970 -457.500732
-355.128632 632.154907 -522.495239
19.549646 925.987854 -695.260498
35.899792 895.842102 -466.287811
-276.669617 706.202026 -497.588501
-70.242142 836.197510 -375.258453
-273.030182 689.891052 -398.596161
-185.657822 768.908997 -689.629883
-125.344360 780.671204 -483.287842
-264.290131 697.560120 -597.214844
-116.282318 885.082153 -709.968201
-361.639252 627.655945 -584.888489
-293.398712 718.049316 -665.404358
44.963818 924.340637 -409.146027
-166.159500 768.709290 -431.317902
-285.117950 688.698059 -409.513245
-32.036625 860.010010 -403.689087
-148.648636 784.504639 -498.588654
-218.437256 737.427551 -480.112274
8.641471 905.613281 -559.515564
-25.096067 870.278992 -453.151489
-191.352280 772.007263 -643.223389
-53.984642 865.057190 -420.453369
-145.372116 779.645447 -378.691132
-145.954742 785.028076 -703.456543
-303.323578 671.536377 -513.862366
-49.147289 871.547546 -558.078857
-300.565521 671.551392 -348.367737
-172.384354 768.171570 -569.766296
-265.353943 717.335693 -442.387360
-161.875336 780.850342 -697.451355
-149.655136 782.434143 -513.016113
-79.470924 844.083679 -413.819183
41.517998 888.570618 -457.920563
-213.153824 722.179993 -699.828369
-287.839539 682.492737 -500.239227
-106.091805 813.397583 -628.753784
-248.945648 711.236328 -621.435974
-191.563538 734.596313 -479.005157
-283.312805 677.774048 -491.323792
-127.991524 802.352112 -416.688263
-189.656555 768.375977 -579.630432
-120.324661 805.630310 -537.116638
-263.783508 700.905701 -564.422607
-167.585556 785.455994 -435.732880
-121.199448 859.548523 -689.601318
-78.755951 852.744263 -624.131592
-371.377136 636.023010 -552.771240
-26.681440 880.294556 -653.221680
-300.689819 671.752197 -590.021118
-260.006958 717.730103 -334.629364
19.178589 911.233582 -565.395081
-224.000259 739.816895 -423.092987
-65.081108 847.718140 -540.580322
-50.805386 847.766785 -635.429382
-136.488602 784.623779 -709.493469
6.065406 907.957275 -511.613495
-15.227584 871.334351 -402.279114
43.236355 922.029175 -537.164429
-131.036942 786.909729 -360.808105
54.056614 927.286133 -504.098633
-45.526978 854.214722 -442.017609
-139.027832 788.571228 -527.083496
-220.437408 722.567688 -349.077026
-55.351196 846.161499 -555.953308
-288.986633 700.094116 -376.329773
-135.587402 794.742004 -388.222382
-142.124634 802.549316 -481.151337
-222.442032 728.654724 -628.545471
-110.119072 832.994690 -678.680786
-17.701252 877.319946 -526.235352
30.633144 902.983704 -472.471497
-215.752502 735.364380 -685.315369
-205.836288 746.775757 -506.466553
-133.824280 739.113159 -707.862854
-228.529221 744.311890 -471.282410
-255.614914 695.629150 -418.050354
-283.800018 696.653992 -579.452209
42.295132 923.007385 -549.539368
-85.440140 843.512573 -511.036102
-124.696968 816.176758 -452.144104
-312.258484 665.284363 -381.369904
-147.565094 797.711792 -497.045593
-209.924713 733.234802 -628.189514
-164.269836 773.083313 -567.733582
-227.379868 724.833923 -478.780701
-244.874130 731.385010 -417.488953
-309.989532 652.069275 -338.220856
-217.482132 750.164368 -507.731781
56.202789 937.583679 -459.203461
-310.325104 679.866882 -371.065582
27.246181 918.447266 -416.932831
-297.135864 678.597839 -604.784058
-177.675598 774.692566 -381.185913
-337.667267 705.858826 -645.092407
-65.223373 856.245789 -461.798706
2.493212 873.705383 -371.070496
-214.222824 747.827209 -618.510376
-119.211693 803.434021 -356.908997
-312.796906 650.613403 -569.676880
-170.382721 756.040649 -428.944794
-84.789383 829.994019 -393.031097
-39.237122 871.415100 -639.822876
-176.857544 723.667358 -699.893372
-7.744785 863.756287 -442.342834
-234.367767 735.300781 -553.459595
-281.992676 684.929932 -555.147827
-294.016266 661.210754 -587.481201
-298.012115 671.914063 -423.171936
-83.783775 831.596191 -483.798096
-254.982010 719.584534 -566.999573
-20.055792 891.294006 -513.914246
-75.379303 835.552612 -374.270721
-238.739502 731.074524 -603.554443
14.139251 887.980896 -605.212219
-148.121460 785.828979 -478.588806
-122.337570 805.797729 -466.546051
-50.435505 848.076721 -420.895782
34.883762 928.430969 -552.965149
-82.838356 827.184448 -401.500671
-171.234879 788.542358 -611.551025
-306.839081 683.843140 -496.764038
-57.345387 860.223511 -445.823029
-243.234039 724.200134 -670.724243
-202.560806 751.258850 -367.419830
-182.942810 775.626404 -418.671417
-7.991570 895.228882 -520.789856
-97.889122 822.183411 -500.251648
24.451546 918.918518 -497.903809
-129.470688 816.293701 -566.874878
-253.530655 720.898315 -453.605621
-155.978195 786.231445 -404.657928
-96.842918 818.041748 -533.060547
-0.204946 882.159424 -454.126129
-45.039719 838.561951 -581.819153
-220.730240 716.434326 -417.773956
-53.824802 844.230774 -381.662903
-341.448120 651.386841 -399.743896
-26.297220 880.623962 -579.345520
-78.604980 848.985413 -383.176636
-284.066315 675.150696 -588.559875
-106.582649 811.560852 -542.193481
-261.765778 699.990051 -560.810547
-120.213280 831.731079 -684.640442
-252.766327 726.237732 -340.882782
-25.287392 877.409363 -373.811462
-48.134300 855.795044 -481.508118
-153.170837 785.788269 -342.603546
-85.401207 840.582886 -386.709625
31.879478 917.925354 -475.317322
54.091908 896.848022 -429.417419
-138.344620 809.768738 -540.343445
-31.287924 934.327515 -717.502930
-265.301849 697.176941 -603.456299
-355.790009 632.304504 -499.483093
3.677026 902.977417 -561.427185
-135.487122 806.505249 -428.314880
-278.061127 694.256287 -490.248108
3.922915 897.999573 -467.485962
-301.099091 674.078735 -458.886566
8.015859 894.259338 -407.922546
-133.827774 805.918213 -560.039429
38.411011 927.455933 -428.277069
-157.672424 793.789307 -410.903046
-101.997345 832.108887 -431.960266
-161.756302 778.631592 -595.679016
-204.284058 744.742065 -395.782104
-292.877655 724.316223 -659.024536
39.762047 927.477783 -492.155884
-110.672623 827.307495 -627.857605
-71.237839 843.351196 -570.030640
-113.727425 826.756409 -701.900208
-282.406342 704.993713 -427.943726
-236.821686 718.333313 -477.879486
-98.613945 856.266602 -672.066101
-218.172241 693.160278 -680.174438
-211.056610 760.481140 -629.550110
-84.596939 824.742493 -589.093018
-32.327820 869.675537 -426.043762
-200.058090 722.732361 -346.011383
-67.519577 851.033264 -396.857697
-122.250175 751.215820 -709.037354
-342.098846 646.619324 -442.794922
-155.366486 790.331177 -690.741211
-235.638245 733.089478 -365.774323
35.214756 892.655518 -493.825012
-88.735336 833.629089 -630.366882
-215.057388 733.346313 -425.087646
-228.682098 715.339294 -349.244568
-211.746277 754.623962 -531.361450
-395.626343 626.904297 -560.103760
13.981609 908.840393 -639.998230
-314.161041 683.946350 -505.116089
-230.310928 735.660339 -435.048187
28.290699 917.300598 -634.092468
-35.925648 858.635986 -537.285767
10.508541 897.061646 -471.503052
-221.062820 763.537842 -669.809937
-97.817314 835.318298 -432.423981
17.805820 910.864502 -429.668610
-209.521561 736.587524 -419.679199
-64.412621 847.836975 -416.908081
40.162960 911.333740 -448.946503
-147.192108 773.548279 -417.303680
-65.783897 844.146851 -573.163391
34.539513 921.572266 -504.730316
-272.506622 695.534302 -502.934326
-251.492264 734.885498 -640.749023
-344.524231 662.067505 -350.584595
-64.934830 862.508667 -637.945557
-95.420509 773.962280 -717.704773
-206.611755 731.283447 -363.334625
-110.680504 816.017334 -603.622009
-366.524567 632.357056 -492.852722
-133.449326 790.711121 -454.730347
-183.962112 763.467957 -560.241821
-30.787968 848.191101 -582.640198
-220.642075 731.916443 -439.109528
-339.809418 655.570618 -516.633667
-60.314026 828.520142 -581.269104
-157.022736 751.967163 -453.060974
47.552006 924.260620 -433.629852
7.085965 874.831238 -508.301636
-90.378464 808.529053 -564.463257
37.597225 918.101440 -489.510895
-222.317459 712.121338 -448.052704
-239.263107 735.491760 -505.948700
-325.298218 653.676270 -341.916748
-272.432465 691.910767 -551.335327
-91.044121 838.852356 -467.583344
-272.326660 687.691101 -533.223450
-270.726837 681.568909 -463.573090
-217.863083 728.532532 -358.782074
-103.215019 827.436035 -403.236389
-233.950867 713.174927 -521.912109
3.051370 903.076843 -478.378082
-11.865140 878.646729 -453.120819
-155.220917 780.671570 -359.954742
-5.365515 891.681091 -673.196655
16.120539 901.152466 -510.468353
-168.266571 783.420105 -419.732910
-171.936493 780.154907 -424.941101
-71.754539 853.418213 -600.356689
-25.286806 869.774963 -448.668427
-324.907501 634.100281 -407.176025
-11.620992 896.080627 -385.180603
-188.439087 769.691650 -628.128662
-194.519394 754.028931 -587.831421
-259.428680 691.953552 -440.266541
-71.940720 853.953552 -453.380707
-241.807495 733.115662 -347.978851
-217.850906 726.230896 -486.504425
24.140331 897.095337 -500.279694
-225.744583 735.327332 -376.185974
-141.973007 801.140320 -415.851807
-58.215782 849.948181 -513.254822
-320.051819 662.955383 -362.233612
-88.461937 821.994629 -461.082825
-162.216522 776.875122 -466.676758
-142.228928 776.244446 -695.904419
-389.510376 632.059021 -589.591064
-212.818420 738.817505 -477.834106
-31.601746 912.146484 -703.393250
-201.242050 761.392700 -673.517700
-161.636307 749.631958 -707.729858
17.383774 907.216980 -423.149872
-62.604191 850.763977 -480.495636
-14.509071 896.129517 -641.074219
-24.042505 873.368774 -394.084717
-46.770836 860.286804 -602.926270
4.528140 904.359253 -513.426514
-67.471687 844.914978 -404.841034
0.620147 901.380493 -513.286743
-271.852386 693.176331 -569.931519
-0.436968 887.087524 -472.659882
-124.721733 770.121643 -395.954865
-143.546494 759.127380 -690.096680
-332.915588 641.169739 -593.520630
-269.710144 690.737976 -351.911102
42.364960 917.031494 -439.105774
-143.060196 783.211182 -372.625061
-158.500412 739.767273 -718.086975
-79.363098 834.159119 -545.875610
-254.577011 712.118347 -522.130981
-27.893412 876.614990 -468.566193
-128.786453 800.525208 -444.891754
-176.973236 778.574219 -457.635956
-313.098083 667.673767 -551.368835
-346.541870 654.298279 -447.157593
-223.144012 749.183838 -550.825317
17.018717 913.485718 -465.331604
-179.641830 772.447693 -377.213684
-79.948418 838.821472 -466.864044
26.251196 913.220154 -414.517273
-214.751801 736.251831 -386.852875
-322.511200 659.301208 -306.613342
-107.004364 828.198242 -395.133179
-133.912949 797.730591 -508.434174
-115.009087 815.446716 -426.159210
-53.268963 864.192261 -477.375275
-166.900162 775.510193 -529.231689
-116.546959 822.931152 -454.866638
-59.097450 865.580750 -623.000793
-25.774714 872.979004 -436.879272
-332.028137 658.249390 -391.735596
-174.971313 761.912903 -499.141724
-226.320953 709.303528 -378.738708
-94.973740 829.386597 -572.191711
-261.075562 721.419800 -659.004944
-89.733673 891.185669 -704.945007
-358.826477 641.638367 -517.110168
-156.635101 782.693237 -586.106384
-101.607697 816.063049 -505.718781
-130.980469 794.294922 -410.469330
-333.172516 655.782043 -309.008057
-100.267830 821.690674 -397.355194
-263.707672 715.450806 -616.890564
22.348801 889.553711 -595.506714
-226.769455 740.498718 -397.638702
-337.016785 643.825439 -423.321045
-219.077942 749.007813 -559.747070
-97.930199 793.989868 -719.763611
-31.733532 877.904663 -392.987762
-111.760704 830.469727 -659.536377
-182.420761 776.492249 -372.505188
-262.170898 706.818665 -468.726410
-2.398389 878.467102 -449.255737
-275.410736 691.101746 -349.816986
2.119197 904.005554 -603.336853
-276.834198 693.090393 -508.931335
-112.808937 826.173706 -633.069763
-23.881378 889.126099 -635.462708
-211.859772 753.985291 -496.906769
-46.839844 846.253479 -390.353241
-18.501350 887.568848 -372.165222
-163.982864 775.273987 -405.290985
0.705532 869.841431 -429.848175
-158.571274 747.870422 -413.761383
-243.272812 741.046265 -666.448608
-189.292816 745.424805 -486.092010
-201.217850 741.088623 -373.353973
-122.350075 801.333252 -408.951294
-136.243011 723.638489 -700.013489
12.753713 878.744751 -482.322449
-167.221008 785.993713 -388.968018
17.084614 891.644165 -622.387329
-251.069458 712.933472 -520.168945
-115.238945 793.203613 -709.240417
55.094658 940.158508 -510.601593
-149.885208 784.625061 -525.171326
-316.397736 665.907776 -605.810120
-247.562057 710.946777 -549.479919
-28.705910 873.230530 -612.884949
-261.827881 675.431641 -398.534698
-90.252853 841.406311 -585.161194
-118.430779 815.992432 -544.781555
-336.185577 644.009705 -584.165710
-290.540985 699.848999 -467.485016
-91.148621 825.523804 -608.775269
-149.726273 784.624695 -450.996368
-282.994385 691.518738 -452.504456
-192.733170 767.058716 -682.774658
60.410500 934.213074 -394.974823
-289.368958 679.950989 -443.974396
-341.196014 635.123596 -410.068878
-95.879822 839.141235 -554.010010
-224.779846 704.914673 -387.385498
-118.986778 789.197693 -716.132751
-45.130848 848.679382 -411.931030
-184.930222 755.976074 -353.472198
-297.014252 674.820313 -526.596008
-207.998444 688.259033 -696.670715
-119.572403 777.301270 -441.689178
-113.687691 820.022766 -691.153625
-361.833801 635.498657 -546.371155
-47.687641 848.869995 -433.190186
-274.897888 711.660950 -455.279053
5.793373 908.371094 -581.091614
-277.331635 675.744080 -397.891663
-286.772247 718.276489 -664.445862
-39.445484 854.287476 -435.149139
-175.840973 776.846252 -618.009705
-23.920744 880.410400 -531.303101
-262.679749 718.878052 -394.668915
-42.361832 875.660767 -489.878723
-58.218407 861.960266 -462.394012
-3.195253 903.235718 -596.013184
-105.825035 896.663086 -717.159607
-95.578636 804.362000 -501.420624
-294.732880 665.635254 -448.755157
-35.892563 883.827698 -640.934937
-145.294815 763.875244 -368.765259
-101.820206 828.705322 -663.124817
-10.559083 888.041992 -389.258636
-170.050995 770.686951 -423.822235
-11.359510 880.650085 -568.802612
-158.646744 766.519165 -445.366608
-105.131721 818.242310 -507.369080
-65.551414 838.052429 -483.728363
-162.308609 754.622070 -417.147369
-317.277374 649.106201 -467.723785
-237.258377 719.744690 -471.153870
2.098022 871.817505 -515.567627
24.169504 914.823120 -586.195313
-263.694519 700.779236 -456.202026
-119.867455 804.366150 -486.665863
-261.555725 678.291931 -326.418335
-302.227478 662.923096 -518.452454
-195.201065 740.318848 -388.210083
-20.882851 885.471252 -655.545593
-180.644897 756.768066 -348.673523
