ply
format ascii 1.0
element vertex 1390
property float x
property float y
property float z
end_header
-951.132263 -10.598274 473.946960
-757.361511 -224.775375 331.622772
-762.100342 -219.747314 343.417023
-711.151978 -214.825592 487.190033
-993.558777 0.768591 561.673096
-847.276917 -98.594070 469.506195
-955.267334 33.626209 449.098511
-803.333008 -190.915054 291.295929
-951.586914 17.053953 392.624023
-740.319702 -182.816910 521.850281
-931.316956 -0.103106 635.881042
-787.621643 -124.507248 629.624268
-892.063232 -107.650177 271.053833
-836.139709 -149.978668 263.573273
-791.257507 -153.676086 453.791077
-736.899170 -206.048080 458.934662
-791.500854 -88.262016 600.362305
-786.110046 -198.249588 350.576538
-960.519592 -2.412438 368.831207
-729.292053 -223.396988 322.850311
-793.981750 -131.015930 559.315002
-736.833923 -236.255051 271.910339
-723.899658 -261.128723 325.081512
-750.647644 -139.791077 664.521118
-982.447144 17.206053 528.409058
-720.318542 -225.786301 326.356537
-775.198059 -120.196548 551.539063
-847.844482 -77.660004 556.783936
-919.102295 -33.972729 488.461700
-864.026611 -103.009865 342.628418
-721.387329 -212.872696 487.382202
-798.792236 -157.633255 448.368042
-779.986389 -176.680588 456.199982
-729.763062 -188.112671 599.869263
-876.257629 -106.003899 311.597321
-952.183167 -6.269847 376.539825
-858.374634 -108.229836 422.307556
-746.684814 -155.070816 631.595032
-941.117920 -2.780228 617.572754
-729.315308 -205.122818 552.726074
-759.974487 -151.385117 641.034973
-938.721802 -38.235195 429.441254
-852.552551 -102.838966 370.656128
-709.699890 -270.299408 257.369720
-965.872375 -71.046379 285.100189
-716.001160 -202.076584 550.443970
-931.123901 -34.714958 510.782837
-806.901367 -149.004456 480.451660
-696.181030 -251.094971 321.083679
-769.384521 -122.839493 680.174194
-772.341492 -206.904114 332.951599
-963.885132 36.847141 508.149536
-834.645630 -133.700424 335.266632
-925.450195 -21.103548 506.990631
-764.444214 -130.363129 675.438843
-953.289429 -23.876604 353.647614
-804.895203 -79.928467 620.329285
-751.399780 -162.856766 585.712646
-827.867920 -57.327610 663.385193
-804.742920 -130.962936 496.318848
-739.110168 -189.678268 486.836700
-932.319946 34.319866 433.819000
-709.623718 -264.219574 278.103912
-779.473206 -206.991821 246.553238
-886.785767 -85.365746 316.035095
-853.438843 -94.481651 500.665955
-785.484680 -171.687210 458.966156
-769.346008 -161.069733 498.136841
-942.241577 -0.923576 375.804260
-838.772461 -49.981789 606.370605
-777.080322 -185.458420 292.481964
-703.740723 -249.413208 382.929565
-807.860107 -109.959244 620.690308
-920.772156 53.153736 399.044708
-761.343567 -159.719849 586.911133
-949.359619 -31.417391 437.602295
-715.168579 -280.159424 310.363403
-863.862305 -98.171989 317.281036
-826.568054 -129.190048 461.704651
-704.121765 -215.437790 442.886993
-834.570374 -158.864670 212.068283
-968.710571 28.673828 500.261108
-752.556946 -197.980362 422.694946
-738.103821 -187.298798 539.627563
-809.222107 -119.354317 573.970215
-863.553040 -43.886604 601.036377
-797.800537 -122.137337 611.285767
-716.791504 -181.495163 595.790527
-839.831055 -61.763111 605.013428
-953.349609 -3.279377 385.028442
-706.948364 -196.715164 597.407043
-737.714783 -204.826508 451.749237
-900.229553 -63.677029 472.191559
-978.298218 9.331260 642.630737
-809.218628 -134.370560 505.647247
-727.517090 -183.102875 559.283936
-815.949829 -157.584763 336.108063
-900.972473 -11.776425 616.205078
-730.493652 -203.993088 536.827026
-729.135071 -201.913803 472.900665
-943.311096 13.898687 379.309143
-717.456848 -251.341919 344.305420
-766.325745 -187.462234 410.170990
-723.133118 -237.385223 418.822083
-725.613464 -245.530914 401.485352
-780.502930 -171.922699 475.841431
-976.749084 10.557607 531.735352
-975.401917 -8.271541 576.713562
-804.590942 -114.791412 608.046204
-947.344482 53.878368 473.703583
-934.274902 -25.341619 421.940186
-871.004944 -89.068039 286.729736
-822.101807 -149.694778 277.686279
-870.516235 -16.608086 639.101013
-708.988281 -173.868317 683.306152
-806.728882 -155.517746 377.418549
-712.948547 -207.673477 524.009155
-909.979187 -17.851133 586.250549
-870.464600 -111.108124 268.270844
-724.966125 -246.618530 269.638519
-859.425842 -51.104748 591.060425
-734.071716 -255.558929 342.133606
-831.931274 -86.348747 627.512878
-706.392944 -224.385818 487.727875
-909.759094 -63.587563 336.866760
-961.274963 21.520538 491.335205
-757.193054 -197.809555 394.442993
-772.261658 -134.242645 631.612671
-845.506958 -122.220680 427.719238
-781.154785 -148.331314 509.990143
-757.122437 -160.225052 594.778931
-884.851257 -55.919510 447.614441
-763.555115 -167.498138 492.136780
-892.346802 -110.907387 206.755585
-776.618042 -122.053825 601.058777
-825.486694 -148.447586 380.621277
-817.469177 -76.624710 670.754395
-880.089111 -124.930359 255.021973
-821.794434 -160.956055 349.884125
-844.886780 -118.764481 300.934967
-824.321289 -88.271965 651.788818
-736.064392 -153.592026 619.248291
-721.222595 -172.416519 668.451599
-780.084595 -143.192184 512.040527
-898.625854 -28.024389 563.111938
-694.936829 -211.549225 516.308044
-814.008911 -201.580994 203.095993
-783.371399 -216.967545 286.944885
-953.140747 41.857895 467.205872
-945.345459 29.407270 374.003082
-846.434021 -106.056511 405.930237
-764.323120 -180.760300 318.171387
-711.840820 -228.787964 439.354584
-963.308655 -28.033846 394.070221
-857.481506 -126.701149 362.241577
-671.369751 -254.438232 339.193481
-991.705872 0.069586 522.923035
-803.363037 -153.773468 335.684906
-752.579956 -197.085129 353.557220
-956.977356 20.261263 434.090149
-873.076111 -154.183731 200.598175
-847.318604 -82.573387 550.875122
-726.468201 -216.749924 460.538055
-803.806396 -105.136436 643.813721
-727.902527 -240.138214 299.290253
-752.475891 -190.815399 316.651184
-735.313477 -167.792862 607.252747
-736.026428 -190.257629 485.373657
-886.602722 3.138828 663.027954
-769.437378 -218.496658 247.642471
-854.829529 -107.513733 467.598969
-961.662354 28.187082 447.136566
-901.172668 -25.184820 602.905579
-869.670349 -63.485435 520.522583
-902.043152 -49.827621 376.800629
-720.988159 -198.424500 586.735291
-762.876221 -185.998077 368.967590
-731.492004 -200.892151 457.911560
-848.992554 -128.277817 367.125061
-916.541199 -1.189480 605.326416
-751.231079 -246.486465 254.716782
-819.043396 -127.180946 499.646484
-947.784729 -18.932661 313.046967
-817.890320 -129.721237 509.806061
-813.155823 -168.447250 351.432129
-709.121399 -215.657516 500.690155
-873.602539 -146.237076 217.723328
-760.170410 -166.911728 586.964478
-947.455872 26.258963 357.057739
-739.586853 -175.336548 600.945313
-954.632385 -29.874231 362.178558
-800.950928 -137.105560 508.817688
-725.689392 -221.806183 356.730774
-878.730835 -84.438316 443.186859
-941.891052 -50.394524 380.204071
-836.452881 -49.091228 660.766052
-952.387024 11.219668 368.998596
-749.918884 -216.285919 409.543030
-962.712219 -6.568428 336.165985
-890.889465 -48.682102 504.561401
-752.389038 -220.154251 324.049377
-754.228088 -212.414566 339.876740
-792.499939 -181.590439 302.156494
-798.122620 -87.836189 637.259705
-938.195740 5.397103 613.402100
-837.277954 -78.185295 636.735840
-752.439392 -247.862488 243.388016
-946.634705 -20.941912 383.428894
-901.974854 -70.843613 402.030548
-917.990906 -58.063725 348.902771
-938.634583 -10.321468 418.108704
-888.469543 -81.852966 388.623352
-944.291077 37.053940 398.260468
-898.303406 16.528769 661.220093
-843.499634 -72.706566 553.156311
-761.691284 -180.263077 428.540161
-813.424194 -175.907593 318.374756
-736.888916 -216.260956 321.848022
-709.657654 -219.084976 491.108551
-828.065369 -44.267189 660.361572
-958.748596 27.508440 472.740479
-760.863953 -176.671188 460.787720
-873.584595 -59.121349 565.378601
-794.377136 -126.508987 558.247192
-773.411621 -119.119423 676.142944
-1006.378479 -20.971006 521.500854
-838.102905 -123.117676 407.320892
-826.668152 -147.837326 304.389496
-868.055237 -70.915573 544.147400
-952.379333 -16.619661 476.629303
-908.862671 -69.158424 268.958344
-797.059387 -153.864990 303.752686
-782.292908 -112.003754 660.302002
-706.205505 -295.891785 228.311096
-891.234619 -21.938419 641.435608
-813.013306 -195.574646 259.889313
-835.543396 -73.098907 656.411682
-777.402039 -211.134232 295.511108
-881.628723 -51.311996 606.138916
-824.519226 -80.550682 678.660889
-709.913086 -252.907059 302.852203
-730.734680 -176.304825 518.211670
-724.185364 -160.779175 641.904297
-934.605042 -16.337910 557.249756
-780.736267 -140.446625 598.231934
-810.333374 -143.168076 422.046295
-752.621277 -136.596115 668.105469
-872.610229 -67.743225 487.572815
-843.436523 -148.288254 334.712311
-896.135986 -63.627117 457.516449
-883.144287 -47.665775 582.455444
-949.791138 3.849429 333.286926
-802.925903 -91.131584 574.909058
-985.682129 4.822386 642.776367
-906.826660 -59.571415 436.254272
-705.490845 -200.159317 504.502625
-733.507507 -192.163788 409.634216
-884.801270 -80.306541 271.818909
-720.281128 -239.017593 232.079498
-715.501526 -227.876404 405.801178
-912.784973 -30.197298 551.229187
-904.475403 -42.066807 528.213745
-730.175598 -177.872757 595.934448
-905.437134 -36.588055 498.181915
-701.499146 -198.607330 541.988342
-738.218384 -202.070343 420.272156
-891.969788 5.580759 627.730591
-746.261536 -188.096848 502.135376
-900.135315 -49.673820 513.032959
-796.731628 -120.715240 638.351990
-829.492371 -87.032944 621.951904
-960.188232 -13.233291 363.984497
-845.378113 -89.308563 564.068665
-746.018921 -243.046844 319.724060
-949.997314 47.868763 451.522858
-819.358337 -188.899963 227.048294
-790.293762 -194.369156 222.513626
-959.416260 -86.425003 223.216751
-961.987854 -11.012382 537.657776
-857.120605 -81.399605 463.883240
-765.430542 -211.244934 357.772064
-757.029907 -144.778381 674.557556
-783.527832 -133.125275 563.474915
-722.049744 -227.520233 381.559296
-834.157410 -98.489967 569.666870
-750.261963 -225.681900 362.821869
-780.172729 -128.417068 622.201172
-749.850281 -251.074661 262.995148
-951.374634 34.545326 446.226135
-823.437317 -113.401306 460.416748
-749.558838 -235.779846 320.103638
-866.599182 -40.261623 650.037231
-720.927124 -237.837723 341.269073
-755.949097 -196.488022 470.281769
-780.718872 -102.739433 655.847961
-771.668518 -169.375336 465.552002
-887.731140 -36.059242 621.936523
-940.296631 -30.738523 503.376556
-818.539001 -158.871689 392.432068
-722.892334 -258.770844 248.506119
-746.833252 -141.826660 685.388977
-855.259277 -135.024200 336.964752
-898.721924 -19.443670 567.450134
-900.807983 -30.020229 666.363892
-882.927246 -28.938210 635.544861
-940.776550 -3.151428 561.266113
-920.279236 44.026897 359.423065
-864.644226 -70.404808 576.468445
-934.798584 -38.636826 349.306335
-873.181519 -111.590927 336.277435
-978.533020 3.526834 559.852539
-1007.652222 -5.051507 643.554260
-900.219360 -80.645523 232.243942
-944.121887 -4.003819 542.994324
-930.311707 12.208664 673.193665
-906.739136 -8.721202 641.455933
-806.164063 -182.720657 223.040466
-866.925110 -89.703957 393.715393
-728.207764 -240.293671 321.297852
-892.832031 -66.883621 461.718445
-762.619934 -136.705887 631.613464
-874.384155 -125.318504 296.706726
-744.423889 -200.910049 493.626251
-751.821777 -230.769699 283.080658
-843.976807 -142.555511 290.263519
-854.426758 -36.144596 651.257263
-818.653259 -170.274445 310.729675
-874.140137 -86.971794 449.045013
-822.882324 -155.248672 378.546356
-716.379333 -263.739990 280.560822
-817.149109 -188.668457 237.202560
-890.711670 -9.941143 649.035828
-768.093750 -196.861847 341.648315
-900.581299 -10.881502 647.881714
-825.926392 -146.718994 315.143890
-957.382080 -9.923374 488.033600
-721.429443 -230.198761 456.467041
-934.499268 60.791718 462.313019
-863.029297 -76.370598 535.408386
-722.068848 -206.081345 502.998352
-825.822021 -106.917297 489.941956
-890.362122 -24.153082 605.439087
-858.544006 -134.402359 295.013153
-864.386353 -127.924698 195.339188
-796.893005 -188.660233 316.727295
-831.308533 -126.403458 338.252502
-775.170166 -194.669662 315.077637
-877.249084 -72.364250 389.819244
-757.830994 -224.068573 215.192535
-875.306274 -41.313034 624.845398
-849.539917 -160.313553 190.507904
-921.604736 -55.623173 426.131378
-765.149109 -197.271729 442.510681
-739.077820 -220.372284 331.680450
-881.255188 -50.634789 564.644836
-952.760681 2.982595 627.693665
-856.968079 -71.006256 588.857361
-897.783813 -18.934355 614.468445
-920.132263 -59.363979 422.346008
-737.308167 -238.677567 246.269501
-924.530396 -40.125244 456.564911
-824.280090 -121.946411 503.420746
-855.617188 -95.002098 452.775513
-891.196716 -85.566856 300.906036
-873.178223 -72.377556 466.513580
-720.784119 -273.356140 288.345154
-873.328735 -110.282501 341.268890
-847.153015 -72.564011 571.885742
-789.033142 -152.276535 524.157349
-961.039307 -17.143421 551.977600
-829.487549 -130.311417 369.374817
-877.218994 -44.829727 613.379639
-705.165039 -183.431534 645.316895
-776.439758 -110.284805 591.925842
-807.422180 -168.737564 298.790405
-875.320190 -88.039917 380.959503
-803.193909 -168.233017 258.039764
-712.371826 -155.186523 680.138184
-815.153931 -82.499939 665.767273
-818.079651 -187.478256 244.394989
-729.848572 -253.123077 324.087830
-764.931702 -163.666901 582.036011
-907.710693 -75.530243 358.019409
-710.766541 -181.189102 643.827087
-755.320801 -148.088440 669.521606
-733.877991 -217.008820 383.574524
-775.577698 -157.170578 566.943115
-958.593384 48.571934 494.954407
-764.385925 -177.953613 468.659668
-902.273804 -128.855545 186.236130
-860.832581 -60.780357 613.960144
-729.757202 -238.031067 284.782318
-845.144531 -58.006699 699.150818
-760.572266 -152.863266 625.823853
-896.079102 -49.084534 418.050812
-985.895569 -76.094833 298.749664
-928.049927 -109.314514 178.609192
-965.724365 -28.274055 342.021210
-969.483582 -30.660532 370.693359
-811.501282 -177.000183 206.406036
-862.521729 -113.530251 380.359344
-810.505249 -111.676804 605.905090
-973.804565 -15.896265 318.139893
-762.316284 -159.457001 561.251770
-947.322693 33.672359 464.350037
-747.388550 -200.213715 365.287537
-827.273071 -148.143158 373.626740
-887.706360 -56.924362 547.062866
-820.121155 -102.387321 582.587158
-758.843262 -164.640244 434.984619
-863.231201 -86.261528 417.027466
-972.285706 -23.664125 426.219055
-757.055542 -152.365311 579.813477
-764.598999 -144.854767 623.477112
-724.203125 -181.611374 635.811768
-983.034424 16.003584 577.123108
-719.413086 -207.976822 475.955719
-862.886108 -60.236965 583.674377
-748.450256 -216.036453 330.244232
-852.090088 -155.602570 249.003937
-706.005066 -238.623856 428.919952
-872.697937 -67.574760 453.109619
-822.646484 -73.078941 622.041931
-729.856689 -195.126190 536.520935
-788.896423 -128.652390 620.227051
-722.035767 -149.240112 682.646179
-992.046936 13.193294 550.977234
-854.431396 -107.709091 458.784607
-755.317993 -141.118317 626.582275
-922.532288 55.765457 441.789642
-837.809204 -120.799400 379.026001
-883.185852 -0.638553 626.848633
-946.161011 27.810341 425.425293
-729.322327 -224.047241 284.622925
-760.778931 -213.379440 310.188843
-831.923035 -45.278500 653.066895
-909.812988 -66.558838 394.161804
-916.304260 -11.257269 618.971863
-952.267883 -26.277029 394.549683
-753.096924 -177.721649 566.615234
-744.422607 -194.323639 487.224915
-872.246460 -104.628365 302.189789
-711.759399 -189.471695 681.789185
-919.086487 -22.814766 586.913818
-824.164795 -120.097023 513.847107
-903.297363 -98.907043 190.699600
-1005.691895 -8.057549 592.601624
-729.918762 -182.628204 579.150269
-888.040894 -30.171074 584.862183
-797.253357 -134.856888 562.028870
-776.100098 -183.634720 324.083679
-904.585449 -2.920346 678.131287
-735.363464 -247.575348 269.414063
-724.020386 -221.486984 423.398376
-742.875122 -233.478165 232.411118
-911.905029 -9.701984 661.125000
-783.878540 -175.588715 445.746033
-840.548584 -181.014511 183.567459
-752.474609 -198.882004 476.776642
-836.468628 -107.643974 459.709747
-748.105652 -148.718353 696.984375
-719.680847 -204.950455 406.424896
-838.918091 -103.308456 546.525879
-776.323730 -115.794815 676.689636
-843.090271 -114.464073 342.759827
-707.002991 -253.658310 314.468384
-720.030334 -209.669647 497.310181
-708.787170 -236.553680 276.144135
-957.973022 11.315731 640.492920
-776.076599 -123.354958 694.801453
-820.753479 -121.996506 460.007233
-820.482300 -107.161636 575.371033
-994.031921 4.946312 600.208435
-715.545227 -181.144592 641.818909
-801.629272 -181.328766 331.128906
-835.600525 -75.454552 666.492981
-733.090210 -244.079453 356.799377
-818.369995 -83.518074 670.817688
-885.050781 -120.109467 284.647278
-730.579651 -197.085602 526.951233
-781.555298 -158.082306 540.804321
-961.805115 -2.148613 495.784607
-843.457031 -151.007416 203.428665
-930.116333 -59.910557 395.771545
-765.684387 -230.493713 257.976990
-955.051147 6.411206 430.340790
-733.259705 -241.110779 257.475800
-712.485535 -201.109436 587.794861
-950.299988 11.239392 615.431396
-706.707153 -220.105957 531.338013
-748.796021 -204.191055 302.400513
-829.848999 -133.100800 437.785889
-806.621582 -132.909988 463.602142
-748.046692 -202.156006 448.741669
-744.692627 -136.964432 571.812256
-915.170959 -25.783499 549.190674
-873.897278 -91.070427 433.653748
-844.938538 -83.362572 589.822815
-864.960938 -118.121323 253.962875
-962.396423 9.224944 493.359528
-961.352905 -44.569191 339.542664
-748.964478 -196.135437 392.339447
-874.009277 -110.753883 359.141724
-852.784302 -124.233223 326.736176
-794.009583 -139.899353 556.353210
-751.451599 -128.626160 579.453125
-753.062195 -224.011185 356.770782
-968.760559 -38.065220 324.934448
-951.906372 32.482357 490.002075
-860.048035 -50.442783 651.070251
-908.334412 -57.137825 420.786133
-835.246643 -70.112587 615.254150
-780.631775 -150.470261 510.052917
-860.249756 -59.785175 478.763824
-752.496216 -139.678482 618.159180
-892.713196 -27.632965 604.344177
-866.225647 -117.621346 246.854401
-783.422974 -136.733139 539.496948
-896.116394 -78.019409 301.367340
-940.236389 41.982578 403.471954
-880.488464 -82.088638 424.874969
-707.545715 -172.076889 574.596191
-864.982239 -86.823654 378.914093
-757.254211 -236.600769 280.620880
-752.509583 -210.590134 344.833496
-953.627991 -5.580116 560.546997
-868.195435 -62.990707 610.845093
-865.725891 -93.885445 409.421204
-771.094055 -88.469833 662.938354
-890.582397 -80.515633 250.610458
-773.004639 -218.961945 280.410431
-881.946289 -58.354542 494.755554
-949.979370 -22.603083 348.338257
-866.579895 -97.006516 308.464996
-752.008728 -122.164536 713.341919
-701.882080 -176.187988 646.772888
-922.598450 62.224297 461.982086
-707.049194 -271.500488 267.076508
-900.106750 -27.182014 524.999573
-941.511536 25.381767 365.390350
-747.413635 -137.423691 686.916382
-936.242920 21.023979 419.726410
-869.493958 -82.548973 426.149719
-859.495117 -123.060501 300.120148
-768.180359 -138.620316 661.314209
-721.928467 -235.542953 241.711090
-909.947571 -0.352803 637.071716
-787.822571 -135.156738 613.047485
-712.579468 -204.388535 552.747803
-707.321472 -210.386749 544.713989
-829.949524 -53.562344 642.558167
-819.576660 -93.624641 623.168640
-932.372681 -3.872053 597.597107
-823.780090 -169.191483 292.587372
-777.278870 -168.661316 438.124786
-737.197754 -203.153046 532.580872
-836.870422 -138.095139 335.849945
-922.072205 -40.813789 478.443298
-887.953979 -95.379128 270.427002
-789.575623 -161.673416 346.350128
-779.201721 -128.131104 650.194580
-766.679260 -164.731354 522.145081
-847.499573 -138.842926 259.893494
-846.875000 -158.965057 249.236450
-872.552490 -133.904068 271.154114
-833.602234 -127.712250 387.509094
-827.801086 -94.313591 544.569153
-912.152832 -14.603192 605.156982
-827.425720 -163.440186 234.276505
-938.929565 -72.704437 322.267792
-783.959961 -118.855408 669.064758
-898.670654 -77.998177 286.925934
-919.829041 -88.220177 224.190247
-914.054993 -32.658878 536.520386
-875.993530 -83.487778 443.434784
-747.583740 -151.802155 661.221924
-883.080444 -51.167362 600.884094
-726.729492 -257.040222 324.629852
-854.870422 -62.422482 635.569641
-760.993103 -211.516953 331.367920
-761.768372 -133.920883 692.361206
-890.989136 -59.620857 436.026947
-976.085388 -41.468121 348.869751
-816.518921 -126.489090 372.108795
-881.502441 -35.234238 612.702148
-706.543701 -245.287491 410.190186
-768.960510 -135.361954 514.178162
-771.867310 -227.039856 232.283585
-763.931030 -132.463013 669.000916
-768.620789 -198.650970 419.413513
-703.425110 -204.313751 521.396545
-909.109924 -61.450836 416.661713
-943.448547 -24.105772 420.742401
-898.725220 -6.710421 607.915344
-861.311157 -83.409096 454.968262
-917.152161 -37.248432 423.995544
-709.058167 -264.283630 283.264404
-705.325500 -251.990952 377.120697
-873.765686 -52.272888 625.357971
-730.280640 -226.037689 410.694885
-802.284912 -177.752472 202.677780
-827.352234 -92.709335 460.425659
-725.665894 -187.252609 588.214661
-826.341492 -73.192047 552.179321
-826.673584 -146.777542 410.039978
-774.853271 -128.828323 516.798584
-906.265198 -38.146561 455.955994
-962.613464 -42.198357 379.377228
-877.995178 -51.233707 587.852722
-739.045532 -244.828033 227.824554
-913.757141 -10.115676 624.878113
-807.909363 -171.361755 314.439056
-804.828064 -94.060516 676.852844
-904.391785 -12.186022 609.522827
-748.051147 -234.260880 254.453674
-896.657166 -60.576038 481.092468
-712.392212 -254.600189 351.340607
-877.315918 -9.984560 608.397400
-716.916931 -286.362061 283.603821
-914.808105 -31.536402 474.399261
-783.299438 -143.186630 550.220764
-788.481628 -144.974945 511.456482
-800.955566 -107.987724 511.141754
-769.377441 -201.870026 302.431213
-886.210693 -35.152096 485.902588
-954.193542 -29.499989 401.650909
-836.567200 -141.106689 227.739548
-919.758972 10.254728 683.872070
-856.988037 -75.137207 524.924988
-862.663574 -53.922695 595.478027
-718.451233 -160.511032 686.859497
-795.223877 -100.277626 697.046814
-714.038208 -251.282684 337.160919
-730.060242 -258.692078 342.919800
-794.067566 -131.916733 603.177551
-868.428162 -122.809036 248.232925
-789.257080 -117.883263 659.067017
-752.379883 -191.481644 461.844971
-793.919739 -92.286156 704.319275
-912.864136 -32.288334 491.118683
-716.617493 -219.452164 446.541656
-957.665344 16.460039 464.065674
-694.917847 -177.499283 668.509827
-897.383545 -11.696719 643.464172
-778.922791 -132.347717 607.648621
-837.624329 -94.144608 522.658569
-914.850159 -102.137093 215.319595
-823.936096 -133.608322 404.614685
-840.379761 -67.552292 627.652649
-863.506653 -131.981644 204.261765
-728.979004 -233.709671 242.573837
-736.354614 -233.763901 383.582825
-957.218872 -0.933565 421.356628
-907.545044 0.005211 636.973694
-895.698853 -89.852715 336.648773
-780.243530 -198.169861 357.256836
-805.549316 -207.766861 230.499924
-911.559082 -25.932871 580.730408
-845.280396 -129.290070 338.648560
-908.271362 -6.782738 609.790100
-961.500610 36.808250 492.735474
-762.075256 -162.034042 396.228027
-866.764771 -87.091888 392.312378
-917.153198 -33.512608 541.109070
-790.105591 -110.794975 673.704346
-849.923706 -146.513351 252.831329
-836.698608 -68.036064 683.696350
-863.679565 -105.602112 368.304474
-881.818787 -106.717735 252.520538
-953.257080 -33.998676 385.935974
-792.735046 -124.126892 539.734253
-801.719604 -109.336998 626.102417
-873.116211 -136.603989 215.807358
-702.684570 -255.905624 356.205322
-710.388550 -181.711456 623.150940
-820.741150 -157.535095 200.363220
-849.365601 -83.462776 556.311829
-798.948181 -119.778778 593.400269
-761.894470 -235.618164 229.057785
-887.859619 -60.155876 442.816986
-727.632141 -232.153366 417.451630
-869.573730 -126.858978 313.400238
-770.043640 -171.350098 386.860687
-922.054443 61.248768 429.083282
-954.399597 -3.028733 451.230438
-727.593567 -249.201706 264.119080
-791.739197 -197.757706 308.612457
-941.612549 -55.794720 342.887390
-755.736267 -195.487167 448.650879
-824.228210 -151.892517 295.023468
-887.310852 -62.039642 514.131104
-705.810791 -255.212219 363.463593
-885.912231 -128.383575 237.364929
-779.532166 -181.059845 378.398376
-963.880737 -16.485638 384.474640
-726.337341 -238.422577 308.813232
-861.418030 -54.553471 636.170532
-864.264282 -111.017059 328.306732
-883.544983 -89.691422 253.305756
-797.335876 -98.857750 702.843384
-730.786560 -212.628616 344.261414
-875.227661 -87.640862 386.330261
-827.259399 -139.744370 268.966217
-945.581055 32.691563 412.894745
-952.931763 8.611147 374.460876
-861.727478 -70.542519 605.312317
-947.939575 -12.362811 515.672607
-763.815308 -145.357666 458.280487
-792.569702 -157.215073 428.690826
-847.370850 -61.516365 657.382874
-894.237427 -48.606003 528.645142
-977.453247 -9.145141 498.115356
-800.359131 -128.306046 580.588074
-830.347046 -106.145195 489.432159
-817.192139 -104.825012 563.186829
-840.260315 -89.447990 536.859192
-802.181641 -117.505547 633.579590
-710.289673 -211.540115 524.911255
-807.384399 -149.603134 397.608978
-705.196594 -180.978027 664.743958
-886.984192 -42.928001 609.268860
-791.377869 -216.186386 239.982788
-771.294006 -134.875549 655.060852
-743.539368 -184.212509 574.528381
-759.733826 -170.888687 571.744629
-788.871704 -143.981903 493.091309
-731.008789 -222.263306 398.622620
-834.391968 -158.162491 296.821594
-882.352173 -96.299561 327.815277
-739.571289 -226.988846 318.621979
-867.239136 -57.269608 518.274963
-729.702087 -243.663284 234.729141
-949.219788 -4.490041 331.667450
-880.839050 -49.766895 569.825012
-798.688049 -169.237778 429.135773
-937.689270 35.512299 453.829865
-722.054626 -191.527328 572.973389
-787.113159 -220.238663 236.066528
-815.115479 -140.508682 411.074921
-732.798340 -176.306793 593.329041
-933.999817 -46.212826 415.989899
-881.018494 -111.571327 249.239822
-728.794495 -274.060150 240.840057
-887.328003 -92.293121 260.792633
-822.704346 -188.299820 221.547943
-928.112244 -27.637363 492.620911
-753.801392 -207.780930 444.154785
-732.861572 -159.198303 633.843262
-802.651428 -162.172318 422.217224
-842.348267 -120.648979 356.904999
-832.514465 -90.146698 568.228943
-755.560974 -211.257919 403.598907
-817.724487 -152.706589 394.588043
-733.907410 -169.519028 658.032776
-845.206421 -98.565025 513.687744
-749.733521 -213.379196 396.262115
-904.404236 -13.195042 532.172180
-953.799683 -18.785677 413.912506
-813.707642 -108.694878 446.051117
-711.662109 -228.831635 409.916809
-715.824219 -207.666336 514.399841
-877.325073 -124.204903 298.843933
-746.583923 -198.306335 467.869568
-767.007019 -165.522293 470.519745
-877.044739 -100.065605 294.114227
-774.871582 -157.666168 562.822144
-741.974915 -262.456665 235.798050
-881.263306 -79.851784 478.587280
-964.513123 -4.922384 379.104095
-876.184448 -115.902618 306.404510
-730.031799 -238.048889 381.854431
-940.748596 -28.134216 366.742828
-782.698547 -208.119766 302.523956
-854.332764 -52.422256 679.641174
-1210.971191 95.218437 80.814552
-795.331909 -156.377380 482.319061
-999.370850 -57.403889 325.674591
-892.299561 -81.813507 315.007507
-730.565369 -127.785110 659.392822
-841.083130 -136.022766 249.014130
-790.050232 -148.100494 451.623291
-728.450134 -236.148621 397.591125
-831.308655 -169.824844 269.257690
-865.266846 -83.040169 466.701202
-707.883179 -184.433517 671.371765
-804.488464 -84.242653 649.216431
-839.793213 -134.723541 323.403137
-851.000183 -95.667175 530.179260
-798.713806 -90.565193 647.162537
-898.718384 -35.533092 445.319946
-749.269592 -191.727051 429.822083
-700.648926 -274.061737 322.674988
-734.419861 -176.442947 564.046021
-725.178711 -216.582214 400.139221
-978.974976 22.233543 529.309570
-996.424316 8.208975 561.790649
-764.433289 -201.000031 332.383453
-888.685913 -54.811554 436.578674
-814.291931 -159.659821 263.661591
-731.324707 -187.808411 548.746094
-746.327637 -254.812668 257.325226
-820.207397 -67.378708 607.090759
-756.072754 -178.220367 516.519958
-775.307922 -181.761337 390.981201
-960.489136 13.728931 382.580231
-745.345276 -207.319229 380.964111
-936.927246 41.689236 380.196930
-844.542542 -94.825172 477.972992
-875.302124 -70.457306 511.309357
-916.465149 64.676666 408.400360
-956.588318 2.786550 444.792572
-810.782227 -143.758041 416.849823
-767.270813 -153.285645 592.385071
-930.482971 -87.833099 242.616577
-837.137573 -107.382820 416.158020
-826.654907 -108.202682 548.678101
-775.102661 -138.499420 637.519043
-715.200134 -205.197678 535.046692
-883.495972 -79.116226 460.840210
-947.030273 -21.776121 495.230896
-861.078552 -63.770668 568.211304
-954.232849 -48.434086 389.857666
-740.447937 -137.557739 676.219788
-837.856934 -109.701698 442.264496
-946.996826 20.826576 352.590881
-877.278381 -64.857803 438.614807
-862.806580 -27.161602 692.043335
-912.368042 -83.152046 245.286041
-870.028992 -108.483604 289.946930
-795.017761 -96.661766 675.771423
-724.896667 -175.677887 590.719482
-856.419006 -53.368656 656.996826
-973.364075 -4.045586 530.859802
-908.421509 -96.211121 196.547440
-832.396057 -148.171326 283.377289
-961.799377 -21.085865 349.042480
-767.117065 -163.737289 454.585297
-714.593323 -227.476547 416.433777
-781.325623 -206.332611 252.999939
-691.862000 -195.181381 590.820374
-870.399109 -66.804024 501.770538
-734.157410 -161.118332 617.609497
-842.285767 -103.566826 453.075500
-888.421021 -133.202393 208.786972
-735.463745 -220.088806 387.984497
-948.882507 -16.787336 447.077026
-824.255371 -98.641350 582.390869
-966.391296 -62.126789 311.526947
-735.426636 -248.809677 356.064362
-948.297485 7.931379 420.734863
-778.405579 -188.309753 407.572876
-888.209717 -38.027756 597.634277
-868.118958 -57.889980 549.703979
-726.058716 -207.046295 458.066498
-963.393616 -1.900929 532.159729
-952.146912 13.537431 365.996033
-792.810608 -153.511932 440.811981
-740.351013 -216.687759 439.055634
-763.512390 -168.143951 494.741486
-891.193542 -77.333397 402.794373
-922.160034 -53.305229 380.344299
-779.232117 -185.128159 344.230225
-798.163147 -136.975082 551.076843
-925.893494 -2.730800 655.440491
-864.975525 -113.511520 285.784729
-766.548096 -142.183090 644.806213
-756.226440 -207.009186 232.269974
-717.591736 -157.977432 686.401672
-705.268005 -217.588577 505.874725
-877.634705 -107.764801 335.261993
-787.039307 -117.977066 512.772034
-795.362915 -150.373306 468.500244
-926.021301 34.068413 350.921997
-955.005493 -20.002802 444.058228
-952.509644 -38.520107 336.276245
-908.535339 -27.727579 537.433899
-951.329773 16.817240 414.225372
-892.915039 -54.493572 469.110168
-975.337769 21.214731 524.018921
-747.629211 -225.825806 283.244354
-716.146118 -160.433731 594.615784
-824.542175 -122.688019 436.155701
-954.404785 -6.057411 487.721008
-944.934570 25.835690 346.354034
-849.320190 -81.644295 604.946533
-751.325806 -165.272964 626.276672
-820.663513 -109.920006 565.175964
-901.121887 1.437905 645.338257
-953.017517 -33.295853 334.745728
-712.713074 -243.992615 339.047516
-940.896057 -35.672592 465.257935
-783.091064 -145.607391 528.984619
-812.174316 -78.328110 699.046692
-740.204163 -237.854019 374.152557
-943.400391 54.012123 454.680511
-921.680786 55.189968 414.076874
-757.633728 -202.702744 266.732666
-756.443970 -193.079102 396.891052
-789.037598 -89.381714 675.691528
-774.101807 -184.565353 384.970795
-740.069336 -172.187363 618.144897
-813.183411 -108.291351 526.888672
-805.739380 -108.476158 635.350403
-885.340698 -46.106808 443.923584
-758.236633 -179.480133 545.016907
-778.909729 -154.702560 516.186096
-721.859253 -198.490967 525.682861
-771.210754 -143.295059 583.175720
-848.644470 -100.672981 458.451324
-755.042175 -187.097214 370.006653
-741.048645 -159.698013 488.015259
-879.873352 -112.721008 299.268982
-921.682129 11.595743 637.310913
-844.872559 -84.262711 535.256409
-972.183289 -2.255744 605.928772
-913.180054 -22.546404 591.574646
-751.445374 -197.432846 430.257660
-753.591431 -178.034515 394.560028
-852.511475 -47.238598 672.099548
-719.876221 -279.333740 223.528015
-893.860657 2.732317 611.504272
-894.589111 -75.650444 329.028290
-845.373596 -108.510750 491.577606
-803.183655 -110.044197 658.320923
-714.864563 -182.913239 697.852112
-897.163147 -17.624317 636.508240
-989.205322 -70.304314 283.132965
-975.147339 -63.784157 321.358154
-722.876953 -192.777069 563.518433
-745.237366 -225.115143 214.941925
-966.301331 -49.966026 340.683655
-827.739258 -47.858578 652.610168
-768.704529 -175.832886 441.916443
-815.637695 -164.100861 312.286835
-757.721375 -134.660629 561.087585
-830.267395 -113.277786 512.705688
-821.350647 -186.150040 222.068451
-745.841736 -195.283722 424.816925
-874.751221 -110.692558 336.640167
-875.103394 -44.169945 632.278320
-758.982361 -165.363083 561.427795
-716.304382 -245.318268 356.596893
-736.092163 -193.613281 510.203278
-852.736511 -72.954262 541.300964
-796.802551 -170.589142 360.199005
-955.717285 18.913860 464.871613
-960.152405 -24.572647 384.526398
-716.948853 -198.870407 540.280579
-739.820190 -147.580490 690.392639
-787.468811 -222.498795 221.014984
-808.939331 -174.647079 356.062561
-854.821533 -95.693619 385.745239
-876.255005 -73.327934 448.852020
-904.003845 18.757221 674.397827
-810.389038 -94.094582 617.798279
-890.241577 -125.197479 198.205353
-730.590271 -210.519196 420.889648
-796.437866 -134.003479 534.479919
-776.706543 -156.066391 512.666199
-728.913635 -260.240875 367.731659
-870.767029 -142.504242 245.608292
-756.798279 -160.618729 530.237549
-977.112305 23.267342 525.950256
-995.778809 -0.083017 557.775635
-947.420410 11.409275 438.938721
-957.708557 -47.119465 353.173798
-931.724304 -53.003407 365.549713
-757.252991 -220.783966 251.639191
-823.061340 -97.560883 578.354248
-799.461121 -206.196838 218.014481
-856.038330 -99.173965 399.567902
-922.087646 51.798954 395.989655
-905.431396 -4.139391 631.671570
-739.238770 -222.546448 269.568359
-740.088379 -190.329071 509.848541
-979.001221 -58.555534 291.128937
-877.104309 -80.489189 455.659943
-843.962219 -84.284500 611.923523
-748.874084 -167.546722 531.322449
-708.075012 -254.350555 377.738373
-944.680481 18.293392 353.065063
-873.723572 -92.993034 445.699371
-741.089111 -235.176407 328.060638
-913.063110 -24.166296 677.732788
-775.840698 -129.739944 649.063171
-895.906982 -35.589649 576.589417
-736.218384 -165.595978 668.603210
-869.349670 -139.725800 261.535583
-735.329407 -187.399506 550.384644
-957.034973 16.232056 436.381195
-756.455139 -151.574005 655.096680
-783.856567 -201.300766 218.795639
-774.505066 -187.798813 344.795013
-735.137756 -226.028580 270.307922
-703.563416 -268.059784 299.113281
-874.694275 -47.580181 626.088562
-829.356873 -169.534149 296.404419
-731.949280 -193.481049 485.943756
-955.327820 -34.490715 343.085358
-861.460449 -96.048660 382.357910
-735.203430 -196.074265 473.073303
-771.601929 -182.365433 379.162018
-809.247437 -150.283966 323.251953
-945.340332 19.524908 625.425903
-700.512146 -174.143951 603.001770
-887.807251 -33.748203 563.526855
-842.504089 -95.621040 542.391479
-795.300293 -152.813721 404.234009
-960.723022 6.473671 482.135315
-760.781189 -169.934235 514.938660
-883.799866 -61.025646 516.028015
-924.564575 -19.761150 507.370239
-787.968994 -192.678085 305.656281
-930.254639 -50.951786 391.909058
-821.245239 -139.570511 384.236237
-678.725830 -242.350571 345.697296
-898.942505 -76.412598 392.477509
-763.645874 -154.847214 607.744202
-948.932678 41.818089 427.508087
-698.467346 -177.690628 590.683655
-949.541321 37.598980 442.161530
-898.323120 -14.394312 656.904175
-878.264160 -120.937141 202.302795
-914.265320 -81.829277 233.298279
-803.907715 -126.506210 571.583679
-770.239014 -181.488724 328.570984
-809.923828 -114.254089 618.860229
-855.376038 -106.277596 311.763794
-848.945190 -82.562592 591.490906
-885.478760 -118.571716 206.071625
-779.611755 -80.978653 667.617065
-918.941040 -66.936752 334.312500
-950.564880 -17.902122 529.701233
-756.030884 -165.661591 508.880157
-824.874695 -130.858292 278.876587
-720.354309 -214.960785 478.119110
-922.812073 59.668385 426.859192
-781.228516 -111.615692 690.507751
-759.058594 -186.520584 307.484283
-910.107056 -34.625355 517.537354
-946.410828 -11.757136 464.393097
-956.635559 19.627798 362.139771
-709.597473 -207.666122 591.151306
-725.520630 -172.996002 612.055908
-835.236694 -89.546417 599.926208
-848.726013 -91.984200 526.343994
-927.993896 -7.998875 552.228516
-793.602417 -148.982010 465.856201
-804.826355 -133.382813 536.904053
-829.790894 -87.504250 616.976257
-932.260681 61.604740 492.299347
-859.517822 -126.798302 324.468018
-894.662476 -50.548496 522.363037
-731.849365 -172.654968 464.319458
-732.984680 -197.749619 492.584869
-881.365540 -62.821159 476.855255
-845.851563 -75.488998 588.610596
-773.647095 -189.333221 287.156006
-727.505859 -187.497345 620.534607
-871.148438 -87.802513 484.655975
-847.031494 -90.477715 515.272400
-814.160156 -93.524864 651.440491
-809.357727 -188.158722 300.902771
-786.713623 -123.597908 662.191833
-883.668030 -60.165756 535.571167
-725.459656 -213.649231 463.037170
-709.965759 -206.647644 569.211731
-816.505554 -141.136322 459.758392
-844.646912 -131.059113 300.643646
-961.894592 -14.972662 520.112732
-864.744751 -130.100723 220.897125
-809.112915 -105.752159 622.481750
-812.660645 -85.307716 627.382629
-835.927673 -73.266411 650.775330
-745.212769 -197.073044 433.137390
-870.941956 -37.739788 642.652161
-944.193726 -4.702427 565.122253
-831.634216 -140.592957 313.509949
-943.188538 -2.868408 307.623840
-748.494690 -176.489365 573.193665
-833.993835 -123.326752 332.648956
-703.685791 -230.611786 344.858521
-743.635681 -200.095901 305.050598
-797.124329 -140.597427 508.734222
-828.658875 -193.076309 209.912292
-736.691833 -190.131271 370.624359
-831.652649 -110.726387 523.178101
-814.490845 -124.274513 473.417725
-928.895630 -65.717171 305.918274
-764.292175 -193.015091 362.152740
-725.402466 -129.249268 669.308594
-871.675415 -44.294777 638.072998
-936.610413 37.295376 359.623535
-903.816833 -17.855556 610.044983
-758.877319 -181.401077 475.449799
-703.336853 -166.183517 708.652527
-821.327087 -155.695953 366.406555
-876.162659 -130.185486 251.365280
-873.854187 -87.077538 446.836029
-892.640869 -46.135254 486.424438
-803.070129 -102.606613 615.061768
-934.536255 -14.918476 512.456604
-831.565857 -149.452408 346.345398
-828.661560 -97.684616 542.497559
-900.852234 -39.388119 492.159119
-799.585632 -167.528122 401.793274
-900.924438 -83.145866 331.835876
-960.277466 -9.430469 405.282074
-756.404480 -207.103058 344.099823
-761.815186 -174.566772 497.004242
-755.359070 -188.806000 407.891296
-972.186218 -18.146965 540.085388
-932.531799 -51.439205 415.820251
-768.688843 -159.996231 516.757385
-962.769958 -39.579742 341.443268
-894.693237 -12.212771 641.481750
-744.212463 -158.491425 660.026245
-777.354004 -175.140366 454.851837
-787.203552 -221.666794 226.059448
-936.683350 -98.439796 191.112839
-711.117554 -264.974823 244.456696
-731.337830 -237.745117 419.071167
-872.672974 -52.292152 573.417969
-706.480103 -185.507553 662.824341
-879.014343 -123.915176 184.950180
-903.035522 -75.486351 280.811798
-902.705078 -15.037718 567.049561
-907.241089 -87.995712 209.772369
-851.748962 -116.041847 271.030151
-756.553894 -162.965500 591.728027
-845.346436 -105.018509 422.884155
-946.236023 34.777634 471.264374
-800.341614 -123.502747 529.801086
-794.491943 -216.379272 206.608963
-806.373169 -139.324081 444.318176
-789.603638 -215.305130 234.294235
-741.824524 -198.116776 443.292786
-741.977539 -180.050827 493.735321
-889.534790 -48.094948 563.983154
-874.666687 -75.967140 487.959717
-749.422546 -209.662445 266.851288
-827.656677 -110.995163 506.825531
-967.096497 -21.292450 329.134216
-973.311829 8.067630 516.831787
-849.313965 -138.258621 322.162628
-801.985779 -162.049164 344.498505
-956.977234 -53.324512 330.529602
-763.093506 -214.092392 289.500641
-713.768188 -205.173172 472.142029
-894.093079 -115.775711 263.434448
-788.062012 -154.371414 522.635376
-808.377014 -171.680389 357.712311
-801.261475 -170.961533 380.944946
-758.810974 -209.042648 316.485474
-772.056702 -127.551643 685.167358
-877.097595 -32.836693 658.586609
-919.729187 -86.376350 249.543030
-963.481812 -91.127838 229.867630
-840.598511 -59.720787 655.651001
-718.938843 -216.047043 481.525513
-747.049988 -249.915817 255.737427
-907.875244 -80.926903 331.413361
-769.724060 -229.834976 207.992813
-734.235962 -274.741943 234.818436
-725.131714 -170.931656 647.139160
-803.598572 -152.008636 381.217529
-761.192322 -144.796692 583.604858
-714.412903 -167.638519 670.602356
-836.412354 -79.776955 638.695801
-780.659485 -128.177246 565.980103
-756.503113 -232.777496 263.980225
-939.586426 -54.460270 386.239227
-911.052612 -94.532349 288.408447
-865.583496 -68.817719 513.657166
-745.381226 -205.084412 385.835358
-701.134338 -236.024857 324.901886
-711.054688 -230.179550 456.511200
-830.555298 -94.804871 616.331665
-743.402344 -180.423416 519.627747
-716.513367 -212.746826 465.317719
-745.632385 -186.798233 483.202423
-823.281677 -64.230400 608.275757
-713.133972 -256.770050 295.021576
-966.186157 28.577591 559.653259
-770.014526 -174.411194 417.375275
-871.682373 -126.859482 278.584351
-821.624084 -138.077148 468.682770
-905.297180 -112.449280 208.157089
-712.466431 -266.859619 256.215210
-834.986938 -83.179237 624.777283
-762.650818 -181.174652 509.852631
-735.724548 -173.044281 628.151550
-949.518982 25.098473 412.751312
-878.001404 -67.771095 459.490997
-763.572571 -191.166031 244.758469
-756.588440 -161.306793 553.636047
-714.475952 -226.827316 456.649109
-860.000977 -68.788933 581.676636
-886.335815 -95.018410 388.085602
-853.176270 -31.114349 659.544678
-837.149536 -142.491898 282.084198
-962.394775 16.858372 482.570770
-963.858459 -42.497742 396.408478
-788.314087 -187.709137 291.248962
-891.614624 -84.599228 305.223969
-906.075256 -43.160557 470.727448
-811.324951 -102.742622 639.189514
-848.184570 -103.680817 501.801483
-938.101624 46.283642 493.465759
-869.188232 -73.151573 484.973267
-799.914795 -132.304474 577.748535
-715.675232 -175.567261 711.385986
-775.841125 -151.946899 551.677185
-877.840149 -58.649357 590.028992
-752.513000 -171.911957 502.018494
-829.576416 -135.056274 222.095383
-807.890137 -95.587433 680.724731
-898.027100 -43.127632 552.357971
-812.995789 -91.879547 521.736511
-820.079712 -150.454941 422.228424
-854.438416 -54.768097 676.235352
-764.167480 -237.154205 221.237152
-965.925598 -15.595737 346.772064
-895.457947 -5.634340 648.767944
-949.460571 -94.057365 199.484604
-878.717957 -111.922836 280.995911
-745.498840 -241.402832 329.517792
-838.470764 -70.482765 659.892395
-845.931091 -107.241867 502.241425
-729.069031 -167.290436 636.138733
-818.000488 -97.472328 551.438843
-938.779053 34.751694 441.007385
-931.078552 -7.508737 658.020386
-721.439636 -199.930557 509.704590
-928.506042 -46.520008 397.164246
-856.329468 -151.521240 241.308105
-953.360901 34.109631 442.895538
-931.651367 -58.055172 370.569946
-972.907288 6.537927 660.130554
-806.307129 -113.677841 467.376709
-766.985291 -152.046997 622.096436
-804.589050 -152.353165 321.461212
-872.549805 -94.136314 346.182922
-777.227234 -177.800262 409.249695
-955.783325 -32.360565 367.712646
-923.350586 53.137501 392.394226
-889.218079 -20.109909 695.541016
-931.205200 55.674110 414.165039
-902.774231 -15.978269 561.710449
-989.476135 -38.383240 313.198883
-941.974182 20.864225 339.150879
-950.803162 -11.249282 395.273712
-785.319763 -167.234253 402.165619
-802.296387 -139.318420 412.640656
-867.290588 -51.146984 538.722290
-815.748718 -164.062515 286.635986
-879.713135 -72.166229 423.045532
-893.855774 4.350904 616.793091
-932.005798 3.822268 627.345581
-840.949890 -72.439850 661.656128
-876.815491 -35.771976 671.389526
-889.004150 -72.164307 302.025421
-747.418884 -193.120605 436.636597
-825.190796 -192.227493 224.450317
-908.357971 -34.981697 475.085724
-802.208740 -160.712311 421.946686
-727.723694 -161.656540 614.819275
-971.780762 -1.565897 537.092468
-747.530334 -127.798363 672.517517
-816.452393 -123.090691 530.013550
-793.139832 -170.272980 371.326965
-848.138733 -107.565964 429.285706
-764.054321 -189.473969 403.414032
-735.253174 -181.523224 539.300781
-859.763916 -72.520409 573.431946
-721.234375 -162.451157 676.161865
-914.804382 -27.185522 493.670593
-890.106323 -68.652847 410.900452
-935.383972 -35.482189 374.789307
-802.916382 -119.162819 570.409912
-748.375488 -169.401672 596.242126
-946.102173 25.742321 660.593628
-796.960571 -74.042496 649.770630
-720.234131 -209.373566 378.436615
-823.385681 -99.027039 574.187622
-727.814758 -227.237518 384.292480
-946.390015 12.233775 352.841248
-716.865479 -198.247864 547.410095
-835.557129 -109.278427 438.164612
-858.059448 -50.587448 663.491089
-870.499390 -91.138275 392.389008
-786.798523 -215.968887 239.903656
-840.416748 -90.378807 531.711670
-713.313416 -223.258255 530.386475
-989.840210 4.734458 615.495178
-727.678101 -207.150589 385.286804
-841.385986 -52.287102 650.330688
-969.843628 3.548184 626.007568
-868.458374 -117.012581 189.901047
-732.541504 -173.077255 561.805420
-712.820129 -212.476883 505.028717
-850.489624 -139.370255 306.969574
-880.779846 -33.316887 645.804443
-808.076904 -108.266739 598.234558
-926.024414 -91.148674 235.677856
-820.183228 -92.001640 651.819458
-905.998962 -63.804295 345.610413
-745.438477 -197.273697 460.662445
-936.275635 25.725447 435.872925
-766.650635 -183.646606 423.112396
-723.631775 -169.397171 682.346802
-820.080627 -146.203232 439.883026
-769.470825 -214.478195 311.146423
-745.745056 -147.372192 642.986450
-918.645508 -39.933018 421.862579
-782.787781 -117.942101 673.631531
-766.571289 -157.242569 588.339355
-924.042297 -18.380445 574.988037
-960.496765 -34.108582 372.904724
-958.542908 21.618778 479.633026
-812.174133 -69.226257 603.442993
-762.920105 -146.575424 493.359283
-923.375977 -65.500298 335.031281
-727.648071 -182.440414 557.364136
-722.532532 -175.893982 596.265076
-839.056335 -88.201813 541.225159
-760.143799 -240.264328 222.454483
-730.869141 -151.133148 705.876404
-907.588928 -14.911638 599.093018
-794.081970 -85.530045 602.527649
-699.426697 -201.020386 538.410095
-792.841309 -153.926712 435.821228
-943.403198 2.699569 647.199890
-761.955322 -176.052063 488.264435
-798.472595 -166.775238 340.298828
-788.447388 -183.929565 338.446899
-958.121521 26.178068 386.664612
-949.286987 -24.832653 331.429077
-749.112488 -170.004959 521.182983
-843.836304 -127.899071 258.022125
-776.186401 -112.223541 676.331848
-898.475281 -115.590492 242.469208
-772.141418 -138.233490 501.340698
-729.415161 -228.464645 352.877502
-823.199951 -89.850197 488.479431
-719.216370 -175.127548 702.312012
-894.693298 -78.966614 262.574707
-880.029175 -51.122017 538.173462
-945.025085 32.515629 407.515350
-848.452942 -110.775742 325.347137
-891.113281 -53.545250 478.687286
-806.879944 -144.472000 356.059692
-751.123352 -148.487564 551.086914
-715.804749 -202.500519 529.629272
-815.590271 -171.988647 283.949615
-954.307373 -28.754910 441.251831
-819.563965 -160.510361 349.287292
-866.199890 -45.657536 518.680054
-896.839539 -17.329117 635.093872
-800.890320 -142.516907 447.597656
-801.644470 -179.023270 275.435852
-903.088074 -92.680267 224.808334
-828.489258 -111.032990 481.585144
-706.649292 -182.388275 637.121216
-999.110779 -16.636620 549.952393
-951.384827 -37.793209 291.596130
-878.073669 -72.030731 519.118530
-802.166138 -83.877022 654.728333
-807.038757 -94.881973 685.466614
-805.084045 -124.876610 516.349548
-765.542847 -181.871765 438.268402
-739.392029 -150.236771 535.645813
-820.698853 -89.546234 642.776062
-724.746582 -167.959656 693.912659
-899.582275 -63.138931 371.695679
-835.183411 -119.265793 472.357330
-899.204407 -24.170790 540.845154
-780.861633 -157.193130 496.234375
-930.391785 -28.217335 428.193695
-940.584656 23.630760 351.385956
-776.121338 -126.408005 622.369751
-801.299194 -208.626602 241.000671
-957.186646 -20.204569 373.037750
-768.735107 -163.942490 551.443298
-823.206787 -106.145210 571.657532
-907.073486 -26.963856 595.791809
-836.556213 -151.702560 232.419724
-724.694397 -195.259857 586.789124
-809.963806 -172.957382 346.512665
-776.302246 -195.100128 232.879196
