ply
format ascii 1.0
element vertex 1411
property float x
property float y
property float z
end_header
-330.304382 790.392761 19.978916
-45.980175 923.029907 47.566841
-48.999874 944.078247 -6.690915
18.588680 1029.517334 -77.767075
-180.269043 1098.901123 -239.525162
-222.018021 1003.936707 -171.937744
-222.255890 784.408691 90.705475
-146.183228 971.922058 -86.994392
-0.742507 1046.495361 -100.219551
-267.606232 976.639282 -200.119705
-316.180145 747.386963 91.409386
-17.605955 1038.386108 -141.824005
-256.576752 755.741882 105.828156
-76.971931 957.815002 -32.794388
-129.954147 936.227966 -50.231789
-360.370453 787.211670 6.022367
-277.733215 744.537537 112.372032
-207.520874 973.438904 -148.907166
-8.104717 997.693115 -37.416183
-71.344040 1072.411987 -184.040771
79.615829 1008.985718 -2.191935
-12.304384 1045.017700 -147.414047
-272.972107 895.384399 -80.493927
-84.968170 966.804321 -93.898911
-99.614830 1018.432251 -118.151314
-55.065319 973.674377 -47.962643
-226.647736 1058.587646 -224.258286
-18.464165 1008.515442 -62.883133
-284.463928 887.583984 -95.521469
-250.873489 919.191895 -80.541283
-61.237785 1008.491272 -88.669083
-377.071136 792.665283 -19.672518
-118.933922 850.362000 53.575958
-87.625862 1027.638794 -122.753441
-264.279785 975.647949 -213.769562
60.425152 999.406128 -12.209400
-366.682098 775.748962 8.163426
-190.599915 985.365662 -148.877960
-214.337067 877.064819 -24.139700
-47.158302 956.873718 -49.749149
-288.955292 934.608337 -154.325348
-99.794334 1015.690613 -125.946503
-22.859612 1022.346191 -109.199997
-256.795593 999.520874 -225.603165
-333.085693 824.093872 -20.116020
-230.626862 1003.342224 -180.351395
17.354050 1032.343262 -80.500694
-77.674934 1073.601929 -181.178864
-113.921562 1057.924683 -184.887573
-180.861496 1089.533813 -238.994720
-56.865231 938.028687 -5.019956
-186.150970 822.234558 59.912373
-157.609451 949.443298 -64.282913
-349.712341 941.966309 -180.664474
-239.696381 983.732971 -242.756989
-273.915985 918.723572 -112.295906
-237.114258 1017.189026 -243.565659
-47.487415 946.823486 -14.194003
-37.622181 930.218994 28.595127
-143.439407 860.545715 47.142811
-51.631451 918.898010 -1.112335
-242.579666 1048.768677 -203.200272
0.851656 1014.816711 -70.852852
-375.507904 922.989014 -131.318130
-180.647949 1086.709351 -210.824051
-106.719398 1098.876953 -217.354599
-289.231903 929.736572 -254.978134
-208.414154 808.312134 55.904579
-169.493668 1001.932678 -154.154770
-148.058319 994.721924 -160.134155
48.712944 1008.942200 -16.118866
-163.057739 866.760376 42.911880
-78.116989 991.477966 -67.285370
-236.422791 831.722229 22.603718
-111.479401 1023.583374 -131.321899
-350.409088 846.520142 -100.307182
-72.087105 1025.145996 -117.566383
-80.519005 1088.256958 -208.240936
-256.749512 761.251587 118.566254
-356.320587 792.082458 -40.070778
-66.960587 995.565491 -94.224449
4.244496 957.027039 23.192501
-402.457397 814.032654 -33.560066
-199.416992 1101.263794 -215.336319
34.393867 1049.705811 -109.550537
-278.245850 756.909424 90.062630
-95.988190 986.437683 -83.988380
32.803238 1023.879333 -53.469326
-138.364899 925.984070 -36.851067
-351.119934 806.420044 7.142917
-203.236282 976.349304 -120.900810
61.587368 997.973206 -7.639649
-218.906799 783.082336 99.323151
-239.656006 1011.151550 -241.255768
-280.428925 792.248352 11.414199
-377.825867 814.872559 -71.458649
-38.439491 980.717468 -38.917290
-106.022598 893.868896 29.425488
-37.053520 1006.859619 -63.339008
-164.990326 996.406738 -133.062561
-227.692657 993.136047 -248.502457
-302.157318 949.284973 -161.442734
-65.072350 959.246216 -35.646763
-226.670822 844.431030 31.963745
-87.954224 889.270569 58.477970
-344.420929 796.257324 28.229378
-90.034431 971.832520 -70.632607
-170.643005 927.722839 -51.699322
-199.095581 1017.191284 -180.032944
-302.366852 959.059998 -159.398499
-208.424393 794.684387 95.016335
-92.529213 976.615295 -78.404282
-282.438110 902.239685 -83.172737
-78.030334 965.240967 -51.158302
-375.989136 843.376831 -97.408142
-218.983109 971.423279 -152.585220
-308.001404 877.942993 -82.701973
-360.899323 829.232178 -33.378555
-97.854004 1050.264282 -153.649765
-193.440201 896.568665 -12.303181
-205.176361 903.656799 -43.522766
-137.590530 839.398438 71.318794
-171.194458 1002.964355 -151.552017
-38.056309 945.211426 24.062092
-155.177628 901.557922 -1.987005
-134.816833 872.906860 32.354725
-353.250214 939.928162 -144.966187
-183.982086 933.128540 -72.343979
-346.758820 936.905396 -170.935577
-340.949829 771.056274 61.364063
-57.155502 937.568909 5.270440
-85.811607 932.787659 -2.685817
-214.225464 1078.183105 -204.418762
-243.356735 962.694214 -136.009552
11.243983 947.685486 2.382418
-291.136932 847.122864 -31.446115
-221.839630 980.964172 -168.281693
-349.038116 845.952087 -75.936821
-201.445526 830.816162 65.970436
-226.851486 934.141785 -88.694023
-121.271645 871.870544 50.421917
-40.311817 1066.493530 -138.067154
-362.486145 766.311523 45.771545
-147.288376 1057.049561 -206.404449
25.793938 1005.085022 -29.794180
47.252460 1026.639404 -36.735733
-144.458664 943.963318 -57.053665
-92.156624 1051.507080 -183.390594
-64.233528 993.343506 -89.741798
42.898491 987.915344 4.053910
-312.118713 829.880798 -40.715668
-255.932922 981.550537 -235.315460
-5.917216 980.276123 -11.022807
-103.525208 1039.984985 -184.656403
-259.594574 752.303711 92.817703
2.475635 947.370972 14.581387
-83.993149 1097.643188 -224.264786
-349.701721 804.419189 -16.465874
-81.301788 933.913574 12.128642
-171.214279 858.967651 22.308292
-339.562134 845.170593 -67.880257
-278.370758 886.142395 -52.194469
11.916184 985.022339 -8.959705
-317.549713 959.347168 -209.139740
-277.615112 965.412109 -244.909012
-63.542130 1091.630981 -200.845642
-203.958557 943.860657 -112.229347
-58.047913 987.737793 -50.647575
-383.338867 893.120361 -129.733093
-316.188202 870.640198 -88.542526
-224.276642 786.142883 94.667480
-254.481400 780.221863 80.731003
-428.433411 813.510071 -100.721817
-218.418427 980.011719 -141.126755
-262.321716 866.447571 -42.600800
-15.356941 991.661987 -29.561958
-393.015594 875.842590 -110.992172
-222.900375 960.802673 -120.192825
-144.725784 935.939026 -34.979076
-313.960968 968.272644 -158.621902
-146.691544 840.163269 70.224342
-224.221848 774.063843 101.600197
-266.734497 877.921936 -61.661266
-348.598236 896.931885 -121.524315
-302.222595 972.074158 -195.549652
-322.255463 954.513611 -182.219482
-271.432556 930.342651 -257.059753
-251.057587 825.959351 43.904808
78.487175 1023.529297 -27.111179
-241.962250 901.000366 -99.292076
-221.482147 1008.965881 -237.795975
-29.060373 968.354492 -18.407375
-159.584503 834.728088 91.569954
-171.953583 823.355347 65.709610
-290.776642 858.333069 -45.110104
-217.111832 862.473267 11.183897
-65.325813 989.038452 -51.344791
-317.865479 844.346313 -21.067463
-220.395660 810.783875 43.800529
-9.186598 959.481384 7.883745
-221.457657 1020.598511 -215.540665
-308.253754 866.117554 -97.824471
-178.286591 1006.489685 -176.437378
-129.060455 848.244629 68.911446
-139.290375 849.409119 62.914890
-196.996857 1040.465942 -195.406738
-3.226549 1024.592163 -81.797249
-68.936615 963.395874 -35.113609
-213.098770 934.473755 -98.816238
-170.297546 1065.180420 -210.482697
-171.646881 830.492126 22.211971
-75.937935 1041.678589 -125.645622
-195.939774 1126.720215 -229.451645
-263.809662 800.690125 43.880222
-193.566528 1088.339600 -208.141403
-236.339554 890.689514 -36.940594
-77.641518 1052.266479 -184.084595
-299.767303 797.026428 28.069523
54.656662 1006.481018 -5.760015
-398.101746 930.272217 -161.351883
-81.851334 1122.494263 -223.188812
-295.506073 961.290894 -209.576675
-299.892883 921.001099 -242.061508
-374.224640 771.640930 17.602737
-444.150299 876.022339 -114.411079
-295.957123 826.502136 -11.088448
-208.084885 933.422974 -70.814140
-347.297882 933.639404 -146.431091
-332.895721 880.683960 -109.033279
-422.720673 857.960205 -103.565704
-314.621704 842.161011 -40.454464
-213.209915 882.017334 -29.599073
-277.534515 852.430481 -5.627162
-198.618118 984.452393 -159.092255
-392.922607 786.778076 -4.967112
-221.563309 904.450378 -66.411812
-288.962830 986.573608 -208.478653
-275.973511 981.905762 -203.250275
-198.669769 869.005249 1.013851
12.503868 960.962463 3.153469
-248.774765 816.662109 57.425442
-220.082520 847.393066 -5.236671
-221.039612 1010.801025 -177.846344
-396.222229 827.870911 -53.478214
-137.101593 890.506348 -16.824877
30.030203 985.568237 5.218530
-230.395447 828.316345 30.900770
-289.575989 801.852539 37.584412
-320.742828 895.283081 -101.222603
-144.924774 1003.161499 -128.867233
-153.161636 976.193054 -120.254486
-118.987854 1044.437988 -158.591721
-4.831688 1029.553833 -78.853645
-134.546402 887.829956 21.457909
-74.095573 902.416809 51.690456
-113.828987 872.042236 41.934395
-48.032799 1007.259399 -64.793861
-106.175026 897.892151 35.209618
-27.893229 1070.106689 -156.742355
-338.342834 763.402527 49.803574
-29.132658 931.858032 -13.996407
-305.883301 965.073669 -216.990479
-70.980682 994.731689 -75.529640
-193.658356 928.313049 -76.021446
-312.178833 918.030518 -125.736305
-13.347960 1032.006958 -101.097153
-37.157063 1045.359009 -113.656876
-5.218769 1054.406372 -106.372719
-282.749908 975.178650 -153.994522
-97.284279 976.848389 -86.760689
-89.827011 955.025574 -34.342522
-217.803314 966.378906 -127.286972
-292.495270 980.328369 -175.285049
-300.424530 747.391296 99.363083
-184.792358 998.169128 -139.919189
-66.193558 1046.026855 -125.002487
-198.117218 941.774902 -97.652458
-332.570435 863.555847 -86.556343
-149.328003 861.042786 67.798836
-260.426270 862.516113 -36.159782
-217.837219 919.473389 -54.754776
-214.015930 1064.249878 -238.681381
-307.934692 859.069458 -43.592850
-434.058136 809.314331 -35.711906
-248.463974 912.128967 -70.106407
-77.579155 1074.639893 -202.699219
-244.040543 949.001404 -148.815994
-405.803619 825.608276 -88.341507
-363.225342 782.436340 -19.851665
-229.883972 987.648682 -174.191650
-182.431198 937.713440 -88.427170
-70.738976 1064.457275 -201.315186
-142.269211 951.240051 -73.156708
-233.328674 962.189331 -128.028915
-46.453285 979.468140 -36.593098
-160.025238 947.453857 -61.607841
-14.429528 952.029663 12.283657
-299.247070 746.707642 79.063408
-176.849991 1103.761963 -233.000397
-213.871170 1059.138428 -195.442734
-153.673325 862.195923 53.270706
33.113140 999.183777 -11.923469
-60.509132 903.756226 21.092638
38.681335 980.325562 -9.736042
27.460594 1003.659058 -60.094963
-185.376816 991.907166 -151.025787
-76.915352 1081.095337 -216.537979
-313.165314 750.055908 87.850677
-233.479584 774.690552 114.879890
-104.574409 955.784973 -32.433376
-27.615076 1013.840820 -61.317066
-20.411791 956.435791 -0.506406
-304.858643 749.499756 116.936882
-81.813400 946.087646 -18.443094
-252.746140 1003.994202 -232.073761
-121.808632 932.001892 -34.150356
-133.495163 1040.651001 -165.528290
-4.834197 926.476013 10.054872
-120.296143 889.249329 9.307950
-168.939224 1026.642090 -172.483871
-66.356415 976.136841 -39.956390
-124.630585 1016.456604 -146.489746
-307.589142 942.138855 -153.123306
-256.557617 905.946960 -114.078026
-273.633698 912.846313 -112.343506
-72.475388 1068.673340 -175.051880
12.817229 1025.510498 -58.007038
-156.741318 853.865967 39.668270
-189.107956 856.685059 20.995615
30.275566 999.706604 -21.347633
62.774456 1006.689514 -25.466511
-334.016571 779.489075 26.544657
-138.527267 1020.584961 -165.014145
-83.341347 938.736511 -11.026903
-158.218094 875.060730 12.637812
-47.341690 956.017700 -19.137215
-101.805931 1060.618286 -186.284592
-13.093798 994.573059 -61.874390
-274.087402 823.085144 8.338073
-121.179665 1026.422241 -158.718155
-198.388672 966.549561 -130.845901
-384.297791 808.806763 -26.826229
-198.069763 883.066467 3.860661
53.827698 1036.173096 -42.914280
-52.468174 975.055359 -43.675156
-251.338440 956.276550 -132.622330
-56.757336 972.538818 -43.373703
-275.648773 835.132568 19.110775
-288.124146 931.106750 -132.475113
35.172630 994.231995 -13.759727
-350.142700 950.427979 -170.784134
-232.567123 876.146118 -31.149561
-304.237366 862.140625 -45.121437
49.487354 1003.596985 -13.955482
-273.901764 792.204163 64.927330
-335.452179 838.119812 -44.209301
-56.055164 1056.932617 -130.291473
-242.371613 956.743286 -142.173294
-28.374283 1020.152954 -105.207283
-369.407288 767.650269 17.633930
-343.510193 829.848816 -23.517271
-63.046707 1016.520020 -91.551041
15.588662 969.979858 8.199284
-88.074074 981.285217 -59.659222
-282.008820 892.212463 -91.528267
-42.294865 1053.370239 -120.520271
-268.570007 758.996338 95.425346
-307.491577 861.390320 -80.792641
-244.563980 863.675293 -18.621264
-296.073975 825.796753 -8.866168
-234.433044 1023.980774 -227.187073
-382.593231 923.595093 -138.333710
22.271671 1014.532898 -46.582714
-184.561829 809.864136 68.760468
-191.452026 899.642639 -38.520226
-45.528236 1047.701172 -123.689568
-167.072388 970.617310 -141.140656
-243.215454 996.306580 -257.156158
-210.934219 845.318909 41.189838
-179.879837 857.050720 30.487965
-284.191589 987.203064 -192.020767
-172.998474 947.935242 -81.569656
-284.109192 798.201294 36.341167
-98.483513 965.685120 -62.287842
-225.596909 1005.991150 -176.057343
-73.927933 990.577393 -65.395050
-372.160126 794.175903 1.859297
-360.024719 945.207153 -184.226517
-21.828157 1020.303772 -74.966644
-197.553787 807.311462 84.447815
-159.470306 1012.589966 -183.937744
-77.718857 923.399414 1.912094
-300.142731 942.328064 -247.343399
9.069233 998.265625 -58.091587
-93.561333 885.104126 38.683239
-74.849052 974.911377 -62.259995
-2.689914 1029.064087 -66.383797
-240.466156 999.503967 -228.996979
-91.599556 1148.093140 -243.923767
-243.747314 947.436218 -135.396545
-69.694206 946.697693 -23.987259
-21.230782 1015.959412 -82.675781
-144.252319 958.054871 -81.276138
-308.557343 770.935181 82.036339
-129.085129 931.581604 -31.020327
-275.323517 966.180847 -245.702225
-248.365067 907.521606 -58.547470
-357.510284 845.397217 -79.372589
-112.706245 986.736023 -92.363312
-200.583176 799.518311 87.045486
1.659739 989.001160 -20.403990
-302.932037 974.033142 -159.296143
-234.209076 880.439819 -63.158180
-98.188919 960.301086 -93.188042
-248.113602 871.336060 -40.443962
-314.994507 939.350098 -148.090607
-348.470917 795.293152 17.147715
-319.984802 878.568726 -75.676567
-178.316315 976.786194 -114.665321
-159.678925 1102.062256 -232.854111
7.817457 1037.470215 -75.622528
-335.740662 846.713318 -44.791534
-77.837685 925.880188 9.117717
-29.679884 942.106689 14.390895
-4.233258 1013.625305 -59.534107
-346.403168 857.057983 -83.309738
-199.413406 958.920410 -104.338600
-256.727112 778.758911 89.761208
-71.840424 904.805298 35.401196
-333.779419 927.326599 -170.819870
-130.848007 944.357056 -37.360859
-123.717789 1047.833984 -187.923721
-103.476929 885.691528 62.772594
-271.680206 934.076172 -254.636841
-150.574585 866.484924 32.558884
-170.213165 977.019165 -111.507607
-247.751556 1015.563599 -218.317703
-200.782654 1009.521912 -176.064209
-387.441467 767.913757 0.851080
-291.685577 898.275574 -123.867081
-83.792297 1012.910156 -107.414322
-73.556091 1039.989136 -176.502136
-176.228256 897.063965 -3.380640
-228.370605 779.317261 95.881386
-37.618427 1021.437866 -112.616493
-164.947021 933.308899 -45.698093
-84.206261 1025.545166 -116.525711
-231.851456 881.779968 -35.037937
-259.561096 979.265686 -156.984253
-146.476349 893.896606 -5.604715
-203.321213 1074.647339 -241.926468
34.280598 1018.005798 -51.400852
-296.729156 842.964294 -24.309772
-44.410194 973.615051 -18.635468
22.541533 972.503296 -6.738493
-339.112671 828.863831 -62.725788
-136.138611 949.852722 -44.196976
-285.137360 726.016479 118.642410
-441.062653 837.432312 -93.508354
-111.981079 1011.406311 -144.544189
-189.060257 878.230286 12.132468
-209.465714 790.138489 109.150581
-234.072006 1031.232056 -217.634689
-119.056099 870.262573 54.493435
-107.219360 1057.602051 -177.358810
-245.310898 800.164551 56.370930
-161.526108 879.920471 11.366146
-92.912056 1090.022827 -207.312531
-30.555115 935.297852 6.683480
-20.654339 948.984741 2.489976
-43.299736 996.332764 -94.061493
-95.989090 1117.897583 -232.471436
-140.573380 1053.907104 -214.871979
-272.540253 864.092285 -57.525677
-93.006638 950.633423 -71.366104
-314.853027 971.238037 -186.822586
-285.893585 845.253967 0.284549
1.139262 978.996338 -58.361237
-269.236938 960.361877 -242.028473
-211.370453 936.899048 -73.649651
-26.710360 1005.169434 -60.009899
-162.930710 832.122864 68.134384
-30.093653 986.877686 -50.271282
-310.711792 971.453918 -190.182770
-242.583923 890.427673 -57.302681
-213.284088 805.723145 64.282661
-132.986298 983.545349 -110.781952
-119.678268 922.264343 -20.463947
-278.383606 955.902100 -169.277664
-278.922516 946.477234 -251.950745
-101.885979 979.878479 -84.148323
-221.853363 1005.548950 -242.786682
-357.222534 846.325439 -60.320534
-332.455261 869.460632 -65.311401
-310.096130 929.995361 -239.734131
-147.819870 912.477844 -17.906183
-202.811340 842.724731 32.762016
-255.189529 782.991516 110.279564
-333.736389 759.805359 50.350533
-130.820526 854.054932 51.760323
-170.787247 906.590210 -35.142059
-152.989090 896.016846 -5.280928
-422.156281 817.201111 -83.978111
-325.068207 966.148804 -187.785187
-261.836548 977.415283 -244.809921
-322.430969 789.333313 22.272352
-290.562195 890.813232 -73.875763
-333.499542 823.142151 -63.461960
-341.495850 765.591370 40.496548
-298.794556 816.735535 29.641083
-262.364868 820.519287 40.745426
-279.071747 939.892944 -136.320007
-298.062164 831.927063 -20.842077
-328.258606 872.395630 -93.870384
-73.196724 1090.297363 -192.803604
-273.061493 996.446045 -175.496735
-211.619919 975.710022 -155.376526
-169.950806 848.170105 40.439720
-218.260788 825.644653 42.082657
-99.799004 878.306946 54.622871
-242.177048 857.241394 10.381861
-184.683640 809.418701 90.532501
-58.736431 912.395264 39.440510
-219.131104 789.477356 75.120026
-124.254478 893.977112 1.892395
-348.416870 878.903564 -85.935829
-157.896378 1024.183472 -161.513489
-171.352585 952.898193 -86.880424
-88.175041 882.169617 23.963402
-166.345215 959.349304 -99.488029
-217.064713 1044.120605 -253.127579
-78.321602 922.502197 -17.956676
-163.029678 831.804199 65.325241
-24.196533 1016.223816 -103.601227
-74.015251 1020.491760 -120.469864
66.446228 1011.041321 -27.956509
2.888174 1037.297607 -75.014587
-153.739487 1035.452515 -206.424438
-79.559402 1050.202759 -138.153549
-277.020691 879.460999 -70.319405
9.168918 960.636108 -18.163818
-249.210373 800.183655 22.331705
-54.080402 1021.449707 -85.854439
-25.811449 945.571045 -30.290237
-342.308472 893.349792 -213.374222
-14.903707 925.577454 32.362816
-318.052063 816.288208 -43.619930
-143.340134 1065.736938 -210.278076
-244.597397 828.923706 5.799156
-102.177765 1063.275391 -220.095520
-54.715908 1066.208252 -149.655884
-170.847488 862.743591 27.987118
-343.510620 843.320007 -35.590702
-231.536942 811.194641 50.633354
-280.250092 986.630737 -196.158081
-146.615112 832.318848 74.328896
-122.925316 891.377014 -9.039137
-196.997208 876.857178 13.454286
-297.007446 818.014893 0.211704
-202.923477 844.229431 30.293493
-3.678346 979.703979 -27.734035
-112.004128 1022.867859 -162.597168
-115.402664 1056.067871 -178.611267
-302.384949 889.781860 -100.851891
-10.346430 1062.916016 -120.214127
-250.570755 1012.500671 -182.061859
-375.542847 792.394470 -19.673754
-30.814781 939.456787 18.266445
-247.045868 1019.710693 -215.471603
-176.106293 837.132996 57.021137
-13.350739 1067.224976 -131.685272
-248.122971 922.922974 -110.884415
-394.415253 802.479919 -21.449327
59.430202 988.785522 -15.745821
-75.874962 972.531433 -67.991035
-327.937866 823.263733 -28.029581
-207.943176 906.433228 -61.008785
-229.904495 844.077026 36.702999
-386.687347 851.543884 -75.255821
-1.893948 1051.072266 -100.518303
-287.894012 895.186462 -74.846474
-79.397507 1011.599670 -123.406364
-307.869873 754.712280 87.000221
-213.574905 1059.649170 -245.697006
-11.706443 1002.368652 -97.799950
-41.480610 929.990906 41.850197
3.886504 1011.978882 -92.920059
-270.612183 972.363403 -181.173431
-57.077484 1057.398193 -154.163239
-99.696541 871.716187 60.632736
-131.213181 999.660095 -156.263428
-157.948654 828.376404 60.694263
-235.738632 943.583618 -106.035164
37.250561 1046.516968 -68.185623
-66.832451 952.163025 -20.216389
-427.497833 898.790100 -114.621864
-158.046097 1032.718018 -204.527557
-62.905018 1007.329651 -96.436768
-279.027130 950.155762 -256.888397
-11.344898 1064.149536 -130.710205
-210.659561 819.137817 54.309372
-322.108368 836.918945 -60.749516
-118.099442 1060.759277 -180.095627
-3.916028 1020.331055 -67.983292
-138.860565 986.270691 -116.040878
-3.948155 1063.076904 -131.258331
68.565384 1029.720947 -41.269970
-242.630630 979.054138 -153.921097
-244.401199 1013.065735 -227.253601
-136.208237 1096.140503 -218.463272
-230.314087 986.001831 -149.824295
66.783890 1015.757813 -5.847682
37.375778 970.839417 -21.032145
-287.735779 847.386597 -47.145828
-167.612167 845.751099 44.139912
-189.691010 996.743652 -144.683167
-282.332886 872.245789 -63.385868
-43.682461 1051.001099 -120.000679
21.833708 1005.659424 -68.167854
-296.827728 809.399109 1.199102
-113.530426 959.924561 -46.240353
-160.129547 1020.600891 -153.578201
29.174593 1034.904053 -60.164150
-310.706451 800.896362 -2.530360
-697.562012 963.690552 -343.165405
-278.491974 840.439514 -18.848747
-227.526291 809.543152 55.080853
-318.908691 772.299194 26.125683
-334.763489 811.996948 14.367332
-209.654892 1017.608215 -253.614517
-362.103668 919.011719 -201.745697
-175.267410 1072.688110 -203.352402
-340.939484 857.562195 -84.148094
-263.195618 967.090759 -160.247192
17.062706 1046.020996 -95.677437
-299.395782 761.640259 95.074684
-218.179062 1032.443359 -195.663025
-161.016510 834.183594 63.836288
24.854383 1033.388062 -67.137764
-369.949554 800.860718 -17.573433
-246.470551 1015.479614 -183.156525
-383.017975 865.521790 -107.164856
-121.923172 841.755615 64.171722
20.418194 987.621948 -1.844485
-106.577484 1033.720581 -159.409058
-158.197769 982.390625 -109.369965
-48.030479 965.783203 -11.024180
-162.523438 1002.702148 -150.054916
25.779337 1022.281555 -82.004532
-177.193939 813.683533 81.170906
-178.731827 865.174561 9.870440
26.015602 973.593445 -2.086229
-197.855606 971.805420 -121.668983
-43.751293 1014.523865 -122.166389
35.952099 1028.000977 -55.467472
-328.082886 818.925537 -2.007708
-256.927277 931.740967 -105.435478
-223.738327 864.274353 -15.301498
-194.920441 831.251648 37.105907
-73.250359 961.636230 -81.026611
-236.551498 909.057861 -75.415031
-335.900146 756.688965 45.549915
-325.319916 928.708435 -207.526840
-216.819412 1013.942566 -179.628357
-130.847061 986.469910 -110.809525
-225.471588 877.152954 -27.548378
-317.781616 934.981934 -224.197433
-229.344025 988.273621 -155.812958
-316.663574 756.392822 88.588997
-265.127716 816.878723 21.805231
-208.491714 880.499817 -27.335232
-36.130619 1055.906616 -131.625427
-332.449249 907.482178 -126.326096
-228.328735 835.046326 19.566133
61.685497 987.069885 -2.977762
-126.903946 1037.327515 -179.814194
-223.874268 893.964111 -47.535221
-224.553223 840.708801 44.980999
-236.625198 804.824585 62.049870
-387.059387 944.396667 -157.905060
-66.362160 1086.090698 -191.833984
-204.869186 925.350281 -62.062244
-291.075867 936.763855 -126.322479
-250.496185 998.012451 -222.745560
0.539809 1004.481201 -42.112862
-344.890472 935.014587 -182.425674
-263.165649 973.843628 -225.451828
-124.482262 950.076355 -39.694954
-277.256042 742.735840 113.344322
-81.172264 969.931396 -45.353378
-285.924347 996.427856 -195.555023
-233.919571 848.782776 -1.475173
-154.790634 947.354431 -73.264702
-150.973236 946.802002 -67.978951
-392.713379 788.916443 18.115282
-114.401871 882.616089 27.230154
-289.746094 811.688965 35.990406
-233.777786 840.557312 11.853369
-311.497253 794.084290 17.720205
-266.813812 996.652161 -178.652863
-57.606525 1033.023071 -103.081543
-408.013031 792.389343 -16.664879
-288.660980 757.179626 110.420044
-85.062729 1083.982666 -202.536026
-164.282959 1016.294495 -182.831360
-72.778931 1020.433472 -103.803101
-20.138676 942.333557 24.873978
-257.743927 775.434265 81.312965
-87.176277 951.933960 -46.741726
-352.040161 759.659180 19.631607
-260.501526 975.212952 -167.996399
11.127935 992.302917 -17.425829
-235.413528 976.835327 -148.128067
-308.313568 900.852966 -124.038765
43.088512 991.936768 -18.165104
-367.210388 777.498535 4.204617
-67.965080 1086.442505 -204.169296
-270.002106 765.190491 114.910614
-431.222351 808.824036 -60.227730
-79.642784 1024.268311 -141.037033
-254.904678 904.839600 -88.734146
-213.400574 827.091187 22.845057
-233.398270 1034.919067 -249.117264
48.603149 1023.112122 -29.776985
-161.414963 1042.320313 -182.489578
-253.309998 858.923035 -6.135933
16.457554 1004.878357 -25.772058
-154.410980 904.174805 -15.730932
-318.593353 953.105652 -205.915573
-80.297249 969.675415 -62.028019
-98.788033 965.511536 -62.905567
-323.149323 905.035156 -136.392242
14.828992 1039.299316 -89.495796
-318.847595 911.135132 -118.479889
-297.674652 736.972229 94.503365
-104.856720 1068.857178 -183.456879
-254.371689 899.150024 -59.945229
-59.591984 920.400574 35.483845
-234.440048 825.252014 31.649466
34.897247 1040.519531 -54.511127
36.833286 984.843384 14.819423
-288.393860 766.644165 82.245514
-70.616669 1003.965515 -79.370735
43.817715 980.887451 -33.469872
-51.490452 1089.780762 -189.665405
-69.292831 1102.098022 -220.648666
-323.079590 905.265808 -230.843628
-123.142570 1028.597046 -144.844879
-136.011322 946.958252 -69.933693
-215.815140 1079.050049 -236.075348
-143.963318 861.293457 16.195925
-248.787125 797.491577 57.821346
-190.106110 960.393494 -116.480995
-242.507614 992.103149 -256.770203
-60.821445 964.744019 -17.242397
-111.994804 987.716736 -87.523354
-31.633532 1011.889832 -64.315331
37.703220 1013.764587 -44.451317
-116.362801 1118.252319 -230.815414
-100.746727 1004.665771 -93.993637
-94.531342 1017.132813 -140.400497
-328.444183 883.709534 -82.726006
-117.216972 946.465515 -42.854118
-370.265167 914.267944 -191.431900
-313.999390 943.889954 -241.344742
-253.203857 795.692505 61.727619
-47.308144 926.829468 34.078148
-227.254776 1042.569458 -244.577057
-80.877205 997.491882 -89.597290
-61.552250 915.390076 19.828060
-261.104126 1005.912292 -211.476624
-228.576935 1016.637573 -252.825699
-115.593460 1067.038574 -202.047836
-85.191429 955.345520 -45.469978
-122.657478 1075.364624 -229.089539
-266.995331 852.760254 -38.820053
-28.180180 1097.266113 -166.737305
-317.516144 761.790894 75.688004
-278.730164 999.084106 -201.186615
-220.896927 1080.310913 -225.586761
42.847584 1022.218750 -50.983814
-313.175934 911.759949 -147.567841
29.179077 1010.141479 -37.870720
-250.555786 937.917664 -127.870155
-316.966858 961.705994 -203.979462
-71.249817 1053.009155 -142.976578
-234.011719 1021.882996 -217.522293
-190.071594 898.376099 -30.423990
-182.696533 824.057434 58.286488
-17.977123 946.069336 18.875816
-182.261566 1105.468018 -234.467453
-99.383514 892.625366 47.516994
-308.689026 771.183228 81.222748
-289.082550 987.724487 -184.433685
-98.955864 936.409851 -2.348788
-147.995712 975.654724 -110.104103
-80.782684 1070.616089 -185.014755
-74.510353 1059.230103 -164.295654
-49.756828 919.183167 30.354683
-211.849243 978.861023 -157.724442
-27.445978 1043.754028 -152.206741
-120.093987 941.440002 -22.859642
-313.074799 735.672607 129.990158
-55.403259 930.580627 -18.986277
10.800714 1010.537415 -41.366451
-304.072021 940.365234 -227.383438
-290.269775 770.627319 61.212925
-299.873566 869.224854 -62.892941
-283.203674 983.856934 -217.803864
-411.460907 806.951782 -92.264931
-322.373993 957.378174 -181.683762
-388.434998 867.969177 -106.795448
-78.824554 915.995667 28.530630
32.392941 994.934570 -9.567938
-268.430878 752.019897 116.867279
-432.879272 829.612122 -108.016045
-392.161011 820.007446 -78.514763
-240.494034 1016.312744 -236.583481
-141.529938 878.358093 29.999743
-219.954971 816.829590 74.618294
-93.376389 1036.820801 -149.934830
-345.166199 749.418396 58.661495
-323.771729 751.656128 82.238586
28.575439 1004.331726 -27.456490
2.073897 1024.111084 -59.973263
-184.012054 1103.205200 -218.313919
-311.053192 818.920105 -1.420947
-223.765701 854.819214 3.930049
-289.279205 928.170044 -122.413467
-280.425232 738.359985 109.795380
-31.027121 1037.203369 -136.611755
-382.652069 808.561279 -13.390606
13.593596 1057.988647 -105.720306
-30.802462 1013.851318 -68.993187
-125.238602 1099.972046 -241.888504
-227.138290 836.221130 44.037060
-88.057121 1058.772217 -203.975235
-329.996765 928.379639 -211.451828
-286.637512 986.512146 -167.642059
-214.617874 824.219116 75.741287
-282.664520 760.472046 90.310295
-289.935791 987.807312 -198.089386
-268.537354 999.342712 -196.034012
-2.023517 1034.984741 -128.054230
-337.748383 925.733765 -216.848343
-255.711670 893.079468 -74.158501
-147.380844 889.232361 0.017669
-312.149109 879.783386 -71.516304
-328.064575 749.977356 85.760956
-284.576385 955.641846 -149.995026
-277.480530 932.024902 -247.391068
-202.447067 941.389832 -107.855545
-374.585114 779.169434 38.014080
-72.323288 1002.829407 -89.917267
-381.289124 822.017517 -87.694122
-84.442726 918.875854 11.002846
-406.715332 819.173035 -46.563522
-45.965996 956.255920 -1.935801
12.907832 965.790649 -9.989193
-89.477081 982.923950 -90.155365
-286.608978 930.645325 -255.544769
-65.442009 1070.287842 -173.813110
-61.641308 985.047424 -67.182335
-203.284500 1074.617676 -202.583130
-257.555328 887.436340 -47.299034
-235.894363 924.127747 -100.445435
-215.666534 998.441956 -259.029144
-185.814728 1099.663574 -220.726868
-98.513428 978.898865 -62.972816
-373.314911 837.349426 -71.603302
-133.331329 991.376892 -129.085938
-425.386505 808.854065 -74.130180
-5.828835 963.292908 -17.568478
35.397369 981.265991 15.568779
-175.921432 929.946350 -47.223064
65.628227 1038.659058 -51.443737
-196.720078 866.519226 5.035754
-385.381897 826.132324 -39.411846
-300.342590 956.646301 -200.216110
-237.733292 1026.829102 -215.797241
-188.125824 1122.499146 -223.573608
57.769810 1003.466980 -1.447476
-135.945877 872.870056 49.860142
27.031099 1054.633179 -89.552620
-109.542747 1056.386475 -214.349640
65.217186 1023.702148 -37.688190
-297.773529 870.659729 -72.546303
-52.078819 1011.626587 -95.799194
-52.632778 970.425415 -43.029316
-45.629448 1015.365417 -109.140999
-319.621338 740.723694 55.244450
-206.073807 923.531006 -79.085945
55.419128 1020.249207 -55.547104
-275.647522 849.973206 -5.762999
-294.995270 955.293396 -234.622864
-31.354622 1049.621948 -158.935226
-194.903046 937.215210 -88.486259
-21.562599 1015.155518 -83.746368
-59.549728 946.926208 -44.541935
-193.904495 902.690125 -23.198278
-66.011642 951.079468 -1.423749
-106.443436 1052.782104 -180.141632
-344.913025 838.808350 -29.907106
-238.332367 978.750549 -253.306534
-118.916351 890.661011 17.688444
-278.432617 972.578125 -223.850082
-110.608635 1031.166016 -156.157516
-211.438644 867.528992 12.766279
-5.426935 990.965027 -59.053402
-358.728699 884.213196 -113.275078
20.250187 1034.565430 -68.215149
-263.404968 748.195496 127.185829
-219.335770 982.809937 -183.236282
-251.401535 759.933350 107.626167
-310.872162 811.312805 0.852309
-6.402515 1033.529297 -74.587593
-310.119415 922.182800 -131.864243
-353.823975 801.555176 -15.279025
-133.650803 1053.892700 -181.735809
-265.243073 855.180847 -20.938608
-15.364416 1029.302368 -74.307449
-38.330803 986.243042 -40.135311
-249.167191 900.663879 -54.393700
-242.468384 840.325623 27.570177
-88.188347 1047.911255 -152.494461
-342.593506 858.768005 -88.393623
-187.936203 814.429993 38.273010
26.533661 1009.033752 -28.826071
-281.775452 981.792236 -184.938858
-208.785187 1048.410889 -240.485886
-205.318512 992.264954 -164.215927
-243.409958 836.530151 -6.725967
-159.970322 882.776855 -8.504141
-48.292503 1029.165283 -144.387146
34.099552 976.187500 8.255990
-292.153687 980.398682 -199.260971
-60.396042 1062.521362 -161.979492
-100.302338 1075.413940 -202.292801
-303.016846 798.851990 19.851889
-279.141327 883.982483 -73.090767
-291.226074 963.268127 -229.033829
-288.126129 808.580383 17.832737
-194.673599 994.315613 -148.086273
-206.603577 1034.293823 -256.540039
-114.669418 1024.507446 -167.457642
-132.678619 1078.792480 -212.271774
-329.204315 900.492493 -110.286118
-226.702118 1042.896729 -222.415375
46.928799 1001.982239 -39.831833
-88.194748 1045.734131 -148.538116
37.871971 1013.664246 -44.344883
-6.605253 944.282471 -6.879230
-286.140808 985.519714 -214.311905
-48.457222 957.565308 -30.979118
-287.606262 782.266418 51.628368
-116.881348 1049.723755 -179.959167
-209.923737 807.046326 99.264847
-340.120178 879.391541 -112.643784
-224.183228 1048.795044 -226.121674
-368.111450 833.692261 -88.660324
-5.232863 976.245483 -39.340286
-158.996643 979.842896 -106.922997
-348.340607 768.344727 56.057388
-162.142426 846.786377 52.105728
-117.914200 860.619324 46.555668
-161.112030 1012.813171 -148.254288
-248.855865 868.695862 -37.319096
-385.863190 931.788025 -140.353516
-218.232010 1016.031555 -179.936340
-138.368286 930.937317 -39.704163
-99.135239 995.330017 -80.758179
-287.380981 768.955566 65.306503
-119.228874 866.773376 58.839661
-391.222504 903.166504 -133.797256
-180.291916 876.634277 1.604672
-223.948273 1030.086060 -198.411606
-162.396408 1127.933350 -228.086258
-32.139118 1021.903137 -86.536598
-298.322571 973.555664 -191.115128
-285.908508 967.676270 -221.836365
-355.978729 802.148682 9.374273
-77.171402 884.292725 33.621658
-330.625092 951.818237 -188.335907
-303.676453 964.701050 -155.707687
-232.118500 803.399231 65.224762
-345.454895 806.638733 -11.567097
-358.938171 798.913879 -18.140169
-165.941483 944.995667 -78.425911
-100.037964 999.572083 -91.620247
-107.960999 911.109741 10.837562
-65.270088 1049.134277 -140.547409
-28.303473 975.034546 -71.335587
47.784824 993.844666 -31.956432
-130.807419 967.967773 -75.927521
-398.623322 819.485535 -38.895870
-7.739447 1081.135376 -143.287491
-67.388557 1078.406372 -181.147263
-279.868500 929.300049 -250.697159
-366.309814 838.816223 -53.415604
23.317678 1038.293213 -83.596283
70.896461 1024.625244 -34.454926
-189.949646 835.448059 50.854408
-220.235489 1091.643555 -214.834061
-281.966675 896.834900 -74.948364
-46.810982 1036.094727 -114.041298
-154.494125 927.917175 -35.054722
-178.409607 879.133606 2.028413
-155.358490 1135.494507 -233.146500
-85.502197 918.623535 13.249285
-340.225677 759.993835 20.719019
24.023840 970.826599 6.085479
-281.877563 960.760193 -219.071640
-102.364746 875.656555 22.652369
-230.801346 790.918945 79.326248
-359.776703 816.687439 -43.492668
-47.648113 972.864929 -42.846504
38.511181 1032.621704 -83.647369
-151.170105 1062.508789 -213.035629
-209.771072 1034.354004 -211.020050
-214.217926 829.073547 41.811424
-104.483635 952.027771 -30.442663
-405.857300 817.014282 -64.869492
-53.675514 1009.493164 -105.660881
63.625278 1003.754272 -32.991051
-48.477501 956.934387 -10.166109
-7.609452 968.066833 -0.491840
-134.375656 1068.763550 -213.491562
-245.181747 906.079285 -75.065414
-96.461815 953.095215 -53.684448
-262.685089 855.758118 -24.560337
-162.292160 942.651733 -52.922409
-330.854370 842.103333 -35.112629
-353.034485 786.378540 -30.825188
-166.380981 806.275024 70.640015
-86.425087 998.433167 -103.620316
-189.329559 1061.906860 -203.475418
-103.096817 907.749634 7.374901
-25.336634 935.470764 30.411121
-82.890350 964.217468 -50.174809
-315.405273 769.725647 55.476376
-288.052277 816.261047 37.273342
-103.501236 963.945313 -72.804764
-429.721130 825.624817 -84.934105
-123.561310 880.842957 58.093182
-158.942474 1018.980408 -171.711227
-108.116951 954.415588 -57.621170
-218.984451 902.024841 -40.876476
-109.600700 887.538391 16.884647
-104.310547 1020.706970 -138.924637
-146.401398 1008.063599 -151.449539
-211.415314 1030.135498 -203.926376
-127.598068 853.219910 68.240723
-359.726105 783.862854 2.090851
-256.035065 1005.709534 -242.531784
-71.626862 940.691772 2.799162
-191.384369 989.160645 -151.742401
-147.551483 888.223572 12.237247
-288.444092 974.135986 -231.961197
-159.623734 1026.609131 -162.293106
-386.809021 775.887573 17.335752
-188.770645 871.139526 25.672371
-231.145813 1026.057251 -200.095886
-120.718567 1059.847168 -195.720825
-364.052063 894.640381 -129.815308
-318.898834 857.076050 -68.725258
-236.851639 771.907043 116.175171
-16.884647 974.818909 -45.531078
-39.586956 927.688354 21.516977
-204.340515 917.975281 -69.390915
-202.121017 1049.476807 -220.456085
-207.638214 947.413696 -92.726646
-347.373779 890.534302 -128.035065
-247.259125 982.272949 -264.107025
-152.398651 932.130188 -60.728031
-145.750595 883.101135 26.442608
-372.149414 840.543274 -49.981289
-385.392487 812.789978 -25.013178
-323.231262 943.543579 -188.074142
-367.866119 924.988953 -176.408417
-278.618713 907.789917 -104.408066
-273.293549 911.214661 -129.114059
-272.461365 830.161743 9.317343
-292.375031 945.752747 -250.537369
-228.767548 800.254456 97.744812
-74.854546 934.460205 15.122923
-354.635925 832.324524 -58.290035
-53.220894 1061.688232 -187.544891
-173.782883 844.609192 41.707897
30.428741 1011.544678 -29.475258
-99.228462 971.266174 -71.189781
-307.758057 927.139709 -224.741333
-114.747345 864.870361 57.313297
-118.221695 882.353027 6.883331
-20.038544 1041.198242 -104.690788
-274.564270 783.927307 67.316719
-394.045105 807.819946 -18.435238
-248.432373 844.274963 19.028458
-412.573578 926.934631 -138.638474
-237.866028 1014.104797 -197.265579
-261.140594 985.174072 -173.868042
-356.674683 762.009949 31.934574
-319.952911 750.422791 77.599770
-325.702850 960.836060 -169.414658
-221.739807 868.623718 4.940207
-271.862793 741.378113 93.388176
-244.565048 911.226196 -81.216423
-118.306824 1017.231506 -172.567169
-31.099596 977.373047 -24.945999
-342.568787 858.970032 -57.327465
-295.270874 732.835693 129.025269
-258.274872 1004.840088 -225.317322
-115.528427 1085.206543 -210.555786
-286.340881 909.803589 -119.590164
-120.661293 914.257385 -16.492655
-115.034729 875.252258 64.420753
-146.310715 921.632690 -33.249138
-339.003479 785.530945 -20.445690
-376.875092 811.443604 -67.283699
-233.242706 796.556763 68.426315
-131.771423 948.559814 -60.332031
-381.702606 886.451416 -125.428284
-339.741150 839.786377 -25.876230
-237.264404 1020.769592 -233.408463
-261.601715 844.263123 9.080105
-297.686340 861.766541 -38.711502
-50.589920 930.062317 2.543775
-280.820862 994.665466 -198.982330
-114.080391 1064.773560 -195.173492
-180.317169 954.767212 -128.679245
-113.029579 1051.917480 -184.340836
-139.806152 953.564880 -73.011795
-181.812393 973.581726 -126.945007
-271.438446 965.971436 -251.295563
-269.406067 896.151672 -96.955971
-155.435867 1005.092163 -167.382278
4.046742 1055.057739 -117.139420
-338.312958 934.175720 -210.972717
-165.291962 996.665161 -127.190453
-315.205383 784.835999 58.844139
-226.335236 857.871521 -30.406992
-292.001801 788.098816 37.969296
50.258934 1004.586365 -16.746956
-40.101585 956.610413 -8.946170
-87.903557 1107.218262 -220.185837
-15.517601 1020.677002 -71.423683
-121.326637 925.601379 -32.218334
-116.878944 915.408875 -6.727619
-211.222153 876.090820 -13.273872
-317.886749 916.927917 -128.488312
-310.290558 793.697021 6.887623
-11.110433 957.525452 4.598612
-204.848007 824.357788 49.568333
-317.442352 797.757141 35.731819
-46.915878 972.554688 -33.004162
-379.178650 803.881836 -10.771149
68.899216 1042.904541 -52.084404
-175.462952 908.961182 -17.012871
-81.324249 907.584351 13.599219
-338.188690 867.459106 -92.901543
-228.057495 1028.310425 -219.558624
-305.815430 969.996216 -199.056641
-248.278763 1019.123413 -199.274994
-117.341888 1014.722290 -123.639786
-266.193390 797.163513 30.445440
-14.250293 945.893921 21.929588
-67.193810 920.436401 27.665974
-296.899078 910.323730 -129.196442
-144.984955 843.491516 63.351097
-247.702240 882.777954 -28.736801
-184.423111 885.904907 5.089232
-198.336075 1018.459412 -189.836441
-288.172333 866.115845 -56.125587
45.533112 999.420471 -40.234970
-250.048004 893.637390 -50.372639
-263.090088 755.044983 83.772583
-119.731140 921.344910 1.832143
-111.845764 963.562256 -58.977421
-282.410675 773.534790 61.559540
-247.433029 1005.826355 -244.429825
-330.973846 901.452148 -132.004974
-83.909393 1056.064087 -167.676010
-84.527390 931.077759 -9.355400
26.068029 1046.509399 -80.888527
22.189985 983.542847 -19.658735
-115.309677 1124.127686 -221.955093
-272.853149 781.682312 44.614525
-245.380630 1007.656616 -216.598618
-302.579987 916.610352 -131.528656
-107.397186 974.210999 -66.205154
-226.818542 841.272583 12.677651
-322.027527 805.869263 -4.896889
-69.766785 1076.219482 -218.511887
-229.487198 904.923645 -47.708755
-352.255371 919.724731 -197.286987
-217.177383 938.689636 -99.117416
-145.729218 943.233765 -55.574089
-157.606888 1016.676575 -164.647293
-340.709351 852.411804 -47.014153
15.647481 978.403198 9.348703
-181.192505 855.813232 31.550949
-244.977905 951.058228 -140.442429
-111.612221 900.057190 2.798511
-244.195984 771.918823 99.283501
-146.433777 1020.891296 -152.097885
-107.361641 1053.068481 -162.933624
-277.600037 992.254517 -214.848206
-54.716850 1021.890198 -93.689972
-191.536377 883.850037 4.672322
37.476547 1008.144653 -18.988974
-76.415802 1058.169067 -161.582642
-167.958969 1008.800842 -154.287613
-273.984802 845.925598 -2.050635
-177.627640 868.426453 -13.258082
-113.425346 1083.797485 -222.822998
-305.501801 976.631836 -174.477585
-202.459106 874.810303 -12.203818
-95.754433 885.939453 34.560078
-403.868958 854.886475 -97.315399
-382.534576 857.322510 -94.168480
13.988471 997.050110 -26.885571
-24.179935 1074.982910 -158.470016
-347.853333 773.863159 45.710712
-101.825790 991.432922 -98.874313
-103.239059 945.092957 -19.634455
-147.749527 943.719177 -45.532127
-180.973068 843.393799 38.290371
-338.256317 838.597412 -57.679569
-317.619049 810.221558 -1.651480
-35.680271 996.084656 -64.845070
-193.716782 1040.936523 -195.771393
-281.124634 814.580994 -0.296081
-294.050293 974.921204 -214.860565
-341.677368 801.815979 19.594645
-157.805908 836.698303 56.896320
-393.175720 812.166016 -40.121574
-366.352753 803.915161 5.295646
-428.588196 818.929626 -71.623138
-386.084991 818.704285 -41.753876
-232.313232 867.504761 -31.455528
-13.477022 989.476318 -36.277092
-283.751038 1013.232178 -186.856140
-26.170837 963.990295 1.875661
-367.735504 867.604126 -89.483368
-363.784851 809.439636 -52.630955
-90.613731 897.590088 45.750401
-76.889900 1042.103149 -131.439682
-255.887695 1006.024231 -204.272995
22.445705 976.806702 -5.950279
-59.243664 996.174438 -73.132843
-132.863174 943.575684 -54.294155
-213.845840 775.463684 76.055000
-336.733398 855.224854 -78.824974
-304.733093 968.030945 -214.528137
-264.906494 973.019531 -251.985977
-311.720367 865.249695 -53.288132
-179.909027 937.080139 -68.948952
-116.363220 880.005859 53.080494
-62.267689 1041.180908 -116.660583
59.773891 992.685120 -22.502413
-176.829742 815.864746 89.278000
-319.473236 819.104431 -48.155838
-15.104722 955.234985 -6.610612
-360.365234 816.973083 -17.666225
-173.395020 974.899536 -126.181496
11.468676 964.931213 15.326505
-133.188522 931.761841 -17.654480
-248.130112 946.869324 -111.449760
-265.295227 980.663147 -236.642578
-225.776428 1020.728149 -246.207504
-299.074799 873.641785 -69.040291
-286.159546 859.882568 -48.999928
-167.190445 951.660522 -72.777901
67.653725 1026.371094 -28.521246
-249.888809 837.992554 -21.142233
-43.715797 1068.565308 -167.977554
-203.045593 798.368896 67.495300
-140.324127 854.219177 53.385609
-345.061371 821.505005 -11.766279
-179.113556 850.849731 39.641190
-170.874741 927.785278 -62.425659
-26.029312 1025.257202 -118.384552
-401.247620 800.167053 -19.889189
-298.859039 776.165466 55.299805
-276.251099 867.940979 -26.549936
-317.258667 888.004639 -107.867126
-262.586731 827.357117 35.781956
-257.263977 907.059021 -93.308716
-174.494553 995.837891 -130.434830
-283.134064 815.692505 -17.354139
-238.534378 845.094971 3.965324
-293.373077 907.113037 -91.542938
-80.207230 992.918884 -116.434486
-384.165741 901.737793 -132.498566
-332.882782 827.717163 -37.754711
-152.026520 913.420959 -35.332577
-68.785652 901.060303 43.277206
56.256763 1019.694580 -44.915058
-84.443069 1021.338806 -132.198624
-298.277100 733.491150 76.143951
-271.306915 922.298462 -126.586678
-245.615326 838.979492 -10.908871
-229.458206 1009.566650 -253.194458
-90.310783 883.402588 57.744591
-118.979584 963.335999 -63.258831
-115.950211 902.783508 30.605942
-221.729385 940.770508 -112.919334
-232.656967 1019.918579 -181.291031
-387.148621 795.522583 -21.188961
-107.065346 1065.130005 -190.811920
-189.638687 917.485413 -53.714085
-112.723213 891.193787 39.881557
-28.356609 956.667419 8.290977
-196.851700 957.139587 -99.599403
-314.470917 749.925842 111.011147
-276.434448 737.576660 132.376968
-219.714478 913.428040 -78.535324
-125.100304 1030.749512 -143.564941
-218.598434 928.119629 -86.613289
-360.027893 931.059998 -146.144684
-171.058731 1037.374512 -198.932678
-111.292488 914.726440 1.955422
-94.056366 1020.271362 -116.963531
-323.737885 955.491821 -214.515396
-70.493767 1000.687744 -120.865616
-356.463623 855.036438 -69.759254
-253.971451 849.741150 -25.561863
-319.964081 958.501099 -197.432587
-249.766312 889.857971 -65.303291
-10.025734 971.055786 -21.033628
-59.255939 957.796936 -22.235920
-324.529938 821.177917 -23.937250
-264.492767 841.855591 -19.341579
-178.856506 1072.780762 -203.097595
-225.395508 956.873352 -129.045639
-230.770172 937.254333 -112.858383
-83.040283 1030.010254 -123.398666
-331.529327 940.982788 -179.267838
19.656116 1047.501099 -91.398376
-234.087250 1020.607422 -202.794296
8.430274 1009.632629 -43.648155
-301.037842 979.117249 -176.393600
-321.673981 908.876343 -135.432465
-185.050674 824.972229 58.999367
-178.528915 830.335999 32.100147
-201.082306 1080.249390 -208.913681
-153.948837 995.362183 -124.710205
-272.791992 924.818115 -128.165451
-100.448463 1066.357422 -174.980560
-247.700027 928.523865 -92.144363
-219.048859 974.329285 -149.545929
-222.073715 887.779297 -22.834291
-11.860277 937.275146 -0.674204
10.795403 1035.052002 -86.729004
-328.932709 818.557129 -22.452585
-136.565125 975.048950 -93.086769
-169.579147 942.047485 -56.682095
-299.734680 916.348267 -112.054756
-161.706116 912.628723 -31.263094
-248.639740 881.630920 -49.490517
-80.708870 941.219177 -20.250753
17.701271 968.501953 2.716391
-133.650360 906.176025 -1.718207
-173.490570 846.822754 61.660248
-353.512085 898.100342 -207.860092
-14.809690 927.089417 18.061800
-122.810020 910.016418 12.289169
-175.607834 820.668152 84.679138
-253.787781 829.795288 34.367256
-10.904176 995.334351 -58.027645
-141.204575 1075.149170 -219.036331
-64.812332 1069.229248 -166.058487
-14.950649 1015.941895 -80.905563
-102.756927 961.515564 -50.635620
-302.082703 993.641357 -176.182709
-82.334084 1026.210693 -145.795929
-114.830338 1090.178589 -212.173798
-219.782852 830.631348 54.667286
-335.196228 908.720581 -116.271790
-252.701965 941.086792 -120.848839
-118.111214 1046.453735 -167.383408
-402.099365 789.857666 -20.360559
-295.932678 752.278870 113.229065
-181.319122 1022.533020 -173.338333
28.879093 994.445679 -16.763466
-106.622261 959.453247 -59.648739
-175.523575 884.741150 -9.545802
-141.870636 841.786621 24.617996
-143.089798 894.737183 3.898142
-62.165031 1053.094849 -151.371704
-98.445511 945.560913 -75.802956
-286.494568 744.145813 106.225998
-424.853668 876.664917 -115.697289
1.834997 976.553101 -11.330713
-256.806976 797.346741 60.142193
-215.484207 800.345459 70.556969
-137.630020 1021.614868 -181.511581
-323.919495 945.613770 -166.749344
-19.320827 928.403076 9.762491
-232.414703 1019.041809 -229.783508
-224.550629 1042.822388 -236.479874
-222.032043 942.321289 -96.561546
-319.445923 758.755493 67.351532
-228.839111 846.022217 24.093433
-253.003510 798.507080 51.890106
-385.621246 850.990784 -86.265587
-218.542694 1040.627930 -202.781509
-264.750580 906.546082 -90.028297
-39.113796 954.772156 -41.539833
-107.612366 1011.827332 -125.481461
-221.094131 822.726624 47.746830
-309.838562 748.740723 119.069077
