ply
format ascii 1.0
element vertex 1411
property float x
property float y
property float z
end_header
526.561035 549.183105 -313.489380
808.019653 539.695984 -159.505585
652.802734 538.132507 -299.606659
882.519470 538.196655 -79.584213
853.139954 484.373199 -281.586548
658.525940 502.834320 -370.518372
759.288025 524.537903 -198.741104
805.618652 514.256531 -236.083099
887.012756 390.333191 -393.008820
802.505981 459.384796 -453.669067
639.216736 573.836487 -198.346771
722.855347 544.740601 -160.200577
648.858887 527.469910 -294.721344
740.377686 490.825653 -359.179871
855.782288 476.857056 -343.340210
764.928040 537.865417 -172.759186
852.727478 520.494568 -185.323517
638.625854 528.803589 -354.577087
855.249939 493.338013 -155.739548
542.101196 520.904175 -368.819427
877.928467 510.303589 -184.718918
697.258667 513.187317 -316.714569
980.355408 467.032837 -251.710342
728.476990 540.441772 -207.708176
690.394348 470.771362 -443.188477
813.498474 490.531311 -322.960022
604.273071 481.103027 -449.822632
641.076721 491.442963 -473.884857
652.639343 525.559631 -344.822235
840.530579 475.840454 -384.152069
580.680603 494.422394 -397.020630
994.151672 470.809296 -316.189392
987.544067 473.074036 -235.981689
528.943298 511.995636 -405.882629
782.681213 545.709778 -88.235489
700.594055 546.819580 -206.469681
864.507935 441.316589 -406.637756
978.252808 473.661530 -228.920029
933.373657 515.956665 -117.185684
586.453247 537.037109 -261.275574
779.566162 547.361328 -113.087990
697.922058 471.022980 -416.525848
900.894409 469.255737 -331.343842
752.195862 487.389984 -479.575714
724.667969 532.679626 -254.703384
738.709473 513.397217 -313.746460
789.249878 532.587585 -149.273407
596.816467 499.977539 -435.689423
562.606201 507.329590 -434.579956
874.336304 495.742279 -122.460899
489.224457 546.591919 -374.602417
795.633362 544.034546 -140.047913
728.876587 480.494812 -430.824554
579.843323 564.704102 -222.819077
910.223328 495.287415 -193.009537
1004.756714 481.349579 -288.182251
880.957520 440.050385 -398.117157
693.226807 486.348541 -434.039795
601.055359 520.395752 -353.529205
873.742493 459.675262 -364.886230
722.372314 499.851501 -349.655487
563.358337 504.911530 -440.919830
604.765503 499.754669 -428.904541
723.562073 517.818359 -323.632050
591.443359 515.568176 -376.756134
665.681274 555.906738 -191.205643
716.884827 468.609833 -453.772064
928.705688 501.981384 -135.692322
811.129456 424.202820 -455.590576
766.410034 487.972473 -373.526489
775.037720 514.965881 -270.449677
832.763000 465.155640 -422.583191
614.072815 557.302917 -207.700684
536.931763 538.730347 -304.566895
724.394836 525.118469 -276.082031
735.555847 527.918884 -228.520096
841.622498 489.199615 -302.970428
873.648987 476.886810 -336.862488
696.870972 501.441223 -343.101440
765.580811 482.379913 -355.638733
752.434875 521.378113 -230.835434
826.243347 544.095764 -54.648060
639.211365 572.331726 -198.028625
925.650330 433.078583 -376.825195
648.609497 490.242737 -460.371277
857.966492 451.786499 -405.699738
978.621216 483.650024 -334.026031
740.701843 473.381165 -414.909058
893.216431 480.625702 -320.114105
659.480042 489.023132 -483.291382
696.694153 552.659668 -169.509460
590.206421 503.476074 -462.578278
742.477173 529.870056 -238.737595
717.848145 555.250244 -172.673141
673.195740 566.699951 -185.691635
637.812744 528.812500 -306.609344
922.272583 491.560028 -221.852234
507.226563 536.292786 -379.232086
562.735962 516.654785 -368.722809
577.855896 510.054749 -416.944031
762.707764 477.299225 -459.621155
775.249390 542.801697 -101.372002
905.656494 407.458923 -376.900391
813.653015 506.686859 -172.218918
876.334045 451.481720 -389.886230
650.489502 540.172729 -242.237518
843.349182 523.173828 -155.936234
983.306641 474.623383 -232.652161
751.836304 527.659668 -248.026917
861.750427 540.610962 -87.640381
846.210205 484.898804 -315.834747
943.179138 455.197052 -372.301300
793.060669 487.822784 -320.442139
912.314453 476.295319 -307.079834
614.113098 534.826294 -287.964691
913.870911 447.878632 -378.606750
816.902893 456.270081 -449.049896
819.076965 505.951538 -231.666565
856.049072 464.237610 -386.710358
630.767700 561.876953 -194.487000
749.015198 542.768738 -176.832230
849.769165 543.125916 -71.804893
804.563721 503.993042 -281.442383
720.978455 498.020844 -333.577850
949.974915 474.821625 -243.101105
478.394257 567.564880 -304.490662
749.873413 464.951294 -501.865723
578.009644 569.302795 -246.212051
952.190796 475.219513 -273.072632
901.154175 456.887390 -323.982666
778.766113 485.257202 -371.847107
780.946716 492.876190 -311.302948
849.899170 538.073608 -86.569458
613.748718 543.314148 -265.608429
796.361877 552.450256 -120.590492
830.699585 541.843811 -81.620087
937.988708 507.475433 -149.717041
735.031311 537.217346 -190.493057
758.680298 560.294739 -104.481018
772.679871 543.118408 -110.101883
801.509766 544.521301 -55.446980
630.768127 540.435120 -241.365311
541.402649 510.256592 -388.756500
763.856506 554.288513 -137.843796
752.164246 546.770996 -155.616699
854.930298 527.597900 -95.849518
838.503601 547.252869 -84.449715
853.238403 417.044128 -419.461212
816.049316 470.855713 -356.903473
936.569885 503.083771 -162.033905
785.477844 536.060303 -113.675697
743.827515 489.529388 -373.002960
993.917908 480.334869 -320.049683
843.944092 496.115326 -242.456482
473.675079 558.698181 -312.627533
583.706360 501.840363 -499.648041
802.779785 478.301239 -418.314697
881.531860 504.018005 -202.983459
749.343384 509.321594 -318.587189
753.960999 559.354065 -106.514992
495.523468 571.364075 -292.579742
962.088806 469.826691 -264.640289
836.017029 530.123047 -154.827377
767.342224 528.898193 -205.536606
956.711853 486.578430 -186.367035
815.951172 494.394775 -283.593903
886.347595 532.754517 -84.279503
745.223999 551.176086 -105.728012
484.668701 551.442871 -322.817841
942.971375 454.963287 -360.871857
535.967224 531.000305 -419.185181
770.593750 392.671600 -461.700714
866.843689 533.210876 -99.494530
758.358826 507.288910 -264.213654
957.499390 462.235535 -219.390213
845.107300 550.445862 -51.582867
571.962646 564.830994 -271.765717
514.622803 538.379395 -349.113556
845.619690 508.657928 -194.142899
948.497009 481.514771 -239.412491
971.417053 474.424438 -253.079483
833.577515 556.457092 -55.331802
804.750610 544.090942 -97.121269
829.073181 467.797211 -332.021729
635.904358 477.789886 -438.713806
806.917419 516.608521 -233.870087
787.829834 500.945496 -205.786331
636.608398 504.972351 -442.389587
920.829590 472.911743 -183.189453
628.110596 537.805176 -279.285095
911.663757 408.428436 -367.984344
856.500732 499.708191 -250.747910
641.489197 523.146973 -355.126007
723.327209 557.983521 -138.125687
709.348816 494.433228 -400.022583
781.948853 423.476746 -482.136597
610.485596 545.030762 -250.626419
632.142700 509.086426 -436.800781
885.142578 514.700867 -127.598022
618.170837 577.489136 -187.618027
863.372742 478.830994 -366.553253
928.066101 504.779175 -187.221588
766.374695 490.621674 -468.302795
818.583618 521.198669 -169.162216
837.119080 403.124207 -416.376099
668.286560 499.760712 -549.914551
543.825928 547.817017 -365.099945
806.532349 494.883270 -280.690796
751.318054 541.593140 -96.811958
602.063110 537.866272 -290.136536
772.972778 505.739380 -294.588104
739.489624 486.102264 -375.856384
856.192993 467.563354 -327.096527
818.342529 461.671631 -379.031342
852.545471 416.359009 -430.764465
899.765625 510.641815 -169.202515
695.188660 488.557800 -427.991058
914.710999 455.346649 -363.921143
811.102722 486.075104 -310.092499
677.337463 574.957092 -145.592514
641.027710 500.985474 -358.422485
791.944031 521.421326 -231.948761
945.959167 457.133087 -244.891159
847.132385 485.015228 -288.436005
809.282898 495.251221 -262.401550
986.018188 460.540771 -259.297913
568.272217 524.167847 -260.173859
842.116577 555.329285 -38.882736
977.942810 475.518616 -348.241333
584.206238 567.616089 -263.513855
898.119385 485.897858 -239.822861
802.161011 412.367889 -453.067963
670.515991 496.895813 -357.415375
679.703186 562.505737 -171.779083
617.583374 522.040894 -358.971130
623.952209 528.480103 -375.287018
626.441284 504.419678 -581.793091
719.916626 560.986328 -122.650330
656.236206 561.651123 -205.614975
769.565674 442.378967 -475.614960
474.908691 541.315735 -325.185120
837.283142 496.685150 -291.539185
923.894958 437.853058 -383.171387
830.143738 418.611664 -439.292053
881.722229 524.417786 -136.193985
815.293457 556.779846 -67.615166
858.929626 412.059570 -418.340881
702.762878 544.778748 -240.407120
834.509033 474.387909 -402.334106
682.807556 541.902283 -176.230850
612.700317 556.746521 -276.792389
668.557251 536.239929 -249.824860
679.578674 477.154388 -461.920776
626.654846 562.704529 -203.230804
795.617981 525.779175 -128.119202
705.202026 542.221130 -237.485657
593.496277 527.572693 -337.473267
885.041138 479.524353 -186.352020
812.406677 445.930176 -446.778900
642.927856 507.465912 -409.364716
812.646729 551.697693 -49.571392
822.101379 488.725891 -299.908966
461.509125 572.966309 -302.361145
808.705139 506.722687 -236.093658
700.003052 509.517426 -289.394409
547.462036 512.314209 -417.297699
606.220703 532.552490 -355.513733
824.901245 522.897461 -176.067093
1021.044800 467.403931 -240.456970
967.035950 467.399780 -200.320267
518.000916 531.028992 -373.635864
646.643921 520.835938 -313.669861
538.648438 561.440430 -260.283691
899.651123 401.763306 -390.740753
748.344604 540.327087 -213.844772
899.807434 462.846558 -286.593933
939.540955 496.189575 -197.896149
751.122559 470.455322 -381.992706
717.080078 559.120300 -145.913727
608.718384 556.486389 -186.732071
886.705017 516.273499 -150.089035
615.147522 522.384216 -309.328552
875.105652 531.432495 -79.762062
755.560120 518.678894 -276.911316
760.987122 537.677246 -158.803741
885.419373 440.656189 -384.361786
889.851501 411.693695 -400.869385
518.734497 526.110291 -407.008942
584.099182 525.540955 -348.149933
571.287048 571.473694 -246.557526
702.498474 540.681824 -257.244171
567.953308 556.629150 -256.351288
751.600647 558.583618 -101.624168
780.740662 498.477448 -288.662567
684.533203 497.261292 -409.626221
787.259094 516.440308 -226.137573
825.268677 485.555725 -300.560852
661.113281 523.133301 -291.799133
801.268188 482.582916 -312.358337
576.181213 532.680542 -385.300598
634.868530 483.895935 -513.437317
668.461792 554.740845 -234.645645
761.051636 504.012146 -285.295166
819.902771 544.042908 -58.462822
655.832825 506.484467 -358.019653
684.586182 510.236511 -322.444427
771.617126 547.557251 -155.713516
640.988708 534.487610 -319.049500
663.279480 515.705872 -330.940094
774.819824 485.146729 -279.029205
796.977417 524.947327 -177.759766
739.903381 525.379517 -244.189774
585.219849 508.688202 -456.907867
918.773743 495.519043 -199.988724
904.439453 455.857819 -312.887665
851.484558 486.134979 -284.253143
691.616394 553.344482 -203.604050
578.987122 509.850525 -413.113007
835.695435 548.381409 -71.136223
769.454956 534.683167 -186.324371
804.936157 439.776794 -452.682648
711.337952 530.937256 -277.162689
1043.561646 476.222137 -264.950317
717.896912 462.619263 -477.475891
716.743042 498.315155 -336.360657
773.362122 502.916260 -266.950592
835.085693 539.421570 -123.813087
915.113403 495.502869 -234.963211
961.215393 467.879913 -253.041733
952.511169 495.327972 -178.752289
828.779358 478.126434 -425.309509
870.172852 470.399109 -387.859772
582.182312 545.781006 -272.156952
736.287537 496.753632 -335.217377
701.099182 482.393555 -364.969971
882.010437 541.414795 -71.972557
721.608093 543.396851 -200.833496
957.467407 463.385529 -366.032898
774.503052 442.787872 -481.091705
754.914551 478.813080 -484.746155
491.652740 552.673706 -322.786285
824.957947 520.149048 -167.310654
872.252258 471.049225 -332.433441
870.683899 431.661957 -400.965302
949.219910 489.798645 -171.911179
511.295593 568.827698 -272.220795
608.841797 540.589600 -339.967041
626.123474 552.982178 -277.934784
637.509277 547.765564 -233.671326
948.214722 439.071259 -355.283234
940.340271 490.768646 -199.010742
457.880463 580.715698 -305.015350
908.599670 504.744354 -105.897148
541.745056 565.419006 -306.071777
694.269470 529.350586 -261.015259
855.620728 423.150940 -415.259979
526.397034 544.303528 -343.659027
743.126892 481.754120 -393.722412
657.228088 527.780884 -332.285248
558.015381 517.997253 -355.868622
861.470459 549.445190 -55.219833
641.081360 544.726990 -245.448959
899.639709 528.649597 -78.938477
708.612427 566.355835 -152.269882
822.497681 505.184753 -138.277359
909.553650 402.657959 -381.619659
533.224548 561.439331 -326.467621
574.023682 561.975647 -230.991287
811.870178 509.163361 -256.628906
804.130859 429.223602 -461.712952
701.018433 541.249451 -213.338577
554.980408 565.543518 -256.718475
865.564697 534.725220 -70.710327
920.533691 496.962555 -144.951065
715.289429 558.040833 -126.352707
766.497437 439.785828 -483.212891
605.340210 550.991699 -229.265167
911.998230 493.127960 -241.062454
598.411438 564.233887 -246.439758
718.915100 535.074097 -223.143143
853.138794 528.577637 -147.998062
751.531067 551.451538 -132.342972
738.726074 491.169098 -518.259338
812.911926 534.049194 -102.731377
785.927979 536.495544 -159.168915
726.262512 490.428589 -356.211884
793.382874 559.718201 -70.994301
909.444275 409.568390 -384.850861
839.608826 483.135162 -329.936432
971.605896 471.075775 -231.407700
904.334839 517.504272 -144.685913
755.628174 503.228333 -334.746246
881.040955 462.551910 -383.519501
535.921936 540.313293 -346.145844
511.694305 552.457153 -375.704132
668.160706 502.764496 -381.224182
844.783630 513.566101 -209.732147
615.991272 505.648041 -360.309662
499.975708 537.026123 -363.766724
746.759583 503.197357 -291.170532
843.556152 553.369934 -52.837963
742.071106 482.998932 -406.687317
515.633972 566.200256 -290.603180
746.794678 526.198059 -226.098907
636.173401 498.618256 -404.019104
667.746033 555.157532 -227.532913
819.085632 520.436035 -215.415665
782.744873 499.703522 -270.887268
983.345520 492.964447 -215.440598
793.096069 545.615784 -109.821991
794.434570 522.098938 -235.004440
581.001038 499.862640 -412.646637
807.805542 533.178406 -72.074326
924.777222 419.569305 -373.995087
528.542053 514.442627 -429.224121
748.901489 490.605804 -333.795410
769.469299 537.675171 -125.427559
736.395447 542.896362 -174.749985
811.434570 534.340332 -157.569992
710.310913 497.080627 -521.327209
863.017090 525.825623 -96.736160
967.195007 483.456238 -210.737213
732.783752 553.340515 -141.544052
845.475403 538.878601 -102.398270
767.821777 550.077576 -157.084534
463.600372 570.885315 -305.897522
922.396301 505.220337 -148.757095
491.360138 583.247009 -286.422821
685.045776 531.295593 -296.196899
817.644531 470.395721 -359.991089
919.518921 415.835754 -383.813202
673.465515 545.572571 -157.095062
654.679871 537.924316 -259.518433
630.972839 472.950073 -452.096588
635.078308 533.952332 -297.347473
617.864990 544.119751 -248.829849
877.174316 531.811523 -111.930901
738.148254 499.109192 -301.715118
894.369873 501.595032 -143.844803
806.044983 479.485016 -339.451904
692.905579 551.562073 -180.485992
787.573547 521.547729 -234.894440
514.638672 523.111145 -395.794434
865.380188 513.267944 -94.442368
775.093079 547.633545 -152.118256
720.750549 493.910614 -349.732574
872.761780 528.251038 -125.839272
804.265259 498.817230 -261.226501
932.009399 429.125122 -369.876373
765.974487 498.421051 -291.206085
508.132233 534.725647 -334.443298
887.521912 521.588074 -124.101555
857.890625 542.251892 -45.106625
799.605225 413.500458 -467.400238
852.032043 488.291595 -275.630981
577.275146 538.335571 -382.603851
606.460571 487.802917 -425.014099
741.731567 529.027527 -264.279175
920.349182 434.625061 -377.164856
897.071533 400.870361 -401.245819
944.847046 489.992065 -142.914444
629.124207 554.877258 -220.618607
812.589783 392.152161 -449.160583
783.507690 509.544342 -251.601913
703.595825 507.759308 -322.656433
551.506592 569.667297 -285.796082
718.195251 545.522156 -219.342316
465.124329 565.946533 -318.792572
639.980652 493.868835 -416.758240
866.741211 542.734619 -76.853424
716.089905 558.977783 -127.309929
675.028198 522.585693 -337.229553
816.489929 527.965271 -157.239685
805.093506 434.559265 -464.378571
832.526123 508.924744 -203.976807
692.374878 549.774780 -229.161331
844.509705 496.941223 -283.355774
889.218933 456.749664 -312.697174
796.125793 539.888794 -100.051575
621.761475 518.765503 -317.389252
618.420044 523.263245 -275.036438
824.711670 384.542236 -422.901978
633.127380 551.302612 -208.669983
600.761658 547.821960 -320.026764
851.772583 502.293396 -261.071594
807.075684 475.670166 -396.820465
899.273987 524.417175 -122.299805
652.275818 509.692261 -333.552277
802.868591 511.355011 -249.213821
744.020203 455.629822 -502.898468
844.612671 495.113892 -261.112091
773.035767 478.618134 -363.536621
839.444153 464.348938 -405.875610
675.936951 511.691803 -375.468628
844.579712 559.692200 -31.185276
565.390259 531.001831 -353.960907
681.150574 494.326996 -400.578705
815.342651 528.267578 -117.219856
708.821777 501.928650 -380.354675
910.803284 499.623993 -193.079025
538.678833 547.506042 -341.944427
642.296448 493.230316 -466.316864
574.685242 560.424927 -281.715790
745.997131 551.843567 -114.053795
952.109680 468.027924 -369.731842
600.933594 522.117432 -354.363342
502.437225 523.379578 -378.448212
605.837402 517.246704 -365.584045
823.845581 479.078674 -357.965057
989.279785 466.120422 -235.395096
621.494629 505.321075 -337.302490
867.835144 446.314484 -411.224487
744.490356 549.595520 -178.477386
869.332825 508.229034 -63.525063
706.160034 517.563477 -291.999817
554.567017 559.089600 -261.992920
596.427856 533.141235 -384.532898
917.938110 412.079376 -387.234375
651.896790 513.549805 -379.528290
618.482727 554.297363 -215.853424
760.126892 556.529968 -126.232399
740.054810 494.233917 -354.964203
914.431274 511.857849 -146.859329
628.547852 480.703949 -493.970032
863.387512 473.947083 -323.051361
957.850830 458.798401 -225.004547
707.273560 518.862305 -284.592102
729.429321 475.049408 -421.295654
611.738525 474.541626 -527.885071
876.903564 504.821350 -161.347031
548.436829 531.982971 -307.376648
889.598328 442.898712 -388.918091
890.362000 515.671204 -98.287201
934.603149 504.189484 -148.114929
781.968689 547.663940 -144.865005
734.794739 526.916687 -267.997559
722.357971 488.037506 -386.774872
891.821594 536.023499 -70.501106
656.669495 491.304688 -411.339935
901.068420 484.089722 -234.130234
731.322449 533.126343 -213.951492
929.561768 461.992828 -295.893890
792.901428 422.428314 -472.156708
708.350586 513.629883 -353.321747
778.115906 542.355713 -170.366302
772.092651 534.517151 -163.958618
755.716125 517.336182 -242.843262
972.844788 462.393860 -253.379959
837.553406 480.120636 -333.356934
947.560425 506.588348 -141.482407
845.062073 484.160370 -412.633820
573.208496 526.034546 -411.334473
760.693787 480.511932 -389.626801
838.785645 376.870148 -414.415833
576.755676 543.400085 -293.787048
991.119019 474.126282 -227.393829
858.353577 516.274109 -91.637352
794.065369 422.141205 -461.812225
559.175598 560.491882 -251.866409
903.923340 472.766907 -371.578217
607.668518 557.426270 -217.284302
674.695435 488.368317 -458.303406
528.779358 574.504272 -252.163895
755.739014 540.885376 -173.315598
817.463501 543.824951 -100.929268
690.356873 532.411255 -236.159454
778.383667 502.910522 -324.105042
735.706360 553.898926 -130.134155
866.360352 545.804443 -63.360355
822.325867 494.180206 -253.586029
747.544067 479.172882 -385.810028
840.503784 478.012787 -404.133057
931.626465 492.423645 -181.649353
874.759277 509.512451 -133.225449
967.595093 487.809143 -208.877441
656.389160 554.531494 -177.777939
739.497559 505.283997 -297.520081
902.309021 489.626678 -184.573807
648.568237 490.492462 -418.710297
890.304321 516.358276 -116.866043
658.222900 542.372498 -288.004639
724.041260 512.843323 -323.618683
776.045471 437.208374 -488.125763
722.376099 512.702881 -303.782776
871.297058 533.877625 -114.073853
831.004028 448.531372 -439.420349
603.491943 489.973541 -499.239807
859.885559 519.411499 -165.957718
540.590820 526.065491 -379.724792
864.780823 529.332458 -141.417023
907.280823 494.660645 -246.845963
711.157837 521.596069 -203.812408
549.038147 558.129456 -311.487793
578.382019 533.618347 -326.427612
732.440125 530.670959 -210.283035
733.581787 499.909393 -343.203278
683.863525 507.670929 -307.009705
782.497559 510.286713 -228.684448
801.497620 535.621338 -174.917297
529.402161 530.254456 -325.584320
900.276367 522.426392 -98.742012
646.992859 543.157043 -293.453552
911.771301 486.888702 -138.837738
790.584839 504.163666 -286.480774
758.170837 476.778015 -432.258636
837.215759 464.668915 -419.328369
789.221313 504.860016 -272.185669
893.229797 515.441223 -148.342377
830.313965 401.412292 -434.535645
559.445496 556.360779 -310.214996
888.077026 457.788391 -395.513123
475.084717 555.335266 -323.503448
813.914795 426.956909 -444.253662
654.214050 496.022705 -399.013824
565.964966 552.303894 -269.062317
784.474609 510.313934 -279.103790
853.946472 492.088226 -254.311279
829.973206 440.783875 -441.989838
705.244812 510.558258 -304.228241
693.570313 558.934021 -163.472610
677.830444 518.479309 -246.617920
735.509949 564.174744 -103.973427
595.740112 535.196289 -306.221252
517.770203 559.055420 -340.765717
660.650085 485.593933 -527.994995
736.092468 503.741730 -352.730103
893.171143 467.995819 -341.296143
814.410278 489.072388 -328.078003
870.982300 469.415344 -302.242096
718.747803 515.860352 -217.529907
800.757935 474.582794 -338.190277
790.382629 483.142822 -369.125946
813.409729 444.864899 -458.664459
776.147827 466.530609 -463.128876
722.376892 510.354675 -312.976593
606.057678 551.946167 -248.397781
638.436584 537.897644 -267.904999
653.672791 560.910339 -167.318405
796.226563 538.988281 -100.136528
503.923065 565.429199 -338.785278
865.237366 536.590576 -80.749680
770.346985 524.637451 -136.259293
687.639954 497.747223 -428.041992
616.350098 488.670990 -450.059021
848.909546 514.097290 -151.369751
513.379761 537.552490 -321.649323
810.943176 459.821381 -419.178040
586.523621 540.282654 -298.479675
834.971741 523.289551 -86.966988
767.933533 467.782745 -424.551331
592.248352 527.509766 -364.553894
854.478394 503.095276 -244.487305
687.150940 529.566650 -244.104797
842.146118 424.024841 -417.049011
858.563782 515.813599 -207.817291
716.823242 529.355896 -217.934113
913.786377 493.842560 -196.399673
776.641174 399.457031 -459.714020
961.888794 474.525726 -284.662903
589.804565 544.733704 -270.105957
743.885071 487.448334 -366.599274
913.577637 465.403992 -280.808960
874.113831 390.702057 -405.416168
749.867798 567.093140 -104.074638
824.209045 363.860535 -419.521759
905.083008 512.266174 -139.729599
768.146301 541.067139 -82.205795
791.334229 560.534668 -85.295570
741.589233 527.371277 -223.283585
490.845886 552.450073 -370.108734
871.557739 515.454590 -198.473190
950.795349 475.661743 -208.268860
895.491272 392.224823 -386.867188
647.470215 555.523071 -203.519882
927.899902 469.879608 -242.074356
628.288513 545.488831 -299.987732
897.434204 447.476227 -387.035583
649.337646 561.361267 -167.583862
913.283997 483.538513 -197.040359
849.935608 482.402466 -314.954193
858.904419 458.128326 -410.938995
672.136963 480.195343 -503.256165
810.750427 493.202454 -294.127228
883.442444 397.863556 -399.328217
822.900330 495.445404 -295.862366
814.734375 553.930115 -49.993408
634.649780 563.088989 -192.411423
576.714050 496.598267 -464.329468
597.231445 540.146606 -295.752960
662.547241 477.365723 -400.556427
870.799133 489.117157 -274.451141
645.288635 528.606201 -334.131653
724.594971 507.307465 -218.890717
614.936829 543.678284 -258.474823
702.002686 462.157776 -465.403961
620.767273 478.380310 -506.216309
720.001465 524.366638 -301.759644
672.076416 550.570496 -163.141953
956.782410 482.082275 -217.744080
682.336365 567.418274 -138.660736
555.270325 536.709778 -299.679932
913.830566 404.664856 -382.039032
680.433228 526.010986 -323.817657
841.785706 550.685730 -55.421959
762.089539 496.107056 -313.906738
647.104614 481.018524 -492.649567
825.778320 470.428284 -391.399658
950.131470 480.298035 -226.425186
660.961792 470.502594 -428.023712
758.634155 547.657959 -146.237930
833.478516 510.459106 -185.749802
715.331787 491.741455 -371.840515
771.999634 497.820160 -315.765594
598.131592 534.824158 -329.325409
735.305664 536.518921 -188.022446
667.429749 497.993835 -420.958160
493.995728 558.810852 -307.222015
875.962891 516.535522 -185.841690
746.666199 485.485168 -400.758514
780.775940 496.902771 -307.470856
786.241760 531.225708 -187.456787
633.901062 498.426544 -466.653748
544.003418 569.699341 -292.307739
906.562744 490.866180 -222.396439
680.700623 542.703552 -268.323639
744.803345 479.061523 -372.644714
741.778381 538.513550 -131.135315
678.394958 487.024567 -483.086639
788.585022 525.617798 -183.771378
567.971069 531.704163 -349.749908
732.315125 517.271973 -274.718262
862.454285 570.499634 -25.391487
874.310669 441.729004 -405.417755
850.907654 410.995819 -421.127167
898.893311 535.225891 -82.211212
865.151184 502.919373 -148.857666
633.164978 538.590210 -270.947876
465.493805 553.925964 -343.694122
566.186279 517.235229 -451.113281
735.802612 483.377869 -459.590088
859.348267 470.648621 -369.140747
642.602234 547.388733 -215.551147
654.229126 506.091675 -307.569519
903.141602 520.847839 -132.978439
798.651123 438.603027 -438.391632
949.950378 502.048798 -152.367661
860.149658 532.084595 -128.377899
888.459961 387.688812 -390.021637
773.408508 554.929077 -125.685051
922.653198 506.406769 -173.439713
904.691040 483.236786 -383.387421
911.160278 499.969543 -202.750732
932.978149 486.921997 -219.582642
807.768127 455.501892 -451.303040
815.034119 519.007202 -233.202820
625.238831 473.455292 -520.375610
566.046082 575.785278 -222.926117
575.196472 515.590820 -326.427338
771.942078 509.691833 -291.082916
948.514587 493.511963 -188.102921
772.289124 506.644318 -303.656738
612.181274 519.859863 -348.923401
686.834106 486.998871 -406.184326
887.986511 506.650757 -132.887024
707.893005 530.346985 -231.418091
548.813599 565.080933 -288.802765
770.264160 545.591309 -170.044922
562.685974 546.231262 -346.288025
713.796509 521.390991 -307.564667
607.331055 553.460632 -217.286865
850.704407 507.215729 -244.777679
617.889160 567.726257 -234.517883
793.270935 459.055786 -379.543396
832.102173 556.810364 -37.289906
781.124878 521.088562 -227.992172
865.750305 476.146210 -306.643433
873.486694 493.533081 -157.942535
619.045166 570.345398 -228.143341
892.040039 495.070465 -205.651184
982.861206 464.105804 -236.623840
671.919556 486.596802 -415.177856
916.876099 493.354065 -195.425812
802.594421 479.542511 -430.643402
940.588562 495.061035 -377.543060
819.464294 559.920715 -50.934654
897.232788 467.027863 -346.811768
858.006348 453.222229 -352.126282
796.512146 547.158020 -82.367569
844.553406 425.264771 -411.447662
738.141663 501.975830 -291.721008
877.576965 464.809998 -390.249268
599.377136 490.764954 -395.750000
828.602356 508.551605 -155.069763
758.699890 498.759552 -352.379181
839.145996 528.639343 -174.847290
544.127380 560.134949 -263.863495
818.203613 516.868164 -217.525436
804.473938 534.318176 -70.078758
653.686096 553.608643 -223.622681
722.208130 547.448486 -207.963547
727.240845 474.578827 -405.443024
591.033386 529.176025 -288.487640
879.640076 433.101166 -401.609741
963.516235 462.241547 -214.050934
802.396851 528.898315 -149.659760
906.272705 466.298462 -349.374115
856.299316 527.439087 -108.695175
931.088928 502.131561 -184.272263
880.993774 423.924591 -386.665619
857.078186 500.030609 -160.386414
630.116943 494.152679 -421.626221
822.146851 473.576385 -434.952850
637.883301 483.574432 -518.345032
643.170105 511.168976 -414.719208
944.567200 450.548065 -284.207092
711.288940 482.385132 -397.367554
919.330994 453.588593 -390.508362
728.412964 542.872925 -147.076477
685.290894 546.921204 -182.302444
587.610229 513.536316 -394.891479
749.194336 507.670013 -294.986359
588.002686 525.763916 -344.508453
578.432800 477.486603 -483.085327
961.890442 471.496674 -280.313446
906.063110 493.747528 -181.899750
713.715515 532.567139 -256.358765
547.192871 555.390259 -340.590149
972.650574 466.509430 -282.538330
673.121887 501.286224 -409.030792
926.333801 509.137573 -163.063858
808.089844 455.482941 -447.890839
816.386536 520.787109 -189.477951
902.684082 483.554382 -247.175522
478.817261 555.394470 -320.500183
530.224854 539.873779 -334.791046
556.699890 565.293335 -281.038544
666.095398 539.215759 -288.417938
891.754761 480.720520 -194.418060
639.867554 526.865906 -343.852814
764.434265 550.133118 -130.969742
891.739990 498.236420 -92.850471
924.825012 499.884247 -207.708984
545.450439 522.924133 -395.773560
711.501892 518.237305 -292.886169
797.126038 522.761536 -198.620926
846.306946 448.427765 -421.790588
671.000244 531.921082 -311.562439
765.822266 450.548035 -490.715424
747.326294 465.323700 -400.487244
488.495056 548.312683 -344.614197
585.498596 557.614746 -222.550842
924.571472 407.176819 -361.412537
843.322998 420.792297 -425.467163
534.087891 581.292297 -247.525421
848.025757 516.346008 -131.274170
800.536926 490.156372 -221.709183
800.318909 444.148254 -435.087067
765.601807 542.459717 -123.340530
862.117493 492.248444 -267.435150
960.291565 470.304169 -245.033615
749.223450 511.822083 -275.127197
716.454041 504.217194 -370.751404
900.046387 522.777161 -114.467201
1036.620117 480.272034 -282.029419
772.743896 508.135345 -264.608521
565.686523 536.748352 -323.033386
532.265747 554.488892 -281.935883
639.059448 509.619537 -405.518341
741.677795 522.007690 -219.686447
490.238464 577.897705 -280.780823
658.766418 527.702209 -286.054749
608.016296 523.427124 -258.516815
946.508057 490.528809 -161.817169
730.981750 502.843842 -305.337524
877.842896 540.765320 -70.507584
723.962402 560.328064 -124.277336
588.784607 563.283630 -226.514053
925.825928 506.865295 -136.821457
648.255798 532.162354 -215.676636
712.498962 544.883118 -183.824188
887.708984 518.046997 -155.166107
635.859558 537.089661 -275.619873
640.658447 543.703308 -234.736908
850.381348 540.603149 -70.106796
538.385193 530.971802 -417.244629
913.631531 473.813629 -278.118195
578.869568 544.391296 -225.027573
696.813110 531.023438 -236.708313
669.324646 551.473572 -179.667160
805.840698 534.728149 -139.860413
859.663757 532.743958 -138.263931
1010.652100 468.136444 -294.841736
549.541687 530.550232 -416.157349
631.256897 504.983276 -385.549805
907.698730 535.971497 -65.193153
790.404846 499.621826 -332.519165
614.202515 563.073059 -236.402145
816.257935 464.139709 -373.456207
766.205750 535.852173 -163.216110
592.433899 520.467285 -365.245483
755.273193 538.921570 -212.973526
799.024170 562.155640 -55.555828
903.980713 515.543701 -108.424835
855.159790 517.928833 -188.438034
640.949890 479.469177 -485.667267
956.477356 484.495026 -210.243240
957.503113 477.362061 -191.503662
718.092651 536.614014 -218.045135
851.561523 488.301117 -295.831573
627.788757 532.744507 -339.892212
857.524353 470.315857 -396.888458
785.035278 542.372253 -162.966583
899.697327 520.775024 -136.446732
681.916077 515.567993 -225.518341
726.147095 492.747772 -294.316162
926.094666 463.092407 -360.779938
849.455933 481.173981 -372.021790
904.426514 403.853333 -390.451294
679.699524 512.941406 -374.947510
583.316406 558.388550 -226.715530
938.736633 433.598297 -363.696289
680.592712 567.472595 -172.466934
652.884827 514.904480 -300.964142
961.484253 480.252106 -218.371063
588.377136 543.219360 -305.807953
910.233765 479.294312 -184.377853
790.034851 483.537415 -460.991791
834.293701 477.242249 -434.748291
724.252625 538.555298 -189.561310
832.227173 423.863068 -430.421997
670.048950 531.173157 -161.400223
456.420776 584.481201 -302.570313
729.150330 487.129547 -404.854492
810.602478 384.385956 -436.287476
838.239746 551.911438 -50.978207
626.882141 531.405579 -303.895569
747.966614 548.173035 -182.163208
826.595154 511.296295 -252.453781
809.692627 511.136169 -250.045685
681.589172 533.998901 -252.368088
605.275330 544.602539 -256.292664
901.654297 507.984192 -105.524269
784.153625 541.566895 -170.638382
689.174377 472.016418 -449.655396
763.811340 499.098053 -498.265533
624.433655 552.716187 -227.746368
841.457336 507.887421 -219.529861
802.134338 542.368469 -144.626984
667.277466 483.726257 -500.194031
547.661072 555.948914 -278.353821
887.959839 482.277588 -290.741058
941.528992 494.479523 -151.073181
808.568542 514.251160 -243.689285
699.098389 545.773865 -229.485443
950.785156 454.661835 -356.754608
721.772034 497.844269 -522.414001
612.546692 515.115845 -367.182404
556.237976 541.455872 -322.228973
958.107727 480.446106 -316.402954
618.717285 519.285889 -363.054718
988.851685 473.870728 -229.753983
772.057861 469.099487 -347.938141
730.714050 557.667725 -131.753693
875.489014 537.544250 -99.607460
795.182007 508.152222 -236.500168
714.328918 516.404175 -318.011505
764.040649 544.164063 -115.562973
871.718140 458.147064 -398.901642
490.113953 580.514526 -293.506073
592.319214 481.874237 -456.496216
944.374146 489.665741 -346.997864
827.170166 538.317017 -43.963326
592.792603 501.142914 -466.848389
853.038635 538.926697 -58.696304
497.716064 556.442810 -306.027008
817.387634 543.419128 -126.609062
611.634583 537.866089 -288.949951
724.446411 520.385010 -198.755692
779.822510 460.714478 -394.473785
688.854187 536.679565 -238.163284
865.895630 378.781891 -400.073792
769.843994 529.182983 -119.632568
796.759766 526.428040 -197.278702
830.874084 560.109863 -43.198643
979.868835 498.890961 -356.267517
496.540985 559.847961 -321.553833
824.916199 506.634674 -199.269913
545.622375 543.127869 -270.360107
847.078613 542.724731 -83.948524
839.793823 530.649109 -146.303009
850.867310 555.626709 -39.958614
815.187805 507.019958 -260.765747
618.968445 519.468506 -395.153595
519.021057 558.603760 -351.538757
818.401306 471.593018 -379.124878
563.771423 488.600922 -425.811676
791.350830 478.321411 -456.159821
691.591309 556.072815 -195.113510
743.274292 523.004028 -240.309647
855.443787 483.271790 -319.954102
919.951782 492.638580 -194.153992
621.266479 520.686584 -336.552063
828.471191 471.608978 -355.815186
670.127991 490.213654 -443.033478
910.223083 466.450317 -302.318970
978.684143 468.149750 -311.941589
727.111206 526.966614 -274.790222
850.318298 485.696930 -282.506989
807.521362 553.611267 -64.728722
875.472046 533.770996 -101.297531
623.917114 512.338135 -338.695221
983.477234 486.218567 -318.826477
781.719055 508.168518 -243.298737
549.960327 518.061035 -402.734924
879.375366 427.369385 -400.348633
868.427917 505.441895 -222.903473
742.547607 540.723755 -183.069519
788.212524 485.491608 -444.930450
815.883057 404.456146 -451.606964
866.896240 515.637756 -120.578949
715.021912 531.960388 -219.058823
781.625671 460.277740 -463.791077
787.314880 494.525482 -302.264008
559.510986 527.388733 -371.944855
858.617249 402.243011 -423.328339
676.063538 537.895691 -236.391449
554.306030 564.786133 -285.039490
851.987122 539.066833 -84.957802
992.689270 463.160248 -320.699738
726.000427 546.054382 -150.030807
689.957642 563.364929 -161.046890
792.919250 463.339478 -439.169250
755.123047 516.852966 -284.488922
845.112061 537.196045 -42.768047
772.649536 476.033630 -404.342041
707.956177 501.034393 -353.153687
792.269226 481.731384 -427.561462
746.277527 519.378906 -278.916504
555.530334 529.475586 -405.470093
653.457642 545.601013 -210.152420
740.304688 468.698853 -441.027344
657.745117 489.365051 -388.330261
893.494019 424.833160 -398.751587
889.564331 504.838348 -219.124893
621.115234 479.499756 -476.316711
709.236755 546.677429 -162.080338
935.197449 462.902374 -303.188263
814.950928 474.961090 -413.779144
739.979980 494.802795 -331.300262
845.548706 526.199524 -150.999039
764.578369 514.801819 -290.395081
634.290405 510.428589 -365.181885
756.124512 523.868286 -270.843750
815.023132 480.224670 -376.965118
745.432007 482.692444 -392.904724
708.068909 524.654175 -271.638123
780.335571 525.671997 -234.932800
673.843750 480.590210 -486.819458
564.783203 534.313599 -332.312866
762.330933 532.279358 -167.173965
609.817688 521.775330 -347.349976
609.313599 501.760742 -411.389435
939.108215 472.345947 -357.482269
885.034851 469.108887 -328.934448
790.103516 512.378113 -232.969070
651.311279 549.004578 -256.745209
640.349487 556.785156 -239.970764
736.142517 561.110474 -106.605064
834.002869 518.525391 -200.193542
578.906982 542.660400 -363.001129
876.757935 484.048950 -264.306519
835.142273 391.313477 -419.531036
793.978210 535.655457 -181.521912
813.628296 535.457214 -111.583862
688.130310 477.309082 -437.345886
715.395935 513.854431 -334.881470
580.083679 497.280914 -489.110870
820.146118 443.438019 -440.666260
909.236694 418.936218 -392.042938
940.259277 438.593750 -359.419250
742.910461 471.129272 -387.063110
948.978271 497.516296 -185.585953
756.348083 482.244110 -376.834473
499.268707 569.674866 -272.980103
838.287415 537.208252 -131.204849
891.534424 505.098419 -134.871140
585.044617 563.008545 -229.822983
685.449036 550.191467 -179.329025
1003.707764 476.350433 -235.413788
642.196777 538.716858 -316.600159
611.933533 551.483948 -239.226288
968.365479 484.819733 -215.153336
750.288086 488.440155 -339.549561
573.236816 575.460327 -222.962936
848.879883 560.026245 -35.021034
786.288513 477.277832 -406.743195
799.305420 460.163635 -393.903015
804.685120 408.889679 -463.519165
694.977539 543.701660 -211.227737
815.017700 554.492676 -73.874138
854.187500 502.717651 -214.689850
837.190735 543.510132 -28.851439
665.155701 493.472107 -368.054077
574.257568 560.888550 -239.880234
584.032166 492.392944 -473.204803
714.118713 477.849884 -390.281006
541.472900 545.887329 -359.687042
869.607544 460.358795 -405.837402
574.029175 536.715210 -372.258240
839.957092 526.293518 -92.142899
711.666992 483.901733 -431.064545
863.412170 539.610901 -52.460686
784.705872 474.784454 -405.427643
681.164917 551.467957 -164.713379
835.294006 552.306763 -76.223083
658.583130 563.135437 -189.927704
651.365906 486.989777 -428.158142
876.235352 403.824890 -399.260345
690.812561 514.370850 -302.442444
714.707703 473.249817 -423.674072
546.656921 525.207275 -388.667664
810.123169 479.238220 -420.684784
581.930115 527.166138 -421.092651
675.504517 483.397064 -461.202942
925.467651 468.681305 -283.549622
924.893677 477.438416 -256.984863
664.072083 528.998962 -285.176086
918.028259 446.331116 -376.526642
674.102112 546.865967 -201.544525
547.219177 522.574280 -344.245117
657.153992 495.676605 -452.603973
887.897034 413.561768 -400.804443
995.825073 475.171753 -277.128265
957.025085 502.845612 -155.138443
918.913391 467.842255 -346.475311
800.422058 542.513672 -132.935425
488.867310 542.200195 -317.526550
634.741089 482.155060 -466.160004
789.872070 509.891632 -171.221390
754.539673 513.995544 -275.550262
735.251709 530.970886 -215.191376
967.244751 466.277100 -359.936218
820.395569 553.976929 -50.502968
606.136475 576.887939 -204.267120
749.310181 516.180115 -306.661743
943.057983 487.229889 -373.524658
846.080994 533.442993 -127.388924
751.173889 554.053650 -116.919395
882.103394 525.321777 -105.525238
667.545349 545.299255 -202.054550
892.990051 478.255157 -368.437256
586.275879 559.924805 -273.421265
673.184509 515.084229 -286.711548
564.100281 567.145996 -235.486343
700.026794 548.125916 -163.588516
572.132935 542.267761 -356.302979
592.907043 570.289978 -250.662140
752.212585 494.909668 -321.459747
859.744263 469.373352 -269.947937
906.177979 478.297974 -266.728058
703.984436 510.876770 -311.723602
621.835571 553.615234 -265.779846
849.646301 440.954285 -421.929474
842.221863 501.115845 -157.393311
841.582031 456.899536 -413.992859
622.361694 487.666626 -467.808228
822.333618 470.957275 -370.254883
902.118225 394.508423 -373.872284
659.949768 489.183563 -415.760101
820.578186 481.098724 -254.766724
693.949158 489.294800 -425.677124
827.342041 441.328400 -429.559296
729.042908 509.021698 -295.265533
989.834473 487.917816 -210.099365
905.794922 497.435913 -186.779083
750.348022 548.570618 -146.385269
605.298828 498.636353 -431.351868
872.786011 539.677917 -65.814873
852.301697 465.944916 -402.317841
805.092285 524.075073 -215.450409
799.229553 506.288361 -280.376831
690.106506 486.961670 -502.064331
773.087646 561.460999 -81.240143
807.622070 537.032166 -104.920975
741.425537 512.489563 -271.597931
901.906250 488.936707 -238.830032
819.611633 421.615540 -440.693268
673.353333 540.702393 -235.187469
889.148682 529.789734 -86.591911
855.118225 489.277039 -288.618408
916.454651 475.807739 -281.574615
723.563843 481.195526 -389.666046
810.864624 485.403503 -373.001892
742.346741 528.378296 -211.501205
897.089966 482.862793 -290.401245
640.687744 499.612000 -397.436798
614.180481 532.027954 -349.803741
644.699768 512.818542 -345.638641
916.549194 481.189117 -282.589752
464.280792 561.943298 -330.419952
519.515564 564.647461 -276.811096
857.712708 496.386566 -225.741150
517.731995 554.656372 -285.698242
660.873230 510.867004 -339.595215
957.663879 483.531708 -220.701340
809.717773 488.209839 -292.151093
624.083008 562.443298 -227.208496
915.803162 511.366211 -122.714622
594.173889 567.367676 -209.149155
860.787720 515.290039 -192.286301
719.242920 542.942261 -173.387268
542.843994 567.449890 -299.089386
624.622375 491.146851 -476.165009
503.630432 588.281372 -297.748016
668.681702 519.027649 -221.587982
943.600098 489.206879 -174.552628
528.012573 550.419128 -373.352295
972.395386 492.138916 -177.852325
969.966309 465.730774 -245.666016
480.887054 577.002136 -284.905426
702.549805 523.015076 -261.392883
673.487305 538.652222 -240.030258
804.680603 534.379211 -125.385948
853.278320 513.888062 -102.414932
673.832336 486.020905 -466.386505
770.773682 556.681213 -93.438187
758.502808 470.574921 -502.528015
876.334534 401.841492 -406.871460
1000.274963 471.704651 -218.917206
743.029297 484.000000 -443.820313
690.044128 530.027588 -243.765350
779.752563 474.560669 -455.360352
823.799194 437.597321 -443.195587
875.345337 397.132721 -388.430328
697.521790 500.579254 -344.670563
563.695740 544.116028 -296.609100
585.388977 522.596985 -408.256165
990.579041 475.694641 -233.639435
612.137634 536.018494 -332.833771
578.815125 508.429413 -456.666077
802.912781 473.370728 -355.533020
881.450256 513.985046 -179.208755
518.716980 543.178406 -346.804260
708.537537 537.835693 -221.058609
776.354553 513.508301 -233.357010
743.869873 502.362793 -351.929962
795.828857 475.203827 -403.247253
693.685913 540.965210 -220.277451
758.111267 539.963318 -146.190292
749.302490 546.590942 -122.323479
687.263123 525.211182 -316.693512
902.747192 510.676727 -189.245087
749.465576 477.354034 -406.224792
684.737976 508.831726 -325.687653
868.322693 511.487885 -137.812958
924.066467 458.923187 -374.533295
860.662964 525.644348 -86.896721
486.622589 565.491821 -334.276978
643.827209 545.271179 -278.928436
642.689453 571.928711 -173.228577
621.968384 543.857361 -314.557129
777.330811 469.557007 -396.748138
861.861145 514.788635 -93.072052
553.751099 563.592590 -266.229614
867.550537 504.851868 -172.817398
722.836792 502.715149 -298.794830
638.597900 563.252319 -187.044006
809.734497 479.513580 -341.996429
837.772156 505.352142 -263.201202
985.280579 479.943542 -222.239151
717.734619 563.216064 -124.452415
930.175415 438.270050 -385.074615
905.536865 476.740204 -373.863739
773.276978 568.345215 -75.194633
894.817322 535.245850 -84.423019
860.226074 547.826416 -67.854385
857.246887 523.437622 -123.099220
613.295837 505.485107 -404.303314
814.243835 532.946167 -119.664909
834.016296 554.849731 -38.172413
700.892639 491.800903 -394.683838
818.707520 496.178497 -299.043854
840.662476 483.439636 -300.131653
811.557190 485.630829 -342.724091
545.997620 528.713623 -423.274170
679.693665 544.788025 -256.596558
858.158936 478.447296 -359.203400
819.673279 512.865051 -202.012238
827.392883 517.436218 -196.858902
794.230286 494.800903 -279.921204
714.117737 543.499146 -230.770493
458.788544 561.210999 -329.046051
860.590149 553.907166 -21.511080
975.728577 482.060089 -338.798309
745.786621 565.562073 -98.381821
595.839722 526.417969 -337.443085
811.240845 516.366150 -230.835907
767.553772 488.444885 -360.025574
723.600525 541.040100 -121.116631
720.318909 535.808350 -258.927612
657.565125 522.359314 -315.731750
759.025024 501.107300 -338.954071
816.348206 514.982117 -173.063232
659.654907 509.026337 -318.361176
890.484924 407.510559 -396.547333
811.315857 483.829224 -299.438843
868.891663 526.383484 -126.430779
887.238953 397.004120 -401.480255
875.863403 496.248871 -205.896683
679.442444 488.691376 -405.429749
882.045898 504.237122 -145.920685
792.206360 510.218140 -272.161499
726.956970 495.399567 -384.410675
879.406494 496.248413 -252.806183
806.790405 543.849182 -92.760223
801.112244 520.261292 -216.241348
655.782410 527.690247 -301.346832
532.655579 530.968750 -370.149811
671.923706 536.556152 -241.025238
570.253601 524.771118 -435.622650
795.152649 487.218262 -349.477631
534.090210 542.661316 -370.237579
580.499329 510.601044 -504.032288
774.389832 503.779572 -216.130264
698.843689 546.447693 -177.549377
898.025024 509.817322 -101.649658
793.942627 461.909027 -462.117096
688.522461 519.879333 -279.579773
659.792419 492.244751 -406.443939
832.295410 458.671661 -422.875488
877.578003 467.304291 -377.063324
692.827576 516.745728 -303.711609
746.164063 536.060059 -179.371094
885.316956 538.560181 -75.933159
803.826416 546.725037 -52.520218
929.791626 496.274384 -182.755508
778.650879 486.266846 -270.056458
884.599854 474.549286 -291.636902
526.422241 537.290771 -350.981659
506.254578 567.646240 -276.906494
512.615723 564.691895 -276.138916
736.675659 502.328400 -324.389862
831.145020 489.094391 -312.302246
785.979492 551.391968 -109.765495
775.659485 540.986084 -147.874268
960.274902 501.494263 -154.156372
815.842163 532.210938 -181.380463
532.105347 518.671021 -377.870636
782.755127 532.737366 -184.122604
850.006165 517.209839 -191.865448
578.275024 540.978882 -325.164703
913.366821 437.909790 -385.864166
671.725952 507.842346 -359.546478
629.703674 473.484406 -517.975525
876.464722 473.715698 -308.639038
969.015137 479.751984 -290.483307
486.621643 578.203552 -283.481384
732.063660 544.481018 -185.281235
819.098816 469.428741 -350.503418
718.081665 554.439514 -123.543816
986.517212 470.914917 -316.323303
627.061462 548.470886 -226.518829
846.364990 403.930115 -430.589935
900.021545 468.569153 -257.414795
716.809998 481.689697 -399.922516
725.399048 557.362366 -171.428574
608.037842 518.356934 -362.318390
785.640869 480.589508 -380.359467
625.357910 520.580872 -333.993683
683.206787 550.388367 -154.075562
482.362457 560.086914 -346.624420
643.850159 503.562195 -328.021240
893.862305 491.525269 -237.823837
614.753723 553.053833 -287.886261
714.394653 469.343323 -445.581329
886.435425 448.821136 -371.338440
786.254211 526.631104 -178.699783
813.616150 457.224091 -435.217773
503.327423 531.153992 -379.208252
939.017029 509.747589 -133.065872
764.314819 543.672607 -117.077621
639.242126 519.347290 -326.818268
754.667297 494.231964 -362.603851
856.334839 399.350555 -403.124390
847.177063 441.665009 -412.720001
767.065369 526.954468 -212.844940
602.009399 474.177979 -475.481750
588.384705 546.187744 -337.679688
650.378845 492.177979 -460.076965
851.671143 541.629822 -104.269569
867.517029 527.642456 -152.404877
797.447937 548.832703 -68.658569
783.523071 478.292053 -386.359467
718.427856 469.266235 -448.949371
882.897339 515.300232 -132.085556
827.166565 426.082855 -442.567993
722.695618 491.512970 -370.326660
886.165222 494.317291 -182.388245
772.131531 478.713318 -363.050903
919.108337 471.430847 -337.005920
604.001038 511.927917 -434.530212
825.342590 549.030518 -78.598686
618.216125 527.314026 -314.530090
770.632019 485.044830 -375.945221
900.987488 416.710938 -392.698395
629.138977 559.805115 -216.058197
888.949951 436.549072 -398.751862
613.300903 526.700195 -367.760742
576.077271 552.353577 -254.512024
954.805298 484.148407 -334.611359
718.009827 476.306305 -390.613708
