ply
format ascii 1.0
element vertex 1424
property float x
property float y
property float z
end_header
755.242676 87.860001 -633.841736
679.783508 25.010700 -792.183228
559.345398 143.969025 -727.817078
836.711121 111.630836 -535.853577
641.732727 24.921848 -797.453491
644.215210 141.347870 -661.363892
704.900818 169.832840 -524.257629
679.633972 -22.948837 -775.283813
849.475891 98.564850 -518.103088
765.887268 123.876427 -561.910339
667.211548 209.779404 -532.978760
693.591125 202.017288 -540.999817
876.736511 119.067734 -485.297699
472.764679 306.645935 -616.370483
499.547913 280.331085 -604.144226
826.497620 143.361115 -470.924835
787.209106 83.809967 -629.150146
662.093201 219.545593 -521.271118
700.938049 144.352203 -602.908142
586.628052 256.984253 -508.810272
755.995300 42.857380 -707.856201
537.571960 119.573654 -765.043457
915.266174 66.954300 -525.519897
786.844727 26.940533 -703.697449
835.134888 135.852188 -472.156494
760.699524 107.061081 -598.126160
694.587158 90.141510 -713.715454
719.559448 22.613298 -771.625244
709.361877 204.242416 -495.604645
794.934143 155.236893 -492.408661
712.870667 178.750793 -541.396057
559.346741 114.850685 -742.837280
773.510193 175.514389 -482.355194
721.924683 152.044815 -589.233582
851.828979 -0.902183 -774.669128
874.336182 -37.064823 -679.269897
703.402344 -13.053645 -776.384033
577.235779 233.424927 -570.468140
615.383667 98.763275 -755.237183
499.635101 275.065643 -571.086792
867.301514 -12.333482 -715.391602
785.635193 120.339455 -568.178528
655.154297 205.315582 -539.853638
882.254150 2.909046 -654.438782
850.465637 3.217038 -784.928101
884.611816 106.203644 -486.245148
550.984619 178.276474 -705.614075
479.082153 255.714828 -664.850586
596.242859 144.277161 -665.557190
536.368530 220.012207 -628.664246
895.020203 45.352390 -521.770020
725.595398 69.292473 -655.202515
749.237610 91.924400 -633.590454
631.267395 160.127014 -633.285645
682.928589 123.562767 -650.002625
618.241394 99.961792 -754.000427
586.181946 119.192169 -721.171265
852.829956 -3.573561 -706.248108
639.158325 56.747932 -803.397644
771.282349 -1.380584 -789.451782
530.540161 216.710236 -636.849487
555.071655 253.948059 -527.320679
468.814636 187.009125 -766.700317
720.331909 99.817032 -660.272644
574.278931 155.965378 -691.454712
772.093628 63.966194 -612.762024
828.060852 101.346428 -539.851257
745.237244 -28.569708 -767.645142
507.239746 143.860901 -771.866150
902.263611 100.768890 -473.949402
476.837311 163.940048 -764.024719
865.834961 119.654373 -496.717377
670.752014 111.708893 -661.591003
615.810364 69.869530 -798.802551
477.912842 245.111755 -662.877747
761.262695 163.908981 -527.799988
721.726501 89.927055 -659.074768
816.861206 22.016827 -697.744141
719.478027 5.992345 -778.591797
586.760742 194.987839 -619.869080
658.485413 123.090652 -677.948730
638.069519 156.454529 -623.556763
724.797241 124.553162 -606.913818
600.201599 114.112228 -730.473877
610.209290 238.261444 -548.777222
910.903564 42.760155 -565.761536
809.984192 12.657119 -782.167847
883.330872 -13.097827 -652.131287
744.295044 111.094940 -633.440552
707.137146 182.330200 -521.197998
925.391663 -3.944556 -629.219055
778.731201 48.790520 -656.019836
852.231812 130.192780 -462.867126
850.245056 110.259369 -474.440430
846.064026 55.344849 -587.725525
610.192383 220.265625 -567.224976
530.645508 219.644028 -632.176086
832.871338 121.828751 -497.041779
786.890320 -5.545262 -774.488647
924.378113 60.409256 -523.372131
639.949585 86.041183 -794.761475
841.203552 36.758030 -645.294128
826.935608 135.191650 -474.799866
594.935913 117.198608 -754.854675
822.895081 126.379242 -532.545532
737.279602 90.619339 -659.386597
578.018127 245.848816 -548.683289
576.878906 176.615540 -684.460754
496.056458 242.985596 -661.849854
644.571594 169.358841 -612.783630
497.361511 234.956711 -668.242188
552.442322 125.941292 -825.532288
595.478210 231.039398 -517.783875
618.439209 198.278076 -588.928223
751.310486 125.654488 -577.634521
583.755859 116.688187 -738.570679
540.960938 144.154541 -761.088989
802.226685 164.897141 -475.291565
533.830322 143.821594 -739.810608
634.697815 119.441391 -697.553528
707.235413 64.742279 -715.004639
691.347168 87.685799 -692.949402
864.404175 -34.394943 -709.382751
619.560364 237.889725 -532.025146
563.327515 139.433014 -707.866882
786.284363 91.415947 -596.904358
763.783875 134.386871 -559.434631
670.840942 9.969642 -787.811829
826.655396 157.679749 -464.915070
734.768494 -37.592983 -754.451233
806.734741 65.867950 -626.237305
594.550049 100.815582 -758.901550
562.648804 257.063690 -539.472351
710.067749 156.626877 -591.492432
748.765991 63.577717 -692.153076
852.365234 121.790619 -498.310791
681.612854 100.570328 -673.477722
496.869446 173.016876 -756.623657
648.938110 110.524139 -716.615112
592.249146 161.998810 -692.610291
556.694397 205.703888 -659.469543
912.584045 67.342484 -519.825439
506.854401 193.793121 -731.400146
720.421875 42.425117 -773.006226
526.935181 149.890411 -743.487183
769.512329 -29.000486 -770.932861
582.436096 164.255447 -703.764709
684.090149 180.833282 -552.146362
462.527985 239.939667 -654.435059
471.145386 231.629364 -670.952942
748.978149 160.573349 -521.819458
519.206116 172.567047 -717.191345
591.588562 125.352074 -733.110168
822.138306 110.327202 -518.492126
854.562073 59.577118 -594.363708
560.069153 278.756958 -551.395203
880.485962 -6.403912 -731.542847
715.070496 163.721832 -519.580322
560.466797 253.980255 -571.732605
623.796204 88.397514 -753.416077
643.403259 83.492271 -737.200867
587.901489 115.142975 -776.758179
634.943726 52.746944 -797.642212
600.149414 174.722488 -638.578735
528.985596 284.225220 -545.587524
861.109863 -20.891516 -662.526123
873.542480 -21.081474 -701.960022
859.036560 116.046036 -488.782104
783.341797 2.965377 -776.248657
707.135559 -21.820436 -779.237976
701.873291 96.404846 -669.174316
634.182068 117.140121 -717.863464
919.830017 -34.256741 -699.082703
509.077484 153.704483 -780.250305
480.174652 174.037430 -785.580322
649.932312 153.457413 -626.495483
763.818726 12.350827 -738.726990
679.710022 165.858658 -607.330627
885.455505 35.845585 -601.862427
894.594482 120.592667 -454.420288
734.716064 147.876709 -550.424927
586.343811 164.709534 -666.252991
918.201538 -19.380550 -670.086365
572.420898 275.812225 -540.773926
649.741455 -29.926535 -774.902039
533.678955 233.749344 -647.309509
626.281067 187.871216 -559.233643
783.864441 28.684866 -754.443420
578.284973 192.661346 -612.264526
840.013977 -3.057871 -653.778564
559.362488 192.741028 -658.970581
879.125061 11.823570 -642.729004
816.462952 0.077069 -788.833191
757.441467 134.865585 -582.888489
902.784607 -27.456425 -713.367249
638.172180 190.721695 -612.046753
919.279053 44.142872 -528.473511
795.406006 145.429031 -494.704590
677.685181 210.539139 -536.984863
516.339844 171.640091 -722.567322
653.130005 110.887741 -693.213867
806.360107 55.724068 -659.444153
842.465698 103.595985 -539.090332
709.770996 157.599106 -537.380371
643.612732 123.363060 -672.567200
671.628906 197.606323 -517.801331
653.779053 64.026215 -806.787292
884.977295 70.785957 -528.722046
502.575195 295.994293 -575.387390
763.876709 -27.454327 -771.238403
777.811218 149.559677 -536.250122
656.205872 98.256081 -708.306580
788.296631 142.197083 -482.020508
792.094482 114.210381 -564.037170
633.256409 221.953491 -527.187683
806.803406 34.509377 -682.140869
881.195068 69.928757 -535.609680
673.165894 133.826233 -637.751099
762.947693 -14.096403 -774.587402
697.826904 183.299622 -565.867493
714.819153 13.654642 -778.500000
929.540710 -7.127367 -640.980225
587.057861 183.173691 -665.693420
854.637878 82.178764 -527.476074
899.982544 -28.276644 -697.758789
538.061584 204.897232 -634.070618
507.470032 266.744415 -597.509766
575.322632 214.664307 -600.485474
558.626099 261.460602 -571.892761
888.633240 53.449657 -537.247314
681.350586 165.772720 -587.616150
625.295654 211.736099 -584.711304
693.158081 103.802528 -665.891357
553.987000 175.408890 -703.480164
732.747986 132.931747 -605.471130
715.401489 164.209549 -579.581482
845.383606 35.942829 -630.019470
775.680054 182.361282 -475.961731
828.050598 122.622589 -500.512390
825.797852 9.409821 -670.658875
847.343445 58.366684 -586.014343
900.586548 97.987999 -451.343658
829.457092 -8.841062 -732.670105
762.296448 21.234423 -779.238647
613.442200 166.839142 -623.096313
781.824951 31.540470 -745.867065
717.736145 131.414154 -592.269958
612.451172 182.846191 -614.195679
614.572876 230.036591 -541.448547
769.202881 122.746025 -585.000183
599.127014 158.863174 -673.945557
465.451019 215.755188 -692.997559
495.475342 234.880325 -642.018982
743.489624 5.267540 -774.775146
563.694092 174.728775 -705.654480
750.151733 18.474955 -770.342163
653.189880 77.337830 -776.151855
865.537964 99.515900 -478.525299
507.154694 236.477737 -668.854614
653.920837 3.771325 -792.157410
819.170715 122.122292 -511.678223
810.247925 58.085758 -652.078247
691.952271 58.204811 -797.616272
805.215027 75.771408 -612.567688
720.950134 57.797794 -705.259949
819.025391 105.106003 -509.855133
881.226929 94.055183 -482.448517
569.788818 153.405823 -689.813599
508.360962 234.119827 -639.951050
711.461121 123.454292 -616.029175
674.584717 22.044785 -787.822937
568.858704 188.539185 -679.814270
748.831177 118.730164 -592.122253
677.356628 105.139923 -678.882996
762.216125 34.284382 -758.629700
815.734985 122.208511 -535.119629
875.038147 87.854057 -527.486816
764.651184 -14.515047 -764.186584
794.878601 169.928177 -484.867249
512.319885 174.556732 -735.666992
707.642944 74.383286 -727.934082
700.968506 146.138657 -595.956726
689.844482 18.768393 -777.319946
825.326355 143.966782 -494.416168
665.163452 7.799603 -775.071655
574.505676 78.848572 -806.851196
605.964172 192.293549 -617.323425
863.086304 49.431755 -587.946960
580.070129 155.454620 -692.014404
891.528320 9.065684 -634.483521
807.969116 168.931946 -475.791718
673.039551 -23.308018 -777.721191
604.710632 93.758430 -846.988647
813.356262 68.770180 -605.968201
631.540894 92.009521 -727.645142
738.781921 141.475143 -531.299316
875.044006 133.464691 -461.255768
544.505493 175.626648 -722.173035
888.502502 80.973969 -528.957764
530.488770 131.756119 -741.912720
548.067749 172.728271 -670.658691
562.620239 188.272675 -622.205566
620.798645 251.334015 -545.994995
628.662476 93.933792 -766.564209
887.088623 74.468094 -543.726196
794.290405 59.654312 -603.849487
808.398499 -2.497137 -781.334656
700.911621 151.445831 -606.980774
729.481873 179.947159 -541.849182
718.593079 194.551682 -506.192261
518.104797 156.722946 -719.934387
588.024048 198.112656 -638.328674
814.845337 8.558745 -791.895264
705.263855 136.157104 -629.355835
629.983337 203.570496 -566.093201
537.374084 221.819565 -662.666443
836.489258 7.635569 -719.439819
708.161804 58.283649 -726.100159
562.876404 188.309891 -609.586548
688.139709 162.315231 -581.459106
660.493408 158.196487 -636.250061
822.860779 67.970665 -552.482788
485.962952 143.875626 -786.113159
704.124084 94.778450 -693.713623
903.393250 -7.658729 -655.908630
668.261719 125.961845 -682.983215
534.284912 196.800522 -680.667114
800.240112 80.580902 -609.942627
749.361572 139.848389 -565.826050
569.235535 119.587585 -745.314697
512.242188 276.617218 -591.768921
837.083496 8.378889 -783.698242
772.676086 117.431473 -586.029968
573.726563 220.803329 -594.617432
770.358704 93.304985 -625.887939
751.993469 120.502792 -589.852051
800.300293 135.255310 -540.874817
900.206787 60.975582 -530.164795
837.272949 138.153503 -488.795166
597.999817 103.536102 -837.970703
662.121460 131.673294 -660.527588
851.862854 41.661755 -595.139526
841.015869 -18.298298 -690.630188
681.812256 168.488556 -579.228088
803.037537 52.757355 -649.087097
713.374512 151.157898 -578.045898
776.785461 155.169830 -527.361328
607.856201 136.290924 -694.529358
700.797241 134.533325 -636.202271
743.924622 180.025406 -497.791626
791.657288 96.681023 -548.177734
537.390503 265.261810 -555.045776
889.138245 44.363575 -579.675171
754.537476 175.289276 -505.283691
629.147888 40.763611 -799.876648
838.830383 19.806402 -623.335938
711.704102 168.608414 -544.893250
869.283508 9.596969 -667.272766
898.153992 92.480087 -502.485229
718.667847 38.625309 -770.819702
818.320618 96.275520 -585.273987
581.615906 181.454254 -632.875488
776.302307 97.864922 -605.580994
709.843323 44.605133 -776.109680
917.588074 -15.928594 -671.433228
820.089417 127.582619 -524.723511
553.618469 242.081696 -572.452759
844.669922 15.174054 -674.610229
477.125854 167.523697 -759.338440
693.602661 205.905045 -517.333801
714.211426 -14.943096 -781.220215
522.482361 280.164215 -583.787903
515.227234 176.837585 -747.043701
721.561462 154.192734 -553.629150
576.522705 207.463562 -558.479370
833.126099 22.840361 -684.248718
535.053894 243.862518 -599.222168
527.047119 202.535095 -700.907410
872.918457 43.288933 -581.839722
645.667297 221.119644 -558.232422
885.352417 125.826241 -453.009491
750.418579 42.090084 -690.976196
544.068970 168.964813 -731.656555
666.820862 89.473244 -728.568481
847.202759 97.801056 -540.744507
590.704346 231.693039 -561.872314
803.317261 68.359665 -583.581116
465.378052 201.340317 -702.617004
732.026123 20.972351 -773.036011
599.169434 237.460663 -540.178406
558.812744 173.991623 -678.541870
495.195465 205.005264 -692.087952
589.263977 183.313156 -639.997131
711.534424 190.118118 -523.964905
906.306763 -20.583284 -721.370483
626.433594 220.759125 -540.354614
809.297607 34.208340 -801.456055
727.665771 45.333111 -735.110779
736.450623 105.703423 -614.191895
721.076050 -5.446760 -771.770447
672.383179 221.416641 -507.284149
621.101318 33.205292 -789.428955
890.464355 62.525734 -562.063721
572.271973 236.873459 -554.518311
611.122070 188.718170 -562.899536
575.523499 223.905228 -587.932495
749.422607 164.290466 -505.571808
660.535156 73.232811 -748.360596
810.605469 21.551657 -754.664124
817.324097 102.855194 -570.405945
778.607788 114.286400 -590.428101
884.926575 108.224068 -472.449738
742.987732 171.971649 -541.623779
774.904053 150.741547 -510.227631
717.223450 47.534996 -784.673706
760.474365 136.003052 -549.181091
868.854980 6.158000 -663.943542
903.342163 18.950378 -614.327759
790.070190 86.045311 -604.563171
656.882019 56.534691 -793.813232
884.324585 119.404388 -454.230743
520.119568 225.785706 -638.489136
765.809448 -9.240808 -779.418518
529.779785 248.113205 -626.108948
574.739258 264.067322 -526.537781
842.412476 154.575882 -471.782349
721.743530 179.933151 -505.408661
630.110596 134.803528 -705.091248
511.855316 228.418991 -653.640869
857.851746 131.661331 -460.271240
656.973572 -13.102816 -788.189209
488.247589 229.692413 -637.097839
703.460022 100.302200 -659.465637
519.222290 278.219238 -550.544861
555.277161 273.234192 -538.741577
827.238831 4.351585 -790.131226
626.073486 128.426529 -708.806763
743.840271 137.787231 -557.180054
704.151978 148.861664 -610.959534
856.459534 1.740996 -735.223877
611.079346 225.136139 -556.962769
574.656555 132.870590 -745.950806
899.185486 81.192085 -521.759277
620.492859 243.116562 -529.043518
829.786133 31.150730 -607.049744
857.136047 32.511761 -589.284058
592.370605 71.669365 -815.059326
886.734680 19.690941 -617.526306
861.844116 94.714027 -528.443481
578.264832 184.773956 -648.544617
718.905701 120.526199 -643.753967
551.713928 188.142456 -699.635681
644.620850 8.820029 -797.323364
685.233582 70.617836 -740.603088
488.421631 237.490494 -647.403564
682.915527 183.189484 -548.923401
702.159851 90.581367 -692.309631
781.374695 159.999054 -491.312897
716.033630 183.246933 -546.178772
736.139282 181.794418 -500.935669
620.292603 210.471436 -532.612000
541.066833 144.294586 -718.328186
537.994080 147.283051 -734.116455
677.865723 8.146108 -773.547607
830.942017 16.020510 -683.477783
797.865906 24.462057 -772.309082
747.516602 62.500420 -680.740906
879.549255 109.829788 -476.771606
535.752258 262.582733 -568.152771
495.348602 234.962708 -652.165588
852.645813 39.203327 -626.448364
529.062134 133.232224 -756.961365
797.747559 20.683645 -773.674805
905.521545 75.484604 -511.107788
630.717041 187.898254 -561.958801
816.242920 45.943726 -597.276550
680.691895 143.524918 -584.021545
689.945740 128.322479 -634.414673
730.501099 155.063446 -559.871704
762.441040 29.572296 -769.879456
694.150940 159.615448 -582.504578
717.747498 164.387405 -556.242798
878.103699 71.492661 -558.223145
613.422852 219.022308 -555.080933
588.770447 244.570679 -538.948730
500.808563 153.753922 -724.947937
716.548218 -37.120647 -771.366272
598.793762 259.605194 -553.244873
506.871368 216.244507 -687.799377
633.135010 71.990952 -806.524536
493.296722 294.501343 -560.380859
560.710938 190.838882 -605.650330
877.259583 92.384102 -517.215515
911.081909 -28.630358 -674.599915
594.397583 214.332977 -610.026978
703.329407 35.207680 -782.327087
871.127686 6.880371 -658.479980
676.402100 85.853439 -725.200439
731.863464 81.135551 -679.899353
843.171814 42.733055 -584.563171
639.617249 105.717957 -730.964417
777.715637 88.674049 -614.679688
479.820129 247.972794 -646.739014
838.478027 -12.502426 -675.969421
847.634705 -0.016148 -777.799988
649.648865 171.557419 -606.649170
686.879822 202.463181 -520.495483
820.437561 21.336151 -680.329407
748.350647 113.487778 -607.651917
780.077271 6.365247 -770.084229
559.391663 191.078903 -651.833435
501.763428 279.251190 -571.625183
608.248169 236.765625 -528.549500
888.698975 97.801231 -492.905762
482.210663 221.594513 -676.271362
756.768677 154.022522 -552.869141
869.513550 16.313442 -779.554810
827.893066 55.662308 -617.155212
703.128357 154.896255 -581.597412
774.199829 181.122986 -479.996918
613.974365 147.481812 -666.971619
873.458740 33.184689 -586.282959
827.219788 35.152172 -647.725708
588.649048 216.896683 -584.616455
664.269836 219.646652 -519.670471
620.659912 91.689880 -801.718750
766.134705 169.932449 -512.528198
826.719238 -14.706658 -763.467529
746.654602 180.310577 -513.419678
773.630005 158.738693 -528.400818
545.133057 161.115021 -698.712891
737.889221 175.204941 -521.669983
526.609619 248.705154 -623.340881
737.321716 73.868286 -697.275635
680.075378 13.884203 -788.501953
651.070801 82.874397 -764.440125
696.674255 57.907379 -746.759094
694.574402 211.256500 -503.534485
674.917297 147.887039 -610.655640
615.269714 199.594284 -597.223206
624.834167 251.856888 -539.638245
724.750427 101.998634 -652.387756
476.397064 302.157623 -562.440796
680.472717 207.092453 -545.526123
627.131409 13.554103 -790.078369
776.135010 44.943592 -679.224304
775.760559 72.175255 -601.347534
815.313110 52.514992 -645.279297
671.988220 108.928650 -682.909607
742.811584 124.049049 -592.639404
573.660339 268.257385 -554.545044
638.234619 11.203914 -790.707153
551.371277 195.550507 -619.883179
900.999268 111.905792 -447.907532
595.673340 195.889999 -598.206604
619.401917 251.817749 -528.214844
752.560425 152.542068 -558.485535
625.444397 245.120911 -522.660828
687.282532 162.732819 -609.188354
864.123840 90.284210 -548.493286
589.442383 154.426666 -701.490173
503.589783 260.482330 -592.393921
538.307495 141.405350 -744.078308
883.106323 -9.745653 -683.697998
769.394897 140.614456 -562.625183
691.000122 69.581459 -734.448730
471.401855 263.199951 -609.249878
675.906616 212.409836 -522.370239
606.863892 243.244644 -519.347961
489.446716 230.356735 -682.612610
813.375366 16.905260 -688.479431
654.520752 31.567606 -785.922668
623.542480 -14.081165 -775.493713
596.024841 195.084442 -613.485229
722.544861 55.402363 -778.798035
778.901123 42.182308 -700.277710
837.005981 74.904549 -598.720154
768.160645 18.045156 -761.918945
628.603027 221.814728 -568.800232
647.977661 65.885216 -801.394165
642.567810 41.953304 -800.173645
522.280518 274.263733 -552.685547
842.680054 135.307846 -486.848999
680.526245 187.975754 -562.759338
629.559692 189.695618 -595.546875
550.446777 173.479645 -671.679688
796.057983 154.815369 -478.505157
761.533142 89.704346 -621.397827
904.081543 -36.156448 -693.275635
678.420654 128.718216 -650.940186
881.903198 119.825760 -458.272461
853.302551 -15.899967 -711.886169
864.405151 24.891169 -649.569458
883.581665 128.552628 -459.702789
662.381104 152.129684 -589.211243
844.736084 70.660683 -591.352722
821.931091 11.514724 -782.774719
601.746521 216.512680 -573.286133
520.599854 213.704834 -649.479431
535.502686 189.978119 -702.727417
538.803223 189.308960 -657.976868
739.661743 -41.003799 -765.685364
752.099060 189.738770 -484.088867
584.953918 224.570068 -542.031311
505.782990 141.546188 -775.686218
668.275635 196.005371 -570.463562
840.238831 11.931971 -675.664368
846.861816 106.527519 -522.290588
861.928589 135.601257 -474.610443
712.450684 36.477707 -769.169006
675.236267 -17.413980 -777.475586
750.129089 50.573425 -696.534180
741.915161 162.580933 -534.540283
712.690125 60.879776 -699.095764
739.012512 146.041626 -557.051697
865.975342 105.777130 -493.520203
631.502869 151.345459 -652.225769
583.814575 238.905655 -562.438843
467.377075 257.919098 -659.210999
467.083282 170.562119 -843.135010
840.674561 114.290619 -504.925385
869.339722 55.796883 -568.838318
913.527344 18.924809 -598.434753
648.943787 211.061157 -564.864807
478.008331 245.081421 -636.693787
703.805603 188.617065 -518.766846
904.570557 -6.069385 -619.094971
895.685547 69.732056 -471.698212
514.850220 219.170395 -655.769409
650.230713 52.252750 -807.029114
881.037781 -28.859665 -688.422729
789.715332 8.850641 -791.413391
753.302307 108.798653 -610.392578
800.733154 100.037628 -589.891357
564.618713 116.230881 -808.926880
820.616150 59.660473 -631.421631
486.319641 288.839935 -571.002014
585.327271 189.698669 -632.896118
469.246918 194.012115 -772.567688
709.303162 151.148972 -545.034058
740.635742 -35.446106 -774.834473
757.412842 140.331055 -547.460754
524.188538 233.387665 -592.744995
563.572388 179.993896 -664.145874
705.568298 189.037918 -533.129272
699.526123 78.942680 -695.937561
752.477478 -38.847179 -756.160706
551.094788 195.142517 -690.057068
708.180298 177.641174 -564.960144
808.367065 68.591568 -625.499268
602.558960 193.111435 -609.944275
633.108521 146.491730 -651.287354
672.712341 82.492027 -718.842651
683.213623 88.921165 -693.774536
678.852051 70.330193 -773.901306
487.661957 255.026367 -651.002197
522.737183 276.069946 -555.343628
784.584778 136.146240 -542.248596
623.150085 226.273743 -540.553406
626.863464 68.171547 -796.395020
717.675293 67.268654 -691.871033
798.916992 48.128216 -650.422668
897.009644 53.038166 -556.963928
812.995667 81.081413 -580.432495
805.201843 64.458832 -621.078857
573.034729 128.115540 -748.711670
749.978271 -12.804057 -776.171021
926.010376 18.461773 -599.232422
873.573547 89.744446 -531.656860
620.547485 196.985229 -591.373352
831.417297 133.577133 -505.568573
612.325745 -15.117594 -776.984070
765.649414 157.602081 -520.574890
846.185669 31.796755 -647.501953
580.074036 201.783569 -625.241394
722.223694 -39.123928 -769.540710
789.795044 38.133766 -687.678345
726.781860 164.044159 -546.005066
708.283203 110.585281 -641.883606
706.166260 163.639404 -589.176331
738.317322 50.842552 -716.131836
766.280090 -11.150272 -776.094421
787.231445 82.239151 -626.217346
592.358948 108.992432 -826.361328
780.327637 74.857109 -592.874207
699.125427 181.204742 -532.374390
797.495422 150.615250 -497.613464
928.927490 -10.567796 -641.772949
715.454285 -2.650725 -770.123718
724.364136 101.852356 -638.156250
591.063904 137.303619 -738.874146
748.135437 138.616974 -551.680176
795.794922 41.906178 -666.556824
778.463379 34.639294 -674.469971
700.995422 207.206833 -504.038452
656.649597 74.271698 -782.707642
861.397034 45.346943 -616.602356
836.937256 -7.492394 -707.130066
467.826599 220.718079 -689.458740
685.184570 20.743971 -775.256470
884.049072 96.403152 -512.834961
687.019348 148.238495 -623.609558
742.149963 177.624924 -532.829346
850.071167 129.875244 -478.712555
494.543152 204.952332 -715.425842
632.643433 94.376610 -748.656738
811.179565 123.236351 -538.196289
808.650269 136.283997 -529.662781
795.786865 99.988579 -574.004395
675.566589 211.028671 -518.409119
907.572144 36.273453 -583.420654
457.828369 188.699097 -749.370300
592.602966 44.791744 -808.255249
455.925140 307.677124 -581.332947
647.153625 117.649452 -689.827698
734.653015 156.522278 -569.773987
803.433960 157.087982 -490.919098
712.120117 108.953049 -658.888977
674.873108 117.799873 -649.364807
512.965454 205.053177 -691.889832
598.800354 45.734718 -823.399780
604.738892 205.299973 -575.984863
494.564636 225.543762 -690.467651
511.040527 271.905518 -607.000549
793.213928 74.909760 -611.488037
552.761719 181.719131 -652.978516
659.232178 101.659210 -696.268433
879.881836 71.640656 -555.985046
638.853149 65.548035 -785.021729
596.115234 261.082428 -538.914978
598.329407 221.641861 -565.591003
737.237183 83.454720 -647.551025
666.892029 48.344177 -787.909241
758.625916 113.753960 -585.406128
787.334534 79.048241 -616.394165
493.965088 208.673767 -710.807312
539.316589 170.828064 -733.414490
591.333130 217.831009 -557.328125
685.834045 78.401245 -726.083252
678.539185 86.521271 -701.020142
683.272217 157.457977 -620.641113
790.261536 134.435547 -513.500366
893.390259 -30.555725 -712.223267
558.200562 242.420197 -605.783325
612.894897 127.741615 -721.601013
834.535706 11.012039 -789.281921
759.979126 85.623039 -632.785889
580.454895 87.913368 -826.035767
724.027283 190.076492 -530.293213
898.349854 22.519396 -618.681152
916.059509 54.831921 -528.003296
875.978821 84.832787 -530.724731
893.709045 -3.767035 -651.503845
748.722656 175.273911 -499.852325
708.438904 12.283744 -771.506470
613.308838 85.054459 -809.994995
843.794678 75.533615 -566.529541
620.442200 152.984283 -653.950500
668.097656 161.052216 -606.010925
539.507813 270.491852 -564.161682
548.340088 260.090973 -549.840698
844.191101 130.416290 -480.643097
848.564514 130.629578 -489.469574
746.984680 55.188499 -689.661133
820.349060 48.205036 -617.867615
862.913330 116.022774 -501.323059
702.481018 201.293503 -511.290039
692.826111 209.673080 -507.296570
847.289978 50.811337 -618.222961
821.320129 143.671890 -493.060669
707.683167 150.379089 -583.866089
789.629639 39.848331 -695.545471
890.980469 73.770950 -543.727417
471.453064 284.210449 -580.757202
754.590149 94.275826 -626.192932
768.833557 84.186569 -625.301208
880.402222 104.019127 -501.594604
687.425720 32.340919 -786.873413
734.744263 41.235966 -744.714172
789.483826 122.914223 -567.041992
686.813477 107.716530 -664.924438
801.599182 67.802757 -583.460632
710.632813 72.776100 -697.987244
867.334534 -0.295071 -682.722473
622.462708 166.370483 -640.590820
545.893188 157.413483 -697.252625
471.896149 231.697937 -661.499817
649.976135 74.542679 -803.705322
639.867798 135.612274 -673.469421
676.650024 66.007851 -745.694824
664.828613 221.723984 -509.483673
723.398071 203.180237 -500.612244
719.533875 -32.798328 -761.076782
744.812561 89.508492 -656.178894
528.765076 171.953491 -674.118469
777.319824 152.416489 -531.857117
470.224823 172.909012 -801.066650
626.562012 155.891159 -649.096313
907.453186 68.521706 -530.503418
873.729858 83.281311 -545.892761
789.466431 133.046463 -537.838745
640.878967 206.132141 -558.573914
572.039673 231.179443 -605.891724
630.654114 -34.539063 -766.867493
625.831055 93.444969 -758.140747
574.098450 240.433792 -588.809570
854.939453 128.888916 -489.654114
744.743896 143.425156 -578.580933
756.259766 -1.362914 -769.661804
612.319458 49.531662 -805.840942
564.126709 187.289017 -686.329529
634.672485 186.745392 -587.041382
799.494690 10.636524 -770.570007
464.680939 263.393677 -617.956238
742.326721 120.907333 -620.224304
896.933411 99.222000 -474.424072
634.657715 214.511154 -575.129211
656.165161 127.727478 -666.926331
852.816162 122.258240 -492.339600
815.414917 5.930791 -701.506958
571.357178 273.514954 -528.871643
877.476257 14.723276 -623.993835
556.773987 229.242722 -600.704163
482.953888 239.493698 -686.387390
876.280273 87.438210 -533.835449
740.907227 59.386036 -692.100281
682.484253 132.585037 -660.141113
486.988068 162.851273 -791.034180
653.419434 177.597260 -593.053467
892.740662 33.596165 -590.632385
782.267578 153.202682 -531.405396
877.085510 120.563477 -482.343475
521.222107 212.763077 -678.689148
735.100281 10.135551 -770.330688
725.914246 161.457993 -545.432800
489.150543 233.230865 -689.382751
774.494385 24.267214 -726.773804
607.569641 145.457550 -686.468262
837.047180 -5.675299 -696.132507
615.752869 194.210403 -585.332764
511.113495 145.629959 -764.584595
689.448975 165.012665 -542.372253
631.670654 189.643799 -588.650024
775.213501 36.765667 -661.025818
753.060730 26.892097 -748.976624
734.371521 112.014214 -615.684143
776.423157 173.328308 -491.218964
643.213806 225.087845 -508.483948
688.591736 200.899628 -516.761719
736.090271 98.100441 -636.356812
526.948181 251.392258 -618.920410
549.210693 122.958542 -755.620178
614.116455 128.134109 -695.807129
895.378052 5.034546 -651.516846
901.416809 60.731510 -529.382324
707.678528 49.231197 -769.387329
833.198303 49.655685 -626.942505
861.982483 80.431900 -554.980896
699.421570 175.801910 -541.242920
815.851379 124.174568 -501.744629
674.962524 153.089233 -592.659180
553.175659 146.031158 -723.660095
622.904663 17.312586 -784.148621
785.280762 92.979088 -590.455139
714.494995 160.642761 -581.467346
708.029053 34.866531 -795.394104
666.502258 24.591406 -792.301270
812.817932 106.279190 -558.420959
636.587830 208.113464 -559.622192
831.773315 64.155014 -620.869263
609.809509 244.556320 -551.141296
508.575348 264.188080 -581.490051
668.091309 189.268097 -562.490601
593.132141 201.224670 -615.860657
612.884216 131.405945 -717.031250
709.261047 212.590363 -493.721497
810.204407 29.180935 -691.806885
580.364014 39.164894 -801.305786
780.876526 34.615406 -715.032227
655.470215 205.271286 -559.726074
529.519043 274.452667 -579.229370
773.055115 114.062347 -527.765686
699.294250 152.812607 -602.165771
597.587524 82.357941 -824.803589
663.898560 115.987511 -693.278198
727.615173 -15.273244 -775.657410
926.371033 114.711891 -434.925446
583.082031 211.857819 -600.100098
830.714417 115.755348 -512.155945
539.610046 172.826538 -681.650757
677.924255 155.462418 -621.184814
533.628235 286.418182 -560.452820
643.158875 86.901176 -751.368103
746.049744 38.391239 -718.415405
688.979980 72.058037 -776.946350
664.358521 213.111893 -535.646667
624.428955 190.504013 -600.255798
717.374146 112.404732 -642.150940
689.545105 60.929588 -741.575195
528.257202 133.375122 -764.950012
629.864746 88.355522 -771.354614
576.927551 192.739639 -660.315063
718.584595 38.969666 -715.891785
638.412903 114.844627 -720.424988
922.329956 42.733589 -558.929260
691.925171 164.797241 -595.830322
616.662659 178.034683 -617.879944
519.407227 242.195648 -610.832275
482.420746 212.101273 -715.408264
484.002991 245.410934 -640.780762
570.912476 275.716919 -546.401367
790.594788 88.297043 -561.788940
566.638306 229.755768 -583.594971
834.827576 5.239094 -659.994934
578.585449 154.525436 -659.381958
780.814880 76.312332 -622.396179
605.072571 108.001228 -751.342834
735.614014 124.941353 -558.878784
660.960938 143.517960 -638.688843
663.887085 113.381905 -701.052124
865.341003 137.960464 -452.786072
635.560730 198.032867 -597.721985
878.044922 53.131950 -560.474731
846.189514 83.651649 -534.535400
475.499268 291.690552 -580.593750
749.625427 32.384396 -762.816711
790.270874 153.143295 -487.206787
702.770020 132.851425 -621.561096
883.742493 91.380074 -483.511841
612.834045 195.613800 -602.430786
569.296326 185.590347 -662.354858
797.506409 49.794903 -637.755249
584.561279 120.014854 -810.377441
475.240723 222.540909 -708.918091
828.883972 87.366447 -584.779846
586.257385 226.475616 -598.710571
786.663269 152.268539 -495.967682
488.897003 178.109863 -715.340698
805.623474 84.286156 -559.325989
799.964172 43.821030 -683.070740
509.097168 279.987244 -562.664551
735.324951 4.313878 -772.817322
568.313110 180.117218 -682.895386
781.542664 162.287003 -483.245270
688.198486 210.600861 -504.385834
613.129395 103.067734 -722.208374
627.860535 233.526627 -538.783813
622.121765 25.297682 -787.006104
688.785034 53.492836 -722.393066
751.102966 181.460632 -491.918488
774.663696 157.086426 -508.989929
666.234253 199.244339 -542.824463
869.955444 92.002441 -527.593323
854.619385 24.569715 -626.847351
826.139404 0.321706 -786.565369
865.924316 79.607063 -533.205017
487.382629 187.658203 -731.527771
567.087646 128.997009 -850.508118
902.074036 12.340356 -622.397156
499.938171 240.679108 -602.113342
767.475525 10.939465 -771.052124
906.277466 14.142338 -616.353455
498.656372 259.055939 -598.306274
886.488647 -10.369184 -664.673828
556.313477 203.367676 -601.690613
697.249390 90.502831 -683.109314
859.133728 139.533524 -453.847626
716.722229 154.633179 -564.964722
884.213867 98.244431 -513.614624
501.429382 224.897003 -653.298279
514.602722 147.821167 -757.234924
894.427124 -0.270468 -626.456238
890.253052 111.868874 -480.527740
716.221191 72.429298 -697.089661
663.278564 10.010139 -774.556885
667.738342 132.084167 -669.847351
616.689148 216.853836 -555.058228
640.599487 139.929031 -655.588501
488.757233 275.801971 -592.416931
854.098389 85.250389 -522.900208
756.159424 123.415733 -529.202698
687.585876 156.731903 -597.874756
799.268372 54.745193 -600.150085
688.431152 54.035198 -774.498779
709.331909 101.343056 -661.302795
787.093018 155.760239 -505.442719
745.313293 92.396515 -651.238708
652.046875 71.260239 -757.816406
866.532715 112.187462 -495.911987
642.720825 89.567291 -744.783875
849.373718 0.731550 -640.244812
624.995544 199.094131 -577.662048
560.229126 116.392952 -796.265930
724.188110 98.932701 -661.443848
582.088440 264.620209 -552.519531
586.619751 203.708420 -606.951599
707.045715 142.329773 -611.120728
557.945801 196.350967 -655.217590
789.333801 79.973595 -576.113342
816.109192 16.646418 -778.918030
894.396484 5.695229 -635.385132
840.971863 123.885307 -501.595154
894.821350 115.782555 -468.400818
479.292603 282.032562 -626.482300
521.848267 214.536285 -652.153198
922.054138 6.722265 -635.964172
450.476471 181.679840 -759.245056
512.100220 249.835907 -563.267944
656.408936 149.258392 -627.191162
899.381226 79.275070 -513.409912
693.299500 111.461029 -678.848022
881.291748 16.647009 -632.800598
606.569580 229.964142 -546.094666
796.965088 95.137695 -600.223206
678.222168 145.059204 -615.598999
489.701263 173.822159 -750.156372
769.792542 56.954796 -682.897095
890.773804 -7.453178 -651.592651
713.697937 103.026596 -654.566406
754.216553 -29.532990 -766.427856
881.662842 67.475212 -555.303162
856.533691 70.776451 -571.790894
512.688904 268.762177 -602.512634
752.045349 94.110909 -589.213013
874.717651 53.398655 -598.264465
587.173462 147.397446 -697.716675
776.360352 87.040710 -629.152527
723.669128 193.138885 -503.105499
761.583923 94.375397 -642.477356
455.079895 245.478790 -666.107544
725.295593 19.523529 -759.507202
871.302063 16.436235 -644.404236
538.571533 160.623566 -747.610901
782.429199 52.917019 -680.447449
819.532410 144.805084 -471.157806
792.303528 145.595459 -502.022888
558.505127 226.029907 -621.451477
546.546997 265.549561 -564.741455
820.340881 5.703728 -759.060547
754.097961 182.746704 -488.512543
497.951599 235.243362 -637.150146
717.931458 44.478848 -730.690674
604.090881 28.613045 -798.329590
739.197388 197.673935 -498.066315
727.767517 -45.161491 -762.513794
881.421509 51.842693 -564.956055
774.326050 118.170601 -574.173157
656.546265 74.929901 -804.268127
462.236420 236.771271 -658.835327
602.637756 111.340393 -730.302490
657.892883 42.777096 -787.593506
515.199097 212.926956 -687.091675
635.591553 127.435005 -701.996582
676.176086 208.271072 -522.426880
713.551514 -4.233740 -765.355469
874.944214 35.692513 -614.647339
750.708191 90.207123 -635.151367
672.964661 201.687042 -528.522156
902.819519 -6.157623 -647.842773
656.783936 199.340942 -567.998596
795.324646 108.205582 -555.464233
517.762939 132.915771 -746.954285
717.376465 177.686676 -511.740112
603.286743 220.342545 -596.102356
745.058167 57.787720 -708.530884
727.524841 205.755783 -493.288422
532.589661 131.011642 -763.598999
871.601990 -9.373837 -766.136719
876.430542 137.400238 -459.594330
876.277649 -15.134663 -749.095825
731.988953 38.818592 -743.921814
767.659363 165.238083 -521.969727
875.475647 66.952576 -533.015564
477.703125 218.284897 -712.740601
622.711914 169.707535 -633.143921
680.940979 65.604698 -768.711304
870.718750 0.862331 -659.624512
473.147552 154.456543 -761.773010
899.154053 66.960281 -539.931274
664.753662 22.382891 -778.766296
704.210693 60.782867 -768.463379
738.330994 125.789581 -588.899719
834.452698 19.715069 -665.768311
497.859009 253.585144 -613.590698
578.371582 195.554199 -629.070862
714.192444 82.689392 -679.274658
873.895447 113.939133 -487.538452
738.833313 11.631181 -774.848083
709.262146 89.730438 -696.163208
670.398071 145.867157 -617.339844
474.051300 181.619263 -745.854614
729.187744 95.075966 -662.540344
787.086182 145.296127 -520.404785
776.530457 22.883829 -717.619751
680.016418 21.324371 -787.088684
834.728516 154.290604 -462.686462
700.015869 135.306992 -603.730103
814.267700 72.841759 -609.024292
664.293579 79.352966 -723.429199
723.690979 29.916494 -791.748474
871.206421 -7.698608 -668.290039
490.603760 255.596649 -617.805420
531.318115 193.229309 -678.777405
735.623962 115.958199 -609.569336
847.164490 154.120697 -458.770599
584.558655 126.874466 -728.610840
799.569031 112.127914 -516.864075
780.599548 173.126907 -480.888916
613.627563 220.213074 -585.784363
577.598206 144.593735 -704.548035
580.284790 114.628952 -845.962036
677.913147 179.873810 -531.348328
468.479523 190.619888 -776.898071
853.464294 67.392242 -568.523926
681.963989 22.920061 -772.535645
780.370178 99.562012 -599.284729
580.031616 110.078278 -806.727539
588.959106 86.818626 -834.885620
603.022461 134.602219 -701.366150
476.082916 154.017059 -779.855042
647.863586 223.671829 -543.912659
742.458801 150.451248 -546.233765
635.099365 235.523346 -539.970947
587.673584 119.146622 -733.048706
643.070496 47.762756 -807.661621
826.026062 122.789154 -527.987244
683.220886 126.443382 -638.479614
649.093262 103.132568 -725.758240
503.091064 245.983276 -614.966492
810.550903 138.793259 -512.638794
778.956665 92.288513 -603.688843
495.535034 209.832809 -678.013000
735.531982 154.358200 -556.247986
565.830750 254.865555 -500.575470
779.378662 32.513523 -768.252258
525.243958 201.802933 -695.623169
562.051697 168.467773 -685.200684
641.487000 171.838684 -632.627258
750.738586 -8.195892 -761.706604
880.511475 49.561810 -588.555298
614.643921 102.778831 -754.961914
612.931458 105.350868 -749.143921
860.119019 31.349604 -624.235168
721.712830 194.458038 -495.508148
651.508667 213.759445 -556.202271
736.305359 125.944160 -591.844543
646.246582 15.428191 -779.742981
796.984009 144.455734 -495.381561
544.387268 190.903198 -664.485168
516.439514 190.311325 -728.315918
573.369629 237.948242 -567.177490
804.624084 106.244492 -566.392151
896.499390 96.237320 -485.375580
487.324249 198.040100 -732.815002
797.556763 53.295124 -633.267456
681.265991 164.516525 -580.525513
622.100830 180.847885 -600.900452
690.735229 167.930923 -567.265381
508.614014 191.750412 -696.316956
669.111267 118.363510 -684.705872
835.979980 43.881725 -652.487000
823.345825 35.838001 -656.074097
647.706055 107.411095 -721.185791
827.258179 106.203751 -540.912231
837.269409 34.776230 -652.158569
709.125671 200.556854 -498.882721
830.728394 136.456528 -457.438232
841.891846 67.364685 -577.874512
494.016113 207.268524 -669.580261
796.587341 109.252144 -575.561096
557.493225 125.999809 -753.740601
711.156982 182.917999 -515.684326
582.369629 155.591278 -667.913757
787.371765 118.386154 -579.655396
705.431824 -15.101131 -762.565063
771.663208 54.023342 -668.104431
628.353027 225.507660 -569.154663
893.924622 75.294518 -536.614624
732.786621 -17.075617 -758.473999
459.619263 262.378784 -624.555298
839.123352 20.394859 -669.840088
652.417175 192.688232 -561.411255
764.631470 174.592148 -503.219208
853.591797 45.006752 -618.213379
539.150574 138.704041 -768.026306
612.075745 232.072906 -567.796021
541.813171 251.936539 -538.077820
791.311462 95.269241 -585.263977
566.910767 142.637604 -746.735229
703.940857 105.233116 -654.158813
690.530823 -16.511129 -782.191956
576.761230 252.987442 -536.013428
618.151184 171.403488 -636.919312
838.788696 112.708572 -528.287964
811.666626 43.497662 -660.412476
567.186157 239.069168 -599.156860
491.383148 249.266556 -660.754395
506.380005 274.658386 -592.729187
539.801636 201.659653 -652.119812
570.682007 116.822060 -840.105286
870.026550 60.598892 -583.394531
518.401733 144.207626 -791.170898
607.090149 179.885010 -652.244873
788.373047 -7.786743 -778.762085
495.503326 165.759109 -725.221863
697.126160 59.621769 -726.880981
717.272888 49.746597 -726.271912
692.378052 142.384369 -629.007690
876.028870 55.878292 -548.822510
782.839905 131.673950 -535.022339
654.066101 211.869095 -541.030396
724.060242 77.720268 -681.831787
733.613098 52.719601 -717.978577
499.949554 149.894150 -766.262878
534.005676 175.367081 -697.241760
508.267426 167.160614 -731.410645
519.888062 177.253433 -713.438354
635.853088 42.595474 -806.273926
856.097473 90.058060 -551.018188
548.501770 256.292084 -567.701538
508.135895 250.957596 -611.249329
637.421021 -17.563364 -781.069153
816.569214 9.031455 -701.586487
814.382751 148.357437 -460.728485
645.835510 74.115211 -811.108582
818.811401 12.468838 -690.572205
535.935486 272.563385 -548.555969
544.524658 278.866547 -534.513611
750.576538 125.715904 -598.694885
740.918457 159.409958 -500.648560
868.958984 135.053711 -456.216736
467.164032 199.516968 -738.841431
668.740234 132.297409 -638.704407
560.780090 255.035934 -555.156555
650.876587 206.889191 -522.062988
638.789978 105.806725 -729.604248
830.789917 76.999329 -588.981995
652.186523 78.066063 -777.470642
570.587097 190.124680 -628.141663
873.595337 8.464533 -663.820923
640.206848 139.409500 -689.530151
832.625366 133.772507 -498.619659
832.905884 121.821182 -497.458923
554.886292 169.893036 -656.496765
657.302185 189.237747 -565.280884
872.494568 0.065855 -750.973267
588.735596 173.696365 -658.215088
865.474792 109.598701 -513.743958
881.536987 -19.729822 -663.542542
481.669250 268.457275 -621.829834
712.728210 174.652405 -564.731934
735.983276 170.097916 -517.162659
857.007385 132.142868 -478.629608
837.346924 86.855629 -567.890198
680.898438 10.216072 -772.042358
540.799683 161.863556 -718.805420
536.202637 237.531296 -638.028870
638.427429 186.605942 -556.538025
886.153503 101.314438 -503.537598
588.357666 246.086655 -538.913879
812.257141 103.477058 -579.284912
734.623779 8.094742 -769.653015
860.010376 102.708969 -529.489075
532.440430 137.211349 -808.673645
605.132324 240.953201 -560.463989
861.932739 41.339764 -630.915955
723.220093 120.070938 -565.856323
705.866333 15.300555 -783.595825
766.848267 153.300125 -540.167664
624.393921 235.238831 -528.343750
581.899658 173.380173 -668.623108
840.783875 59.443707 -612.994812
857.614075 7.598412 -762.421570
772.888306 74.473495 -637.153381
524.624329 296.955811 -566.509399
756.814697 9.346261 -768.191650
726.743408 25.230646 -783.167664
647.993408 114.782059 -712.481323
661.561157 208.373734 -526.268005
878.002686 7.606795 -660.943420
745.388855 104.369965 -607.358276
686.131165 182.629166 -557.401733
820.010864 28.627237 -670.576050
752.308472 153.290192 -557.330383
914.081848 79.085220 -471.590881
862.180481 0.510686 -677.221680
798.217468 145.004074 -460.127899
808.788452 113.941978 -531.562317
525.006958 286.424988 -544.504944
864.899231 126.590355 -459.429810
870.529053 120.705185 -479.247070
839.124146 45.764168 -611.536560
531.531494 150.455811 -742.995117
878.047424 -15.382159 -672.809448
829.806335 85.597557 -529.605408
715.525208 186.585800 -506.521851
642.278076 9.387250 -804.074219
665.475647 208.001358 -544.560303
740.655640 -1.689031 -771.981689
528.567505 221.255478 -650.990173
663.949707 120.284546 -695.565857
707.697021 50.628048 -759.343262
577.768677 117.445770 -743.040405
658.535400 57.003025 -790.608032
634.526917 91.364418 -758.086914
663.600464 178.372879 -580.200562
697.417480 154.508438 -582.112915
842.729919 120.307037 -501.612762
826.908020 -9.365947 -779.503113
537.886841 195.038895 -691.309814
595.545776 190.288193 -643.555786
877.961975 88.422523 -530.171692
639.916565 110.816605 -693.743652
639.993835 178.055573 -630.384644
638.294922 131.161453 -697.254150
623.959961 239.843521 -514.353027
708.680359 111.756607 -636.325684
648.314209 138.097366 -622.254211
711.270569 8.828275 -778.443115
594.867798 116.703316 -731.599548
659.999146 151.339920 -617.385803
481.953094 217.952271 -718.523865
546.181274 187.762299 -693.546143
794.890259 -17.767090 -767.807434
488.123260 266.444214 -574.663940
648.061218 214.261414 -532.667725
597.292236 89.219749 -816.956848
584.012085 245.271469 -579.876099
591.587219 199.853790 -610.475647
864.821106 51.754234 -596.892761
682.492371 -4.040997 -772.916016
471.468597 262.861053 -663.277588
808.886719 13.662455 -702.808044
881.940491 -6.957640 -678.300842
780.918945 133.435104 -530.787109
782.537109 79.863884 -635.583862
649.536438 124.123833 -693.780029
902.314331 -17.779274 -754.583801
878.074463 138.249420 -457.480499
650.541626 229.542435 -515.989136
875.184387 98.698631 -474.869171
780.273071 96.879219 -547.343567
498.814911 184.516449 -735.984741
609.859985 231.194656 -549.668762
783.281921 -17.392359 -776.083984
878.534851 115.653137 -449.448761
673.802246 95.714310 -697.018127
773.476868 23.694443 -766.883301
605.701355 102.980652 -756.191040
674.086609 37.983398 -800.512634
542.666870 192.381256 -675.858826
476.945099 232.076828 -673.887634
697.047119 75.798409 -723.882263
480.309418 250.606735 -642.326111
715.888245 84.372658 -691.722534
585.773315 221.888031 -591.130981
770.214417 166.047668 -517.424805
545.558716 124.316086 -818.719727
636.500916 88.969925 -741.297546
482.571625 167.334351 -788.026123
678.437561 160.609085 -576.253357
893.555054 72.163841 -469.719238
790.389099 163.359161 -487.174469
568.540894 161.531296 -689.672607
785.420837 25.488852 -720.250366
827.056274 5.993809 -707.682495
798.402588 50.680058 -673.909058
541.575378 169.717239 -735.767029
542.826721 175.434372 -696.087280
545.245239 229.269836 -629.296997
656.636475 191.442795 -530.531921
701.031860 -3.500249 -779.236877
870.956787 -19.238541 -693.755615
901.459900 -44.983368 -694.466492
822.581055 -7.708877 -697.092651
606.877502 47.514339 -805.622131
608.999146 47.497101 -812.368103
494.276978 222.486465 -695.163269
641.375610 151.558289 -609.239197
602.393494 164.120880 -653.043945
855.888733 79.740906 -572.575928
573.770508 171.536972 -668.452271
491.451263 283.585602 -601.623169
717.094421 143.566757 -581.447021
485.442017 282.224731 -584.423523
513.345520 211.748306 -649.331116
785.473511 25.198656 -725.204285
911.047302 48.362808 -563.163269
749.373169 0.629902 -754.848206
691.217407 -16.490208 -783.374756
535.668884 259.975861 -572.566284
605.577454 245.282181 -550.960388
612.993286 90.965416 -801.540344
822.639709 16.669315 -785.409851
599.383606 107.490929 -746.113831
611.640503 26.670809 -812.341980
532.210327 209.739456 -684.556213
599.529297 201.538406 -621.535217
760.164551 55.347027 -703.020630
540.648376 126.380287 -820.496033
803.161621 135.381851 -525.995178
556.315125 224.284668 -612.483704
782.118713 152.767380 -513.242615
494.507416 142.104233 -783.644531
767.017639 32.283009 -714.665039
682.280884 175.605255 -558.484070
566.214966 179.443375 -663.511536
564.739624 207.656403 -623.679138
547.630432 149.911285 -753.450256
744.119690 133.238251 -570.574585
668.454590 191.994598 -580.433228
482.984619 223.842743 -709.216248
658.267090 103.604401 -709.144165
809.279419 32.447609 -687.242737
699.241821 -23.740973 -778.038208
471.769562 262.307892 -595.356567
787.528137 77.499199 -619.986023
581.976440 197.461853 -648.676697
630.812439 99.137054 -718.028381
820.046143 58.626095 -611.814148
784.169739 144.723663 -509.986786
801.295532 82.486183 -590.485718
551.868469 187.131683 -668.470276
701.971130 77.133545 -687.577820
