ply
format ascii 1.0
element vertex 1425
property float x
property float y
property float z
end_header
-646.219177 479.956757 196.970673
-481.922241 851.588806 183.755951
-574.838440 566.911804 201.800049
-624.519531 440.615082 199.438736
-585.314392 635.654114 168.857254
-696.298828 512.933228 105.284760
-587.283203 593.759277 171.646820
-676.478760 816.999329 -79.308601
-587.599976 909.839478 40.156818
-593.091431 853.978027 61.194054
-696.371399 676.246582 38.720387
-558.449646 754.249451 139.661438
-657.407410 813.837708 -11.947548
-732.543091 730.319580 -21.103786
-669.374573 854.998108 -7.549778
-608.750000 805.823364 59.922787
-658.680603 459.844208 159.317947
-623.133606 684.193726 101.192238
-578.502991 939.759949 39.447010
-645.842896 850.215942 0.432763
-681.812561 852.549072 -9.169661
-628.382751 481.701447 218.028702
-626.457458 537.498962 164.087555
-591.988098 626.925293 163.176773
-560.647400 894.396484 88.685654
-489.065155 890.003296 148.258575
-528.024353 703.434082 188.669037
-814.871765 634.860962 -13.908611
-543.301758 855.643799 113.141403
-694.988342 890.929016 -35.481590
-464.170898 853.238708 158.640686
-717.921021 552.596008 54.581871
-747.439331 707.122009 -35.958660
-552.851685 650.957886 170.064163
-604.688965 759.071289 92.113930
-695.633850 508.406738 103.629089
-566.727356 820.797729 101.153313
-726.624756 647.987000 1.322445
-657.298035 831.358582 9.803271
-621.681396 657.493713 121.171638
-728.035522 477.560516 64.893059
-651.362366 469.328156 174.845566
-501.046936 914.756042 126.707390
-604.403320 543.032410 221.395096
-495.899475 873.378113 148.914032
-726.030640 742.700562 -61.336483
-719.249573 764.063110 -17.632486
-740.247131 749.054565 -21.998732
-560.440369 716.324341 171.846375
-625.423218 634.789307 139.253067
-640.879639 613.383545 112.129829
-572.664185 620.294556 203.438171
-530.048706 688.984131 199.283646
-550.428223 664.204163 217.125198
-500.514984 748.981873 201.881653
-642.009766 816.652527 35.330833
-779.823914 664.106689 -19.902649
-660.850159 741.830078 44.920883
-728.318726 695.198364 1.941638
-716.512268 486.301819 107.612404
-613.769714 851.979614 46.319050
-716.802979 496.863739 102.332794
-748.213135 485.882355 51.180153
-602.884094 712.325439 127.243248
-606.038452 753.971313 80.792809
-746.591309 717.006714 -59.612278
-588.002075 548.174744 174.687790
-725.049561 708.433472 -0.766979
-572.762024 836.605286 73.535149
-688.132690 686.863831 23.876289
-615.847778 521.114746 183.426407
-670.584351 456.344910 179.301392
-581.165405 771.547180 114.611282
-678.281799 782.009888 0.202401
-553.356934 624.279663 228.357498
-718.791260 478.121613 113.439156
-566.880066 697.880432 174.793747
-723.801208 504.222504 96.104187
-605.510437 771.781677 91.554604
-536.877869 831.092285 140.742142
-601.655884 870.850464 41.589119
-727.030396 694.121216 -14.977846
-610.050171 733.225586 86.756828
-580.222473 611.103210 179.989105
-641.846008 516.311829 139.072586
-446.335754 867.229065 210.337433
-698.414795 844.229736 -31.635319
-729.884766 859.834839 -16.829660
-483.613037 877.204163 167.606400
-548.728882 739.911011 155.668182
-505.582489 843.418457 152.078308
-704.223755 712.662781 -89.062119
-666.882874 619.780090 87.609489
-658.614258 666.213806 67.070663
-628.811401 687.641052 70.354477
-569.456787 918.962036 50.294155
-584.512451 925.512878 32.654667
-529.677979 814.293640 154.374176
-706.947021 883.973450 -35.413364
-742.857056 515.581665 70.610756
-617.767090 876.107849 -8.746286
-734.874817 584.749207 15.085072
-622.735229 620.697021 153.643997
-702.084961 634.910889 52.287605
-447.908875 870.229065 202.077377
-622.137695 531.684814 173.963242
-570.929382 675.793823 163.576752
-715.964111 590.827454 55.717724
-700.180908 835.456360 -46.786812
-645.033386 552.433777 137.463043
-509.247559 759.851746 200.323242
-726.831116 549.951172 46.210457
-678.179749 685.540955 35.322315
-534.826050 787.180054 167.973511
-744.857361 622.416931 -13.955495
-511.994720 909.344055 126.584396
-577.773804 653.599609 182.291382
-606.701294 785.160156 69.875771
-687.990356 780.771973 -89.649475
-597.387817 632.472107 166.890793
-449.822388 853.195618 212.388321
-735.780884 643.442749 8.021650
-595.305115 575.806458 201.682373
-693.769897 912.057556 -16.853443
-608.816345 931.466553 -3.378761
-597.193787 737.425415 107.939926
-702.412415 520.147217 112.916267
-693.591980 775.926331 -84.499474
-646.278625 692.287170 75.307198
-694.677307 787.016907 -85.480949
-517.054993 902.402405 97.578392
-469.083405 876.816711 183.344131
-756.927734 675.868164 -64.004875
-612.323975 727.610413 113.508255
-607.699280 844.169434 52.073471
-600.273682 602.888000 166.948975
-573.287415 592.352722 228.819305
-587.639160 809.315674 54.644176
-679.233398 472.944580 139.122116
-462.303345 858.971802 185.404160
-686.869507 679.822083 25.356697
-666.612122 572.912964 112.158226
-673.673828 663.248657 69.143555
-578.153748 773.481628 108.119545
-712.451477 894.357605 -26.709103
-546.550049 777.409729 132.960571
-677.478394 633.548218 60.614525
-624.141602 729.616577 78.214348
-759.938721 688.528320 -10.713902
-657.365356 595.696533 110.476212
-612.376770 786.911499 77.180061
-625.845337 533.187378 187.432175
-518.126831 885.332520 119.443161
-661.846863 485.392426 177.069183
-564.486145 915.602661 65.433052
-580.809509 828.945313 74.531250
-486.007782 845.562073 166.468536
-536.307800 712.074707 195.765366
-674.177979 764.112183 19.294472
-756.902710 688.858459 -39.515663
-722.176636 851.994812 -30.573332
-627.114075 792.713501 56.464405
-757.024109 506.526154 20.594398
-548.992798 929.665588 75.045944
-671.571045 675.841125 56.528812
-700.268005 676.710205 15.337220
-495.452118 786.426758 197.325119
-662.627563 634.012695 55.250145
-637.246521 564.384521 146.109909
-487.594574 797.259338 187.491287
-706.928223 758.950989 -91.608444
-560.282776 724.725769 150.979568
-715.846802 871.972473 -34.869301
-533.717651 755.646179 180.677902
-653.523621 787.610413 19.820345
-636.775085 818.671265 22.170362
-721.439209 617.854248 17.858040
-711.187317 713.087097 -89.548134
-536.013245 674.670166 207.703552
-630.610046 718.353149 91.603210
-607.933899 696.376221 114.851387
-704.747986 758.307678 -52.571701
-734.257019 711.304077 -62.635307
-600.460938 571.120911 173.873459
-735.974060 619.792847 28.997736
-500.276703 790.069336 192.057251
-634.023621 451.123932 221.112411
-815.180359 631.170044 -19.645378
-555.550293 622.854004 196.524002
-813.272583 622.745850 -8.079289
-686.546021 898.568298 -6.837245
-696.839722 824.550354 -72.036125
-566.798828 737.285645 138.009415
-704.076965 785.669983 -85.657051
-613.553101 880.958313 26.356947
-558.862122 811.412842 116.293732
-479.598114 844.047546 175.924194
-688.199890 809.783142 -44.594162
-680.440552 823.587158 -41.356346
-763.519348 526.844727 30.637552
-601.793518 464.409790 209.787125
-607.586670 779.844238 72.505180
-717.511353 845.386169 -34.536278
-770.782410 607.911377 4.193255
-523.249695 916.335388 85.698753
-764.164429 664.992920 -71.297142
-662.621582 577.805664 104.894386
-639.666626 484.242371 197.504791
-744.035461 738.432251 -22.366980
-667.537720 730.838074 19.467379
-592.082825 747.400635 120.892487
-555.402527 750.795471 120.804390
-653.854858 455.255585 204.610001
-827.240295 576.584656 0.241503
-520.355835 699.124695 209.171494
-619.393555 484.187195 196.876480
-707.112366 804.167786 -52.587479
-703.403137 572.656799 82.573959
-550.894409 920.181763 81.856934
-693.894592 556.104980 64.369865
-705.727661 670.783264 -103.821259
-502.093597 792.739380 200.991089
-537.538574 848.834167 92.038826
-648.743347 470.155670 201.069672
-620.687988 893.772705 6.914872
-583.817566 674.547302 137.367950
-569.146973 618.305542 173.054993
-740.980408 606.578735 11.020730
-616.649048 753.944275 89.242096
-761.706726 489.189545 26.469835
-542.336182 632.231384 218.380753
-715.733215 895.663330 -18.840740
-594.242126 547.298645 176.015213
-624.340393 811.460754 50.585567
-721.212585 737.056274 -9.714786
-687.745544 875.289734 -47.806507
-648.412842 681.946045 80.929962
-590.010559 612.240173 168.446350
-476.110474 877.013733 175.482285
-483.300995 826.692871 151.349747
-623.016541 630.431763 145.433380
-688.062988 458.751282 163.087143
-622.683350 519.616455 174.774521
-560.507813 798.672241 130.897446
-702.504028 621.119507 38.353035
-636.612061 630.585022 116.502106
-449.431885 852.529175 202.103943
-587.227417 871.332642 58.123363
-728.572937 734.224915 -6.667758
-643.987122 508.145630 175.969208
-738.255798 497.785980 82.127014
-614.831909 683.017578 115.038429
-506.347351 752.436279 206.411606
-575.082031 598.003662 214.675430
-553.187256 663.293030 163.350815
-588.246155 896.114014 7.689803
-478.043854 852.471680 169.537613
-696.063904 890.930298 -34.975864
-713.905945 745.928040 -87.351654
-693.595886 676.397278 41.608601
-605.339783 661.724548 153.487350
-559.161743 804.684998 132.679276
-657.671387 749.795044 24.695030
-602.997498 476.335236 226.050903
-504.201630 929.268555 128.867096
-495.004608 869.377686 164.145981
-679.226501 761.862183 17.303175
-608.621582 545.596924 179.038940
-663.554993 749.281189 13.961989
-628.091614 867.690430 26.249258
-667.374512 865.332092 -15.662847
-541.560730 651.473999 222.723389
-729.627563 708.861389 -69.710251
-694.575623 730.659424 -7.923850
-665.781860 741.973816 44.237511
-659.945618 795.921082 -0.639315
-681.918030 461.665192 169.586166
-648.136414 839.033386 -1.111031
-476.517578 862.994202 177.974625
-681.762939 700.834473 22.664949
-712.149109 563.066406 55.395962
-623.564758 943.599426 -4.354254
-577.252747 693.815979 148.257446
-690.378540 713.194336 -110.396652
-600.444336 610.062988 174.301208
-718.030396 764.092529 -69.758163
-569.016724 614.908386 198.022415
-446.004272 889.097778 200.193359
-545.160583 895.335266 94.444458
-655.592407 504.774323 166.110718
-637.155457 866.380676 -13.408733
-579.134033 565.658020 162.538773
-670.958618 546.338257 138.034805
-743.977539 692.625122 -54.966103
-716.623779 756.407288 -20.375851
-497.818481 777.010620 188.017319
-659.669861 652.863586 93.621315
-571.336487 817.516602 63.731907
-569.784241 776.389038 115.970901
-719.340271 760.169739 -9.222079
-688.228210 679.999878 45.925735
-763.271545 682.071167 -20.309135
-614.468689 925.448425 -1.015725
-753.302551 496.473877 68.796059
-760.789185 492.312408 56.741230
-713.602539 471.627899 116.120544
-428.271210 908.494202 209.256927
-746.428650 548.170471 52.206688
-769.564514 597.150024 1.656987
-470.980530 895.769104 174.209473
-527.578003 767.353821 180.997910
-591.934021 640.137817 179.492294
-524.519714 794.852417 147.731354
-450.323242 884.058777 201.933777
-502.868500 821.662903 181.159225
-641.817139 536.230225 147.010208
-526.102966 856.964783 121.688927
-614.415527 589.411926 173.484238
-609.351685 535.103394 184.814407
-624.426270 550.148926 169.816437
-762.620850 630.730286 -29.146770
-710.098938 527.185181 99.677513
-594.332458 881.435364 40.793179
-709.926514 562.315674 43.083672
-738.770874 508.497467 59.482792
-620.851746 730.646118 79.632706
-508.888214 831.698975 165.508606
-523.318176 842.361633 113.757584
-721.989014 566.294312 61.839497
-615.889221 525.506409 203.222839
-602.453125 661.501587 155.193817
-688.972229 822.605225 -33.225285
-668.328674 769.007385 19.643099
-727.430420 713.584106 -84.283646
-653.633606 651.954956 98.009254
-532.065002 692.255371 202.349182
-553.350952 670.019592 189.955231
-473.061493 894.252930 170.297852
-691.644348 670.017090 46.496250
-653.121826 650.504272 102.813812
-561.790466 819.305603 122.935608
-694.328186 831.318420 -34.183903
-742.980835 690.407410 -70.371780
-718.057800 801.974915 -38.528717
-659.378906 818.999512 -1.475554
-448.082764 874.409851 162.145020
-726.587402 583.453308 47.257057
-698.784363 770.707520 -46.950104
-677.180664 663.326843 27.705503
-695.022461 731.666748 -15.604372
-616.991760 526.942566 212.125412
-526.069580 764.224365 177.433060
-555.576599 880.307312 81.119827
-598.003906 629.924011 156.911652
-652.134949 825.383850 6.565584
-504.666870 730.033936 206.135376
-543.688660 790.938354 148.115540
-600.449097 615.268494 176.218567
-632.853149 720.857544 72.870110
-554.102600 631.850037 206.584030
-693.222107 709.993774 7.471559
-515.251099 807.066223 150.629761
-598.253296 718.724304 114.691025
-692.451904 755.010681 -101.482384
-552.444214 704.753296 177.127411
-698.911621 762.670166 -82.179588
-675.614624 658.573059 69.981918
-621.547302 807.204468 56.054558
-504.742096 817.524414 159.243057
-758.556519 543.187744 37.987991
-655.406128 774.049927 39.291454
-722.591675 600.743530 14.093834
-596.033447 724.405029 130.517029
-645.031921 642.456604 93.327141
-675.416565 484.810059 119.377365
-739.754272 570.020203 29.797302
-514.880676 757.688660 181.557709
-639.169312 626.045654 107.785393
-778.427002 661.690063 -49.719528
-517.297363 935.097839 105.264526
-517.575134 700.244324 213.634277
-497.877350 891.012390 123.414444
-690.191467 525.852112 103.932060
-564.081238 929.695984 61.919727
-626.068420 712.136780 80.032890
-732.587891 534.227905 75.535362
-600.017151 675.573730 134.085724
-586.993835 809.392151 96.377167
-750.285278 486.975281 62.152275
-614.460571 950.806213 2.592717
-569.517517 568.292419 186.330673
-629.867310 591.992371 143.664932
-658.278564 602.103149 122.913628
-540.606384 639.523132 213.004456
-456.038422 877.469727 187.420074
-558.120483 893.302002 66.809929
-534.073303 881.823181 91.002983
-583.165039 708.405701 107.905167
-533.677368 906.117493 101.429764
-522.565918 782.720093 156.724319
-755.901733 520.805542 33.494076
-605.161316 589.740967 141.213333
-579.478027 955.816406 29.522579
-500.945984 796.634644 155.326950
-588.550903 822.803406 76.464569
-580.083191 917.099365 41.247280
-679.982605 712.264587 22.030128
-706.854980 556.984131 65.135155
-734.011719 575.088623 43.380547
-668.176270 602.957520 91.764549
-623.763855 593.736694 144.370728
-536.600342 739.688110 163.795349
-601.443176 606.126282 181.478668
-709.774170 671.748657 7.299504
-693.353943 682.056885 15.978716
-689.012390 629.022400 71.104713
-705.542786 483.145844 120.356453
-686.635803 457.548615 154.156113
-696.295593 638.752808 36.424995
-703.354004 800.589050 -41.808849
-618.520020 666.594177 118.158440
-577.211731 881.734558 27.050356
-725.266724 758.703674 -44.102684
-615.731201 638.648804 127.150650
-604.984375 805.173828 54.383583
-641.012390 606.239075 140.332245
-680.846741 694.790771 40.024422
-494.749329 889.158630 127.648865
-702.468933 768.371765 -48.106312
-500.174835 820.182800 151.936539
-570.170166 830.015991 94.789673
-622.862183 623.351685 148.053680
-750.672729 680.697998 -69.210716
-717.941223 604.005798 27.854227
-694.068665 561.972412 84.913277
-733.441467 755.987610 -39.004822
-745.649292 717.620605 -14.244184
-525.594116 806.291382 162.928711
-712.613342 486.876953 88.432457
-592.734375 585.941589 162.514755
-544.265198 524.727417 219.007248
-565.437256 888.030273 73.960846
-604.998230 837.426575 66.824432
-569.181030 793.770020 104.219368
-643.041016 528.172668 175.739594
-669.146057 473.761993 174.940536
-615.758484 496.022858 164.495041
-755.889954 672.097656 -70.926956
-737.858032 704.988953 -86.703621
-745.006958 559.653198 5.669692
-721.077393 597.761902 46.299644
-625.953674 604.758057 132.674042
-772.380615 657.352661 -64.636406
-640.299500 669.464355 92.647491
-703.638550 532.336670 99.976570
-659.853455 553.257507 146.803635
-456.889496 827.153748 203.622879
-719.351440 726.106140 -78.648270
-510.241425 788.189453 187.739471
-700.683655 726.233643 -103.953789
-557.324219 668.707214 176.180252
-618.446350 938.002197 -5.115042
-702.372803 620.208252 26.687374
-619.669250 791.530945 64.944664
-675.983032 697.900452 28.125187
-611.685425 481.154114 214.094345
-551.674927 808.487427 134.249908
-485.920105 795.689880 190.320511
-511.530029 761.441162 198.540573
-750.684814 693.549561 -53.605625
-569.613831 875.236755 81.408699
-479.201324 796.285645 198.314835
-556.332092 724.844055 130.060287
-557.753052 755.434387 137.473923
-519.842651 892.886658 82.591393
-559.354248 851.899780 103.580544
-647.917297 609.008606 132.489655
-589.145752 650.661743 167.524017
-734.192688 682.451843 -7.238723
-623.597961 849.038635 37.639343
-704.394775 505.880035 94.801697
-716.830627 553.625305 55.252506
-667.180359 638.984680 88.019104
-673.657227 664.309387 49.152863
-548.187195 828.870850 126.382675
-662.130798 894.655334 -4.205148
-511.750519 753.867126 192.396683
-487.835602 815.260254 184.082062
-746.115967 695.421753 -83.616333
-567.152588 743.364685 146.001953
-455.699554 828.164978 207.186829
-620.698364 695.774658 112.559814
-583.611206 941.447449 26.416248
-733.222412 522.297546 70.279243
-674.474365 825.263367 -78.995163
-594.464172 714.785278 135.391846
-633.440308 481.444214 159.194656
-512.546692 803.769226 176.425278
-582.537537 776.344177 116.867432
-682.120117 816.236084 -13.101677
-479.349121 870.249207 180.485138
-475.615204 851.170959 176.474075
-531.403687 890.660767 100.323769
-756.304871 707.036682 -23.329237
-668.559814 539.486450 118.633781
-549.732483 716.400452 158.625641
-590.631653 734.106201 107.858711
-720.116638 892.811890 -30.911398
-740.987244 507.075378 29.624027
-712.545471 492.577911 89.671608
-448.161102 878.608459 179.222641
-525.064819 689.787659 201.958450
-779.434631 661.502991 -11.968696
-618.458679 617.878052 115.167503
-700.973694 825.753052 -71.569336
-507.791351 792.424133 188.157227
-669.212341 735.754883 46.831196
-613.332581 465.930420 210.798813
-609.880371 936.526672 4.963864
-699.384705 817.013794 -70.585899
-576.536560 624.278992 177.378403
-542.305542 930.200195 83.899315
-673.264526 735.700867 11.234789
-659.834412 461.192841 192.327133
-469.627625 855.143433 186.358932
-668.410889 769.908569 3.749775
-703.665894 822.164185 -64.433762
-736.518555 503.547760 77.884521
-532.412598 776.634338 176.581528
-623.727173 620.890198 130.654968
-699.736450 564.953369 88.110146
-748.935852 717.433167 -17.766865
-538.018372 681.038635 204.437744
-481.791351 811.706177 180.763824
-717.942932 604.264832 47.537170
-589.436157 560.276306 194.292297
-785.588318 659.026001 -41.167625
-601.382996 832.168884 57.170250
-544.138062 911.261658 88.396004
-581.295471 901.000305 55.094730
-578.291199 679.949097 150.664856
-562.120422 896.313782 74.022255
-632.995056 731.519287 65.443871
-703.479492 807.596313 -33.389626
-751.582642 575.802124 7.802588
-561.319580 700.878723 179.290680
-694.376343 931.738098 -18.308033
-705.266357 688.469910 -99.980682
-683.947571 636.881409 42.319492
-599.760193 532.243591 226.463623
-633.335571 554.362732 176.042908
-596.310852 680.923096 151.677872
-676.984680 518.278809 141.688370
-513.556946 882.553528 94.899109
-742.421326 678.684692 4.079432
-601.633850 498.357361 213.087219
-459.477448 872.648193 205.557892
-638.348633 554.970581 167.100708
-541.087646 817.776489 141.514481
-725.637329 718.999023 -68.204445
-584.323730 589.419922 208.606247
-646.661499 527.114502 175.002762
-505.499756 775.684631 192.108475
-600.961792 843.690735 49.644680
-571.166443 747.720703 128.333252
-496.455902 757.892639 216.185440
-779.743469 675.385376 -17.919727
-496.171448 839.127747 183.659653
-631.981201 963.306763 -13.078215
-550.658875 841.713440 104.119690
-718.833740 647.653076 11.044304
-603.241943 740.154297 114.589508
-668.363770 688.965515 45.499863
-720.917236 861.162720 -40.564762
-679.646118 482.420197 132.615295
-633.595764 774.707642 58.031528
-554.886169 912.393555 53.729149
-472.344757 831.974304 185.970596
-558.378845 610.377502 187.205551
-699.250366 748.564819 -4.799742
-557.663757 717.727234 159.869263
-519.642151 736.992126 185.945938
-539.856567 741.203796 164.260376
-581.369507 578.075439 177.162354
-618.360901 470.651886 207.202499
-765.145935 672.033325 -51.612160
-600.081116 940.944397 25.244078
-761.844971 524.402527 17.061119
-630.071289 475.528320 204.350739
-653.090210 505.026825 119.890358
-509.237366 863.299805 145.855911
-636.716675 929.820007 -19.735609
-615.650940 913.341125 0.129482
-518.506042 791.876953 155.953613
-676.701355 506.844452 142.911301
-644.174500 967.096863 -8.433532
-714.117798 913.810120 -19.179155
-619.952209 824.733704 36.546574
-656.723145 721.436401 60.326824
-799.830566 641.683228 -30.946129
-580.315674 787.858398 71.920937
-519.716064 902.656067 122.145081
-735.925354 497.021454 81.894699
-613.950012 599.457092 169.084381
-715.652954 782.656738 -13.684962
-708.457947 941.920593 -13.614198
-579.061401 593.819031 194.895416
-722.319641 746.515869 -20.318069
-580.116211 947.297791 43.033905
-500.810089 911.436646 131.416016
-667.672058 501.076019 142.086548
-666.383789 655.893005 84.603218
-562.211121 891.413574 55.361198
-566.894226 698.331909 167.421112
-653.973694 732.710999 41.346348
-550.576904 773.647278 139.321045
-680.879150 463.680908 132.861923
-747.605896 670.167664 -1.637843
-508.606476 727.830383 205.353043
-575.152527 659.794128 188.371216
-587.765564 668.861267 135.011566
-682.853455 603.140198 58.049347
-625.346863 630.359619 110.398903
-526.387207 731.251404 176.702148
-669.093933 641.449280 66.459358
-577.716187 580.679382 196.642899
-631.736755 945.698059 -5.326895
-710.118958 664.100037 9.402869
-625.688293 661.612305 125.375092
-685.968018 640.862366 47.637455
-618.159180 588.107117 154.125778
-689.518616 818.147644 -75.123077
-750.919189 667.665649 -29.047216
-684.385742 776.622314 -0.673699
-633.792175 829.535095 0.938178
-512.388794 819.373108 155.292847
-626.567810 679.877563 73.637032
-678.785156 776.862915 -94.734398
-551.922241 702.173645 187.407150
-742.102783 531.202942 29.162735
-644.959595 627.945435 104.338509
-601.692017 508.005951 204.798981
-673.348694 492.921051 159.186356
-763.115784 494.262177 10.938812
-472.813934 875.991577 156.515686
-613.858215 576.652832 168.240265
-696.250732 673.406738 38.702991
-617.093933 787.929810 70.286644
-610.537720 860.196289 42.678211
-663.587036 703.972839 68.261803
-561.493103 702.594788 179.517731
-607.567810 913.313599 10.344723
-674.472534 733.977722 38.028847
-605.202087 521.649841 224.343735
-707.734070 682.242676 -96.192421
-671.375977 819.404236 -6.440352
-702.348145 558.503113 68.758308
-689.566406 641.712341 33.855114
-484.192993 886.279968 158.255264
-516.295227 783.676758 144.695557
-553.722656 892.893311 64.106529
-745.439941 541.792725 50.615421
-654.452820 591.798035 109.278114
-602.291077 727.647583 122.006119
-618.079346 670.979858 108.339272
-682.470459 803.432495 -10.553396
-741.245239 562.158447 22.801538
-614.508728 860.604370 27.811766
-640.577087 455.511902 176.241241
-703.524963 890.360229 -10.138352
-703.061890 654.510864 40.192345
-605.418884 737.539001 96.398758
-719.214417 702.348389 -91.983223
-599.385071 520.210388 204.082458
-623.246338 522.735535 195.551727
-544.522339 801.815796 104.111320
-569.363892 811.057129 114.553673
-453.174011 850.841431 197.142349
-743.402405 563.591919 20.073997
-576.888367 579.576843 194.788773
-665.665405 567.736633 106.527885
-640.111633 803.436523 27.237379
-687.480469 539.726685 98.403854
-676.428772 660.609192 54.101948
-640.858459 690.613098 95.578415
-576.652161 768.994995 104.865166
-706.987061 800.942749 -13.171941
-596.717163 788.109558 92.874352
-524.478699 778.064209 157.065994
-706.433777 771.289612 -71.311256
-562.753235 859.703918 84.495956
-626.125916 747.362488 73.214104
-556.299744 654.249390 197.813675
-495.762299 894.018799 154.502151
-554.842407 708.326111 162.846893
-474.996490 829.533508 209.421982
-605.404175 809.633545 58.889263
-594.082153 618.042664 161.916550
-548.460144 895.443237 50.039497
-562.508057 732.682983 155.801422
-566.426453 844.304993 103.266327
-771.080627 682.127502 -34.871006
-565.398132 660.588196 172.514221
-699.219116 738.213074 -85.764793
-722.330078 705.291504 3.588432
-603.074402 932.291077 -0.760796
-561.838379 813.159912 111.952454
-599.200989 734.351013 105.155510
-743.743042 714.661011 -30.808252
-646.244751 508.559021 154.082291
-684.494324 689.860352 45.287640
-613.997803 708.987671 91.427872
-652.190552 644.449585 106.983154
-546.219849 622.095032 201.036942
-559.006104 862.995300 82.581535
-483.802368 918.177307 153.773453
-500.425659 735.176575 213.242691
-585.385620 618.041504 192.336273
-645.826721 504.244629 156.594574
-663.640564 630.214783 99.894554
-591.490723 798.855591 87.348106
-709.065002 693.009521 10.809903
-631.860596 693.270020 94.319336
-525.579346 682.058655 206.048874
-643.793579 855.420288 0.049936
-541.603882 843.969055 102.630287
-569.073181 802.104980 115.711220
-602.979065 632.243652 140.398178
-699.544678 647.283569 52.549004
-520.337891 885.218018 129.910370
-683.859741 505.883545 113.276772
-499.859833 841.127197 134.982040
-603.637573 903.049988 26.594604
-695.807434 614.525513 51.772068
-711.737732 860.618286 -27.825964
-610.412292 508.420593 194.289963
-450.295898 889.288818 199.143524
-471.842957 893.805237 167.877319
-755.720581 565.128418 -3.375604
-702.178101 871.489319 -25.371262
-700.685974 784.251221 -51.018917
-572.517273 574.169250 213.821899
-638.974243 747.752502 58.467079
-715.645630 506.978577 105.403534
-776.681824 656.338745 -61.284264
-595.286682 517.270264 219.171432
-601.561584 492.036835 236.090042
-482.180145 846.346252 162.871429
-738.088379 710.352051 -42.197990
-605.104309 840.465576 32.794121
-539.498901 827.595154 123.446564
-533.143372 862.899597 112.006866
-525.380981 763.187805 178.347549
-583.470764 584.699219 202.425262
-637.448364 753.352844 51.482738
-580.474548 910.882324 50.005409
-682.261780 665.547058 45.842842
-495.120697 910.158813 139.128540
-543.112854 683.586243 196.324432
-611.219910 943.982849 4.669223
-606.176086 483.160553 222.131439
-616.700134 671.813782 112.168053
-509.457458 887.136047 133.972549
-473.158569 901.399048 172.859192
-492.270355 792.060852 185.589981
-711.739990 853.492554 -19.454082
-522.973022 779.397461 163.106003
-580.735229 875.300354 64.152199
-474.819519 853.662903 166.040588
-652.791138 646.968933 89.973007
-651.500916 722.267029 70.432976
-596.729065 803.760986 84.477127
-604.450134 526.444641 180.856262
-748.606628 744.437683 -17.374727
-757.628418 676.106506 -44.781918
-771.134949 545.286255 24.099201
-727.536072 713.910583 -68.966072
-705.018127 672.485229 21.154139
-571.202637 877.773438 52.031216
-460.165039 829.116577 199.941864
-648.235046 867.113586 3.961965
-646.357788 637.616211 84.021820
-482.098755 816.400452 202.192825
-494.652527 859.765564 166.272278
-601.228149 763.067993 87.341743
-592.394531 634.503174 126.624641
-737.139343 712.339294 -35.712708
-699.002136 840.120361 -69.350708
-651.992920 788.667908 20.685144
-510.707611 838.906433 160.831177
-614.322083 656.759705 118.769363
-715.945984 550.992676 85.365662
-701.357605 699.835876 15.589300
-662.423462 592.128479 106.526054
-590.757568 932.048340 28.262133
-664.571960 567.917603 108.157936
-648.916199 700.606689 68.929626
-636.027100 704.900085 81.402481
-701.933777 780.677124 -6.112457
-682.542175 775.562927 9.681108
-686.465759 797.112854 -11.581127
-614.919067 521.149780 206.436478
-711.968323 502.258331 93.952805
-729.993225 731.270874 -57.977196
-688.048828 784.101868 -4.427206
-680.322510 715.051025 36.488976
-691.091125 850.743591 -58.087452
-700.175598 591.175293 73.306587
-599.210876 916.448853 14.380978
-605.223999 875.414612 40.195915
-710.370056 849.574280 -33.362289
-554.840332 720.176941 169.213943
-629.289612 444.435211 200.319962
-609.021179 692.629028 130.794769
-581.224854 903.656189 48.807762
-650.074707 459.134003 214.988983
-689.301208 869.914551 -46.216755
-577.203430 877.954529 78.600182
-563.070862 746.355835 142.015091
-561.489868 824.189453 116.211769
-487.688568 797.523865 210.753952
-578.763672 921.507019 43.084885
-576.557556 695.867859 137.014069
-627.864624 595.437134 161.068558
-575.150635 740.883911 99.967979
-501.514709 772.724060 188.099457
-624.280762 490.070557 157.723099
-562.210510 851.920288 82.397133
-764.037231 493.541443 51.814198
-763.666931 664.197571 -30.703234
-739.250488 662.537537 1.401030
-697.079468 829.615173 -70.037132
-438.666779 904.423828 202.106079
-540.514893 805.696838 148.703125
-742.780823 724.796936 -50.773750
-698.677002 585.445007 78.048203
-548.378174 843.134949 80.660431
-739.839233 493.828766 59.847542
-682.014709 838.432861 -1.969863
-553.499817 694.513367 174.521774
-510.380768 914.694519 113.341011
-474.504700 889.188782 164.235855
-593.110962 519.047424 202.176743
-568.299133 573.481506 217.152756
-760.873413 676.254761 -6.444130
-598.469482 545.351746 164.689056
-498.025055 817.049011 190.766800
-449.046051 876.230225 206.448563
-495.462189 921.969421 132.061768
-626.001404 619.057373 119.468307
-708.377502 775.295471 -18.115294
-687.415222 735.863403 -99.831894
-666.648254 711.952393 35.817276
-582.964539 569.600647 178.676239
-635.123413 662.131287 91.886261
-740.284790 501.090424 52.877327
-474.338409 830.427368 200.509766
-735.583740 725.724365 -20.320763
-451.228516 848.278381 177.498840
-698.154968 740.677673 -102.280678
-469.616974 858.740051 184.504745
-576.163757 864.628662 81.069908
-758.397156 679.056274 -12.308882
-577.642456 667.429565 163.154510
-578.241211 746.041199 140.890121
-632.579895 810.284729 48.561115
-492.922699 886.667297 150.412033
-507.270325 905.732544 119.799492
-778.409851 659.397766 -51.263901
-770.302002 502.701782 37.623619
-679.798706 693.041748 51.404675
-592.641174 675.328430 144.373825
-668.605530 646.911621 65.149773
-694.051880 741.582886 -90.213081
-655.096619 737.519653 53.523655
-601.703979 504.233917 211.343018
-568.768921 594.643127 207.321991
-682.478699 600.451843 96.333420
-615.191833 618.655518 140.359619
-716.185791 655.441895 -4.024620
-514.358948 800.996948 155.151459
-499.600250 788.758118 200.595596
-506.324371 735.507141 212.815079
-720.739807 577.520447 37.397163
-576.181274 737.917664 134.061203
-638.328369 854.889221 -4.180707
-456.020203 889.584534 175.449646
-631.676270 577.556396 128.743271
-538.655273 695.656616 195.474976
-528.596741 871.420898 122.083588
-688.983276 702.268799 0.093820
-641.583984 959.260498 -13.883515
-491.863922 824.893799 172.442352
-448.442932 900.037781 189.248672
-820.241028 488.766327 23.608086
-650.527466 643.823547 105.021324
-764.201599 661.832581 -40.281757
-689.159668 751.404663 9.030865
-598.226135 912.077393 35.856224
-646.162415 462.478119 202.586044
-678.027405 591.649231 81.098305
-601.587219 735.204773 95.059875
-570.472839 797.262451 104.892754
-523.967712 793.825684 155.390060
-563.505615 855.134338 97.964172
-620.581604 810.460449 59.315609
-589.662292 682.101685 141.419479
-558.119324 906.257690 71.694176
-631.891968 853.691101 8.041304
-711.117554 647.575867 15.328587
-505.117249 875.741455 146.884399
-768.809875 573.954590 16.074953
-607.023193 926.955688 15.406013
-495.790436 851.366882 154.397705
-651.059937 703.160278 83.087135
-634.739624 474.555450 189.099960
-610.372314 603.467957 150.941742
-450.639496 840.569580 202.506958
-683.378113 914.941833 -34.075794
-716.552002 868.268738 -26.147158
-464.518677 848.063599 201.537598
-549.543396 624.708862 222.295349
-574.883667 619.259583 189.438553
-622.783142 775.260742 60.190346
-562.818298 736.877075 136.364792
-732.218323 477.058960 76.191940
-484.134888 867.040405 173.687485
-600.707642 644.070068 167.235413
-579.226990 753.329407 110.339127
-667.807434 607.532166 106.227203
-649.825012 607.896790 111.270142
-508.179291 734.579834 205.032898
-507.029510 813.524780 178.321991
-544.749023 737.951172 156.123444
-646.589783 606.083374 115.488884
-718.763733 567.249939 28.642485
-614.904663 480.477020 195.565247
-646.069519 824.765564 9.590474
-655.569763 685.478271 39.795650
-723.416077 708.050293 -92.549484
-711.719421 504.863983 86.757065
-739.198669 705.351990 -66.617874
-690.699219 863.046387 -20.037392
-719.124146 694.999817 -3.327852
-436.149323 879.970215 205.930679
-543.327698 642.563721 209.763321
-674.070251 473.909119 168.053741
-677.534607 667.903015 44.171543
-645.240540 575.026123 151.852554
-687.290833 812.590332 -81.537720
-515.693726 686.149841 197.365387
-613.801208 763.988953 47.637074
-830.245056 512.733215 8.150977
-573.966553 559.687439 222.693069
-481.919250 912.779602 158.967224
-637.505371 610.027222 117.107460
-571.477661 635.557678 198.724533
-617.258606 950.299011 -8.537357
-575.833069 715.619873 157.330414
-697.968384 801.595337 -61.143501
-571.755066 709.062073 157.553833
-605.118469 578.743713 175.622299
-533.425110 902.877258 108.608330
-605.653992 755.750793 100.126526
-764.959351 678.579773 -24.881954
-568.526794 673.092834 188.829102
-714.804077 623.864685 41.122620
-458.691742 868.825317 185.542923
-624.843262 837.095459 25.588221
-545.348083 878.827637 110.858688
-677.781677 475.339264 144.042435
-552.103699 640.464844 197.671021
-558.375916 864.231445 86.856728
-646.956116 707.503906 59.444317
-456.582855 824.320435 193.520462
-746.630249 600.229797 13.890835
-664.059998 775.561035 7.352234
-535.182922 671.853882 210.332153
-557.280457 895.079773 71.853264
-759.127625 526.530334 23.578266
-718.235168 586.457581 33.405704
-713.886841 781.135803 -27.814846
-767.541138 664.894775 -45.150085
-666.444824 488.649567 145.507813
-624.279663 852.551086 -1.936834
-629.261108 447.510681 212.529419
-631.516174 696.362793 89.614265
-745.604797 561.531006 43.674343
-518.697266 899.325317 121.053131
-543.551331 774.197266 165.087784
-552.374939 915.505066 83.458275
-589.874390 652.938599 173.812317
-602.883545 916.348450 27.123720
-543.860657 886.156860 82.441605
-568.736084 687.956360 156.881348
-728.079712 575.713989 30.475054
-556.580322 608.344055 226.381836
-614.875061 653.543884 147.140015
-794.274292 651.061523 -3.714478
-622.359253 713.848450 106.628929
-523.519226 847.610718 145.025269
-570.099915 682.429993 177.211685
-542.030273 831.094116 131.510391
-713.702148 841.625305 -32.396606
-440.009705 882.155762 189.943375
-567.296143 925.691345 61.603844
-668.769897 553.078979 131.590744
-723.227966 593.044189 45.877838
-725.523926 584.892456 32.175610
-663.419373 755.292725 18.031141
-595.369812 730.801208 115.875038
-541.616150 788.352539 150.854691
-696.037598 836.860779 -27.521605
-573.364441 923.190552 48.850258
-566.656982 753.445740 130.676193
-611.916931 557.475586 172.195084
-701.171875 789.662170 -82.555130
-526.926575 702.041870 163.506180
-796.315613 495.199036 3.294087
-554.931824 733.692383 152.752380
-601.963257 964.996704 -4.424957
-733.352112 620.856018 19.164774
-618.772583 731.358826 89.006462
-454.913391 831.716064 203.301605
-771.809631 543.635193 18.602665
-593.035645 762.745605 97.755302
-573.719360 582.818176 182.791519
-712.745300 735.178223 -88.221489
-590.456848 581.588257 189.057526
-486.929840 909.764709 151.326874
-700.741211 790.880920 -84.960281
-693.583496 692.226746 -0.249438
-677.965454 794.753174 -81.830055
-515.485901 917.755127 118.322319
-662.719482 762.272522 15.643128
-500.803009 775.203857 194.231995
-679.455566 478.508118 154.148300
-570.255920 794.483459 98.559128
-595.456665 571.183594 183.868744
-707.012146 691.928101 15.863629
-692.418152 748.389282 -94.837257
-675.333557 630.593201 60.235058
-567.727356 688.621460 155.573151
-523.674316 791.884155 177.446106
-574.389954 821.938660 101.101318
-620.395813 556.171204 182.671524
-645.855530 580.751343 147.763763
-763.543396 556.435425 24.034166
-509.548096 913.639954 126.685234
-542.864868 782.710754 159.988770
-707.195313 582.802002 69.436493
-642.750183 618.761597 114.461014
-548.523071 885.808044 99.797737
-535.256836 710.967163 189.188400
-669.533752 460.425476 154.384384
-531.027527 835.735107 127.360039
-614.421570 738.833984 98.829781
-563.858521 587.581604 184.737076
-589.337708 805.123352 81.270401
-588.249329 751.747437 110.138748
-663.210388 724.816895 59.013401
-619.982910 785.050415 67.538467
-551.708984 905.045105 55.412266
-603.834900 702.170227 113.146950
-481.408569 917.399780 147.229965
-586.250000 817.312378 89.863693
-707.250122 783.968506 -67.637802
-536.799377 686.348267 191.309708
-464.349243 899.835571 171.819305
-705.517273 833.801941 -56.127296
-592.933533 674.647034 160.826385
-633.415588 774.635071 50.061966
-454.039948 867.084412 183.223785
-566.946594 904.250122 74.127411
-707.211304 814.736694 -54.606953
-687.784668 608.427124 66.570259
-485.985626 852.252197 145.465378
-736.069336 593.928162 15.836950
-512.210938 759.098816 152.761795
-578.288025 557.038208 209.592438
-580.418579 529.624146 222.493805
-663.666809 528.604370 99.849243
-703.918030 854.428345 -57.349960
-582.545105 690.432129 118.792297
-595.477539 719.975708 131.910278
-607.109070 960.337097 12.457406
-627.877258 762.221741 69.184692
-657.854492 631.109619 84.167892
-667.807129 725.561523 29.327452
-677.774841 808.154419 -77.445335
-592.782837 841.167725 56.621006
-613.560913 597.214417 150.005814
-665.497437 897.880798 -33.611786
-492.935944 795.219910 178.314728
-715.239502 761.325439 -80.877518
-607.174194 556.093994 178.763275
-676.924683 650.769653 72.326630
-647.753784 632.119629 114.182663
-463.150757 881.332825 193.954590
-474.166199 875.012939 169.641098
-709.530151 830.089600 -33.095810
-551.439331 894.298645 54.590752
-580.288330 799.365051 85.494148
-643.513489 653.978760 85.155624
-689.798950 797.075562 -49.335056
-498.250458 829.976563 148.981171
-692.123474 660.636536 38.045624
-647.128052 794.582947 37.502861
-580.194336 917.326599 50.337162
-659.530945 544.595032 125.705444
-497.668701 925.366882 137.091385
-510.173767 764.364319 182.274216
-808.729126 638.421997 -10.614136
-627.611755 689.308228 93.519653
-571.969849 807.204407 102.949165
-591.317871 744.058167 102.956528
-716.421326 760.923645 -59.057293
-503.384705 873.690674 140.620651
-678.284180 698.960815 27.269737
-707.701233 631.286987 46.678997
-650.738281 718.380798 58.871883
-748.169739 655.467346 -4.879298
-691.540161 518.693665 122.824158
-602.934204 510.826080 182.566086
-706.245361 469.706726 87.806992
-612.366516 581.940857 158.850800
-615.074219 669.852295 112.469955
-751.675171 565.828552 8.512833
-636.145691 873.261475 12.857930
-535.346252 860.086731 124.463272
-560.718628 595.738159 212.041214
-765.436096 666.554626 -32.622169
-699.722107 884.042419 -34.648453
-645.233337 752.001526 45.825317
-515.488037 898.485901 113.332565
-629.996948 815.930542 45.680347
-480.570343 805.854431 165.774887
-761.841736 684.957764 -34.660427
-647.335693 813.585449 4.587889
-601.400818 602.538269 176.779678
-487.955933 910.170349 132.664734
-750.851563 521.693420 50.456470
-453.638947 897.093811 195.421692
-610.897461 542.359924 166.299164
-464.400696 839.155457 176.276077
-610.344666 551.079712 204.371628
-618.633057 912.676636 2.626647
-589.255005 848.718933 76.924255
-677.215820 523.661865 116.941544
-601.673035 492.308136 201.212677
-487.828644 768.392334 175.291321
-602.197876 564.214417 179.281921
-757.054871 502.470795 35.933540
-690.288025 894.255066 -19.045334
-734.548340 695.147217 -81.917458
-748.489319 561.342712 6.344856
-527.503296 853.057129 130.859039
-715.182251 854.494019 -20.604694
-568.385498 906.796143 27.458944
-734.373413 571.686157 28.769497
-782.609253 629.130371 -33.427429
-704.376648 776.774719 -82.701508
-574.782532 802.269226 113.475784
-693.662415 691.556885 17.333553
-588.976257 901.762207 44.326504
-608.120544 607.082275 143.381195
-629.090454 620.996460 125.865105
-562.952942 926.929688 55.410568
-666.216797 599.632996 95.347809
-511.782318 702.476318 212.750717
-529.040161 766.348572 174.098724
-457.465485 853.636597 181.685440
-615.662476 697.436646 109.757523
-676.031433 498.699219 96.843353
-516.269409 845.913696 148.971436
-681.712830 795.417786 -87.319633
-656.504272 852.521484 5.713285
-638.128235 451.895111 171.213272
-551.343933 877.022827 105.815590
-740.365173 556.784729 43.718201
-561.317871 949.530396 52.756382
-536.148926 710.735107 181.579727
-735.572937 709.848083 -87.171783
-611.135681 852.858032 23.668360
-617.410095 516.251770 205.927933
-701.747620 741.887207 -98.306267
-633.059448 815.850098 39.340591
-703.565002 525.445068 108.292839
-715.520630 751.503845 -44.308205
-617.798218 588.128357 152.567734
-557.645569 905.704956 61.475006
-725.673889 466.548462 84.654968
-689.907104 667.525330 30.095869
-663.252075 772.347961 24.748806
-552.982849 605.021973 208.818314
-707.424316 802.303711 -10.498690
-631.260498 556.562561 172.021713
-515.231323 695.934998 194.853973
-590.599182 656.398865 127.251877
-614.081848 680.620728 134.877533
-522.425964 668.354736 199.230759
-532.498291 923.815491 94.544540
-549.626953 806.854980 135.074799
-663.673157 664.191406 58.325642
-602.968994 690.631409 121.296623
-707.124634 548.613403 67.598633
-726.596497 595.357300 41.109097
-726.718384 738.925781 -65.945015
-612.702332 746.070251 97.851501
-590.220825 885.765991 10.823475
-627.949707 500.441925 183.695984
-597.428589 567.600830 182.835724
-666.173889 558.109558 132.234634
-769.509583 512.468933 42.638695
-530.018005 791.149780 150.510635
-569.054443 852.645020 93.092026
-574.977722 808.415039 109.745537
-719.019592 807.567566 -14.310409
-687.584717 791.665649 -1.050459
-566.008240 930.125549 41.729527
-725.810181 753.933899 -22.017017
-586.002625 801.923706 98.148186
-641.170837 891.434021 -11.675582
-771.851013 533.158752 23.958050
-579.372681 721.789429 143.810074
-635.094421 570.191406 160.270065
-497.985596 821.261902 173.889572
-725.027649 725.849792 -75.163300
-777.523743 591.625244 -0.458675
-555.590210 730.292725 146.882843
-775.599060 646.507263 -8.036363
-546.867920 847.934509 115.138000
-711.650940 876.170776 -40.482807
-728.105347 630.885010 32.137371
-619.614807 659.330627 133.938568
-505.750305 775.241028 181.285690
-587.460693 600.289978 206.545120
-696.701843 689.458801 9.153339
-562.774536 817.808044 78.135078
-457.574432 847.219238 208.440323
-648.989136 545.562927 160.780869
-724.446350 501.304718 73.808632
-543.125977 913.548157 87.741371
-646.772888 710.726990 78.408783
-697.279724 628.950195 65.872078
-500.764801 812.969360 189.914856
-449.817566 897.179504 192.683395
-630.468933 597.171570 136.268936
-707.829163 740.932556 -89.277893
-793.712402 646.484192 -40.692108
-583.051147 912.697266 45.413376
-658.259277 753.441101 41.143623
-600.947571 496.809143 192.054276
-623.164612 879.290588 10.683447
-621.510681 782.221558 58.095390
-535.393066 738.502686 136.711807
-662.346252 965.063232 -16.533754
-725.317139 499.344879 95.683769
-481.549438 854.672424 165.675003
-568.174988 886.431152 77.405762
-544.540100 866.760681 112.926956
-615.998840 696.400452 76.978455
-457.680206 893.284058 165.866425
-711.925293 752.051697 -58.714989
-678.151306 762.750671 23.796919
-622.864502 838.703735 34.562481
-713.222839 768.195251 -38.349129
-705.694702 673.268127 9.867431
-702.809814 706.499329 22.196278
-693.570190 605.992310 77.568420
-663.686523 648.594971 87.509941
-494.767120 760.751099 171.318390
-639.291138 483.227539 170.235046
-602.235962 517.786804 195.681534
-728.739014 672.376648 -86.195084
-496.312103 831.362183 171.973175
-713.835144 768.000854 -9.594161
-483.798218 891.755249 153.242706
-475.466553 865.415527 182.863541
-727.599548 548.622803 62.705498
-603.596130 897.176147 25.825939
-467.485413 850.201294 200.894714
-659.085938 716.001709 49.979343
-714.450195 539.244446 94.056320
-687.392090 466.267395 159.680161
-453.827698 907.733276 193.368088
-619.544678 683.275940 108.640450
-687.745422 650.614563 40.985828
-480.024750 894.429504 160.965866
-655.373657 688.731140 60.528557
-570.479797 712.842041 165.727249
-594.215942 848.180725 66.300362
-545.442871 826.834656 130.018311
-601.810181 518.959290 234.065399
-761.152954 624.760559 -5.116841
-652.878357 518.203003 115.556450
-511.717133 923.819519 91.382866
-487.604126 900.376465 147.286057
-648.855347 522.557556 174.817902
-577.503540 635.149841 140.869995
-683.833496 591.365967 74.301956
-536.881592 669.947266 196.472366
-735.687317 759.717896 -50.852119
-834.031738 561.418213 -2.297245
-609.316650 844.577209 55.874710
-737.554077 677.664063 -79.461525
-616.878174 847.597595 44.278069
-576.900208 936.408936 9.344321
-649.732300 480.244110 160.536179
-720.385071 673.486633 -92.321457
-583.760681 640.216675 159.822495
-491.061432 845.975220 170.912842
-584.466675 719.772400 120.049065
-754.157593 613.656860 5.345108
-711.704773 631.852295 27.268379
-662.121338 942.933167 -20.250284
-497.175720 829.812256 160.270782
-706.187561 611.049561 43.928074
-618.092224 782.106140 52.060619
-594.493652 785.818542 59.558659
-635.317383 772.900940 57.833447
-575.495178 578.736877 205.386948
-732.052246 636.484863 11.636182
-621.437561 552.805542 184.456528
-710.762024 737.423279 4.000726
-636.216980 838.145142 5.164047
-744.106079 586.090149 35.568058
-708.326355 776.414917 -68.064285
-729.851746 754.707458 -51.693687
-616.619629 870.126282 16.080528
-597.347900 650.739319 162.817352
-615.137634 570.020874 149.481735
-545.729431 818.418335 129.200790
-676.428589 639.764771 66.848923
-819.753540 541.664063 1.007023
-754.775391 690.213806 -26.325882
-587.797852 876.168701 49.624073
-718.148682 741.845886 -83.097939
-587.365540 945.931152 25.749729
-591.077515 739.755981 127.914223
-691.198425 633.146912 51.326168
-526.422913 683.610168 182.543671
-589.336243 746.600586 102.496834
-539.097412 834.409424 140.170349
-694.174988 680.096191 39.671284
-714.044861 510.206879 80.413040
-698.791199 810.228333 -14.608333
-506.717010 768.941223 183.479828
-597.759644 728.317810 108.445572
-458.500275 869.869141 201.847321
-638.485535 778.380005 37.922813
-493.724884 920.452515 136.371109
-651.324768 473.406342 161.466278
-591.231506 936.500244 24.412964
-556.266846 716.122070 165.604355
-607.742065 599.255920 159.316605
-615.584595 819.516785 44.032772
-721.285828 757.846008 -32.487026
-555.293335 744.184937 167.011108
-655.704651 686.614807 40.609840
-668.319580 829.942627 -2.203633
-634.010498 787.227722 44.028778
-559.823242 744.582092 135.477295
-667.332031 739.282104 22.568554
-712.582458 655.204834 29.061022
-696.016113 516.165161 112.922325
-759.925659 518.904663 39.760441
-518.927917 718.204285 200.635101
-620.494751 638.288635 143.207703
-722.309814 732.355469 -68.795189
-722.072205 758.195923 -36.195389
-741.519897 489.136200 90.688232
-704.565979 778.379700 -65.397751
-581.637268 779.396729 101.923195
-555.632813 607.807434 210.594955
-729.980835 687.015503 -64.244034
-658.683838 537.638062 129.143265
-527.493469 713.157288 188.153107
-605.490173 587.628845 169.075745
-522.360840 819.249451 144.923203
-538.949768 840.572937 137.321289
-573.051636 691.537415 128.697586
-743.516174 680.334595 -76.385544
-684.321472 595.223206 72.311157
-772.442749 529.691467 -4.403839
-648.537354 659.375000 99.945961
-560.341125 730.986084 147.874878
-545.942200 891.337830 98.419014
-466.080078 829.893616 211.615311
-572.003235 596.912476 166.830124
-749.363464 568.694336 34.304729
-586.549561 574.775146 196.820526
-547.402893 774.582764 158.057083
-474.018158 804.612061 200.813385
-614.248230 756.193604 97.143105
-614.064331 843.822021 54.015984
-514.768066 885.440552 131.267899
-704.590637 766.862854 -83.025146
-677.916138 484.964142 129.271729
-619.524780 737.634583 85.132347
-721.740417 619.741882 45.013477
-612.788940 487.636444 200.360413
-608.270996 849.302551 42.335278
-662.205383 654.986877 67.491859
-769.502014 671.850037 -56.501621
-601.082703 592.065796 151.329254
-569.927856 647.661133 194.067230
-510.190613 878.992249 119.353172
-702.232971 812.701111 -55.454056
-704.091309 866.999084 -45.586250
-732.581299 508.121887 30.325092
-707.346191 541.456726 82.353806
-726.120483 596.174316 23.648746
-607.860352 940.086243 -3.591768
-578.468750 739.631348 141.320267
-546.142212 643.627136 205.880768
-591.590332 735.107117 128.178146
-580.574463 557.622437 205.590652
-451.583801 868.085571 197.488831
-698.328064 511.870300 113.392105
-621.329712 635.537292 118.541115
-590.588379 924.217651 -4.161993
-508.958679 727.585022 214.164185
-745.363342 698.910217 -41.379261
-606.372009 898.739014 21.376413
