ply
format ascii 1.0
element vertex 1391
property float x
property float y
property float z
end_header
-317.079681 758.698914 -354.395660
-264.739532 749.329956 -242.057083
39.299835 966.116089 -402.707733
39.826412 958.040100 -380.892395
68.466278 965.190735 -382.005341
-111.418655 870.439148 -389.412445
-27.417179 890.217346 -291.142242
-121.160606 850.544800 -309.582581
22.550266 980.007813 -483.228760
-309.874695 764.565735 -332.181030
-1.141768 909.612000 -272.981781
-33.759312 933.701965 -514.958191
-76.474350 885.976746 -306.393646
-345.382629 771.154358 -446.040222
-377.041290 720.151794 -367.262146
-147.148209 942.624878 -587.770142
47.451553 960.712952 -353.488312
-36.290253 883.742004 -369.358643
-244.091888 857.031311 -527.901123
-317.543365 722.434937 -243.281357
-296.627014 762.030640 -295.754364
-307.222473 817.334778 -521.304749
-259.321503 836.382446 -518.425781
-114.046066 884.454834 -437.627533
-85.623756 898.119080 -422.888763
-278.979736 736.408325 -265.023376
-290.048492 744.275330 -211.183029
-108.901695 900.815552 -482.734619
-149.808304 848.192078 -319.422119
-79.521225 886.601318 -369.304749
-20.411629 894.412537 -263.937317
-129.448029 875.916016 -380.235931
-358.921875 743.598267 -420.892242
-193.884506 875.984253 -566.240906
-119.977234 920.870789 -516.737610
-236.739914 832.788086 -553.604187
-92.307472 846.732605 -237.791534
-291.550842 786.281982 -453.477264
-313.761627 766.927124 -354.174469
-152.251709 836.694519 -295.125000
-107.097305 841.126587 -287.145203
44.262009 984.740601 -451.219269
-142.422714 811.338806 -209.049210
35.674358 925.752686 -289.766144
-247.623245 793.938293 -323.100708
24.414770 950.905518 -353.116699
-200.238647 841.944092 -448.598602
-62.837666 884.365356 -346.597321
49.554115 974.250061 -473.706757
-330.858704 836.057312 -528.847717
-140.215988 831.921326 -276.748962
-238.099136 783.004700 -255.277100
-73.166260 891.491455 -383.784729
-84.656021 861.744690 -381.380035
-118.231583 883.629944 -424.250549
-174.189514 844.065125 -591.718140
-37.416424 916.897217 -345.396667
-302.775055 772.695557 -400.391052
-9.481618 972.193054 -535.187073
0.628764 959.981445 -451.285950
-161.286209 900.608459 -564.370544
17.578892 926.024536 -268.590240
-225.509918 848.906189 -514.122925
-117.247711 854.669312 -309.763000
38.394253 937.501831 -333.019623
-227.185577 783.469482 -249.114700
-54.006554 923.856140 -460.718170
-179.611313 854.768799 -456.787262
-128.819382 901.241333 -488.749329
-35.040451 907.148926 -350.706787
-41.621117 908.763855 -357.137268
-59.964645 876.321594 -308.197235
-66.788635 863.524780 -256.617371
-107.497307 860.155334 -326.470703
-301.127441 779.156433 -353.144928
-324.794525 712.461792 -249.108475
-344.788300 751.971741 -431.492737
-137.064728 953.006714 -569.647339
-382.482910 724.794617 -334.721191
-192.165894 870.788574 -559.906372
5.623282 916.237671 -289.641846
-65.859329 924.085571 -467.132111
-54.892612 917.174561 -436.777161
-80.110687 905.516113 -484.865356
-152.716675 872.378479 -495.892487
-288.428558 822.476746 -533.570923
-150.842651 829.539734 -294.103149
-13.536972 913.099243 -292.965851
-52.900936 923.454712 -449.570862
-112.906708 865.948853 -326.054993
-163.611877 867.220154 -433.640076
-296.528320 747.348267 -240.709946
-57.674530 942.314026 -529.273926
-304.290771 797.424194 -464.106445
-106.632690 839.867554 -221.700653
12.213798 926.021606 -317.720398
-296.710785 737.245483 -270.143616
-109.133080 832.348022 -293.809265
-196.167313 850.915283 -484.278595
-324.558380 756.264038 -315.060455
-301.416290 764.980408 -386.414856
-145.902832 840.753906 -329.032166
-114.017723 866.795288 -331.025604
-134.159561 851.966553 -289.017059
-102.424049 863.686523 -322.000061
-59.780502 939.264771 -540.399658
-94.498901 912.282715 -467.715149
-218.121170 772.174805 -193.958176
19.812603 969.355652 -455.534698
-225.384583 832.777527 -421.909973
-233.854675 810.277954 -402.952271
-139.665955 901.543152 -506.550568
-155.095535 888.179443 -578.256836
82.792740 968.178894 -287.486633
-290.379089 739.123413 -252.909653
-141.285324 873.940979 -391.025513
-284.304840 826.821106 -494.369659
19.263521 905.380371 -337.569489
-71.772041 883.051941 -360.560608
-215.233749 812.815552 -381.576233
-286.678558 738.439209 -286.154388
-106.681335 854.129211 -259.988586
-225.755722 842.424988 -452.242279
-312.724579 763.063416 -367.676239
-46.838837 939.351929 -470.256226
-32.648735 918.236145 -347.281189
-107.084419 937.506836 -533.063599
-163.207092 878.228394 -563.668030
-274.353729 755.240784 -274.608582
-279.168579 795.812012 -400.543762
18.312836 957.599243 -470.989288
-115.778076 837.960876 -270.224030
-197.759583 832.807373 -559.976013
-351.210236 733.438721 -313.028870
-129.462036 879.142090 -407.759521
-230.175034 844.391418 -470.030426
90.753532 965.904907 -294.005615
-246.008926 771.437439 -259.299011
-51.176075 896.026245 -302.765564
-58.261650 912.048340 -385.710754
-312.473083 744.515808 -275.601959
-163.874496 865.499146 -482.305573
-4.046304 955.789063 -471.420715
-178.935181 889.169861 -521.823120
-54.655655 891.134399 -407.679657
-110.786057 889.567749 -430.929932
-89.209137 973.633301 -581.488953
-162.825897 873.205078 -579.060669
2.841712 898.659302 -319.335846
-9.944607 944.567017 -412.308472
-203.700333 800.164978 -574.269836
-80.313614 860.648499 -280.009094
-12.985423 909.562256 -306.381012
-246.536957 763.077759 -250.494446
-184.496185 892.213501 -553.627075
-165.697998 846.813354 -592.352234
-258.335754 749.971619 -219.963684
-110.849854 864.156372 -331.331299
-282.625305 733.628662 -230.458374
2.582832 941.382690 -411.259308
-275.407043 791.648743 -428.695038
-23.933292 940.262878 -536.902832
-131.425919 855.376343 -359.705414
-14.984406 949.742249 -436.894257
-50.166443 982.920959 -588.742554
-128.327560 857.531372 -591.818115
-45.881668 927.881287 -423.482391
-336.100861 750.108582 -323.510864
-210.025436 840.371582 -419.021729
-13.007248 914.158081 -345.286377
-66.397400 855.331482 -292.120117
-41.263088 898.127808 -272.357056
22.047012 939.918823 -367.463501
-64.810501 892.249939 -330.786072
6.992501 981.992004 -526.930298
-3.336311 914.704956 -328.847137
-216.056015 767.601990 -208.727997
-86.899956 858.066772 -373.036560
17.560186 939.818115 -411.119598
-129.995224 854.544556 -289.921539
-283.262329 741.550537 -194.614380
-196.964844 823.873718 -564.498901
24.250708 924.011230 -326.726715
-83.154709 892.548523 -351.808319
-346.014496 745.478088 -391.290558
-155.438614 828.859009 -296.961151
-172.445419 860.997498 -464.985779
-145.345825 823.290833 -252.773407
14.814884 923.758850 -351.623169
54.570122 954.710938 -329.546356
-334.272797 723.557190 -292.322845
-137.788544 914.444336 -542.376038
26.383299 943.002075 -378.893860
-250.028320 801.747375 -460.011536
-76.346230 875.561646 -308.775116
0.072506 957.171753 -484.980408
-327.205170 745.669922 -279.891968
-286.869385 775.713013 -333.902130
-191.407867 843.542542 -377.132965
-251.865128 757.225769 -246.751389
65.932823 960.934753 -318.969971
12.128187 914.685669 -312.655182
-54.123192 920.670349 -440.314240
-313.554382 752.016663 -274.467346
-150.080475 844.306702 -582.618408
-315.879974 727.254517 -306.993439
-131.999420 934.065430 -577.542480
-254.247223 768.551514 -291.263092
-319.932709 744.491638 -336.196198
-138.509995 845.596069 -332.373749
-178.551697 787.193237 -200.017273
-163.689896 882.504211 -577.188110
-72.960526 920.858154 -449.660065
-129.712692 856.637390 -322.753296
-147.492813 863.871216 -384.066132
-192.201126 857.811157 -467.849915
-20.284143 939.762573 -422.641632
-370.900482 752.002258 -441.283630
-162.960098 859.057617 -580.469055
-133.954514 857.327881 -444.343842
-174.578934 798.961365 -586.038635
10.898618 911.653870 -354.659149
-155.188293 820.732300 -225.720139
-237.396179 794.364868 -299.728973
-400.981537 740.491089 -386.421051
-20.083883 939.899048 -394.794586
-221.424805 877.531494 -547.260315
33.127464 955.365112 -352.804413
-260.209167 742.912537 -203.180267
-0.929228 947.238831 -514.893921
-11.679049 901.515198 -307.080078
-293.311249 832.274353 -514.441833
-326.558838 762.301880 -456.061920
-246.009781 770.710449 -217.134811
-328.589050 729.643005 -299.621674
-56.517776 882.217346 -253.324600
-212.680573 817.476440 -340.947449
-301.721436 719.964905 -226.398621
-208.330292 812.655457 -294.669556
-205.325226 800.831299 -580.273560
-220.242004 812.861084 -318.113525
-244.605789 843.131836 -543.754761
-260.479309 810.284729 -460.796692
-128.333206 925.212158 -554.990479
-318.942749 719.619629 -241.540909
-207.758240 884.996948 -555.688293
19.786478 928.371826 -297.776855
-274.969666 778.325928 -297.335022
-224.542282 819.998169 -439.986481
-298.605499 785.959290 -429.178772
-135.094040 858.496216 -326.031036
-123.696754 874.342102 -376.603485
-153.089310 818.072205 -303.221039
-356.961578 727.672791 -353.955658
-48.101414 951.170654 -547.835693
-194.421692 812.330322 -270.406952
40.224178 963.185303 -384.402863
-225.888763 873.979065 -517.846436
-301.963348 711.641418 -185.471237
-108.976570 911.279968 -513.558044
-50.282684 962.473999 -564.654053
-242.810867 845.450562 -532.771362
-251.646194 767.614502 -216.908661
39.532532 935.019287 -312.735046
-330.947540 755.890015 -337.005554
-226.485550 782.784912 -280.717896
-212.298477 818.242310 -342.938446
-177.368179 883.317749 -577.574890
-218.688538 785.120544 -214.568420
-7.302734 953.863892 -449.932190
-195.174881 796.757935 -279.034332
-211.301208 797.033081 -376.625153
-30.804117 960.859375 -508.648224
-138.705902 801.260071 -224.059372
-254.025009 740.113159 -198.914520
-240.016830 793.289063 -553.788696
-127.723541 870.886108 -358.270935
-25.793512 1004.724060 -576.242310
68.503067 934.788025 -288.004211
-95.244812 846.663696 -247.932831
3.575740 906.518738 -283.707581
-173.785309 814.697021 -205.136688
-175.179596 824.093140 -575.174194
-154.203781 843.181030 -386.187073
-115.264648 890.047058 -450.582336
-354.586060 755.026978 -384.189575
-380.788940 750.813416 -435.010803
-306.405182 812.355835 -534.030762
-168.879150 884.347778 -507.262512
-14.680968 912.210083 -277.288269
-93.878357 876.229309 -365.534637
-304.619476 826.127502 -494.277771
-191.327179 837.984802 -355.335571
-391.171692 740.598022 -384.415985
-133.572235 934.268982 -572.868042
-232.876923 853.835022 -537.424011
-351.712372 719.812988 -289.130493
-115.630737 947.572266 -566.917908
-177.265152 867.379822 -534.859802
-89.931442 899.660706 -406.501801
39.276859 938.286682 -365.763428
-241.797958 805.144653 -564.054138
-158.591385 853.388916 -359.804810
-304.787750 739.213989 -318.233734
-77.282417 840.808289 -250.526672
-299.412292 718.182922 -174.775421
-158.912888 849.023499 -402.709869
-144.517288 886.770020 -479.365204
-237.378159 792.338135 -349.592743
-71.430870 898.708069 -470.682404
-258.980011 796.227051 -419.369263
-176.727753 868.235229 -505.353821
-186.015335 834.381226 -375.601929
-203.610519 853.023621 -554.084106
-57.239525 891.617371 -352.710083
46.873249 963.707825 -374.572083
-5.709013 897.094116 -277.610016
-307.415192 740.966125 -254.804535
-282.821533 723.103088 -270.119446
-240.973969 850.199036 -535.385803
-103.207962 857.055054 -290.276367
-157.991776 832.769531 -402.490021
-243.022919 747.181152 -199.065262
-79.953529 898.656006 -419.377441
-78.651863 905.608215 -444.443176
-37.878777 949.185730 -510.435120
-67.138977 931.172791 -494.367371
74.372475 973.157532 -396.350067
-27.672115 939.376160 -427.032867
-308.438019 797.398865 -447.043304
-218.158646 844.438660 -465.063110
-182.647720 822.061646 -588.960449
74.501076 954.992798 -347.408630
-126.973137 861.112244 -387.029175
-23.646370 884.980469 -262.112793
-295.091614 778.249573 -429.280518
-111.137184 889.879944 -419.190674
28.207485 989.265503 -498.844086
-300.655304 756.025513 -302.193512
28.566578 992.581848 -520.730347
-123.930603 845.805115 -239.388382
-141.669327 850.756226 -323.862610
-210.738327 793.039734 -233.879288
-5.700876 934.539551 -409.359070
-207.094437 782.499329 -237.404297
-290.341278 760.165527 -299.960022
-269.338440 837.987610 -490.028442
-223.133041 808.451843 -320.616302
-318.367340 743.538574 -313.506195
55.698242 967.303650 -430.762482
-150.884491 835.272888 -336.405365
-66.876534 936.718506 -489.840698
-267.051544 812.390991 -558.735596
-116.892395 853.307068 -343.548553
-62.134727 904.645020 -368.339020
53.260452 957.348694 -373.563080
-139.368637 907.986206 -509.097382
-215.212021 838.613525 -559.561157
-161.266678 836.087219 -295.163605
-163.273071 891.588379 -551.574402
-32.189484 919.938965 -359.669067
-318.431488 726.869202 -233.542816
-157.595932 851.373230 -390.144409
-31.160181 906.507568 -347.173004
33.961945 954.549561 -348.000275
-220.036118 789.940613 -368.643890
-144.472641 887.392639 -451.341461
-153.598267 841.246277 -423.679047
12.119939 957.670837 -403.429108
-143.669342 881.006470 -429.968933
-94.138275 877.274658 -370.262756
-153.538208 808.007813 -237.573700
-132.324036 954.104858 -571.023376
-307.237518 790.208069 -435.359161
-172.622299 858.200623 -435.875153
33.808472 961.872009 -399.119446
-334.975677 760.450562 -371.020111
-278.504364 748.307373 -272.937042
-301.706238 708.753784 -257.542450
-107.174904 833.307373 -242.732513
38.656826 984.368896 -467.884705
18.065342 947.161194 -381.102417
-141.758621 920.767700 -554.122437
44.457943 923.181763 -324.913269
-108.130310 910.509827 -510.062469
-133.485703 819.275818 -272.947266
-161.454575 815.180298 -286.363220
-265.211548 833.167480 -543.362427
5.086123 955.303345 -517.725830
-218.673553 768.404480 -208.932724
38.332832 964.452209 -388.804108
-98.126801 970.748840 -564.068848
-11.553925 933.239746 -389.860443
-234.485611 784.610901 -285.738373
-223.184814 859.103088 -487.789764
-27.730902 929.168335 -437.801666
-265.199921 771.554932 -266.402802
-292.645966 786.664307 -393.483856
-19.351023 942.827026 -538.640381
-64.049316 890.506592 -293.277740
-280.832886 756.638550 -275.447113
42.613953 993.814575 -469.352417
-78.187737 921.466675 -495.566223
-31.948936 942.409363 -479.044678
-203.565445 831.969055 -442.349884
-112.966209 831.753357 -240.744736
-141.678360 892.463989 -482.003723
-288.837891 748.231384 -213.818680
15.298028 942.327515 -390.518799
-70.103561 889.559387 -331.339447
-140.101364 857.386292 -370.635712
-143.897079 957.454346 -573.451721
-147.466293 905.632935 -565.039368
-188.255646 850.790894 -459.325409
-227.675629 851.009094 -549.598267
-109.252495 881.026855 -422.433075
-204.256821 837.218994 -574.917419
-107.664017 900.383545 -449.903442
-79.931259 855.042236 -257.102875
-305.061890 826.377869 -519.466614
-360.001587 751.635986 -441.812195
-372.811066 742.145569 -353.772156
-243.555786 837.826904 -556.179810
-154.205338 880.225159 -467.482330
-224.545364 790.109558 -254.481934
-175.616989 846.067200 -430.522125
-25.447138 963.822693 -522.184387
-332.057251 750.290833 -343.627930
31.699877 963.621521 -398.588196
-258.934540 801.760498 -444.523804
-370.641357 724.134094 -370.638306
39.463810 942.381958 -342.727295
-61.462799 865.457764 -253.249893
-119.785927 844.767334 -291.806061
-194.751205 831.302429 -388.383911
-11.899655 986.884583 -584.938965
-253.449448 805.606201 -549.782227
-273.139282 816.512817 -540.415771
-21.903290 962.447327 -571.555847
-292.431030 740.200745 -195.139114
-154.394379 891.015320 -582.018005
10.128786 943.100952 -438.854431
-203.214523 851.576477 -577.591675
-273.818604 763.584290 -282.898651
-367.756836 734.744263 -420.647247
-180.214310 855.968750 -470.468658
19.211720 981.246338 -507.559570
-87.193092 852.842285 -260.319153
-35.031509 901.998596 -362.441010
-109.818253 1000.409790 -585.697876
-20.015215 915.496765 -361.704803
-157.329544 800.168640 -207.444000
-266.078979 795.023193 -426.234375
-250.765350 849.916504 -512.173218
-169.890610 870.430176 -464.488037
-20.623644 940.417358 -416.629547
-56.873207 874.968140 -271.570496
-135.316376 824.315063 -315.067963
4.306975 946.782776 -406.424316
-194.578629 882.307007 -549.847717
-164.517792 820.963989 -585.726196
83.184593 950.261475 -327.529175
-158.392227 877.740967 -441.397552
39.709705 972.262573 -436.466461
-204.410507 795.840027 -280.941437
-108.672470 923.616882 -528.785889
-297.378754 735.151611 -253.147476
-247.123199 808.584473 -382.300720
-188.287521 797.394409 -198.398758
-236.132416 756.056641 -206.568756
7.008364 895.502991 -263.649445
16.967392 961.229065 -469.224243
-170.620834 828.839844 -354.046143
-21.379257 953.630981 -474.244324
64.444344 938.961426 -386.552124
-373.037079 738.778687 -314.436737
-285.598694 756.018005 -180.939651
-21.586554 911.182800 -306.428314
-145.689880 820.784668 -297.430634
-173.673187 858.296753 -564.205444
-330.170258 722.748901 -263.050934
-161.036942 893.809265 -563.045593
-231.084686 815.009583 -470.111542
-31.818090 940.431274 -511.358978
67.739716 969.706482 -372.613708
46.015991 972.745117 -421.786682
-216.445892 866.805481 -545.838074
-68.346375 874.825867 -262.303223
-87.546761 912.462952 -451.851013
-187.819077 894.386658 -551.037231
-15.591449 982.140381 -546.784363
-256.371613 780.645813 -342.453583
-146.253296 873.415588 -468.476501
102.097443 955.933655 -320.238586
-15.742304 917.903503 -305.982452
-192.148026 897.910522 -547.829041
-353.079956 733.018311 -364.786682
-14.252345 900.857300 -276.817566
-298.507111 754.553833 -384.043335
-130.834091 847.991333 -344.090027
-4.737794 934.532288 -380.148987
24.573181 928.637329 -286.472321
-108.826591 863.503174 -332.012451
52.736614 945.991516 -356.966797
66.162170 949.977173 -373.910889
-81.042862 860.712524 -265.535492
-355.997833 733.878845 -385.521027
-159.698669 875.868286 -504.048584
-111.464775 832.005432 -239.373398
-149.700958 864.210449 -457.742035
-128.177353 892.639893 -491.706787
-77.157555 903.525391 -436.355377
-57.642044 945.670349 -512.184448
-103.815575 960.513611 -587.075928
-167.875732 822.470825 -343.665283
-254.387146 744.093994 -184.128159
-247.297043 787.658752 -351.655701
-120.200455 849.885132 -283.269897
-67.799118 919.627319 -435.478699
-186.389008 836.419250 -391.510193
33.377544 960.056763 -404.690979
-293.079041 792.162170 -393.031525
-143.574280 855.464294 -329.513184
-26.342140 943.911743 -485.386597
-2.860236 966.029297 -451.668060
-199.342056 819.064087 -564.439392
-344.708862 766.028748 -459.742340
-61.988880 935.227051 -507.867035
-187.105560 818.681519 -342.690582
24.472452 938.244141 -305.669312
-141.140091 834.617615 -373.510284
-3.803326 937.068604 -486.195221
34.109592 966.821899 -417.293152
-246.495270 765.516357 -261.225037
-179.917953 817.532166 -582.967834
-20.515226 931.490417 -428.411011
9.780499 936.237305 -361.190918
-154.564606 874.466736 -581.835815
-13.259773 920.533752 -325.906891
-118.934349 943.775269 -583.556641
-287.235413 753.037354 -303.000397
-216.447693 804.443359 -276.909576
-22.735128 894.996155 -304.657196
-195.343033 795.881531 -263.547974
-277.706421 760.221924 -309.393890
-192.082199 808.360413 -302.752655
19.226837 915.791626 -262.907379
79.822800 955.590698 -290.339661
-123.932838 962.165039 -570.476135
53.307320 940.017151 -277.312347
-178.289322 835.623108 -587.915588
-263.311554 757.316528 -255.855469
4.194913 945.862854 -505.610596
-315.159363 774.948486 -397.426086
-186.681625 858.437317 -486.023804
-62.372139 980.505859 -576.900391
-268.033783 748.943481 -294.837158
-138.668411 912.000183 -540.573547
-214.847687 837.745056 -541.537903
-220.718124 792.668945 -255.828583
-249.319901 767.360962 -275.176453
-282.928589 724.700867 -165.655548
-147.425690 814.945557 -250.594086
26.334503 959.793274 -462.706268
-316.092285 742.688599 -265.517273
-135.318054 943.778931 -563.108521
-228.628769 835.936096 -450.873108
-327.485016 759.971924 -423.432251
-97.921242 876.062683 -334.227203
-136.428894 833.226257 -255.452652
-133.230286 877.383240 -483.009369
-178.032318 824.952637 -328.916443
65.888283 930.001709 -291.483734
-215.716721 800.814392 -356.224335
-105.196045 838.398621 -256.170502
13.730540 934.177795 -320.395355
-270.400177 739.993652 -228.723465
-50.386528 877.145630 -249.723907
62.152470 962.257629 -344.327911
-219.073105 825.251038 -388.148346
-174.829849 886.235779 -522.074280
87.693687 968.180847 -335.221466
-318.336304 786.186401 -491.851624
-56.447727 916.105896 -428.074707
73.918327 961.937744 -337.640991
-189.125259 806.692200 -303.160034
-21.377092 967.260498 -540.618286
-301.479279 816.962463 -531.700623
-157.912659 864.284729 -405.654907
-24.126377 957.327209 -530.210876
-68.060036 947.092590 -530.379333
-156.547974 830.310120 -314.251343
-7.412995 932.664001 -432.243835
14.739031 920.299377 -307.774353
-119.733040 854.788086 -284.783295
-218.068405 833.742615 -564.684509
-20.943993 936.477966 -526.377380
-14.860770 960.732422 -502.611053
-292.610138 707.015991 -217.448929
-209.010971 829.024353 -582.808533
-234.215714 824.453064 -402.591217
-35.781796 880.465210 -263.001373
-199.164795 804.602478 -571.079224
-135.892151 917.676392 -595.209045
-253.228012 824.065430 -547.762756
-177.689026 850.509644 -590.125549
51.647591 962.796143 -392.623138
-274.054565 791.720093 -366.277679
-196.124527 868.050415 -557.942017
-209.431427 833.250427 -465.066620
-24.609472 891.687805 -257.252899
-147.447113 815.867371 -590.336853
-241.693863 761.686951 -226.562775
84.351486 959.481628 -284.661865
-47.476364 893.329224 -407.091705
-235.116089 769.881348 -254.618515
-221.303833 807.556946 -316.824951
-267.922485 808.727356 -432.145325
-185.647232 842.187683 -415.345001
-309.326782 725.976074 -209.605911
-375.427765 721.835144 -369.677338
-356.911987 742.803894 -404.822144
-290.414490 749.795837 -266.153687
-252.170746 785.125061 -551.022278
98.634727 981.900940 -301.957031
78.915260 945.390991 -304.949371
35.847282 928.586487 -368.015472
-120.631470 883.443237 -415.253906
15.500300 971.582275 -473.005615
-207.383270 863.918396 -527.577087
-293.341583 732.813110 -198.973099
-23.542204 912.957214 -371.537994
-2.975322 950.004517 -522.116516
-187.208969 863.026062 -477.017334
52.077690 973.014771 -425.831543
-192.053818 849.237610 -557.667175
-10.141908 963.339172 -494.810486
-220.758270 788.829773 -326.052124
-81.620819 916.059143 -454.954376
-122.215065 838.965637 -275.190063
-267.887390 805.513367 -419.396606
-44.242939 930.027588 -463.549561
45.089855 937.844910 -323.936188
57.850189 956.263367 -342.513092
-34.920399 928.100464 -405.453522
-7.527961 919.317810 -307.738800
-368.654633 746.250244 -372.769348
41.931904 929.828918 -391.141296
-154.934036 891.771667 -580.832092
-239.677826 857.600891 -515.936035
-280.314941 751.032227 -219.544556
-146.173965 903.777588 -559.779419
-269.063660 771.377014 -255.220993
-296.983826 807.984070 -544.732422
-141.344345 836.784363 -593.062744
42.801510 936.500305 -270.271332
-121.636879 899.848816 -483.784119
-292.195587 828.771912 -495.014069
42.180302 957.595886 -431.485596
-30.041367 879.840698 -314.522522
-285.835449 773.630493 -300.684875
-45.040848 914.996643 -361.086304
-84.694191 905.530212 -501.777557
-166.118820 881.057983 -547.199829
-201.562943 876.995911 -542.880005
-105.840828 861.744568 -283.925751
-196.318344 875.792725 -552.783630
-81.907791 882.536743 -340.812622
-90.151421 966.089050 -563.694275
-347.815094 739.932556 -393.277527
22.925373 972.789734 -462.912048
-106.193428 906.540833 -499.234497
-331.653564 739.410950 -279.038208
-85.337784 852.861267 -239.719086
-11.465694 889.029846 -339.589935
-55.158268 942.757935 -509.585663
-22.005861 909.328125 -286.251556
-190.546585 800.891724 -283.643005
13.576158 926.841309 -340.039185
-84.493507 848.766418 -336.203796
-63.319740 876.377808 -278.625427
-123.756287 843.552856 -291.532837
-405.419800 735.968201 -435.564911
-39.683331 925.437805 -395.376587
49.134876 943.599426 -414.124878
-304.152496 759.603394 -425.959625
-70.158241 904.540100 -383.879913
-151.115463 850.558838 -391.768402
-244.574875 819.219177 -472.349854
-91.634048 883.296265 -329.757446
-291.704376 750.118835 -309.123260
-6.153140 955.456970 -458.609192
-208.837219 851.678650 -450.921753
-168.534439 836.741943 -348.154602
35.633781 936.254883 -353.024048
-270.604309 740.334167 -226.615387
-194.743027 808.658081 -337.474609
-288.276123 788.961853 -399.026703
-17.334993 979.856873 -562.100525
-128.355301 874.004517 -426.993927
-277.020325 775.254150 -308.593658
38.961262 980.718140 -456.484619
-45.116470 928.957214 -406.472046
-134.874496 877.376099 -488.625458
-263.250885 764.069214 -194.813873
-207.379440 820.099792 -378.023590
36.030235 956.023071 -456.165009
34.152061 952.383240 -367.115265
8.150273 980.991577 -522.820984
-368.831696 721.403076 -381.086182
-59.081745 917.236938 -436.241699
8.991901 932.683044 -372.758820
-318.015045 718.509216 -255.605560
-167.065781 908.864746 -534.242249
-44.613453 950.856323 -563.753357
21.972647 990.140808 -512.069397
-325.136780 754.425537 -401.967621
-283.298737 731.683655 -224.428513
-115.686729 857.754028 -324.777008
-87.878845 849.308105 -314.199005
-86.122299 901.287903 -439.422546
-235.876816 824.638000 -408.116180
-219.489838 747.961792 -196.629974
-169.675583 835.426941 -302.780609
54.811367 989.069153 -450.221069
50.179314 952.159973 -331.682343
-352.902893 714.617493 -355.573517
-8.306095 933.869629 -364.321259
-98.958855 834.194458 -234.324310
-265.957336 840.293030 -526.942017
-93.955383 986.876770 -577.510986
-330.408844 745.214294 -372.166534
-161.086288 881.434326 -480.750244
-215.690247 804.606873 -352.193115
-387.298401 747.729309 -432.389709
-254.461777 802.223511 -413.577209
-165.650162 869.462830 -451.091125
-77.362404 911.418518 -475.811737
-93.816734 860.780273 -296.613586
-167.646820 851.535034 -587.420715
-137.506546 852.939697 -376.915131
-62.049622 882.740295 -333.082672
-2.765410 986.048706 -549.403015
-27.606258 936.362061 -475.002899
-84.794243 921.856079 -499.752899
-152.230225 843.874023 -360.059265
-357.135895 821.862488 -504.037567
-223.940659 774.434631 -248.084900
-48.800579 891.406250 -346.028015
-61.675098 908.073975 -414.068298
26.437639 953.029114 -415.133423
90.675262 962.153259 -327.122253
-72.451614 863.960022 -257.497742
63.478237 963.916687 -357.179199
-225.750000 810.683105 -342.270264
-346.097412 766.115173 -407.460419
-192.860153 812.894592 -276.248352
-95.813515 901.563232 -461.544556
-171.836258 807.565735 -210.693558
-267.320496 792.965637 -343.645203
-55.163723 885.028137 -292.384277
-124.290833 901.627869 -538.197327
-274.338013 846.879700 -515.372620
-74.920876 922.633972 -460.190125
-146.835526 865.611877 -493.497070
-185.363861 850.111206 -413.001404
-137.288300 840.304138 -303.736206
-49.946472 880.504272 -277.701752
56.659805 977.893860 -418.520996
-304.443787 764.948669 -333.581451
-134.421539 869.086121 -439.107483
-31.019871 892.456604 -389.153625
-76.513222 901.895386 -414.134277
-43.139080 882.037354 -269.083099
-136.579987 853.720825 -355.843872
-26.735197 887.745178 -320.411652
-112.873116 962.928711 -596.028320
-240.025131 756.936279 -201.942474
-53.553299 924.064087 -419.533508
100.478447 970.515808 -305.529907
-57.719410 890.312195 -360.035034
-116.870728 833.891235 -232.237076
66.197952 946.476929 -362.017792
-293.753571 780.818665 -436.558838
-212.079102 792.103455 -356.411194
-147.477814 802.535583 -247.411743
-128.609695 807.406433 -231.988098
-232.746887 828.833862 -480.117096
-248.698349 780.486145 -550.513428
18.208027 952.571472 -393.655823
-175.090073 841.728333 -406.580261
-321.799072 737.781250 -372.093994
-143.729736 929.047363 -561.845886
-27.923006 914.272766 -337.175385
-74.108253 929.093018 -504.938477
38.092388 958.187317 -443.199249
-70.123581 872.671021 -264.460175
-8.473094 948.225159 -423.008026
-301.264526 751.281677 -256.051575
-137.058380 849.290771 -283.175964
-261.120575 780.458069 -352.164795
44.986507 950.206116 -323.713470
-321.752258 757.130127 -361.924927
-180.309723 838.643188 -387.664429
-184.254578 792.035339 -244.920837
-130.545227 865.392334 -394.525330
-9.380589 961.274841 -503.269867
-196.567123 788.517761 -246.694107
22.885336 961.673340 -409.821014
-236.407318 776.887207 -285.014221
-62.545700 901.011169 -377.179321
-346.335266 768.442139 -433.667664
-261.955566 769.130615 -288.544525
-65.422569 907.277527 -388.594818
68.732063 957.628296 -282.842743
-288.623871 750.684326 -245.952698
-15.639654 937.312439 -445.065552
-261.074646 817.366028 -444.570618
-29.103043 916.959778 -332.000641
9.815955 972.304932 -510.035645
-277.962982 791.024170 -384.344849
-143.530045 824.538391 -207.701263
-48.566864 940.697021 -461.183838
-30.803585 946.350403 -479.815826
-314.993652 767.971313 -340.016388
-72.163757 887.947205 -359.008362
-241.420898 819.957764 -446.973297
-26.106607 911.749634 -361.049500
-125.239372 919.846680 -533.917480
-231.919434 862.664978 -541.711792
78.930237 953.815308 -330.410645
-225.722977 776.142639 -223.887161
9.500898 967.459412 -457.252167
-70.003838 955.829590 -534.306335
-77.363464 864.204041 -275.226410
-107.401512 916.442078 -520.641418
-324.173615 820.416321 -490.731140
-239.125488 766.795593 -252.777817
-182.087143 808.248779 -280.933563
-144.062576 911.741760 -520.108032
-180.628937 790.556335 -235.398102
32.522778 906.449463 -288.392395
-180.522385 860.403748 -440.363129
-114.875687 858.857666 -339.326294
-104.869164 886.648804 -430.848541
-107.670341 865.344116 -349.732147
-186.267181 814.037659 -260.206085
-173.985901 835.170349 -386.344208
-71.210999 913.029358 -506.844940
-367.496704 738.050110 -357.403809
-39.784348 913.077271 -345.506531
-119.373497 882.526062 -409.950378
-130.785126 867.908997 -360.542053
-117.809105 854.365723 -348.369873
-232.695023 814.930603 -375.069824
-61.876099 885.542175 -325.016541
-30.148602 935.691772 -400.440552
-261.626801 853.084473 -516.973328
-44.355499 886.696594 -288.700684
-70.551109 860.005676 -248.813095
-154.772797 902.209717 -556.184692
-281.249329 742.409607 -247.527008
-46.209095 950.990356 -497.500793
34.757362 960.237732 -367.167145
-356.435486 737.094849 -403.957703
21.481209 926.339294 -312.802246
-216.722031 810.885132 -580.252563
-188.984894 811.080566 -296.426208
-34.097515 915.667175 -355.264709
-82.357910 889.858826 -331.532135
-149.502853 888.515869 -587.323547
92.282852 963.823242 -285.883392
-217.168793 802.786255 -337.144012
-114.707069 869.999634 -378.665466
0.454252 952.881592 -423.668030
-80.884956 924.728516 -467.421478
-236.924240 844.706177 -543.125977
-119.593941 967.811340 -563.006287
-302.547638 756.744202 -294.937134
-291.395081 781.761597 -435.970978
-287.937286 833.626709 -522.158325
-213.168671 794.802368 -225.410492
-215.308960 796.722839 -316.126770
-137.094574 869.272827 -490.043213
-157.257446 819.229675 -261.185303
-142.593277 828.388611 -315.578949
-259.174408 744.654541 -291.112396
24.373131 948.550110 -357.083130
-74.649635 890.082520 -380.870514
-202.991837 818.327271 -306.643951
-58.126369 949.629333 -539.275146
-42.100239 911.304565 -344.841034
-273.663269 724.735779 -193.657608
-54.290386 929.572083 -521.808167
-4.464520 904.790466 -254.639954
-51.360260 943.783875 -528.082336
-242.077942 777.260315 -254.776352
-82.699364 920.161133 -479.453461
-303.988037 809.323853 -499.622009
-40.593414 874.352112 -261.023651
-108.970444 858.224121 -313.983276
-386.755829 714.614197 -382.702911
-206.118637 836.523926 -493.365021
-17.422390 944.301941 -437.239594
-50.998936 927.320190 -412.035126
-277.180725 808.780579 -547.078491
-56.041569 899.072327 -365.638763
17.724430 977.167175 -468.069214
-183.508667 790.021790 -229.008286
-256.375702 777.351929 -281.451660
66.641693 974.293213 -391.122803
-162.102112 872.008057 -555.801208
-189.659058 845.193237 -581.056213
-95.773117 867.359497 -282.049652
-221.188019 851.227417 -550.317932
-51.462479 896.117920 -345.432922
-210.626724 877.097961 -505.125061
-126.206818 827.816467 -251.391373
-263.968750 738.633484 -191.781403
-234.947449 830.731140 -437.869202
-149.687347 865.659180 -383.900818
-59.744873 875.240173 -291.379852
-73.473686 957.303772 -566.412354
-190.068985 886.354858 -548.787109
-167.765961 853.764954 -388.745514
25.987082 950.113770 -400.769836
-215.297852 788.475525 -577.748291
66.592712 972.756287 -351.703796
-60.744629 907.294434 -409.161102
9.447845 927.704529 -311.001556
-66.621193 866.198914 -289.990784
44.919647 947.932556 -324.935822
23.658779 909.277222 -260.315277
-143.960907 827.270813 -273.097748
-333.078156 834.399719 -493.682800
-62.422768 897.510620 -344.648254
-195.353561 843.757324 -407.443512
-105.756569 864.069092 -339.288269
-277.767700 792.334595 -377.516785
-337.211121 759.296265 -383.567871
-58.627083 906.010925 -425.502808
-135.156891 840.022522 -227.362946
-50.078949 872.286194 -327.840820
7.668028 932.583801 -371.381897
-86.056602 920.369141 -473.771027
-150.463196 876.709167 -486.347473
-112.431740 904.444824 -460.840118
-265.979736 750.515259 -224.784988
-384.195709 746.003174 -421.585419
18.923267 962.334595 -499.173340
-224.661026 790.053467 -349.041443
-120.493385 845.926819 -313.792786
72.369911 958.840637 -319.796204
-196.314240 863.061096 -562.945007
-261.549530 743.063721 -224.068359
-117.546120 871.700562 -332.282501
-15.441530 915.832031 -332.910065
36.623081 971.686584 -415.676514
-301.166168 739.974976 -273.497528
-79.759392 867.380371 -295.839417
-83.607056 895.763000 -406.437225
-137.400208 879.266174 -588.331665
-133.611237 837.511536 -277.443756
-179.350754 895.804138 -543.434021
-316.013184 704.845947 -213.670105
18.648344 953.875122 -461.186401
-250.374741 858.595825 -526.073425
31.982725 941.967773 -322.534332
-96.373520 887.389709 -403.163666
19.335165 951.026062 -374.005310
-255.393692 746.571655 -171.793625
26.738403 979.933289 -482.649200
-316.386658 767.956116 -409.730499
-263.542969 786.178467 -305.195801
-280.720490 792.394653 -388.712952
-126.035652 951.448547 -593.983704
-40.535969 944.710754 -507.946838
-67.826363 858.938110 -298.982300
59.003342 972.015503 -395.245728
-76.903152 885.914490 -310.345856
52.869343 948.895691 -369.254852
-307.841187 725.855469 -237.890274
-28.466434 911.497009 -388.248383
122.157860 975.892578 -303.709412
-175.692261 851.895142 -428.427612
-309.939453 743.894409 -357.519409
-104.644562 901.420654 -503.487244
-105.256874 867.211548 -315.676514
-234.895996 803.167725 -552.223877
53.000473 969.081665 -390.316589
-182.509796 814.456116 -255.621185
-54.189064 928.914856 -441.666870
-238.117950 783.528259 -316.828766
-1.614312 904.024658 -261.951294
-233.409622 840.215576 -458.707642
-223.287888 877.281921 -533.530090
-60.486824 964.303467 -563.312683
-199.419174 797.096313 -220.964890
-291.648590 830.411316 -514.618347
-159.527527 866.548645 -452.531036
-21.856153 958.405823 -497.981171
-50.622936 952.534241 -569.521362
68.429657 956.816772 -341.269684
-153.967438 884.910400 -546.082214
-150.291138 905.172058 -576.209473
-198.286682 838.540222 -395.788910
-48.247498 887.496155 -329.185760
-51.815643 889.735962 -322.755005
-312.899811 761.565735 -396.451477
-296.592651 754.000977 -324.520752
-80.818085 873.152588 -303.007751
-132.443848 837.117371 -297.852997
-289.487946 765.983826 -293.258972
38.845646 951.380798 -380.008575
-351.163788 757.143799 -413.142731
-132.358368 843.643616 -269.491150
98.119980 984.093872 -292.881561
-180.060776 802.307617 -268.592163
103.064270 949.339905 -343.729523
-141.852814 840.168762 -328.517059
-75.563713 940.243164 -514.819702
-133.697403 823.780701 -229.457199
-15.064724 903.720398 -317.731262
-229.686844 794.742249 -326.469269
-45.435867 942.374756 -467.433411
-189.647308 812.994263 -574.168579
-81.840027 924.273010 -511.574768
-273.126740 775.933044 -359.377777
17.136169 910.139771 -309.429932
-227.194275 864.404724 -526.343201
-283.705688 769.932983 -357.124634
76.142181 957.276978 -303.672668
-255.543076 827.276672 -476.417480
-244.409607 772.386108 -288.046204
26.772234 947.099304 -414.939758
29.241537 934.723145 -358.705627
-127.157600 824.689819 -299.589203
9.606361 979.872070 -508.137756
-181.527298 867.511292 -583.088318
72.560394 971.763245 -351.764740
-125.462883 879.587158 -451.256897
-15.596659 899.005981 -312.752258
-213.831345 839.198975 -556.169739
-191.884903 816.130310 -329.964691
-167.167831 801.734070 -221.752274
-52.732227 959.950867 -539.446777
26.950720 955.419861 -369.144409
-249.341721 834.008972 -522.283691
-64.793495 898.385681 -465.469879
-30.778530 898.544800 -316.072540
-78.817970 962.021851 -552.711914
-58.867771 885.210022 -307.214600
0.614581 917.061096 -352.284454
-172.643173 858.179321 -485.584503
-80.910599 889.307190 -390.361542
18.010380 932.422913 -313.724030
76.013580 970.347534 -365.263947
-132.149994 885.640503 -596.845642
-197.823212 813.441162 -567.344238
-174.226471 891.576233 -537.352905
-299.160736 801.708435 -478.390808
86.693146 961.497070 -296.860016
-219.160629 815.214600 -378.812378
-190.736740 835.529114 -408.368469
-202.860992 782.683533 -223.363449
-140.153992 913.078979 -552.527771
-82.922668 885.633911 -325.452026
-20.741205 902.450317 -311.480591
-290.660767 775.583679 -386.140564
-257.086243 794.186340 -451.671936
6.747850 959.173767 -435.069794
-256.677277 771.092834 -305.331757
-82.494949 903.078491 -436.976929
-36.032368 942.901489 -444.152039
-152.911072 831.726929 -248.401901
-218.114868 807.576660 -575.104919
85.429398 936.494324 -335.698181
-337.726624 775.103333 -461.212250
-176.036240 816.141663 -322.083221
40.763206 942.201904 -432.405579
83.786949 942.663696 -306.378967
-17.097593 951.882141 -446.885040
-262.036163 780.323608 -355.430603
-152.285446 857.321594 -348.801056
-69.086906 873.641357 -377.469574
-153.479431 809.716248 -226.815704
-211.718109 799.159790 -578.247070
-147.118164 851.615173 -391.297638
-313.057526 732.145203 -289.291351
-20.622105 917.162048 -335.257568
-132.710785 846.222717 -316.767700
-319.989136 778.371704 -432.592133
-146.465683 838.502014 -333.453613
-108.181084 980.768494 -588.504761
-189.682022 792.992249 -243.641647
-85.836136 857.147888 -268.717957
-11.588506 956.874939 -553.197693
-238.837463 758.151306 -271.356354
42.224640 932.343567 -370.206696
-304.160522 813.251343 -532.007446
-110.766449 864.294678 -316.175079
-198.197449 795.220764 -217.170166
-114.540886 856.505981 -330.708008
-93.567177 885.004639 -344.749756
-70.336220 893.635559 -377.511627
-131.588852 877.382690 -477.412628
-322.770538 761.009766 -449.730347
-328.774475 731.486572 -286.690033
-201.435822 777.478638 -248.459198
-249.656815 843.869568 -537.774536
-188.864197 787.152466 -254.291260
26.577158 917.481384 -310.587646
-174.986954 799.695068 -239.909027
-291.693268 780.295471 -344.436829
-68.085861 910.857849 -400.719177
-206.402328 838.305725 -471.217010
-155.717178 885.609924 -516.239624
17.542252 950.812378 -387.702454
-223.671585 842.144348 -498.982819
97.563538 952.665955 -305.260132
59.738647 935.778076 -309.094177
-372.020172 761.671387 -445.244232
-125.227394 866.083435 -331.527222
-170.805862 864.981750 -440.675781
36.630184 985.919922 -486.252686
-187.851898 799.631348 -273.779938
-70.829117 894.311707 -402.607819
-28.021538 912.087341 -315.765808
26.400953 955.791199 -390.617950
74.032738 967.790100 -341.594147
-31.220840 863.411011 -282.622345
-71.261856 869.603699 -354.218597
-340.668121 742.813843 -407.328461
49.565533 955.494507 -381.247345
-339.227570 741.758850 -313.434113
-181.668442 825.394775 -333.734589
-34.198982 942.727295 -485.573456
-123.390839 967.746460 -591.128601
-220.952026 766.791504 -224.111847
-210.208588 869.419983 -536.636353
-250.694946 832.415283 -491.893707
17.889990 921.550903 -283.082703
-90.655396 901.177917 -393.575226
19.314068 952.637634 -424.345062
-356.161896 742.561646 -328.813538
-87.376534 865.976929 -283.675293
11.054755 931.248535 -422.798828
-335.266296 717.331421 -285.730927
-286.441711 847.233887 -525.659851
-86.800102 890.687378 -401.989532
-13.346826 930.719849 -436.193146
-95.213242 904.207947 -414.969940
-66.673141 894.817444 -349.798340
-220.676224 829.028198 -560.727905
-300.443146 790.315857 -412.913818
-66.757339 889.214722 -374.224182
-234.724091 735.627319 -209.333466
6.699570 929.907471 -337.721527
-151.224030 900.321777 -578.237488
-356.682007 721.210205 -385.856476
-331.665894 745.289490 -368.272675
-259.016907 759.330200 -270.676758
-159.232193 924.779968 -572.230896
96.784912 953.552002 -323.675354
-170.729080 876.926758 -509.672882
-300.046143 716.300903 -211.007751
53.706505 978.320129 -475.910889
0.195543 915.921753 -379.378204
-320.207733 743.253906 -276.130951
-170.961700 820.597046 -229.696899
31.312820 930.932922 -325.343567
-154.323639 903.600708 -541.769592
-261.850128 797.095398 -463.492462
-103.429588 899.877014 -479.394012
-245.826859 801.579041 -436.829712
-228.027679 790.613098 -260.328369
1.906641 906.433838 -263.357819
-357.951385 725.356506 -321.637085
-32.464993 921.140564 -435.247162
-357.514648 739.529907 -356.861542
-137.529526 862.306274 -595.394897
-135.957275 932.189758 -590.143066
-163.895157 821.075256 -312.040405
-84.264206 923.816772 -508.832764
-49.070744 898.731750 -334.875641
-110.462433 826.287964 -302.542419
-208.411804 875.231628 -540.260742
-227.142593 819.069458 -379.753815
-216.046341 833.895264 -466.511414
-127.518578 894.762085 -498.663544
-191.067703 794.885498 -264.272461
-300.194733 814.812805 -534.013184
-20.064049 925.988953 -357.896118
-207.451492 784.752197 -572.782288
-37.236984 920.852600 -372.134766
-132.591400 872.738220 -374.394287
-222.136154 789.637390 -203.879272
-165.916153 888.645935 -558.877930
-168.762405 831.955200 -591.504761
15.385426 977.718506 -481.991089
-106.512779 882.546936 -406.534698
17.205984 975.713501 -486.387024
-11.417716 939.481750 -390.014923
-250.718155 820.808350 -554.483826
-14.374836 959.597473 -497.768280
-13.338016 924.943970 -342.883362
-240.461639 752.313599 -195.192032
-363.289215 743.789612 -381.144562
-156.995468 861.076172 -593.998779
-105.979500 925.758850 -538.365784
-255.081436 857.627258 -504.552704
-252.886566 805.758423 -435.351044
-215.571991 770.498840 -195.567581
-342.860718 757.326233 -448.567535
-142.396835 871.118042 -592.131836
-4.961271 960.002625 -493.169708
-107.300797 895.860474 -427.322693
-197.605331 793.858704 -582.324158
-22.724712 929.272583 -398.609802
-78.121773 895.496460 -355.739471
-3.966919 886.264832 -270.947784
-104.794563 897.815857 -472.572754
-183.936493 830.521545 -382.757599
-208.597244 828.831055 -442.450928
-95.239510 889.873657 -484.398071
36.656116 971.058289 -416.501434
-126.085762 913.173950 -506.006744
32.191811 957.599060 -386.638123
14.035390 945.220215 -427.044434
49.428547 980.269836 -456.465210
-321.657715 731.978455 -207.322311
-286.711365 756.739990 -352.212952
-232.126434 789.801270 -316.119965
-311.977264 735.049255 -227.825104
49.372154 928.906250 -318.630981
8.442446 948.588684 -463.299286
-46.300262 910.838562 -362.382507
-202.768173 795.033813 -223.941864
-218.142349 826.834900 -548.638672
-170.352203 862.557312 -570.295044
-256.031525 762.042480 -252.528702
-223.815125 865.982849 -533.507507
-246.359543 847.377869 -539.539795
-166.719925 799.994690 -272.445435
-338.196075 741.712341 -368.846436
-278.655121 784.457520 -444.814270
-139.002533 840.107666 -323.246124
-103.245148 876.165344 -370.219452
-134.388123 845.734192 -293.855011
-279.639313 741.881958 -242.393188
-262.039307 829.677246 -526.618164
-139.385132 952.788208 -588.881958
-244.043411 823.854370 -438.797424
-84.503136 850.918274 -259.806580
9.755826 889.843506 -291.399597
-261.758270 789.698181 -368.573944
-169.511307 866.033325 -476.058319
-21.973051 955.941162 -496.765686
-131.432327 845.167480 -305.641693
61.589760 937.077393 -299.556000
-167.015320 817.479248 -280.231567
53.342857 984.039185 -453.719147
35.132256 963.189331 -401.591522
-44.560249 906.828613 -377.381622
47.600189 928.875793 -376.698273
-207.255417 879.335449 -524.443909
-232.618942 796.203857 -563.479492
-195.800980 813.933594 -358.976440
-295.978516 830.440491 -491.955811
-318.678741 761.953003 -413.119293
-281.563782 777.962769 -307.772095
-75.168800 867.441406 -244.139893
-195.775803 850.949219 -567.687439
42.951752 985.848328 -456.752502
-155.476547 910.162048 -537.891968
-201.742935 792.625549 -211.627625
-213.961884 812.185791 -376.229187
-271.423370 766.443726 -319.264557
-136.166061 844.059143 -319.516327
-94.656120 903.175171 -469.106537
-32.337833 922.268738 -396.488647
-207.923843 792.733704 -203.482559
-40.451981 883.749878 -288.127899
-149.394699 890.240540 -474.123108
-169.128448 874.994446 -581.351196
-301.505432 737.020020 -262.517120
63.288120 959.059265 -386.820038
5.950814 935.728210 -418.805939
-171.061951 864.531372 -448.379944
-93.944756 938.197266 -532.464783
-85.368149 909.132385 -431.873871
-257.524628 832.564453 -489.940582
-157.012070 902.111084 -568.138062
-175.047516 801.108582 -270.334167
-344.369202 737.697815 -362.455109
70.546829 970.431213 -364.568207
51.070271 972.342102 -431.181122
-92.393539 870.062866 -321.775391
-196.199493 770.222412 -218.820679
-257.117706 752.446777 -246.342545
-283.286682 749.142578 -280.286102
-186.647797 830.033386 -574.080444
-314.400787 730.548096 -327.531921
60.584774 966.096863 -382.350739
-183.086639 843.722961 -409.963226
-70.289398 891.598511 -368.223236
-193.214493 854.698853 -545.538696
-121.307274 924.079834 -536.322144
44.869545 925.678894 -311.250793
-205.839996 770.020081 -267.185669
-161.517944 810.142761 -250.135056
-251.824005 765.725464 -214.900360
31.697943 957.363464 -368.633545
-322.460205 775.103455 -388.580536
-23.987186 937.535400 -410.979553
-213.776367 837.432922 -578.121643
-170.671265 807.771606 -267.682068
-200.497757 833.147034 -578.779175
-33.998634 946.691956 -497.241180
4.078361 945.692261 -461.517761
-241.289902 812.359375 -413.365814
-252.594681 758.557251 -297.898743
-48.308220 867.863647 -334.086945
-231.724167 803.854492 -381.971313
-257.252960 805.834106 -452.309998
-141.168564 941.804993 -581.649292
-69.477280 872.580200 -285.831360
18.557140 987.814392 -524.754944
-285.200928 768.859863 -280.232422
-171.544907 875.891785 -520.427612
-110.892723 876.694092 -402.860992
-256.158447 773.295959 -314.635651
-88.298073 863.473511 -262.239441
-185.736298 829.959412 -312.413544
-376.172485 765.358643 -450.647949
-110.463943 904.528137 -506.853271
-267.721008 754.628601 -259.065918
-196.613266 825.919678 -374.538116
-130.197601 887.891418 -485.322113
-207.886185 813.399841 -386.178711
-211.898743 846.009766 -552.534607
-82.634720 861.795166 -270.214264
23.989386 937.950623 -360.418640
-205.521545 769.365784 -200.819870
-183.445084 814.351501 -263.010895
-314.686188 724.889099 -216.696030
-116.352119 852.644470 -384.366333
-247.091812 769.460144 -349.381866
27.818241 917.011536 -337.468628
-334.227173 779.166992 -448.106537
-13.765345 903.116150 -374.627563
-204.472168 850.390381 -457.520020
-97.909950 907.201050 -457.270721
-391.302582 728.389038 -442.753845
-51.271770 924.888306 -526.501343
-174.831314 825.889099 -288.033936
-194.984604 841.062500 -464.648560
-28.901834 915.185242 -341.925232
-225.471420 788.002197 -307.833221
-25.287849 919.502136 -330.326752
-195.198273 833.319580 -582.420349
-123.560326 926.710510 -585.339783
-114.163437 982.001038 -589.874573
-262.664093 784.817505 -319.132874
-81.915375 857.144531 -247.883423
-261.975494 788.391846 -542.128052
-273.191498 785.803101 -550.459534
-2.143096 946.098267 -416.778107
-16.345385 994.144470 -570.473206
-259.209656 792.247681 -393.513092
-0.907397 974.461487 -573.923889
-54.523754 918.218445 -402.093689
-248.142654 757.859741 -233.851715
-249.792572 807.322205 -545.192078
-133.617966 900.859436 -566.905945
25.678549 977.489136 -470.749939
-208.615799 831.811646 -429.666443
63.337971 960.039917 -390.932343
-282.979980 754.186707 -220.462601
-57.206524 883.654785 -316.203308
-179.541931 866.814941 -539.431458
60.293839 955.184082 -326.282898
35.646194 949.762024 -356.556519
-323.205109 762.860596 -410.914154
-137.364960 878.927551 -470.667145
-92.151672 890.234680 -404.268921
-100.774963 862.250793 -304.045319
-241.782761 783.273438 -264.858459
-68.718452 867.743835 -261.841980
-75.370064 878.414551 -317.172668
-233.945251 835.172363 -473.323700
