ply
format ascii 1.0
element vertex 1408
property float x
property float y
property float z
end_header
413.278229 583.347046 -566.421997
456.141602 484.615051 -788.352112
238.349213 580.826294 -530.282104
438.150787 597.694458 -585.246277
544.718201 637.895630 -541.837769
309.448029 488.042389 -727.002075
503.740051 639.330444 -491.065643
163.252380 562.466919 -576.038452
565.068359 573.798157 -651.397949
224.793076 514.445007 -622.199585
623.177734 672.799744 -469.750946
498.174438 647.720886 -490.733032
477.324585 600.812805 -585.694153
383.958771 574.615906 -570.384277
605.323059 666.884888 -487.045044
513.160400 584.387329 -639.274780
242.080154 591.231201 -540.564758
421.688538 546.696472 -650.450256
408.876556 492.041656 -752.755981
354.212097 551.274231 -604.816406
302.210510 547.388916 -611.251526
627.673584 596.073425 -630.589539
302.730774 491.816193 -743.647583
623.298035 677.612732 -459.649017
245.962784 500.406677 -710.242554
194.694412 543.470886 -618.944214
279.702942 486.410919 -724.296448
230.468399 528.269104 -626.373840
417.431488 440.305298 -800.196533
461.861969 641.309753 -486.429352
591.511597 670.064758 -437.081116
671.779846 598.995789 -651.876038
525.014771 441.178650 -766.378906
430.442291 541.262512 -691.584717
473.741211 630.315491 -512.957825
605.286560 585.801880 -647.646729
560.348999 463.739380 -755.020874
411.953156 592.866272 -587.934692
547.923462 645.211548 -494.638184
297.758057 553.679443 -597.454346
381.586365 591.445984 -494.935486
245.659439 489.375610 -707.618896
397.753265 562.339417 -649.601685
388.371033 505.295349 -736.151672
425.662079 577.689087 -617.474060
401.441040 629.372131 -504.708618
662.986877 583.063660 -694.309448
269.569702 556.393311 -584.046143
372.571869 531.526917 -675.679871
199.426895 536.618835 -632.483826
246.863693 498.670471 -717.059753
431.120270 524.392761 -699.078735
450.065338 547.858704 -655.339600
320.595032 518.587830 -708.152283
202.680161 570.828918 -564.594666
431.013733 646.466553 -470.306488
462.179504 559.997070 -662.625732
491.417725 538.573242 -713.930542
425.932800 572.036499 -631.199585
388.186401 591.100769 -538.099854
382.652954 527.629333 -701.571838
454.714111 434.297668 -786.526733
295.687561 560.089417 -530.565002
517.005981 600.009460 -576.329590
523.345581 458.313080 -756.220581
487.867035 410.712372 -761.777161
372.009247 610.480957 -546.166870
200.979935 519.614685 -629.329407
557.788513 650.176086 -514.766235
173.968369 516.919739 -658.094910
621.465698 632.888672 -509.055664
492.265686 498.133728 -758.302490
474.715332 484.249268 -773.967346
438.560516 594.383057 -559.554749
398.615479 498.652435 -728.471985
697.422485 603.869141 -654.536804
445.219025 650.105103 -475.688171
602.610718 604.103882 -625.154724
694.333008 598.772766 -677.750122
454.464844 480.206818 -790.094788
219.349503 472.049805 -767.803467
506.335663 622.683105 -532.798401
426.580231 509.372223 -768.491882
200.533157 530.734863 -612.727905
433.921722 442.520447 -798.589905
605.252136 602.534424 -629.417480
509.377228 558.214355 -661.773193
420.943909 603.649353 -569.006592
529.293701 438.113892 -760.101624
610.540955 559.841553 -673.166016
411.754059 633.887085 -480.573853
456.960938 555.639282 -670.324585
540.235168 452.468109 -771.141724
339.266693 545.123840 -627.777405
395.177490 574.368835 -543.703613
546.113770 518.962341 -761.344543
200.525589 511.204681 -681.664978
514.044556 637.254822 -526.286987
520.413452 614.015564 -541.822083
336.116394 566.131165 -591.562927
445.382965 589.019470 -606.792603
368.323090 611.373657 -505.277252
337.820923 582.990845 -587.553467
550.620300 533.358643 -748.307617
230.507675 536.229309 -581.643005
541.239136 585.407349 -637.205994
372.787323 596.160706 -540.645020
311.612976 486.290192 -753.395508
274.398315 497.562592 -697.339172
502.919800 595.043884 -601.839661
617.172058 655.017273 -489.338013
639.290588 579.629944 -697.453064
584.111755 682.371704 -449.324677
621.851135 550.055786 -704.450867
471.873047 507.864838 -753.413513
460.822571 633.258179 -523.236328
351.406769 588.746033 -546.412903
275.772125 535.310181 -629.836487
443.198547 535.568298 -680.086548
447.728668 516.387451 -777.211792
338.421326 615.304993 -527.906494
581.332092 495.694427 -768.330627
217.496689 545.190247 -589.071777
238.574158 533.864563 -637.785767
483.507843 529.215637 -738.498901
560.033203 536.054810 -758.605896
605.118164 685.150574 -457.342712
321.174194 594.568604 -528.641235
348.393768 562.655823 -607.803589
313.891510 553.133301 -589.926636
628.184998 629.134949 -578.151550
474.966675 486.364990 -770.499329
677.495911 594.275085 -752.039551
544.805359 603.397156 -603.988220
274.895844 593.581421 -521.287048
388.079285 558.036682 -626.910889
278.561127 461.410248 -752.268250
354.826294 598.818359 -523.783508
348.862122 596.800354 -563.295715
442.060699 497.788940 -784.812805
352.027100 472.046326 -791.907410
277.704346 464.220825 -763.271545
371.742035 557.348633 -644.726685
363.570007 469.895447 -787.788757
265.801361 585.343872 -554.394043
298.926514 562.167114 -609.771301
372.469696 547.982666 -645.301147
587.254089 496.750702 -761.245728
282.916870 591.602722 -525.230896
490.634094 596.614380 -580.750488
582.465515 682.877625 -440.056427
486.106750 604.762573 -584.563538
413.533447 512.275513 -739.366699
283.803162 472.418488 -750.013611
237.299347 554.169983 -573.688293
531.397217 602.045959 -599.588501
477.836792 634.753662 -491.779572
278.319305 537.531311 -638.010986
456.281158 627.453064 -502.182068
271.558472 545.237793 -587.263367
542.864685 593.965454 -611.071594
213.140869 495.024353 -656.090942
263.712372 480.482025 -819.586853
466.344635 605.319519 -564.670715
561.661499 666.171387 -487.232880
393.332520 594.282654 -534.569153
520.518921 654.219177 -500.760956
407.103668 526.583008 -711.589844
579.978333 675.499939 -459.876434
438.179810 528.512817 -729.182678
556.120544 625.671143 -513.509888
373.401489 521.185364 -654.557922
519.624573 585.928711 -615.078796
240.581116 566.343750 -548.880920
636.461121 562.745850 -702.689697
537.343506 535.223145 -739.228516
158.361877 563.809998 -561.225403
317.780487 529.680847 -686.724487
538.929993 650.540405 -501.312531
418.682495 545.836670 -653.806580
314.430206 552.994690 -603.980408
565.020508 618.734680 -576.016052
257.652161 455.110992 -737.266235
703.118896 596.015869 -676.988220
424.054199 434.872711 -781.264160
423.159973 488.254944 -797.809265
472.249695 552.106445 -692.816772
566.922424 497.487671 -760.518127
634.238586 549.869873 -753.477783
440.631683 549.523132 -644.377625
463.673553 470.993439 -779.669067
225.528168 530.193481 -628.759277
632.583130 624.882019 -526.581177
328.882629 484.713379 -710.626709
691.272949 614.494934 -755.169067
496.346588 535.559082 -726.976318
369.512756 518.678284 -719.017761
461.927612 630.015259 -490.710968
400.634460 641.383911 -485.483917
397.749115 564.846863 -610.024109
522.270081 663.464783 -452.522949
618.154175 691.132813 -454.914246
534.304138 509.684906 -752.362549
421.259460 641.160034 -489.616608
584.273010 631.342896 -535.284790
569.677612 617.019958 -573.831299
546.832031 519.494080 -777.481812
667.917053 558.949829 -702.184753
484.692322 622.888794 -549.925598
482.313202 618.752441 -545.145142
428.410614 556.661072 -660.148865
582.169312 558.946594 -713.384277
518.067322 646.680847 -493.604279
427.732605 650.425415 -474.217407
623.563782 636.043335 -556.939209
489.697205 527.515991 -699.949646
574.410583 556.690002 -692.976685
503.389832 430.704742 -767.478516
622.097229 583.039673 -766.686646
341.418518 565.819519 -597.378662
526.972961 660.721924 -466.162689
307.200439 599.314819 -511.409180
211.054504 472.824554 -707.833557
345.225037 493.546448 -710.005981
483.892548 573.508484 -642.454651
523.858459 618.473267 -539.304626
266.570374 504.553436 -666.561157
648.403625 628.929260 -574.675049
276.048615 577.278137 -553.485291
581.339600 683.138245 -455.321533
256.858887 612.663269 -521.953552
173.599899 509.715637 -645.009583
545.981873 597.498657 -617.560181
629.531250 592.848145 -642.887207
514.550354 466.499939 -778.179993
431.575653 566.578064 -631.697205
219.198227 523.944458 -640.087402
354.086090 605.818909 -523.473389
541.580627 644.533020 -493.743744
391.204590 605.951538 -528.286621
204.420959 503.765289 -713.779480
563.710815 529.428223 -763.635315
412.462006 479.001495 -806.714111
613.615417 642.545837 -546.261353
537.523193 525.417969 -765.310608
420.149261 509.884796 -720.865540
169.735992 567.457825 -563.917419
547.496765 585.628906 -621.292175
478.933502 628.075989 -539.467529
368.179871 580.145508 -578.213989
365.232147 525.219666 -664.199890
425.182007 635.060303 -485.636810
455.399414 536.132263 -693.258850
512.685425 667.868469 -467.438354
524.901367 517.619141 -767.568726
521.375610 599.617615 -601.993713
400.855957 588.976990 -585.718567
572.847961 631.107361 -485.471161
450.508179 621.458191 -514.326355
406.820099 542.448181 -680.395447
282.049561 548.125183 -603.863586
380.510986 491.887695 -738.194275
421.668488 532.960632 -705.515991
500.192261 578.272156 -621.814209
338.820648 586.159851 -549.661499
161.835419 532.059875 -607.578735
193.279510 499.754517 -637.089844
499.053467 611.689880 -541.759338
433.974518 504.449219 -758.750244
571.374451 624.034302 -570.787598
199.692307 528.773865 -634.519165
548.320679 463.191162 -768.806824
620.696045 665.302185 -486.024536
398.586365 561.580688 -612.952026
316.033752 522.120605 -646.438232
499.581970 634.466553 -505.407898
444.765472 568.852295 -639.974304
538.904480 632.462463 -551.066406
350.978241 568.199524 -619.851624
593.584167 560.653687 -758.048889
599.717529 596.281555 -641.010559
662.721436 561.409485 -730.991394
359.546875 552.891907 -645.356506
465.315796 649.591675 -489.286072
330.040466 537.937744 -642.798218
212.343079 569.911011 -542.110718
381.903015 577.295349 -579.551147
296.609497 493.517609 -735.854370
367.293915 595.686462 -567.823181
628.758667 687.371521 -427.134644
478.549286 467.484589 -778.095154
463.136597 587.790283 -608.623657
489.667603 441.045013 -765.400146
483.968964 545.713318 -701.911011
319.672302 484.747528 -775.209106
638.761353 598.605408 -626.075134
501.190491 509.470642 -774.864624
304.724976 483.617279 -731.638794
149.596405 574.403870 -540.162048
512.268921 625.150513 -523.965637
618.766113 618.957336 -594.150635
505.292999 648.002991 -475.159027
492.191193 549.313599 -672.076233
490.954559 648.163025 -452.196259
583.539429 687.200928 -434.767578
590.313965 523.068787 -760.604248
395.732147 605.806702 -526.231079
549.333069 661.187805 -455.390228
374.054779 603.038330 -554.140625
400.181396 446.194244 -804.541992
611.775024 638.834656 -552.143921
559.129456 673.669922 -445.342743
574.026917 674.668030 -446.158569
275.196381 539.780396 -593.987915
557.078003 524.210815 -776.088013
512.400269 613.944641 -574.441772
353.722534 501.694702 -738.669250
326.059387 493.878815 -751.838806
367.374298 584.182922 -563.469299
366.397888 626.883057 -509.546936
379.384186 483.674316 -749.307373
225.976730 574.025696 -563.103638
687.921021 598.017090 -661.015686
421.866180 636.891907 -477.688080
185.760391 520.463989 -598.269531
470.436279 616.438354 -536.108887
510.134125 573.309692 -630.084900
514.671692 611.932983 -579.027588
508.809052 654.772766 -478.125580
294.528595 572.082092 -597.388611
281.681732 498.649109 -727.319214
495.879822 502.143066 -776.829834
560.199463 635.395630 -519.857300
460.422791 640.493103 -461.774597
645.391785 576.945740 -683.366394
653.951477 592.292114 -606.028687
357.224731 561.628967 -628.213867
447.018524 567.250549 -624.213196
445.392059 542.233643 -703.789368
442.893127 624.233643 -493.523804
380.531128 499.309967 -745.110535
242.327728 603.410950 -534.176270
249.168213 530.921509 -668.515381
521.492249 462.129425 -772.865234
576.825317 513.106323 -766.815002
429.132660 445.972504 -784.773193
539.624695 587.334656 -629.861694
168.297302 546.181763 -614.056458
384.173676 636.875000 -488.658752
241.651001 552.284729 -585.656189
510.797607 567.167542 -642.864380
321.415619 531.067444 -649.205627
243.233337 564.382813 -570.609924
580.071228 648.963928 -511.123627
602.652771 638.373230 -520.742371
635.726379 600.239868 -645.680359
614.923218 648.426453 -506.833893
552.473450 571.080505 -665.201477
438.613617 602.023499 -582.347839
200.750504 497.825043 -674.389343
557.149414 656.321472 -464.199036
379.299500 490.055084 -730.420410
216.269302 565.626038 -539.081116
473.309418 598.538330 -592.352539
314.943451 613.443115 -501.926575
577.020264 529.714905 -771.734924
399.996002 562.516602 -644.110229
648.959534 634.902649 -567.636963
447.595398 481.778442 -771.120422
422.829742 492.345795 -775.636780
617.088440 573.010315 -774.372864
477.133240 565.580994 -629.422363
176.971649 543.688538 -598.147766
553.030090 603.267212 -586.177124
455.897095 430.045807 -772.438293
203.562561 557.031311 -561.983704
509.076996 447.788544 -771.022888
277.770081 576.208069 -541.634644
387.443909 597.359375 -484.280762
304.086853 588.331177 -568.665161
514.271973 580.523560 -571.362366
222.195175 553.638306 -586.291199
522.080200 646.236816 -508.725403
225.186447 533.233643 -592.173218
226.908600 580.008911 -531.302612
477.530365 595.172485 -597.857788
229.612518 508.726013 -705.296204
338.887482 538.158691 -678.818604
544.099548 522.138428 -772.741699
471.679016 539.764282 -706.988037
595.896484 523.492432 -773.149902
458.705994 633.643005 -505.492065
538.792175 598.102478 -553.012329
477.163422 511.809052 -772.357056
619.262756 633.859253 -566.365173
253.425461 541.373047 -638.025696
304.518097 464.435272 -742.525391
489.539795 555.502136 -623.376038
175.090973 551.101196 -575.976196
246.696976 455.818848 -777.487488
499.169800 553.873474 -656.536255
490.782501 435.202881 -772.983826
270.737610 595.864258 -504.894440
253.691742 507.499451 -673.979919
469.202545 582.378174 -602.211792
585.341187 685.063782 -454.077362
549.825806 543.810852 -692.848999
330.187469 507.871979 -708.584717
481.081116 661.431946 -464.373322
454.851501 591.832153 -541.821045
625.782104 604.019775 -600.515564
387.968323 559.154297 -604.069031
414.952271 495.856171 -797.826599
576.506592 565.873901 -770.024109
549.561096 661.570068 -463.115601
496.650848 588.742615 -612.298645
474.456543 444.323730 -784.614685
456.218658 521.190613 -710.662292
436.702972 453.755157 -802.677734
509.826202 612.997253 -555.450134
323.855560 527.401794 -669.254944
393.023834 465.685028 -816.174500
485.303741 607.697876 -558.306335
318.499664 565.159241 -594.089111
468.129181 497.103546 -777.554810
602.811401 629.551819 -546.616028
426.460663 515.425232 -752.476501
546.476440 499.406860 -767.634766
555.911194 519.737610 -753.183472
340.383087 593.291504 -508.947388
431.020142 562.899353 -580.387390
421.289490 540.379089 -654.239868
592.377136 644.988892 -506.436859
404.831940 605.152954 -531.503906
498.182678 454.163269 -763.017944
262.455139 567.464722 -588.543335
244.906708 577.979065 -481.305450
446.462952 651.204224 -463.606812
225.119339 560.318848 -592.649414
427.396271 596.528259 -524.587952
330.320496 490.190826 -728.654602
622.651184 630.318787 -546.247681
273.187347 472.073975 -790.799255
348.096313 575.381958 -597.243958
596.111206 577.964233 -783.054443
463.836426 593.053101 -527.587708
547.659241 597.128479 -591.033569
288.113342 525.012817 -690.153625
512.939209 614.933350 -546.751160
570.270081 466.165741 -761.156738
486.832794 660.556152 -458.549835
471.196625 455.174347 -777.546448
445.833038 589.402039 -588.962402
273.518707 542.899780 -612.295959
213.470673 524.911194 -636.235962
537.706055 585.874573 -615.111450
561.766724 661.523193 -442.665833
568.147278 504.830750 -766.426086
332.282013 575.958435 -599.949585
402.700531 487.066620 -817.909607
257.233215 464.059326 -794.916992
433.627136 543.752441 -660.230652
471.366302 444.803253 -787.402039
332.549408 620.746948 -493.049957
415.075073 460.373413 -798.194763
302.945984 606.664185 -500.295227
509.026978 578.266846 -630.597534
327.318054 474.189117 -771.185913
567.700500 607.985596 -610.452698
410.304932 599.809753 -546.049133
396.768005 497.259155 -723.441772
309.083618 487.798737 -730.182800
242.706116 466.759277 -805.795471
635.655151 624.501831 -590.269714
448.987457 649.150452 -461.893250
684.731506 616.422119 -622.099304
572.347839 657.812012 -486.205963
356.850372 502.097168 -717.448242
533.847473 648.771912 -493.466187
651.427063 584.259521 -763.320129
693.773743 619.919678 -614.435608
293.037476 604.107605 -501.680237
511.817719 614.448853 -566.294373
534.498413 521.105652 -779.413208
288.499359 547.693665 -645.476318
469.936615 511.995514 -784.719299
176.241409 539.663147 -569.769592
279.165314 483.641663 -749.879333
341.364380 534.441956 -660.481323
582.073792 589.455444 -623.693359
530.333374 640.525940 -493.263824
299.099060 586.461304 -534.855774
687.565247 580.657288 -704.580017
489.674805 569.987854 -585.712769
490.409515 478.714508 -782.539429
407.282806 524.014771 -690.209290
520.602539 492.225922 -754.059937
263.673553 567.494080 -542.038208
503.865540 570.597656 -640.078186
507.634155 537.472290 -701.042053
304.222046 595.589600 -515.970825
300.738525 606.288574 -536.076477
235.357864 464.254272 -748.933594
516.619568 548.241394 -718.470093
382.094360 496.954529 -830.506531
625.897583 693.104065 -444.159790
450.692230 648.332458 -467.256409
486.786896 644.371460 -508.578064
326.872314 608.522095 -536.164856
302.374695 536.186584 -618.592407
473.514282 588.259583 -603.326050
487.325195 629.521545 -508.350586
492.729706 477.421844 -766.754944
490.958801 613.261230 -563.654114
273.919128 518.681763 -686.380310
477.447449 645.814575 -504.703247
587.487366 675.929321 -458.750946
664.148682 584.426453 -632.486694
270.177765 511.344177 -634.194336
532.455688 517.335693 -766.993286
405.782684 500.702148 -784.479187
479.999359 642.528870 -490.581421
339.510254 504.750793 -707.489868
221.151154 475.004913 -725.354858
580.421814 626.100952 -567.326050
609.850525 648.451111 -489.809265
271.454346 534.872070 -587.988953
540.852112 638.495911 -530.902405
612.532104 579.234375 -640.748840
605.956970 573.087708 -676.574951
249.458450 595.652771 -516.981445
511.064606 512.345459 -771.219727
391.277588 598.784363 -574.885742
420.412079 540.686646 -660.861877
622.508972 642.189636 -545.888672
538.619995 609.120178 -591.935730
479.343872 581.936401 -614.424377
424.318176 608.293030 -551.751526
403.382813 502.528168 -753.529053
537.239380 645.949768 -518.818542
632.217712 670.507080 -488.219666
538.132996 576.898499 -651.971680
628.223328 578.443970 -668.041260
337.738129 600.302856 -525.443909
167.698471 571.395386 -531.516052
653.961914 589.233582 -757.727234
354.641449 605.447754 -521.432922
448.633209 511.275909 -728.799438
264.461151 596.828674 -504.171844
337.668060 596.705017 -562.609985
527.393677 620.596741 -493.090729
425.843079 612.852173 -530.744202
392.355011 467.989288 -820.713684
607.613647 684.827759 -440.241608
428.787415 506.393768 -779.768555
497.545654 554.969666 -683.056824
587.777832 588.464478 -650.652466
552.371399 583.760925 -622.709900
448.953308 525.268982 -690.552795
582.662048 662.134949 -443.667603
586.288147 573.226563 -646.497498
464.856903 646.866089 -482.012299
529.983215 594.978455 -620.038330
396.359680 526.333069 -680.741882
575.451477 641.784668 -512.327698
433.805267 518.568909 -709.206726
330.813354 570.737976 -586.414612
225.319687 533.683472 -652.534180
363.691315 484.431213 -731.747620
587.857544 643.617188 -525.918518
495.579834 573.297791 -654.802307
328.904663 592.236023 -541.504578
563.867554 531.362915 -778.952759
645.114075 573.942078 -765.113403
648.201538 583.108398 -697.531738
607.801941 648.331970 -509.935120
323.708801 535.392944 -653.666565
430.994873 577.836426 -624.873901
235.907791 521.578857 -644.385010
543.955078 633.878357 -519.159790
531.250977 620.312683 -506.752014
498.049988 634.430115 -491.350464
526.314270 484.442108 -772.167908
328.032959 578.776733 -558.084290
468.142273 584.418213 -617.474731
485.842346 564.121582 -645.435059
555.655823 557.027100 -741.986023
506.244110 627.801697 -509.990295
350.705322 572.675110 -608.046387
329.178406 615.700134 -498.297852
580.529419 636.979004 -541.536011
639.683655 638.614136 -483.911743
530.532593 651.725037 -448.598236
417.944336 621.414246 -494.803894
180.958649 564.841614 -569.553223
676.624512 598.319458 -742.593872
450.772400 594.940125 -569.519958
468.328827 651.631042 -466.727966
527.362244 594.832825 -597.306458
304.167847 615.803406 -508.925507
499.379578 438.245392 -773.313049
639.282837 566.533813 -698.276245
624.298767 600.417664 -638.255920
581.513733 659.398376 -477.711487
317.250336 596.459717 -514.906616
568.929199 574.530396 -652.363831
306.713440 580.939331 -579.896606
523.818604 568.185242 -664.175049
494.346832 529.500488 -762.162476
640.257019 581.436340 -618.213867
266.954529 503.855316 -684.755981
335.079559 538.037903 -674.964722
424.579681 496.386047 -734.212463
235.447083 489.995544 -703.005798
523.684387 534.197021 -742.828491
568.310303 548.076111 -704.688293
585.714050 533.512939 -763.939209
208.511292 486.790741 -699.707642
317.861847 549.629089 -613.556274
490.819489 601.474670 -571.041565
418.334198 592.616882 -565.740906
376.207062 580.361755 -607.111816
336.510956 517.812317 -704.539063
638.386902 656.525940 -524.814026
366.375000 558.091003 -605.526611
565.412781 634.983032 -543.732361
580.082947 637.080078 -507.239655
327.845032 501.537659 -708.239136
181.169281 539.802917 -608.045959
285.877441 468.145111 -771.830444
298.485962 555.046631 -608.310242
447.050842 591.539917 -567.851807
683.431091 596.961792 -664.343140
451.550964 624.599548 -537.843201
391.980835 547.418701 -640.363770
204.821167 504.781128 -693.676636
464.426544 536.612183 -676.961121
553.700684 482.221497 -769.720947
640.025696 581.213867 -728.037598
474.143585 602.938843 -554.887512
318.622314 483.105865 -735.183472
503.411438 632.567200 -485.966736
575.692932 668.060974 -473.996887
588.611206 570.264343 -687.089172
364.144226 521.418945 -687.084106
394.822571 509.761139 -737.145386
499.087097 627.430054 -534.767334
522.388245 525.945190 -757.485840
312.084656 475.074554 -752.793274
606.808594 577.724548 -633.834412
184.379181 519.740234 -648.682617
583.277588 631.249756 -555.793091
224.444122 470.469971 -736.466736
421.485138 596.271545 -556.824707
374.729980 590.479614 -559.832397
570.462769 525.425720 -763.911621
651.588806 645.283875 -544.475769
393.344849 603.336731 -535.195007
367.674622 530.274231 -676.595276
512.835876 447.019348 -771.718140
501.333160 629.841003 -542.023865
495.336151 651.828552 -476.442200
367.780579 523.647522 -704.396057
373.942078 590.265869 -550.867554
606.075562 663.214417 -479.025024
561.100403 642.023132 -463.735291
719.901978 615.192749 -674.416992
612.430481 524.345154 -755.372803
638.143494 679.121399 -492.473755
522.624146 634.192322 -505.755707
610.926331 550.726379 -771.813843
583.518250 621.101746 -556.873230
316.319397 537.780334 -643.017212
697.889221 588.575439 -675.892700
573.459351 539.091492 -711.557800
594.978394 668.379395 -483.261108
607.613403 589.409119 -644.720276
308.490509 481.618195 -761.124146
386.804382 598.916321 -559.358704
649.333130 586.002930 -739.771729
614.332825 558.908081 -769.840454
430.128357 623.804993 -517.711792
351.715515 592.352844 -546.549316
511.242493 622.700684 -497.054596
588.466553 563.603088 -765.577881
570.333191 586.154297 -580.332214
399.105408 565.999634 -595.508240
189.843521 567.087402 -555.558350
554.966919 637.106201 -539.461670
529.501465 499.338318 -770.830200
397.179260 632.557068 -496.111847
628.765930 623.864441 -589.339661
228.060577 509.490540 -687.589294
494.413788 552.925964 -698.040588
480.199188 598.598511 -578.192261
569.317261 641.229248 -466.203491
366.565643 575.187378 -603.017273
480.865845 615.459290 -532.220215
272.043701 597.929016 -515.084473
388.605011 523.910461 -684.381348
625.208313 602.206482 -624.159424
501.536224 556.905945 -624.645386
275.251862 602.361938 -529.608765
591.613464 625.127441 -553.979675
440.555359 617.142273 -552.297363
590.537842 583.394409 -651.757446
327.558167 597.231567 -552.146790
294.238831 576.020081 -581.376648
359.330109 547.906067 -600.781189
570.860352 488.276428 -764.645447
274.403320 560.795227 -581.673584
372.546875 503.371216 -716.345886
521.163086 641.580566 -454.248413
216.819778 543.487366 -613.043945
234.301117 500.145203 -678.335388
455.127106 507.598999 -728.570251
452.344330 582.347412 -596.472961
378.468536 559.620605 -638.577820
689.746277 596.999207 -741.169250
512.878418 542.939575 -775.178589
523.163635 606.399353 -570.297363
597.859619 580.057800 -655.237549
360.349915 491.366486 -808.046570
643.370850 579.015625 -707.563354
260.824066 467.136627 -785.806030
189.955750 549.962097 -607.473389
495.729919 515.138855 -769.059631
431.107391 554.732605 -664.616089
528.803040 645.871277 -511.313904
461.048615 621.077148 -528.375488
374.719482 624.652771 -489.367096
507.639496 521.963867 -775.654663
589.230713 560.095215 -772.936462
553.811096 548.287109 -712.858643
415.980164 627.468018 -493.178589
445.637421 594.950134 -595.443298
631.548401 675.015564 -442.714203
372.645233 580.419312 -578.324463
316.402649 498.634125 -830.933533
666.402222 587.131592 -667.009827
415.517853 611.443726 -507.400452
450.564911 520.439758 -750.484253
225.181900 536.795898 -643.078552
561.928772 510.461945 -753.220154
488.722168 636.479553 -509.167023
373.799561 566.334473 -607.324036
538.363525 560.598083 -685.000366
521.409485 529.503540 -749.459717
419.241058 551.947632 -642.810364
601.584717 647.854309 -509.391388
345.407013 500.894897 -697.798157
320.827667 526.739685 -665.022156
299.259155 466.095947 -765.347595
474.729645 659.560242 -463.374146
483.471985 651.705994 -472.952606
565.713806 599.357788 -612.984192
272.366364 552.172363 -592.925842
232.805801 483.299561 -723.397888
696.314392 580.525513 -649.345764
308.187714 537.234741 -624.238647
439.991638 549.895813 -653.173523
505.917114 580.438110 -607.816833
664.962280 599.527588 -640.572449
513.226990 588.524780 -601.595459
576.893677 526.254517 -762.023315
294.697113 550.494263 -639.557617
416.382690 527.680786 -693.237305
323.351074 470.843536 -759.558472
397.731354 492.918640 -815.728210
366.883728 574.736633 -588.457764
543.380493 632.627319 -533.264832
544.426453 582.148376 -648.362122
422.410706 619.924622 -479.131226
224.240402 532.146667 -623.952271
550.850830 614.491821 -574.690552
379.631042 530.460388 -705.816895
442.442780 561.847961 -640.210693
540.105103 567.628601 -668.698486
417.802032 569.780457 -613.802185
270.604919 485.196198 -724.031128
470.761169 512.916687 -772.679626
497.318390 638.822815 -505.980743
238.221466 527.570068 -626.765259
387.415314 614.997009 -489.421478
500.149963 549.984253 -680.404724
491.987061 440.382263 -773.959106
207.743454 503.800385 -689.677979
683.491394 576.796814 -695.363647
440.343994 578.167480 -604.000793
510.087555 476.534271 -785.835999
434.200806 605.664368 -535.929688
253.050949 499.923431 -686.820251
215.120605 500.916138 -671.490601
372.262604 575.840759 -582.429077
242.104813 543.008362 -633.433411
423.045715 618.750854 -543.820129
408.213837 583.774902 -598.810974
353.460968 490.309753 -709.987183
504.644257 624.874268 -525.281372
469.621185 614.532532 -545.251160
670.991455 575.446838 -664.133057
263.727020 530.799744 -608.323730
465.642944 576.791870 -619.927856
219.752441 494.185577 -728.229736
324.457825 516.984314 -659.646057
373.030182 492.208801 -741.501160
527.433167 648.539063 -476.699005
268.613922 532.924683 -655.647827
530.257690 529.509155 -752.513550
198.414993 533.193726 -615.003540
450.309814 544.635864 -700.543457
606.215637 680.989136 -457.291351
511.525299 508.061218 -780.630188
434.172882 648.387695 -490.985901
304.821838 587.159424 -541.140381
288.653717 472.467957 -729.289063
492.384552 481.319763 -779.984375
566.354370 552.494263 -704.600220
640.288269 609.110413 -624.573608
255.066452 498.448822 -697.340027
468.526459 603.264343 -569.069519
262.042419 477.351807 -733.372253
426.411835 577.868652 -620.127686
594.503235 663.609436 -483.699310
302.574402 525.150513 -654.985901
374.776276 491.903809 -742.811584
236.890457 571.988892 -581.204102
590.374817 639.461853 -489.981079
589.501343 575.529053 -659.735107
393.848328 527.324463 -649.314941
370.907196 589.982117 -555.524170
204.971115 530.827881 -606.121216
663.953003 640.455811 -550.021973
291.337921 502.909576 -721.125671
402.632111 622.264282 -496.002258
461.343903 617.556335 -557.166260
646.269409 588.392212 -612.870911
341.099884 491.081512 -819.189941
719.121765 583.019104 -682.145325
295.614044 603.798340 -529.534302
650.930481 603.190613 -587.669800
258.827789 534.729492 -653.108521
349.320770 490.466064 -736.439697
634.352661 573.459900 -632.816162
329.337677 551.289368 -572.140503
539.780396 613.763977 -509.988373
609.252930 549.634766 -695.323547
468.953125 580.099548 -608.585144
596.834961 604.550476 -563.347046
626.508484 660.398071 -510.441498
187.505219 546.065063 -577.615784
283.478180 537.029236 -652.249084
452.621948 563.157837 -633.476440
378.626343 578.986511 -571.721924
543.987122 533.526184 -757.814941
500.201691 479.202179 -767.816406
308.267761 544.640198 -603.969360
259.867889 467.657471 -802.029053
503.239960 449.768341 -768.615845
598.848816 665.698547 -469.442474
294.155640 480.298950 -730.903870
246.016998 574.934937 -578.160156
506.927124 552.766907 -686.391174
574.513977 600.320313 -609.862244
412.964539 616.169067 -545.138000
461.410248 592.378479 -605.489868
335.591675 610.806274 -501.825073
371.531464 584.271606 -597.877014
452.810547 519.677063 -748.838684
549.422974 599.484070 -602.910706
252.610107 492.761383 -702.731689
593.270020 606.076843 -611.739502
180.882156 508.603882 -613.610413
480.464325 455.993622 -785.088440
652.421509 653.712097 -535.040283
312.639221 480.147858 -720.179871
427.541229 537.571838 -680.484619
173.983963 551.215393 -532.317505
277.562408 538.211304 -598.540771
257.460571 544.941223 -582.908569
614.613403 603.330505 -634.974792
542.434814 617.956299 -523.225586
582.242371 661.852905 -486.774750
549.387939 633.588501 -543.434082
393.566956 580.101685 -604.676514
560.746948 612.919312 -593.536316
181.508987 544.542419 -584.612061
444.933838 633.999146 -462.334717
452.770752 641.798523 -470.532471
269.201019 467.499054 -754.023926
531.545288 543.821350 -749.671936
370.451141 496.401306 -746.023499
364.110443 490.911621 -738.121216
479.213593 570.116394 -637.178101
469.020691 571.998474 -642.022705
473.531647 514.586121 -771.302612
490.751526 623.121216 -539.926514
538.300415 456.617035 -768.858032
659.884033 626.826538 -569.811707
644.599915 613.884277 -600.783875
447.205811 563.103516 -628.904175
212.792419 568.257935 -550.368835
208.109985 491.596497 -727.108826
398.382538 581.461304 -603.717651
562.817749 651.319702 -487.913330
536.649719 656.278625 -494.086212
311.714478 514.012634 -679.684326
263.428528 538.077026 -619.989990
378.315460 594.829529 -550.940308
466.938446 561.519653 -660.942383
542.209656 559.061035 -673.647949
365.310059 562.519104 -628.884583
414.457703 571.198364 -629.708740
350.911438 564.915771 -603.804565
608.448792 626.187134 -555.581726
304.781982 551.110596 -632.008240
363.336975 526.310181 -704.546692
408.565155 609.798279 -526.508606
519.564087 562.976257 -673.768738
481.812744 624.017090 -534.321472
629.291260 594.901733 -637.079529
229.958755 539.910583 -618.633118
478.519928 625.762268 -506.297089
283.569427 501.932373 -694.613770
229.491943 514.051270 -681.797913
570.573730 547.856201 -687.457886
432.630493 602.878906 -546.624451
414.967041 617.778320 -521.032471
201.221466 577.827087 -526.976379
574.909241 623.826477 -551.697571
351.171814 491.274078 -795.102112
185.628250 517.118652 -668.254883
339.981537 546.117371 -652.601318
515.592896 473.305084 -759.871948
706.538818 590.928467 -694.873352
267.257813 517.252869 -664.377869
566.320007 515.622864 -765.512512
338.242401 515.454102 -709.610596
358.235687 611.737305 -480.819366
231.203720 487.401611 -703.033081
279.145050 580.077332 -539.873291
673.496033 575.187256 -704.558044
465.663635 647.603882 -475.847443
441.957916 605.293945 -553.146729
313.268127 541.836548 -651.394409
520.784546 655.841370 -473.297882
484.638885 487.699921 -781.244019
573.922241 561.608887 -737.872620
214.988785 540.673828 -637.311951
472.334320 563.653259 -658.668457
308.471954 543.998169 -658.970703
536.762207 517.671631 -743.196838
493.944366 501.364014 -770.436096
286.226044 471.030975 -741.826660
333.231018 542.095032 -614.288391
499.580994 642.860291 -479.976013
290.914795 464.114746 -773.799133
209.061996 548.797424 -571.219971
465.397858 622.240662 -494.647369
413.112152 536.002441 -703.970581
444.482941 571.165283 -642.155029
461.086700 586.391235 -593.913513
353.614136 497.912781 -722.714722
581.815979 487.985962 -758.662354
222.062653 468.374603 -762.965881
473.096588 633.514282 -492.842621
666.884460 581.753296 -676.798035
449.442200 541.200439 -691.046204
468.973877 619.256653 -536.630005
505.328247 507.470032 -746.299622
350.552277 483.953827 -742.675476
535.812378 578.833130 -646.167419
548.007690 647.780212 -473.977783
171.080765 552.806702 -558.500366
262.431641 487.397339 -739.389038
630.381470 585.198425 -601.679443
252.328323 536.613708 -634.034241
476.388397 613.949585 -548.284241
524.328064 631.280029 -473.210175
601.989746 588.809082 -628.430725
507.866669 588.453613 -630.466309
310.515869 492.577789 -717.872803
489.146851 545.835205 -699.000793
215.502777 596.427002 -518.730103
661.364868 620.974609 -586.342041
462.676666 576.404480 -630.994690
224.790909 514.751160 -668.881653
552.071167 550.855896 -694.606201
443.917297 508.651001 -731.203430
560.162354 613.763855 -576.432312
541.984131 584.364563 -643.672180
327.435760 586.287415 -540.249451
232.902588 509.950134 -660.975830
260.888458 563.207703 -548.397461
636.191040 574.680481 -678.714355
485.742584 584.054321 -622.637024
223.691116 555.610535 -585.530640
250.187073 537.195801 -645.109985
389.694702 469.542755 -804.911011
252.969421 587.344177 -525.829468
615.716003 662.923645 -491.921265
419.187408 540.473511 -676.901855
325.578857 474.921509 -763.030823
272.237793 568.645630 -562.246765
319.325195 596.000732 -523.954590
348.412689 564.729431 -629.147339
346.335022 578.196838 -569.776978
584.144226 616.184998 -580.576660
418.085938 485.791290 -801.478699
267.514862 512.123657 -698.921326
245.444397 550.584595 -626.670227
611.879761 641.819092 -504.824402
595.641724 684.321899 -436.757416
550.017334 565.205261 -645.901611
328.447083 560.119812 -553.384094
664.050232 641.486877 -578.801147
540.880920 575.494263 -602.067444
591.566284 498.737946 -754.647156
587.074646 686.899841 -442.440033
385.542542 576.396057 -594.510498
319.480011 590.222961 -538.342468
394.503723 501.039520 -799.475342
255.548416 536.531189 -619.254822
389.417236 628.487366 -515.181396
573.741455 478.402710 -766.593201
241.689835 551.888550 -578.441589
231.018326 557.569702 -580.022827
505.423004 599.601990 -579.635864
490.532654 566.953491 -641.988098
524.330994 574.061584 -625.385559
249.611420 481.439484 -730.190002
185.771317 554.261597 -597.956299
643.524475 679.358643 -466.098358
231.757828 461.006866 -752.912842
448.525238 466.987061 -785.899048
582.500549 568.406616 -661.378357
438.325806 468.182617 -801.845398
524.743652 598.839172 -584.996826
287.867249 472.124481 -781.324463
238.991257 584.585693 -522.861267
604.859436 632.707275 -531.284973
217.973923 556.253723 -581.741150
545.668640 607.317200 -561.948059
519.189270 610.738037 -578.592102
644.858948 587.662659 -635.092285
443.660675 531.921082 -694.059753
373.998901 530.826843 -692.151123
515.747437 658.751953 -450.397247
411.424438 602.131958 -527.428833
521.841614 439.794067 -766.032349
315.341553 569.208252 -584.749023
262.458862 471.232819 -721.755554
395.225891 626.197754 -493.052979
540.296448 630.797363 -523.585144
445.345306 512.687988 -700.203918
491.235779 641.011414 -511.490479
268.240143 511.121521 -649.801147
565.907959 649.792114 -486.219177
473.006470 456.899811 -787.065308
574.113647 647.249878 -519.926025
324.620422 532.504211 -655.483093
221.538040 552.375854 -580.915222
214.322281 557.609741 -592.612671
652.461060 570.037048 -685.812805
413.208679 612.672913 -503.527649
513.326294 567.445862 -649.263672
329.196289 572.332520 -561.107727
311.298859 532.692444 -624.393921
209.938614 476.669159 -722.516357
353.770508 598.931152 -560.641479
488.023834 608.900513 -555.829651
229.128479 598.300842 -537.789673
502.076538 643.572693 -516.743408
583.957886 591.700378 -582.407959
463.694519 530.127869 -766.474548
234.947922 509.533142 -691.211914
651.408630 599.302368 -637.363159
455.303558 598.371216 -565.518616
237.430786 505.736023 -670.994202
569.808105 489.102081 -761.992798
645.602356 657.612000 -521.292297
502.788208 615.334229 -560.562500
216.206055 505.366058 -665.206848
513.155029 426.291321 -756.137146
513.586914 600.328247 -608.211365
640.320801 598.453674 -614.140869
457.070160 533.018433 -696.842896
408.790405 594.335754 -564.997498
583.598633 595.408630 -596.410278
374.283936 593.979553 -509.973083
594.454590 582.332092 -645.966248
392.593933 601.886169 -533.715210
513.423645 515.793762 -742.626709
535.886353 510.055206 -760.202881
302.820526 527.088928 -657.191284
195.138245 487.277466 -725.679871
259.880585 549.562927 -623.900879
647.970215 605.656616 -600.374695
461.578613 446.278809 -784.114929
646.364380 671.272705 -495.158752
632.935486 604.560791 -627.253479
269.725006 477.778503 -696.644775
520.450073 513.077026 -745.014160
421.571320 604.446716 -559.579590
556.729736 681.721497 -453.625854
274.507263 487.917816 -724.002930
524.202576 646.203125 -445.887177
284.491058 596.691345 -524.318054
548.431091 646.620239 -519.828491
173.881927 574.752930 -552.186951
559.306519 645.072327 -512.338257
706.903992 595.397522 -684.415710
320.078705 472.425079 -734.401001
467.807220 530.281921 -725.349426
438.419708 587.038452 -601.896240
523.262024 535.908020 -700.666748
580.662842 492.437347 -751.091309
343.936218 597.814209 -522.896240
431.272522 531.519836 -685.842590
647.289001 646.459412 -540.559387
225.920395 492.964661 -732.223694
485.116272 630.183777 -533.591492
444.146088 524.703552 -710.022705
627.288025 654.336670 -518.794861
611.428345 655.338318 -518.038818
332.433868 544.195679 -635.965271
259.055603 558.800964 -581.586853
576.703613 622.127869 -566.399353
355.516479 616.556213 -503.013916
507.157654 423.845184 -762.984253
243.865311 549.217224 -605.908020
198.514771 489.604187 -705.690552
242.746689 507.479309 -628.929932
500.116486 646.039307 -489.082336
486.184387 636.299438 -464.902740
359.106476 541.966492 -612.761108
589.471375 600.050110 -611.440735
519.444946 643.369507 -514.657349
467.523926 628.686707 -536.675537
479.880035 464.777008 -774.944702
569.514526 559.921326 -686.629211
273.367126 520.772278 -669.840271
207.246399 550.542664 -566.311829
269.830811 500.461212 -706.284241
295.021118 598.001831 -538.555603
463.047577 627.295105 -506.028137
515.748474 675.098206 -456.308044
574.342712 572.214905 -682.360718
317.762634 577.140137 -555.616455
606.660767 642.143982 -548.120178
254.958786 579.157349 -567.165955
320.116608 561.214478 -591.265015
657.772461 581.436707 -664.223694
545.974915 532.007751 -762.069885
442.965729 544.003235 -690.432739
350.102478 609.242676 -501.070740
613.089233 583.510803 -650.248779
659.767151 610.460449 -627.621643
584.898621 543.227478 -713.695190
226.190826 553.832642 -612.528198
500.324280 616.950378 -556.482788
323.377289 519.760498 -696.169861
458.973083 634.967346 -466.239227
492.076141 631.846497 -522.479370
255.776215 581.618530 -532.606079
585.194397 676.846985 -453.993652
519.577087 588.117859 -570.709778
356.313904 539.309998 -644.018127
258.069275 543.296692 -605.497864
527.301147 595.534607 -581.821716
587.550171 621.570068 -575.960999
351.580963 612.448547 -526.648682
251.003922 592.375000 -511.006226
631.958984 630.195862 -573.773560
226.728088 509.335541 -700.079468
422.746704 623.951843 -486.651550
561.934570 590.640991 -609.585571
606.650452 618.209473 -572.912048
400.382080 557.204651 -649.307678
250.538925 521.945251 -677.406555
476.147064 411.412872 -765.672852
533.268799 659.674988 -461.208038
480.446259 478.121857 -771.185364
551.480713 659.117554 -492.871307
361.414337 610.852966 -523.806519
670.022278 601.691833 -643.522461
481.207489 628.370789 -500.409088
621.084106 567.542480 -717.345398
153.528000 525.053467 -639.474060
475.012634 626.113037 -479.011169
532.482422 658.291687 -488.615753
404.467285 555.993347 -601.822266
218.698456 534.412048 -612.095398
429.704315 592.854553 -571.808044
523.783447 483.671661 -774.915100
389.837158 474.287842 -812.052979
415.048737 556.201477 -632.982910
481.615234 643.497498 -477.044861
594.281494 662.074158 -505.552368
425.344086 485.972504 -803.236328
628.986023 651.113647 -531.748352
349.931396 596.046936 -529.789673
680.540283 565.340332 -665.425720
319.351135 489.882355 -729.659363
450.208618 593.668091 -576.089539
506.858154 471.406311 -762.220947
676.566528 596.471558 -716.032776
562.135315 546.304993 -758.268311
480.825317 583.302368 -616.950989
614.371765 591.755005 -644.244446
257.848358 455.936951 -742.011169
280.117828 563.854431 -572.376953
390.133057 517.971863 -721.989014
415.387939 543.638306 -646.086853
573.284363 533.102722 -764.451660
657.514343 585.445068 -666.225464
452.756744 440.485107 -789.956177
643.097290 634.485596 -550.776855
511.649506 555.529663 -671.525757
205.399567 568.429382 -536.066895
473.773254 608.504211 -543.553711
613.314392 588.022278 -662.472961
412.965118 527.709351 -683.253052
558.973389 620.496948 -572.347778
512.072571 583.476318 -630.898132
626.979187 626.796936 -520.521851
286.179901 507.679535 -685.128296
219.930161 471.272308 -705.289917
320.538788 609.459717 -533.771973
530.401001 649.265137 -504.922882
556.309692 650.581543 -511.736786
173.012848 541.445374 -569.686218
258.508698 537.872681 -616.806824
389.965546 466.105347 -813.013916
610.734375 659.295837 -475.328888
511.627289 639.758118 -514.813171
540.294006 588.456543 -630.044617
254.570236 498.525757 -723.853821
373.667297 525.328796 -683.588684
519.516113 558.675842 -652.651550
609.539307 604.163269 -633.215637
482.726654 635.259094 -523.706299
534.878906 582.626892 -621.373596
544.311951 618.130188 -560.287231
689.475220 583.846619 -693.344360
434.129883 440.075104 -792.064026
317.025085 573.877380 -594.227905
563.958862 669.206787 -467.447968
593.958801 640.849182 -507.626617
298.447296 496.441437 -707.836914
557.701355 680.625732 -441.406158
371.918823 612.120361 -516.668701
468.366333 602.903870 -560.478333
380.269989 564.607788 -609.403748
479.035980 523.833252 -716.950989
629.860107 565.492859 -708.805908
448.089233 596.727234 -557.556091
312.694855 573.620972 -592.056885
571.004944 669.461365 -464.555817
565.484375 641.258484 -507.962738
556.348083 657.179932 -467.115723
566.623169 588.427490 -648.752380
329.297150 613.215637 -494.210999
157.035767 576.317444 -569.663513
541.783936 457.642181 -756.160156
468.837433 593.361450 -577.138916
620.752075 600.282227 -625.714844
454.380920 521.827820 -751.253784
188.081512 540.372375 -544.142639
548.401428 670.154724 -473.292419
476.580750 522.027649 -763.034180
236.745148 576.062073 -551.923889
356.284882 576.586182 -579.008057
314.286926 554.923218 -602.807739
645.010742 642.595703 -554.855347
512.837952 556.989197 -666.464111
561.490662 620.622681 -562.608032
663.597290 579.094360 -676.990417
260.340149 471.390778 -777.019348
383.630096 615.647339 -516.012939
489.525085 561.171753 -669.056030
674.063599 572.160889 -695.223572
301.526611 519.505737 -674.768555
271.475159 486.516937 -752.899536
566.430847 635.028503 -544.256042
558.317810 619.180969 -576.893738
605.096008 661.054688 -484.874939
439.442719 606.870728 -570.521362
464.040405 491.009552 -783.737976
169.494125 559.086060 -552.191162
692.392639 622.220764 -614.005554
540.873596 551.452148 -715.558289
327.017029 524.387390 -663.817566
518.535950 552.531738 -663.304749
486.693939 657.269958 -474.662933
500.635559 503.890289 -765.994019
530.876892 570.894226 -667.318787
265.318481 512.911011 -645.507507
533.115417 538.909119 -697.500977
567.685303 632.064270 -515.488953
415.783569 510.467438 -693.194580
544.288818 599.919373 -607.773376
521.532898 580.890503 -623.842651
547.707214 658.644409 -459.933960
554.713257 643.622131 -513.738098
519.383728 466.783325 -784.112366
495.206543 618.178589 -547.511414
424.326782 538.719116 -658.229797
653.857300 642.771240 -538.069092
339.117584 589.748108 -549.289124
247.497925 527.393311 -638.135132
465.141022 556.272095 -670.937317
263.390991 461.452820 -760.884094
247.913681 455.052795 -785.190002
351.854065 619.394348 -523.224365
395.327911 597.504333 -510.518646
492.668701 621.943665 -538.369507
193.361893 521.879150 -646.638000
572.504211 615.463623 -516.569214
586.455200 565.432739 -671.204651
191.439285 556.666199 -595.068909
202.340836 565.505554 -542.183167
584.017578 673.986877 -444.547089
208.917023 587.564514 -543.277405
529.545471 668.356567 -456.133057
519.199524 543.628601 -695.013123
565.049622 603.454529 -550.961365
298.478577 547.378540 -623.264587
421.491943 466.894470 -790.394958
655.759766 583.796753 -760.610413
398.427063 501.081879 -721.536133
554.590454 459.427612 -756.704163
638.023010 564.368835 -704.281250
145.453964 554.244263 -592.543396
643.282959 584.506714 -674.634521
637.972778 645.788574 -538.310303
212.565750 558.869080 -599.352966
238.672958 463.816284 -774.443115
192.489670 546.168396 -535.648132
283.153137 567.124756 -567.144470
290.733337 528.233093 -650.612122
449.342987 556.178528 -640.049988
355.165894 490.670471 -739.294250
665.109009 586.391663 -666.592957
601.180237 513.653870 -755.095520
460.357819 577.058838 -600.959839
421.049622 507.047180 -791.703430
351.204102 612.455017 -510.857269
238.277908 454.427368 -731.649658
661.645508 612.259033 -623.610901
392.353027 574.165405 -614.793579
632.215149 565.874084 -704.436218
189.979492 550.336670 -605.698914
533.242371 480.451721 -772.679688
284.366913 589.687927 -528.242676
632.836914 600.062805 -633.620544
509.063477 516.564636 -766.625732
316.115967 559.156982 -560.716553
545.018127 505.542236 -769.003845
268.144501 519.488342 -658.660156
438.113434 613.668091 -520.309204
425.940521 630.421509 -491.652191
311.365875 549.719543 -609.487854
673.156250 625.823792 -586.345337
266.944733 529.043762 -597.693420
271.114197 559.609924 -608.088501
548.805298 569.807922 -670.143372
539.291565 653.778259 -502.272156
539.857056 545.077209 -752.273926
509.800598 540.117859 -699.143555
590.326172 603.631409 -609.431824
418.713135 623.115417 -515.094604
413.355286 634.371094 -482.842560
262.880798 561.389160 -571.720215
484.794525 579.382874 -619.578369
536.270691 466.267365 -779.295410
564.451538 571.641235 -666.405945
497.590424 562.346619 -667.148804
622.581116 648.268738 -510.797760
378.229858 527.541565 -673.655457
414.540222 575.012207 -563.894836
567.219727 666.885864 -459.540558
430.300354 560.769104 -630.878357
507.059540 590.901794 -598.251587
576.512512 466.411133 -756.160156
591.688538 573.546326 -621.800415
451.923889 559.223572 -638.494995
478.214722 492.736450 -778.237000
289.212952 555.878357 -592.305908
358.669891 538.328003 -637.836548
389.101196 558.595520 -643.685242
443.788788 602.664978 -579.402649
396.491821 598.570923 -526.574768
311.170898 530.385376 -649.685120
457.281647 639.507324 -488.827881
686.726624 587.810181 -717.247192
351.126312 566.028320 -593.550659
291.375214 561.929199 -576.883667
253.805496 571.289551 -558.215088
247.873947 534.119202 -652.099548
271.715363 467.640289 -751.044250
223.843430 507.836761 -674.423340
536.570129 556.315552 -693.342102
475.461182 434.914825 -770.014832
544.095337 657.613464 -480.210175
278.896301 551.849915 -624.291748
370.753143 524.463989 -684.605591
417.995270 507.992310 -757.881042
