ply
format ascii 1.0
element vertex 1416
property float x
property float y
property float z
end_header
408.372192 572.535400 -754.475830
265.686981 566.265503 -657.081421
308.197662 402.603943 -948.531250
367.367523 458.255951 -929.789917
222.101883 390.678314 -929.667847
190.649582 408.909424 -924.592651
410.683075 561.668579 -784.439758
124.440491 533.415344 -636.350037
235.641373 545.754333 -682.260986
390.711670 523.452881 -820.624878
236.142181 408.509705 -929.805969
150.300079 398.118408 -895.542542
126.971207 390.184387 -883.902588
433.161743 485.149475 -900.793396
275.985962 501.767822 -785.155396
244.148071 565.667542 -670.367249
302.392761 468.079346 -857.925659
24.072971 503.931152 -629.156555
368.629608 584.338379 -671.775269
74.181526 468.575043 -737.839966
189.036057 478.225220 -790.057312
184.583893 515.884705 -670.626892
350.035370 524.276978 -793.809814
359.082275 491.690063 -809.290649
81.265503 468.241333 -752.274536
-7.091071 409.327972 -764.882141
222.622833 383.423553 -941.134033
340.013641 565.925415 -713.585876
415.177155 594.373169 -714.137512
253.874069 561.981079 -666.448792
26.996962 370.681915 -867.511536
207.017975 394.050537 -935.823975
301.691284 545.001465 -690.772461
320.920105 587.099304 -654.899231
412.873322 534.626526 -817.647400
321.030548 451.894531 -970.102966
457.023163 628.972046 -661.834229
261.157501 483.150330 -812.985596
229.214890 532.670593 -708.846130
187.362549 558.697510 -652.648743
248.833572 373.759857 -943.103821
106.988274 438.436157 -816.232483
370.775299 471.549316 -881.218140
139.668365 389.400208 -870.329529
271.754120 521.722595 -772.155334
438.054626 501.636536 -849.725525
202.699738 438.544342 -838.037903
327.463654 586.615540 -664.497009
297.126678 442.746918 -909.434998
105.480576 474.459625 -725.407104
205.760330 464.778839 -800.667664
457.605255 591.755127 -714.477478
365.186737 526.095215 -748.384338
405.084564 486.416260 -947.850464
410.542480 505.780121 -854.193054
136.961212 478.013916 -765.889221
-12.290539 411.664490 -765.746704
44.207047 377.824432 -865.696777
332.304108 467.021423 -856.492737
153.071259 451.977509 -760.935120
440.202545 580.997742 -757.449524
211.057251 554.083923 -659.327332
178.648605 536.037781 -692.032471
170.097488 404.899536 -884.471924
255.776337 566.745300 -652.493835
88.557724 455.784119 -743.973389
297.006378 589.039917 -649.728638
140.268448 355.808105 -941.096130
225.852158 555.141174 -654.885376
220.754593 462.115021 -809.537964
415.071564 618.801453 -682.229126
264.911530 385.386475 -935.212219
204.217880 376.792267 -938.167236
64.162117 400.233887 -842.788818
408.484436 586.952454 -669.743652
311.587097 504.446899 -823.715881
13.470059 355.295258 -841.577942
101.650436 501.113861 -639.742554
205.066254 508.660126 -694.769958
5.652608 389.660675 -827.121216
218.960175 333.749817 -933.979309
-13.426423 483.251801 -643.121826
249.873215 530.382751 -716.959595
349.073242 484.723663 -816.212402
352.801880 490.025665 -814.540649
346.674866 602.915955 -671.799316
409.370209 543.924744 -771.907104
22.762917 365.183655 -856.794556
338.070831 464.174805 -984.190430
354.210083 500.605988 -832.750854
176.214828 510.229645 -710.138733
331.977142 384.828583 -945.077759
43.307442 517.801086 -654.210205
348.590149 554.932617 -731.831177
72.501724 418.230988 -831.780090
151.922745 428.857178 -833.704407
259.261780 344.383209 -924.087158
198.474304 529.742004 -664.699036
117.447334 438.279327 -794.019775
345.273987 505.145477 -838.119568
357.932678 516.115967 -809.964600
226.936829 422.960022 -858.284790
191.691864 498.501373 -762.342224
345.122559 499.386810 -845.723755
346.473816 563.935486 -722.213440
400.598419 580.866577 -733.065308
162.122955 519.656616 -706.306396
194.589005 441.859924 -819.745605
309.068054 402.043304 -944.147156
141.739227 401.703033 -850.198303
390.212280 517.467468 -818.335266
432.799286 629.591064 -672.669312
83.577789 491.621826 -707.116333
448.919708 570.567932 -778.709778
114.623688 472.805664 -730.489380
327.604553 532.456543 -758.895264
266.873718 471.810303 -792.426453
225.212402 464.794861 -802.869568
436.971771 602.174805 -706.787109
418.851044 465.924805 -905.091125
410.331696 565.428650 -773.362793
291.183350 461.102173 -828.080505
-10.383868 478.812256 -682.670776
119.408073 526.093994 -671.066528
143.545853 509.925629 -675.464966
427.413940 591.308594 -704.319763
107.418961 394.788208 -877.452209
411.867249 485.798584 -892.997253
7.520556 485.046265 -642.806702
174.703949 408.223083 -939.914673
157.067474 520.753540 -701.169495
437.076935 511.699768 -823.977661
214.715759 545.545044 -683.673157
422.467072 499.960052 -968.924133
79.743599 522.056824 -637.839172
132.449005 524.077515 -680.914124
465.119171 610.994873 -681.770996
28.312454 479.199615 -697.956421
282.941864 584.052856 -653.341248
394.393066 557.086243 -767.163330
356.081909 538.703186 -774.731995
270.836823 561.861755 -671.136475
251.983246 359.691650 -925.334167
157.847260 479.083740 -775.241211
205.909439 486.944733 -734.587524
252.763885 432.895569 -884.647339
443.724243 488.844910 -926.453003
419.969208 611.986572 -687.531982
214.403824 516.521973 -746.134399
456.364990 564.049744 -801.594788
152.370758 339.519043 -930.681946
300.669525 582.759094 -657.177307
321.110992 533.149170 -780.959839
183.580551 469.427155 -766.591492
99.817009 539.242371 -629.975464
183.812042 435.881714 -839.051941
290.412567 550.915405 -713.659485
412.964233 581.117432 -737.167236
430.479248 526.580566 -819.142761
117.943092 498.770752 -689.635437
326.131958 592.750427 -657.392090
59.506042 511.998688 -662.003784
148.293243 518.152832 -702.130432
176.343140 525.140320 -680.994324
293.109406 576.539734 -680.794250
259.979401 544.501526 -689.552490
-26.869843 473.013824 -638.703491
243.784912 394.584839 -943.297913
447.986359 514.269653 -876.978088
372.072968 492.116272 -987.575256
105.670395 416.672882 -802.289612
109.203575 514.302795 -692.304321
410.861877 599.548706 -707.178711
338.569183 516.212891 -793.323975
93.128067 513.642639 -652.396606
-25.717438 407.154694 -784.626404
433.855255 518.790710 -851.250916
251.895782 397.575653 -939.019592
134.632751 394.422607 -876.600647
330.488586 495.461456 -826.329773
256.123199 494.655426 -775.362244
396.810913 595.929199 -702.277527
363.203217 510.324554 -818.710144
197.174255 462.673981 -768.116089
263.217316 453.495544 -859.474426
100.012474 398.068390 -967.144531
133.684799 392.694489 -940.751160
18.141888 454.293243 -708.815369
270.805939 384.314209 -938.863586
73.252876 452.324036 -742.382690
363.368744 561.922546 -720.847351
147.143448 519.090820 -678.162842
212.761246 561.052307 -646.318176
253.741684 464.037476 -860.701538
438.236969 555.150635 -803.769043
19.463161 450.183350 -751.290649
427.929291 553.472900 -790.499023
106.202209 514.652405 -611.841858
280.246185 440.506226 -934.769348
357.437225 464.202759 -894.004700
280.555573 421.397186 -937.049866
286.523499 454.171906 -869.534546
74.524384 487.478699 -694.454590
4.135865 409.067230 -769.660278
41.295082 504.197845 -669.337036
275.020416 551.845703 -695.828552
416.522400 562.340332 -778.088562
320.350464 580.839294 -676.539856
338.410797 374.319885 -930.093567
261.145782 430.486023 -926.503723
419.468079 561.201416 -784.177429
356.346283 566.699219 -737.061951
419.626953 535.280701 -806.036072
246.434753 574.040100 -640.807373
200.363098 414.886414 -936.635864
437.327332 565.502991 -783.944031
327.502411 429.347534 -947.221863
101.644577 501.313904 -695.575256
187.832230 382.666626 -939.736267
264.953827 498.117859 -806.075500
278.825897 567.885986 -664.742371
417.023041 565.261353 -752.015686
8.495421 355.999420 -871.244263
431.355042 524.065308 -796.994812
393.624847 494.136414 -864.275818
420.055023 604.126099 -697.698486
286.127472 533.721069 -754.761169
345.058350 573.165649 -685.327759
224.682892 469.297424 -800.661072
136.578979 516.996155 -677.826050
437.703094 497.676575 -883.510376
5.372422 378.951202 -831.339539
215.096512 335.966583 -932.673157
-8.445359 405.153687 -781.828308
213.918777 458.640167 -842.406555
247.827988 418.697205 -938.787048
360.190674 568.091736 -726.687073
55.096310 418.289917 -811.364990
50.247665 463.769623 -688.660706
159.434509 494.063324 -749.613403
313.125031 515.449158 -776.961426
394.432404 564.277039 -698.675964
467.061737 516.024048 -891.654053
349.282654 522.456360 -799.498352
187.913666 400.539581 -881.204834
280.210419 497.572662 -787.280823
441.283722 617.822266 -697.131653
202.748398 469.191437 -780.333252
392.487915 533.451904 -824.978088
360.720154 569.034912 -736.048828
275.540161 486.166626 -809.381592
216.393600 488.516174 -740.359314
394.554626 514.547913 -844.743103
392.289795 501.297882 -988.740295
342.005524 572.733093 -719.619507
37.271046 509.037323 -639.243042
215.779343 343.901978 -919.258606
345.653412 544.399231 -761.019104
105.153687 466.965515 -744.642517
124.603203 405.906799 -846.540161
6.791925 349.405121 -842.246216
180.700195 494.838684 -756.515198
33.390053 417.842987 -781.254150
144.576660 515.256958 -710.333496
155.649963 457.158936 -781.778992
-7.768502 430.125671 -720.947266
110.928001 411.427094 -851.947876
205.788651 510.395050 -722.428955
59.891079 407.640137 -805.131836
322.083374 593.393616 -678.416992
209.421097 547.963196 -672.593689
405.460327 585.361328 -731.535828
383.008820 580.840881 -721.840881
199.224136 460.986450 -791.949890
-8.895966 432.994293 -761.036499
79.132996 412.242798 -809.160950
306.042084 541.892273 -727.571838
-8.048263 390.579590 -832.682434
452.690613 503.142029 -914.444580
118.889816 455.223969 -761.911133
427.747498 512.939819 -868.076599
221.562515 492.606262 -793.802856
335.587769 534.472534 -768.859253
-2.578198 410.947388 -762.265198
224.860779 456.554596 -848.008545
53.905296 517.117981 -624.228821
447.269287 604.647766 -681.243896
7.721097 500.068573 -629.703674
161.811096 426.208862 -847.473877
389.651337 613.049438 -666.397827
-3.601087 425.759033 -762.970520
188.517105 335.294922 -931.521240
287.050018 582.983459 -655.022583
147.676590 356.404114 -921.405518
177.866165 485.101257 -759.632751
169.088562 424.592133 -866.140381
304.103912 530.749634 -771.409546
148.991074 506.520203 -700.965027
316.348145 507.886932 -811.041138
278.648590 524.139221 -769.510193
342.284546 555.992615 -750.258728
232.325363 538.013733 -696.643066
152.460785 451.543518 -815.791321
396.817230 590.003357 -679.201660
351.584717 561.688110 -721.701355
289.773987 509.486481 -780.883545
64.359703 458.159149 -712.362610
163.366531 349.855743 -930.067993
277.036194 442.274933 -914.302368
137.528625 522.033325 -659.146667
146.013931 422.233337 -832.688660
372.063812 492.878937 -861.323547
183.945511 443.128601 -844.598694
97.618980 516.562988 -675.266479
141.951157 447.116028 -816.605652
276.744019 463.296173 -813.970032
-10.937288 472.090790 -632.105408
192.270325 540.114868 -663.142761
411.315002 577.472534 -743.160461
434.691772 584.638611 -719.236328
16.140440 382.417542 -813.692322
61.595585 456.273743 -725.667847
160.862610 547.607544 -642.097046
423.219299 538.669922 -826.885315
319.041382 545.479492 -733.451416
205.304291 329.727814 -921.048645
201.897385 351.107391 -921.559265
213.922867 557.306641 -649.398132
276.562866 338.766663 -919.837646
146.692215 362.054932 -928.039490
360.468262 504.936554 -854.016602
36.075771 377.110565 -870.931091
225.934631 390.443329 -937.421936
42.739059 422.772614 -777.258728
3.045029 445.795685 -741.070129
397.224640 574.351685 -753.683472
163.783844 362.254272 -932.048706
-21.773603 485.499359 -616.061462
198.819473 471.241730 -785.305298
238.041656 554.972900 -678.014343
258.882538 511.261658 -756.958313
53.599857 392.056396 -829.790405
381.397644 549.164429 -777.980713
233.852295 418.407776 -932.111633
344.284576 563.877808 -713.261902
337.351593 518.351624 -809.819092
79.929016 476.551758 -738.249878
264.150116 482.749634 -832.327454
279.491119 524.017883 -752.234253
61.112564 392.491455 -860.482910
24.746851 429.608185 -769.834717
195.113922 500.334717 -760.396179
247.151505 420.381348 -915.538208
382.228546 467.634613 -874.890198
219.616730 499.805969 -752.965027
319.353210 410.523651 -951.840637
220.106262 371.955841 -929.190308
209.706680 528.359131 -694.469360
351.207703 586.227966 -671.234436
284.336395 394.898224 -935.576294
115.157303 457.105621 -767.747314
431.141418 522.427612 -849.028259
319.254272 517.297180 -783.122437
90.541672 471.010834 -720.631653
-11.915178 435.953369 -736.618469
423.004669 484.348053 -909.062866
328.897949 546.040100 -747.169495
385.861328 607.342712 -669.236450
372.729858 530.560730 -815.676086
385.410980 555.590210 -781.188110
317.412567 595.727600 -655.022583
83.343483 390.643036 -844.094116
325.378906 568.179749 -704.429199
328.620728 610.076050 -653.664795
90.741714 445.060760 -748.869080
-10.031860 396.909515 -822.116638
453.997314 611.978516 -701.379578
272.459930 345.540649 -930.813660
228.952576 491.002014 -776.699097
99.108543 424.634521 -792.032471
72.783188 537.205994 -641.036804
49.195934 488.045990 -693.852417
102.450523 447.488464 -752.359070
464.920074 502.992828 -868.561035
287.269043 580.830139 -647.637451
322.513031 551.887939 -724.387634
225.405151 535.029480 -667.238464
180.951462 430.912048 -853.767700
225.458984 530.318787 -727.201172
242.863571 501.413544 -783.564758
242.044296 369.948364 -943.662903
294.409485 513.174622 -770.755737
234.235306 398.325500 -937.678101
303.278809 425.207581 -924.454468
381.756012 613.230957 -670.883789
5.357484 425.293640 -781.195984
188.366470 443.960571 -836.357910
368.083130 575.829102 -703.409729
292.639893 548.107483 -687.807678
74.503853 377.521179 -879.191101
137.587570 415.605713 -872.598938
74.676666 442.404388 -791.163879
386.486664 618.470703 -669.769043
245.064087 342.926025 -933.693420
174.056152 477.046478 -766.245117
276.095642 505.779724 -744.672485
427.110779 540.321838 -821.097412
44.445705 475.160522 -656.774780
90.621002 448.977478 -781.070801
317.496857 574.981323 -685.933044
188.976517 446.224030 -819.206970
248.282486 519.145752 -736.043396
214.368256 354.571014 -930.956482
302.566223 560.667847 -664.237366
406.864166 476.862274 -925.848083
259.174469 435.109772 -877.655945
274.100525 523.717590 -764.151428
405.289368 519.604675 -847.905396
308.952759 374.331848 -931.321594
430.312805 608.413574 -667.770447
-10.164064 363.985077 -907.416016
286.471039 587.541199 -648.021667
199.136368 346.815063 -919.385559
367.229004 609.020142 -671.867249
263.543915 364.104370 -935.506653
168.474533 444.424866 -842.896179
327.055328 437.714447 -937.728516
389.398071 594.676941 -692.161743
363.602264 602.544495 -681.805542
321.666931 535.762451 -753.769531
112.470276 541.984924 -646.952332
395.739166 557.705505 -783.598999
288.437500 588.531982 -659.656616
288.597107 523.857605 -769.246216
209.762924 434.302582 -846.619568
28.642632 424.545502 -720.385437
47.694626 458.556641 -742.857361
271.337036 396.150421 -943.050110
294.604645 481.579376 -828.112854
445.346985 569.846741 -781.642456
242.995544 473.159821 -828.726868
359.368622 616.891357 -656.899536
264.633820 440.668732 -905.969849
229.772202 375.374298 -938.280945
360.195313 500.890717 -792.427795
456.033417 540.800110 -801.228821
-19.888948 467.420776 -676.535645
423.207489 610.148376 -688.834473
282.735870 449.063660 -922.820618
-24.501596 457.535889 -674.107056
251.702499 576.428711 -646.378723
249.771194 325.179962 -914.194397
-53.829620 488.239716 -633.317444
56.246815 400.132874 -840.905273
355.888214 495.067383 -854.711487
213.457962 322.086243 -910.793762
310.784027 527.573364 -776.783081
341.766846 591.292969 -671.243347
362.647400 607.690369 -672.078552
209.831772 517.967041 -722.770142
28.014784 496.641174 -666.711609
252.606262 554.974609 -706.215149
150.513687 452.275604 -796.551331
121.133301 420.685272 -823.982666
191.244644 454.498810 -817.061584
319.594086 533.719727 -774.526001
-16.141874 405.801056 -738.901489
323.891998 550.624207 -735.199890
420.552856 469.471588 -900.033691
228.299072 468.214600 -836.267395
244.338974 358.277679 -943.788635
83.444000 435.338989 -765.007751
408.812775 494.872162 -850.147217
412.336029 527.092407 -830.166931
244.810852 438.617767 -883.525513
235.149658 507.197632 -756.519836
83.187836 468.004517 -720.630249
299.429352 384.636292 -936.908997
213.802170 460.441254 -781.455566
279.668610 483.398193 -807.794739
415.568512 606.091980 -704.130798
392.831757 507.666504 -864.725525
276.847137 563.231323 -671.077026
291.693909 399.022644 -945.753540
441.313080 521.131775 -863.256165
303.154266 554.317566 -729.342651
56.441574 490.710632 -665.732605
394.565369 499.505005 -880.851379
13.886106 504.004547 -649.879395
440.090912 591.139282 -731.870972
156.594177 422.755890 -838.348999
424.976135 575.433472 -765.135864
181.359268 451.957489 -804.206604
65.143066 495.861420 -655.301819
222.621780 548.370422 -663.976868
213.285751 459.777039 -810.142334
181.851578 356.305267 -921.381714
262.622284 472.128998 -823.423645
105.111176 513.749084 -682.828613
257.200836 378.359711 -942.675171
45.894749 468.904053 -694.163330
80.261223 500.358826 -692.309692
146.675888 482.797394 -743.490356
327.485016 518.810425 -747.777161
214.672424 530.576111 -712.553223
331.978424 571.508118 -695.366272
40.992611 426.077820 -727.180420
394.976563 564.111450 -744.855286
431.843903 605.828735 -679.878357
211.269531 473.233582 -791.604553
3.673232 489.274841 -638.858337
-1.358788 381.012970 -789.131226
367.886841 464.322449 -892.296387
-33.968819 461.928009 -677.219299
320.847839 466.229279 -953.283691
346.560883 452.494110 -976.039307
126.464081 460.998810 -781.797302
226.775330 329.865326 -918.066223
391.073517 534.756226 -810.262390
173.168701 362.551605 -935.274658
142.887253 387.300049 -942.232422
85.648209 467.337891 -748.047180
432.040314 568.713257 -778.374878
39.444622 481.008545 -678.361755
114.316925 465.509583 -753.621521
367.440399 618.513977 -654.682434
-22.508430 475.419769 -683.234680
326.930603 484.908264 -857.191528
291.513641 505.628632 -781.954163
457.202148 600.229736 -704.531921
434.889008 610.478943 -678.517456
356.644165 593.712219 -687.094360
362.848541 582.215149 -677.226501
386.819519 518.187683 -846.965088
277.981445 511.279633 -732.629333
49.445644 493.649628 -676.692078
188.517990 460.906708 -808.865051
191.552139 424.278442 -867.532288
258.242279 568.607727 -652.891968
275.226013 382.108429 -932.458008
156.173538 541.550110 -647.367310
362.568604 575.199036 -726.509399
19.607471 470.734619 -683.916992
331.844025 395.066650 -947.819458
264.305145 410.228119 -936.136963
186.420990 533.351685 -667.800049
152.902649 473.051849 -762.856140
321.351990 569.057556 -707.196594
222.874786 490.775299 -779.078125
389.714417 565.430847 -748.568420
259.230347 466.618927 -859.107178
212.969376 339.459442 -917.788330
120.082985 475.082001 -729.647766
46.658588 465.194336 -701.760376
409.533142 591.858765 -721.681580
246.050156 432.678589 -890.777161
296.449249 371.275726 -949.714966
170.331055 502.480560 -718.268066
140.433136 517.077759 -692.043579
368.284851 587.645752 -679.377747
457.882660 619.804443 -691.562012
98.761406 442.116577 -773.913513
348.872711 525.708923 -802.489990
166.934204 508.732544 -729.724670
248.229996 386.752106 -940.230896
149.132858 470.259949 -785.124878
267.834412 350.648895 -943.541626
305.457581 361.089325 -931.426636
238.278152 441.147339 -859.864807
228.690201 345.432648 -925.604370
182.202835 443.072906 -827.460022
129.866745 502.365875 -717.447571
330.279236 459.721985 -854.999695
120.442680 417.471863 -848.591797
185.478653 419.522980 -908.056946
381.543335 471.791931 -977.046570
4.391849 436.661835 -721.650085
31.497606 470.152100 -681.495300
303.561066 511.231079 -798.727722
243.327606 369.725922 -934.546204
294.458405 376.329346 -948.384888
289.272186 443.934784 -922.805847
426.458527 621.288879 -664.081909
412.223602 494.968964 -881.391479
316.320465 464.272827 -865.535278
56.148293 381.387421 -826.461365
104.406357 463.136322 -727.024231
288.920837 497.438141 -793.975647
218.118820 463.485474 -831.194580
269.631622 458.542145 -878.154968
250.940414 545.094116 -698.690125
398.955719 527.966431 -803.057251
267.395111 413.789917 -949.658691
234.632141 363.132782 -938.752563
277.969482 395.532135 -923.991760
338.290558 606.795959 -656.148743
-17.893156 486.526550 -631.748535
176.786514 342.820587 -935.545593
411.594055 619.630859 -658.545288
272.814484 583.501099 -649.966003
118.237572 436.230408 -780.489990
91.318810 434.585663 -780.963196
312.113800 581.009033 -657.059082
284.174683 570.734863 -692.016418
137.056824 400.843842 -883.876404
191.357956 522.023804 -694.087402
257.802155 352.568451 -920.720215
324.228546 530.470886 -778.125671
170.762772 360.747925 -933.829773
354.777100 524.802124 -807.485107
-21.701780 449.479279 -725.855225
460.717377 634.097900 -664.199463
346.624298 512.657532 -800.593445
19.105412 479.423523 -692.896423
171.552368 535.136169 -686.406189
219.622223 360.441406 -928.012939
179.289063 505.661713 -740.339600
416.077606 556.933350 -789.137573
208.844955 473.219818 -778.315125
220.510620 514.988586 -730.424072
266.863708 509.702942 -764.051331
232.828003 509.415710 -761.529114
228.981644 505.081696 -776.703003
78.487770 452.548157 -776.260864
161.066422 486.499725 -744.873901
419.710968 553.570068 -791.275085
76.274261 508.190399 -666.156494
242.054230 556.642822 -673.864685
304.532501 366.765717 -929.624268
-12.156675 393.959808 -767.640564
256.467010 494.853241 -784.026367
66.183937 424.355469 -783.536560
104.923637 383.654114 -940.369080
-10.499990 469.846741 -667.125610
308.428162 566.898499 -677.846924
315.782410 521.513062 -772.750061
400.498840 526.110291 -825.636963
114.098610 431.460754 -799.562073
442.243134 575.591003 -756.117004
59.685520 393.762543 -808.350220
347.386139 516.045837 -813.898621
409.285217 478.859314 -930.112854
362.370117 559.600708 -754.429138
194.997162 404.867462 -933.178223
42.351460 372.248383 -880.837341
309.908478 565.361511 -705.915588
257.258728 560.623230 -665.037231
27.699699 421.254150 -803.207153
-5.426162 490.983795 -653.324341
130.023895 430.779144 -813.585571
-18.284388 448.413239 -665.026978
201.291718 392.416595 -920.588379
319.044708 487.520477 -830.766113
234.007324 463.977844 -849.316589
411.922729 558.976257 -782.504150
410.900391 605.933960 -703.899414
437.827850 634.458130 -673.876038
443.452148 517.134094 -883.632568
266.617493 541.816833 -717.448242
309.045837 529.766296 -773.455505
17.948561 479.816010 -656.076721
141.779984 368.520905 -942.630310
379.137360 603.563232 -666.080139
344.365784 592.015686 -678.569153
247.208832 503.165405 -770.466919
48.913876 409.340271 -818.912231
323.983765 500.569489 -826.496643
152.048538 493.190735 -721.870789
335.188782 590.697144 -656.024109
49.491646 441.582214 -746.474365
45.231888 435.804626 -752.526428
253.683426 560.185730 -644.871094
445.928619 607.276306 -702.879211
91.448555 543.117493 -631.324524
293.636810 560.224670 -702.341248
368.515167 605.443604 -674.763794
375.559875 574.235535 -674.264343
263.363495 467.990692 -837.251221
211.221588 449.137909 -825.963318
170.657196 418.092285 -850.863953
199.017380 501.708282 -730.416748
424.013275 505.474884 -827.429871
41.958153 439.292053 -746.129150
109.919121 392.024017 -951.185242
389.383484 469.134613 -969.787781
291.716034 437.325623 -873.194458
378.739899 494.719666 -880.322754
320.019806 574.834167 -674.904724
275.815521 425.517212 -954.448425
454.453094 524.504150 -868.050964
4.098349 363.338989 -853.581116
158.697571 424.748749 -827.425659
177.621155 478.293579 -721.384033
423.000763 490.286591 -928.044189
427.187195 613.175232 -661.572449
450.887329 488.314697 -921.160156
352.478546 570.338562 -731.251099
315.349243 444.399139 -956.944885
84.321930 445.225800 -759.293518
461.972931 600.229614 -729.911987
253.315079 391.618927 -942.501892
-18.997488 419.478088 -741.442444
123.722023 519.101563 -661.316833
142.892410 432.862610 -825.367493
351.348083 566.215149 -673.288330
386.484924 507.054443 -862.223816
405.560364 523.988892 -837.243652
153.953629 463.820953 -803.409424
450.384766 598.177673 -722.319946
22.224081 367.623596 -848.561096
300.854980 412.034424 -938.145935
421.637726 603.169067 -691.678467
43.145863 453.350189 -738.063599
414.073059 600.483154 -713.205750
316.606476 585.942444 -667.146667
77.947708 403.746704 -790.144165
390.659149 533.464600 -779.590698
321.761902 554.291748 -719.494873
315.193939 501.344421 -805.863708
302.472321 427.141937 -918.409790
145.955612 519.568848 -661.825623
434.893738 545.637573 -805.451782
81.435753 458.311676 -719.829956
274.046356 514.145874 -762.444824
286.738220 579.453247 -666.566223
445.543976 558.702087 -801.767639
287.019501 563.721313 -676.816101
441.213074 603.684082 -709.927124
432.187073 499.468628 -842.952393
81.371933 427.100403 -790.719849
348.719147 497.486938 -846.876648
338.044434 478.097656 -851.951477
179.084976 417.240265 -877.299500
313.033203 471.934723 -867.060059
77.592278 494.578156 -703.523010
11.935745 392.501038 -819.138611
29.293831 439.130646 -755.957581
42.469917 446.922424 -767.608948
31.735439 464.445862 -700.194458
242.010376 519.446533 -748.756653
115.634117 501.268707 -694.194031
223.896271 445.730408 -866.859680
76.364059 493.339539 -674.706238
133.920593 457.428192 -767.343750
170.506744 512.009766 -705.767395
288.226532 373.727509 -944.702087
187.256256 387.207153 -934.692627
83.129723 484.545715 -697.450684
185.072388 414.639160 -871.671387
177.119934 385.728882 -930.985474
164.829941 459.083740 -793.510071
409.770569 478.085022 -866.442749
344.380402 438.113556 -960.938538
330.520508 450.738190 -933.228088
264.142548 583.963806 -651.803711
77.395309 395.196106 -857.053467
223.669098 488.879272 -791.903992
259.442596 548.045227 -718.614441
135.324097 486.144989 -701.510986
57.607647 387.870758 -830.963135
350.635986 521.607544 -747.240112
467.676971 604.517334 -707.233032
387.279236 581.736877 -697.071411
238.261749 460.499207 -818.537903
382.227448 608.156067 -682.738281
218.006424 435.024414 -861.853577
14.823660 449.244965 -719.513550
403.209167 605.218445 -670.708923
148.099792 455.601013 -752.707214
35.365166 508.466400 -661.516479
339.503571 429.459625 -957.425110
57.564503 431.744293 -792.817627
294.849915 577.960938 -658.513123
186.271133 559.456238 -646.053650
393.036957 514.143616 -833.107483
11.964685 388.719879 -831.644409
139.277878 414.224426 -861.419189
63.342361 376.491211 -858.041504
245.895142 426.025238 -939.031250
250.680038 489.427460 -812.765564
219.194305 398.807739 -939.857605
76.337234 397.052887 -837.409485
319.399750 375.820068 -946.818054
-12.821095 396.961395 -762.596436
366.003082 544.577515 -761.912231
283.351044 486.989014 -827.868958
289.058716 518.114075 -764.051147
407.478729 557.478699 -790.305908
334.068878 544.024231 -742.121033
419.492157 514.481812 -856.754944
249.736725 486.534454 -793.852722
158.628708 542.304138 -666.348328
445.936127 605.123291 -707.939087
330.858795 573.923157 -704.725403
173.959702 543.164368 -644.560974
345.159546 461.423767 -895.092773
206.525253 524.804504 -727.436646
168.352798 488.692291 -759.987305
149.682739 467.529144 -790.117188
247.923904 571.789429 -651.091797
306.460968 581.920227 -670.011841
294.033630 571.246338 -701.222290
-5.450124 458.423431 -683.511597
151.013000 404.310730 -937.171509
37.514099 492.577423 -687.522766
83.759834 496.958496 -702.269897
-19.430317 409.179901 -801.152649
260.475098 534.905701 -670.108215
433.359131 509.988007 -971.678284
294.978271 570.860596 -683.717957
33.075668 406.723816 -794.772888
285.703186 546.204346 -703.850220
334.918121 494.297821 -848.139587
191.721191 351.397858 -920.226379
152.844086 358.865723 -923.527771
452.053711 522.635193 -832.341187
286.491333 356.920197 -938.051025
318.745026 455.340576 -967.874451
18.293161 401.747894 -794.260193
378.138123 605.344177 -661.728760
402.405304 528.398193 -775.861084
341.325928 512.730774 -802.428284
161.868515 490.370117 -702.477478
437.051178 517.963745 -974.163696
193.437485 538.974487 -691.147156
121.923431 492.305573 -681.059875
423.713684 582.063232 -736.681030
0.552638 374.998993 -823.962830
177.898438 512.239746 -700.903809
305.600159 516.602722 -775.356995
208.691269 528.017883 -723.297180
462.050629 537.237915 -846.967285
80.485527 431.720917 -779.746582
208.769714 511.409729 -748.360474
51.281563 369.547211 -882.068420
81.034157 374.061096 -858.519348
1.789159 352.484650 -840.250305
399.175385 506.712433 -812.730896
305.751129 479.850250 -857.762756
207.609467 510.361664 -733.334900
429.987427 598.239990 -693.968872
135.739822 372.485870 -939.460815
328.252594 536.464844 -773.555176
340.413391 474.445923 -876.493652
289.100006 532.111145 -739.835632
206.665863 562.106262 -646.048340
348.741486 515.007751 -808.522461
184.586441 529.871521 -685.302612
56.517292 395.519409 -830.710571
262.830963 509.064301 -765.196411
283.835754 586.833618 -659.968689
353.669250 600.617798 -679.101257
287.820984 485.215424 -782.030090
345.719604 487.000610 -873.072449
128.812195 529.916382 -643.962524
96.981255 542.367126 -653.842041
149.445572 505.395782 -723.357361
148.767792 448.987335 -796.025208
326.231049 526.516357 -772.311096
435.683044 518.722168 -843.475769
167.815964 416.910217 -875.680847
354.794342 464.602753 -952.591064
435.140930 493.992523 -865.918945
165.727600 372.626831 -924.229980
243.611649 470.349976 -833.984985
122.014427 372.135529 -932.616333
98.421120 391.361877 -934.317139
121.395966 445.944885 -783.817017
341.514526 517.897095 -788.012756
426.266418 585.224670 -727.379028
13.532929 360.036774 -866.060364
-26.983034 456.968262 -704.478699
429.063385 599.322937 -708.117737
409.619659 495.271332 -883.157654
-0.703734 466.377716 -660.199585
187.216415 527.300110 -692.174622
440.314819 604.238586 -721.048706
181.983490 444.257416 -844.606201
355.687714 473.625610 -952.939331
416.697357 607.435547 -683.076050
240.357941 380.952576 -940.836487
450.610352 608.762207 -706.494934
188.857773 428.681183 -856.954956
36.537624 522.553772 -622.349792
130.736404 392.100525 -933.708618
427.563568 600.643433 -680.952881
320.129913 578.037964 -690.326782
81.958138 397.016418 -834.288696
-34.506657 458.799896 -701.835754
25.847572 405.614166 -819.821533
217.280716 465.026031 -804.543091
85.742836 385.671753 -852.118408
433.220062 594.579468 -692.004395
85.347740 459.583557 -746.331177
231.112991 335.269562 -922.174072
99.181381 471.174042 -724.470276
131.366455 359.443970 -932.404236
126.854843 445.285034 -788.844116
116.036781 396.024414 -870.505676
323.329346 446.304688 -967.486206
298.732880 441.580261 -941.342957
247.620377 469.986237 -817.542114
420.032410 577.224487 -753.322083
167.661255 414.214905 -877.466431
281.526001 520.738159 -744.861572
140.011108 478.089905 -719.976257
413.702698 533.298035 -809.530579
399.755066 474.050446 -902.649658
114.645103 485.188019 -742.526306
328.056488 473.690216 -863.818481
440.661133 562.812439 -773.701599
216.501877 543.967957 -669.057983
382.487457 601.811035 -663.823425
48.375069 376.188293 -851.654358
-17.862875 434.598175 -744.658875
416.595917 515.676941 -851.002747
9.610838 371.342743 -866.028137
296.925323 521.978394 -751.363037
227.142273 511.997925 -729.310486
445.346558 509.632050 -886.698547
198.382370 455.092010 -834.050049
127.511650 400.479736 -880.517273
336.755341 434.368134 -968.979187
421.703583 578.401978 -754.670532
321.888000 483.093262 -860.821350
326.058167 388.360748 -953.468567
-8.187616 354.665466 -853.454895
310.409851 398.247345 -943.673035
171.548111 448.264618 -805.865173
367.650299 519.480896 -792.425354
147.400894 450.691193 -793.317444
102.086090 432.108398 -791.026917
239.905930 487.333771 -803.343323
235.695328 432.489563 -876.849731
250.241287 350.952606 -937.557434
341.815735 583.242493 -704.114380
119.259438 447.128052 -810.642700
265.542633 479.629395 -812.460449
250.352875 561.444092 -684.818542
12.201418 420.035553 -730.302246
258.580292 338.080750 -928.117371
289.353485 567.208862 -682.711365
234.443787 526.628418 -719.625427
187.150513 497.671661 -765.070740
269.932678 501.384766 -797.636414
184.083939 367.723969 -926.085938
369.521454 462.933075 -911.011963
245.720245 578.772827 -652.077698
213.202194 343.304565 -933.331665
17.229650 464.836792 -690.423401
355.612091 467.266724 -969.125977
76.009026 382.789703 -943.293823
382.826263 485.057373 -983.136780
-23.741861 494.257843 -659.988220
379.929138 466.496918 -911.487305
52.493580 384.010315 -805.789307
264.113953 530.478088 -742.321960
315.194855 510.889160 -753.592041
331.963165 557.954041 -739.226685
268.264008 544.307373 -696.122559
249.587128 346.413208 -919.371704
91.931686 446.325409 -785.969421
131.679092 403.659393 -942.862061
327.719849 408.354584 -952.460815
388.497528 514.242920 -794.017090
101.353783 530.986938 -629.974854
430.265930 581.046021 -735.273132
236.910736 543.130066 -715.853271
37.001694 398.625366 -806.053589
34.066067 382.606567 -868.249207
174.267746 431.247131 -859.071289
376.672302 469.345856 -920.031616
329.984070 479.002808 -876.020508
10.632015 395.327393 -821.721008
358.264221 524.080994 -761.504272
288.238739 421.563080 -944.307678
357.546234 528.914368 -794.450928
443.024506 541.373169 -819.227966
311.201660 522.099243 -769.662292
-8.730502 361.604462 -830.283203
202.021347 470.760193 -790.196777
68.547646 444.610504 -749.726685
347.169189 551.922363 -756.262756
317.158508 505.010529 -816.010437
340.967682 575.918091 -686.534424
461.160889 569.254822 -776.756531
438.003540 537.950439 -828.988586
389.007751 496.491241 -881.223450
-5.621969 465.017242 -673.447998
255.822983 437.212433 -870.846252
209.477203 378.252625 -925.984375
53.401691 374.308441 -857.335876
422.198700 478.137787 -928.458740
257.735077 454.394531 -848.207092
367.574890 591.391113 -688.652527
215.342606 463.299164 -816.506226
439.371887 555.541748 -789.484680
401.308228 562.955811 -764.670715
311.607819 352.923126 -922.582031
299.824005 470.430939 -853.100586
26.439545 393.258331 -839.253357
14.611398 476.248688 -700.650696
229.769089 318.542450 -909.379944
293.663269 456.921936 -886.719421
88.230202 454.216492 -747.293213
318.030334 511.037872 -791.341187
-28.698198 470.439423 -667.382080
339.605774 478.655670 -856.110535
358.368744 505.762512 -819.690491
111.097870 512.247009 -690.452393
1.371608 440.404419 -726.936707
61.114143 445.699738 -772.063171
263.979492 518.313416 -770.824524
357.053955 546.224731 -773.347046
122.233948 432.086365 -828.271912
154.012115 541.004456 -665.959656
124.257301 483.535095 -719.572571
174.242432 430.743317 -812.933472
122.830360 482.341949 -747.286072
-1.804336 474.647888 -663.787842
54.660915 401.033936 -814.545898
389.561279 578.197388 -731.043091
245.654770 506.904694 -722.906372
209.304428 559.171509 -648.835388
217.526276 505.983704 -765.307068
394.710724 463.582886 -885.865479
333.506836 590.460999 -685.634521
404.723633 575.044006 -730.339600
65.856964 472.799805 -675.907898
360.184540 448.724030 -974.936401
231.665604 466.590057 -823.988098
143.085724 400.178864 -902.742004
86.893250 517.057739 -645.559387
-14.942715 471.585907 -655.496643
245.486450 495.628021 -775.231262
206.099915 436.927338 -852.365112
220.290207 557.535095 -659.047180
310.205078 412.724976 -957.358093
375.084869 467.732910 -927.364624
413.240051 494.107147 -975.244019
259.866180 496.198914 -806.744629
331.644928 529.242737 -738.044922
175.494202 490.328522 -696.814026
227.736923 435.622467 -880.178955
226.876495 553.642273 -688.079041
2.707815 355.984558 -855.347778
225.860077 360.501129 -921.708679
213.865570 509.438599 -755.372925
138.584656 476.564850 -763.149353
220.648651 495.319031 -784.915344
231.951233 388.542358 -936.854370
37.096291 480.179047 -694.760986
250.059326 432.875763 -873.178772
-2.447608 424.195313 -782.080933
317.435455 578.648743 -700.673462
458.700348 583.470886 -759.397888
280.996643 365.078888 -924.211975
383.558228 484.287720 -875.883545
180.011551 478.695343 -788.184204
228.668106 532.451782 -699.104370
144.088348 441.278381 -824.772766
376.671692 609.296448 -654.155701
232.874695 466.773499 -805.229553
302.482239 398.239044 -936.828735
436.853729 614.066772 -688.098145
311.500641 377.445770 -934.822510
179.390274 432.966064 -858.954895
131.952332 521.585022 -665.919189
413.076599 550.843872 -741.496948
57.225712 454.537109 -762.296021
221.944397 440.348206 -857.060852
251.660309 356.623566 -938.928650
194.888489 526.330933 -698.288391
383.462158 551.196960 -759.361389
213.476807 549.035889 -662.630005
248.315582 468.877289 -838.583252
114.111511 493.066925 -682.435364
375.963135 484.451538 -995.010254
329.316254 562.221436 -735.369324
414.104034 592.767029 -726.168091
236.658798 571.536621 -658.263123
246.802460 435.840698 -899.266418
17.986561 451.738617 -677.053528
281.578369 559.715454 -692.693115
444.981567 490.576202 -897.951782
29.016409 450.193970 -737.335632
421.016510 623.664856 -674.202148
349.112457 582.324036 -677.113525
331.015717 543.430664 -764.281433
202.940781 464.950775 -789.845886
266.687012 569.501038 -663.742676
344.932953 494.629395 -835.936340
202.347519 541.134827 -663.009644
372.895294 538.682739 -785.341125
233.524551 517.681458 -734.495056
144.353012 417.467560 -864.222839
181.256393 498.367065 -724.848145
461.912537 624.348450 -688.217102
291.549194 551.197449 -715.883606
-6.087409 436.240112 -687.963806
128.256989 500.851715 -696.209229
320.327515 390.974060 -952.478455
399.006561 528.197021 -830.627808
94.657707 481.356812 -737.989990
125.050583 471.397797 -767.129028
184.818726 508.516815 -697.096375
376.594971 564.363281 -754.287354
286.782471 521.282166 -750.491211
200.954254 529.361511 -706.449585
38.401600 449.667267 -727.740662
143.500793 398.886353 -867.680237
371.266235 581.204224 -693.596985
381.640747 564.191345 -704.571228
285.146057 445.149414 -885.777588
325.367004 515.067993 -778.491455
439.972626 613.654358 -682.121338
163.830246 480.990936 -741.085510
46.256859 498.823669 -646.491455
405.659760 522.823120 -806.262695
-10.581676 374.708160 -926.362427
421.285065 544.375427 -779.523132
352.042999 568.873230 -707.823853
213.374557 551.978943 -668.358398
172.065781 484.262024 -752.922058
238.657944 478.798950 -818.047974
444.853943 574.927063 -769.197083
399.264282 516.810242 -835.831543
146.607117 553.251770 -637.658325
219.314819 439.920410 -843.120667
200.082855 459.785431 -828.975647
401.650726 563.700378 -729.299500
412.509583 567.968994 -774.139954
361.280762 535.985413 -792.716492
186.885101 528.215088 -700.468384
262.399567 491.444580 -804.748901
409.916290 581.130371 -716.036804
137.359314 473.086304 -748.866699
145.340210 394.256653 -931.546875
103.123024 448.729218 -764.795898
122.177788 443.534546 -815.985352
23.932316 499.141388 -636.072327
204.288513 422.988647 -888.164307
144.160049 363.927277 -924.263245
358.309875 598.664856 -653.080627
84.078453 438.507355 -774.603149
430.552155 547.108826 -753.968018
137.818527 509.772247 -713.503662
254.556046 558.225830 -697.715698
100.600250 445.249298 -800.985229
101.684387 408.869232 -829.033936
129.368896 504.930847 -712.609985
177.001923 488.216187 -769.904541
183.446442 410.976898 -921.857361
302.601105 503.942993 -817.176331
274.801147 550.939209 -721.826416
229.673126 500.530212 -761.023804
436.591461 488.653778 -928.747437
411.723022 619.385010 -674.153870
238.000336 535.079224 -727.758240
29.244518 405.839722 -768.892639
207.088196 552.344421 -683.074341
19.550308 435.557678 -738.119507
113.181396 500.156891 -684.811462
150.734375 476.773132 -770.012329
231.036362 425.772491 -922.935120
66.043800 381.078217 -889.337219
196.212753 517.560120 -689.179810
235.711166 477.384430 -812.322693
412.570557 550.150085 -762.208740
49.033577 444.520813 -741.987183
391.721222 557.335388 -721.687866
283.518829 384.405884 -941.228516
140.346191 461.308014 -795.064453
433.586975 532.775452 -777.517395
163.416000 455.150635 -761.932800
208.428680 410.910645 -904.939575
50.636753 419.593048 -782.385742
43.958580 476.140991 -679.463562
57.048588 468.993530 -738.481018
361.954163 586.735535 -686.316528
281.317688 484.553223 -818.596863
342.691437 488.972931 -809.800354
418.436066 534.976196 -792.979492
289.947601 535.316162 -735.671875
404.526703 608.562683 -683.275940
184.061432 349.022614 -930.786072
292.850372 544.255798 -721.821106
443.414948 613.882141 -706.288147
314.722900 437.979675 -950.708679
416.403351 503.794952 -871.734192
327.416443 418.992340 -959.443481
132.821365 542.820557 -651.579712
428.874329 523.108887 -852.992371
182.624893 539.981445 -657.852051
263.647766 568.898865 -687.695435
-0.814739 482.481232 -653.628174
374.796417 594.705505 -697.498779
403.781982 548.898987 -775.226074
292.193695 521.197083 -771.226929
229.308167 558.399780 -657.031921
356.498718 425.159882 -954.080017
419.451569 549.451233 -798.197266
381.020416 534.236206 -802.439880
-21.208517 368.760956 -830.980591
366.643707 537.129333 -774.346191
299.179199 529.283386 -765.859863
186.788483 539.702881 -658.963135
181.764679 449.057251 -809.074402
353.570251 451.736481 -901.124817
443.544647 546.729858 -822.824707
124.062737 447.817719 -784.352051
363.473602 453.421967 -974.220398
264.126587 489.369019 -794.396484
299.662964 417.119598 -946.744263
244.389664 526.786865 -748.402100
399.430084 556.559998 -713.630432
142.870438 396.920593 -892.078125
365.502869 523.088928 -808.764465
91.622559 507.253296 -685.893494
237.400497 549.952209 -700.998718
282.196259 497.484802 -761.859863
399.427948 608.683289 -686.145020
222.027298 348.566803 -934.653564
116.806793 493.284393 -724.434631
289.627991 450.973541 -878.579712
132.132004 430.215515 -846.111389
9.664074 499.971436 -653.376221
53.929848 385.808472 -839.262817
385.993988 542.047546 -788.134644
300.647827 525.348633 -762.501465
199.117386 532.583923 -708.463318
193.609482 533.068481 -703.995239
395.212830 566.602417 -728.630493
329.737366 604.903870 -658.099121
397.485382 561.361023 -761.953064
412.178558 603.844727 -703.626404
287.299927 464.524445 -819.300903
77.363899 452.162415 -770.732666
189.596283 436.445404 -858.803589
321.430267 475.722321 -854.070923
72.042152 532.448608 -625.633179
306.206451 408.078033 -949.507446
150.431152 426.844055 -827.728149
38.203697 506.670258 -643.834351
390.360321 489.445282 -899.668152
252.337524 451.199371 -867.977173
253.093658 445.353882 -886.008728
404.810883 608.006653 -666.916748
336.276123 573.427307 -702.495117
334.043640 535.570374 -778.394348
113.958061 410.680389 -816.562622
47.134113 382.347870 -865.663635
168.824905 483.525238 -740.628845
368.035339 470.438080 -872.221313
342.790710 529.970520 -793.375549
129.565765 435.439819 -778.753540
404.987854 541.193054 -779.427979
198.931793 363.885590 -935.096924
353.779388 460.668213 -881.519836
244.821243 554.261169 -685.471863
104.346909 494.323212 -709.998596
437.765991 573.575623 -769.019043
173.266006 378.834473 -938.708374
170.089157 492.203186 -738.673096
252.868469 433.012512 -887.605164
90.898682 374.152679 -866.916382
-5.292891 454.816589 -714.315796
401.068726 499.164551 -883.683167
430.995300 496.137085 -888.496460
428.721985 533.627380 -816.190674
141.433151 463.190704 -763.656982
255.257507 547.887695 -688.274658
220.468124 487.939697 -768.779663
270.792816 434.414520 -906.590210
202.718933 489.022125 -780.074951
150.699570 451.392609 -787.666870
116.831200 484.880157 -716.721191
-24.445526 474.324097 -641.781555
94.328262 514.073181 -677.389771
382.540619 603.525452 -673.668701
264.615234 341.853363 -928.925598
260.035492 548.320374 -718.795776
349.752014 438.692474 -958.250854
148.765564 385.450928 -927.875122
279.617249 437.783722 -894.352417
422.643890 548.334412 -807.434692
-42.065716 489.520050 -644.828064
33.002338 458.607941 -711.758057
34.225178 437.455902 -772.626099
396.154572 545.113953 -797.620239
42.172287 386.859161 -921.107239
119.116814 524.356506 -644.365967
393.584839 612.477295 -667.085815
242.878448 417.914185 -949.879517
118.266357 525.729858 -648.536682
102.242287 392.906067 -946.419922
202.897781 435.863373 -819.690979
113.995583 399.452850 -888.640381
176.539261 363.989197 -918.197754
220.121506 471.017731 -789.452454
256.330719 416.616211 -933.396118
336.806396 512.394836 -795.443542
8.982623 391.090820 -825.302002
337.760284 502.920288 -820.496033
169.675537 501.928497 -713.207520
188.500961 489.371277 -734.799255
433.965820 517.854797 -859.133850
189.087830 374.397766 -936.264221
314.551331 432.096161 -952.397217
439.707947 504.914978 -878.856628
313.511108 439.052887 -951.365234
250.361862 478.719940 -813.503479
269.681396 364.111969 -942.794678
281.007172 489.664703 -831.553772
268.435272 432.857422 -887.627869
298.788177 498.695740 -801.619812
325.196503 420.126343 -962.916931
296.391296 541.175232 -699.774658
52.074650 374.793030 -851.120239
263.875519 495.970306 -778.526611
367.057770 475.642334 -947.852234
147.612381 348.988159 -930.310913
314.411621 404.899963 -949.871460
274.867767 347.857239 -925.650208
433.473907 514.599854 -815.927490
305.458954 562.653687 -721.611633
160.007721 401.852783 -864.707520
42.726070 388.940643 -805.804199
342.511871 455.941193 -977.629761
369.884644 600.996643 -690.161682
12.108628 408.244690 -801.896118
158.447708 535.548828 -648.975403
232.761368 551.188904 -683.828247
176.715073 482.224823 -760.778320
302.855530 414.284454 -947.580566
74.495438 399.564484 -829.724792
-32.558224 490.706848 -659.699219
196.966843 514.621033 -707.475220
258.210266 551.542725 -694.240295
14.788114 376.751953 -925.533875
373.424683 550.428894 -765.727661
82.236786 469.357513 -740.962219
92.253754 460.386200 -739.899048
230.785492 383.645691 -942.153931
447.978058 533.869202 -815.092834
361.198547 603.417297 -637.980957
348.314240 471.975891 -979.750305
250.663971 543.293945 -693.917847
217.874298 352.558563 -942.506042
418.813538 566.426270 -721.362610
133.021454 434.454376 -798.479675
224.808701 500.095032 -782.675476
224.315628 509.996735 -759.949280
210.742462 433.058594 -853.050293
443.645782 509.215637 -864.439941
112.383369 396.935394 -949.407837
94.161858 482.090240 -736.632263
269.604004 332.781494 -916.578613
144.026321 517.826355 -705.787659
57.428398 416.842834 -791.782104
156.047012 418.096863 -865.318054
70.895325 432.000885 -806.112854
332.752167 475.088043 -886.013855
248.872513 532.489746 -717.456848
5.369460 383.868347 -812.001160
346.495972 508.147461 -831.059570
318.621796 544.958008 -743.015564
209.318695 571.503845 -648.798889
298.261322 550.034363 -667.057922
283.090332 436.783447 -914.432678
202.660660 525.463806 -667.142395
260.444031 478.602081 -819.787964
3.648440 437.465179 -755.544373
237.348221 472.817322 -798.419067
276.639679 387.082825 -942.435425
202.449753 470.294281 -796.795654
6.634447 373.763184 -828.324646
151.357132 551.566040 -646.720032
94.028412 382.775635 -842.139709
59.104908 478.032928 -697.958984
144.335144 407.417969 -916.501160
134.369736 453.899414 -802.243103
448.789093 530.663879 -816.350281
311.700989 371.631805 -942.441833
355.013672 539.109131 -730.086243
231.120758 502.723083 -761.507507
214.843292 454.069458 -817.165039
385.655975 467.104706 -911.678101
241.461349 406.871185 -945.408203
45.747177 431.448639 -760.485291
388.260132 589.264709 -702.394958
208.042801 540.838013 -697.381592
255.567337 494.856232 -799.906738
97.131241 500.581116 -618.156860
287.952332 435.058136 -913.024475
44.754387 424.967010 -796.486267
291.316406 529.977905 -745.092773
2.859106 362.064087 -886.606384
227.646317 530.406250 -708.188538
458.365143 521.875488 -867.195923
416.925018 551.289246 -776.886658
177.396622 426.489044 -844.074036
229.154953 398.552338 -930.692627
233.269714 443.067566 -852.670044
234.232559 356.744965 -937.986450
190.541229 388.358490 -936.225159
242.263580 407.039459 -928.887878
280.565674 378.653748 -932.612061
237.016052 426.264618 -872.731995
289.846283 507.990906 -803.394653
82.153320 503.542725 -627.372559
293.899078 534.194519 -739.008301
149.757889 419.018402 -860.878479
183.163986 503.219482 -728.981750
216.531723 458.494354 -848.076355
441.681976 601.936340 -732.594543
