ply
format ascii 1.0
element vertex 1405
property float x
property float y
property float z
end_header
74.377472 -161.079498 998.639404
100.483353 -135.000473 1014.961975
-133.494476 -181.381042 1084.816040
33.044765 -243.914551 909.077759
-65.370163 -152.479904 1085.453491
181.706894 -128.312119 958.386719
74.607536 -125.608536 1041.617188
32.423809 -363.927643 751.128845
-16.693893 -288.433929 885.867371
-62.206997 -202.760696 1012.046509
194.664948 -112.767593 994.516602
-73.740814 -167.973953 1108.894165
44.018929 -376.403015 731.339783
9.878702 -294.349854 852.123352
-175.676910 -411.124084 822.991455
66.348007 -314.828613 821.637146
-170.124329 -198.181412 1040.700928
8.475697 -393.485046 743.437012
19.974234 -178.278397 1016.284119
-163.686600 -330.818939 940.387939
33.430801 -183.880463 984.982727
-230.562927 -295.713165 910.235474
-210.916229 -471.301361 852.394775
39.914196 -365.076080 748.028381
175.052765 -141.109070 959.472778
23.084496 -157.207947 1043.519043
81.053421 -130.392899 1014.357727
-51.778553 -224.461197 985.297119
-82.356621 -327.502502 870.432373
26.531614 -177.207489 1009.237122
61.955982 -320.165985 792.485168
70.311325 -302.050568 829.394470
109.527283 -207.986069 906.165955
29.540873 -224.305801 940.505676
-161.971741 -205.961670 1041.573730
-174.149643 -293.340485 984.816467
75.595688 -265.733032 833.374634
-17.288157 -283.866943 892.964539
-118.792389 -309.725433 912.252319
52.021191 -159.613220 1014.143127
-137.770340 -285.355988 1003.429138
90.276459 -161.715332 976.688049
155.449539 -126.991669 963.261108
-78.827072 -169.478729 1046.751587
-6.638903 -168.924957 1038.992798
-24.307016 -199.381454 997.270996
-165.554764 -455.352142 780.398926
118.334671 -153.403198 978.381653
-186.467880 -329.798798 953.987366
-160.003937 -266.897339 1014.335754
-15.437058 -310.281128 851.332458
-141.549576 -380.421661 871.575134
-135.552185 -337.905731 886.475952
-192.855057 -309.607361 958.613037
-2.642281 -310.906860 861.799500
41.674946 -298.703247 833.672729
-111.175568 -446.481873 765.598083
23.658180 -248.731247 906.443115
-146.389160 -236.142868 1054.366211
-146.717850 -437.062897 775.537964
-83.942192 -379.593994 807.275269
26.008844 -373.739105 744.156799
-155.218674 -420.738586 796.106079
26.040583 -373.500610 768.838989
-106.733681 -375.505188 809.115601
8.342800 -387.620972 747.756287
57.145882 -223.898895 923.403320
-76.804779 -384.082825 827.232971
-194.452377 -205.756470 1009.053528
116.213768 -156.964935 975.788208
37.189171 -334.260681 767.470215
84.583458 -132.689362 1025.743164
-74.084106 -169.441147 1172.218628
-168.222733 -396.818604 877.160645
114.064133 -201.466446 915.600281
31.837835 -173.990601 1016.568542
56.023067 -232.257416 908.732971
15.348159 -167.008072 1002.422485
1.073531 -161.563171 1053.035034
-9.056240 -181.136993 983.129089
40.379940 -207.287704 961.223755
-97.192932 -227.076920 1047.118652
-157.774490 -350.756775 935.575073
65.519318 -435.804871 684.143616
-38.380974 -108.162849 1134.058472
-109.670906 -283.704834 966.094788
-73.138504 -305.548798 916.671509
-142.365021 -299.025299 986.538269
94.823700 -234.694244 895.343567
85.530739 -327.288788 749.388123
73.608315 -110.675652 1056.643433
-63.365490 -241.524277 966.736755
-107.008965 -213.162979 1125.973389
107.073822 -228.566895 885.216980
137.312195 -79.191429 996.677307
-65.450790 -177.986237 1032.259766
79.937698 -105.822136 1030.992798
-86.817558 -163.791641 1137.280518
57.426041 -413.694336 703.751404
73.975616 -219.739594 909.600281
113.453835 -283.960999 832.931458
-23.969563 -113.724068 1125.957642
-12.271415 -258.076935 915.384033
13.719493 -208.263916 967.480225
-0.556368 -418.356567 731.950073
-47.453785 -129.910599 1115.696411
73.821068 -267.081879 874.910339
79.154198 -153.730484 1009.192200
14.657432 -370.414734 755.550598
0.853390 -385.570801 743.948120
-102.090965 -317.624664 898.903564
54.302231 -422.550415 690.746338
-155.160065 -391.157654 828.735657
43.463642 -221.217041 937.775513
-49.562290 -97.677261 1122.670776
71.142075 -315.014282 787.874756
13.208419 -227.427490 954.387512
116.085091 -107.037231 1015.510071
150.936493 -88.086487 1025.080933
-91.523354 -421.406281 758.144531
123.414558 -238.912064 878.532349
-26.445765 -416.434265 719.022827
71.664970 -187.689514 958.469421
-51.859573 -134.900497 1095.008057
85.893814 -354.402893 734.309082
54.672985 -166.885178 988.224487
-7.790245 -249.708237 926.291443
-112.100662 -353.625519 841.618042
-42.600929 -271.778381 919.989807
-13.762919 -327.090790 832.381897
54.995197 -171.279037 981.004944
-103.463959 -433.133331 779.739746
73.178246 -309.768799 766.799622
67.566177 -144.935471 1005.427063
105.821182 -221.354446 891.727295
-49.390255 -185.623993 1005.419128
-92.164360 -182.324539 1052.015503
26.759895 -413.261688 718.025208
37.821758 -106.928543 1072.127197
137.996490 -104.215446 972.045349
-158.373428 -311.888458 974.214172
54.244003 -206.399017 957.132141
49.945766 -182.312332 988.361267
-17.040735 -307.137695 879.126648
-15.731340 -355.964355 797.437134
41.016552 -374.326569 728.721802
168.201340 -182.435638 917.063171
94.195000 -285.883514 823.857178
122.889412 -210.841232 879.659912
-118.141586 -304.533386 952.559509
54.004673 -182.241287 986.309753
-75.618484 -384.836060 806.582825
14.176500 -298.252625 871.108948
102.110687 -245.713257 854.742554
-54.415852 -129.999405 1125.772583
-73.878929 -396.311890 802.898438
6.493195 -286.409027 869.784912
-211.683273 -333.028198 931.784546
26.723581 -169.288605 1012.863892
67.073441 -412.123169 717.958679
24.693399 -287.038330 852.799255
-44.579494 -391.330536 790.150452
-52.997852 -149.193573 1087.905151
75.478432 -271.663147 839.834351
13.659651 -153.011032 1041.241699
69.433983 -107.384003 1061.256958
-65.655830 -175.229675 1076.040527
16.227547 -283.924316 885.640137
191.561966 -91.008194 988.018616
-89.847725 -408.946320 803.935486
-41.272469 -260.652802 948.025146
37.958710 -162.329025 998.562256
-130.025223 -352.036102 870.177917
15.040033 -364.318359 774.052734
-207.103561 -472.633087 815.391968
-142.367218 -284.592957 982.758667
-124.261063 -402.591003 823.685242
2.736373 -393.663452 762.988892
-8.618971 -117.051468 1077.968262
-17.786562 -235.610703 961.316711
37.926712 -363.795074 766.300903
-2.286381 -243.525681 923.825562
123.749496 -142.925003 981.982849
127.980576 -197.037964 892.466919
99.794281 -271.305420 803.946655
123.882301 -175.802200 904.770752
-58.213036 -290.028168 895.217651
-128.296722 -323.615356 922.249878
-103.154907 -377.382080 822.174744
-129.875946 -427.377441 788.537781
48.249401 -276.742340 859.244141
-180.779007 -301.578308 979.247864
-102.478340 -378.001160 841.465698
-106.454643 -338.964417 860.087158
-16.490625 -130.389038 1096.266113
-53.584900 -180.495117 1037.828125
172.531769 -97.761612 977.848022
41.966415 -177.976471 1004.519653
128.871140 -105.635963 1027.538452
-34.303726 -450.272461 719.567932
150.179993 -108.096107 982.881165
0.866368 -227.845764 962.392456
-176.477646 -217.809052 1034.956543
143.019608 -184.016708 930.921204
-119.917572 -418.318665 781.786926
-133.706650 -282.300018 998.581421
-11.316016 -386.258392 772.365295
-131.325363 -345.345001 897.361694
-171.028305 -320.250458 977.329224
-144.321564 -228.639847 1058.979614
117.685623 -167.621780 939.625366
-216.646088 -477.865265 834.472412
-144.431503 -395.166626 838.160095
-66.653091 -306.572723 878.330017
82.493149 -260.953003 849.373657
35.953743 -345.610504 779.658691
-208.140778 -285.130463 955.893494
-206.600082 -449.724518 879.626526
-119.718231 -297.309692 931.587280
109.978302 -216.436096 886.024292
3.363806 -187.118927 993.009583
-136.549164 -231.074677 1111.199341
-122.259102 -230.272064 1107.763794
56.951900 -373.919769 727.453613
56.888523 -279.826538 845.599731
109.207802 -94.059845 1055.239380
-63.097630 -365.445984 813.014587
145.142899 -212.108566 884.343140
-111.284912 -291.224152 941.755310
-47.314457 -254.435791 942.952515
137.359024 -86.729012 1014.007446
-134.500153 -235.338409 1099.601807
-85.118240 -362.503784 829.061523
-51.720020 -315.589508 867.393188
31.620298 -311.897766 845.917786
11.730024 -444.527069 686.030701
24.893280 -436.152924 675.283264
-3.512677 -113.223831 1068.024902
21.262276 -368.487030 750.655884
-14.090886 -203.386993 985.470764
-68.430809 -241.972382 975.635925
-130.010559 -269.947571 1017.702515
107.470535 -187.293945 927.867493
-111.953316 -406.151672 791.968018
26.470081 -293.500122 867.876587
58.013443 -372.210266 757.352417
-91.275093 -345.865936 856.492981
-126.660271 -210.493591 1112.237183
10.825368 -349.975922 784.257141
75.619850 -121.931015 999.852173
-183.991302 -340.979980 939.551208
65.050949 -196.728027 962.651184
-77.093781 -375.674286 808.024963
54.754971 -270.738159 860.013672
30.818640 -417.975464 686.391418
-107.523697 -224.334305 1140.568481
86.876427 -318.297699 807.278870
-26.996511 -389.190094 788.714722
83.732216 -198.777145 928.688293
90.296165 -151.941727 980.462585
68.653893 -134.662323 1029.156494
-71.555450 -214.879013 1004.792358
130.989548 -172.150421 949.066772
-53.932072 -450.299194 726.623596
120.413101 -129.449081 988.914124
35.329723 -402.559845 701.096436
-19.736958 -332.289978 818.934143
-4.827563 -287.235168 900.195923
1.370685 -380.505463 735.252869
73.756958 -267.279846 852.227905
-72.978073 -156.678894 1149.811279
69.375023 -249.463547 897.669006
-167.003479 -333.584473 952.191528
-86.040825 -220.628571 1015.276245
170.480896 -124.968475 967.843567
153.077866 -151.855743 918.186890
112.980080 -239.806046 861.967346
-156.182480 -457.889618 785.910828
46.650051 -227.962524 918.158264
-22.974096 -247.023361 953.277344
-119.464622 -291.151276 956.547729
-59.486732 -352.898224 831.475220
111.141159 -253.110016 842.692749
-114.592094 -252.631210 1028.718872
138.576553 -102.239174 1021.656067
-86.084503 -241.798080 982.107605
-75.859810 -307.077454 899.144104
-170.649490 -324.833038 963.848328
-117.218361 -304.308411 902.955322
-96.169899 -236.530090 1000.694397
-124.240494 -240.668533 1045.343750
28.610739 -202.992722 975.932556
55.094296 -273.778229 868.518555
-15.442667 -410.295502 749.027344
119.167015 -268.968231 819.061829
57.502026 -126.293633 1034.130737
7.455786 -100.770088 1114.482788
-141.767609 -318.410187 964.369446
-54.408283 -202.997604 1011.420410
-70.595688 -231.080338 1009.749390
-10.061883 -299.174072 885.034546
-3.572276 -183.756241 1002.678345
-16.786837 -350.965820 829.149292
40.507065 -197.224380 959.851013
-15.065928 -340.604828 787.521973
106.604317 -174.357788 956.855835
-178.502457 -318.832123 974.711853
-95.939941 -306.122467 926.621460
-0.407149 -422.791565 699.261780
112.846489 -263.226898 828.630615
-129.197891 -311.270325 941.477417
111.166107 -260.626160 836.132813
-209.695175 -388.008026 921.758301
68.634895 -155.826813 984.746582
127.857918 -104.396896 1020.418152
-178.746780 -253.814575 1008.943726
125.070091 -169.561066 926.066589
-52.956535 -366.475769 831.314514
102.969582 -193.974197 943.778198
36.550179 -141.637482 1051.401123
-136.275452 -300.228760 937.309387
158.705750 -166.003494 920.740479
98.428986 -304.486816 817.114380
62.638103 -370.961121 729.158325
2.797348 -385.868011 763.276306
124.198296 -188.255844 936.174988
53.069378 -329.889771 782.522766
6.586910 -437.545380 682.019348
-50.818592 -428.328888 748.041626
-161.952393 -334.202026 948.925049
113.275864 -186.218719 922.579285
-57.283257 -171.713608 1073.782349
46.913891 -247.992706 899.416199
-70.650063 -343.489014 850.584595
-7.098681 -327.850708 808.678528
72.864952 -299.432587 806.238708
-34.959267 -185.238464 1022.830383
-23.397318 -217.653336 981.981995
35.917603 -258.494293 892.949768
11.668777 -297.674927 845.963867
-38.939045 -173.590515 1062.268433
65.001457 -248.647781 877.959473
137.144516 -199.658630 897.646179
-53.164684 -335.631744 851.269775
-37.072338 -289.285828 884.893127
141.523804 -136.408722 949.999634
40.424534 -199.244797 974.538757
-50.264694 -227.992920 951.878784
18.897074 -322.590088 796.802002
110.804794 -293.820740 797.506348
-105.251221 -229.871048 1069.411133
-74.749138 -359.237915 846.819153
-89.224327 -367.307831 825.963745
-153.045914 -317.105927 958.713867
42.762230 -384.273529 713.163757
-31.386465 -118.798386 1091.156250
53.160305 -253.020493 880.556335
111.333740 -163.561646 951.047974
112.284653 -240.944641 858.314148
-104.223679 -416.682373 779.585571
-24.006338 -294.486237 883.355957
-119.901970 -370.470490 865.814941
-43.340778 -337.357605 820.321045
-106.338562 -206.824738 1061.806274
-106.088905 -199.613297 1139.697754
21.466082 -183.733826 994.283081
-61.321217 -153.270462 1102.515015
-175.775696 -441.629913 783.604431
130.978500 -164.169754 945.860229
-126.206131 -424.873199 772.404663
68.282051 -354.514282 767.096191
-83.703667 -170.788818 1086.261841
-12.450814 -288.232483 875.118835
114.527252 -179.791534 952.548035
132.899490 -115.638206 1013.030151
24.611507 -263.879272 901.512878
51.164486 -291.909302 837.991943
63.841499 -146.077042 1029.677612
-1.350018 -157.014130 1033.797974
-80.506699 -139.346710 1093.795288
-157.984634 -217.121338 1063.879028
143.556061 -200.064728 890.314453
45.865162 -213.694061 946.143799
-127.699890 -313.715698 947.770264
103.201782 -142.550964 1000.727478
-177.336609 -392.180298 851.007385
-74.752800 -243.256241 973.729248
50.479706 -227.464859 923.246216
-24.214087 -385.962372 764.030823
-69.801292 -193.511795 1039.407593
112.091637 -264.509033 814.635498
-137.954361 -314.587555 918.571655
-8.266870 -259.897095 913.169495
-205.963196 -233.701050 984.953064
-160.292648 -316.971893 970.034058
-128.683105 -372.289703 861.953491
-45.069977 -143.046051 1088.102539
129.481003 -129.458328 995.276794
7.303126 -294.500641 877.646057
87.146889 -265.294128 843.554321
89.666710 -102.602463 1013.837280
18.905083 -328.474335 833.244995
95.110603 -239.222595 827.560242
-73.494362 -420.846619 770.866333
-71.819817 -273.140442 936.174072
46.006733 -182.601410 988.119690
-83.839188 -163.947311 1118.797607
-20.374636 -352.583740 821.531982
-64.786392 -320.423187 874.462036
69.398842 -230.017853 892.285828
-35.517693 -221.222488 984.921631
0.005287 -225.713318 969.647766
-42.577824 -120.454781 1144.518433
-141.109055 -240.309265 1013.566833
75.343399 -244.991165 836.496155
-53.352406 -178.289597 1054.895142
-46.521763 -365.602783 788.782349
-157.883987 -396.794159 859.641907
1.741526 -301.961456 851.134766
-87.346153 -257.721375 962.714661
-46.652012 -261.905396 958.474182
-91.711182 -254.561996 971.718262
62.866089 -294.238129 829.300232
-144.512497 -435.092163 782.565796
83.898941 -89.373871 1030.250610
32.555695 -257.669983 892.568237
7.639503 -322.143311 820.716370
-176.129242 -235.779938 1024.759521
65.203712 -179.441101 981.704590
147.452316 -112.807961 1007.069458
12.484412 -180.592270 1021.062561
110.613297 -112.010925 1032.104004
47.474991 -406.396210 680.589233
146.068283 -195.764954 904.847656
-104.152336 -187.789795 1143.318481
172.355026 -117.936653 978.569519
88.419350 -114.014496 1000.991394
-2.891783 -147.656097 1058.915527
-160.283356 -266.687195 991.377441
-65.695290 -153.271912 1176.813599
-3.463160 -386.109070 746.273804
-27.752138 -304.086884 894.388062
168.616837 -118.323738 972.278564
37.012207 -424.126556 672.937073
-4.681147 -157.570267 1046.038208
93.673859 -197.461349 935.708679
-162.843384 -251.404755 1025.742432
122.446259 -281.083374 821.067871
-155.523132 -260.644135 1024.167114
186.060791 -100.758919 1003.252319
19.988306 -390.190094 725.235291
25.154871 -116.552437 1074.537598
-12.226547 -239.610352 942.472168
40.040253 -300.346985 834.697388
-3.282568 -301.140778 874.329895
83.328751 -218.624222 912.473755
-28.063017 -364.973297 793.407410
-0.843418 -181.036392 1010.594299
-37.942360 -222.581955 991.482666
-50.395351 -115.120674 1127.135132
13.670731 -213.918762 926.204956
-78.143036 -299.751251 903.530884
-65.127892 -213.852234 1004.081482
15.915620 -397.210144 721.967041
80.561295 -144.901184 1010.734070
137.388519 -148.209534 968.349548
101.363663 -219.667694 851.054688
21.755121 -181.041718 1006.520691
82.614433 -327.088837 779.574097
22.267830 -330.318054 828.893494
-104.845100 -262.979431 970.579956
40.401516 -234.318420 931.564575
18.825098 -175.615112 1011.951050
130.072540 -213.137238 900.352722
54.237785 -334.357910 800.242920
-50.625175 -144.845078 1092.503052
-52.176998 -146.912125 1099.305664
-181.953308 -331.160065 949.861938
-91.405785 -345.284058 853.495300
-8.796177 -263.217957 915.125977
-9.206922 -140.899078 1053.380005
39.704082 -306.661652 824.205933
-112.448059 -463.534637 762.713928
-48.462948 -155.459793 1087.161865
28.412125 -398.657043 735.543518
-11.521385 -368.708191 783.381714
-86.635422 -365.741913 853.601379
144.149948 -213.405197 885.862793
1.617018 -238.160309 956.057861
-78.935982 -239.400909 983.534180
79.638832 -268.788361 856.650574
131.113983 -217.788544 877.540405
-53.452320 -436.076599 741.490845
-5.849162 -203.870392 947.799377
-68.045624 -444.611969 736.633118
-10.232200 -123.314110 1094.203857
32.218170 -205.250061 969.534668
-94.877846 -281.521454 939.313721
-158.987671 -373.344849 847.503052
-46.830784 -453.385468 711.685913
-114.712303 -335.273529 858.187195
0.126885 -363.565521 775.475647
87.942719 -259.825745 857.300720
-72.631271 -271.996338 952.696960
135.873016 -120.831352 996.191467
109.336975 -228.405380 884.062805
-159.391998 -318.420959 980.301880
80.889214 -148.514603 1012.369995
71.718437 -115.641029 1038.524170
89.451035 -211.191849 931.283203
137.311523 -172.493027 923.253235
55.217716 -156.624146 1022.552429
-36.481514 -266.012573 939.097534
48.461571 -295.919464 827.290527
-126.457069 -224.768082 1023.046753
1.587327 -276.358765 890.950867
-1.562414 -284.001648 873.463318
-193.180634 -259.858948 985.339417
-226.280289 -278.655731 940.359741
9.131716 -403.378418 723.464905
62.273098 -325.923431 780.855713
38.349918 -113.204849 1076.567627
31.579870 -377.830292 731.977478
156.850876 -153.386490 947.490906
124.793274 -174.696762 926.388916
45.990498 -306.360962 798.925659
6.741828 -404.258942 714.330322
-178.403122 -242.082809 994.345520
-106.810226 -405.831940 789.523376
-203.485474 -295.391754 956.612732
116.422943 -105.855270 998.322815
51.865257 -282.605927 867.274414
-0.481982 -120.730270 1105.071899
-4.440421 -380.528595 759.187256
-43.903687 -157.491257 1032.871338
115.366974 -207.663589 887.577942
53.839844 -304.935333 812.832703
-73.343758 -320.354187 866.899597
29.492138 -156.706360 1032.302612
-99.202194 -389.373993 804.716675
76.778076 -236.353455 892.500732
76.067482 -357.910522 734.714844
-192.427139 -253.625946 971.314270
-155.416641 -321.173859 981.575989
-139.595703 -218.472610 1104.848267
24.753920 -136.878189 1045.127930
-160.756683 -303.571228 993.493408
114.485077 -140.986786 1000.398987
-81.793129 -402.405212 790.382813
-167.511078 -290.018677 1000.386597
142.703140 -169.413727 916.342896
-174.920364 -238.587799 1034.447266
-79.017372 -380.444550 822.832947
-86.319664 -331.293610 875.545715
-132.152252 -379.500488 833.802490
-93.061783 -202.329453 1081.632690
-202.793030 -259.044159 978.491333
-176.797043 -417.253632 796.675232
-60.756039 -376.350098 819.800293
-116.771149 -245.579330 1052.969238
-51.240875 -320.402344 864.683716
103.328362 -125.272331 1017.158142
15.033597 -162.168945 1022.630554
85.565514 -292.579681 804.990784
-78.838928 -296.852295 919.689758
56.368702 -268.022675 885.184998
103.319199 -170.830719 967.789368
64.674103 -268.344666 857.727661
-151.927200 -351.254089 908.021118
65.398041 -369.158997 725.941833
-60.642590 -202.518524 1021.682495
47.329327 -273.702179 880.932739
-163.699844 -237.768280 1035.107544
57.259708 -417.271576 678.618530
109.844086 -78.280563 1021.997253
85.783089 -177.472916 970.647034
-143.018478 -250.911469 1037.139160
52.889530 -407.751740 688.415649
100.574211 -121.831070 1023.783936
-158.713257 -399.866394 817.935974
-4.720836 -167.548599 1014.395203
47.783421 -414.833679 705.848145
-12.194353 -130.933243 1080.647827
-103.355049 -358.915039 870.523071
150.873154 -183.385422 911.000671
121.350029 -291.810181 814.461121
-35.396679 -182.624466 1013.514587
11.279203 -259.148346 916.740662
10.794996 -106.830208 1114.147949
149.730179 -149.813110 958.667358
12.173367 -200.705078 974.960571
-76.996216 -284.108765 921.273315
94.513062 -224.645416 908.310242
92.193382 -160.156998 985.051208
181.440414 -106.771187 976.985535
-52.919579 -325.556488 874.987427
-41.708363 -149.387833 1085.459229
59.812897 -364.106110 759.207336
-184.958191 -227.615662 1003.170532
-20.512396 -149.620270 1066.142822
65.240181 -130.401230 1023.345398
-23.021185 -359.345825 814.811646
-90.527565 -359.595184 843.048279
140.029404 -185.739731 907.419861
-70.698967 -177.535599 1034.228882
28.692129 -256.419434 912.355103
-60.743206 -236.171600 974.919067
2.956872 -263.415802 916.954102
103.838928 -199.253876 937.474121
-183.244858 -252.048477 1012.046570
63.296669 -316.077057 797.704224
29.404362 -132.534561 1047.052368
161.674271 -104.963234 1010.201477
-6.148802 -174.980011 1024.472290
131.270218 -180.518707 930.981018
35.252319 -235.297623 933.944519
-167.564087 -308.403595 987.711365
27.508009 -139.869629 1011.216187
4.799797 -356.132385 790.816528
176.024292 -129.156769 955.619629
-97.748482 -446.402435 763.230652
-62.944771 -132.046402 1116.953247
-2.890690 -411.875153 717.449463
-41.367672 -218.515320 986.622620
9.403895 -149.345856 1004.610840
106.015038 -277.288452 833.588623
-161.725204 -252.256805 1040.955688
-200.311127 -221.615784 1003.761536
-83.302223 -386.571075 796.739258
-181.855469 -398.795410 820.542542
-124.016647 -346.306305 892.685303
170.706467 -101.456085 979.271484
47.395134 -188.211105 982.862976
-75.994736 -177.310379 1036.633179
-170.896240 -261.413574 1004.960632
116.425705 -251.529449 821.670654
-27.468199 -256.039734 901.354675
143.845932 -191.426361 922.968262
-216.858948 -353.093323 928.595032
94.962723 -259.208984 856.658630
-91.936821 -232.825119 1004.031067
-87.504181 -327.840881 873.251587
58.869228 -306.260345 831.578308
123.348183 -136.783905 991.112793
-211.427765 -371.912018 927.269836
50.612114 -123.261086 1029.733398
42.241264 -328.477448 771.446533
-208.684937 -315.008331 953.878967
-142.907394 -336.071198 936.454041
-99.717476 -313.434570 877.110718
39.075783 -318.015076 811.962280
-68.853813 -137.799713 1102.592285
77.360718 -205.640305 946.866211
-152.893372 -329.708557 930.396851
68.115273 -134.260147 1018.639893
99.602890 -190.827423 941.022217
69.290627 -214.987549 912.278137
12.540585 -370.893829 767.627441
136.265732 -170.493317 923.487793
-221.271484 -297.670410 942.327332
-187.487259 -434.864197 832.181702
-117.726570 -256.547150 989.425781
-93.167984 -187.408752 1078.573242
-37.394264 -292.138031 878.738892
-93.582817 -349.242584 852.962280
-142.909058 -265.868835 1002.815796
114.602852 -250.719116 845.022034
119.367073 -180.863052 920.197571
-27.962362 -427.546844 701.105103
123.610069 -123.711121 1014.810791
160.738052 -115.692101 969.852173
-171.627533 -310.881805 970.906494
-23.795906 -446.489838 705.068359
110.899605 -287.686066 808.448547
86.739380 -140.112061 1012.703308
113.837357 -108.671440 1021.770020
-87.236641 -169.765030 1140.595215
-4.114035 -236.208359 939.261719
29.159887 -406.298859 700.176331
158.326019 -132.278839 972.428833
-117.682396 -436.231140 756.224792
-74.001228 -311.991547 913.158997
-30.632769 -420.813721 715.125305
54.094044 -249.550415 889.042725
-126.068718 -343.004089 866.690674
-68.234512 -356.943420 831.008423
-27.789885 -204.576248 1015.202698
-12.086558 -422.180328 685.256165
-128.540680 -234.031693 1013.573120
178.774063 -143.478973 957.963440
22.876635 -195.956573 988.283264
117.930969 -190.536240 938.423706
-186.746063 -305.830383 981.535950
-18.402716 -370.895844 762.064514
-53.877483 -130.428528 1109.172485
-63.318668 -189.776749 1010.060425
32.009335 -314.705780 820.044189
56.297623 -410.450439 689.564087
60.692722 -279.512299 867.375000
-165.477753 -196.033600 1043.507568
-54.944515 -237.581116 984.650208
-104.265884 -441.125916 760.934326
-94.840446 -294.696045 947.976990
-189.558655 -248.468124 1008.187256
-172.363892 -406.958282 813.067505
101.474800 -283.916992 812.600037
-145.414993 -296.151245 1001.983765
159.856720 -184.076172 920.103333
-44.939499 -369.514008 822.966248
108.013336 -208.759598 910.504944
50.820511 -301.073700 802.632690
90.901382 -354.134521 757.949951
-137.921906 -254.143311 1029.935425
-129.969955 -395.690277 827.170166
-24.716698 -300.556244 869.285767
26.096474 -294.266663 868.809753
-57.600254 -264.117828 932.097656
-15.908435 -179.749390 989.820984
79.611977 -119.783508 1033.287598
108.115417 -259.833435 853.796570
-66.687592 -147.653351 1117.202881
-30.096760 -353.355865 826.194092
-155.526779 -243.309143 1021.697510
-224.072662 -342.846802 913.489014
143.870224 -94.115440 1028.374512
-93.640961 -278.993530 942.793884
-222.850143 -348.192413 916.498718
-109.919472 -204.036789 1101.250122
-25.491383 -117.786613 1109.619873
66.145035 -366.256042 762.087646
88.375053 -341.948059 757.704773
-213.302841 -260.871796 972.451111
-104.297592 -411.746765 779.747986
88.445808 -313.772308 800.700073
91.989967 -176.800751 966.064026
-40.808212 -278.653534 909.894897
-160.026443 -361.713409 914.888428
-188.980316 -366.579712 913.163269
-165.848892 -277.496674 1009.150330
22.334881 -364.185516 743.680481
-66.709862 -181.854538 1028.622314
106.055542 -128.845734 1000.011902
30.182629 -158.410812 1013.587891
-53.495579 -351.387085 823.947327
-98.293854 -394.741669 795.272217
62.945400 -237.278000 895.363647
-200.863052 -438.727753 812.199463
-59.666313 -183.684860 1060.320801
-1.031136 -309.802460 843.677368
-11.999360 -301.644257 866.844543
-44.375954 -391.945282 769.955688
131.230515 -238.306473 854.315125
67.890869 -141.985855 1024.622437
-111.914192 -320.167664 926.166016
102.955124 -283.512482 828.520447
-10.118106 -346.124939 802.202393
-54.412205 -365.563141 815.622925
-16.739058 -206.267303 956.074829
104.829926 -178.176682 931.657288
9.196364 -341.049805 823.513245
-223.669708 -232.661591 948.551819
-67.997955 -258.149353 967.180969
-186.451431 -296.113129 960.185181
136.797150 -197.841827 892.614075
-93.304756 -325.243774 879.365540
-14.281434 -287.249451 906.380554
94.295670 -310.978638 781.565857
30.819578 -209.066162 966.257629
78.159393 -245.632843 832.985535
74.406799 -220.701141 930.230835
-87.005653 -252.992371 974.537903
-42.365082 -263.577362 924.616089
-157.150192 -346.042023 906.739319
164.883545 -165.485336 920.950500
87.996780 -181.298706 965.233398
145.000763 -117.172775 978.656616
44.852402 -407.354980 699.273438
-75.076752 -254.801315 954.359497
-128.204865 -351.304993 897.345276
-2.783486 -313.145264 840.313477
-14.263807 -250.180450 944.036865
-141.702011 -273.123047 993.538025
148.617157 -149.554810 938.864685
-106.157547 -373.625946 854.660828
-108.941940 -340.278809 894.720154
-4.265820 -249.879852 938.710571
-82.956612 -305.009857 911.920532
-214.411453 -290.836548 941.882751
-0.708123 -398.638947 759.606873
-6.612006 -305.106506 839.408142
-95.430962 -186.754715 1145.791382
-203.431839 -478.282135 811.947632
-170.987091 -255.723877 1023.170715
-225.814102 -273.674744 939.288452
-21.094467 -381.109863 785.302795
-5.217085 -140.216476 1079.661865
12.286685 -424.293823 682.707703
-73.519920 -402.604919 791.908691
45.903362 -397.962646 699.521790
-145.012482 -320.426025 920.006104
-125.068230 -338.121643 882.577087
-61.874691 -142.506775 1119.603638
-7.546124 -431.932709 709.079651
-65.005058 -305.708191 910.166504
103.454056 -150.829727 988.171082
-162.523972 -223.114792 1048.962524
-76.646065 -436.230072 764.428284
-186.075165 -391.562958 899.387573
-15.082530 -157.869110 1047.593750
-11.690727 -191.221359 1015.987671
12.338305 -330.413849 807.608459
132.896530 -86.872841 1017.360962
159.946930 -124.008217 979.742493
-34.014690 -259.380035 929.784058
-53.541180 -403.391815 735.202576
-196.045593 -258.399811 992.902832
130.659088 -89.305252 1050.762451
94.548691 -142.241043 1010.841553
16.160316 -209.616882 973.799072
120.027351 -203.699265 902.956360
17.004700 -231.747253 925.266052
-213.807007 -251.497238 945.976440
30.611174 -271.334259 868.350098
-30.461990 -321.031281 846.562012
-166.553223 -325.858215 968.151978
-153.001556 -403.974762 833.745056
-32.566650 -343.879639 826.017944
45.193451 -421.052490 699.650635
11.287393 -361.959625 769.539490
153.016479 -118.388130 990.752930
102.468605 -142.897781 998.324585
-98.844620 -429.507019 762.850891
-143.180023 -352.895538 859.114197
30.083401 -441.529572 691.195190
190.230545 -116.179657 981.723633
34.102543 -131.406052 1056.438843
-37.442879 -135.991684 1127.688599
50.118591 -259.665436 895.882751
46.019768 -302.624329 820.873352
17.400309 -339.986115 791.969177
5.016945 -203.105133 992.740784
49.739769 -406.399963 710.445618
-104.069206 -242.782654 1006.111877
30.762438 -283.604095 855.738831
-120.759453 -276.582275 983.546814
-31.530315 -427.757111 744.090576
20.717649 -212.651886 954.200928
-206.965408 -229.316864 986.613342
-11.757972 -206.876297 988.048279
105.494629 -234.891098 889.306580
50.253414 -146.637070 1029.647095
32.750080 -317.544403 819.419312
-28.114826 -153.928909 1062.641602
-104.559006 -361.126587 871.896545
-172.707565 -229.892365 1028.070190
26.686701 -334.504608 781.289001
-203.229752 -348.561249 925.512634
-39.855740 -164.421097 1055.430420
-27.575867 -139.140808 1083.537476
46.280983 -298.928864 831.546387
-145.940475 -256.023254 1031.179077
-543.573303 -564.261902 969.258118
123.416046 -162.135696 913.286072
117.572746 -194.086609 920.311035
26.813494 -391.808044 744.062866
-29.287979 -357.805725 827.306763
23.107000 -216.430450 961.887573
109.034111 -329.924896 773.139404
140.783554 -163.194763 950.678406
83.508812 -317.126434 777.860779
-92.626358 -195.088470 1168.718872
98.115685 -226.582352 885.646667
64.142593 -267.392242 876.185059
141.401337 -163.910507 946.365173
24.926310 -268.744965 895.612854
174.962494 -132.132874 964.343628
176.010071 -103.603333 981.865173
-119.255424 -378.489014 830.746338
-31.247906 -235.429214 970.997681
-136.947678 -349.696777 876.223145
23.055071 -267.008484 902.907776
-67.136139 -159.163681 1049.526978
71.431320 -326.664032 776.822571
-186.295914 -267.813690 998.461365
-69.808357 -351.763275 806.434937
140.205933 -219.427963 871.445068
41.181259 -118.725273 1064.447021
42.091675 -346.419708 737.247070
-164.363037 -293.954041 976.318237
-171.135651 -260.961365 1008.979553
131.440903 -165.300430 921.116272
70.036926 -106.466667 1064.929199
-231.111755 -313.765381 904.698120
42.439198 -137.421204 1003.825684
9.116532 -254.543671 906.508667
-65.534866 -415.980164 726.008301
96.996971 -126.976852 992.687012
155.604919 -117.518219 949.335571
-31.500435 -124.650787 1094.947632
-200.015167 -329.550354 930.069336
-98.052895 -245.357697 983.193970
81.113823 -253.401733 887.356567
1.772411 -408.724335 693.265503
89.210274 -246.407852 890.844238
125.445099 -269.090637 824.708069
29.180193 -268.980865 892.606384
-17.399355 -281.423218 912.410339
163.573242 -107.678825 999.019226
90.560089 -251.034393 836.123108
66.217545 -323.246246 772.838318
-178.716141 -222.212906 1038.682373
159.681442 -120.329758 952.734070
59.481224 -207.067368 953.178711
-141.521545 -444.701111 790.062805
145.398514 -160.354477 939.788086
123.683266 -222.173599 898.923767
130.906494 -211.481400 880.707275
-132.868378 -224.933197 1064.903198
-77.446053 -350.882294 857.696655
122.363480 -231.305893 847.557312
46.762856 -341.701599 778.086548
41.677292 -141.693878 1038.537598
77.166977 -211.713043 935.769836
-35.020710 -430.252075 712.229736
156.735794 -124.746025 952.078003
-22.249495 -347.795898 813.441956
9.133649 -321.806396 827.575623
97.002693 -278.527985 829.353638
37.119362 -160.399017 1022.880615
-175.505966 -191.654907 1030.518066
-14.129108 -128.959061 1099.714111
85.407913 -298.732758 807.198181
-126.436310 -437.438232 764.024048
-120.620110 -265.294800 1016.276489
60.072781 -151.132385 1012.216370
-1.100944 -130.999496 1077.138184
-35.121086 -428.258545 708.561523
60.773872 -147.123566 995.814697
-4.746291 -316.382172 822.558228
137.687454 -195.683365 910.102905
-27.915117 -292.813843 887.782654
-99.937393 -265.977203 988.928467
-166.508789 -348.933044 930.744629
67.970383 -423.872986 681.728333
33.376247 -217.536667 957.332520
-73.545540 -396.041412 783.843262
-132.632614 -338.353760 917.058167
-12.901302 -347.479431 807.396545
67.288399 -130.342377 1033.157593
12.738262 -334.897949 801.161682
156.594772 -160.249496 947.319214
-23.794151 -187.181198 1030.606201
-193.704300 -225.875229 1007.208252
141.365479 -111.915955 980.777161
-41.176090 -348.359558 825.673401
-70.865547 -398.156769 756.001465
-110.048172 -327.871124 878.074707
23.098845 -410.210663 729.037598
55.921204 -315.492767 806.169861
104.447098 -225.527054 906.280579
26.349831 -348.128723 802.088623
43.432858 -169.798752 981.215454
-192.861923 -271.024780 988.248535
42.646729 -317.667389 827.330627
-53.425629 -261.810089 936.868652
90.765793 -355.046967 752.337280
-42.000050 -374.898560 778.919189
-38.459282 -425.931763 741.905273
-141.498718 -363.621613 862.005005
-60.261032 -370.731812 803.412720
115.831184 -155.770065 943.550964
-14.428509 -210.756546 996.280273
-63.176220 -430.989655 749.207031
39.958496 -352.205414 748.572021
-20.610111 -427.206909 734.579102
-121.929588 -228.032028 1114.732666
69.307343 -267.190735 877.511536
-185.468109 -306.795166 967.535889
112.225533 -213.425827 910.203369
-60.408333 -322.068085 873.525146
103.962105 -258.204010 817.624268
9.395554 -276.955536 901.243286
91.276855 -325.916748 787.311890
-219.016632 -284.692444 948.984985
-86.215843 -226.577148 999.458801
-49.761879 -419.519318 754.286438
-37.928432 -387.131287 769.332031
176.545410 -98.951637 986.498230
-29.371737 -226.039520 987.852478
-50.887558 -246.915253 955.794800
-103.096596 -339.351257 867.518494
-19.025129 -354.467102 798.930603
-7.720684 -147.466309 1062.047119
55.562622 -146.938278 982.857910
50.879032 -230.049103 912.673706
-101.619392 -241.411789 985.721069
194.929474 -81.933105 1017.054626
-63.041611 -302.135712 913.523987
95.055008 -187.970184 937.047729
-68.195061 -326.762451 882.801086
-21.803804 -199.190811 1002.761047
96.613495 -318.531342 763.343872
55.550137 -292.018890 834.402405
-1.424007 -169.147308 1021.623840
113.123573 -206.875366 896.732300
-132.136444 -226.548141 1064.294922
183.927109 -109.661835 979.307739
-31.243801 -370.934814 805.085266
-180.480911 -206.865387 1036.427246
53.135269 -157.136917 1016.809204
9.121136 -184.749420 1014.368530
-19.101147 -167.849991 1042.760010
67.869385 -182.588043 977.770142
89.684937 -301.242645 817.403687
119.089783 -278.672241 827.025513
91.947754 -328.403351 763.279724
57.446304 -252.753555 883.076538
70.044815 -231.504395 900.784180
-122.026443 -430.384674 788.537903
11.205706 -207.486542 958.188110
-38.569695 -301.637482 877.494995
174.402100 -119.949280 962.349670
-5.920882 -228.265076 965.452637
-13.094872 -185.489075 1009.079468
3.858821 -346.479767 802.826965
-58.412575 -284.329132 924.056519
-55.055496 -272.204681 948.936279
24.469725 -262.138184 895.305603
-66.036530 -182.429459 1047.963623
-135.614120 -337.156250 915.305115
5.547950 -172.011734 1010.027344
-136.532028 -436.442535 786.411011
69.863060 -196.586746 953.463074
47.814274 -295.886322 834.834290
20.451424 -240.002319 918.313232
-195.395828 -396.382935 876.126465
-93.413597 -222.389496 1045.248535
-101.739388 -316.342560 917.736145
-27.698492 -157.399887 1057.018677
-162.612961 -267.001495 1017.283325
-47.626202 -146.813141 1085.459106
-51.277225 -308.329926 895.220276
-126.003838 -356.080017 863.063660
-1.127676 -246.211929 926.912537
-27.935781 -179.658371 1019.865540
79.442924 -97.692574 1015.885681
-180.733337 -222.822418 1015.487732
-219.300552 -290.427979 944.054016
58.176167 -218.975906 896.205566
157.169434 -102.534477 1002.085571
-115.153725 -232.673843 1067.328491
-106.702507 -209.465836 1041.748291
146.104797 -153.463318 964.073181
64.288681 -378.382996 722.173828
-35.390114 -286.823059 900.585999
-22.645355 -178.925217 1028.846313
11.262548 -361.221191 755.149231
-6.373168 -398.023865 731.516602
157.796005 -129.472580 954.517700
25.488768 -312.067200 825.256165
-23.149517 -113.614075 1115.806885
-34.281475 -335.236328 838.865601
-180.161194 -338.288452 946.170959
123.939873 -103.882614 1023.160583
60.933578 -235.614227 904.211548
26.198963 -382.861023 755.963562
-50.117653 -225.502258 982.477417
-157.135483 -356.739075 930.094238
27.446642 -182.834885 994.471008
-61.652794 -166.274002 1043.068115
-173.233643 -430.789063 839.950989
-162.842590 -262.953644 1003.016418
-115.845306 -216.986771 1085.106079
-69.051537 -441.789734 742.908875
-124.207588 -436.389984 791.291016
-91.440468 -262.653656 977.929382
-139.413727 -372.485626 847.851074
11.352830 -199.464706 991.075989
32.712166 -327.995728 802.184570
122.372047 -143.954437 968.682983
151.902924 -117.953255 1001.270691
-179.783844 -390.137299 843.331421
99.964798 -100.061562 1015.725037
-171.704758 -267.751190 981.197815
25.226780 -310.717743 823.400146
18.516111 -114.603645 1063.503052
11.735940 -254.754059 929.564453
-59.717098 -134.766739 1114.107910
-81.735031 -273.170319 944.265930
-142.134918 -320.445374 955.840576
123.576584 -137.042969 989.271179
-57.065853 -292.329987 908.440918
-227.376099 -244.449234 938.037231
-87.965080 -279.376678 943.209961
81.083412 -290.833649 814.089905
-150.159561 -395.980347 847.866089
38.018669 -303.587677 819.610229
-212.760849 -273.212280 950.802124
-94.119171 -434.181580 745.165955
-38.156307 -217.420776 990.847900
-92.672935 -386.547455 792.890381
48.236019 -419.680664 676.359070
-116.658318 -374.093109 859.923340
-96.878105 -375.963898 838.108154
-204.251785 -464.369263 792.626465
112.966454 -277.605316 815.572144
-99.570343 -354.345764 855.544556
92.291679 -138.733246 1012.127686
192.922073 -87.419403 991.415894
78.172646 -159.633240 979.601624
-2.603825 -412.392517 740.372253
-155.639847 -427.922363 797.750854
64.641586 -333.838409 753.358765
-180.173203 -409.832703 886.069580
46.670879 -156.176392 1028.816040
-10.512476 -124.663467 1078.671265
-152.389053 -373.846588 872.564148
158.155289 -161.886948 937.761719
-119.790680 -374.134979 807.263000
-169.326889 -266.405212 994.268250
10.518623 -297.011780 856.875854
62.545139 -129.509415 1043.625366
57.848576 -203.821426 936.895142
-117.813812 -377.270599 836.410828
-98.017982 -374.496826 807.298157
-160.448212 -201.907333 1062.546387
-17.440962 -143.977585 1046.324951
-56.287445 -197.934052 1034.904541
-152.254074 -332.979340 942.612732
-121.134743 -438.523376 784.133057
-93.035797 -368.257904 826.733643
1.482480 -323.077179 825.502625
-127.241615 -359.707977 859.653137
-184.296356 -314.932404 954.146362
-183.732101 -391.991791 876.205139
98.993393 -261.714966 845.719666
-46.234158 -322.353577 864.203857
31.356941 -213.810532 952.397034
118.696709 -121.191467 991.068604
-10.044140 -342.342987 835.709778
-67.810211 -239.295990 997.655579
-58.994789 -250.324844 963.101990
65.617897 -96.370346 1032.208618
39.530006 -241.863403 918.753296
-10.092002 -159.105255 1048.939575
81.889717 -129.163010 1032.014893
-154.343567 -410.514648 788.932190
189.245163 -123.877518 974.995667
-69.511337 -208.170700 1025.249878
12.217210 -126.542236 1076.258179
21.258663 -276.243256 874.799927
151.771973 -187.502487 905.889282
-196.980637 -339.841644 939.982422
-89.389397 -296.972656 920.662109
-231.396393 -289.799957 918.922485
-6.667532 -337.884521 838.892700
-11.039625 -246.596664 933.923157
5.177230 -404.802002 712.243286
-145.649277 -420.257935 773.532043
-218.532104 -343.336578 917.139709
-101.417961 -264.238220 984.885925
-210.952042 -462.247101 862.516296
-51.757088 -397.194519 749.766907
179.785370 -121.791824 962.499756
-154.415131 -285.873535 968.033997
-15.824505 -424.207001 735.872192
83.723846 -278.724426 836.577332
-92.961250 -397.765930 791.040771
-35.051605 -172.442963 1041.187378
-151.640045 -369.769562 880.258789
-197.109406 -264.881531 997.896790
-36.508125 -229.237793 982.655518
166.145660 -89.021805 1012.489197
12.226234 -208.848114 936.809021
-8.900231 -235.701370 954.919006
-57.260357 -205.137573 1022.971985
111.310944 -133.490433 1001.681458
59.773075 -403.819489 700.685608
101.033241 -153.067123 992.017517
101.923004 -264.323242 832.295349
-130.331390 -285.726837 985.095825
89.000641 -337.219086 755.931396
82.864243 -232.349976 910.244690
148.826172 -154.592361 943.325806
-150.696091 -222.630463 1075.730469
-1.470335 -383.652588 753.708008
66.113884 -220.708267 926.208130
24.799313 -420.029724 702.708374
6.221598 -312.266418 837.940979
-37.000698 -149.120041 1071.528320
177.607742 -145.302856 950.558777
159.246735 -121.459343 983.220886
-78.216080 -249.850433 964.222656
-57.090477 -427.214264 750.414063
-49.944893 -207.572571 1025.650146
17.513237 -136.139389 1051.509399
-59.348763 -444.248810 727.124084
-195.523956 -422.463379 832.782288
-6.341511 -218.698807 965.984436
-70.052200 -278.176300 902.076111
-7.620614 -302.681946 879.017944
-1.633694 -425.461914 725.460754
-136.061859 -400.215027 838.875488
111.618736 -99.860054 1042.671265
-71.517830 -376.072998 805.371216
3.139000 -335.186615 781.631287
37.560318 -213.367523 952.208008
-52.573181 -290.365631 923.910278
118.348129 -173.717331 932.204041
-97.179001 -210.656662 1056.959595
73.098930 -282.642883 838.679565
-136.659622 -417.764099 785.163330
145.202011 -191.603943 897.345764
127.765541 -122.911476 1001.069824
85.230499 -266.491150 838.383606
11.534604 -214.619171 978.474548
-123.237129 -308.076050 920.591064
-154.247025 -372.595306 868.614807
-108.771065 -373.726135 848.971069
-30.917234 -290.709351 905.520081
31.335602 -158.488098 1029.897949
118.392067 -205.670715 893.105103
-133.314636 -244.571442 1087.668457
74.424080 -256.457977 820.619080
-145.409683 -345.811890 899.207520
-64.604851 -302.515686 891.506836
-29.988325 -329.447876 859.331482
100.817566 -111.326309 1022.342712
-81.512642 -324.223572 866.558105
0.320121 -163.013794 1025.109131
-101.806694 -209.807541 1028.901611
-167.539322 -225.513367 1028.436768
60.181011 -342.145660 785.815308
50.534512 -422.817627 680.224304
85.900681 -263.333252 854.349976
-58.977001 -326.005737 858.845276
61.475220 -340.720612 762.854919
10.963500 -282.668274 873.812256
-6.477785 -133.437119 1061.464233
105.740250 -89.842834 1062.148438
28.368679 -199.751297 985.856628
7.026299 -245.826294 936.731262
16.330549 -268.434082 901.706848
-12.572814 -180.601654 1020.569336
-89.596825 -348.126862 869.832092
-75.838654 -145.501877 1118.150635
-55.227505 -274.646423 921.919800
-186.593109 -212.413773 1015.021057
18.797207 -119.869217 1047.431152
48.276558 -340.246338 751.339600
-14.405211 -217.113220 991.319885
-42.456345 -175.897629 1041.266968
-154.730011 -237.988541 1042.479492
26.597052 -292.389160 850.116211
-84.806610 -295.153046 914.004333
-80.008873 -282.737183 933.997437
-110.998642 -324.183716 892.667053
-148.969177 -215.250427 1056.600586
23.864664 -342.513763 789.564331
10.426572 -154.320053 1004.742188
-143.599747 -221.284882 1057.940674
35.109509 -187.431122 979.195190
-120.093063 -435.623047 768.541504
-10.851129 -438.791687 689.621826
28.007219 -216.371902 959.215576
70.181351 -339.395660 758.229980
75.569092 -114.001389 1007.614197
-49.437401 -405.400482 783.679749
162.281479 -186.292740 913.374817
-80.443451 -426.745728 740.091003
-222.832306 -275.048645 955.435608
45.197269 -146.810989 982.312195
-4.395939 -317.003815 863.883301
-94.130516 -351.212616 874.413391
-179.105103 -247.871429 989.988037
-177.571075 -313.796173 983.787415
-21.821268 -428.335114 735.049561
-60.641090 -335.731903 847.644287
82.819489 -217.129074 906.739197
-25.707169 -153.826645 1074.591187
-12.588943 -264.240356 913.423584
129.219513 -198.053528 895.619263
-98.064102 -350.796143 855.991272
9.357828 -291.827026 877.488037
140.897781 -74.566895 1002.098755
-40.174461 -131.691147 1143.305298
-82.373322 -286.422058 930.777527
-138.825333 -226.645508 1103.734131
-48.588837 -211.696060 1019.787292
28.156109 -296.201080 805.013733
-1.732378 -278.201904 904.384888
-108.385468 -276.414307 970.014282
93.272575 -186.077911 931.108765
79.814598 -271.190277 836.900635
183.199509 -94.836861 977.019897
135.101379 -107.747375 1008.832886
-5.722007 -325.573669 825.338867
-110.479767 -335.741913 854.474365
-165.925308 -335.699738 949.366272
99.555740 -142.582687 975.985901
82.613174 -250.682755 859.851196
143.135635 -202.007538 894.034973
-132.716843 -232.167572 1045.581177
-23.543600 -393.173248 762.819092
-192.634949 -311.101044 961.925842
-164.394287 -306.117828 980.151306
-42.717323 -411.621368 767.109375
-156.671814 -337.152283 923.303040
108.036087 -215.122223 891.804443
-26.931883 -445.968292 706.774353
-199.903503 -243.420914 991.777832
84.379997 -146.629486 981.332458
-14.841043 -434.811859 694.861694
-108.109734 -312.656372 884.487183
-143.396133 -431.703339 785.883301
-42.785553 -134.959488 1112.696411
97.779823 -245.759125 868.377075
-41.684284 -390.326294 796.153076
-47.483002 -193.824295 1023.260010
19.517836 -224.674713 932.278687
50.223923 -268.499573 884.194275
136.512634 -153.395416 940.852417
-3.119356 -399.164642 728.348938
-215.808807 -296.731293 927.758850
149.446335 -123.168678 974.126831
-20.425484 -308.839783 850.503845
34.338509 -199.124069 931.551819
44.062035 -247.045212 886.045288
-166.643784 -199.604111 1039.080078
-81.470528 -288.530548 934.146606
13.929397 -377.672546 749.523315
-137.508453 -319.833099 937.973694
-45.636456 -301.424866 880.560486
-43.412334 -280.960419 904.292786
-82.140892 -389.916718 761.896729
162.490356 -151.241394 914.429871
-21.939840 -307.504059 881.977783
58.135723 -285.168854 840.896729
144.958908 -108.855072 1003.520142
15.656788 -200.524307 941.684509
54.253376 -295.357300 831.065918
-64.024704 -280.395905 933.620789
-225.282501 -273.411163 930.101135
72.096336 -141.516312 1016.929016
-126.041000 -254.186920 1026.702148
-176.487183 -274.056885 996.572754
-60.564564 -420.494659 722.433960
-2.833516 -192.774338 1000.223267
61.062115 -133.924530 1035.098755
-159.216309 -256.079376 1024.996582
-218.319275 -288.192078 943.334595
186.076691 -98.158005 990.996338
-50.680817 -248.793243 976.252380
-85.037338 -331.681335 887.340332
-165.752258 -237.555740 1021.696594
-205.991623 -450.387817 847.680115
-199.249146 -291.275024 947.813171
71.042137 -280.936920 860.134216
115.348640 -262.864716 855.155579
-120.559097 -240.711441 1025.505859
-31.498598 -144.608444 1061.828857
-6.922105 -262.674622 880.973511
18.556358 -294.920380 826.317200
-40.136227 -274.479156 913.661926
38.982895 -285.061462 811.027893
-106.528564 -395.379608 801.946838
-11.075587 -264.661041 912.464905
129.361404 -181.499969 937.441895
10.618157 -364.766510 784.198364
-160.423370 -238.464722 1051.844971
-44.800682 -314.235168 868.470520
129.832550 -83.608299 1024.871338
-212.988434 -231.706573 954.659973
16.455925 -366.314362 765.195190
28.429802 -359.272491 778.868347
-178.290543 -303.463715 991.014282
-6.637116 -361.343781 781.322144
-128.693085 -345.175995 881.663757
35.137600 -403.246887 725.399475
98.987511 -224.104187 905.177307
101.299759 -179.610489 960.938904
115.314728 -112.233566 1015.958008
-179.765167 -243.528473 999.806274
-147.150879 -262.109985 991.164063
61.111485 -166.935928 999.707214
41.783768 -266.738342 892.291138
-72.905258 -166.954239 1071.714844
-120.244148 -228.981308 1076.280273
-43.729813 -295.362427 894.694641
-206.733017 -326.259857 948.938599
-36.313980 -357.197296 825.201050
-10.894206 -384.499146 758.493652
-23.605997 -447.052338 719.653137
31.654430 -117.452713 1072.453491
-90.320663 -317.059143 882.390503
-159.498016 -300.877106 979.267578
-167.798691 -297.931519 987.382446
-18.658531 -416.257202 720.826477
164.168961 -167.973419 924.124084
62.622070 -177.041626 969.507874
116.493309 -229.199921 847.338135
-43.457279 -205.197266 1017.821899
-164.657074 -222.626572 1032.240112
18.470919 -241.123734 934.028503
105.382347 -146.296432 995.333191
