ply
format ascii 1.0
element vertex 1415
property float x
property float y
property float z
end_header
238.509460 892.655029 -407.301788
185.013931 831.642395 -560.024536
152.234543 811.333252 -558.456177
249.099930 838.448425 -587.893616
-105.528961 662.735962 -567.615417
-11.637423 748.922546 -468.223297
79.258095 775.697205 -540.216370
173.474686 843.812378 -431.800415
-168.227844 658.022339 -457.983765
119.377808 814.811340 -503.186005
194.122574 861.943420 -455.975922
-173.696106 673.255615 -397.105682
77.531433 769.176636 -612.929443
-52.307186 723.839783 -493.765869
110.578323 792.382813 -505.389343
30.763756 782.071594 -405.436768
-79.846901 668.013855 -564.634338
102.202477 775.149658 -577.184387
-133.366592 681.023132 -478.742340
238.398026 841.083374 -614.503540
206.528046 836.508057 -634.231995
29.612555 752.336609 -410.052124
144.605347 799.646057 -656.160645
103.342155 774.968323 -701.447327
221.290924 843.943665 -532.682129
-153.133728 632.818054 -648.311523
-56.099888 669.042297 -575.544861
143.819626 824.858765 -434.671021
46.753899 751.212219 -716.357788
292.589447 900.061218 -510.074707
137.015076 815.668030 -396.313263
71.631729 757.794739 -598.515808
8.613614 695.117249 -745.602539
-119.662750 676.224304 -527.895752
86.892586 767.632446 -610.261047
119.764137 703.521790 -737.109009
-49.979126 689.165894 -588.131042
-1.070311 689.907166 -749.079590
223.448929 861.288147 -578.817383
2.556394 747.288818 -427.436768
189.900162 862.270081 -435.267456
48.402584 777.979248 -498.850769
5.731349 710.822937 -607.837219
159.910309 810.489624 -631.235413
199.881546 873.808350 -412.379486
204.383667 864.341431 -394.842896
-26.830074 714.114136 -753.823242
176.880478 825.619751 -744.789551
-21.010910 723.055969 -493.118958
252.356812 860.885986 -628.621887
-171.970596 659.397400 -427.793091
203.767166 853.248169 -741.403015
-57.520309 697.057800 -535.556702
-37.837646 699.516846 -633.839050
85.118462 763.802429 -681.426636
-36.224014 714.266296 -566.205627
247.651489 874.057739 -553.119324
34.035595 709.223145 -736.591736
169.555191 841.151489 -493.474731
-56.079693 724.635620 -408.379761
176.344971 849.333191 -468.962677
137.114426 814.841431 -546.372559
149.588943 783.662109 -727.784607
182.855865 818.673950 -609.794861
260.056213 849.798401 -523.100037
24.303202 733.449158 -644.832153
69.946999 780.346191 -463.575775
269.902008 904.339539 -467.796936
181.132889 855.446655 -458.203003
171.607925 851.875916 -417.593719
220.162003 842.860168 -659.558899
220.144852 880.943542 -440.747070
-20.044600 702.430603 -605.391296
44.113697 773.709229 -501.991241
-82.036667 694.388916 -545.129272
-86.028267 701.364807 -440.299042
241.449585 890.527649 -411.194733
91.426613 820.310181 -410.746002
-117.511765 683.608643 -536.225891
-75.390694 692.000610 -571.957520
36.494595 768.549805 -420.473450
206.415253 830.314819 -689.269653
-174.834274 650.811462 -486.618408
-1.596602 761.725098 -448.684418
132.762421 727.492310 -744.243286
-156.598495 671.661011 -410.343781
-35.808449 701.971313 -564.417358
50.512817 742.336487 -587.915588
185.264603 835.483154 -747.632324
255.584717 859.398743 -580.646851
26.970207 741.198059 -501.396637
256.660156 862.216309 -561.029053
116.052582 822.178162 -401.914948
63.023197 795.496155 -435.624084
108.472649 779.898804 -588.985474
56.105408 737.973877 -676.844238
222.844955 878.341614 -465.990265
149.076019 840.047791 -446.814331
144.381851 821.727417 -431.411774
34.865700 724.567566 -617.394287
207.150894 852.147156 -533.413818
169.729752 846.537231 -487.961273
-31.257860 715.820068 -571.689087
-84.152771 671.406372 -610.447876
272.403778 884.447571 -501.255096
-64.146240 679.043213 -599.163147
151.087128 804.002563 -597.102295
256.016418 897.263672 -725.387878
144.732956 817.944092 -496.740631
259.096130 876.358093 -510.351898
248.254333 858.478760 -611.144226
57.599438 755.664246 -673.023865
55.953587 768.316528 -507.799438
-35.484222 703.373535 -622.619080
55.191780 697.552490 -739.004578
-97.720322 716.397949 -402.321442
-122.342506 650.671204 -565.110596
111.141281 801.636169 -407.318817
199.281982 865.099854 -434.429291
-7.555663 719.959534 -551.966125
147.728394 843.955505 -421.038239
154.249664 849.725037 -403.323456
214.396606 854.337219 -445.554199
-115.370094 667.855469 -591.219482
70.520462 735.176453 -625.884216
79.396301 781.933350 -554.846741
175.670914 808.016785 -620.420166
122.740028 793.989258 -703.424438
-80.226585 682.263245 -482.815399
115.383743 767.192688 -732.787598
-145.700790 641.875366 -663.419006
49.942909 760.431458 -578.020874
-131.349152 660.368042 -479.318939
-31.857063 725.370972 -524.189209
52.045486 739.044128 -726.474182
115.049202 803.529602 -555.858398
9.764656 767.191956 -429.796661
143.013153 832.007019 -401.897766
11.281281 773.770081 -416.187531
-87.907852 707.060608 -461.800934
127.207779 747.701538 -739.417236
-13.998830 709.618347 -554.294556
-52.419254 700.654480 -599.105774
-64.352051 670.136108 -616.058289
-91.154846 689.880615 -498.629608
-86.267097 696.474731 -447.557770
54.842827 730.641846 -669.903870
101.459557 765.612305 -649.076416
262.114929 869.946106 -594.457092
76.557343 771.679260 -554.565430
258.939148 880.541992 -432.215027
172.520889 796.740723 -654.760620
-63.467205 711.899414 -507.765137
134.768860 842.495239 -409.256653
25.155643 725.427307 -673.953857
156.682861 842.649475 -420.433868
10.852458 701.620178 -626.400757
118.672577 816.529846 -490.128662
-138.550598 639.687439 -652.123230
55.217716 724.560059 -722.076477
79.651855 799.387695 -408.301819
50.933678 747.092712 -629.756897
-98.013832 694.771606 -429.725067
135.760406 755.577454 -720.404358
239.934341 868.583496 -533.146545
285.542236 871.592590 -464.400208
-153.487518 655.332336 -457.460327
10.237075 755.969055 -442.493591
67.914833 746.041199 -658.018982
11.650437 701.135803 -659.898865
-102.604561 660.159302 -698.676758
116.013596 824.597595 -438.132233
220.415329 866.113770 -534.425171
-72.374115 686.143311 -545.139099
-102.578186 669.719177 -527.068115
120.477325 790.643188 -581.355347
210.490692 863.858765 -728.098816
171.358383 837.001099 -721.860962
-132.646332 662.316467 -539.419739
245.302048 883.665527 -485.792084
-59.379917 722.643738 -468.077484
114.594437 826.080322 -437.411072
212.777313 876.512085 -415.132172
75.728653 782.345764 -421.102997
127.945518 803.173889 -526.947754
152.096924 837.049072 -397.310181
28.604284 735.560059 -711.258972
112.999893 779.340393 -501.640839
154.044052 784.169250 -733.287231
22.853132 715.170410 -726.571960
-106.002365 657.064026 -683.362549
254.501343 881.504456 -535.755798
3.298313 746.516113 -437.611450
102.578079 764.147278 -653.422974
-50.953678 726.455078 -412.433014
266.667755 885.323120 -505.584259
258.542480 869.534912 -603.873962
-145.832840 631.043640 -690.107117
-61.908226 717.060669 -736.260742
32.445549 723.978149 -723.762024
-6.786593 747.564758 -501.774506
-86.036163 669.198486 -470.843079
127.691261 830.889709 -417.362305
180.277588 754.600647 -741.751099
-90.999702 696.379700 -432.828369
281.487854 870.971558 -613.151794
50.996815 761.679016 -603.724548
247.874496 849.286926 -680.351318
26.152996 682.608398 -728.387268
237.083969 874.904602 -408.921844
44.101742 685.443542 -729.013245
-8.251692 739.003784 -424.456238
47.299011 758.110229 -611.669678
133.381714 786.755859 -705.016785
142.902344 794.263916 -628.153564
-134.420364 665.938965 -569.761475
48.009594 781.725037 -423.595703
-153.854919 642.416016 -650.392090
282.277435 901.982544 -490.969086
90.382225 817.520142 -392.915192
221.869965 878.704712 -439.169739
206.915863 844.820862 -429.887909
-22.336586 716.209106 -629.750671
241.633499 886.594788 -392.917664
51.706032 781.724670 -423.991943
-148.236053 689.326660 -412.631714
135.223755 786.631958 -628.709412
49.614437 744.885864 -652.802307
-37.214069 666.813049 -666.369446
-97.378845 667.007996 -570.773804
209.877701 853.180725 -580.655701
162.198059 806.433044 -617.096741
-116.656227 624.276550 -656.764526
-166.695557 612.368713 -1061.285400
84.857033 659.273926 -734.453857
125.075401 805.783081 -555.118835
86.669167 694.997009 -729.764648
-78.301689 699.604370 -521.497131
14.128214 755.486450 -507.317566
-93.801071 675.431519 -545.178345
-159.374817 652.746338 -429.109528
-110.752739 665.407166 -539.545959
101.005928 795.461853 -510.817841
168.733673 807.809204 -728.207031
3.261541 727.669556 -454.515686
108.019638 812.517700 -479.553772
193.147507 854.868835 -498.491638
225.319992 873.469910 -433.459259
-51.578415 708.319153 -580.964661
19.821213 693.686279 -747.175964
-147.179581 674.152710 -431.868988
-18.678846 710.848938 -730.633850
186.291122 831.477051 -565.382263
210.879669 851.494080 -502.912781
-131.033829 672.648193 -499.289154
-146.760956 661.905823 -503.765808
-128.031723 672.178833 -552.191467
126.653152 773.285522 -585.055969
29.846460 773.596375 -454.617615
17.151293 747.107666 -493.057831
-96.649719 678.407410 -589.416992
172.502075 847.209717 -458.057892
103.301201 785.050659 -572.779358
-92.292618 678.556580 -709.496094
-62.860390 684.816040 -689.233582
193.626266 837.691528 -617.999817
128.484268 746.869080 -735.274536
226.915192 843.473145 -637.588013
-20.065628 701.602478 -608.028564
46.440613 734.106689 -716.302979
258.170044 889.414429 -495.448212
-23.550674 697.076294 -581.121094
-31.090719 718.550842 -486.720581
155.385162 825.114441 -516.059753
172.039352 819.951538 -622.587524
-78.906540 707.595459 -509.534607
63.661247 792.342285 -470.690674
-129.089844 663.878662 -514.041809
246.904724 856.982788 -531.718445
116.536095 803.976685 -491.560242
-79.876228 695.509583 -577.384155
-68.351891 730.767822 -418.849609
259.723480 855.214111 -645.108459
250.160873 893.689514 -423.641327
-58.045223 692.924744 -561.212769
57.957790 742.776367 -683.139587
167.231384 821.083252 -562.263245
44.903160 777.025757 -504.215759
159.285385 844.644104 -455.154968
88.350609 784.400391 -471.874908
174.038086 852.159607 -469.899078
-107.062660 687.932556 -432.977448
13.406626 721.017517 -605.984192
18.502272 712.591980 -667.773621
66.579605 750.975281 -705.078247
173.208420 841.279602 -508.187195
236.514725 873.969116 -458.744476
114.429726 834.205872 -393.932800
76.315071 796.364868 -411.948273
-14.339260 720.087646 -544.414795
65.564484 759.453125 -705.976563
86.418633 800.723145 -422.283264
69.453804 770.004089 -614.365967
-105.255066 683.300049 -540.980225
127.930862 812.829346 -551.340820
113.792366 785.054565 -629.071472
13.453906 764.004089 -400.117035
71.321953 776.430298 -561.832275
-67.514015 680.708679 -697.596802
-160.178894 642.018677 -460.270569
-41.147423 720.142517 -452.674713
-5.598076 701.625916 -612.277039
-1.196056 705.239319 -662.857727
9.326632 745.849121 -547.894409
-68.649307 689.752319 -534.338928
-6.866146 715.439270 -717.357544
261.649078 855.003235 -639.977722
-19.045393 735.739624 -409.345306
149.843094 838.204773 -433.730194
123.579079 766.946472 -728.145630
128.464432 804.987854 -506.138916
75.842552 711.813721 -741.071289
268.737854 883.600708 -525.535645
13.022850 713.033569 -726.324951
183.784103 858.416809 -443.463470
-15.771525 719.081116 -633.342102
16.739357 672.998901 -744.069031
202.993073 842.764648 -559.033447
98.716026 791.971558 -498.193573
93.990982 803.743469 -493.209229
-70.688446 690.572021 -624.616150
163.401581 835.519531 -430.405243
-13.331441 718.011902 -645.316772
93.412666 798.788452 -468.843323
184.345917 812.133057 -641.328064
-76.394028 680.060608 -565.175720
139.675430 790.896606 -634.893860
-109.956528 632.041016 -629.494019
91.266319 784.098206 -494.604919
64.503899 789.203918 -410.893890
47.039463 770.646179 -523.187073
70.742790 756.029541 -674.447266
173.533905 806.759460 -630.188477
-62.245178 683.059753 -540.822388
270.067932 873.903625 -598.095154
-15.126595 724.454834 -607.284912
52.932339 761.153076 -542.828247
220.944244 859.457153 -486.895172
-34.428349 715.830627 -596.389771
185.278442 838.026062 -462.298828
234.987473 869.804016 -537.763184
58.570259 763.002319 -532.549438
-17.207191 716.789429 -628.321594
19.966444 750.049438 -558.351868
-94.245758 699.435242 -420.013977
161.138199 808.016174 -659.382019
-69.086632 679.012085 -583.839172
120.797188 813.454773 -509.991058
231.500504 844.418274 -619.852600
179.825348 836.961670 -527.696960
154.966461 805.358826 -619.076416
28.280291 716.470398 -734.215759
-103.310951 694.715332 -487.965912
-162.775772 653.405518 -432.637329
-151.751846 624.095215 -687.816040
119.062958 799.374939 -597.529846
252.319412 871.771606 -584.042175
60.241035 780.145264 -497.428467
116.876076 800.137268 -560.061218
-28.245075 733.065247 -439.766998
-134.594391 675.771790 -430.646698
7.507843 724.298401 -574.566284
132.863495 808.970215 -550.552979
260.677460 877.724060 -581.003662
-84.829536 688.654602 -566.930420
74.607773 731.162781 -732.254639
23.952637 726.910522 -602.556335
10.092279 709.364929 -743.551758
141.145615 824.789001 -420.998291
128.070221 778.840027 -664.134277
-52.367867 667.002625 -642.868103
273.638397 878.298950 -553.959351
-124.887344 645.445618 -686.719055
-34.869751 697.589783 -549.384460
-9.133875 734.967407 -488.927185
-75.841164 707.428711 -413.225800
220.325241 846.964539 -641.663818
-106.398895 642.440491 -658.258362
89.386688 753.794617 -697.416199
168.391357 805.903381 -644.003540
7.742059 776.329163 -396.442780
-4.086917 761.644714 -420.346924
-69.660194 672.329163 -650.946960
-131.283646 644.620789 -485.704865
229.254501 841.952820 -616.523560
131.330093 770.533630 -734.164673
85.112396 781.913147 -566.667847
69.329941 769.560974 -542.025146
-112.800926 641.544189 -593.963135
-154.550598 633.854248 -564.365784
7.350014 732.951843 -525.297546
114.192696 812.350586 -500.298859
153.771866 841.417053 -395.137573
-67.379326 730.214294 -411.407074
-101.058517 673.086853 -573.185852
46.565945 744.350830 -652.357605
184.454880 839.648438 -463.211456
-75.398239 713.229797 -394.091156
53.680405 720.842407 -732.912476
38.067345 737.674866 -661.021484
103.546135 728.757690 -732.873962
282.558929 894.668945 -565.141602
222.985245 874.420654 -735.299927
235.981873 860.670044 -569.389343
217.134338 845.739624 -510.471771
46.818367 774.066467 -412.599396
36.477318 788.863647 -412.801208
-50.786377 699.163818 -599.411560
86.857079 703.684509 -746.743286
-101.004929 702.024597 -446.802979
218.536621 868.362732 -404.469666
141.388992 768.873596 -722.911743
173.788589 839.118652 -516.676392
-107.377045 668.236633 -529.531067
25.617159 667.855347 -744.484192
22.872744 744.570129 -459.163788
172.273285 821.718262 -604.451538
-87.350075 705.793884 -472.064636
43.494373 749.190552 -699.761169
-55.473461 727.117493 -451.203888
0.764957 724.407166 -721.397034
91.367668 653.984558 -737.425659
174.052719 826.225220 -614.736633
267.532440 876.422668 -637.511169
246.204453 889.752686 -394.845978
207.184174 867.015076 -394.185211
103.755653 810.934509 -402.749878
244.236908 877.873840 -519.370728
82.689835 807.491150 -427.962341
117.397774 797.041748 -509.230957
-12.121994 698.978210 -727.521484
-96.269653 702.144165 -406.454407
119.140007 801.846558 -578.399475
280.658966 893.059937 -473.210114
-50.382320 682.077332 -622.050964
110.434319 811.740295 -405.310211
187.802216 838.819702 -565.463745
9.715197 733.236572 -536.152588
-18.317686 687.804199 -634.507507
129.543060 810.072205 -509.849030
225.217697 872.584534 -455.899994
175.598434 814.883423 -610.719543
-71.176941 697.467957 -555.004395
52.966599 782.429138 -408.633057
164.770477 767.489685 -743.444824
-125.544868 699.386475 -420.542877
-8.820403 697.550964 -660.811462
85.871223 674.907654 -744.428101
80.026390 764.626709 -490.418610
-122.036278 691.871765 -470.447998
-135.209686 632.688599 -554.916077
15.266993 754.797546 -454.914795
79.925735 760.080505 -717.268066
272.526550 884.256714 -571.510559
-0.642872 725.506531 -611.853943
153.736877 795.601624 -534.281555
200.075882 829.376160 -604.854980
211.438019 822.317383 -649.704468
108.714653 807.335449 -472.323975
36.263786 751.993225 -610.164307
88.457474 802.257446 -482.617767
92.309685 781.218689 -530.514221
232.493774 865.297119 -451.011871
163.539047 820.081604 -593.610962
120.991600 669.907227 -731.190125
-165.517105 634.993591 -686.662170
180.144623 848.865601 -487.173859
225.863449 873.033264 -503.782654
-64.797447 713.042725 -502.654877
130.508072 742.117310 -736.212463
-2.523383 713.525085 -652.305786
249.482422 844.327942 -661.765747
-79.344299 671.281067 -654.762756
69.071114 800.876404 -411.936829
-92.298775 709.449585 -400.859528
16.222254 771.053467 -451.458252
182.066238 831.036072 -585.443054
49.656078 756.759155 -598.188843
171.151291 851.602478 -446.687195
286.958069 896.662842 -530.189941
77.100838 720.290955 -732.632568
66.864273 720.726318 -726.068420
-139.347137 669.768127 -483.256897
-93.515221 692.206238 -439.116150
246.399185 888.417236 -465.729156
-69.537903 707.097900 -735.190002
50.911251 773.540161 -507.721344
-7.298799 713.998901 -649.882629
182.035172 831.947632 -523.649902
45.201546 779.080505 -475.452148
182.967331 851.931946 -476.445801
231.529846 878.235718 -433.631470
20.903446 762.040588 -408.414581
147.542358 824.907166 -453.127136
-60.099670 705.695068 -544.573914
151.053223 808.730408 -563.464539
-58.259514 696.578613 -539.131653
-13.580475 729.772339 -490.696869
221.975433 874.175354 -405.731476
-50.060005 674.189636 -650.954346
-27.784372 714.763916 -550.744080
-87.196877 683.522400 -727.849121
278.751068 853.193970 -624.230042
118.584770 771.811646 -675.790588
155.366074 808.133118 -735.281860
48.616852 736.356689 -620.289734
-96.053810 707.060242 -443.545929
152.742386 729.901001 -750.728699
136.334549 824.989746 -470.791382
55.203850 776.410583 -517.816956
107.713173 770.360840 -631.392883
270.817749 858.308960 -506.186523
-48.226723 724.128540 -394.755402
152.392395 804.356201 -608.279663
-183.106796 674.525391 -457.097443
-51.837219 719.015564 -422.071594
92.532288 798.397156 -441.920990
-0.354258 719.582642 -549.916992
4.878582 732.364014 -526.292114
288.394135 882.204346 -623.534973
114.850014 787.440308 -689.782654
-57.822495 705.133606 -554.811768
-110.918793 649.803040 -632.852173
-139.095459 673.688843 -413.841064
-24.881868 711.790771 -448.351532
177.448853 851.317993 -396.087585
171.272537 828.770386 -574.857605
163.632050 805.898926 -609.702820
177.063980 844.715027 -492.940521
21.585228 707.364746 -743.421509
-14.078287 691.115967 -665.728210
213.526428 848.281860 -609.149475
-114.270836 665.554138 -411.362061
-156.746582 674.872742 -436.535797
56.613411 785.666016 -399.565155
155.210953 822.425232 -508.139557
192.321838 833.014404 -533.763245
-21.534986 700.472534 -669.083008
58.186378 773.213867 -563.640869
225.008301 863.268066 -536.973267
258.241180 879.306946 -478.439972
99.281700 733.900085 -726.111206
29.826611 777.914001 -454.804443
262.859558 879.023010 -501.112579
-130.425873 642.195374 -596.406738
187.837738 832.304260 -616.880005
-90.713341 697.334045 -409.232513
-8.764168 755.670593 -460.060028
-127.296738 625.377197 -622.277649
119.671867 819.189026 -426.916565
163.571640 827.059509 -496.991302
224.104996 877.567871 -467.513000
25.122534 740.699585 -634.205444
241.648819 878.886902 -390.761108
-122.805847 618.497192 -653.238647
207.612701 852.997925 -547.723328
209.157745 856.626099 -471.680603
-36.947182 710.685059 -545.102905
215.426666 861.213501 -423.561035
-23.502890 687.090698 -630.578979
82.140877 791.293823 -517.581604
13.237964 761.042175 -479.068268
148.108032 815.369934 -545.680481
145.882050 816.233459 -534.862854
257.433258 875.528870 -574.978577
127.061531 828.439941 -396.857574
155.499222 823.376587 -742.711121
-161.739197 635.515930 -625.609497
-119.802002 663.454590 -545.865356
55.500023 770.868774 -489.733704
94.099648 762.082153 -509.398773
-142.457367 670.753296 -435.677124
71.248665 708.674561 -729.572449
249.911804 874.860596 -424.169952
214.986298 869.123535 -459.046265
-16.042336 738.265991 -740.651917
-71.470924 702.949341 -492.407898
250.047043 872.731323 -427.959778
222.910614 883.518494 -417.376068
0.459794 717.300049 -694.070557
253.803177 894.203552 -436.529144
199.023254 847.024902 -584.913696
-59.886093 705.540405 -499.645081
41.348892 759.914795 -478.378113
-77.606445 680.330444 -504.898041
11.462114 752.007813 -460.175476
101.880630 803.839294 -423.309723
6.173588 685.663330 -747.394958
67.156853 750.084656 -631.726746
58.720779 753.631958 -422.889160
270.727112 895.025818 -389.214264
116.223885 705.686035 -745.278992
249.665939 874.430237 -577.789917
60.950932 756.187195 -707.125305
-17.264675 753.019592 -420.889282
81.126663 779.004517 -546.960999
247.569672 884.292175 -503.882782
72.842682 707.129028 -742.127747
-43.946041 693.930420 -583.737366
15.454826 722.896423 -627.777710
263.223999 908.818787 -409.828278
191.432419 814.997742 -653.262451
184.607193 863.247620 -401.218353
91.416183 776.316833 -553.731567
69.477127 755.950684 -464.253021
60.920475 667.166626 -732.120300
121.613266 788.544556 -593.977661
41.711857 753.518738 -719.612915
134.308502 827.196899 -473.396729
261.460205 833.358643 -657.318787
3.674070 726.946655 -548.417114
255.782043 901.732178 -410.775604
-68.942757 687.619507 -490.688904
68.961128 765.320618 -589.155273
-16.701134 725.089172 -529.207031
114.661812 797.397522 -436.975830
140.959976 801.906799 -428.756775
116.873825 811.042847 -426.527893
0.256746 717.553406 -652.109375
224.496643 882.203369 -388.549194
77.048195 762.913696 -558.222290
178.111877 838.932739 -530.988342
122.837181 821.721375 -430.815887
33.818649 731.237488 -666.176819
187.687897 834.701599 -553.296021
-78.835785 676.258972 -574.273560
-0.767466 718.669250 -579.800049
58.443554 731.895020 -739.996216
-38.462872 699.639648 -670.179932
-108.087769 661.055481 -508.476746
0.539386 765.798828 -432.974792
239.500992 844.605713 -690.651184
84.710762 809.611450 -441.779480
241.470337 854.917664 -611.295776
227.839127 863.375061 -528.239624
152.255707 723.792297 -737.506287
220.349197 823.541077 -563.933289
30.214643 777.327271 -431.627319
214.938660 861.197021 -548.819092
5.686403 760.358276 -458.918823
250.948074 901.555786 -395.109924
110.793297 822.028992 -387.711884
-22.795210 718.471619 -518.271790
276.541870 899.642578 -702.317749
202.890808 840.000122 -545.339050
202.960907 849.581238 -534.305481
-105.049110 673.503601 -445.515594
264.437408 905.860779 -420.229095
-65.284828 722.296570 -396.965729
-140.892792 652.976318 -585.915222
-103.808983 680.455994 -530.226624
-61.271664 724.586182 -396.930389
18.424660 763.362366 -483.458374
-62.755127 680.521851 -595.184998
-137.515060 662.130005 -716.988098
15.252891 725.316040 -707.373291
194.749344 870.653442 -398.747192
110.188293 816.088684 -478.650757
134.212021 794.574890 -641.660339
53.521034 686.379700 -737.668579
-33.623703 740.964722 -446.113281
59.364265 740.038696 -737.771362
180.845291 848.291504 -455.487793
195.315842 850.875244 -441.021454
55.005207 758.287842 -690.368774
89.280716 772.664673 -566.268738
-62.818695 711.033020 -519.258362
-137.070618 675.521912 -398.164154
-46.668018 710.814392 -710.910950
21.140553 735.252686 -559.673462
-78.124596 646.471863 -623.993347
192.584747 824.628357 -734.483215
122.851929 804.433105 -493.179688
143.800293 798.443787 -661.721375
59.882893 762.477783 -558.699097
158.262787 812.343384 -682.819641
121.435455 810.291443 -517.134216
-133.800400 642.332214 -616.154846
-100.842995 677.229980 -438.900513
141.638718 799.412720 -710.981384
26.288006 698.874084 -734.106567
-4.578655 745.693237 -517.791016
154.432907 804.176636 -488.529633
97.830482 780.934998 -603.479980
27.371244 748.636841 -495.400909
-162.062714 676.019226 -414.582214
-25.950233 721.211426 -523.849365
185.873398 858.026001 -453.576721
150.616562 807.465027 -619.026794
155.776947 749.148193 -735.828430
130.173599 788.473694 -606.485596
104.554337 776.311584 -652.046265
210.075516 877.680237 -405.986084
157.449982 833.881104 -436.999207
213.597748 850.314453 -703.348022
81.631050 760.272705 -593.213440
-82.762840 670.171326 -586.510010
-93.534569 655.424438 -648.236145
149.787964 849.678650 -412.048157
113.083626 822.812378 -453.396576
218.411957 847.172852 -451.833130
-45.571312 718.496460 -447.619080
226.536331 867.442993 -381.124084
234.702469 890.472839 -408.762756
-74.207634 690.824158 -513.334961
67.646973 788.613831 -403.427032
23.174284 764.698303 -400.758972
-113.939003 656.293030 -627.369507
161.520035 812.902527 -569.069092
215.090454 878.041077 -410.431122
133.490646 804.872925 -521.310059
-143.998001 637.721619 -513.442383
-114.700157 653.872009 -621.921143
-1.741320 757.970093 -395.218842
143.445999 725.656616 -736.964905
106.427490 813.383911 -468.903046
265.780884 876.693726 -471.804688
-2.725007 702.655640 -653.563110
259.050385 904.392517 -409.709015
45.942940 739.867432 -721.702148
102.973816 741.521545 -734.753662
215.809479 840.817566 -605.700256
155.281525 798.522888 -636.763123
-43.971554 717.458191 -448.198273
218.111465 846.003662 -635.684692
-35.166298 707.675049 -567.219666
116.057907 808.593445 -416.184784
-98.180885 654.220947 -619.350830
249.555710 894.651733 -422.244141
-12.658373 702.145386 -546.408936
179.900620 844.948425 -467.257751
261.246216 878.208252 -537.240479
87.106064 792.245789 -426.807007
142.952515 736.387390 -731.050354
100.215019 807.938782 -407.719299
28.371181 772.048279 -429.325745
205.869812 826.652039 -689.887634
-48.082355 720.183105 -460.900116
284.303650 895.941772 -421.328247
11.479855 748.209045 -457.513641
287.522980 892.147827 -579.000549
153.351593 806.875671 -472.974274
158.730240 803.102600 -647.215576
269.184296 901.249390 -386.942444
-6.155010 727.640625 -546.384399
193.812332 851.467163 -491.621857
235.288101 850.418152 -655.680542
33.911983 763.170593 -470.802124
192.156174 833.361206 -571.276428
261.585693 885.995300 -430.809357
46.046261 740.942566 -707.873535
151.827942 815.916138 -722.154602
169.095184 827.217224 -494.952576
257.168121 876.382202 -525.216492
-45.319176 718.022034 -437.968964
99.359406 787.973206 -529.862549
250.003143 872.582275 -463.882660
176.427002 819.212402 -641.706787
-31.949551 680.492615 -664.359680
148.686996 796.219604 -632.682678
217.511841 859.694519 -540.259399
238.390808 860.547241 -573.132446
137.282639 782.781860 -622.817566
-124.986855 682.323669 -399.630219
96.061699 815.145081 -390.024139
192.849915 837.659180 -554.150208
-127.024811 675.181274 -536.685303
-66.485413 716.160400 -736.314575
235.792023 870.081787 -528.705688
-113.961525 667.006348 -523.063110
-163.450089 655.465515 -433.736969
267.943634 863.173401 -643.469971
-100.427895 696.391479 -406.041718
215.677200 865.664246 -486.449615
99.042709 782.528015 -545.188049
201.711060 861.121643 -427.903687
42.508533 756.654053 -533.534668
219.947174 830.465698 -678.006653
-132.040909 679.591736 -497.638367
170.345856 832.800842 -482.882751
46.752136 721.883362 -731.720947
-48.293407 679.076111 -640.464294
67.927284 769.378296 -559.347168
-15.265029 720.217529 -556.497986
174.014130 842.129089 -458.364899
255.127243 857.852600 -547.437866
87.374939 788.203674 -497.614502
184.860321 864.679932 -423.247620
5.878153 762.816345 -396.057587
118.748528 781.432678 -615.651428
-107.388824 704.823486 -423.251343
-59.771652 677.391113 -700.575806
-125.871948 689.168823 -467.221283
191.764938 834.851624 -582.487793
-47.894188 726.618958 -497.004333
166.812592 812.207642 -728.951355
37.349800 745.442139 -579.911194
16.599171 731.894836 -575.262878
212.585388 873.876709 -397.659058
178.298203 841.743042 -439.989227
33.529503 755.827393 -555.622253
166.765198 822.854248 -577.036316
184.939453 813.678162 -595.058228
-81.028809 673.153931 -642.708374
-167.976669 664.907898 -486.402832
113.776878 816.184937 -439.112030
212.512695 857.827759 -434.530701
242.743225 886.918518 -454.857178
-41.567608 695.444519 -539.828918
132.052063 840.323120 -412.738739
213.781769 864.834839 -466.289978
-147.281906 658.328430 -575.568481
143.146439 753.890381 -732.110779
115.294441 788.900024 -587.680664
77.235779 751.543091 -644.761963
-73.265312 710.291504 -511.492157
-147.332184 663.630920 -515.701111
149.600449 842.820557 -431.079376
147.987717 816.255005 -498.478424
253.938248 868.485962 -591.624084
63.895779 734.458679 -728.693420
62.186913 739.973083 -667.165649
46.192230 784.648621 -458.443420
79.758835 788.074219 -457.241394
124.278748 798.741882 -562.316284
254.660889 876.984802 -488.425873
122.674889 737.827454 -733.501465
-122.684280 650.170471 -639.880920
148.810913 824.585632 -534.857544
-37.432308 713.174866 -498.064270
34.150230 702.570007 -730.006165
268.322296 874.037781 -600.836731
156.963852 828.265869 -425.741211
-100.389893 674.854187 -425.985443
95.703346 712.174744 -732.041565
178.874954 861.502747 -385.643890
195.833038 826.271362 -621.289368
178.883667 845.420166 -400.906342
89.208244 767.012329 -582.419495
220.661209 822.200195 -628.945984
146.069016 801.491028 -592.870544
79.423096 768.795044 -708.125671
145.414322 808.744934 -612.675476
-74.064049 711.242798 -482.074310
12.209461 725.739807 -732.216553
-138.338089 682.252930 -435.487915
270.327637 858.348694 -527.025391
13.834795 706.044128 -644.989502
93.701996 791.936768 -512.176208
199.426010 853.763123 -520.534058
170.073807 818.308533 -563.246094
90.122635 796.203003 -514.519104
204.314178 870.045715 -438.433105
64.958206 748.114929 -637.471313
-58.268600 675.026917 -628.758850
-117.408424 631.746765 -679.621277
197.148819 839.859497 -584.771240
149.958237 828.063477 -442.412323
297.357452 906.957336 -708.314758
33.270321 724.607666 -664.064636
-65.949890 709.631775 -439.804626
115.659248 798.036133 -541.365784
170.685333 825.850952 -424.696930
217.937164 847.987854 -683.699951
156.799835 829.638794 -490.861176
65.817833 765.379333 -556.988342
3.650347 754.298767 -404.039093
11.882333 743.154175 -401.513885
-170.812576 648.856262 -713.746094
168.295242 844.963745 -481.647003
236.631317 828.205261 -634.553223
34.305710 745.373413 -502.889801
128.827286 833.695251 -387.277924
196.308273 852.419800 -419.012360
107.280029 818.242310 -429.571320
-93.276497 688.712891 -472.631775
-97.123398 658.371277 -613.937500
248.775330 881.725769 -463.417267
161.903000 803.217102 -670.438965
81.290817 754.546936 -554.676208
54.002846 797.200500 -409.801117
111.484055 732.820862 -724.743591
-142.913788 657.336853 -569.732971
71.666077 698.137939 -750.993225
-102.473740 653.079041 -607.910217
201.022736 842.242920 -599.036987
107.164009 823.234192 -417.395111
123.339432 794.361633 -545.197327
-154.238953 664.588745 -430.675598
44.252453 766.287720 -528.411682
47.833199 741.960327 -479.528290
-126.587555 673.515686 -509.898193
268.415009 882.211731 -618.595642
56.316353 778.364563 -417.780457
31.279692 732.671326 -639.970459
-23.528824 703.113525 -747.205078
-93.244736 695.384644 -513.839966
34.805462 746.520203 -619.223328
181.901077 858.635742 -420.078156
-29.791309 719.269958 -509.367645
30.606012 736.588196 -647.992126
125.232178 793.755981 -591.338501
-121.584389 677.259888 -450.007690
-87.661659 666.655762 -549.315125
226.710037 870.840759 -530.792969
-69.784966 677.465271 -593.211670
-158.615967 655.059265 -442.692078
267.820801 864.907043 -593.436890
20.437262 767.739990 -476.773102
-80.712975 667.658691 -603.731262
-2.345736 740.763367 -558.330017
-159.515732 688.931030 -405.745575
139.962448 783.371460 -720.379700
148.158188 733.060242 -728.666138
194.462357 865.103210 -430.027283
183.341019 848.181641 -502.996765
193.531647 836.918335 -694.002930
89.835342 780.896973 -587.676697
101.545303 781.743713 -537.928772
119.160446 837.104492 -388.746613
-4.096231 732.931763 -523.877869
-120.383247 636.853943 -642.477112
168.022476 739.709900 -737.324707
88.995003 776.622986 -623.004517
281.153046 871.406189 -648.013672
149.334473 822.687317 -538.834045
186.944595 828.803101 -454.279999
134.284760 749.018616 -746.167542
12.308715 716.896973 -618.933105
229.379822 876.884277 -445.133179
-147.932602 641.101135 -588.774902
77.443436 783.143188 -543.904419
117.082329 831.830627 -400.733673
-121.100906 646.623901 -606.693787
54.733028 736.967224 -738.210022
181.924408 842.085266 -414.834198
-18.667656 738.924805 -514.432495
61.812416 761.289612 -569.787903
-18.054859 706.512512 -544.977966
-66.017349 715.424194 -413.996704
119.211700 784.950134 -698.598816
-84.764503 695.005859 -483.448090
-165.118774 638.098816 -683.536194
-106.693871 675.491638 -483.747131
224.461227 861.131714 -554.479126
264.175171 858.905579 -604.657776
-34.250866 685.660339 -658.775818
216.212936 853.589417 -554.262268
-96.172234 637.253113 -669.419006
175.427780 841.508057 -430.664886
-93.876930 671.608398 -498.406982
96.353142 784.310486 -540.950623
250.177063 863.460754 -620.955994
-40.208965 688.126587 -453.992462
-17.511354 739.158813 -420.918976
64.690422 798.087708 -413.387268
206.445313 825.440125 -536.503235
57.782398 778.194458 -427.346466
141.623993 791.703308 -655.752380
214.591629 865.977478 -480.999359
62.744652 742.170654 -726.544373
73.001976 775.088684 -489.075989
90.671364 772.093079 -682.332214
23.545746 765.049194 -464.140198
20.256983 757.093140 -461.908936
211.854156 818.413330 -592.455750
-133.369598 625.817749 -660.457214
102.288483 794.472717 -550.642212
154.059906 829.914673 -409.335663
129.919434 808.054382 -717.011108
70.597099 798.352478 -455.025848
265.627655 880.396606 -540.109070
-32.485703 744.315979 -431.074921
-134.628235 667.528992 -520.545837
90.619942 776.828186 -558.467102
59.437565 758.656189 -574.687622
-89.900024 698.356079 -450.721191
-130.134369 678.880005 -489.287720
168.818024 777.985962 -737.857117
233.033844 837.805359 -671.381409
226.406601 868.193115 -460.359863
138.161453 835.637390 -398.421661
-138.528290 639.770325 -589.472534
69.268921 684.880005 -745.406555
70.419212 771.842041 -517.652893
83.635216 734.135071 -732.470764
-119.284668 682.571411 -514.958618
-114.708725 669.854980 -608.262329
169.319046 779.965881 -722.281128
216.638855 880.654968 -426.451599
264.167328 881.977173 -548.296265
258.954468 864.122437 -618.582397
188.020126 826.452087 -469.230103
-46.875107 679.648499 -595.299194
73.315193 791.418518 -421.798981
123.896942 795.153442 -606.966858
-18.653006 725.957886 -589.834045
-8.603859 698.486633 -682.295166
-103.472702 675.186157 -612.354980
42.601135 771.869446 -412.665039
201.488632 860.054138 -447.490356
54.781612 767.447937 -524.503906
84.898575 797.899597 -443.900635
250.951767 877.180786 -408.580780
97.019783 805.135437 -436.010071
148.798218 824.008362 -431.350494
-46.134727 728.267944 -403.289948
-37.815960 705.270691 -498.135712
38.111938 760.655640 -472.610138
158.863983 841.796570 -444.031342
0.176137 746.287109 -409.585327
184.913254 855.260071 -722.584839
165.521500 820.339478 -545.033936
-45.133663 707.264709 -579.761353
85.613274 801.750366 -430.893555
136.139252 816.231812 -498.301514
146.155045 835.031982 -462.282532
206.352692 869.810791 -425.898193
-57.472137 705.677002 -490.164398
251.392181 865.989807 -552.339905
110.194656 797.242371 -538.572571
231.252777 848.638123 -619.264221
-31.462847 711.430908 -716.182434
-75.754196 694.731873 -487.572327
-22.902470 718.492065 -740.589050
-26.949333 686.833008 -676.496094
277.627289 847.197327 -640.936707
227.859634 838.920837 -630.464966
46.925083 738.826294 -664.548462
-83.877007 703.922546 -417.447815
197.710464 820.779724 -699.658997
-95.008408 721.532043 -417.317200
112.999931 817.949768 -402.613831
-103.428047 690.067078 -511.709137
283.378601 880.678711 -627.213318
21.310541 729.341553 -717.911987
207.829865 867.285339 -389.822510
-91.275475 709.804749 -442.495270
138.077133 804.870239 -703.504578
10.849463 728.216187 -563.623108
-126.347626 655.736572 -545.914551
-34.196514 710.695190 -531.259277
193.662704 844.201355 -581.264587
66.245934 783.200317 -429.172882
-106.307869 655.835754 -591.531128
156.736786 795.642395 -649.312195
12.943032 730.188660 -630.556274
-89.909546 662.529602 -686.527405
-127.288887 654.810852 -572.752441
-117.077682 693.489502 -474.914368
230.313858 856.089050 -609.662109
224.881149 832.674988 -667.426758
-80.728203 714.109558 -451.029144
29.892359 761.448669 -396.558105
-111.623085 626.500916 -619.569336
-48.447876 717.612427 -463.675873
120.135765 806.950256 -560.713928
-161.433502 646.851501 -508.118195
-159.824265 632.072815 -550.912537
203.261230 808.078552 -665.174377
254.134949 890.425171 -480.273926
-65.744202 691.298401 -531.471375
-14.351497 751.227539 -396.096954
-2.021565 718.699768 -710.109680
-17.736853 735.765137 -457.775879
-24.893528 713.002441 -607.405151
-15.453439 730.071289 -575.937195
5.021196 732.298157 -468.557037
-147.644379 640.513611 -539.568909
258.570862 873.599426 -585.772400
-78.978638 676.582031 -577.479553
-14.983501 688.725220 -605.783447
210.070053 844.436890 -725.692566
212.356445 840.559387 -615.965759
-20.279425 742.494873 -414.714447
-67.674988 667.881592 -586.719788
-113.189896 675.399902 -493.281433
134.896530 755.819763 -736.393372
213.493500 868.409241 -418.741852
-89.840736 698.047607 -456.009033
76.478912 782.606995 -425.824982
229.167953 883.482300 -416.444397
226.795914 852.875366 -512.968994
234.778214 867.106384 -413.028870
167.899719 793.087036 -738.272095
262.806091 882.147766 -542.604675
240.159393 873.825134 -513.548462
261.822083 865.690125 -687.667236
-75.774010 683.764099 -554.105774
143.129578 796.017273 -686.044373
272.121124 895.493042 -461.238525
176.878098 825.806641 -625.862061
181.911011 826.211304 -663.167419
45.191673 770.901184 -467.326874
134.490616 793.881470 -612.617188
-92.396812 668.782776 -575.914001
-58.714561 687.867371 -600.012634
205.618347 858.412842 -418.770020
251.468277 917.458679 -719.729126
287.449097 899.003235 -529.662354
244.594223 854.616394 -574.650146
75.511047 803.304626 -420.289825
138.945175 809.123474 -526.517456
230.219177 884.220459 -403.015686
194.421417 845.412170 -520.127563
164.177353 836.307251 -499.820282
-165.022247 647.056824 -479.692078
241.206421 840.768066 -663.322266
-3.009628 726.407715 -532.477783
277.680206 898.890076 -514.062195
211.918137 854.958984 -708.290344
255.805283 872.120728 -586.830139
23.390234 758.518921 -427.355408
185.388763 845.178589 -409.940704
224.250229 862.481018 -398.344391
163.643494 814.131653 -680.310181
-0.643215 719.360413 -601.250122
131.728333 785.592590 -636.997192
-77.402336 681.194885 -615.521484
214.978226 837.279236 -639.102234
57.300056 769.647827 -500.244720
-26.237246 741.324341 -400.555420
49.537067 760.754944 -591.124390
104.205643 771.281860 -662.157654
25.252396 758.498474 -430.759430
260.700195 891.030151 -447.688904
111.782700 790.494385 -552.238403
-18.685452 745.475769 -482.279877
132.580322 743.646729 -731.054077
181.536636 864.516663 -408.987701
-88.606659 677.031250 -541.466919
-107.704025 697.410034 -484.406281
-145.170624 670.349854 -510.596527
160.795853 828.602173 -742.492981
-159.530487 657.093079 -493.604095
104.881149 793.789429 -532.413818
48.853306 758.203613 -522.671387
119.884445 765.000610 -610.917603
190.009949 824.453003 -622.939331
-122.258621 668.552429 -497.213379
9.746517 723.239990 -443.285645
-134.639648 675.694763 -490.124329
-128.524826 640.519653 -638.728577
-171.512848 683.583862 -429.668427
-68.584717 679.634888 -618.560425
65.357605 749.396667 -620.419434
-87.493858 655.574707 -689.984131
153.565399 765.572205 -740.326172
165.336075 813.340210 -585.243225
212.408203 863.065002 -495.003632
192.884293 852.960754 -406.818604
-40.862991 687.653748 -570.744141
45.322601 760.381531 -447.354797
233.721542 849.892151 -569.973022
94.515259 779.081970 -722.252869
190.845688 859.719055 -461.981995
-38.106876 704.127808 -545.610962
154.798630 841.273621 -425.369080
77.907570 793.755737 -448.095245
240.913239 845.138489 -602.867493
48.894787 782.121155 -470.183350
188.415253 822.749451 -561.181030
83.381607 761.834351 -616.800720
117.101166 690.496887 -737.471375
133.802185 789.913330 -675.102478
235.725800 872.426880 -458.799866
243.990005 874.522583 -543.112366
93.841599 777.106140 -706.359436
270.947266 895.218262 -455.610504
259.237061 869.448059 -588.585266
-87.486015 651.788696 -682.873840
237.980713 842.528687 -678.683289
118.846016 804.109619 -484.778717
43.860607 759.967529 -518.689758
-11.060021 710.512085 -601.842102
-51.778160 683.313171 -611.418579
169.320160 787.969299 -651.683350
-152.994476 648.602356 -523.700134
-92.876022 669.505249 -570.237671
-84.112671 665.918030 -609.085510
93.019119 810.963318 -437.709015
-20.499987 729.906616 -478.093719
-46.736683 702.018616 -599.616272
92.136002 759.676819 -545.977051
145.833862 827.782898 -487.592926
-138.505234 632.643494 -623.018555
29.177603 728.517578 -666.850281
199.394241 834.085999 -656.680542
67.821434 743.682373 -656.888184
114.294846 821.861572 -411.802795
-152.533371 672.475830 -396.473755
23.805008 718.935242 -626.333191
269.757294 870.296204 -628.905151
92.443001 774.617615 -640.389954
44.003803 774.297485 -477.059082
94.874153 784.337097 -551.502014
198.127731 860.563477 -734.863037
77.263962 701.148743 -744.570251
200.840546 832.279724 -657.846191
-170.151077 667.891785 -403.093414
43.082218 749.906311 -548.435120
16.342216 747.766296 -487.838837
-61.865078 686.145203 -571.176819
90.064774 799.933167 -448.084930
-101.854630 689.665283 -477.265656
256.934540 877.146545 -547.635010
100.723648 769.377258 -622.816101
284.794983 902.466431 -502.089325
82.660103 680.704895 -747.638184
182.402023 862.298035 -393.230530
130.856171 832.447021 -443.453247
215.683228 860.584290 -427.542603
100.773956 780.660156 -471.126343
35.170052 751.881470 -512.390320
-4.403561 752.971741 -408.169464
37.424919 741.909546 -705.391663
161.838211 835.000671 -530.768188
15.575635 716.577698 -634.056396
-133.976181 626.233337 -592.902283
-153.247955 654.696411 -462.643250
191.396423 844.501709 -483.330841
197.625473 847.230164 -529.748840
285.450500 902.692871 -394.372437
203.107819 841.173828 -711.403442
112.872391 776.089355 -606.684326
-20.493385 702.714111 -600.811951
222.187073 858.987000 -554.294739
147.800888 786.608582 -628.627502
216.369110 854.991577 -503.703644
112.993111 830.891785 -407.159210
61.887859 758.259460 -700.829346
105.044365 822.043945 -404.953644
244.998016 868.130859 -506.549469
200.706192 850.160461 -540.467285
158.338165 766.083130 -738.581055
217.702423 862.963684 -739.202454
-80.395119 714.330505 -457.479218
-167.203934 661.959656 -501.485687
-76.300568 687.549622 -516.572144
153.017136 795.221802 -672.393799
75.913300 767.140991 -465.343292
255.952713 859.320435 -631.922974
167.075150 804.932068 -668.310364
-50.181572 718.966858 -442.442535
6.901218 742.731750 -502.423431
171.762375 836.488892 -486.023010
56.731186 757.618591 -537.043213
89.644989 795.442017 -499.713135
117.693375 816.472778 -458.506226
266.858917 849.776184 -645.191956
-168.703781 655.436035 -484.221161
125.920631 764.446350 -731.338989
223.697205 850.077881 -729.803162
140.320206 792.518311 -706.043640
169.526062 805.020874 -639.140076
-117.719978 674.886719 -483.154907
230.269974 873.271179 -418.409637
-72.690765 683.575500 -503.374786
-4.567594 739.067810 -533.829407
-94.688499 658.096436 -637.356689
90.044868 759.313538 -541.534180
-133.686707 674.294922 -402.124115
36.202293 719.204041 -661.292053
62.511322 785.388855 -412.821777
-3.604807 725.148621 -634.286133
-28.518137 713.059509 -496.037537
-163.846741 649.815430 -639.436157
29.409359 730.340027 -623.453247
70.365501 745.497620 -726.068848
-19.242794 742.218689 -480.889587
144.782104 821.588684 -497.559387
271.250671 883.221008 -520.663635
18.313334 738.953674 -610.795837
216.773117 874.861328 -430.693085
91.609810 793.914001 -549.389526
120.479240 776.597351 -665.567078
229.294220 864.365662 -546.635437
101.476547 779.216248 -430.744568
51.127060 739.006104 -616.529846
197.370132 864.177002 -450.021240
258.172058 902.644958 -420.245605
276.072357 890.354126 -536.402771
204.714478 815.990601 -662.857544
-107.687569 666.197021 -419.402252
-64.114929 713.493652 -439.632355
-143.094254 665.933472 -493.534332
111.629250 729.841675 -728.699585
-39.889019 721.551941 -735.180359
213.958221 828.340027 -505.006744
-109.794609 682.202576 -420.855408
24.585672 725.998840 -608.159729
-140.342453 649.508057 -608.059814
114.604431 827.247192 -396.950714
16.940044 707.246765 -704.890808
-58.860348 709.654907 -562.757751
-17.010889 695.002258 -648.257874
150.597107 750.779541 -738.996826
-113.382675 647.528870 -669.774170
97.708069 784.209106 -620.200867
-168.238739 657.921082 -445.090240
247.389526 864.776978 -594.425232
53.171078 785.746155 -400.488708
32.107082 748.914063 -470.611176
192.400757 850.550903 -540.549866
60.645126 755.840149 -571.540344
171.443878 837.034180 -549.797546
140.134979 806.371582 -618.484924
282.977356 866.270020 -644.108582
-85.666641 656.315979 -640.600769
161.323044 743.221802 -742.210266
118.689667 784.603943 -691.819641
102.356293 735.682739 -739.897888
182.082916 841.860657 -386.760834
-149.640305 655.141479 -498.133545
49.289818 685.412231 -747.477173
235.626511 880.625854 -396.397308
-34.330292 727.072693 -432.739868
37.654675 743.001953 -567.881775
189.719437 863.936157 -397.723145
32.727959 725.861511 -623.276306
212.378128 866.620422 -435.114594
-4.452109 718.726135 -635.067810
-123.935616 639.883728 -662.986938
178.267761 843.523254 -419.705261
-31.173344 730.591064 -521.624146
28.933765 741.312073 -560.842590
65.889999 674.385254 -744.893677
147.811035 825.532776 -458.848236
192.689148 861.060425 -406.421783
167.921860 828.677612 -498.734222
142.264023 730.358582 -747.601501
98.836151 708.783813 -742.593445
51.193916 778.948853 -498.651733
147.024994 790.113525 -639.009338
-99.913635 673.080200 -630.358948
211.668213 860.770874 -543.462036
-51.785000 699.197754 -534.489685
209.089493 830.375000 -628.805237
-45.510674 691.782715 -587.675598
143.883026 818.400757 -717.127991
100.123848 701.794189 -735.915527
115.979126 802.264832 -518.728333
-105.081566 678.580872 -495.430847
-4.846224 752.698181 -443.369629
125.981331 818.683533 -453.609711
118.773788 735.332520 -725.350403
81.113411 764.017822 -641.825500
233.018890 867.872498 -524.840759
143.029556 792.658325 -716.781433
-126.545723 689.534119 -471.167358
258.959137 857.837830 -648.328125
237.808823 827.602600 -602.155701
35.124474 756.463989 -567.517090
143.198181 755.525269 -745.778748
17.137987 730.385559 -491.215729
127.147331 791.190979 -633.237671
-55.588123 725.728271 -425.260315
190.243561 832.822144 -416.899414
10.856284 768.384033 -421.077026
231.757828 858.688110 -596.578003
153.503036 838.657593 -414.216248
185.438065 841.137817 -481.933807
130.519333 785.355347 -631.495422
-128.418289 660.592896 -535.006592
94.674934 798.624573 -465.363464
104.544113 787.260376 -441.804474
-140.547272 661.987671 -582.428223
190.935074 829.565491 -461.814514
260.633240 924.005859 -395.054688
49.119686 731.013489 -583.359009
166.870850 820.875183 -570.107422
54.019436 747.150696 -596.062317
182.919037 826.271606 -546.709351
130.247879 795.325867 -582.954712
69.080406 810.816467 -398.027222
85.447449 773.164856 -630.136902
-142.271118 662.966797 -478.165710
79.624023 688.994080 -732.029907
-79.271652 704.559143 -506.094025
-115.642387 668.376099 -610.714539
25.817278 764.859436 -446.400940
257.108368 879.308044 -472.810608
-125.472404 631.583984 -594.614624
-49.380882 694.373840 -565.070923
79.726074 797.486206 -483.946014
242.965775 897.058044 -409.201965
42.067677 742.828003 -704.889587
98.054398 801.804443 -514.409668
77.604401 776.414246 -512.827515
238.974991 883.486145 -394.447510
260.469391 880.686890 -521.246094
262.286346 871.255371 -473.886871
-28.973581 730.380981 -516.935913
-120.671654 650.147400 -645.584778
-74.133804 677.600159 -582.745178
-43.921112 736.530273 -459.686890
162.740433 843.270508 -477.292145
87.890152 813.733032 -398.048126
228.456665 873.398376 -409.150757
253.152481 890.448669 -473.787109
227.988098 879.907043 -465.606781
-75.668182 713.226563 -490.378204
-69.828697 710.852051 -424.379944
16.193834 746.814575 -507.775024
-46.581314 725.230347 -507.581268
