ply
format ascii 1.0
element vertex 1375
property float x
property float y
property float z
end_header
785.914917 -393.581024 -212.903091
1038.792725 -281.193634 -83.554375
781.340637 -285.448792 -274.477295
899.832825 -493.538177 -9.063047
872.076660 -228.884033 -238.101440
866.940491 -306.549225 -206.095856
998.974365 -142.470016 -203.137558
995.469727 -158.708786 -167.760941
711.870911 -592.202454 -131.796051
983.239563 -241.139008 -163.142563
955.216309 -359.656433 -113.376617
904.343201 -422.367096 -103.003189
935.919861 -486.440826 -0.115521
801.208008 -337.867706 -233.570526
817.195557 -328.187073 -217.489594
680.589050 -548.080505 -180.324020
676.565186 -392.525116 -253.067474
934.211304 -381.905792 -114.444038
929.357117 -472.366943 1.872866
801.287842 -392.593292 -202.352173
990.957153 -376.326599 -67.252617
914.681458 -316.170166 -130.892365
1051.147827 -257.274628 -102.118317
1018.613342 -314.347626 -76.400009
923.907898 -490.180145 -70.076767
777.641235 -367.840393 -214.933807
1007.213257 -270.100342 -126.303070
876.357544 -314.884827 -197.678391
1012.459839 -339.765747 -77.123703
939.010620 -304.427612 -143.616028
681.660583 -513.207947 -215.496506
713.263428 -360.899841 -253.753784
988.268799 -459.245728 -51.633049
821.597046 -570.814575 -73.210060
868.020569 -517.364380 1.111111
612.317566 -414.779175 -282.210083
693.276367 -560.266418 -168.442474
773.612305 -405.007813 -188.267944
638.241333 -402.316956 -289.861450
778.733032 -296.001312 -260.935394
701.775452 -514.039368 -176.651505
961.125183 -460.546417 6.630161
1024.342285 -277.756958 -111.871307
956.122864 -208.486298 -191.591812
802.185364 -345.725555 -232.020386
880.536133 -374.939606 -144.865707
747.517151 -322.945465 -256.347290
676.173279 -405.586060 -281.951385
965.482239 -469.151337 -32.645409
670.541443 -496.511414 -237.281204
1056.019165 -443.058075 -57.198509
831.377319 -414.026062 -153.104904
642.857727 -433.260742 -255.584991
972.077515 -387.187805 -77.288330
792.545471 -313.552612 -233.997574
883.664307 -490.664032 -89.676277
775.459167 -518.474915 -141.129181
1031.979492 -304.151428 -89.439934
929.926270 -170.164673 -226.967575
789.902954 -457.435577 -160.457947
828.643616 -449.281647 -141.225311
681.855896 -517.207214 -221.113281
660.275391 -444.733398 -235.439880
774.758850 -568.601624 -117.575867
717.992249 -483.317200 -201.203369
757.522461 -314.708588 -277.018524
693.975647 -338.909271 -286.910950
895.712708 -400.538757 -121.649345
741.219055 -476.076202 -159.056793
902.132080 -276.262604 -177.456558
739.765503 -522.997009 -152.619476
671.692810 -549.586365 -206.032364
818.230530 -359.717896 -198.955292
914.207397 -283.104431 -171.339142
839.849243 -532.674866 -19.526335
916.936523 -192.113083 -224.466232
802.906921 -320.456604 -205.782974
758.488892 -337.482117 -244.786148
820.798767 -278.118103 -232.108551
784.379150 -460.314117 -174.347244
866.740112 -527.469543 -37.004684
834.464722 -306.623199 -218.218948
794.686401 -445.450592 -160.930145
976.967773 -181.392441 -194.031433
881.950500 -325.301025 -170.621277
955.392822 -474.163513 -34.571507
982.277100 -285.129089 -135.794403
769.335815 -437.918396 -172.467926
913.505981 -270.555237 -177.254501
856.995178 -267.264740 -218.978821
948.517029 -251.522736 -159.363953
782.053589 -515.589600 -144.144287
951.709534 -331.642578 -112.540268
769.031067 -314.374176 -237.773987
931.746155 -311.207947 -118.390526
807.425964 -273.051208 -237.615891
999.498657 -289.051697 -111.566109
689.804199 -419.925812 -270.252991
999.446533 -146.388336 -172.139236
682.602417 -444.218170 -256.206818
843.731445 -267.594849 -225.078964
936.225647 -266.643433 -157.327972
937.526184 -313.322449 -141.368378
849.855103 -342.797791 -164.251846
968.656982 -375.578003 -70.280914
757.585510 -506.522552 -132.665375
926.685486 -474.736694 -17.832989
906.507141 -474.206848 -89.912560
780.395935 -306.976257 -257.080841
898.755920 -502.027008 -1.355691
1049.235474 -330.435120 -62.434799
863.081848 -426.866272 -125.570869
963.304504 -466.524658 -69.227699
900.256714 -486.507660 15.452434
1010.224548 -278.977631 -97.952957
967.742310 -201.910385 -188.601593
973.925293 -387.608154 -64.274788
745.923828 -321.652008 -258.809662
744.298340 -469.418060 -205.475143
862.332153 -381.819855 -171.195709
1022.736755 -275.606140 -116.331177
882.980347 -262.871826 -211.973694
830.080566 -592.431396 -90.159309
996.169006 -184.348511 -173.207458
897.811829 -508.329437 -77.243279
842.959412 -578.762207 -84.122223
695.769653 -352.182953 -285.250122
653.509216 -420.430756 -252.200867
623.178040 -465.044800 -275.144379
1037.634155 -369.126740 -46.860367
968.620483 -428.808411 -63.665485
819.853760 -601.538513 -100.693092
887.324463 -528.487854 -78.224510
947.518921 -191.173309 -205.888214
965.669556 -178.158813 -199.777634
1017.644897 -281.058533 -83.730377
715.035339 -565.964722 -160.886414
982.889526 -153.484940 -189.022736
890.818054 -523.351379 -76.257927
898.056274 -509.543060 -54.348995
868.618286 -381.231293 -143.429581
847.063965 -274.050171 -226.452362
728.576843 -322.648468 -264.179077
700.898621 -580.216858 -170.436157
696.480774 -532.210266 -204.527451
880.656799 -202.928467 -243.074280
1020.444214 -213.908844 -142.172424
1009.136536 -211.264847 -157.464996
685.390869 -556.145264 -175.920990
889.488892 -481.772003 15.855511
863.307312 -540.354309 -68.782112
939.825562 -432.949188 -71.510574
967.884277 -442.164368 -76.613037
888.478516 -440.743195 -104.231995
669.842712 -567.434753 -203.823715
790.285278 -351.087189 -221.460999
1051.478882 -326.050018 -50.719254
852.942566 -531.634644 -97.339798
879.465027 -285.925629 -202.862427
1010.094360 -283.460510 -117.697998
854.357910 -340.846313 -176.853058
944.852051 -293.108765 -158.212921
910.083496 -254.317474 -189.895126
955.142639 -274.420776 -153.914841
971.868713 -473.104675 -19.488941
1021.541687 -376.241028 -67.849274
684.587646 -544.854004 -179.376816
780.387207 -550.997437 -126.796913
844.996643 -419.766602 -142.270081
972.295898 -328.402008 -115.642479
835.833313 -577.686035 -103.513161
950.623108 -331.675720 -137.062592
642.214111 -457.916656 -252.973145
900.904785 -429.172302 -103.244019
1066.440918 -347.928375 -50.841373
870.210510 -299.220215 -197.402695
685.044312 -488.486237 -229.964447
990.773804 -402.356750 -57.043941
667.904358 -412.866913 -283.141479
1004.104675 -174.264633 -188.278122
812.504639 -564.484802 -58.708412
707.986572 -550.927246 -183.772522
932.447449 -266.230804 -184.606216
900.346802 -242.676392 -199.613251
984.291931 -393.046173 -63.946098
965.344177 -267.377625 -151.024261
1081.555420 -311.321472 -64.808266
968.644958 -217.225067 -181.309387
921.447754 -490.957947 -14.334362
787.565735 -374.473145 -209.949219
925.752380 -471.392761 -81.543236
713.546570 -597.027954 -149.671295
790.529846 -279.028351 -256.626709
720.718018 -373.562103 -251.635483
1027.582642 -159.152481 -168.033447
814.463928 -480.709930 -142.616791
833.167297 -282.799469 -219.072449
725.667603 -479.318542 -189.101425
961.367920 -452.921936 -76.484383
888.589111 -405.896637 -133.639771
1071.012695 -383.247284 -28.750635
878.713684 -537.710999 -65.710243
776.160461 -493.088165 -128.439026
770.845581 -357.111664 -205.153107
985.893738 -213.613770 -173.506699
973.696716 -224.931259 -170.915527
958.879883 -244.666428 -168.160019
667.294250 -441.410492 -237.249954
900.126953 -530.473816 -62.104740
912.424194 -335.210968 -122.339005
975.965332 -151.814697 -192.230774
971.288452 -314.602081 -127.521339
709.893066 -546.024475 -143.951218
931.445801 -339.124207 -141.383423
897.830261 -525.940430 -58.991287
938.978882 -209.090057 -173.692596
816.200562 -486.500336 -141.592422
1025.605103 -272.881653 -95.065460
1023.955017 -208.782242 -148.053680
1029.859375 -337.628021 -64.494942
676.595093 -405.320435 -238.493484
856.872559 -476.667603 -98.341232
752.915710 -546.878174 -154.847961
732.745789 -411.452393 -229.967514
878.660950 -381.817261 -142.019119
999.830139 -284.612701 -85.256081
1027.877319 -451.877075 -33.944351
775.741455 -392.809753 -203.464188
961.991516 -322.110443 -115.309402
715.306702 -436.473297 -219.929749
809.684937 -534.276855 -115.277916
776.354431 -296.681793 -262.316986
722.353149 -314.604584 -265.702515
1033.030273 -230.085297 -125.938896
778.853943 -475.046539 -154.102737
734.569641 -359.890198 -251.688644
895.044006 -515.697632 -61.647892
932.613342 -328.910736 -128.045059
994.436157 -322.145294 -100.719933
905.990417 -485.926483 -10.709085
784.548340 -307.227509 -258.911926
823.981812 -345.475220 -197.774261
907.472839 -469.969910 -74.310379
899.892029 -497.654877 -34.077148
800.869873 -460.536255 -165.664551
667.760498 -453.094513 -265.940216
939.299377 -393.716766 -96.331711
914.059143 -494.950195 -69.415382
847.598145 -301.678925 -210.574875
636.307800 -464.804504 -282.125671
866.154541 -222.901688 -239.802017
759.437988 -338.124084 -261.684509
691.798645 -345.854645 -301.522339
998.172913 -233.600220 -149.196030
899.472900 -245.095840 -208.107651
908.680115 -284.028870 -173.181839
988.083008 -438.549774 -57.783596
883.083374 -285.365173 -197.460083
635.186401 -407.755066 -285.850433
936.629456 -163.910721 -223.815842
860.742676 -302.882507 -214.760086
1032.013916 -266.458862 -109.593567
807.439087 -455.310303 -145.642334
920.936829 -344.119415 -143.524628
901.723267 -228.279373 -217.228241
913.562561 -250.081940 -167.658142
958.278687 -373.535980 -94.171722
784.733765 -595.706482 -117.002586
651.914856 -411.117615 -250.304092
815.999451 -450.401917 -143.151657
915.590881 -489.517365 1.881158
1043.758423 -316.573029 -46.233345
634.274902 -509.748169 -250.845551
917.621582 -275.768646 -179.604996
1020.574463 -462.470520 -53.656868
1040.284180 -303.175690 -84.494179
758.737976 -462.158691 -176.740234
718.751892 -382.710327 -249.467575
813.412964 -396.335419 -179.069778
980.461731 -214.180191 -154.461960
835.857239 -279.222595 -226.780930
891.674438 -271.893677 -198.792770
835.833130 -583.496094 -121.060905
652.799194 -398.718475 -280.568970
870.040039 -526.109192 -101.399048
895.525330 -389.757904 -129.931168
941.642273 -165.417236 -205.090378
1055.474609 -267.573822 -94.457504
823.443359 -501.181396 -125.256607
658.508057 -381.671875 -287.645172
930.588867 -395.880127 -108.196587
986.802612 -364.170593 -88.283379
937.438293 -354.720795 -126.710457
1058.864746 -439.902374 -55.588184
898.111755 -206.734390 -237.364441
856.325806 -289.208649 -207.559784
904.400146 -490.459259 -59.916359
955.441772 -197.159607 -195.761642
741.291626 -387.643433 -229.010788
899.885437 -303.503174 -168.382965
766.226685 -455.849335 -174.503632
633.113647 -485.305023 -263.594543
826.827087 -314.617279 -216.611450
927.501526 -485.826355 1.657794
1017.183655 -386.151520 -51.021187
695.825500 -572.050171 -171.232910
901.464478 -215.513092 -211.008224
969.068115 -337.978882 -116.049805
634.061646 -464.826385 -261.186523
945.915161 -215.917160 -184.705414
651.696472 -401.618286 -306.555878
785.685547 -405.678101 -209.398453
762.611755 -481.843384 -183.658386
764.281067 -294.328918 -268.018311
973.294006 -447.484741 -56.432003
811.070618 -272.829987 -242.971878
834.894470 -546.810120 -28.367388
911.132446 -501.806061 -4.382974
657.081787 -503.318390 -245.440384
903.867920 -224.383148 -220.119827
629.148743 -415.309235 -285.555481
706.539368 -554.861877 -160.243347
1120.651123 -413.191223 -54.448837
950.584656 -480.804993 -14.119046
861.478455 -512.372498 -2.820279
941.991882 -404.577698 -68.588821
1038.068481 -324.290894 -57.440029
854.707825 -234.931076 -236.567398
888.894531 -337.063263 -172.933151
979.942566 -351.181396 -102.664368
843.605408 -324.138214 -190.690338
980.342224 -233.271469 -164.465149
961.032227 -328.235474 -125.951332
834.968506 -485.404266 -110.902817
841.363525 -294.229492 -231.287674
951.172791 -218.419846 -185.567917
741.252136 -645.108765 -141.485138
782.675659 -386.212616 -208.526627
905.063965 -514.402710 -64.367310
772.965698 -377.425323 -230.698593
721.672302 -368.322144 -238.817490
703.682617 -480.861816 -203.718704
1022.808716 -246.578857 -120.463531
790.810608 -501.365997 -132.009262
915.319702 -268.899384 -184.224106
963.975281 -334.666016 -118.463974
1051.618408 -331.739105 -52.368103
699.090332 -422.231812 -239.062271
824.328491 -233.413086 -245.489563
749.453369 -538.410950 -127.143883
987.123413 -314.546295 -102.920189
934.143127 -394.113403 -96.055290
653.969910 -547.883972 -199.663483
991.971008 -353.299347 -91.444931
992.796204 -211.048370 -156.971024
875.560974 -217.915115 -237.151321
611.949402 -445.202301 -294.249298
911.910828 -188.435410 -217.950287
961.433167 -203.291870 -167.690842
866.359314 -476.275299 -110.418831
935.754028 -277.463470 -159.305023
915.052612 -424.142212 -89.187103
992.074951 -166.369186 -184.022781
990.745789 -221.480164 -149.614929
993.669617 -248.167099 -143.291290
933.388489 -466.933258 -8.800215
628.006409 -406.189331 -308.149811
837.588135 -310.845795 -207.669037
721.619568 -343.291687 -259.938507
927.432800 -283.149628 -165.157501
846.118774 -301.952698 -186.901215
837.636292 -572.839783 -117.989471
837.318481 -601.199097 -120.824493
939.314270 -232.806763 -159.827957
706.633484 -395.941284 -249.247406
646.668274 -379.198456 -309.455383
859.574097 -414.393951 -128.980713
720.867554 -331.444427 -269.832367
942.195496 -256.178192 -161.886261
963.000122 -344.766449 -103.837723
669.829590 -469.394775 -237.821625
917.904602 -208.651428 -216.622391
673.215576 -399.961182 -286.783508
721.840515 -333.742676 -266.777130
921.522766 -314.340179 -162.423248
848.057678 -424.643646 -143.827393
893.694336 -414.776154 -123.497688
856.664612 -280.987793 -217.997604
799.322144 -940.443237 36.814011
1071.652100 -317.027863 -54.105125
1035.922607 -414.997772 -49.470634
889.675293 -527.726807 -72.927483
668.766968 -436.446747 -249.541351
895.733398 -229.923477 -226.985962
631.934448 -492.115265 -230.272919
814.735596 -253.296799 -254.526520
957.839661 -218.544357 -192.446960
888.374146 -217.976257 -203.398972
685.651794 -542.236694 -165.210648
900.665710 -495.863190 -29.412752
745.596069 -592.962219 -135.019058
792.167542 -591.736633 -121.525246
669.486877 -534.505798 -195.580826
655.497375 -508.840576 -234.119659
828.881653 -280.291687 -230.007111
782.655640 -398.134338 -202.100616
1116.832764 -319.207214 -48.483398
886.302734 -266.649139 -198.649109
875.761902 -429.888184 -120.478378
980.317993 -153.232651 -196.469055
928.792480 -452.201904 -71.506721
890.044861 -524.612488 -68.328918
978.845154 -394.562744 -71.517838
1006.544617 -210.207642 -154.357590
949.537170 -202.143646 -203.344055
878.569336 -412.341980 -129.319366
883.153137 -432.950562 -123.538246
944.964111 -422.894226 -77.478722
939.297302 -489.684631 -51.438869
937.728516 -255.814316 -181.631531
640.241699 -400.416077 -263.299438
991.469421 -456.505157 -6.812511
974.762268 -284.614655 -128.993729
909.902527 -506.837067 -58.615997
999.757629 -302.844147 -109.778282
888.250122 -521.221558 -33.655273
946.805725 -477.477203 -66.975586
701.210388 -396.080322 -264.820648
830.346008 -287.875427 -224.835342
996.699585 -173.213364 -177.270309
972.148315 -397.125153 -84.412712
938.986023 -493.176819 -82.150597
901.925049 -246.306061 -205.395096
976.997742 -478.508728 -61.787834
1029.244629 -404.844757 -40.484558
931.682800 -492.902832 -43.856384
851.474365 -224.181488 -251.120316
930.500427 -256.277527 -170.255325
734.010681 -347.894623 -275.008728
917.022339 -204.892349 -208.978592
835.796143 -391.789581 -162.382309
884.802063 -464.855621 -92.069756
911.493835 -272.042084 -185.160461
1026.358521 -345.416260 -65.927086
967.351624 -144.996323 -206.197540
697.509766 -363.973724 -275.919159
672.921631 -441.614380 -249.385178
730.578064 -415.950317 -243.192215
895.645508 -523.042236 -69.983368
805.828979 -289.480743 -253.711288
929.490295 -376.185730 -111.114799
853.050476 -537.586243 -36.415638
998.547180 -359.334412 -76.322105
766.635315 -490.080048 -176.411453
658.062500 -503.982483 -208.281067
722.162354 -371.700104 -269.577545
914.031860 -177.268738 -225.378265
913.079956 -514.065063 -87.175346
855.832947 -273.186981 -234.873047
759.318787 -466.831879 -174.877014
891.789124 -473.361633 -93.428001
727.588867 -541.541931 -153.297577
968.953430 -448.101715 -44.308563
997.404297 -435.647614 -68.140862
834.390320 -360.556091 -186.679352
961.796936 -234.570145 -158.049789
718.941406 -439.113220 -238.423828
844.569092 -589.036865 -100.600060
855.939087 -533.971497 -53.855240
648.872070 -445.225220 -245.607147
1029.697998 -456.803131 -32.558643
825.479309 -412.854065 -158.038376
838.122070 -322.198212 -201.441956
719.907776 -393.975128 -263.174164
743.777771 -543.211243 -138.667252
1038.172241 -206.452026 -138.138153
926.899841 -259.555450 -181.481033
879.897522 -254.216537 -214.471558
1024.589722 -277.777954 -104.860535
648.895203 -410.439941 -279.376343
643.973938 -461.786743 -239.356644
660.818115 -419.064880 -240.392410
831.146423 -361.284698 -201.966476
906.303223 -239.379395 -209.190018
1045.017822 -265.118134 -79.677628
929.544678 -303.792328 -143.223480
901.182251 -359.540894 -140.567291
982.757568 -395.942749 -74.974564
605.643127 -403.175171 -320.121033
892.439392 -489.230011 -96.818756
795.724792 -292.049713 -269.834656
837.781738 -383.143341 -165.280884
688.185730 -544.307922 -192.412994
849.875183 -566.560364 -58.564514
1020.979797 -282.937134 -81.501572
985.544495 -208.770386 -161.913239
856.167542 -534.963928 -12.491516
660.551941 -506.137512 -235.888382
854.005005 -563.532471 -108.923668
912.969788 -436.714996 -87.385719
1048.502441 -329.677124 -47.942551
946.240417 -402.800232 -85.249672
1053.620850 -360.103760 -44.958981
800.941406 -300.499420 -243.720291
981.128296 -188.603790 -184.522308
997.170593 -321.497070 -99.556877
771.704529 -404.351868 -205.373016
1047.789185 -443.384857 -51.576397
1009.299377 -284.672058 -123.233429
957.864319 -194.579575 -200.071564
950.846619 -264.759003 -161.096725
995.623657 -180.083649 -182.000885
961.291687 -264.785950 -161.823273
952.472168 -193.154938 -185.300537
949.070496 -321.116669 -144.264053
850.485596 -275.776184 -226.156128
790.364075 -448.419495 -168.643417
938.347046 -207.937637 -191.992706
746.021912 -332.095917 -261.189850
765.052795 -458.480682 -173.457962
947.097961 -177.945755 -199.383026
1067.522583 -314.355804 -59.905396
804.067017 -409.659851 -192.532272
984.356262 -160.912933 -173.529327
1019.156372 -325.303131 -69.875992
700.587219 -466.614258 -213.556107
774.521301 -487.524750 -139.857864
917.333557 -488.532684 -36.066013
937.827393 -481.263947 -10.844307
741.390930 -567.216309 -150.682678
1022.615784 -461.508728 -31.421614
1013.512573 -357.836334 -44.692017
889.594360 -323.357849 -183.573608
1053.965332 -300.669006 -50.221554
933.582642 -485.591644 -14.903545
876.111023 -218.039581 -244.032639
865.197327 -346.537323 -188.338486
761.500061 -448.868805 -181.799805
747.268066 -478.634308 -174.630981
916.967529 -286.215668 -178.275818
815.210144 -486.891846 -114.323418
862.338562 -352.685730 -175.695007
848.482971 -279.472839 -236.576279
888.581665 -260.899506 -208.506042
948.006287 -152.222107 -202.516235
898.096558 -501.064026 -41.297802
1023.335938 -318.274292 -53.343502
712.056091 -493.998199 -176.016800
689.987793 -471.386200 -219.613922
844.470276 -394.869965 -155.015457
969.769592 -471.448059 -25.122520
947.213318 -440.728058 -70.962036
911.288452 -498.440491 -52.167618
839.040527 -272.944153 -247.469437
724.556030 -552.053223 -171.288620
939.664551 -317.453003 -141.787064
1068.294800 -269.803802 -85.991058
1003.138733 -189.685699 -172.283722
675.639221 -500.928467 -234.451035
925.227722 -248.315079 -198.095703
1006.578491 -252.803726 -129.379776
984.646301 -464.111053 -41.111679
773.433105 -377.586670 -219.774628
672.666077 -430.270233 -227.202423
735.601990 -526.725952 -153.206894
752.524109 -348.056274 -256.330536
665.285339 -485.219269 -225.453568
1035.959839 -294.503784 -79.541862
934.921814 -195.454788 -197.395355
947.431274 -351.816742 -125.698189
737.853271 -390.602600 -233.982208
736.068970 -508.965790 -165.654144
888.168091 -268.674652 -202.017181
892.208191 -286.036774 -155.639938
796.341858 -290.693695 -216.240662
982.560608 -463.341339 -5.838503
991.288269 -298.209320 -108.007874
732.088318 -553.170044 -142.240265
832.496338 -284.073242 -239.343292
656.880188 -556.523010 -195.292145
737.839050 -495.233032 -179.838638
683.028259 -479.875122 -231.108780
858.674866 -235.286087 -234.400787
614.148132 -414.186981 -332.065552
951.349854 -223.280533 -185.629700
1034.914551 -354.466797 -53.312870
976.615723 -196.504837 -164.748001
778.113953 -434.321411 -178.809006
795.502808 -272.266541 -246.762054
726.890320 -542.830078 -175.393906
823.436096 -289.723755 -229.459152
949.209900 -475.280273 -64.988106
993.552734 -180.507187 -185.385864
749.547668 -511.205292 -153.952194
713.019836 -509.761322 -157.019791
788.733398 -306.195801 -240.085953
696.743225 -435.986755 -250.464417
1045.169678 -307.884644 -53.031044
678.309326 -486.206696 -242.270752
1032.986938 -280.806854 -85.321358
711.262390 -364.680634 -266.444916
1015.879089 -451.735382 -50.305279
888.547485 -443.200470 -93.401108
961.966125 -351.702911 -102.984970
834.045349 -419.440216 -144.676590
848.996643 -280.457947 -211.433136
912.690002 -268.145691 -180.967422
809.159302 -364.803101 -214.598785
974.078491 -364.880157 -96.587219
830.541687 -280.747101 -236.683151
665.073486 -446.595703 -260.705414
892.697571 -397.085724 -135.350922
723.201355 -340.987854 -266.386444
761.059570 -365.579498 -210.960510
838.139709 -501.798218 -93.645386
961.938232 -468.011841 -30.050594
945.486938 -181.388077 -211.154861
874.045105 -319.291626 -180.019485
637.998779 -389.858887 -299.188721
1000.554688 -451.666931 -65.381508
986.941711 -345.933075 -99.045303
986.725220 -200.287125 -179.323959
845.503967 -262.152008 -226.642792
861.618103 -381.400848 -166.379364
1030.055176 -357.099823 -68.581566
869.100037 -323.595551 -198.199493
645.467834 -528.535706 -225.445328
1098.928833 -377.054932 -46.100838
885.094971 -318.933655 -186.285156
772.778992 -569.936340 -107.034660
1026.400757 -457.651367 -49.880062
738.965820 -460.422028 -208.550446
982.063599 -329.176971 -105.320503
805.720703 -373.763824 -197.476089
1069.098877 -330.342041 -51.299057
619.248657 -455.198761 -313.188873
844.493164 -319.684906 -209.461578
859.748718 -274.999237 -226.440430
905.070129 -337.889069 -153.744705
626.614563 -465.212311 -279.355255
811.538086 -338.166931 -215.211502
799.965332 -380.999054 -175.524338
632.232178 -394.589264 -302.419434
723.524658 -376.198486 -246.372528
857.139404 -329.271576 -200.860123
973.787048 -179.830841 -172.506302
992.163879 -328.898468 -92.308037
790.900208 -327.098907 -236.376678
782.071350 -453.113098 -185.391327
911.789429 -515.740967 -61.663094
826.093872 -386.822662 -190.808731
924.644348 -444.123138 -62.295292
1025.048950 -182.773544 -165.611389
853.970520 -231.854721 -244.762390
923.849548 -493.675781 -21.108217
680.964050 -631.235779 -146.570770
742.308899 -341.703033 -239.403549
756.400757 -348.220062 -235.675964
716.445496 -328.357697 -277.788757
724.976501 -349.822357 -280.332520
873.845154 -449.316284 -97.700989
841.727234 -248.436096 -232.876312
881.657166 -526.912842 -7.789397
903.396362 -271.195618 -202.325790
807.134094 -483.829956 -146.531204
824.316528 -282.503876 -239.867172
859.602478 -409.647125 -147.342499
725.482239 -422.491211 -221.692398
775.659790 -501.181488 -143.859924
890.555481 -528.730774 -86.999046
879.189026 -318.326233 -191.142761
692.710815 -379.281616 -285.001801
961.019592 -482.887299 -44.462929
1076.344482 -341.215485 -45.966103
668.644775 -509.907104 -235.705795
730.177429 -503.767426 -188.368286
947.274414 -279.061859 -164.100235
793.127014 -372.884827 -204.496262
1036.187012 -246.506256 -114.868759
858.734192 -288.798645 -221.637039
874.759827 -527.294922 -24.315620
884.330383 -441.574188 -120.136635
643.672424 -464.183105 -248.909653
833.200806 -417.934875 -149.485962
1009.858948 -190.464691 -165.831131
706.339294 -544.895325 -164.775284
1057.575317 -359.286194 -42.267555
881.620544 -396.508881 -132.064682
938.110779 -231.777985 -195.629974
878.237183 -514.642944 -1.884489
1003.051941 -183.144424 -175.893265
704.014771 -480.276886 -205.609283
632.972534 -481.116882 -271.497070
740.460693 -562.049927 -126.348312
926.099915 -389.755829 -105.574028
900.413635 -200.394135 -230.695862
976.328979 -260.695862 -153.097260
877.372314 -524.223877 -98.282028
811.922119 -466.990967 -120.254753
996.097290 -256.498230 -146.710175
922.455017 -179.938080 -211.675522
649.951355 -452.849487 -228.001648
745.803040 -489.773041 -177.248886
907.970215 -320.722809 -168.657318
715.386047 -417.689331 -244.559113
895.366638 -321.074768 -167.275314
929.376709 -274.583801 -165.574051
679.488159 -608.603577 -154.328278
1051.556030 -280.736816 -85.918579
819.565552 -585.367798 -81.229401
798.851379 -403.074249 -163.117188
706.874878 -399.579956 -263.643097
1042.110596 -240.801163 -96.297127
903.504089 -518.342163 -83.954407
1099.143311 -404.062195 -38.407455
866.425476 -464.733276 -101.260071
971.736145 -404.768433 -62.997887
876.614441 -302.455353 -192.741531
666.166931 -374.604462 -315.072784
994.454346 -278.105286 -136.930420
816.826599 -411.425964 -183.613998
752.319153 -512.087036 -150.980606
778.462280 -459.037292 -179.120575
778.709656 -350.749695 -229.455811
908.088379 -244.762497 -200.964874
813.668701 -255.762283 -261.765533
963.814392 -251.592438 -161.129105
765.445618 -347.213928 -240.951324
788.341614 -385.625549 -181.480652
884.449341 -278.550995 -200.098251
951.546814 -334.916138 -128.467941
936.524231 -262.333374 -171.226501
1024.786377 -272.611267 -101.113403
908.505859 -230.573456 -200.807480
989.584839 -238.334641 -133.267502
705.823669 -545.755188 -149.629364
792.430786 -501.914093 -133.066238
905.073792 -246.755920 -196.312225
956.463867 -449.446472 6.213733
988.009766 -319.237976 -119.698212
931.695496 -377.948669 -118.183487
706.577393 -641.108093 -149.102158
924.413269 -356.397797 -136.500656
627.604370 -470.574402 -290.321136
905.475830 -326.615295 -152.420273
951.579956 -391.778961 -88.067619
935.261597 -459.806824 13.185171
692.784424 -452.549652 -242.134323
913.898926 -484.975006 9.805006
1003.665833 -289.297394 -103.795944
942.646423 -347.936920 -133.486588
952.874817 -201.227234 -177.548828
908.533752 -326.337646 -152.532196
921.904114 -297.002167 -158.162827
1047.922241 -248.655975 -88.882515
940.994812 -349.633514 -127.125252
998.388245 -478.119232 -36.026451
836.081238 -588.180664 -106.116074
955.440369 -392.908569 -96.539749
964.372131 -227.488113 -179.304382
903.054810 -509.535614 -88.856812
779.678772 -409.534790 -209.121078
746.814087 -467.800598 -181.371994
858.312683 -317.357239 -194.757233
614.526001 -407.921234 -306.415741
826.671448 -291.732269 -240.958405
834.071960 -325.148804 -208.783600
700.675720 -609.721497 -155.586258
606.223694 -463.213318 -294.421478
936.726746 -298.496216 -147.741226
790.171387 -464.354095 -152.823685
902.760864 -513.390381 -21.890076
824.746765 -341.506653 -215.798813
760.956299 -389.806335 -236.164093
717.617493 -544.384216 -142.880692
781.773132 -414.127930 -178.134720
947.203003 -310.732758 -140.690155
845.530457 -563.194397 -52.830135
936.447754 -349.210236 -125.811493
933.860474 -261.304260 -184.107605
856.038757 -304.496857 -209.326660
641.359253 -493.123840 -243.973892
1001.942932 -450.213165 -17.891924
869.750610 -254.426559 -223.815857
740.944641 -555.688904 -151.279938
1024.400391 -268.108307 -81.027588
864.274292 -363.720032 -175.393158
954.480469 -258.803101 -134.811340
688.007690 -565.473022 -164.326645
808.059143 -510.180359 -114.411690
704.353882 -433.455658 -231.140701
681.033264 -473.530609 -208.487061
819.634705 -280.946381 -234.058578
940.956116 -478.211426 -39.709377
714.308533 -627.880188 -146.991974
780.328796 -277.302795 -266.024292
890.831238 -500.896912 -91.947205
749.711182 -353.715454 -260.637939
735.437256 -329.259583 -244.688477
909.785767 -496.098969 -75.313217
889.799255 -481.538361 -80.129639
719.929077 -329.815369 -289.949921
719.902954 -430.949707 -222.085083
921.140503 -423.780487 -107.470413
897.717896 -267.164307 -206.025009
1059.184082 -338.612915 -42.059700
743.575439 -358.762848 -260.797333
707.404236 -532.865967 -173.407166
863.556824 -416.673492 -137.044800
785.802002 -461.979523 -164.049088
907.456604 -514.826416 -53.186790
893.154785 -432.789215 -105.597511
974.491394 -230.575607 -167.601685
1056.014893 -436.314514 -32.840244
912.300781 -267.322144 -194.292892
943.523071 -485.379608 -24.457468
686.616150 -586.616516 -181.849731
801.287842 -441.533020 -164.478775
689.893127 -380.291931 -272.405487
805.012390 -334.501770 -221.660400
896.864563 -434.012634 -97.340401
953.302002 -275.495667 -140.345963
661.803467 -548.065491 -230.636032
990.564941 -327.579498 -105.374062
1044.130371 -352.978241 -58.118496
876.009583 -376.493164 -158.891876
912.998352 -251.844009 -194.738159
940.159729 -166.223755 -215.602066
961.704651 -457.300781 -31.173391
835.022400 -585.707947 -91.029053
787.946655 -372.973022 -212.224762
870.592529 -252.669250 -230.399200
726.264954 -570.542786 -132.606400
974.204834 -330.549408 -115.703789
820.511597 -256.399750 -233.865158
706.123535 -396.037750 -245.986160
971.012451 -141.770065 -214.797668
803.829895 -390.345367 -184.636215
775.382629 -580.230591 -116.187469
1019.282959 -241.205658 -114.189667
934.082336 -259.168793 -174.497131
904.809387 -278.118042 -182.312302
788.052551 -570.057251 -118.589081
786.348511 -452.337311 -184.810364
658.934204 -507.827759 -242.492935
861.843018 -545.812134 -55.945004
712.414429 -400.477814 -264.960999
706.645203 -351.339355 -282.314240
901.750061 -356.030334 -135.763367
757.562439 -524.614990 -124.241768
736.865356 -520.225586 -174.120529
660.443604 -417.028503 -254.601837
829.695923 -362.359283 -178.005508
860.979370 -480.977814 -110.919609
895.087952 -280.168274 -167.273514
958.509277 -425.051636 -68.303780
936.416870 -179.565552 -204.903320
762.730042 -485.998657 -175.255798
892.606262 -236.304443 -208.249451
930.484131 -468.723938 -80.118958
868.709778 -458.110565 -107.515625
739.580872 -416.971283 -202.721375
893.941406 -360.202759 -142.483078
707.234558 -498.190521 -193.586929
904.085327 -497.127838 -80.558517
793.238281 -357.239166 -210.034698
882.322327 -270.557587 -214.233734
930.543823 -462.727966 4.128101
753.143372 -443.136566 -192.098663
919.767944 -485.295319 5.865417
984.528625 -463.158905 -35.329876
740.468018 -342.469635 -259.485138
1060.823120 -267.916077 -90.277260
802.893677 -432.986176 -162.418610
672.806458 -530.824646 -193.855209
655.365540 -423.651947 -284.801971
656.567871 -432.995239 -284.069031
858.437439 -289.013702 -212.409668
874.915161 -211.467361 -244.711075
616.766174 -436.662842 -323.218781
858.430603 -436.764282 -121.863838
829.595947 -384.975189 -185.822037
647.270630 -523.104004 -200.880188
769.287354 -400.708740 -208.750793
892.702881 -510.392120 -82.940994
985.698242 -333.239258 -94.296585
916.499695 -188.833862 -210.856033
964.125549 -345.331482 -112.053001
829.903931 -334.035706 -200.228851
942.944214 -468.552826 -19.946028
634.525940 -477.635223 -264.778656
939.538818 -264.212494 -163.749344
907.838440 -283.776489 -190.117615
913.911743 -309.589417 -158.184006
782.948120 -296.840210 -238.522018
806.492310 -318.017914 -223.958359
936.825684 -300.476929 -143.446594
905.435364 -460.026886 -83.496346
974.614746 -168.557358 -190.127213
680.771057 -596.415649 -154.836365
1019.122742 -332.181885 -90.727013
869.614502 -311.806702 -196.589508
993.945190 -467.276489 -24.720026
998.440430 -467.247742 -26.442652
941.638916 -268.030609 -138.537231
841.463867 -309.501312 -186.272705
937.376831 -483.616180 -2.650186
676.971313 -526.033997 -202.943848
775.488953 -308.534119 -246.926788
957.045776 -477.164886 -18.210037
724.809875 -456.613007 -220.772217
676.968018 -523.804016 -210.499969
902.044067 -340.125793 -166.220749
944.669617 -406.254639 -99.736946
919.227661 -191.595764 -210.314377
665.007751 -517.259155 -209.963303
660.239929 -376.634857 -298.706085
870.361389 -448.179016 -93.031914
831.256775 -310.120026 -218.383331
913.658936 -438.686646 -94.235710
834.181946 -253.977371 -235.369064
817.437561 -253.633163 -256.613556
883.775452 -268.037628 -200.894547
748.788574 -364.768158 -236.461487
963.892761 -140.295181 -207.091766
853.537109 -261.249786 -222.009262
958.207764 -329.464996 -114.389229
760.614380 -298.090363 -270.557526
869.316223 -545.576721 -53.258251
822.873474 -301.972229 -203.561783
857.545288 -505.640961 7.666281
820.562378 -313.431641 -220.866913
975.495422 -301.158966 -99.023903
1009.872681 -267.191101 -91.360672
731.449219 -354.117249 -252.309586
680.536255 -482.516327 -193.538254
808.812866 -391.671967 -182.376907
817.434998 -448.955170 -159.092346
907.487549 -358.115234 -146.562881
980.341675 -164.202408 -200.262726
1011.030640 -195.159348 -155.976318
977.019714 -313.936646 -115.248840
752.145325 -336.303406 -255.650436
756.991760 -516.421387 -131.554291
697.062866 -425.546539 -215.900085
910.637512 -227.890549 -212.099136
624.366760 -405.977997 -301.785095
696.009033 -515.210388 -179.936920
969.029663 -223.979248 -179.595963
960.339050 -267.837799 -147.848495
721.636353 -397.550812 -259.847748
1006.840332 -200.134506 -163.332428
821.521729 -523.373474 -103.402351
950.133179 -198.113983 -189.301498
936.381531 -486.495514 -69.699211
1014.444580 -316.174347 -89.008858
698.463562 -548.682556 -162.268723
955.052979 -157.441605 -212.293396
878.007874 -541.399048 -61.594852
920.715759 -266.279999 -190.007614
877.671875 -528.480347 -29.735004
1011.314575 -333.723724 -84.408539
885.326172 -528.942383 -59.153938
979.165039 -339.899506 -103.957588
975.345032 -255.299789 -116.101532
906.079590 -346.987457 -153.825790
886.441833 -368.845795 -143.158234
714.385620 -366.174774 -264.238464
706.985046 -385.442780 -255.340332
756.828247 -640.369141 -138.729294
809.222778 -408.803314 -177.144638
772.904724 -379.284882 -202.453491
979.316650 -456.429871 -56.707996
852.791870 -530.027954 -7.562011
743.816650 -353.623322 -264.514984
646.170959 -401.957153 -271.184174
694.329041 -628.289124 -164.619629
704.179138 -653.788696 -153.026230
970.266907 -396.260895 -83.787292
1023.732849 -336.080505 -76.016045
938.918762 -329.551422 -143.353348
942.449768 -450.545227 -78.815208
962.807800 -292.454010 -143.356339
963.695984 -444.204315 -62.580650
617.632629 -440.441895 -286.492218
1024.360718 -366.346497 -52.961021
971.731018 -254.232742 -160.162048
1055.970825 -343.018494 -41.131828
1079.348389 -343.194641 -37.064293
889.667908 -337.887848 -160.560898
700.068115 -360.575623 -274.107269
832.938110 -398.034698 -144.865860
771.667542 -493.871399 -148.057953
1064.741943 -310.670563 -63.750401
704.400574 -536.367920 -163.897781
822.250610 -335.848969 -222.088455
909.550842 -294.970276 -177.122574
848.232178 -329.395996 -186.938370
1050.987061 -290.254700 -77.713562
921.954285 -408.057129 -98.188446
904.084961 -335.754974 -148.296463
764.773193 -360.518463 -232.303314
658.772949 -466.620789 -255.132858
684.249939 -470.445374 -223.853836
946.524292 -477.934418 -44.495712
906.591370 -267.514587 -185.774811
709.145874 -458.559509 -201.974503
695.320679 -508.726837 -195.599213
944.705017 -321.314056 -141.937241
950.707764 -379.195282 -104.061241
1016.760315 -229.601578 -136.669632
917.744507 -396.402008 -111.690468
986.120667 -321.611053 -97.331154
1002.545349 -447.870270 -42.815430
785.290955 -378.984650 -206.234192
893.627197 -185.751862 -221.541718
908.779236 -190.310059 -231.361191
825.691650 -573.166138 -66.368500
941.826233 -471.579651 13.514635
1013.002930 -265.933014 -125.769661
913.809753 -370.148590 -124.612038
886.684875 -233.396881 -222.753998
789.975037 -339.755310 -221.769714
777.474365 -425.258270 -177.634567
785.298645 -523.585571 -136.412323
769.319458 -500.624481 -145.780792
996.036194 -282.185883 -123.596230
844.380066 -397.049103 -175.484787
931.002014 -433.890198 -81.894630
680.428772 -546.214844 -199.236679
842.147644 -570.574097 -67.819130
706.016174 -433.369568 -228.802521
852.934265 -418.160797 -143.366364
1047.410156 -344.358673 -34.502811
695.207092 -456.189819 -238.519928
903.417419 -340.087860 -156.538940
1049.031494 -349.016083 -49.668991
979.339355 -149.568619 -209.011536
1007.271667 -301.770966 -116.381279
773.717468 -346.361877 -235.226074
858.726196 -247.142227 -224.779907
653.339111 -535.774597 -221.398849
1042.589111 -311.441101 -75.767166
894.203308 -270.761322 -206.697922
822.820190 -317.357666 -217.797409
1031.706665 -235.452271 -114.174210
747.245728 -509.357666 -155.907288
855.049133 -445.429596 -137.990189
887.335388 -516.069397 -63.394421
800.367249 -358.796204 -210.903610
938.102417 -312.788544 -139.798141
772.810120 -508.980652 -138.537079
944.882935 -175.349716 -202.061493
599.248108 -424.892517 -301.548553
841.729736 -568.842773 -112.134705
990.229614 -401.753448 -75.016579
717.106506 -412.945038 -236.705276
693.313538 -478.922760 -212.511490
918.234619 -478.910980 -16.760321
1019.056274 -269.695953 -118.097137
968.816406 -471.809601 -25.393785
1061.092773 -318.671112 -56.391003
967.739319 -380.099091 -83.357628
1012.462097 -305.224396 -96.028305
1063.442871 -321.892273 -52.358589
962.467224 -187.861893 -196.504120
823.666321 -451.210297 -137.419128
1016.949646 -260.608551 -112.792671
1020.913696 -231.694107 -137.526550
716.858521 -409.218658 -206.252777
784.569824 -320.857697 -244.071152
771.260559 -337.298340 -243.154709
898.189087 -375.288757 -131.522675
910.511108 -434.020294 -87.098259
1004.730469 -164.403961 -164.139023
701.509399 -469.021179 -230.276154
834.984802 -460.121429 -140.553284
1030.159668 -208.944778 -144.151169
710.356628 -407.311279 -262.515015
840.216919 -439.043365 -148.625549
806.369568 -266.337250 -245.484207
722.164307 -561.134277 -167.043243
1059.826904 -274.921448 -87.370369
640.042969 -454.706879 -274.417694
850.416931 -557.820007 -55.026836
815.776489 -345.465820 -208.572418
895.959045 -273.990723 -205.130463
837.153381 -574.007690 -95.762535
710.344727 -417.163818 -242.378860
909.681580 -473.204865 12.823236
843.291809 -340.159729 -188.711624
803.876953 -501.722626 -112.345497
831.286255 -246.157715 -260.057922
845.277832 -546.507935 -22.542984
712.606323 -532.538940 -168.521545
671.758423 -572.250244 -158.885605
623.720459 -423.761749 -315.959137
990.334534 -464.259735 -12.845833
866.971375 -547.821289 -57.854351
724.530457 -514.616699 -169.786316
1031.087036 -330.888672 -80.261055
673.280212 -528.762756 -204.299255
957.113525 -475.885132 -28.808058
768.348816 -603.880127 -131.569717
758.612976 -438.778717 -178.711258
765.836365 -507.657715 -131.632187
1029.680298 -214.941208 -116.744843
779.061340 -314.725403 -261.430176
693.510376 -464.848694 -195.823715
913.879578 -474.571442 -2.263719
806.549194 -587.565063 -91.914047
965.987915 -199.145401 -194.612961
788.237061 -386.876068 -213.441315
995.450745 -376.017426 -68.119270
673.261108 -470.632446 -250.998352
742.421448 -521.398987 -169.147614
657.636230 -500.035370 -221.691925
714.149658 -418.061432 -251.637772
689.766907 -503.983795 -197.920715
659.165527 -377.884430 -293.945221
757.463623 -368.134186 -247.158371
999.987549 -465.393341 -61.658554
751.765503 -420.657715 -225.548126
688.336731 -431.182159 -255.822083
743.673462 -420.552704 -231.223526
968.370361 -297.519745 -134.374619
941.261658 -242.324875 -153.224548
834.907776 -494.663910 -113.228706
742.485779 -481.522858 -181.570175
803.665344 -264.535797 -259.470917
941.978516 -329.327148 -144.193329
685.585388 -404.030243 -262.419098
1006.368225 -154.041321 -166.247955
976.040955 -459.291473 -4.940200
1087.751343 -394.644257 -37.257042
1053.893311 -332.704498 -48.958477
929.103271 -325.680817 -138.647232
950.736938 -310.733337 -144.547897
1003.871399 -361.559479 -49.418396
1028.680176 -242.466339 -121.021194
972.778870 -482.222748 -39.812439
1001.885010 -114.591499 -208.752289
947.735168 -308.778961 -147.417801
811.634888 -278.451813 -243.255554
966.209534 -382.297577 -67.702682
644.573669 -491.614105 -251.564163
942.151001 -191.501053 -210.339035
1007.040039 -245.590744 -124.211388
601.736084 -417.741913 -291.521912
696.712402 -595.806885 -155.299469
817.031372 -270.845215 -244.156143
756.199097 -384.763184 -227.949234
905.627808 -241.218536 -204.031082
924.023499 -394.904663 -105.903015
779.850281 -407.995544 -213.566330
883.106628 -281.293640 -202.938278
1039.917725 -348.639038 -49.302711
786.179810 -456.542755 -151.217804
683.952087 -605.679565 -164.549850
973.186340 -358.861206 -91.736252
970.748535 -280.260345 -135.606125
623.337952 -424.437012 -309.123535
900.926392 -193.035767 -208.302597
957.383667 -254.484787 -168.668793
766.985352 -400.093536 -204.784149
800.671631 -450.367249 -169.650040
1109.226440 -395.681061 -42.552662
862.527222 -530.888123 -28.170675
830.090942 -357.161316 -184.529373
912.338135 -377.911713 -124.297836
897.995911 -510.415802 -22.013948
889.115234 -519.293945 -83.300941
884.627014 -241.824158 -193.219604
729.236633 -501.271759 -174.184937
1041.918091 -464.908600 -54.616596
926.978699 -226.069641 -195.723495
1043.252808 -261.056610 -107.494667
686.666077 -506.740143 -199.568970
940.999695 -487.983063 -47.725040
810.878357 -416.626556 -166.056931
898.293762 -471.833923 -88.688293
1035.883179 -219.493958 -132.660355
996.597046 -173.798813 -184.615982
1100.633301 -409.192169 -44.370838
901.626953 -469.347992 -83.810226
620.325684 -412.647308 -327.182373
702.787292 -366.094757 -286.954956
672.845764 -518.914673 -227.073441
919.743408 -491.773224 -63.895233
1027.106567 -471.278412 -58.426075
889.239441 -530.304688 -50.791588
946.130310 -212.052277 -191.578415
766.870178 -338.744446 -260.923218
770.892029 -338.091095 -241.562546
893.010071 -200.479034 -240.637512
911.471130 -306.685486 -171.504898
845.698547 -293.785919 -218.169922
883.242004 -314.428284 -182.870651
905.025513 -253.227951 -192.459702
927.177979 -489.579071 -0.568953
817.521545 -303.347260 -231.233353
948.613342 -238.237991 -176.789322
876.919006 -231.602539 -221.939590
702.015381 -344.128632 -275.854065
814.104919 -367.974915 -189.624527
707.455322 -388.363922 -258.334351
966.794495 -337.548645 -104.933838
904.961182 -247.424866 -202.625580
904.048096 -405.875488 -114.718445
886.879395 -395.663666 -133.620895
812.487488 -518.504578 -109.604988
1034.365356 -317.531219 -87.098083
683.434570 -525.221130 -209.452118
689.480530 -582.355530 -153.411819
993.219727 -461.806671 -50.370277
812.093262 -427.320709 -155.433838
885.156799 -267.453888 -206.080002
994.768494 -362.304260 -79.881981
982.625000 -191.766846 -154.737411
1029.509644 -231.597641 -131.803726
982.353821 -140.232056 -197.806198
739.677490 -554.725037 -143.590622
844.498108 -371.984650 -182.853058
908.789063 -179.378052 -214.403336
929.921814 -236.133820 -156.850800
871.235535 -274.784363 -201.164108
748.210693 -346.477722 -265.148010
773.117676 -326.303375 -221.263641
954.180725 -176.100464 -210.241943
830.284607 -465.332489 -133.182510
647.672180 -435.710632 -238.905960
674.734985 -367.090820 -307.595215
990.745178 -464.159882 -15.654256
622.869263 -435.695526 -306.800873
1009.304382 -341.515076 -65.798897
676.100220 -360.481842 -291.860321
661.036499 -463.661652 -239.382782
878.796997 -375.239349 -163.678528
653.729553 -504.413910 -237.140503
992.704651 -367.136444 -53.914379
977.081177 -325.824280 -103.892204
958.136841 -397.092590 -81.361725
772.884521 -344.360413 -228.799164
650.726929 -444.591705 -259.913879
915.560059 -420.675385 -95.173874
821.305908 -331.074554 -219.455261
702.071594 -355.719086 -276.072388
1019.386841 -271.387665 -106.183830
778.064636 -312.790649 -226.583298
992.211548 -459.415558 -28.801514
754.302979 -422.524658 -183.290237
930.689941 -256.386047 -180.523300
801.823059 -350.498810 -215.353607
997.253052 -280.839935 -123.065247
721.208984 -418.837219 -248.356522
983.279114 -151.101196 -178.726044
848.095520 -531.067566 -110.311508
831.536194 -549.296936 -51.858295
888.957275 -426.622772 -120.982758
905.080811 -199.465302 -216.413605
969.046936 -402.582153 -73.874069
720.380554 -373.376770 -263.826477
784.628601 -330.926117 -238.033005
986.317932 -457.829712 -37.120625
860.669556 -539.770508 -47.886650
764.608887 -532.130859 -129.485504
817.583069 -444.857697 -164.459778
1032.596313 -464.816803 -62.502052
718.332397 -470.078888 -222.170731
622.311951 -428.417908 -290.341980
774.764954 -433.765778 -180.360718
1013.294373 -245.620880 -134.692444
944.709961 -342.051514 -120.994644
994.690613 -310.869873 -119.762901
768.681519 -342.162994 -257.628235
970.285461 -467.050415 -59.073341
1030.133789 -329.629608 -79.627281
843.751038 -411.191803 -128.176651
794.983154 -328.356049 -227.641434
1039.542236 -264.443146 -108.402145
986.664246 -291.405273 -126.772469
829.037964 -495.999451 -116.669403
684.352722 -555.079468 -191.688934
698.757080 -511.944366 -187.967667
709.619446 -543.308228 -164.303955
807.357361 -472.666351 -154.243073
786.092834 -288.192200 -255.458099
996.012024 -292.910522 -123.591118
894.298645 -310.896576 -173.785416
816.560791 -442.094116 -129.824829
999.178223 -240.684036 -110.354088
921.168701 -333.511932 -142.746170
727.860535 -581.207397 -140.270111
839.243958 -442.642181 -153.492218
829.751038 -299.420471 -212.440796
932.773193 -273.857666 -175.098862
836.158386 -445.260254 -150.909729
738.338074 -426.409760 -210.837128
923.596069 -199.405060 -223.359985
988.117310 -283.214050 -111.251205
1023.054138 -250.930527 -114.702225
924.505005 -222.486252 -200.795944
910.785645 -377.745453 -132.093307
821.382263 -446.211700 -157.296951
652.484009 -531.694519 -208.966568
914.833496 -344.047607 -138.679733
655.499390 -452.339294 -254.476059
759.933350 -401.067688 -214.947830
878.120117 -230.794357 -229.252930
907.025879 -193.666367 -218.220764
1019.271790 -191.251419 -156.904282
831.882751 -563.285339 -50.984386
987.098877 -205.296646 -140.709534
1006.527771 -322.149445 -90.588646
934.047668 -385.634277 -93.230904
662.362427 -379.577393 -261.761292
988.438721 -284.545532 -129.154480
822.099792 -356.368652 -198.382339
649.351807 -462.785217 -267.238647
941.212280 -266.659943 -173.927490
682.940613 -360.451294 -306.650909
1059.935303 -347.058014 -24.518545
667.203247 -554.193420 -187.128693
939.015320 -234.965317 -174.517242
879.901550 -374.140137 -149.527435
862.493652 -468.794800 -104.376083
835.490723 -227.117752 -240.126633
969.579712 -468.364594 -46.369938
759.156555 -338.623199 -261.535034
738.279053 -320.362762 -266.638550
895.425720 -299.683655 -176.564545
719.927979 -361.054199 -284.401001
936.736511 -471.896515 8.031972
1119.251709 -333.953888 -36.652313
704.828125 -438.314911 -215.729309
1106.858276 -342.503357 -31.320339
921.181213 -427.932861 -98.103310
858.848877 -224.175980 -211.595764
1004.190918 -158.404755 -179.121231
826.255920 -247.396652 -252.687241
792.911987 -458.196930 -154.058701
750.649048 -310.200775 -286.753815
805.171814 -407.245483 -156.235260
914.426819 -328.521576 -157.892197
1005.755432 -218.748642 -114.830681
1012.160156 -255.123474 -125.433853
1022.068726 -363.628082 -57.112671
862.553833 -546.930847 -87.353004
632.850647 -443.952057 -298.218903
948.721069 -377.661499 -99.488785
857.038757 -288.352142 -223.929550
963.107788 -377.936340 -87.159744
739.596924 -403.703369 -222.271805
1045.003052 -306.234070 -81.077202
662.784485 -409.190887 -257.646698
778.794373 -371.606842 -217.035141
978.417358 -406.077881 -68.061272
866.929749 -496.748383 -107.669853
1061.030273 -255.028702 -80.767143
788.025940 -271.473572 -256.706818
1016.698792 -353.576660 -53.595409
856.389099 -410.333984 -155.321243
909.754883 -496.492218 -39.310085
849.116821 -548.177917 -30.488670
1004.330994 -251.289505 -124.429947
897.071411 -212.134705 -225.026932
850.569580 -391.479736 -133.974106
736.279480 -476.679504 -189.263229
951.502869 -281.798279 -151.413116
888.569763 -515.423950 -43.152485
850.797607 -568.120239 -82.543930
855.103149 -420.590942 -127.823181
884.633850 -433.242859 -107.437744
968.825317 -178.268799 -200.830994
847.765259 -414.165466 -145.130905
