ply
format ascii 1.0
element vertex 1411
property float x
property float y
property float z
end_header
-698.618958 101.761017 776.195801
-643.484375 -147.339310 600.705078
-630.830139 -202.993271 547.519897
-517.133789 -189.534576 623.158447
-839.925964 -46.673431 595.976685
-705.721558 109.082565 782.881470
-852.770081 44.422344 624.076965
-844.917603 -61.311852 583.951782
-555.997375 -161.460846 626.753113
-575.301453 13.028129 749.674316
-548.425354 111.385674 832.223267
-586.923645 74.206825 794.588928
-861.532593 -5.245705 616.759277
-841.020325 16.267216 580.264893
-588.874207 -237.907532 543.757507
-654.025635 93.989838 758.047852
-543.784607 -66.277031 699.104675
-662.468933 152.082382 811.219238
-534.637268 -156.376984 620.271484
-677.710510 48.152901 734.429688
-733.022400 94.336349 756.563293
-753.804260 -145.521393 558.921875
-563.959229 -84.576759 656.006165
-793.753235 -54.765476 611.274292
-588.878967 146.874771 839.813721
-615.162720 -72.537430 679.406555
-773.215027 -19.131815 659.149841
-511.369507 -247.915054 540.727173
-572.214844 -123.033882 650.391724
-652.838928 -188.082993 565.341125
-700.510986 99.525620 777.298889
-561.856262 15.686870 749.961548
-845.930420 56.395042 621.560242
-543.788635 -14.046710 745.182922
-621.493958 -6.224414 707.940857
-532.836182 -17.683659 735.410767
-706.723389 20.147480 677.129761
-668.499207 137.815765 820.050842
-841.684937 -18.614372 533.544006
-836.987061 -95.859772 567.379395
-640.256470 125.617950 821.128967
-684.239075 88.280815 775.625671
-586.381470 32.451283 755.307861
-521.452393 -70.880142 703.564270
-850.517639 -9.315048 566.883362
-727.836853 -61.629253 626.399902
-680.697388 129.037888 773.020264
-586.978882 -13.521750 701.237488
-577.409912 -237.868210 546.571106
-702.895630 42.229839 729.399841
-698.098328 -80.613678 632.541626
-564.318909 -27.663675 715.868713
-671.632507 -78.148148 635.745056
-704.648926 123.765350 798.989990
-520.245483 -101.806114 660.337830
-582.322144 137.416412 828.438110
-803.393127 -161.814194 531.920593
-838.513062 -53.264626 606.815308
-762.580017 130.009048 771.983704
-750.021790 -43.491783 625.769653
-569.314331 -167.821381 620.646179
-841.107544 13.499480 558.244873
-703.889587 -148.486649 576.201416
-563.891357 -127.267288 651.797119
-691.025818 117.881927 764.483704
-561.627747 -206.143097 590.463928
-606.283142 60.881863 742.524170
-857.744995 -32.384857 571.077271
-722.896851 37.091221 708.090210
-596.528381 58.441582 766.166260
-527.724548 -246.196304 554.179321
-535.609314 21.101049 778.421143
-842.740784 -27.393616 593.990295
-637.542175 -15.064963 669.596313
-744.927612 -47.826450 621.919312
-658.938599 -4.519930 695.179138
-610.934082 -219.811646 522.861633
-664.201843 -11.239812 692.689392
-596.359009 147.440262 836.332214
-657.894409 -24.466341 688.188293
-622.094055 124.921944 816.668457
-845.763550 12.938815 559.126892
-769.816467 105.707237 749.807190
-712.847046 -238.973709 505.978485
-576.233643 139.573898 850.738159
-588.249207 -143.336853 610.163025
-855.106201 -54.016754 549.653503
-600.263916 -72.359459 668.902405
-587.708496 -90.372162 643.104980
-882.447327 97.938568 780.156555
-847.112793 25.297623 648.961426
-726.917175 -239.137527 478.057831
-584.442261 71.111481 786.713745
-881.678345 48.895432 736.950256
-691.824585 -148.463333 563.323914
-654.447998 -131.528488 599.594849
-721.737305 -244.027847 484.267792
-760.297974 -239.866867 481.186584
-655.644470 -72.061584 643.222717
-635.347168 121.833839 778.916748
-577.587646 10.044647 755.962524
-625.430542 -63.206635 665.193542
-730.029907 -115.517059 555.393250
-718.865356 118.689941 788.773926
-828.248596 89.816330 729.233948
-689.401306 90.110031 780.731140
-664.585693 -67.135002 643.107544
-581.521423 -82.435898 668.953796
-867.208923 67.719070 685.223755
-853.729248 -78.161331 561.893066
-802.483887 126.507774 748.903381
-668.971680 -228.134277 530.804626
-663.794312 -96.500099 625.794983
-608.192200 109.559418 815.569031
-670.251526 -237.335968 495.135834
-601.485596 -250.152069 516.182861
-542.296997 -105.191414 639.295654
-561.762939 -229.554062 544.836792
-660.915649 105.122292 785.979919
-536.702087 -232.730621 569.263611
-647.849792 59.548355 768.578735
-801.693359 100.509544 731.516785
-675.570801 74.986580 747.755188
-745.756348 142.101181 786.457703
-599.001465 79.257133 798.950317
-847.732422 -81.170593 535.424866
-644.345032 -207.287735 553.209961
-607.046326 55.741650 773.651367
-535.398682 -14.991363 750.565552
-721.473633 -114.769470 575.358459
-855.039795 -23.163036 592.603882
-654.285278 -56.408779 671.809998
-775.644348 -38.628155 621.328430
-628.842834 -111.807213 620.842346
-612.038696 6.367887 731.268311
-541.826294 -39.162663 730.178467
-622.938171 83.081841 795.590088
-752.217529 -99.917038 593.696716
-766.036499 -58.113194 622.021790
-565.608704 35.311272 770.941101
-875.774292 105.856636 759.651855
-842.468567 -6.488890 599.592468
-539.577271 -102.987343 658.372986
-783.113464 -201.966003 482.386017
-791.807983 116.522942 742.532166
-526.296265 -275.754822 551.308716
-685.492432 -130.150986 597.241760
-560.940979 -121.479858 637.188049
-719.013306 115.084160 779.692566
-536.104980 -195.930420 587.860229
-688.473999 59.326519 750.230225
-661.356323 -0.556838 699.245361
-851.734741 -26.045717 601.879028
-611.225647 -174.782410 592.928772
-572.893188 70.939957 808.951660
-586.376709 -87.435860 677.442444
-742.299316 113.414398 769.266113
-681.033936 -223.950958 522.676819
-628.732666 -213.760757 537.811401
-773.211304 -188.640182 506.215729
-713.477173 66.032509 731.849976
-544.776611 -238.232315 552.573486
-830.397278 -13.010273 652.949219
-533.690491 52.706371 787.669312
-850.425354 -35.434879 584.337585
-567.413818 41.480843 775.305725
-770.623474 -119.490952 553.561646
-633.707642 -134.223953 599.981750
-858.791260 26.766111 633.696533
-629.820496 -127.261826 613.676636
-852.442993 -80.310890 547.967957
-816.109741 -64.444695 609.303589
-747.294312 -230.345139 472.734100
-518.636780 -121.345360 635.973206
-531.229980 -252.591812 546.829163
-782.496033 128.083725 736.712769
-661.189331 -206.191895 526.035156
-693.910278 -9.917658 696.121094
-765.431763 -137.986481 554.196716
-612.972778 -125.252823 636.589722
-604.869751 3.343709 741.698914
-754.306213 146.610397 779.755981
-711.160828 -174.999496 540.187256
-856.524963 27.174210 597.533569
-642.583374 -238.382843 533.882751
-853.110779 77.983810 613.850464
-566.059570 -42.990299 708.906921
-837.435425 -2.394708 543.513916
-566.408325 -135.221207 643.093506
-711.875183 15.338101 688.017578
-572.689514 -17.675468 729.265381
-764.507996 40.784943 704.502197
-643.773621 -59.721146 671.627258
-803.341125 -44.244228 622.724182
-643.829407 -144.098938 587.146606
-739.171143 39.331764 712.599609
-675.443237 -146.853943 571.261719
-642.383972 11.851978 695.332275
-791.154358 91.992996 727.278625
-747.917114 -102.944405 561.281372
-849.323242 -52.942852 619.075745
-746.412048 -100.908264 598.536682
-672.950867 -18.578970 697.596497
-614.575073 -210.662521 542.275269
-548.992493 -173.065048 619.274292
-827.641602 -6.073313 656.103760
-555.086792 66.148346 775.692322
-612.666138 -229.002075 553.472717
-685.968689 -97.744995 612.189575
-526.150818 -122.409973 661.979187
-842.577393 -9.935485 539.413635
-636.959839 -151.038330 586.053955
-625.189087 -55.093281 686.411804
-695.995422 -99.676971 608.047546
-523.509949 -221.937851 573.341003
-601.301880 -194.890030 562.973389
-715.222046 -107.354492 593.356506
-776.844788 149.626480 787.729736
-843.510681 -50.763599 554.170044
-620.556458 92.461296 776.994995
-647.563416 -69.282555 666.346375
-565.257202 -224.223419 562.053772
-751.354126 117.895187 764.291809
-563.545288 -81.677811 640.552429
-772.279297 116.512749 764.659180
-528.001709 -164.408371 627.088623
-797.872559 21.050936 662.410095
-847.425598 73.148155 607.631531
-689.318481 -139.286026 572.830505
-624.749634 96.905380 772.055786
-654.750366 -122.271988 618.839966
-802.592468 153.486053 748.019104
-740.360168 132.903336 774.903564
-583.837219 96.921349 797.702087
-674.660461 -105.741356 625.377930
-651.255371 -78.305244 637.173035
-778.048828 -38.583344 635.614014
-695.772705 65.326454 745.482605
-777.054932 98.891968 751.038147
-637.249756 -227.481277 501.837891
-622.038269 -18.921717 703.819885
-658.220703 96.434372 779.810486
-730.110107 2.287177 685.988586
-649.479004 -132.370270 601.404114
-570.197388 -32.836979 729.175903
-764.551025 87.511429 738.873413
-672.003723 -46.027843 640.211365
-841.471130 -20.004963 586.184448
-845.432068 43.512661 611.255859
-618.162964 58.570328 760.840698
-608.304993 -204.783157 553.755554
-579.583008 100.813194 816.684082
-612.046387 -152.802246 585.776367
-540.578491 -173.165451 600.323547
-803.916565 28.112644 678.078979
-684.736389 -174.019714 563.297180
-736.335510 -43.723858 647.106262
-794.263916 66.199387 711.940796
-542.388855 -12.813899 737.624084
-707.395081 -178.215454 548.551758
-711.029968 -120.568504 596.123108
-571.243347 -90.397606 668.115295
-555.666809 49.937172 777.777222
-711.807922 -78.442123 631.604492
-872.009460 123.620270 783.577209
-577.007141 -220.652725 547.688843
-610.641296 -66.333153 684.273987
-612.214722 -1.044699 727.487854
-711.711975 3.843394 685.930115
-684.557312 -19.922222 677.774536
-652.972046 -82.387856 637.768555
-554.582703 12.703234 751.106140
-763.880249 -165.429245 517.477234
-855.397888 19.424183 633.301636
-511.894409 -133.897690 651.997314
-577.798645 71.832657 801.920105
-751.134888 68.929146 737.141968
-702.520142 -174.571426 540.540894
-807.390381 142.557297 773.816406
-722.189392 -158.967316 527.755920
-760.232666 22.873148 680.144287
-600.110474 43.028622 753.209045
-723.441101 3.355601 689.552856
-711.943481 127.146927 764.071838
-644.947083 -110.056091 619.933044
-599.581421 119.526741 824.418579
-760.223083 -103.195808 587.276978
-584.979614 109.602310 822.504150
-540.291809 100.201225 830.194336
-757.026489 141.023911 786.769409
-643.483582 -120.347786 612.685852
-701.186096 102.270859 776.904541
-849.298706 -32.067638 534.680420
-851.623291 -1.626886 549.231567
-559.343750 57.983074 796.601746
-642.324036 -97.135239 641.950684
-548.532471 -60.538635 682.076477
-674.242615 128.304260 805.429077
-867.254272 96.246391 720.582764
-623.302368 54.841236 772.325867
-576.645264 -237.424698 554.594849
-762.515503 150.708221 792.268127
-664.577942 -38.720749 673.121033
-846.748047 18.173412 646.578491
-623.825989 93.985649 791.214539
-682.911865 77.420074 767.948914
-651.932617 87.881729 791.390137
-567.032532 -231.362061 565.117615
-636.944214 -4.287818 707.802429
-864.243591 35.634850 709.722046
-659.836731 -105.158875 594.130737
-632.573364 74.710747 755.212341
-764.403625 103.468407 752.778992
-605.792725 15.436233 737.204651
-853.610840 -157.170807 554.166382
-607.663635 16.326361 730.268799
-874.825500 63.266762 685.370422
-878.732178 60.423416 698.986023
-855.322754 125.357430 790.156006
-556.134827 72.242897 780.212036
-541.901428 -52.092350 684.799988
-864.610596 61.339756 624.752380
-856.277466 -5.420676 572.026001
-585.166504 52.943687 787.674377
-617.926392 30.117023 744.984436
-667.455566 -180.840271 569.291748
-722.901917 -203.673569 518.424377
-794.097351 -66.697426 595.266113
-618.919495 0.568915 720.311829
-625.392029 0.327747 716.390503
-652.128723 -77.588104 657.206299
-745.494568 16.894278 697.273499
-693.371338 -114.729698 597.375366
-845.095703 -77.638390 564.176575
-667.415344 136.010818 804.086548
-617.578491 54.195599 768.680542
-878.417664 52.925060 676.574524
-856.838806 -134.816589 560.372192
-855.846130 13.886967 571.824280
-624.636597 -96.684265 651.562439
-597.558533 72.972008 790.234924
-851.504883 -63.473999 548.779053
-504.522766 -257.123016 557.831299
-551.804260 121.177612 863.634338
-689.691101 -246.425323 501.467255
-840.393311 16.090302 633.901855
-626.485535 -112.399765 619.698120
-882.788025 61.022240 757.094604
-744.929626 52.109871 711.693970
-570.304504 -34.485119 714.246582
-562.639954 59.090103 781.114929
-848.422546 -26.269629 633.626648
-722.231567 -122.741264 570.585083
-703.558655 -119.294601 597.718445
-561.133423 98.588005 827.528320
-592.877075 -24.401211 678.885986
-854.464417 84.557755 726.988892
-795.410217 -156.192764 525.909668
-627.548950 -27.446836 687.678955
-855.961670 62.379105 617.445251
-671.297546 -198.724365 548.812561
-756.178528 53.126976 718.053650
-701.270020 -241.593964 501.986176
-854.591858 6.333044 582.654480
-754.861145 110.162178 759.945068
-563.473755 -4.733582 733.746521
-846.140076 -92.706619 537.974854
-742.331726 -27.752508 638.862122
-625.598877 -28.687119 708.509399
-689.890198 30.286264 720.274536
-672.416443 46.759148 735.331360
-677.421875 83.816505 775.656250
-734.225281 -199.979858 525.096313
-704.515991 -95.688240 609.186401
-863.795837 47.904396 651.792542
-604.926208 -40.437290 707.965515
-704.631470 -152.902664 572.348755
-535.223022 -113.108620 655.548889
-750.033447 45.407940 714.266296
-590.384521 -165.262161 591.752869
-614.739929 149.205597 807.046814
-721.433167 -173.371735 536.159912
-622.833923 7.249145 737.216980
-590.456299 94.541603 785.152771
-679.629578 105.762085 789.119507
-742.570862 -176.400131 533.843628
-644.680115 -48.878784 679.677185
-622.657532 -180.537399 566.748291
-608.591919 -243.132721 512.326721
-814.163025 85.318985 714.601440
-578.625732 -35.999416 674.855713
-759.904846 86.910950 742.522339
-639.457947 -73.435928 648.013733
-612.796448 75.033875 774.544678
-726.101196 -179.851334 520.536194
-586.649658 -194.219772 583.391357
-843.298828 -1.432064 593.112122
-565.683350 -115.700981 646.240662
-599.791748 -67.746353 668.407898
-743.815857 -113.274567 571.610718
-601.887024 -107.886398 640.293640
-538.316528 -55.588108 705.110962
-550.800049 -183.020569 617.332947
-852.152100 10.793476 613.010986
-569.447205 78.165207 805.689697
-658.056213 -134.171967 589.217224
-652.980408 -109.778397 629.901001
-819.124939 138.156540 741.902344
-544.872253 -171.837326 605.566101
-765.769714 -107.256035 578.892090
-726.134033 -42.214989 644.358276
-611.989868 111.477516 780.113037
-742.733337 86.385155 749.575500
-846.077148 21.676212 628.534973
-667.760925 -239.789413 522.030457
-555.646790 -239.643280 560.696411
-684.970703 -61.863945 639.104248
-682.797791 -116.855408 598.127380
-566.105896 -171.692032 596.804504
-868.898499 57.116383 648.157104
-747.702148 -99.172699 596.156250
-547.413391 -144.722290 622.096436
-554.165466 -106.157364 632.185364
-637.654114 -208.335785 549.331665
-710.899292 92.341888 774.773804
-743.592529 -148.405945 555.993408
-692.871338 101.799263 771.879028
-596.290894 29.983398 761.478271
-703.226746 -46.984566 645.501160
-624.076294 137.090591 836.034973
-756.020081 58.073399 708.822693
-548.196106 -45.314625 727.886597
-658.841980 -151.726135 592.613037
-750.216125 -36.627670 624.630981
-855.765442 -34.256222 572.587158
-716.229309 -100.755913 585.092468
-626.342651 79.691505 788.077637
-535.975708 7.065743 737.340881
-580.503662 100.620842 827.125366
-736.620178 -190.942917 509.680389
-604.929626 122.436684 825.875427
-846.876404 128.472305 773.962341
-525.575378 -200.381088 589.230042
-634.515625 -126.499344 604.943726
-674.982239 40.845661 733.142090
-591.533936 -237.224838 554.288147
-623.262817 102.211700 806.418457
-581.958313 110.665649 836.419983
-577.086548 -63.348278 689.593018
-792.826233 132.925278 757.079712
-563.981689 -121.346252 656.426697
-694.048279 -72.427925 620.840515
-570.173889 -88.749107 669.955261
-762.945801 -219.458160 496.150177
-721.421875 -55.461643 644.996094
-775.555359 -218.053864 469.759827
-598.531128 106.642075 812.422791
-521.089050 -187.368866 606.602722
-673.393433 -17.205006 687.879089
-674.693176 -140.231583 565.315125
-640.116028 -193.658951 536.191040
-734.624695 1.847978 683.407776
-688.415405 -148.833206 567.751892
-672.143982 134.348785 815.067749
-605.166809 -45.635475 701.769409
-552.723206 21.937832 767.358276
-798.737244 71.060448 718.802307
-541.880188 -264.173248 537.195313
-675.236816 88.705963 779.426636
-697.227722 -63.612625 632.161316
-726.534302 143.193893 787.231567
-765.192932 -143.920212 530.546814
-578.342773 -98.017227 671.617798
-739.389160 110.705925 772.040222
-659.407227 -125.494171 595.323914
-534.702637 -246.920486 542.013855
-656.355164 -189.236115 544.901855
-691.556580 61.612213 717.002502
-700.343750 -224.249527 504.060211
-548.182556 -164.943985 626.423828
-849.944580 25.572308 623.411560
-837.307739 17.566195 670.762207
-687.992554 -164.891586 567.538452
-772.451416 -196.782944 507.811646
-869.835999 56.502090 648.520264
-561.334839 -227.777969 527.578552
-628.444397 -177.794205 566.404114
-602.281189 15.417443 743.488159
-794.690125 110.090179 751.555908
-578.577698 -229.619354 566.107117
-733.979492 -225.515488 473.714172
-732.360901 -125.268997 563.989563
-585.620483 -83.323318 666.896851
-537.536377 -109.337067 668.308777
-853.734436 -23.182373 597.312256
-822.988037 -102.862053 576.974304
-532.578369 40.779636 794.451904
-719.674744 -58.720940 636.296875
-616.125244 21.073132 742.406921
-810.392944 -67.907417 615.554077
-790.343201 -107.211960 569.702698
-600.135864 -74.468971 681.391846
-702.553711 -146.583649 559.942322
-839.835327 -55.323380 590.935730
-783.556580 87.584801 739.622192
-525.728516 -186.896286 605.163818
-681.707764 119.592369 786.191650
-689.025452 -109.914177 586.915649
-611.907349 -9.148817 718.451355
-672.739014 -172.588043 552.609863
-750.374268 -132.540100 566.415161
-843.185120 11.012226 642.409302
-628.518494 146.577408 830.842102
-742.401855 -223.868729 501.143341
-590.295410 46.754448 765.200256
-539.583313 143.293793 866.968811
-540.950500 -28.562433 722.290344
-600.672302 -251.332626 539.040649
-591.278320 -162.611374 601.291260
-537.884949 -23.081827 734.396057
-839.243713 37.451859 567.790466
-531.013428 -77.357407 679.029419
-841.265015 -28.625015 575.348389
-771.921631 -62.621590 607.891602
-845.500610 -61.788017 562.424805
-612.341309 -68.633705 660.756775
-727.186157 56.389503 712.270386
-684.683350 -82.077415 626.633789
-653.168335 -40.089336 671.191589
-755.659729 37.285442 709.981995
-689.765015 -111.020836 617.678589
-848.326050 -84.999199 548.163696
-687.745300 -98.269745 591.050903
-787.275635 -208.001663 500.307922
-593.348389 104.967667 825.590210
-688.548157 27.008211 713.794312
-751.756958 90.955589 716.843384
-596.252380 43.434883 777.245850
-674.289490 -160.095459 561.030029
-612.540344 -49.285202 685.528748
-602.524902 15.387799 731.482971
-737.100830 76.624329 747.956970
-828.321167 27.762300 677.785217
-612.390381 -193.190033 532.548767
-704.547241 1.737576 680.134949
-705.864014 -220.160202 520.709961
-701.119446 -108.691055 615.270935
-708.421997 64.822800 747.712646
-679.491455 -140.152954 582.609741
-744.318359 -109.117226 574.618774
-558.366821 59.051071 797.118958
-524.714050 -210.522491 604.435120
-732.007446 2.442377 690.854980
-835.256958 36.479195 700.127258
-578.172363 36.632240 742.711487
-555.960693 35.162338 766.139526
-633.937073 -246.986725 521.385376
-761.411011 -40.838715 623.244385
-557.845154 -210.427048 563.516235
-783.529541 51.925999 686.655701
-551.220520 113.460808 823.056946
-694.183411 -69.704361 628.252563
-611.371216 -13.634918 716.710083
-623.429016 -60.596767 664.763306
-517.475830 -143.239044 651.344482
-566.836182 -232.597885 539.648376
-582.468201 15.772375 739.044861
-633.162170 -219.167313 550.888428
-631.854553 131.393661 787.096985
-504.344940 -260.080688 562.492432
-848.784851 -38.239029 529.543274
-554.193481 -201.068787 580.122437
-532.500793 -26.829754 732.174194
-518.527527 -204.638535 591.177734
-562.297363 -22.902519 713.148865
-679.761597 -187.620483 546.165100
-620.728577 49.955597 728.008972
-768.037476 146.694168 788.613159
-844.869141 -95.836098 554.978943
-818.067383 -166.990494 539.204651
-859.249817 19.471930 665.285217
-829.033508 -61.552780 580.306885
-643.159180 -182.101151 557.284973
-665.697876 -48.815201 655.233337
-832.354492 14.897250 664.635376
-734.993347 31.327389 676.439453
-555.015137 1.282177 763.849976
-554.884827 -13.000068 728.919739
-666.480652 -4.951879 690.137756
-530.881165 -41.670898 720.232056
-569.395996 -83.153709 684.655212
-753.456482 -32.060902 640.638977
-857.583801 31.267260 589.509155
-665.153503 -204.702377 529.306335
-729.024475 121.689362 779.424561
-625.379822 36.618557 758.635254
-721.468445 -19.126175 661.501343
-563.134705 -26.273289 713.022949
-657.243774 -207.510315 529.018738
-535.849365 -150.162979 650.884583
-826.940918 26.967569 656.953918
-635.333862 -109.652504 622.082581
-743.154968 57.256947 726.986206
-578.988892 26.309319 752.801636
-548.167236 -202.347275 563.529724
-844.222168 129.518616 744.746399
-762.238037 105.711891 723.479126
-715.778320 0.100898 684.606506
-720.808533 0.023019 693.397766
-843.323059 17.353062 653.495789
-745.942139 -63.107620 633.128174
-755.851563 -178.414581 534.634644
-735.774292 39.666206 707.396851
-869.732056 61.397511 713.659302
-621.030029 -125.600868 611.309204
-671.442139 -10.401766 704.421082
-618.290649 -247.675522 526.134644
-645.732910 32.370892 730.891052
-638.718872 -121.618919 610.608765
-571.577759 74.770004 811.897583
-781.793030 -102.272606 560.513794
-646.489319 37.626259 751.153564
-735.781433 -92.059700 594.763184
-725.689697 -61.423862 621.917297
-527.024414 -161.108719 617.555359
-614.247925 -10.367785 717.641602
-613.490601 -5.933599 685.437317
-638.042786 -19.810326 709.109497
-603.558960 -227.585663 539.463684
-834.134705 -78.957283 568.468872
-560.401672 36.083008 765.572937
-698.636414 -65.873383 651.117004
-720.537354 56.967976 727.029724
-668.608276 -237.404602 494.180450
-665.451721 77.609947 780.182922
-594.526917 103.337868 798.672974
-538.543518 -106.580620 657.330811
-684.829468 -222.706619 487.284149
-557.210327 66.190926 793.472412
-686.600647 -101.225372 604.332458
-674.127502 63.344120 752.507202
-686.772217 -42.390362 668.768066
-743.800903 83.388115 755.020020
-589.972839 -171.986160 584.273315
-704.455627 -105.626755 593.536926
-718.866516 -185.435715 505.252808
-524.907410 -135.578583 659.388062
-666.477905 50.195068 743.470886
-661.174866 16.420322 729.263550
-592.102783 -228.844254 538.751831
-637.001953 -112.777100 634.177551
-616.209717 -223.994720 555.547974
-530.996277 2.093679 760.108215
-547.177185 -31.950279 725.147583
-741.235840 144.974747 798.650513
-864.344360 73.712051 656.838501
-537.691345 -63.032333 703.951599
-648.278687 -116.249748 613.387390
-834.111450 7.408296 661.633606
-758.829956 -78.732697 587.155273
-755.584534 76.163422 727.145691
-749.052368 -18.298716 643.304260
-687.847961 79.984589 767.608765
-798.370483 121.879021 757.150696
-595.867615 -145.623337 596.927490
-557.362732 -85.441299 692.556946
-550.230469 -21.861589 746.048462
-559.411133 -193.182327 585.160889
-563.705872 87.031944 804.573975
-736.319641 61.557758 723.989319
-599.017883 103.081688 821.966797
-853.170959 5.429504 559.856750
-631.807251 -145.596649 590.406677
-836.284546 22.084126 660.560425
-645.980591 -140.488602 611.489624
-738.606506 -138.176361 566.954468
-566.778870 -157.211884 613.723145
-748.216797 6.766130 686.546265
-638.140198 -152.062866 599.486633
-817.215637 145.604980 780.039307
-752.416443 103.822388 766.420471
-545.435852 -213.737656 548.270996
-694.756653 -82.997101 632.454529
-652.423462 85.760880 783.777283
-608.467102 -189.377197 566.530884
-753.046692 150.429626 788.007202
-566.760986 -86.981880 686.560547
-686.641663 82.338974 736.154846
-606.945251 38.910248 766.854858
-835.708435 -209.052017 517.281372
-608.042053 7.210102 744.317078
-589.089661 -127.073555 622.577148
-585.376404 -95.032883 656.428345
-595.329102 -73.419899 670.295471
-539.469482 -30.664381 719.779663
-619.835815 -97.492142 650.299561
-529.644836 -129.043915 646.462524
-783.486694 -99.365494 577.986084
-840.376526 -47.910378 589.706299
-814.616577 -30.459534 637.565918
-689.738586 -112.044052 610.542969
-621.948853 94.980156 802.622314
-601.516724 -137.364243 589.690552
-785.577637 -133.394592 550.064331
-571.228210 -226.830475 544.566101
-717.957092 -70.216141 639.150574
-575.737183 -81.742706 678.690063
-748.963867 -27.563585 658.817810
-849.077820 -41.632069 589.770142
-760.886597 -130.774841 545.943359
-854.526550 28.553715 636.110107
-853.071838 -5.061758 605.659729
-850.948242 -41.321323 631.244385
-635.573608 -177.502182 585.378113
-773.131470 141.670593 752.616699
-751.911438 142.084290 758.762085
-742.321411 116.960541 775.364929
-612.064087 -75.597313 674.436829
-561.983948 -20.580381 736.192627
-530.701050 -164.321564 620.943054
-529.599426 -115.699028 673.328186
-744.493042 -2.337250 664.385925
-742.990112 -145.900726 551.692200
-743.198486 -216.218048 491.429657
-616.161621 77.242195 789.841736
-796.542786 135.141556 756.630798
-581.435608 -232.489975 556.812073
-603.391296 -66.240494 674.295044
-571.151611 -42.197117 707.961487
-731.103943 -28.605125 659.291748
-543.317810 27.973085 778.419922
-650.339539 97.247505 777.270752
-831.996155 107.497284 753.422119
-655.946228 -98.796410 601.146179
-727.968018 -59.783916 637.454529
-587.522400 -4.848031 727.277222
-568.745544 -149.524292 613.575256
-633.032043 -157.792404 580.306946
-553.002319 37.132626 778.883728
-537.976563 -96.131737 670.588745
-789.112610 108.737152 744.556885
-650.304199 120.776627 800.272766
-765.145203 -159.762161 541.099243
-845.080933 9.045527 650.485962
-612.440430 -113.360313 646.110291
-537.124207 -191.827026 612.427490
-611.431824 -80.438400 671.881470
-753.352600 -55.956009 632.146729
-540.232178 -225.847275 573.405701
-591.739075 -82.600792 680.593140
-564.000793 78.460342 812.257935
-748.932495 12.107364 676.442322
-609.138733 38.602345 759.408264
-637.616821 -106.173248 624.813477
-637.146606 -5.372396 683.893555
-597.708008 -2.030102 730.391357
-854.266296 3.400388 550.563293
-883.500305 97.489693 776.151733
-703.782166 18.658115 710.139160
-665.606079 -134.461639 590.690796
-816.995178 23.131664 650.871216
-687.678711 1.914545 697.776184
-582.133911 14.771654 758.271118
-573.989685 -155.569626 628.843994
-755.398865 -70.987389 600.831726
-714.349304 85.294579 767.513855
-599.036438 95.587196 809.750793
-590.984314 60.256901 782.054688
-620.952820 69.017021 772.689819
-661.802429 -173.517883 577.517029
-682.911865 -152.155853 564.080261
-632.321960 58.149555 772.553223
-638.790344 -11.595157 715.280518
-589.897461 -53.087555 682.602051
-659.572693 -76.548355 634.263794
-688.217834 -199.896362 547.841553
-618.717834 -180.192184 586.121033
-612.954834 134.576935 836.896851
-708.480652 -229.346405 504.784576
-598.361328 -50.519867 687.892090
-859.120361 -36.179340 577.228699
-532.083313 -217.515503 593.779907
-564.010559 27.913919 772.586975
-807.963379 110.081619 736.242432
-868.055969 84.653435 748.330688
-675.828552 70.861534 768.676025
-581.350952 129.129013 822.141479
-531.394653 11.805867 773.185242
-719.290100 -119.637352 575.027039
-658.866394 -108.726288 629.884277
-731.842102 108.713173 765.560730
-750.068176 28.308439 691.701538
-695.453430 115.116310 797.612366
-673.357605 -105.568367 612.866638
-833.920471 -0.706936 650.185242
-859.983215 150.115799 803.396118
-621.195374 -104.752220 623.540771
-844.141296 -32.564266 565.478149
-714.010498 91.410149 732.909912
-845.173401 -55.458107 621.950195
-691.419983 57.761356 745.961975
-709.803223 57.242867 742.819580
-838.819336 -6.770964 632.716980
-644.529480 -83.938248 633.800049
-621.195923 -150.528275 590.671692
-567.510864 -20.356411 735.805237
-860.994690 -119.101196 561.586243
-545.960144 64.499878 772.951477
-562.806458 -264.274200 547.058228
-710.109985 2.703879 678.694275
-668.131348 -15.476151 687.463501
-770.106201 -28.055088 636.009338
-555.330383 -103.244675 674.056946
-673.276367 145.427048 806.154358
-744.906616 -172.953537 501.346161
-582.220520 -121.814613 647.775513
-588.484558 -179.510025 579.913574
-562.909790 92.731796 800.884644
-717.661499 59.177700 705.679749
-798.675232 -118.749199 567.354614
-637.538757 136.445618 818.591370
-671.572754 -170.809296 569.770630
-649.930420 -90.049698 636.707458
-608.400757 -151.366837 595.356995
-775.469849 102.163918 753.869446
-533.448059 57.805332 799.775635
-575.864990 -201.222595 565.430176
-737.931702 89.887764 750.750122
-851.354431 12.007840 654.743164
-667.585815 11.647441 719.673279
-624.081055 -228.530548 526.653503
-758.485840 111.098213 758.107056
-623.319092 -4.426854 727.773376
-844.508423 124.214989 752.347473
-835.711487 133.100189 777.757080
-674.173767 110.307770 763.098511
-721.062988 6.181757 692.293152
-717.297668 -77.367920 630.088440
-581.787292 -143.100815 591.019470
-565.099426 -72.361763 679.512756
-738.323853 -38.441528 645.604126
-736.326111 -173.232819 539.739258
-841.397217 -39.595638 589.720825
-699.668945 60.855671 732.669739
-719.188538 -216.231369 494.153198
-524.237183 -188.522888 599.710144
-556.193726 102.138069 806.078247
-657.289001 99.482101 800.102234
-638.721741 105.731186 807.494873
-728.602661 -25.356777 657.348328
-696.852356 -168.049271 544.153076
-799.439148 55.234745 710.938904
-541.186462 -243.781113 543.355713
-569.382385 34.794495 774.767944
-536.646851 -193.227020 609.791931
-677.006287 -36.127220 678.135498
-873.775085 35.367081 681.085144
-559.192566 -60.937756 706.902405
-660.903564 -112.839928 628.011780
-626.035034 3.013588 695.339722
-785.886047 123.682388 730.539124
-753.001038 0.697866 665.937012
-604.313232 92.889633 788.297974
-585.862305 -84.802368 658.053101
-841.981567 13.147067 568.756042
-861.868469 54.637115 676.514771
-670.322327 114.944633 801.681213
-646.591614 -146.970871 586.339233
-721.959900 128.754654 758.666321
-567.167053 -57.609318 698.215881
-843.092896 26.671186 660.122192
-771.219604 -211.435333 488.855438
-656.452881 88.607819 781.671875
-749.065674 106.464958 768.860229
-549.690796 117.811775 828.733643
-687.139038 -74.064278 645.960815
-759.410889 111.656212 737.508850
-720.328308 9.215974 690.257324
-652.671326 -67.670898 668.049561
-545.840332 -78.539894 680.608093
-559.981995 -195.397476 583.871033
-556.714844 -62.680874 711.208008
-760.799072 -54.184719 616.632263
-691.996765 48.010944 727.503601
-651.388550 -179.148804 577.386597
-621.739685 93.105591 792.340027
-597.914917 94.247147 816.518860
-781.307007 86.583511 726.033447
-692.244263 107.382988 776.073364
-679.113831 -96.649094 630.231201
-705.861755 36.912922 714.820740
-550.695923 47.123802 785.938049
-710.659058 -65.731346 623.179565
-833.081604 -25.317814 512.511230
-738.953308 8.550827 677.216064
-627.195801 -9.050694 678.095825
-682.116821 122.308281 805.364929
-779.313538 -84.482285 601.647705
-655.788086 -209.889099 545.958496
-632.891296 -5.487291 725.324707
-670.705261 -77.183975 650.082886
-555.536621 32.423019 760.563110
-687.564941 98.438240 783.100586
-745.721741 -177.967148 521.227295
-539.633850 72.736763 827.491821
-806.342651 -54.029785 600.075195
-844.500122 10.596126 585.504578
-510.586273 -189.860718 585.445313
-791.426819 -0.933439 667.339966
-749.408447 -117.797630 551.298767
-642.823975 -35.374725 685.011902
-823.596436 -104.487495 587.482788
-862.833557 67.040565 616.275085
-853.696167 -0.522030 587.398499
-515.122375 -137.002029 630.565125
-573.408264 94.509323 803.757568
-540.423035 -45.465118 728.567749
-688.816223 75.298843 747.857605
-558.161194 22.147894 765.515198
-775.420654 70.386002 727.897156
-855.011536 28.877731 607.210144
-638.163147 55.496372 768.431763
-576.954407 -85.505257 684.452576
-550.733276 54.771614 799.206177
-740.099487 27.579021 693.280151
-705.358765 -66.629257 624.905945
-576.175781 21.073545 749.678894
-777.663147 -46.419273 634.708313
-535.032227 72.917686 801.758728
-637.493774 -28.490210 686.810913
-763.286316 -92.685219 591.538818
-574.512817 9.058253 722.317871
-601.796448 50.700569 771.361450
-602.040466 91.037048 813.845032
-730.229004 106.985909 773.423645
-682.664551 78.582840 768.726746
-632.181519 -207.099136 564.583069
-693.379333 45.578865 723.044067
-531.914673 -193.688110 580.026245
-735.348389 83.986900 728.905090
-847.996338 38.842587 603.274231
-541.614380 -161.842987 633.929321
-620.234863 12.859491 729.534241
-761.451965 138.550797 780.399292
-863.685852 54.276394 691.952332
-649.831726 -166.463089 584.401306
-723.429321 73.197212 740.397705
-702.394165 21.921955 719.862549
-576.456421 13.458966 753.664307
-755.975281 -78.150101 591.851624
-726.259399 -45.916172 649.983337
-556.686646 -187.361862 590.950195
-792.061401 40.934925 692.948303
-573.283875 -7.864921 743.467346
-846.409851 11.018402 657.738647
-699.953857 -18.996817 671.281250
-682.371460 119.227928 770.973816
-589.118164 37.717525 758.397949
-698.084473 114.699509 779.733582
-675.980164 -211.412354 519.513611
-630.817932 -6.186171 679.085876
-835.210938 -202.625458 527.391785
-650.507019 105.827087 802.317871
-695.448303 -185.728165 540.687378
-861.240173 54.450752 662.115051
-600.887573 16.874689 717.179565
-714.577332 67.292763 752.598206
-650.191711 -60.918381 634.611145
-713.007629 -12.959806 664.585205
-841.148682 17.920004 575.012939
-676.862732 57.427528 740.970154
-580.619141 33.166744 760.242249
-869.449219 93.576401 736.712524
-656.973938 -153.916534 573.628174
-844.184692 22.973869 598.321228
-834.256836 13.432012 531.522400
-638.376953 125.394890 799.905762
-647.124817 21.228691 700.916687
-829.620667 50.988548 709.732178
-626.738159 -259.553589 524.030334
-597.115906 -15.429327 716.406738
-682.697632 131.576904 808.226929
-600.445618 41.560677 768.882141
-729.112976 -175.616302 541.332092
-866.866943 41.378716 639.563354
-537.030029 43.447617 786.193237
-691.386353 -111.155396 614.430176
-598.940613 -13.457108 720.820068
-745.199341 8.393518 672.279053
-552.912964 38.179768 777.949829
-838.750854 -208.122452 526.164551
-725.735474 101.385094 761.754822
-508.445892 -184.543869 622.522949
-684.040649 -69.989891 631.443726
-563.392883 -216.840195 577.826965
-671.977356 -49.241566 671.010925
-549.925842 -268.250305 539.200806
-856.459167 140.144501 788.514221
-711.416626 21.975016 677.011047
-581.817871 100.360054 805.252991
-603.778320 -116.678101 628.311768
-779.865540 -51.440201 623.055420
-670.024719 -149.368240 571.986023
-781.475891 119.918991 727.837463
-594.734741 -22.153057 715.503662
-762.864685 47.666889 687.679871
-544.153931 -129.843842 650.518799
-602.935181 -58.638027 654.363586
-781.258972 93.449013 737.086121
-531.301514 29.040634 746.690735
-644.482666 -54.513847 667.832397
-735.960999 41.442989 696.626282
-641.977356 -2.972704 706.802429
-867.966675 76.108833 684.842773
-816.383606 -110.526306 550.510864
-597.580139 -108.765633 634.588379
-558.856567 73.162079 810.400696
-699.791931 -24.102676 665.598694
-600.237671 -34.674965 700.122131
-702.541382 35.236088 692.585571
-536.779358 -224.350937 566.051208
-600.129211 -191.384460 565.070129
-680.104004 -14.202433 694.343994
-590.748779 12.260006 739.495117
-562.748718 -165.110321 602.774841
-774.129700 -83.932419 595.473999
-697.740601 -149.526749 560.287048
-849.707214 -11.150864 583.679871
-564.554626 24.152813 769.500793
-546.734375 87.429077 797.453918
-692.434021 -35.238102 676.037476
-680.256653 -170.529617 549.013062
-548.603394 -202.437256 573.026001
-626.499390 -199.577667 572.560852
-562.453003 75.926231 810.127014
-597.616638 -97.395721 658.405090
-862.143372 23.989573 659.971680
-748.809753 -159.112503 550.387939
-622.592896 135.474777 793.252136
-652.650818 27.468092 727.710083
-607.164490 -60.740162 676.074951
-727.364441 -243.097717 497.873016
-532.651550 -63.355824 700.242798
-750.136353 -9.751825 649.378479
-559.854980 47.704659 769.769531
-757.691223 -87.803467 602.115479
-738.213135 34.075695 707.582581
-739.796082 -192.045975 509.643402
-763.425842 155.435211 797.433167
-669.908325 131.136261 803.320068
-613.145813 136.307098 816.998291
-648.725586 66.322884 768.148438
-645.200867 -178.572617 558.694092
-688.350464 -46.176224 651.533569
-610.192017 -156.766220 611.207764
-612.242493 -206.464401 560.029907
-771.665955 1.940007 659.518494
-856.329651 5.107529 569.467163
-848.452576 -170.334259 555.618286
-528.837585 -87.754631 661.742249
-644.704590 -112.318733 606.473206
-660.665405 -134.564209 578.864746
-732.225403 -183.750595 540.664001
-698.088623 95.118187 781.751648
-509.927917 -265.861938 553.900879
-760.328735 -51.760345 615.182495
-817.299927 133.217468 758.501099
-730.440247 -210.030426 479.821136
-627.418640 -104.382996 632.988708
-851.771423 29.786217 646.215454
-824.410767 -67.029678 599.975159
-715.036316 -29.110916 667.449158
-633.703247 -57.627277 660.904602
-638.478455 -232.281601 512.675232
-762.017700 -61.543907 605.167786
-816.993591 47.776196 690.770996
-678.445129 -217.605652 528.531433
-767.373047 -53.238895 632.664124
-577.503479 -221.178848 545.776306
-681.439270 -145.775528 573.893250
-659.122925 -186.472916 537.461487
-642.533752 -251.560913 524.387268
-848.434082 29.745634 576.428589
-777.152893 -60.667496 588.473694
-646.736511 97.092781 797.003113
-571.649048 -79.252899 677.862793
-654.123352 -172.820984 566.327515
-738.581421 -188.718231 502.619598
-511.981781 -223.065842 592.894348
-590.694641 -120.943481 634.489197
-843.010498 -79.888779 521.135498
-836.636230 -109.483116 553.225220
-634.337524 117.478790 819.421448
-764.846375 -20.436239 633.822021
-543.689941 51.409679 808.218994
-718.160095 -157.988510 549.903198
-682.164185 -80.757439 629.840942
-784.170898 -16.929804 648.973206
-644.377319 -216.757034 526.794434
-570.591675 46.178959 784.570984
-603.642395 43.075653 772.401062
-688.379639 12.502197 677.521484
-841.663452 11.263586 596.972961
-640.816406 -63.106770 656.454895
-566.019958 -245.323029 558.007141
-630.823975 72.540169 770.921326
-585.090759 23.295809 746.231934
-712.460754 34.183563 710.561279
-578.156616 -111.500633 640.579224
-596.549866 -169.114685 606.262817
-799.145020 11.928938 656.453674
-690.777466 22.661140 709.554138
-614.323059 -84.096344 655.326050
-756.227905 66.767929 735.242798
-817.478577 -157.188248 551.334900
-827.726013 -46.180241 629.450745
-768.212585 -72.576019 594.450806
-787.028748 -68.074310 602.527466
-837.275391 -65.778160 558.459045
-854.703064 83.090836 640.672546
-658.548889 9.402545 710.884888
-848.147095 45.236347 668.857483
-857.137268 35.613392 587.249939
-559.045410 -11.086030 747.745361
-608.573059 122.599716 822.934448
-606.927612 63.597683 779.842468
-732.521423 71.134727 747.203003
-557.052551 -5.983020 743.538269
-687.534851 -2.492568 665.562073
-592.349609 60.377914 786.765259
-852.638123 54.300537 627.422302
-847.345581 -93.709480 543.924988
-733.091309 150.332932 799.733276
-656.640442 -10.280791 695.345520
-642.411743 -100.623253 618.808411
-698.215820 54.305141 743.294800
-565.836670 126.613739 836.835083
-550.460571 118.898155 833.310181
-541.420166 106.211098 833.897644
-549.573608 -240.862701 545.003723
-848.074280 21.687040 691.546753
-648.907532 -143.119690 585.500732
-817.204224 -87.733253 586.601685
-541.661865 -158.260864 608.264832
-598.613770 -132.936966 617.009277
-652.960510 -37.893696 680.040527
-551.392883 -87.899239 669.975403
-610.019470 -169.000046 579.923645
-579.015930 2.343659 734.720703
-842.474487 72.320587 721.336548
-829.890930 -1.408563 618.451843
-631.376526 19.794014 706.453247
-780.028992 -165.454910 527.667908
-741.244873 40.649052 706.949158
-622.456299 -98.171371 655.554504
-613.273132 5.927734 742.486633
-616.555481 14.212277 731.998352
-878.375549 47.616318 707.115967
-545.833496 108.793678 851.367493
-673.757751 -252.948853 512.100037
-780.792908 131.384460 762.072449
-532.145874 -94.636467 668.174805
-586.045532 -199.884003 562.458862
-738.612610 -48.232265 642.269470
-840.937439 -22.284714 627.137268
-771.144775 38.378872 700.059021
-845.016357 -121.856468 534.013000
-721.425171 -62.943874 631.742859
-842.027344 14.173400 638.090271
-684.571228 132.907898 800.196777
-742.203491 -83.257408 595.633240
-635.136658 -8.369359 685.256226
-757.542725 123.514473 771.561951
-662.932861 75.202934 776.991638
-635.316467 -181.919815 577.705627
-704.900818 -34.585361 633.470886
-825.851196 78.222420 731.345215
-892.624268 70.204468 747.550720
-638.994080 -131.046402 580.859070
-869.547913 39.030914 655.092468
-733.326904 18.412161 697.558594
-585.739624 35.023270 758.042175
-645.517273 9.732316 716.657410
-835.551025 -69.760216 602.618774
-535.157837 9.466342 769.940796
-527.769165 -178.728149 605.374878
-567.400024 28.497913 767.522339
-639.934631 -94.212807 646.981750
-628.687988 77.494072 767.943176
-608.809753 85.636055 781.322571
-688.422119 -6.969406 685.803711
-853.614380 -5.463729 591.149170
-847.787048 -57.485828 562.792053
-594.236755 -199.336441 580.280090
-665.193115 -101.094040 613.615845
-698.842285 -168.932953 519.297668
-764.939636 -53.806473 596.766663
-631.810425 -136.982742 601.934692
-801.994385 48.640598 687.706604
-714.883240 115.208740 774.713928
-869.096069 122.309647 783.879089
-844.643555 -34.491493 534.536011
-848.038696 -7.572228 641.511841
-592.282166 -204.139069 568.868774
-538.784912 7.964341 756.002502
-524.694885 -95.155396 682.042542
-770.631226 19.225302 682.537720
-664.646423 -90.968262 628.042358
-680.918030 96.276588 769.344971
-709.550903 128.643921 776.470642
-530.382080 -238.927689 585.576233
-746.807678 -16.018845 671.715454
-669.906982 115.358406 767.965698
-525.050903 -133.648682 645.529114
-678.615479 -113.359741 590.318909
-736.281738 96.285408 753.461914
-532.078247 -236.708023 550.255615
-688.095886 -1.960299 694.345276
-752.459167 -14.027224 668.544495
-709.365540 0.600365 685.027222
-553.509705 -135.490173 634.072021
-659.743896 -220.016678 524.031067
-759.897278 -140.946030 551.307678
-543.937256 80.700447 787.546570
-721.636108 90.197227 758.390808
-705.766602 -179.487167 554.521423
-764.106384 68.571175 728.680725
-672.510437 24.371698 728.085388
-851.257080 3.323000 627.767639
-510.455170 -198.902786 602.568604
-726.372559 -196.636017 523.033813
-533.379639 -218.870895 593.878418
-627.693298 99.300201 786.904663
-609.934265 88.617088 771.817383
-541.536316 -125.724373 671.965881
-587.218872 4.157819 740.617493
-830.244812 19.613108 680.754395
-636.713745 -121.707573 625.441833
-732.505005 -71.115768 619.199524
-840.288513 25.719168 545.857727
-767.212952 144.680847 771.875671
-591.060791 -223.547760 555.460999
-542.610657 -160.190536 644.018860
-747.556519 -29.424847 645.816406
-693.679932 -80.348869 622.038086
-533.457458 -54.482796 714.148743
-742.283691 130.379562 779.673157
-831.618042 -32.693306 636.427307
-604.575256 146.295578 829.032410
-861.636292 83.460068 748.576782
-855.488586 34.161091 577.048950
-662.076294 54.905910 722.553223
-607.678955 47.195232 760.119080
-579.420166 101.863167 827.208679
-857.702271 66.170288 614.648254
-631.748962 -27.661243 693.695679
-730.148987 -60.110798 618.117920
-851.740601 -44.865479 565.281250
-716.420959 -155.896179 551.499084
-552.929565 -40.263771 714.528320
-671.019714 -239.201202 514.770630
-694.232849 28.357080 728.274170
-694.986572 -110.368057 609.503113
-551.817200 -59.898224 715.499146
-740.500977 136.346283 773.363220
-513.503418 -206.977982 592.928589
-785.817322 -191.624100 509.223267
-588.222717 -193.595764 587.789185
-609.707703 -50.627960 660.185425
-586.666077 -202.933624 564.663940
-687.667419 -155.635498 577.134338
-853.180908 36.462730 573.034607
-590.170532 104.164635 812.767212
-840.781006 14.250475 560.939758
-682.885864 57.782600 717.072327
-621.466431 -69.605705 649.559753
-590.439758 -91.903000 654.946838
-823.328003 -88.380135 576.347900
-848.765625 42.698017 656.404236
-834.497070 17.782593 678.157837
-642.945923 84.316093 787.305603
-635.901917 104.522079 783.846375
-609.244934 97.075356 800.720886
-833.714661 -124.093040 530.198486
-809.051331 -108.066002 568.461365
-754.020081 117.013382 765.812622
-849.675293 -55.849266 550.528381
-582.167053 113.395836 806.527588
-647.874756 60.111244 760.175415
-620.643372 95.509911 764.758240
-772.295166 58.581764 695.698792
-571.327637 -237.938934 556.115112
-628.854431 -84.487648 633.094727
-642.523987 109.503952 805.544617
-788.242981 -90.288994 572.811829
-648.958008 61.885006 762.256287
-527.814270 -180.409973 599.282532
-686.674500 71.158493 754.488892
-589.719849 -144.479782 594.325256
-610.148804 65.870911 784.579895
-685.716736 -228.496429 497.006195
-844.419434 24.830566 577.315857
-703.510742 154.770630 814.431580
-786.730225 -225.926620 467.140961
-665.237976 116.276627 806.379700
-849.610596 -18.846766 565.209351
-600.939514 -29.098902 707.340393
-807.347656 -184.601288 505.886780
-648.839722 138.981384 816.945007
-574.120056 115.647293 817.657898
-658.434082 5.894048 704.663574
-538.421021 -209.131042 555.320923
-577.056030 84.413719 811.017883
-552.328003 -138.944611 640.441223
-538.297241 10.158937 758.337280
-727.947693 90.875931 753.140381
-530.355957 -80.179749 667.540527
-514.463318 -231.056778 568.133728
-849.701355 -54.812679 555.922058
-848.588867 3.724006 603.514465
-835.856628 21.116110 534.203918
-600.535950 21.241888 743.463745
-730.143738 -49.377941 636.279236
-617.149109 -181.258148 589.804626
-623.620850 4.510180 720.519836
-539.891174 -224.716309 562.551331
-823.933289 3.320488 631.837830
-809.100220 111.349289 742.720032
-857.080566 -149.091995 556.184937
-656.557495 148.666702 823.849548
-848.885376 41.795399 598.059998
-729.942749 -123.534096 583.012817
-589.157593 128.868271 850.404419
-843.502319 1.534221 603.629211
-723.504944 -133.047867 549.982727
-614.339111 -52.947475 672.588196
-538.111328 22.322916 766.166565
-714.111389 -23.794249 672.839722
-585.686523 -192.262970 569.626831
-857.302307 42.310417 587.185425
-848.668213 -97.966942 571.225220
-678.099182 -109.789711 601.413452
-547.460266 8.849019 757.343811
-652.915466 -16.773310 702.513977
-851.426514 17.798231 633.666382
-701.569519 -209.663437 493.628357
-624.822815 -49.313129 678.143921
-729.718994 -63.443840 610.382507
-767.503723 53.663086 709.107727
-544.288391 -111.613884 652.450623
-615.882813 50.271034 752.503540
-648.736755 79.605766 748.198120
-529.127197 -134.442322 647.952515
-855.990295 21.450155 621.231384
-551.514587 121.819183 828.440735
-879.163086 76.591118 721.558105
-545.174438 -171.482956 600.386719
-760.792053 141.769913 778.913574
-769.170959 167.873505 809.373230
-703.072510 -74.845039 626.526367
-698.031982 122.996773 758.573914
-659.504517 56.621429 761.111084
-818.612915 131.664658 754.192261
-717.363098 104.601540 782.251770
-735.605957 96.061356 751.862183
-603.171448 -65.448624 686.419678
-535.289124 73.981262 813.735413
-775.118103 68.168350 695.781006
-823.872803 -19.886074 648.700012
-868.952148 92.430878 719.138916
-789.698792 -175.994415 527.609924
-692.140686 -30.011503 663.889893
-694.050293 117.406815 797.365234
-827.013855 -209.841507 514.403076
-653.367249 115.306709 803.085571
-640.407898 66.777550 744.578674
-747.936768 -20.855282 649.394165
-775.721313 -115.736572 545.269043
-739.768860 107.569664 763.878967
-841.994995 -184.594986 537.784546
-628.793762 -115.688110 617.612671
-761.095459 -61.784122 608.931030
-673.064636 98.052444 786.903259
-839.208069 2.526525 595.003906
-803.201843 108.370094 751.005310
-538.043396 -131.912903 644.848938
-618.442505 129.354630 833.295044
-791.659424 -3.925857 629.769897
-546.099609 -124.197594 636.965820
-777.093567 129.531769 741.421326
-563.157104 -39.277977 713.445313
-697.047058 -113.419640 580.083618
-837.607361 -114.871552 586.494873
-854.224304 73.997917 632.055359
-845.702148 -24.744051 554.229370
-876.714111 105.607841 771.568542
-550.299194 -76.688805 667.420349
-628.407654 -107.661392 640.862732
-836.013672 -61.546528 530.460938
-831.665100 -118.820663 578.847107
-637.458435 80.050041 753.069397
-717.716553 -16.084087 659.776550
-702.497925 -9.931520 671.467102
-782.600647 70.438438 703.611877
-842.033875 -72.356003 565.839783
-651.584045 -180.051346 570.108826
-586.745056 -173.785202 603.493347
-509.612518 -185.220123 617.479858
-706.208679 -57.542809 631.464661
-543.645752 -43.019703 725.012146
-714.718933 -44.222317 646.956360
