ply
format ascii 1.0
element vertex 1415
property float x
property float y
property float z
end_header
333.219574 570.491333 -831.643250
-4.721997 478.235535 -632.957825
224.501678 377.809998 -999.156433
62.258068 465.200806 -743.660583
41.108261 393.481628 -870.778564
21.909477 464.818176 -732.254456
20.436390 471.303589 -748.768921
299.090454 500.229004 -907.766724
211.647476 474.642395 -884.720215
331.524353 477.894562 -974.256226
149.194046 471.425049 -841.858215
109.705734 448.336395 -825.812927
262.622711 516.101990 -849.414734
259.866425 460.262512 -1037.885010
181.865631 444.302490 -914.828491
-29.044867 430.738922 -763.837402
-96.270729 373.328949 -768.330444
93.343140 534.784363 -682.902954
-12.100754 347.226593 -892.526733
-67.037766 394.238403 -760.628235
316.839111 630.010925 -737.484436
33.915134 302.118896 -958.354858
-31.048553 427.314453 -753.580872
-67.144257 393.061310 -747.842957
259.204651 554.113586 -805.829712
224.950577 401.554749 -1012.748840
73.620964 377.958344 -875.232361
21.079134 360.530609 -879.277649
205.791870 366.374542 -974.999268
-112.792236 310.566193 -847.996887
216.780930 390.024017 -1002.410400
29.146854 326.519684 -970.373901
243.504074 423.826935 -1011.595032
-26.025986 479.074005 -668.804993
-112.029617 391.059021 -703.720459
282.907135 569.291321 -791.684326
115.014687 416.551849 -905.654785
79.514252 429.424286 -839.716187
145.889069 460.595490 -855.453674
216.207932 503.523834 -819.428772
62.439800 512.253540 -695.007385
196.153595 522.210754 -781.263367
243.456894 547.682922 -781.911072
277.212952 508.484619 -873.023254
285.180420 587.168518 -743.647827
109.456871 471.628357 -800.635437
205.526688 558.099182 -762.278809
147.776093 533.235596 -736.392029
180.742035 369.833740 -978.941162
-44.755825 468.846313 -667.838928
65.522141 494.987488 -749.028992
34.923824 347.126160 -898.274414
209.968811 511.322052 -828.532471
-80.856270 479.012207 -664.353333
139.243881 397.933258 -968.321594
127.393280 368.212280 -954.081055
311.688599 550.397827 -853.679016
265.099304 528.386780 -828.419128
257.148804 560.410278 -790.670166
34.291149 380.412598 -849.296082
11.283731 373.010376 -854.370728
337.136505 508.880127 -936.309204
-38.292698 477.150848 -695.422668
192.547806 509.762939 -801.612000
302.158203 480.968506 -1022.959656
34.987709 349.519623 -955.649658
327.009033 476.897095 -930.135803
298.216400 570.263123 -791.811829
307.249908 522.552429 -873.390198
326.831207 546.225220 -852.770752
89.094940 296.867035 -958.301208
249.412827 480.273163 -915.036072
303.231812 578.211304 -800.075989
199.662918 463.140289 -883.165222
-33.927998 383.002747 -816.357300
79.114540 455.421448 -811.001221
134.989929 443.501434 -861.510925
-37.002892 396.693970 -779.900513
0.820572 343.325531 -889.724243
17.061108 493.307617 -713.519470
-100.704987 371.121582 -767.457336
110.226357 508.017548 -759.844238
343.853668 595.175354 -800.447571
5.144838 460.112671 -717.435364
33.449329 355.230713 -968.069519
27.508844 377.996368 -862.897827
-124.049011 365.214233 -798.616760
-4.623439 335.520752 -921.560608
294.601349 521.868530 -875.043030
295.880371 613.101990 -740.865051
94.133766 528.437195 -680.953918
147.720261 440.328583 -884.672485
135.989639 381.511383 -975.670959
205.129059 529.637268 -771.494995
17.982784 409.087067 -795.184265
168.715897 570.033569 -703.360535
119.558487 483.415649 -775.808044
240.771545 530.291748 -819.114319
220.573639 558.833496 -766.597656
192.674393 470.991760 -875.152832
220.004410 530.556824 -811.809570
277.906799 485.469696 -1044.745850
176.557846 527.776306 -781.636902
122.879555 459.164246 -844.979309
-103.860619 326.384735 -842.743164
63.164009 507.081543 -714.805420
-81.567245 403.840515 -766.047363
73.205345 462.607178 -796.186096
118.769852 501.781128 -754.488770
253.591125 452.526978 -1029.705200
223.385345 489.152527 -865.127380
-33.431797 326.074066 -877.088074
195.081650 364.398773 -990.000671
278.552643 459.963379 -928.948242
123.026680 299.600159 -959.197266
-39.136116 344.625031 -889.873840
342.073730 553.301941 -858.096252
76.851280 512.059021 -732.836121
-116.001625 354.653900 -799.516235
-133.134766 459.905975 -643.691223
-100.338875 405.918610 -718.629333
7.894801 504.303223 -683.530579
194.337250 583.064636 -706.381287
-25.399015 395.409149 -815.861145
21.123432 389.113770 -845.767517
273.374298 568.927429 -774.717712
49.377796 498.712006 -706.915039
269.869354 465.708160 -1037.213867
263.296906 473.333099 -915.845825
-124.778229 407.191101 -701.592041
122.482056 428.561523 -872.252502
195.152527 469.543579 -830.071106
215.660172 543.586792 -766.062439
95.042900 276.891968 -939.035278
75.023872 363.075439 -963.473022
94.994507 476.687500 -795.384216
215.382431 506.485138 -849.556396
-102.997162 367.147888 -743.460876
23.497017 330.691803 -952.940552
221.694199 483.325562 -861.100037
279.921692 558.274780 -810.850769
153.788712 433.983337 -909.751160
103.537369 419.804260 -869.219055
211.067307 435.025848 -990.158020
18.775492 355.804688 -885.392029
-2.898656 472.245636 -684.405640
109.303284 454.226746 -835.867249
-43.728306 416.788055 -773.102783
97.578285 461.253296 -795.740295
4.901351 433.995605 -740.259766
303.110535 519.075989 -885.619141
47.851440 397.244812 -848.037354
273.207703 597.191833 -724.835571
-59.185291 337.697968 -867.119812
-59.754581 368.553955 -802.369629
-5.342116 344.363129 -948.644897
10.248763 360.414551 -873.354004
117.777382 527.966248 -741.546631
59.202972 488.309875 -716.501526
-112.177582 409.119293 -733.492249
56.460072 490.795593 -748.047791
75.166298 441.736786 -793.510681
148.280609 517.954834 -760.573364
45.802029 381.694946 -868.804749
315.652679 539.687073 -864.470642
-24.790613 357.811432 -846.281189
93.887352 318.212219 -967.144226
-100.474808 386.663879 -770.831482
66.901390 472.795990 -777.372131
129.091995 404.954376 -909.985046
252.860519 505.814758 -874.919556
105.428749 537.348694 -711.037048
201.626221 356.811981 -986.752686
96.883423 488.187195 -753.732361
-63.916851 325.269226 -863.839172
325.121582 570.320190 -817.287231
-81.994232 361.549744 -799.521057
67.206993 430.186035 -824.916992
299.210236 599.039917 -730.210205
199.288879 498.813904 -844.291138
14.737157 340.062897 -888.040039
245.325546 442.910553 -1034.078125
-85.714607 428.240570 -725.129028
260.831726 477.373474 -1040.542236
177.735626 526.417480 -764.793274
241.804596 498.154205 -874.083984
167.415985 334.713196 -960.569824
280.636475 468.286285 -1034.707397
80.019394 497.508881 -723.579956
152.850403 411.678986 -917.419434
268.447784 578.102478 -744.712341
274.617371 462.868439 -914.725342
-58.877930 388.405975 -810.390808
258.689423 468.687012 -1040.628174
68.076378 496.318176 -711.989807
-89.225029 404.877655 -729.529053
289.343903 605.210754 -750.885620
127.259361 490.396271 -777.442383
212.636139 562.054199 -722.756897
167.347229 529.352417 -750.649170
287.965790 589.108704 -776.604431
252.793777 509.711639 -815.604736
34.248821 365.477570 -900.535950
128.401901 456.388824 -823.874817
136.199722 393.639679 -976.796753
102.438736 522.028137 -733.915344
166.942261 425.558380 -921.554504
-32.870445 362.892120 -855.868713
166.756653 411.367249 -900.065552
-110.551941 360.497375 -783.458130
322.771301 475.976166 -965.133850
121.227211 325.237152 -961.551880
278.242737 539.355530 -821.423096
52.878895 362.604004 -937.602356
121.004303 533.624451 -704.234680
-3.678277 477.904175 -713.983093
-6.278014 393.002991 -822.154053
218.033508 543.341553 -778.814514
222.201752 448.004150 -913.662964
236.974472 500.639587 -850.446716
84.203766 436.128479 -828.628479
105.712738 485.507599 -791.704102
166.744644 491.410553 -813.171631
-90.232307 346.599762 -793.558411
260.471924 528.955627 -836.044617
273.211456 575.333801 -782.738403
-23.926479 397.315338 -791.063904
6.910487 372.807312 -849.863403
48.093422 357.700562 -914.541870
265.212891 447.885345 -947.642212
-39.102215 322.781189 -868.793945
200.805878 402.025024 -1001.203308
148.482834 379.617218 -945.316589
-22.939381 432.865082 -739.354370
-2.756246 338.590057 -890.379822
147.720581 472.079437 -833.706299
22.794153 506.661926 -674.229614
230.635971 492.201721 -861.601135
137.037216 465.732910 -826.077942
252.926208 591.541687 -727.900818
239.676666 427.052277 -984.026062
-2.249120 404.070129 -809.105286
285.426849 509.765747 -843.089539
236.776657 579.851501 -725.482605
259.723083 587.145386 -723.092896
-0.231856 483.761658 -637.589050
128.516647 505.261597 -754.652039
105.709694 410.406769 -899.607544
205.281631 367.121155 -997.564636
118.202026 381.979126 -958.966370
197.507187 533.000549 -794.761230
125.799431 348.849670 -975.780884
321.903809 563.928772 -838.791809
130.974411 375.762909 -988.342346
47.052830 494.765442 -705.677002
219.182419 548.695496 -787.719360
160.386169 540.086487 -750.966919
188.329483 536.601929 -763.828735
265.024902 582.941284 -765.183167
97.794327 517.584900 -709.847351
-141.212860 412.003998 -696.137024
91.030113 299.392883 -946.207275
-45.512241 355.770569 -835.673279
-42.580349 452.184418 -721.533325
270.474731 467.570709 -944.025940
170.510437 326.376099 -978.428833
-94.249321 305.340271 -909.566345
-58.688980 340.675690 -824.059326
3.559695 487.146149 -712.109070
37.056805 487.174347 -731.245911
195.717453 473.417908 -874.403381
322.312561 538.813416 -878.287720
-42.433151 319.159241 -914.135315
154.852737 404.528015 -949.697571
305.712372 588.842224 -788.329590
-40.125759 429.915100 -743.045898
223.482132 571.265503 -744.211670
195.780548 546.726257 -743.798340
-87.893936 371.736572 -758.452271
226.269089 573.135254 -735.017822
201.126663 452.045715 -859.839294
108.553818 464.400452 -759.886536
86.438217 472.222321 -769.729614
142.926010 440.319580 -864.153320
-42.777782 446.082031 -734.261292
48.599823 396.366913 -877.045715
74.066917 309.655853 -971.969788
146.881531 424.909058 -893.496033
142.867493 510.902069 -781.888367
152.893723 374.900024 -970.051514
42.361076 311.631134 -954.971985
-62.285343 368.401886 -807.771729
-30.297621 326.159119 -872.151428
306.117035 602.117676 -749.955261
134.376465 342.788879 -960.763306
-98.210495 302.961853 -906.667053
279.394318 552.658936 -815.441162
10.538339 379.235504 -844.202087
-72.980965 439.026245 -682.548035
163.224030 487.483673 -803.566650
203.917175 422.721985 -954.273071
316.742706 604.798523 -757.155029
127.685150 357.466644 -965.927185
132.968079 509.115356 -723.173523
260.591919 596.540161 -717.934509
248.047211 495.441071 -875.962585
234.420395 487.936310 -882.895813
-56.130337 447.462830 -696.160400
135.452133 385.981689 -978.682556
243.748383 445.811646 -1027.748047
-60.214218 356.324005 -842.172058
223.794113 491.468353 -872.412109
70.857231 452.789429 -796.217651
-54.485931 433.886780 -734.055847
-54.837391 462.112152 -663.635437
191.708282 505.016541 -816.318848
317.309082 461.369476 -980.408569
202.443466 526.806824 -797.009827
274.045624 490.441864 -909.660889
-23.714804 377.048187 -788.619812
-62.043560 396.151184 -758.987366
-77.765007 325.814056 -945.322205
183.111130 316.395172 -961.293640
-101.980804 395.296783 -731.254700
254.839478 505.984131 -867.207458
211.260345 537.455017 -777.113892
236.365662 514.680176 -827.339539
-108.466003 388.484802 -761.609497
223.380356 588.155090 -712.868652
109.844620 352.396942 -963.740173
155.577454 313.750061 -968.233704
-102.178596 297.323822 -860.052002
244.786987 554.851929 -765.088379
76.808853 484.919067 -740.020203
-118.946022 318.716400 -857.796509
212.687469 568.065796 -720.598816
38.581844 517.425049 -676.915710
27.705486 334.955963 -970.997131
239.220749 564.072388 -763.475159
171.447800 570.725159 -698.481934
62.082752 393.253052 -843.697144
244.975677 533.123413 -774.132996
-122.045753 425.314423 -688.930908
-101.622078 366.480286 -811.291870
10.587932 490.113129 -706.570007
-53.218391 404.617218 -772.105713
-38.591412 423.588135 -774.269958
82.042824 407.579529 -861.416931
41.689960 420.282379 -842.355286
-110.912216 297.736267 -870.410645
236.126831 440.345490 -1013.822571
253.141495 555.933350 -794.564819
-44.854881 458.375610 -684.431091
96.768013 445.232483 -842.128540
80.858894 447.992279 -798.788574
310.361938 520.540649 -896.165894
47.873241 330.327698 -953.366272
334.027405 578.436035 -823.276123
-87.263290 408.320038 -691.015137
309.159088 518.758240 -837.245667
144.322739 509.069611 -772.475525
124.170410 526.125061 -746.440430
233.472397 470.041931 -903.489746
68.042252 456.653259 -799.636719
208.781509 409.246094 -1004.656128
-11.235325 448.329437 -756.559998
99.986458 409.115234 -879.927124
106.836090 422.002533 -864.841858
-18.151682 489.211975 -665.974792
226.033966 362.391388 -979.692139
98.763260 520.093567 -730.415222
158.112244 383.132416 -993.397583
314.363098 512.214783 -882.028503
-6.367616 387.150574 -805.544861
288.898102 541.305481 -847.246887
172.402267 307.464874 -955.559509
213.601624 439.578583 -928.072632
173.754501 485.177307 -815.100037
85.499817 477.998474 -767.894470
149.387451 491.949860 -819.301575
231.665588 556.362427 -755.842346
226.824417 430.659027 -960.027771
163.649475 490.690674 -806.604065
-92.419151 356.928314 -820.740173
18.295792 482.904419 -725.111450
215.541321 519.154541 -830.152466
240.941666 550.368835 -796.287842
117.978951 449.273804 -843.962708
307.056213 547.780640 -841.717468
325.162231 480.140625 -933.647461
98.882957 310.612457 -961.362976
317.376587 491.121765 -906.136414
264.635315 435.107574 -1014.765442
357.029114 505.269836 -968.332031
273.448273 518.479065 -848.855835
124.338066 541.012878 -701.751282
30.281000 353.469055 -939.684204
73.951271 524.573059 -682.620117
282.838226 514.079712 -851.321594
305.358398 518.581482 -852.154785
186.248260 572.762390 -705.646667
332.946564 580.639038 -817.973267
-103.559471 318.678802 -874.848572
252.461945 583.615295 -741.244751
227.087677 557.748291 -771.842346
-46.748077 443.698914 -730.392029
-31.017654 464.968262 -690.296936
3.124217 473.685394 -707.028564
-80.284744 419.041016 -732.237122
114.461868 492.596832 -768.156311
-52.477413 392.311737 -788.365112
80.567337 527.407288 -684.626770
-5.353114 408.117340 -776.355835
128.334625 543.741638 -719.772644
180.582901 439.066650 -914.166504
216.767822 552.946472 -748.799866
99.496170 309.233215 -965.555664
31.754276 498.865204 -677.056213
206.325455 370.696136 -989.165955
286.372650 481.641144 -899.310730
9.341677 375.222595 -834.077454
70.833153 403.630066 -881.250305
253.434631 575.379089 -752.672241
40.020195 303.411255 -963.629150
-93.223274 458.360260 -681.718018
210.858810 516.398010 -830.854187
101.307564 368.944946 -961.932190
173.992279 371.502106 -973.322266
219.583618 500.320587 -845.964417
202.331589 575.159058 -722.822876
272.779633 535.964111 -842.409058
-116.248207 428.047668 -683.092957
178.563705 447.461060 -899.303589
-95.862144 436.569153 -687.462280
9.265489 397.279114 -842.375244
251.779480 514.236145 -852.897522
262.798218 522.193298 -863.393188
165.948273 551.621399 -706.886230
120.717186 396.456573 -908.672913
12.237415 454.076477 -761.260864
323.346619 500.846893 -922.067749
262.656555 597.293579 -733.007935
54.418827 523.444641 -702.225525
135.786377 470.271790 -825.763489
114.063835 417.020050 -872.977356
92.787346 494.586243 -768.356628
145.196991 431.186676 -879.228577
-4.139316 470.176117 -693.871216
179.956985 546.498291 -759.975403
164.639130 566.087463 -703.608032
92.144073 298.005829 -963.615234
-75.524483 466.883240 -653.432983
-62.196381 355.319550 -822.913025
-67.384789 436.328156 -725.005005
-75.831482 362.926544 -816.060730
343.718750 615.315735 -741.358643
36.393238 315.447968 -960.103394
-63.795448 411.183319 -719.181946
202.046906 420.701630 -947.148560
56.317654 505.896881 -691.088989
230.727676 508.493286 -822.115356
332.954041 506.741760 -932.403809
167.835190 416.265594 -920.404907
-40.503658 335.394745 -910.107300
222.067871 585.772827 -712.171082
30.876810 407.889801 -811.306091
76.549606 300.400726 -962.459106
284.319763 544.080322 -789.345154
283.950928 469.686554 -912.062378
-99.160553 458.349243 -647.550171
219.016281 548.640015 -771.704529
81.770798 317.115479 -971.392456
97.813126 450.412506 -809.282471
-76.313759 476.821991 -650.655701
203.073303 386.171875 -985.432983
-96.204971 343.706085 -835.205078
217.170807 503.769012 -800.227112
-22.201605 421.837280 -779.959717
243.798386 502.269196 -876.507080
205.540848 434.944214 -929.576172
179.190521 567.487732 -716.894226
209.313507 434.506622 -1002.401245
-82.221352 446.383301 -703.053223
191.516022 491.693115 -828.529114
190.676575 507.335724 -822.303833
179.402023 334.685028 -976.539551
2.153821 331.634644 -975.989258
-86.817978 293.460388 -880.849365
229.592987 502.215668 -851.127563
167.666138 521.589966 -784.770142
49.350510 438.316864 -774.993591
284.042633 592.618896 -757.686462
13.977839 506.027100 -668.539246
60.072006 509.945435 -673.359375
109.824211 534.581116 -699.818787
166.020798 538.479431 -761.234741
39.431511 415.970245 -804.656860
117.865219 512.243225 -705.249207
313.248413 619.063599 -746.872498
314.763336 604.877380 -764.595642
185.996597 335.110077 -969.507629
221.795242 565.439514 -724.535583
303.210541 519.293640 -898.856689
261.881744 586.072876 -724.056152
-105.584167 361.778076 -777.759399
140.545258 519.845093 -758.044434
-40.693237 459.982819 -685.342834
-6.557583 344.638000 -879.826965
-26.530115 349.057617 -894.011963
308.730804 539.760559 -863.101440
115.363380 478.921509 -779.425293
95.009422 526.394531 -702.039124
252.540527 547.300720 -810.122986
293.871277 477.046448 -942.364563
269.997009 604.526062 -736.966492
147.103104 357.037567 -959.130005
109.493996 403.112885 -896.006348
212.617310 577.175903 -733.312500
303.933990 602.309937 -740.683350
145.789902 460.597687 -839.601318
-47.842018 398.109344 -750.264404
-17.225561 386.689484 -837.168396
350.373138 548.557373 -877.544373
229.064178 449.594269 -890.594116
-77.531342 439.390076 -687.581543
25.350214 485.986572 -694.253357
28.120867 469.545319 -725.320740
-58.877796 467.740295 -656.328552
130.162491 322.260895 -961.475098
293.913147 521.613831 -829.232971
59.916283 527.759766 -690.770630
-110.185127 441.245392 -658.244629
-64.987236 398.822357 -791.305603
171.219101 449.685181 -877.851379
84.237534 417.827179 -846.188049
68.825188 521.901550 -688.680298
65.416977 426.120361 -827.264832
-91.041817 457.243073 -664.571228
121.167625 417.074921 -910.222046
-90.973518 363.053070 -787.650757
90.973000 416.107666 -855.960144
227.979675 581.424927 -711.942993
281.178009 463.407227 -955.347107
-108.385880 345.618866 -823.250122
-126.002350 385.565796 -749.518433
119.951431 294.135925 -944.606750
165.318619 484.667328 -840.025024
281.743225 571.521118 -799.231140
327.650085 459.175293 -967.412109
-38.808517 456.966003 -689.286682
326.507477 563.233398 -837.061646
225.214249 544.693542 -767.377869
68.585602 311.357605 -951.669495
332.037903 629.416992 -738.134766
246.427658 531.343323 -832.824463
82.870880 323.584900 -953.114868
266.454712 570.153809 -775.106873
5.245203 490.803619 -700.474731
82.376053 414.609100 -841.496887
-88.981583 408.413544 -754.906433
-106.838753 405.009552 -742.434631
213.774811 586.204956 -720.527283
75.417160 536.553772 -684.841431
317.359131 468.415497 -929.530762
22.141624 442.289581 -793.647461
72.877388 432.840881 -815.569153
138.899551 305.519928 -953.153320
136.609711 502.693848 -766.543823
182.094513 420.882813 -964.899170
188.644119 504.819244 -771.988159
170.532898 512.964478 -794.076782
299.324493 547.548157 -846.509399
311.418152 572.319214 -794.315674
-78.645416 335.731720 -856.097900
248.820007 503.622620 -821.985962
127.370216 391.190735 -948.545776
176.207733 476.993225 -839.141602
-106.359184 423.737610 -704.276001
240.590668 493.849640 -863.422302
3.645936 495.272186 -670.699402
183.878036 512.859558 -805.390198
65.275505 491.998016 -728.407104
101.301857 538.095093 -690.993042
-9.765352 463.381805 -713.245850
149.893875 393.854553 -963.193481
176.434204 546.650818 -727.850952
14.667537 342.654205 -881.832947
288.535919 490.059174 -875.060852
257.118744 512.250000 -851.668640
40.743984 488.516113 -702.740173
201.353577 493.398224 -848.360535
10.909607 465.419495 -715.186340
81.720085 437.022644 -839.223511
97.050743 467.886841 -809.040405
60.406967 399.509064 -860.635559
315.065643 606.106384 -731.178650
70.540810 471.943695 -784.133484
182.878784 572.103882 -712.203186
175.774536 344.134674 -964.386963
-27.240820 398.497925 -772.278687
-109.478394 355.100403 -810.620300
50.179661 358.699738 -966.926208
223.959549 445.893158 -904.602478
276.750214 498.931610 -881.710999
243.935593 487.035675 -876.866577
317.697906 497.877899 -914.996094
260.173187 567.057068 -765.668213
286.881683 585.760315 -731.443420
-126.044319 300.631256 -885.700928
-109.105850 402.409393 -722.707520
-68.271935 326.957977 -822.134216
213.856567 505.446777 -827.289734
-51.396122 389.410736 -806.972534
217.318604 475.496460 -862.524963
160.470337 410.360138 -967.983276
169.645432 427.369263 -909.832397
-62.368439 422.085114 -739.198608
-30.900150 463.912170 -689.187256
277.288910 608.775024 -730.638428
324.102081 570.199463 -827.640747
303.318329 594.461304 -757.312683
162.634705 519.710938 -735.949707
301.956329 510.463562 -888.773743
160.945404 558.534790 -706.240723
279.083130 560.527405 -809.742249
197.975708 551.695679 -747.410767
237.208511 500.123566 -868.732117
158.036591 506.093201 -789.059814
212.315826 474.252045 -894.214355
313.824646 617.280762 -741.345581
229.536987 544.483093 -745.601563
1.574858 336.097473 -975.508179
240.054871 450.199921 -972.367493
64.977013 467.817200 -789.848938
13.636876 430.471008 -775.374329
0.683042 358.823608 -971.346985
29.159924 423.616211 -779.316589
-57.730659 459.335175 -648.633301
101.070160 440.114197 -826.922852
130.140778 506.031921 -760.459106
165.436996 559.941528 -717.950134
70.801720 505.799835 -699.141663
68.624207 513.824036 -716.393982
-15.418553 472.007294 -686.199890
-65.788078 444.709503 -697.589294
-115.031265 345.717926 -821.323547
78.650116 446.224670 -832.898865
278.786163 546.378174 -798.513000
-51.658150 487.110657 -656.237244
233.328659 487.923767 -888.006287
54.263176 402.864258 -876.892517
268.071777 585.734863 -759.872864
299.114807 599.706848 -765.342468
211.796082 444.504333 -932.653992
191.795456 516.110046 -787.087830
201.737656 355.142487 -993.178955
58.896469 479.303772 -765.409729
-54.967007 425.069519 -722.711121
123.480888 521.844666 -719.373108
229.580978 441.411041 -934.215027
93.972343 387.431305 -918.618164
-105.361687 342.911102 -780.954346
-2.940658 366.462494 -852.245056
-32.226261 435.094635 -691.332764
117.591118 308.004089 -966.068542
99.013252 491.484161 -736.766235
48.206345 425.223602 -800.052063
-15.218053 436.789307 -772.035950
-19.464636 325.286713 -874.004028
187.158127 533.932800 -771.826294
-99.674400 425.285370 -709.059570
-78.696030 415.482025 -716.550964
177.690659 499.892334 -822.269470
173.873917 406.001648 -977.379089
240.368073 556.375244 -765.596863
39.006512 511.004852 -698.386414
-55.540173 337.658051 -831.203064
321.677734 575.578979 -809.829895
259.394135 495.025543 -877.396179
-36.465229 338.916931 -929.785339
172.840317 352.712524 -984.451965
249.812271 578.095398 -766.581421
99.427452 543.958679 -679.600342
253.565399 569.206970 -777.980164
133.183167 448.054504 -863.884399
240.489899 506.586578 -862.154175
180.057587 394.977936 -986.317749
274.624817 502.739655 -887.716309
-32.681499 374.563782 -850.896240
263.473816 514.848938 -846.838623
298.368713 601.962708 -726.313843
110.715332 327.553528 -955.338806
251.171494 492.202972 -891.003601
202.744690 470.772583 -888.276733
-63.235699 367.624298 -790.231628
160.626785 425.639465 -918.757202
273.789398 512.644653 -864.018860
79.408058 377.717773 -923.482971
320.851746 462.211487 -964.076538
139.090317 328.309143 -960.376770
-27.998375 411.242676 -767.227295
197.520035 451.715637 -892.435120
35.573277 514.128052 -672.412415
53.139523 368.716492 -872.223511
78.615822 413.035614 -857.377441
274.714355 606.213684 -737.646667
252.096924 441.757813 -1017.286987
236.237381 456.192200 -931.022888
273.635437 592.111450 -752.161194
222.189636 543.936157 -791.725647
349.817963 595.427979 -807.459961
30.897890 405.936584 -851.834534
67.690170 368.798096 -944.148499
312.997223 593.694702 -789.026428
155.817459 324.742828 -975.833618
266.789215 558.947449 -781.366882
207.639252 539.899780 -787.440063
82.982437 501.316376 -727.280090
238.987503 535.640808 -797.795044
249.650269 511.346863 -861.975220
128.124237 327.907928 -970.399841
-119.065666 391.807098 -752.633972
307.659790 501.128357 -926.829407
87.934898 469.765106 -800.656616
177.187195 559.141235 -709.630432
162.879333 343.006744 -964.584045
178.248245 540.478821 -741.942078
90.214142 432.397217 -861.664185
332.887756 516.335510 -915.731506
-44.925823 444.934631 -705.497620
291.866119 474.867523 -952.625061
82.713562 467.295563 -781.426392
316.059723 523.123718 -865.743225
61.249836 529.296143 -677.113586
193.754898 499.160004 -839.524536
-10.595411 369.774811 -874.944763
140.220734 540.444519 -731.526001
149.589355 403.313171 -936.789429
160.711899 471.430969 -846.297485
-116.110260 415.770538 -694.875977
306.315948 526.358826 -872.861450
159.950668 376.639862 -971.513611
283.933258 465.729706 -905.231323
172.318527 487.581482 -821.963867
188.498123 503.877258 -823.182068
269.039032 568.330383 -761.084167
142.916946 371.173004 -985.379700
-43.555042 364.514862 -824.018738
56.949551 515.230225 -705.856873
268.097656 584.920410 -717.895020
89.633423 510.474457 -740.237427
243.176651 580.367493 -705.957703
267.375244 453.061584 -988.509705
316.225128 483.419800 -910.097351
106.617302 396.968048 -884.856018
48.497597 466.761658 -738.892395
200.731979 421.071198 -1017.916809
29.731792 502.226746 -678.318115
-125.963600 356.598907 -795.902100
162.709335 486.856323 -829.072327
-114.822945 408.849396 -733.962158
-33.466850 381.597809 -832.049561
280.042297 514.215637 -831.500977
-12.054795 471.451111 -692.444641
-90.336647 307.792999 -912.641357
-84.793900 466.373627 -647.157471
204.310944 421.302979 -1003.968872
213.881378 560.710510 -733.476501
78.460541 467.235229 -780.930969
176.430496 412.492249 -946.156616
324.776428 580.146545 -804.759644
219.507309 595.844177 -712.569641
158.671967 386.371094 -986.760437
237.346771 573.304626 -755.501526
231.305450 557.515320 -767.751221
229.564041 398.137329 -986.861816
34.722401 320.703339 -970.668884
22.030361 431.075867 -807.484619
111.980469 515.697571 -734.400879
-54.722507 407.804504 -774.342651
331.412445 543.964661 -844.566162
262.680359 597.324524 -716.061829
180.856140 571.119629 -726.624268
-60.367306 442.707947 -699.926392
327.455231 599.186829 -749.708679
-124.715195 426.328217 -650.104675
190.097717 384.572632 -969.553650
316.117981 503.497040 -913.699463
256.326782 561.800171 -791.927368
122.570427 550.322571 -688.526123
119.110916 366.668884 -977.903259
315.093231 488.703918 -935.146729
-99.262413 321.148865 -852.768250
14.446716 355.863647 -880.732483
76.740562 528.208801 -698.045288
40.754734 419.495209 -815.742004
124.290649 411.128296 -893.289673
-50.411030 324.263245 -900.813965
-18.635704 437.235229 -735.830078
-105.847626 302.884674 -874.465210
34.220596 422.551910 -799.612061
290.939392 483.367767 -925.856323
126.888000 356.203766 -972.163452
165.232849 494.083557 -807.254944
229.705017 413.946442 -1016.549316
151.815414 358.319244 -970.659180
283.754456 527.362000 -873.171021
-80.672356 392.643158 -772.707153
278.927338 586.269409 -739.226501
-62.907391 323.449524 -898.461670
43.000687 418.532074 -821.290405
163.595322 457.376984 -881.866882
-74.705017 316.154755 -926.114319
286.105957 602.583984 -745.596924
-75.937271 414.825531 -741.846252
192.894897 502.373474 -829.752686
153.855499 314.307495 -967.520142
157.394211 320.111664 -971.354614
-0.058525 375.360626 -863.171936
0.133087 372.155182 -868.200745
-101.985168 444.195160 -659.738037
-87.152061 399.182739 -735.420593
160.247574 349.420959 -961.945496
331.063904 596.481995 -797.098755
133.992950 514.529297 -754.252136
37.926540 414.158295 -825.036011
106.317726 352.500854 -969.904846
69.408455 449.360229 -763.868408
94.440865 417.001801 -829.193298
185.021820 331.516693 -985.990601
81.694557 327.463837 -962.507568
38.206814 489.294281 -709.037170
-134.332901 308.732361 -931.025024
-21.979446 391.760498 -802.407959
303.327515 600.556213 -769.281250
240.120209 532.031006 -804.562317
42.098362 461.367310 -751.948181
288.432007 550.210266 -832.841614
209.786896 474.087952 -871.110535
-11.388163 494.990051 -686.438354
211.669586 424.619598 -1002.078003
117.375610 322.048096 -964.309570
104.131516 445.822083 -849.766357
223.533463 449.726959 -1027.075806
332.760742 501.560028 -926.093994
303.041565 452.862610 -954.154236
27.441280 511.093506 -688.767395
-57.113014 340.699829 -849.723694
325.701965 532.891724 -856.009155
254.162827 580.504089 -766.046936
112.091187 396.920624 -894.439758
223.602219 565.721008 -763.381348
184.426331 549.213379 -759.698669
49.677105 500.953583 -690.633057
334.512817 509.995453 -932.813049
62.746777 480.490479 -742.403076
237.884872 449.665161 -925.806274
76.076965 536.118713 -700.299805
270.316895 574.514221 -746.460449
122.075279 528.459473 -711.242615
25.208891 503.970154 -696.602478
321.085571 472.617249 -946.561340
246.791016 561.953613 -789.149475
253.130035 571.516357 -779.540222
110.547577 474.529877 -792.469543
198.115204 432.435669 -971.898499
-2.869304 343.273773 -967.885925
26.112852 379.130280 -843.881958
258.362549 436.245636 -1016.502380
140.246643 505.966125 -758.305298
133.965714 543.461243 -729.640625
187.849380 488.478912 -833.932434
310.944733 598.222595 -756.071594
242.513550 438.964966 -948.203125
263.700775 568.707397 -761.594055
187.738113 540.415161 -741.351624
128.409180 423.612091 -870.438660
299.666260 477.364532 -942.946655
69.220703 407.831146 -856.516968
52.747173 303.730682 -965.187988
-34.286915 417.110901 -752.132935
159.310684 469.983826 -851.793884
-56.990814 400.168152 -743.671082
192.316910 410.718933 -982.466797
221.457443 495.394470 -841.590454
278.002411 596.264587 -757.142151
208.416687 498.240723 -831.328308
-29.936853 422.512878 -747.922852
262.332062 494.302643 -907.652283
253.839813 508.714813 -862.357544
55.177349 467.532562 -716.063965
290.046417 561.744141 -781.751099
311.934235 583.819702 -783.978943
118.154625 322.936401 -970.451172
291.562256 514.278992 -839.884888
276.726563 584.739258 -747.864929
-75.277870 431.387573 -714.623230
131.708344 509.733185 -760.275024
281.267883 574.065063 -761.117798
71.594749 470.753174 -786.053467
74.761955 431.178589 -828.045349
-62.065235 403.714600 -750.055298
170.595398 562.581238 -717.906799
144.303360 393.601959 -934.880127
291.387848 593.887573 -754.923157
-136.050110 354.902588 -792.792297
293.964996 464.665955 -1018.409424
69.284843 505.866882 -713.925598
52.650837 488.378326 -747.302795
262.543121 555.862366 -802.061096
212.411362 566.866882 -738.504395
76.503120 348.765076 -951.923950
111.585526 497.083710 -756.443726
-5.980795 415.736053 -778.742249
227.274902 570.037598 -759.071777
315.447327 500.043274 -891.485962
-33.637146 339.876556 -968.628662
340.054810 559.058716 -800.643127
159.572876 559.174805 -695.236877
204.896774 436.307861 -1015.515991
162.032516 568.953857 -709.884888
181.306152 526.988281 -760.222717
193.364899 391.522064 -1006.344543
212.074615 563.808472 -706.785156
314.278015 565.956909 -812.338257
88.631874 513.660645 -725.021667
75.944122 517.135132 -723.773987
237.863022 577.762512 -746.160339
212.451752 410.731171 -1021.805054
59.926727 310.155090 -947.875244
231.791046 523.612549 -810.757874
254.930710 477.539520 -903.728699
175.589020 402.877014 -993.071716
0.776456 382.048431 -802.685303
181.684097 370.697266 -978.116333
-17.451408 417.924805 -789.004639
310.604340 556.825134 -828.614807
264.031647 424.350677 -1008.073914
20.168850 452.593384 -748.448792
93.704025 463.708679 -796.215393
324.594452 628.954651 -724.098145
-122.393738 414.149048 -726.255066
40.176243 466.905304 -709.995972
308.487366 582.627625 -776.904297
119.115334 380.207184 -978.144348
74.514992 387.945435 -883.286926
289.418762 559.144653 -824.091736
197.044128 453.779816 -908.286987
26.749342 428.823700 -790.581909
177.269424 448.562103 -879.675171
238.488739 425.142517 -1024.850342
34.298717 498.351257 -663.264832
295.372009 590.594116 -763.957458
270.077087 462.889130 -1011.755005
34.379917 417.279144 -837.260925
175.338043 481.276672 -843.666870
271.894806 527.682861 -847.065979
-92.279373 425.976471 -666.201111
149.920456 285.785065 -945.920166
315.515869 597.125427 -775.887207
-110.482002 371.480621 -785.371216
223.486908 521.148926 -813.312805
42.606541 312.015747 -947.972107
267.703949 501.460144 -895.777039
-22.068850 398.277466 -790.723999
100.251076 409.990051 -888.104675
196.079010 569.864441 -706.183777
158.250839 490.581818 -825.492554
187.735092 383.170929 -978.642944
-65.087288 467.685852 -679.674561
89.296608 417.467072 -875.635071
-26.586332 447.223450 -735.252136
14.502623 374.421661 -876.638672
274.878540 550.313599 -801.885071
126.463844 543.567383 -696.771790
172.721161 498.537140 -810.780396
12.733156 406.630859 -833.177734
-20.057606 387.436401 -777.585022
267.233398 489.610596 -900.707275
210.012268 542.574890 -762.721191
175.855774 571.326477 -721.509705
301.734009 622.673218 -734.828918
252.370819 538.827759 -830.366394
145.097275 531.426331 -725.929199
-16.149960 402.105530 -801.513733
135.063675 286.184357 -947.159546
203.043839 551.498657 -752.252502
-50.942989 356.274628 -838.970276
215.911880 501.478790 -832.760498
-27.168003 395.483490 -758.931091
43.930218 502.136292 -697.878601
124.343353 281.234711 -942.505737
-14.334136 373.213867 -855.086060
-39.223854 469.061981 -675.110657
320.632050 608.538269 -756.310974
170.745026 343.210358 -976.542664
264.130310 519.885071 -862.173157
-45.954769 396.489716 -775.721680
3.161487 442.539703 -745.032898
233.691254 494.501495 -874.571655
309.640625 550.851929 -845.324524
198.598297 524.973816 -782.579590
69.377563 512.515808 -691.652771
-49.412445 488.318695 -671.292847
-108.972694 437.241119 -679.790161
-31.555504 490.941010 -660.150574
-36.860252 344.020294 -966.318481
198.919296 431.054657 -895.112915
307.559662 486.342896 -937.674072
-57.502579 338.032227 -829.236877
204.278656 394.299438 -986.468567
306.598724 510.282684 -900.556213
130.112579 500.753204 -763.392029
135.944199 566.232361 -698.777771
12.676926 407.223785 -796.627014
24.577408 475.757904 -720.586304
12.649631 363.337860 -869.338745
141.680878 497.486938 -771.609131
177.656448 385.183350 -979.521729
62.800999 418.129974 -830.484009
-49.048149 325.055634 -871.504639
310.898560 568.888733 -824.416565
-99.272453 430.920807 -713.759583
168.495331 388.746399 -946.122009
73.847382 410.485962 -857.064331
243.325409 581.462830 -735.963074
-21.800856 385.618408 -811.668152
82.362595 400.985077 -844.176331
181.333649 561.744263 -721.065002
218.363174 447.554962 -885.638428
26.718380 406.352600 -817.522095
104.540001 399.108856 -923.342224
-108.924149 299.914276 -867.522034
314.658234 622.359985 -737.268311
276.555786 529.924316 -847.888245
-121.819099 412.603485 -711.553650
82.504707 362.455170 -976.350830
299.045532 507.615479 -882.590881
170.873886 426.272858 -930.663147
-4.558483 497.000854 -662.649902
152.323822 286.388489 -947.992188
269.577545 456.990295 -956.284485
136.137177 476.017212 -811.030334
54.059856 493.216583 -729.853394
301.830139 493.248322 -918.162537
323.731079 609.768677 -732.302795
311.859222 527.885803 -853.107422
132.860138 553.091858 -691.778931
259.291473 497.176727 -869.751465
185.074432 393.329529 -988.539246
248.217651 555.283569 -795.865967
312.795105 515.544006 -877.478149
-24.491058 341.839813 -849.564514
248.237320 439.225098 -952.912231
123.249306 478.140259 -782.593079
263.937195 528.133484 -839.596802
-36.065212 454.755920 -672.509705
165.096680 344.292175 -974.774170
93.145203 446.433624 -839.514526
-60.158871 370.760864 -826.508240
73.597206 336.992157 -946.674500
84.962936 412.892059 -827.396851
72.141426 471.849609 -765.829712
142.664352 468.768555 -834.612854
177.833405 371.950714 -978.139404
285.682007 499.815704 -887.372009
43.474426 512.585571 -699.013306
318.132233 511.467407 -889.037170
320.910187 544.696533 -865.227905
-73.169174 431.117157 -701.571289
240.426208 434.605591 -1032.024048
194.982147 406.183777 -980.621582
318.613831 472.016052 -972.728088
-127.152435 415.574493 -686.802429
150.749725 346.724060 -975.213562
213.274414 567.001709 -734.521057
67.692329 461.096283 -797.383057
182.660629 463.850403 -877.357971
322.973633 489.504272 -948.163086
154.173004 358.629852 -980.963135
3.132599 434.170135 -760.441406
161.429382 550.082397 -706.178284
-83.246986 383.593689 -798.395386
118.790337 372.208282 -969.307251
34.656940 425.800568 -800.713135
23.908182 439.032593 -794.009888
-126.375298 399.798523 -716.066162
-57.584438 336.901611 -853.940063
60.269974 504.306335 -727.760071
-11.960630 420.490997 -770.728943
73.708099 486.775482 -744.198792
106.569969 417.469086 -881.471985
73.569450 520.190369 -699.161621
-59.767536 379.741302 -791.357300
299.894012 456.923248 -1008.242310
188.738968 423.987732 -936.928772
88.127632 441.642242 -824.310364
235.482559 421.200165 -1010.052612
45.429199 478.165497 -733.041016
155.394211 572.001282 -708.436218
-19.452467 376.697937 -824.897339
216.877502 500.600739 -824.147461
318.503235 589.008484 -759.849609
174.385635 491.422638 -831.171936
-134.457779 437.532440 -677.361145
-11.932958 330.131866 -884.278748
-33.775799 332.249542 -874.967224
73.987564 322.516113 -964.128845
152.939972 382.893616 -974.316467
196.359100 549.501343 -740.211365
-12.498014 366.390381 -844.566528
35.805992 351.883484 -951.967407
220.350281 546.330566 -792.076477
64.724075 368.002014 -941.357483
157.500824 326.757324 -978.033813
90.959373 404.894012 -896.435120
-3.608209 443.808075 -741.411194
81.231384 512.346313 -711.175110
162.552551 501.770538 -787.368103
160.827988 360.766266 -985.763855
-110.524696 441.689423 -660.057068
-110.042946 442.561829 -670.170044
132.670319 528.709778 -751.574585
312.430786 569.591797 -791.670471
-49.218040 428.770599 -705.055725
99.577621 308.683044 -974.475220
5.451130 341.491241 -918.752258
298.987518 464.826752 -952.684509
167.823654 533.833008 -770.384766
161.769821 541.378662 -733.741882
229.179840 551.642212 -791.187195
-76.382126 424.270966 -731.985413
136.988586 482.235626 -815.228149
214.576675 407.065247 -1017.293762
307.103027 508.534027 -904.893799
186.803177 517.052307 -787.216797
32.810196 376.345520 -853.808411
-112.486038 369.518005 -785.480957
71.469299 345.808136 -960.878479
216.305908 490.979034 -863.866577
294.103973 598.088440 -755.482117
57.150070 305.649445 -966.602234
-101.714630 417.219452 -664.470581
97.949989 449.099365 -839.696289
166.182114 549.948914 -707.437927
243.446686 514.410278 -857.156433
68.001648 406.759277 -840.268921
259.063904 600.993530 -714.425476
292.118439 511.730103 -871.305847
-119.446960 379.776611 -752.775696
6.560688 461.085236 -724.171814
194.831375 343.788361 -970.830688
257.362396 566.176208 -774.035400
-105.024117 464.247894 -648.768188
200.119995 378.126434 -995.110046
121.287132 349.962860 -976.268860
23.765696 469.461090 -725.377197
-2.853064 414.134583 -816.488403
143.898529 468.503998 -795.780640
-75.959427 415.605896 -757.698486
330.967316 506.903320 -922.619568
217.898285 391.318390 -1006.890869
180.953217 551.934937 -716.844910
160.847809 340.620880 -967.115845
211.374100 411.802551 -1005.031677
-59.150658 428.160248 -713.768677
317.457275 536.611938 -880.091187
250.901276 555.034912 -787.607544
253.927155 553.418823 -799.572876
283.646393 529.924194 -827.514099
33.537807 402.180969 -834.305908
231.285400 381.994781 -992.581543
316.044891 559.778320 -819.910400
53.593769 464.261414 -785.967896
148.607681 409.077576 -955.821167
305.781586 554.998413 -830.145142
-47.859272 419.601135 -721.446350
283.554260 482.913513 -920.225891
202.469727 427.449982 -904.174866
275.485016 468.083160 -953.967346
262.265015 445.875702 -1020.935852
286.043701 467.140930 -946.530823
39.627457 481.467834 -724.106873
-74.437828 343.275238 -861.098572
114.524338 434.840912 -850.433838
57.718731 387.990631 -892.373230
-65.838554 439.754791 -690.809998
12.123071 393.821442 -854.836365
19.560995 512.026733 -690.150146
114.987320 518.253357 -752.044373
137.790009 376.610474 -975.113220
319.968536 496.975067 -935.849792
178.136185 528.016052 -772.879333
198.640945 525.571167 -777.939087
57.450119 453.773285 -766.807495
295.325226 464.824890 -1019.216064
160.022720 556.754700 -699.623535
222.501083 416.102692 -1016.415588
149.545883 433.172821 -881.279907
-30.588192 362.204437 -838.147217
229.594269 575.076355 -745.278809
245.429123 462.069305 -911.917236
-62.092857 435.949219 -716.724243
99.670471 513.900940 -718.492371
110.644295 333.090790 -966.208923
23.024633 434.838135 -756.229492
168.967743 548.382690 -727.940002
-83.068863 377.145416 -776.077148
74.947037 348.720367 -956.152954
10.361830 419.113037 -789.061462
272.738556 593.975830 -738.200500
169.236511 533.804749 -755.044250
281.042725 541.584412 -778.758423
83.002510 452.202820 -827.348572
329.240814 509.702911 -926.215759
104.234344 399.027527 -908.908997
22.598145 462.347015 -719.607361
311.717285 553.041382 -844.276855
-19.880154 490.099396 -665.882446
309.659058 479.054077 -1027.671265
-80.988480 383.018036 -762.134888
145.068054 388.418274 -922.733276
-98.088684 406.271332 -718.799744
104.223808 548.059509 -693.364746
243.986206 471.126648 -925.222107
-38.824703 362.759918 -829.337769
221.127350 531.398438 -810.283203
-72.700050 372.370605 -823.709534
-1.030871 408.149567 -826.438049
171.889893 555.900635 -720.039673
68.312393 500.912781 -681.992310
47.949001 510.350677 -712.555420
296.136902 619.415466 -720.323669
192.807159 429.205383 -973.311279
119.736526 543.764404 -708.520508
-103.326767 354.464661 -815.296021
64.587738 382.247803 -872.087402
83.598663 472.779816 -787.003540
9.003190 415.597534 -820.676758
19.656612 371.684326 -867.453979
266.629456 558.829651 -785.274475
-67.173721 377.641205 -813.491882
319.912140 605.238220 -735.606323
256.493652 586.807312 -724.440308
91.351410 471.556030 -795.309021
66.707779 459.859467 -767.124939
-12.810595 416.424316 -757.078918
162.641296 393.931152 -974.604980
270.378510 457.747131 -918.407104
101.310143 444.455444 -825.496460
236.511597 591.274536 -710.490784
287.347351 552.480957 -833.976135
-59.391731 310.054047 -860.285339
150.284256 502.668884 -777.576782
313.878815 585.766907 -790.697876
-75.891541 446.848053 -707.595215
148.644821 485.212555 -795.841370
239.158936 542.719482 -813.084534
-50.692242 352.837555 -843.356873
157.283249 515.345825 -763.559692
211.348633 559.734131 -760.788635
16.146637 333.633362 -963.826599
147.917648 403.806244 -922.810608
122.460014 333.113220 -972.749756
-94.532028 345.177521 -812.914734
-66.768990 403.403198 -753.329834
128.853180 453.402100 -828.643372
-79.777969 361.433746 -796.252869
207.285126 449.952362 -903.442444
199.389877 557.928894 -726.223389
141.506409 293.854950 -945.366394
331.830505 550.975647 -835.867188
106.118851 513.009033 -722.424866
313.484161 574.441833 -810.108765
115.463295 462.253815 -783.042297
173.381561 323.048523 -975.964600
160.332153 483.641479 -832.680664
71.573746 427.970428 -831.523804
211.999466 416.453064 -947.348633
-89.895798 451.717560 -658.593323
311.325806 495.144989 -936.129822
76.750313 298.140320 -946.927917
-35.006256 340.013763 -867.648315
273.213776 460.312805 -1031.564697
141.373032 551.801147 -718.112732
165.991257 431.199280 -900.916077
-44.760952 344.617310 -830.984619
91.144325 506.179321 -747.017639
124.881798 414.896210 -890.725342
-32.906639 460.666565 -655.793457
216.872238 440.206238 -931.497437
-89.381744 440.052185 -701.980896
-0.780905 452.771179 -725.838257
35.179432 409.526062 -820.797485
338.475159 622.058105 -754.100708
220.068588 552.898560 -765.262939
288.740265 606.335632 -722.126892
323.591248 634.518372 -723.198242
172.764236 458.742188 -884.457703
162.544373 349.157227 -982.491089
30.268850 467.957977 -739.723206
-48.132668 327.594208 -872.618286
23.043383 490.059204 -715.530151
287.459747 563.485291 -812.494080
246.284088 549.877197 -770.027161
296.010315 614.750854 -725.617065
-17.074619 489.544952 -669.789734
37.678532 437.608276 -790.085693
99.909149 539.716797 -707.846497
281.641907 501.697998 -891.120667
-117.632980 436.529236 -665.873413
139.799057 478.875610 -798.383789
315.308350 457.453857 -945.259644
206.950943 341.603790 -976.368408
49.748055 313.444458 -966.699829
17.681496 425.972473 -811.909607
132.670685 461.038727 -820.126465
-92.036377 416.981323 -732.892883
154.833984 454.861816 -867.653137
247.142288 514.183167 -804.242371
31.671997 435.209473 -808.034912
-89.093834 381.139313 -771.597656
353.102295 540.571899 -920.589050
221.035080 536.671509 -739.933228
116.807907 457.682343 -787.015747
201.916061 473.484283 -854.715332
282.890656 608.030640 -719.370483
-76.580063 429.792206 -676.201050
-127.746552 439.597321 -652.735474
164.529480 341.120178 -976.983704
-92.710617 389.554108 -784.571411
316.865997 529.727844 -854.253540
300.062500 532.276550 -870.929871
53.967846 334.397278 -958.522644
203.127853 572.756226 -727.124146
160.230316 401.233337 -966.845886
17.450430 407.482422 -800.223755
29.429611 492.798920 -692.868164
241.851028 470.155304 -868.896057
204.084244 501.108063 -844.007324
230.312805 470.005432 -859.278442
40.144497 370.535889 -869.126953
196.284180 542.300049 -710.653625
-28.085810 452.392456 -725.667908
42.140766 408.897949 -849.890320
-81.474174 391.683868 -784.062927
-114.523888 388.897369 -720.520386
274.552826 491.452667 -918.735657
-97.545631 449.011658 -659.241699
228.927673 542.240784 -789.379822
107.776962 463.953339 -795.666077
84.120979 412.352142 -845.992371
208.219070 462.208435 -887.232422
199.477203 425.266693 -942.838135
101.183388 383.226318 -909.562622
325.113281 535.684143 -871.756165
288.476349 622.790039 -730.338684
111.707230 425.453766 -857.490723
163.200546 415.115509 -890.788513
177.781250 522.346985 -791.114929
336.498138 551.913025 -854.426941
39.227795 373.647186 -864.128845
125.720108 426.357361 -894.862976
0.302366 340.385010 -892.933533
117.236519 341.823944 -969.752869
145.086990 418.612152 -919.671448
183.119553 375.192688 -979.061401
248.928345 490.443298 -875.363098
95.652122 461.680084 -814.007019
142.856018 393.046417 -969.922241
-12.985739 369.613831 -839.650330
101.918442 415.628510 -855.968933
285.584412 523.138855 -870.190491
39.172798 351.474731 -895.203308
-5.427433 417.108246 -803.123230
90.172783 535.399231 -699.106445
179.853790 544.222656 -760.539001
-0.992588 426.113342 -768.015076
-44.033157 401.459412 -732.183167
98.089294 466.968567 -785.850586
164.237762 553.900208 -688.119629
50.025120 373.942719 -881.942566
233.531769 458.674896 -914.067993
111.540611 333.774780 -965.763977
272.194672 588.574219 -716.932312
121.871910 486.856567 -778.294373
83.749290 421.309296 -838.778748
-20.629766 408.953186 -802.628662
197.892395 520.459961 -785.151062
-27.709146 480.829163 -671.484985
-22.532291 409.189087 -755.378052
-0.046528 455.034027 -750.488770
263.809967 561.566284 -763.930908
30.529030 487.143860 -681.675903
99.020691 514.163330 -728.433960
277.014557 468.307251 -1031.515015
-50.036251 423.986786 -757.639465
-21.767694 446.154419 -719.090332
1.335384 442.953278 -746.437134
203.624496 532.506470 -796.808105
16.670166 404.606506 -822.421326
-75.765968 327.916016 -869.748779
56.933689 527.667114 -676.269165
42.960506 463.346924 -718.713623
317.713135 488.524506 -945.183350
-107.583893 312.460144 -847.984497
-125.135681 425.460632 -682.336853
161.367203 431.499390 -918.821106
131.700119 443.183350 -869.458984
285.605011 474.205750 -949.761658
106.788704 314.331390 -967.607178
154.973572 424.009918 -919.503784
-4.162796 401.324799 -801.925171
297.171051 513.799255 -872.725769
168.314453 493.411896 -806.279541
