ply
format ascii 1.0
element vertex 1412
property float x
property float y
property float z
end_header
-197.898315 783.100464 708.110535
-358.242279 786.276917 614.214844
-215.817780 558.777832 699.593872
-377.123657 386.458221 646.258545
-162.166000 635.902771 712.736755
-267.006592 648.521667 676.960815
-212.944077 582.353882 695.148865
-95.227051 584.349731 721.854919
-194.010468 646.725098 699.902893
-156.606598 709.306152 723.167419
-370.057373 625.992737 654.701965
-351.943359 339.062805 635.216003
-401.326630 564.238586 643.543701
-415.679474 450.511078 624.044434
-62.455196 711.330688 742.070496
-353.671539 797.538086 679.056946
-227.202698 789.777222 703.785706
-232.831619 749.289307 684.926636
-379.427704 766.946594 625.844727
-254.749146 519.852173 678.347168
-294.985046 702.866577 671.144897
-381.467621 749.166992 585.019470
-124.825958 760.067078 712.880188
-169.468292 758.454773 705.576843
-184.913986 524.857178 711.158997
-213.927414 688.191895 694.819702
-410.307281 719.353638 634.481689
-150.896545 644.262512 719.718445
-124.946968 535.259460 709.231079
-54.862019 720.541016 749.321655
-195.562073 642.565063 708.990845
-184.238907 642.493042 712.953064
-350.059814 452.660614 658.388916
-168.353943 809.597290 716.346924
-349.342346 802.679443 621.113953
-343.698151 800.717773 634.870605
-277.822021 474.379395 684.056396
-69.438812 704.036194 721.747437
-278.111664 808.101379 683.218567
-421.252533 418.700226 623.689392
-260.778717 781.999390 688.094482
-98.631088 704.515320 735.882568
-209.640137 728.184326 705.079224
-89.206100 628.512756 732.245300
-90.058487 710.066162 727.752808
-291.511505 614.950012 683.834717
-226.917236 738.518982 698.377014
-125.444893 754.580933 728.492920
-414.689178 701.184021 646.250305
-71.118546 707.169556 739.718933
-228.000214 445.627228 697.628967
-355.806793 454.418549 645.699890
-388.799255 734.975342 607.234680
-356.431183 436.304901 656.436218
-293.537537 626.651855 683.258301
-148.201736 639.832153 723.447693
-236.254135 525.844543 686.718628
-78.156242 601.845764 729.255737
-260.454865 509.648407 671.707947
-403.427704 721.354126 556.093567
-341.265137 355.859619 654.863037
-320.314880 843.901184 716.354248
-221.604340 683.221313 691.704041
-339.346771 328.050781 637.410950
-390.145538 666.705688 647.710571
-74.082680 762.335022 743.637695
-276.298462 382.090393 668.619385
-284.096100 760.260193 674.703491
-227.669235 612.320190 673.394409
-123.779488 553.550964 719.827881
-446.537659 678.703796 628.231995
-353.810699 443.930939 663.406799
-177.633438 546.610535 679.221924
-62.162670 738.807312 742.681213
-218.833328 734.979370 696.352478
-265.009308 633.621582 684.041016
-354.536896 748.075317 682.773438
-104.916496 578.915222 721.062500
-281.627533 608.519897 682.794250
-462.914642 654.351624 623.316895
-231.113434 771.353882 672.882141
-370.345795 574.989807 644.028442
-358.908478 623.603210 649.303650
-364.320587 774.838501 680.639282
-473.706238 604.845642 637.670288
-172.285950 556.484741 688.390259
-205.959076 852.372620 682.141174
-413.537201 715.625366 637.651367
-386.530609 716.222595 658.271118
-421.251556 490.015717 626.999512
-424.311676 427.471497 636.123474
-244.194931 456.125641 696.252930
-83.045441 677.403687 738.750305
-273.834595 396.391693 683.713501
-155.132599 532.527893 718.183472
-499.067413 575.554932 633.344727
-114.545708 725.037964 730.060181
-153.013382 768.679260 726.474976
-319.393372 604.872803 662.462280
-251.111679 648.568237 679.291016
-293.717072 449.165497 646.307190
-92.295807 756.191284 713.524597
-205.724487 546.225647 706.568970
-207.512299 747.809387 700.967407
-193.818558 848.729492 711.671814
-422.798370 695.807800 619.965088
-294.649780 384.980225 677.144287
-119.443810 758.449585 725.419312
-291.100555 841.764587 715.527222
-205.250320 760.013000 705.820068
-396.732635 494.871521 646.413025
-358.295074 576.394897 650.461426
-497.129913 524.933838 595.454895
-282.671906 375.295593 666.274536
-246.986588 589.229370 684.496521
-94.097740 679.519775 741.216797
-332.414581 815.016724 656.338379
-476.227478 643.497192 621.874451
-398.646515 735.515259 607.960571
-289.311798 422.265839 677.858276
-220.862778 859.946655 727.084778
-97.427925 680.442688 735.188354
-322.767639 373.184113 649.130249
-467.417267 504.252625 610.696106
-404.461334 693.937744 634.431030
-440.025299 458.819092 619.554993
-192.034622 684.711609 682.747070
-352.590668 783.839172 663.625244
-341.089172 616.294373 651.868835
-385.980835 628.534363 649.423706
-312.844147 592.297913 658.391479
-175.563477 548.369202 708.684021
-388.637756 554.471985 652.136475
-145.276474 522.095032 717.565552
-321.582336 525.460388 672.192444
-29.653292 675.223755 752.443726
-217.581451 516.881104 701.078979
-162.982834 533.303345 716.405212
-357.533203 768.527527 655.360779
-334.910309 696.579041 666.229797
-152.137665 688.210999 722.496155
-61.564644 659.672424 748.701294
-245.049255 610.053467 684.247070
-57.054710 699.366333 733.628906
-206.525879 596.984863 677.714905
-195.267471 535.625916 707.780701
-243.799866 659.846313 680.813354
-243.558884 383.637817 688.192993
-271.329590 678.758789 684.289429
-448.294373 645.320251 643.381714
-94.071175 732.004517 731.477661
-443.151764 458.661041 606.537476
-153.328690 670.466675 711.052979
-392.884552 744.739746 598.752136
-517.117737 606.632385 653.992615
-219.293930 636.413208 692.040894
-294.729828 468.064392 657.481628
-252.362442 773.135193 680.383057
-169.536819 690.013611 715.405457
-273.409729 872.693420 728.632935
-219.563812 801.923523 697.101990
-397.763458 456.102875 622.518738
-48.305717 730.849670 758.760620
-307.429230 353.948059 644.874817
-207.308472 608.822510 690.879456
-437.545502 435.387115 619.114197
-161.593567 764.272522 718.866638
-216.891388 513.520264 679.812622
-139.771820 780.781128 724.907471
-282.392029 449.027893 649.757019
-235.597580 445.277588 680.949646
-441.736603 473.495331 616.781067
-263.212280 391.957916 674.657532
-352.583954 570.867554 642.248413
-239.468536 585.076782 681.383972
-368.913300 740.756714 660.124023
-345.357880 820.586914 707.711914
-273.076569 747.310364 690.142029
-317.768890 459.380096 669.941406
-305.879364 815.447937 697.268311
-323.665741 522.712708 649.919373
-22.432968 680.787476 738.782104
-281.433624 614.071594 670.339539
-469.518738 531.869080 622.525146
-236.066101 593.202881 685.035706
-333.215881 495.757629 666.326477
-161.418472 708.629272 714.456360
-228.311646 827.322754 691.711365
-216.921082 850.892151 703.065857
-27.870922 712.341187 750.294617
-67.587967 627.871277 747.092957
-386.152863 705.160217 649.901245
-261.894287 665.824280 676.576904
-88.721581 735.943542 738.204224
-397.712585 414.106354 620.253784
-308.220245 373.009003 642.014832
-342.972229 427.297791 638.801147
-324.520874 641.988464 672.234375
-310.537018 662.854919 673.233032
-439.751160 670.751221 606.319519
-381.302765 746.716797 568.529358
-462.394714 478.364716 623.682983
-429.147522 639.742798 640.903625
-267.291016 455.362946 670.392395
-540.641113 533.260681 627.840515
-196.549103 477.768250 700.605225
-351.328674 498.018890 637.243530
-198.489914 499.688721 678.379639
-315.780762 411.410034 670.160950
-250.935883 638.281982 681.131042
-344.447723 415.336731 666.294067
-401.052551 410.394073 625.858154
-450.491943 562.865356 626.071045
-258.620636 730.619141 682.646667
-164.887848 544.146851 710.908752
-235.954865 787.912231 692.346741
-416.521515 719.210938 571.923218
-227.519958 844.436768 698.010071
-111.718849 570.328064 721.240112
-88.928383 656.575623 734.722107
-266.549469 585.065125 690.819641
-30.230011 691.299316 743.097046
-328.718170 511.128113 670.166504
-155.339294 559.870972 718.631470
-202.181213 727.026001 707.536011
-99.993195 678.636230 727.095276
-178.785217 519.954651 698.638550
-62.885124 667.276001 731.124817
-394.913452 581.756104 636.912537
-271.802429 351.882080 676.521606
-405.691345 713.690674 585.083130
-39.904598 655.905823 738.525269
-350.699890 606.301758 654.778076
-303.182434 537.024414 665.112732
-249.630920 498.755676 688.238953
-278.881622 860.742859 719.126465
-320.378845 600.781738 656.243347
-147.155151 650.083008 722.857422
-155.406982 662.347778 719.208923
-384.110321 485.202606 655.314453
-364.267090 574.737122 637.049927
-246.809402 597.191711 696.606750
-439.803223 697.308228 590.936768
-387.034729 746.725647 626.478210
-266.908173 650.205078 686.352234
-172.208450 607.620728 704.187805
-344.324951 423.473206 646.408447
-66.060471 642.463623 737.266052
-368.775482 508.417572 645.386841
-167.362350 793.436462 697.671875
-311.573975 634.407898 659.421143
-209.758530 760.075623 697.573914
-374.975189 731.750366 643.413391
-92.081459 672.871338 736.322815
-331.701752 623.491882 666.822388
-242.845673 446.996887 682.666992
-422.332855 711.949707 572.531433
-428.532440 583.680908 619.952881
-193.093857 506.546021 695.245178
-242.804596 853.555969 699.765137
-94.944023 591.460876 731.211121
-344.520020 453.369080 639.766541
-179.872910 711.687744 718.253113
-202.710098 661.097473 705.553284
-245.835709 600.556335 683.031250
-228.556793 439.772186 662.809326
-503.987061 510.192596 611.318726
-452.156036 436.867035 631.261292
-417.343140 480.977814 640.307617
-217.121109 877.185242 711.009033
-429.380981 523.408325 625.819153
-219.774216 447.743378 669.544006
-283.224884 523.241638 685.217834
-293.152069 371.152130 662.762390
-178.501129 722.793091 709.707336
-371.133636 764.135864 587.167725
-317.959412 830.587463 698.561584
-318.486389 392.817963 661.105347
-264.264832 785.185242 693.386414
-129.121826 591.805298 715.351807
-124.885971 609.409241 725.595337
-282.124298 748.072449 678.578308
-269.462708 834.445007 697.532227
-157.451096 709.255371 717.507385
-236.474304 674.045166 670.749329
-289.251801 635.531860 669.446777
-365.147858 556.010010 643.067810
-454.136597 685.133362 590.339722
-229.793335 436.362488 673.479919
-296.415192 510.397919 669.246826
-273.701355 694.217468 675.940857
-184.299103 715.466309 707.169189
-241.447128 433.697693 674.024841
-268.820129 669.026367 676.612549
-371.057709 718.163635 668.672363
-255.692764 538.966675 691.381836
-263.502380 687.244385 686.859802
-415.637787 717.162537 620.159851
-173.486328 661.809814 707.279541
-438.874298 426.889771 608.094177
-221.055084 713.646423 694.311096
-405.521851 587.899048 648.436035
-328.696503 801.538574 671.793274
-263.240448 596.740906 660.446045
-475.199677 488.382111 605.327698
-485.849365 467.401886 603.945801
-244.192307 435.912750 681.121521
-414.590057 725.692017 602.967224
-173.854401 598.926697 704.774353
-180.254211 507.277313 712.373535
-203.129822 791.680176 703.176636
-210.718048 858.568420 712.785278
-78.405678 635.314148 731.859070
-416.143799 579.846375 638.071655
-259.856934 611.761292 675.755676
-144.872070 726.571167 727.704041
-285.241425 518.112671 659.438965
-353.831299 526.272400 658.730103
-360.381287 522.792725 656.625305
-31.564493 664.888306 754.040527
-362.073517 769.426086 660.530212
-122.252060 560.605713 725.676697
-166.198364 850.088684 706.352905
-183.348526 592.241699 703.183899
-259.506378 454.747284 688.428406
-249.563950 457.118805 686.841309
-103.888107 727.438538 731.567383
-69.529236 715.799011 741.379395
-356.204285 722.493713 651.962036
-143.995667 763.739197 725.762878
-254.778610 559.208435 682.453186
-304.663025 639.826843 680.325500
-408.116058 547.692200 629.725403
-119.691559 739.567017 734.817078
-148.634781 624.810608 716.787842
-461.757996 662.309570 612.773132
-294.137238 325.006073 670.324707
-360.516113 762.733948 639.997620
-203.372070 832.817261 704.633606
-186.167847 601.545105 696.909058
-164.980682 674.271790 711.086975
-186.073715 543.426636 703.738525
-197.710495 818.790100 705.776245
-345.478210 482.864136 654.554260
-231.194641 534.673828 684.246033
-273.948822 867.350342 700.691223
-370.248199 504.246948 640.948303
-129.467316 567.560486 719.989319
-165.868500 644.625854 712.401794
-164.473083 745.005798 723.322266
-199.491547 796.110474 688.179749
-194.915604 553.130066 704.510925
-182.972366 794.291260 717.091675
-437.982605 448.539612 598.717896
-363.743317 727.476685 674.796997
-237.126694 610.217163 698.452637
-447.091522 511.617828 612.696899
-265.344208 489.290436 672.871460
-91.736862 607.695801 726.395874
-253.019821 508.191376 659.879944
-246.488602 497.446075 683.333252
-130.372696 600.416748 723.184509
-232.856934 510.777832 674.820435
-378.022247 491.277374 627.874756
-279.411804 365.503387 668.272644
-242.570496 875.235229 714.463257
-452.393738 451.416046 630.173035
-309.491333 371.162689 676.084839
-157.939606 647.242310 707.269348
-258.161499 683.507324 679.733826
-329.303131 770.977539 662.067993
-203.767075 647.988098 691.962708
-468.594482 529.688538 619.713806
-58.567406 642.061218 740.767883
-351.746155 450.364655 653.320862
-276.447479 438.945923 669.093323
-197.783005 703.539551 698.144897
-325.403656 603.914307 670.745178
-169.568298 700.942200 704.081360
-102.230934 613.867920 736.668640
-240.892395 546.051208 695.335693
-293.244232 595.397644 665.834778
-333.586792 634.629395 654.033386
-376.723969 751.035583 568.745728
-191.341660 873.033447 721.949646
-230.578522 435.614777 686.485779
-439.340912 684.914734 642.828918
-269.142242 410.074127 668.144226
-96.231323 613.347412 721.460571
-423.850739 717.971191 593.189148
-255.691254 546.725281 675.842102
-268.729279 407.292603 666.706177
-455.891479 642.416870 649.256897
-267.443024 609.503662 671.468384
-220.728043 432.411285 686.786621
-284.702484 381.434509 665.107605
-74.384720 654.927307 718.399353
-127.775299 541.718140 718.163879
-419.206177 657.578918 647.822327
-141.979355 782.494873 702.262390
-310.307587 856.623962 718.239258
-396.476074 721.173523 632.915588
-306.511658 528.496277 656.366028
-127.151764 643.670837 723.649902
-292.315125 363.114502 682.300110
-183.783691 615.406860 713.111755
-507.861023 517.231018 602.961182
-174.903168 537.040894 703.653809
-171.664169 510.736176 692.844666
-261.623352 379.376404 671.409973
-335.137970 527.058044 655.278687
-88.954453 587.474976 733.570801
-343.799042 384.548645 648.860168
-360.943542 535.073181 656.653076
-289.002808 708.697571 656.282776
-320.072205 832.057800 677.224060
-212.694382 585.667603 704.530334
-287.467773 560.931274 668.071167
-143.081421 674.398499 713.901245
-248.876160 503.735107 681.998657
-223.790756 835.771667 696.728882
-269.369659 485.934418 677.051697
-134.645050 649.011780 721.171143
-140.529755 638.938599 714.143433
-193.513763 758.312988 706.643616
-508.432343 583.993347 635.322815
-334.776520 591.101746 656.601624
-245.890015 540.480286 679.057312
-364.266571 755.367920 620.481689
-495.303894 500.720886 616.027405
-342.907959 685.028076 670.320862
-90.600967 566.943665 737.300903
-101.421478 697.950806 739.209717
-459.932312 680.879578 600.721008
-212.945251 549.536255 692.619019
-317.103241 682.184265 655.661255
-318.853699 621.885132 670.581238
-259.709259 564.355103 689.353210
-423.641235 559.647888 639.619629
-49.677834 634.126648 749.456970
-310.399139 404.793793 657.100464
-435.623779 432.605194 616.719238
-165.942062 574.758362 712.493042
-466.771698 637.919495 652.499023
-244.164169 652.423096 684.043396
-154.167953 697.754395 718.129883
-171.468811 718.652771 713.256592
-198.343430 798.455139 712.480957
-309.805328 723.945129 664.699036
-323.253967 812.769165 705.285645
-128.167221 563.937622 731.615601
-61.483719 661.938049 734.951782
-151.945435 504.107361 712.932739
-287.335907 804.122009 686.483398
-290.587280 565.686340 652.100464
-418.839294 722.041687 582.135803
-189.961075 575.476929 703.595581
-459.001587 457.044861 624.323303
-232.530548 641.283142 696.813965
-343.315308 797.602905 707.823853
-368.758820 473.844604 635.917725
-400.608154 381.848755 625.391785
-175.799728 705.257141 705.495605
-337.692444 555.721619 667.107422
-107.263252 675.153687 719.619934
-212.881668 433.187897 690.770630
-361.026855 792.867493 633.285461
-239.746964 435.999207 702.336975
-336.074280 575.065674 669.911133
-237.573318 547.245483 697.373901
-281.887451 578.997314 681.847229
-270.056885 493.042511 676.681213
-172.906235 520.165405 700.738770
-263.423035 442.682404 686.934387
-251.443527 700.049805 690.861511
-265.649200 555.347168 668.420776
-406.028015 741.089966 609.650391
-187.835922 711.809326 706.034485
-239.460373 898.733398 738.207092
-281.674835 551.162964 674.927124
-253.364365 489.103424 676.543884
-329.014465 809.267883 711.681274
-456.863953 584.421204 627.842896
-238.378708 559.540344 668.603699
-307.384216 683.523560 668.062866
-360.821533 541.963806 649.600464
-132.626678 596.750671 715.385437
-179.760239 673.315796 701.122253
-151.393295 551.403931 711.774048
-259.798370 626.470215 680.857056
-149.214355 658.440308 712.239502
-206.543289 489.298920 694.374634
-274.225342 625.997314 674.928040
-330.018127 598.681824 657.421753
-191.435852 561.006714 675.410950
-457.553894 444.120209 610.575195
-348.431183 791.696228 673.588013
-289.259583 462.278748 664.972412
-184.369476 719.897583 701.591797
-155.437927 533.440186 715.157959
-477.843506 642.759949 646.092407
-189.512741 476.670746 694.039063
-119.795021 681.901489 730.895508
-358.685150 482.500916 627.443665
-373.245850 719.535767 668.356995
-218.995377 770.131226 706.826355
-185.159286 705.766052 685.463623
-184.703415 783.434021 702.986633
-240.687012 498.132599 690.816223
-196.185013 592.230652 709.367615
-171.000458 599.700928 712.378418
-463.661591 554.443726 609.695374
-335.557159 652.117554 658.543945
-266.329559 462.290070 670.817139
-224.043350 643.502075 688.035339
-384.122894 728.522400 642.645325
-370.658447 410.865845 640.043823
-143.618881 555.444702 720.005066
-257.779205 670.559998 689.134399
-328.763153 401.513855 670.458130
-339.419800 308.291199 650.915161
-188.137253 747.510376 685.902466
-218.452087 580.138672 690.618896
-332.078064 653.485901 651.965149
-179.878876 551.005371 701.145508
-212.162857 493.204071 694.354553
-201.298233 681.089905 700.769470
-438.842621 619.382568 639.637024
-394.448181 580.650696 645.996399
-457.838623 482.076904 625.273926
-233.705688 738.168030 690.852844
-168.626419 796.137024 710.917480
-59.917057 679.270081 732.397888
-277.719727 796.611145 682.585083
-48.640602 635.632690 747.013550
-253.525345 748.856323 683.192383
-184.662170 738.993469 686.936829
-469.145813 608.476501 638.998718
-256.644623 704.789307 682.315308
-295.734283 449.167786 678.229675
-437.752838 676.594177 612.678650
-287.103363 689.307739 680.158142
-364.675842 597.632813 647.930664
-348.399658 530.901062 653.276245
-156.168091 710.009277 720.193054
-175.781891 581.565430 699.190857
-295.712921 326.710052 672.508423
-289.977814 458.868286 666.199036
-246.741837 465.826172 691.352600
-205.622360 782.885559 703.160828
-237.693359 620.469543 696.327332
-355.830383 790.288391 696.560974
-105.925385 732.109924 735.613464
-195.362762 845.587341 705.728821
-170.679749 598.704468 709.794678
-347.301331 438.426849 648.428955
-160.647125 778.801086 719.132446
-347.974457 642.685608 663.119751
-389.494904 584.871948 639.330994
-411.834473 499.462982 626.887756
-240.870010 695.902100 686.253052
-230.081512 467.720276 687.371765
-243.813690 488.625732 669.616577
-135.858017 645.906189 728.107239
-172.122040 533.855469 718.557800
-129.691040 747.659912 728.185669
-379.010010 729.169373 659.459595
-389.808868 557.387573 636.320740
-297.609344 702.212769 675.667358
-395.632355 701.602295 636.760071
-428.480499 708.849915 615.752075
-15.374085 692.973389 750.902344
-234.344574 721.087830 687.865112
-360.872620 785.420837 634.751465
-188.600677 479.294189 708.329834
-127.731133 574.606079 721.687744
-284.419647 751.669983 682.938843
-205.317032 575.774536 702.662109
-253.299423 398.876190 671.135559
-263.247925 546.749023 689.305847
-218.317551 593.785461 691.060669
-197.644135 829.668518 706.719299
-410.988434 502.179443 639.851685
-381.152191 741.234497 580.971680
-151.513184 557.939148 715.149109
-53.356228 678.766357 750.551392
-101.764229 749.845703 708.425354
-330.252960 723.981812 662.604004
-394.943604 651.436035 646.469116
-398.366119 396.668121 648.335815
-252.011856 457.873840 680.349609
-403.692291 737.561646 620.627991
-475.350983 667.580627 611.203918
-191.042877 688.315002 710.635986
-454.339844 626.512390 651.867920
-331.203552 309.869019 652.641724
-424.292847 435.026093 636.441223
-93.810631 595.997131 741.276794
-272.220978 600.803833 689.410950
-133.792084 611.031311 713.075317
-173.177612 478.354614 708.273010
-227.144287 691.809326 699.259094
-233.273849 630.425842 697.094727
-96.223961 755.541565 709.974121
-438.108368 469.619507 623.026672
-195.311340 724.100525 698.073120
-164.712143 542.215271 709.314087
-187.340317 713.253052 681.723999
-415.176422 648.427795 632.702881
-78.545601 679.645447 739.920471
-146.627563 802.381348 709.890320
-461.122253 607.096191 634.249573
-272.508881 557.384033 683.987305
-425.419128 548.187805 622.467651
-275.426514 631.651489 673.319946
-362.246948 664.258423 654.847900
-304.535797 531.625732 654.171570
-381.787262 413.744232 633.076050
-220.346848 438.777130 690.517761
-111.251915 777.191833 733.036316
-319.287384 666.216858 655.688965
-10.320393 686.137878 755.461792
-261.893158 750.665100 665.797791
-426.648071 501.329407 628.434082
-192.128189 503.798737 694.084106
-96.072189 622.337646 729.951355
-177.298798 740.768799 689.100708
-334.804810 641.938232 657.046509
-297.433502 334.626038 671.789612
-311.447540 621.869995 672.701843
-345.323578 762.962708 666.406250
-156.550385 713.624878 694.155884
-212.106689 472.461273 672.523621
-264.885773 728.862732 676.718018
-378.070038 667.245789 650.820679
-379.213226 681.177307 652.255676
-261.876740 465.944794 688.210693
-121.362312 552.957153 723.726563
-465.929993 562.176208 613.071655
-231.641327 405.591461 679.122070
-90.787567 594.851074 725.361328
-361.152466 556.918396 660.336426
-413.193970 695.787048 644.123291
-374.736206 782.598999 620.585571
-176.937851 498.399628 705.477295
-425.928314 698.364197 628.719666
-302.757172 443.569611 675.000793
-42.382401 679.503723 730.910034
-191.161560 628.928711 700.321899
-364.708832 393.321838 644.694580
-290.324951 460.527374 678.233215
-290.581390 565.030090 667.005371
-254.028748 732.896484 679.696106
-142.619949 561.169189 715.088623
-456.835083 451.197754 612.501587
-324.237183 605.750916 668.634766
-291.123840 454.355499 665.682007
-433.743011 555.056213 620.704834
-87.060234 635.642090 738.209290
-344.958160 811.923218 679.954468
-343.847931 327.860565 671.147949
-299.529663 642.792725 681.903687
-103.790779 743.477539 732.632996
-176.472946 707.419739 718.909119
-38.311405 654.296021 753.936035
-152.791855 710.144104 720.172363
-488.591766 572.026794 627.586670
-117.841530 654.036133 720.367859
-300.760071 366.210663 638.265808
-338.681732 572.666626 654.904419
-364.262512 756.042297 666.981323
-465.265411 643.963989 604.558655
-59.007023 690.599976 725.699097
-378.174255 567.973450 641.007263
-181.991699 465.708740 702.745483
-178.859451 479.445343 704.437195
-434.614655 578.190491 621.520813
-464.829163 665.141785 593.168945
-99.735657 540.854370 717.470154
-322.889587 526.341370 655.541138
-336.019653 330.629272 677.564514
-235.785492 539.201599 685.821045
-235.476089 581.235168 682.197144
-237.798050 454.923004 674.725159
-122.529152 704.296814 728.298767
-100.311272 684.126709 731.699829
-326.956970 761.490723 669.068848
-193.391144 561.908325 702.092896
-160.993500 835.612000 725.206421
-77.658508 730.280518 743.671570
-144.736771 569.109131 716.957886
-107.931252 642.963684 701.587891
-407.295410 586.796448 630.143433
-119.437523 540.392883 728.487305
-151.182266 588.376831 721.345459
-53.860794 696.453430 745.431580
-47.984203 662.657654 741.183289
-453.883484 653.652893 634.455750
-157.225555 548.544556 711.123169
-416.227722 621.075928 629.589294
-87.397270 594.373535 725.068970
-81.981689 659.117554 729.594482
-355.650757 768.055481 638.486938
-322.214447 528.387939 668.456177
-106.065544 613.876099 733.228882
-237.213669 463.145264 684.911804
-401.198029 491.261169 644.964539
-393.876465 732.234558 640.273132
-312.872742 448.473877 664.065918
-54.985004 651.175110 747.402893
-378.762390 766.365295 596.942322
-382.333740 744.113770 662.543396
-54.767643 627.263855 745.342834
-198.762421 651.303894 711.135559
-259.237183 499.244598 685.950500
-333.554382 339.477844 634.997253
-65.445457 702.744080 734.892700
-475.487091 655.833191 610.203064
-206.830673 517.954224 700.538696
-319.088043 471.946198 658.161438
-357.785950 340.475494 650.012207
-404.992859 717.810730 560.030212
-319.754517 763.522583 671.552368
-334.743683 632.200623 640.504822
-148.040634 535.763977 709.325256
-421.032806 673.172607 662.179688
-207.103165 796.247498 701.960266
-235.936646 568.789734 697.175232
-329.440735 299.871338 662.191467
-175.482010 586.285095 710.859070
-256.463776 423.428040 656.100952
-445.556000 528.458374 618.363098
-152.950089 662.507874 711.310730
-290.067841 793.028259 691.207642
-307.696075 712.846313 676.491211
-245.265793 867.763794 702.763977
-206.186417 499.259705 704.322327
-330.915924 419.636810 663.000854
-124.330254 644.402222 723.992859
-197.656860 739.952881 712.463196
-79.144112 698.495178 742.043091
-388.499146 429.674164 638.276672
-175.526917 565.891968 717.999084
-229.073807 553.784424 690.505066
-202.489090 455.244873 696.647461
-177.206268 678.343384 704.833496
-240.115662 568.479675 685.300720
-417.181885 548.959473 625.921021
-325.124115 369.891693 668.806885
-217.036667 534.976563 704.379456
-466.916321 443.364838 626.770325
-196.706863 685.194336 699.450806
-4.171742 675.106262 748.691772
-153.722290 614.595886 723.242432
-228.660919 736.927124 687.394958
-273.998505 600.929199 676.818359
-393.129303 686.496582 635.842712
-329.278076 816.553406 641.809570
-347.226227 684.363464 665.437439
-237.166656 575.884583 687.114502
-340.389801 802.099060 655.316040
-377.207397 763.630493 649.828735
-124.287804 696.115662 733.279053
-296.823334 692.158936 680.489624
-231.029373 666.884033 692.767456
-305.469788 585.854309 666.959961
-81.714928 656.612915 716.068359
-388.957611 365.900818 644.976074
-251.042526 652.979126 689.123291
-455.092682 560.854004 628.209534
-300.024048 617.891907 676.062378
-93.485542 602.704468 723.792969
-308.003967 558.359985 665.018066
-376.216949 770.209412 606.847656
-98.329582 626.748474 735.578918
-81.361565 565.750305 720.098938
-151.104919 695.698792 705.673035
-69.686546 715.155884 736.635742
-468.204041 661.263855 615.106873
-169.921555 508.699677 701.995117
-221.204117 519.851440 690.248474
-338.819397 813.037292 641.865356
-175.464554 679.735657 707.937805
-182.498230 465.336304 699.483459
-366.051819 535.243530 642.962036
-201.014771 616.571289 692.506409
-177.949997 763.522156 710.209961
-223.951950 550.105225 700.344360
-170.534058 595.000732 705.528076
-417.452423 641.149109 653.054626
-262.584442 651.002991 680.862671
-129.646652 550.229858 725.989319
-208.677841 421.894897 688.323975
-355.947632 790.491028 625.542358
-345.809753 825.665527 695.028809
-327.095551 824.716125 678.077759
-409.500427 564.838501 640.258789
-371.064514 599.263916 643.504395
-466.095184 647.809448 589.228821
-292.916901 498.017456 658.881958
-327.543640 796.992004 703.339539
-235.418976 873.106873 711.989441
-187.752441 560.350525 712.811462
-230.429916 537.211853 664.113037
-349.791809 688.734314 662.772705
-327.067719 751.235779 683.264526
-215.764984 537.290833 689.498108
-422.520782 447.529724 624.359741
-112.031982 770.938538 734.490051
-84.482475 590.053650 734.056091
-214.570221 820.817993 679.775085
-394.861176 664.573364 651.144714
-210.957321 572.790161 701.204224
-55.228966 704.106079 752.111816
-83.272400 756.606018 737.474731
-204.158539 765.919250 710.196838
-185.477463 629.933472 678.449097
-238.814621 835.359436 689.920044
-200.589676 501.637482 691.244934
-440.460571 443.780853 617.425293
-248.139771 389.808777 692.697021
-253.289444 614.521484 690.978699
-262.270050 661.207397 691.471985
-212.642288 698.722351 702.242188
-390.178741 521.838623 652.923889
-58.727955 659.742676 744.341797
-364.165649 553.732727 647.261353
-258.502716 584.908081 682.288391
-146.498505 629.957520 720.234619
-233.788116 441.229828 678.198853
-143.667984 548.544189 715.878479
-305.980103 678.887207 666.994568
-352.460785 778.958191 666.002380
-351.749817 463.243683 645.346863
-355.536865 803.705322 638.721313
-184.320633 695.474060 681.782288
-437.358917 675.538025 632.634277
-320.626953 727.952698 662.119385
-165.650375 604.723328 707.448792
-254.346970 791.851685 685.097473
-55.618969 694.723145 748.578857
-133.651413 694.611572 716.632385
-157.719894 672.931396 713.273560
-338.691071 827.619202 685.814941
-79.722862 752.257996 738.431213
-345.895050 591.634216 649.510376
-266.401245 710.667847 686.414734
-284.753754 627.951599 674.884094
-290.702850 405.183746 677.180908
-385.906006 572.504333 636.004211
-365.950592 488.032410 641.964661
-103.162750 696.008850 726.609070
-425.871582 685.151306 652.555542
-277.123260 530.957825 685.494202
-75.711014 694.259827 742.503601
-265.389587 433.009338 669.946106
-350.756287 476.149811 638.951294
-308.330383 454.962830 647.937561
-143.382599 759.698608 726.064453
-393.878632 711.917114 658.281433
-316.525635 332.215332 652.310852
-67.983742 635.522339 729.315735
-327.339447 659.103027 669.293335
-379.816589 533.932861 649.335632
-273.653198 541.678040 686.497620
-295.913727 403.751709 677.640564
-338.620972 333.288727 653.131958
-67.273811 654.639282 726.227844
-295.384003 650.122864 681.558777
-289.510437 662.394836 678.995850
-251.702316 524.192261 661.833496
-303.543335 706.790344 668.975281
-415.696136 696.381470 630.242798
-459.094849 661.078308 624.633057
-365.832031 786.719543 651.276245
-391.597656 727.464355 606.629272
-347.701752 440.190277 648.408081
-393.647461 757.225342 598.211609
-156.577759 658.423584 695.406189
-65.396393 671.132019 742.727356
-269.701813 498.083282 672.411011
-256.143799 854.812256 710.948303
-88.951172 718.505859 739.941956
-264.607300 482.039795 675.635254
-361.532440 760.235474 637.377991
-445.832306 685.820007 593.842285
-24.396904 688.273132 757.918396
-96.009552 706.187317 735.213989
-402.635681 453.392548 644.346680
-245.823532 870.735229 720.178467
-389.804810 647.810425 644.327698
-353.029358 341.360596 653.934753
-254.010910 717.281189 666.510986
-192.278091 646.509521 709.933777
-91.499832 684.754517 738.839417
-409.988556 577.802185 629.132690
-104.722961 697.002747 730.911499
-63.729980 645.877563 721.357239
-56.401394 717.277222 751.184937
-391.304169 398.027740 651.004700
-428.823914 556.757874 630.255798
-56.854324 649.676147 731.998291
-372.063202 773.618408 601.092773
-249.539871 593.109009 694.349487
-189.320694 607.360901 703.448853
-359.270966 774.116394 657.956116
-287.692993 692.639404 674.669189
-294.970276 361.335236 662.071899
-491.103668 497.906921 605.954163
-238.859131 571.939758 683.528381
-385.145996 460.278992 649.990295
-78.020958 679.669495 717.839844
-408.748932 717.217651 639.592163
-91.401405 601.279175 731.628662
-202.044800 532.125977 702.149902
-117.048584 699.409424 732.436035
-300.286743 422.181885 679.034485
-120.267822 546.202881 721.784668
-400.927155 696.991272 656.340393
-386.733398 537.517700 653.980347
-390.199799 522.164001 617.938538
-167.839737 566.781250 709.528259
-299.929749 737.141785 668.854797
-139.647934 568.173157 708.171387
-438.944946 624.131409 639.119629
-143.075500 551.614075 724.116699
-367.757629 344.890472 650.017273
-386.307648 387.483246 621.802063
-470.116089 485.024902 619.903381
-248.607834 744.382813 683.020264
-521.736633 582.788330 651.561584
-271.261475 559.156677 660.012512
-280.858185 638.809753 676.437622
-435.597107 569.950989 613.309265
-170.132675 742.505981 691.264343
-266.779663 572.056641 685.531921
-236.266464 603.045532 687.721619
-237.385681 811.791077 693.031921
-127.509537 630.345093 729.635498
-284.116882 580.025574 668.125366
-333.447510 416.798462 665.428772
-167.655930 726.996765 715.574707
-127.993172 775.836792 709.260742
-244.813019 784.264404 687.124084
-61.075832 670.053284 727.767639
-280.165192 485.633789 670.561523
-255.517975 399.656555 678.563599
-344.933075 772.724182 652.287659
-245.477524 763.229919 696.930420
-325.339813 435.054596 658.494446
-326.982910 376.177185 652.515198
-499.464844 608.662476 648.524719
-414.271606 591.911133 638.806885
-194.568924 566.950623 681.758362
-37.643272 650.340576 742.153442
-207.268906 516.191589 705.569336
-236.312393 518.795715 686.456482
-16.012232 690.655640 763.053589
-277.235840 683.171997 683.068054
-386.780426 534.068726 635.688843
-303.511047 681.018738 666.623169
-201.189285 770.199707 693.882874
-354.991974 440.203278 646.091919
-128.713074 729.974487 726.594971
-278.313507 869.775391 728.150146
-343.891296 578.185791 655.853577
-288.255310 881.882324 745.668945
-346.335876 465.271454 661.059326
-197.931702 819.172913 705.248047
-160.695389 545.671509 704.950684
-190.034454 692.559937 684.669739
-327.756439 470.814056 653.451660
-404.026733 402.334656 639.510803
-290.953278 439.720978 678.523987
-143.960190 690.694214 713.801392
-307.177399 831.592346 697.215454
-363.000793 769.903442 590.524353
-429.714233 721.417969 588.484314
-290.332581 462.589661 675.373596
-59.355434 679.564148 732.247986
-270.703094 594.597168 677.273621
-162.118759 628.362061 712.681763
-452.260986 678.800720 608.950806
-327.816925 634.737366 668.439087
-414.081451 703.427124 610.981934
-452.522949 660.988281 611.271057
-133.531967 759.962646 725.904907
-257.403107 431.039856 688.993774
-165.554169 674.545898 692.549377
-430.057526 670.263184 613.751526
-188.449448 760.282043 706.194763
-102.693359 604.087341 708.961182
-227.179199 533.100525 684.357544
-396.786804 721.989868 627.092590
-225.216690 570.830566 697.265869
-313.089172 375.677490 643.927795
-228.866608 514.445068 700.286682
-96.480217 708.023438 734.746033
-432.728210 678.544861 618.230408
-231.223358 716.353027 688.047180
-306.013123 678.499817 659.763184
-116.887375 636.540710 734.762756
-260.068207 758.113647 685.560425
-192.917496 467.251343 696.885742
-341.459015 585.923523 650.427124
-312.365692 701.983398 673.354370
-376.352631 487.168518 638.921692
-262.686218 516.128113 677.678833
-217.942963 816.467529 678.892944
-479.694183 511.818268 596.972290
-125.360313 603.245300 717.046875
-170.105820 789.327332 692.710083
-163.126480 558.386475 717.648315
-244.175018 801.904236 680.212708
-374.689667 756.484558 603.519958
-407.976959 401.922363 623.811157
-299.420807 750.646179 681.532959
-393.990936 569.054504 635.097900
-204.800262 822.979309 703.484802
-252.543137 539.663330 678.221741
-150.846222 603.699585 724.906555
-404.877228 723.100220 663.899536
-240.564621 812.988342 689.238037
-277.124115 687.496643 673.740479
-141.351761 561.020447 718.013062
-310.191101 509.810883 664.849548
-21.454742 693.233521 748.168762
-266.604614 539.635925 675.029602
-295.906921 565.804138 668.829224
-354.776031 601.127502 650.626770
-427.878967 699.696594 621.312439
-390.249146 523.144165 639.138000
-453.591339 482.392242 632.527283
-282.636261 398.364990 664.228088
-413.179138 725.575745 637.814270
-314.340851 547.118530 673.768677
-288.671387 733.541565 678.464600
-338.398712 781.029541 694.105835
-201.064651 834.140869 705.351135
-490.631500 635.164368 662.925720
-157.364914 807.309082 717.950989
-214.286713 473.020050 707.493713
-348.073608 434.339264 635.098816
-178.468552 636.218018 685.726501
-114.084274 729.196045 704.362854
-229.291840 498.297394 688.057922
-215.230865 589.962830 694.383728
-319.664948 363.671906 668.910339
-270.854034 575.741699 679.395996
-205.114182 733.213562 700.282532
-319.376282 388.343353 656.903564
-476.399536 495.148010 617.984619
-207.786606 829.510193 681.503906
-134.110535 725.816040 731.252625
-177.734146 531.474670 701.194946
-353.810364 761.679749 667.648010
-55.328369 702.762451 714.003296
-294.338928 420.848450 661.848389
-229.396240 431.509705 696.658203
-384.050659 477.699432 643.350220
-152.321869 680.740845 722.611450
-316.841217 313.769806 678.870056
-422.663269 712.494019 605.246216
-343.499664 401.435242 666.003662
-347.649902 350.716614 653.829712
-334.362213 498.651489 636.851196
-493.369598 455.496246 626.961731
-399.615631 640.947754 643.310425
-82.112877 735.743225 734.897644
-454.286224 614.101318 638.991394
-358.060211 613.558594 653.749451
-441.131073 551.942932 630.299438
-93.995918 725.830139 732.633423
-178.643814 809.174377 707.478882
-160.316895 779.041626 717.814941
-331.749146 401.946289 653.458557
-245.217743 520.946167 679.784973
-117.746040 717.165100 729.542603
-457.977814 661.492126 626.033081
-250.539352 633.247131 684.931824
-157.704529 730.581360 720.383179
-366.186951 792.489868 642.503357
-156.673706 601.316284 692.867493
-244.267776 476.435028 692.040100
-431.611969 579.634216 619.031494
-173.603302 660.260803 716.262634
-337.989044 553.442505 636.553223
-330.175995 753.771484 655.447937
-424.558655 701.704041 625.782104
-143.335693 785.299500 723.837341
-409.476898 665.808716 656.956482
-294.268341 438.750397 668.983887
-198.446411 600.506409 700.024963
-238.936737 662.470215 686.140930
-355.568787 459.761780 643.916748
-213.742462 796.421631 677.901550
-205.007721 460.837646 693.225342
-425.224701 486.962830 630.605225
-477.738953 635.900757 629.205505
-224.971161 601.793823 694.465088
-336.494446 832.325928 716.618530
-113.200195 699.213074 715.653992
-295.486328 687.636597 668.134766
-486.528748 510.279083 615.216553
-478.877106 520.653625 595.242554
-479.417053 453.236603 619.546692
-363.714691 758.296265 639.016174
-147.475754 791.544250 722.853516
-317.159821 647.803101 662.399414
-147.216583 530.701904 713.272949
-288.819336 364.423248 671.752991
-105.169075 672.353638 724.504211
-197.952850 799.317139 708.225281
-276.113068 485.619812 674.921570
-137.265930 688.536438 729.846191
-388.079834 637.610901 638.598511
-149.212372 780.256042 722.171509
-300.980560 416.745819 660.044250
-115.647606 567.468811 727.845154
-190.931854 769.512939 707.129150
-285.128723 627.665222 681.254944
-308.917389 529.987732 660.129883
-424.084076 710.632019 570.616516
-256.348633 412.241150 696.359802
-297.501190 525.556580 676.683289
-82.290054 647.041199 744.225098
-424.838928 530.932800 636.144226
-249.098221 600.395203 694.446411
-379.650269 581.869629 651.399841
-325.658508 701.200867 660.882080
-203.668320 576.803894 699.657166
-143.538132 673.514893 722.832520
-211.266876 596.543030 693.516907
-293.132782 431.739441 668.759583
-274.858826 731.992737 676.542725
-421.453461 569.614197 635.142090
-318.510773 518.853943 661.361084
-157.444351 783.869690 724.788635
-190.189713 799.400513 704.027588
-87.073235 686.395752 742.197937
-497.812622 468.611420 622.318237
-216.915070 557.755981 704.082764
-363.086700 780.978333 635.019348
-349.311371 410.595459 624.589905
-359.519348 770.844604 689.575256
-232.850632 679.586243 688.782227
-130.068802 671.173401 701.032410
-332.106995 515.030884 656.837036
-197.308090 472.252228 706.342407
-235.633698 427.726685 680.712769
-126.007042 677.601685 719.310120
-188.077423 611.389832 701.726440
-344.645111 817.069641 700.508545
-396.477081 722.953918 595.224487
-434.580719 659.244141 654.392700
-437.163910 680.430481 559.707153
-141.206451 753.640076 698.119324
-414.614746 506.735870 638.654663
-395.923370 744.821655 589.102112
-386.757538 724.458191 654.330078
-283.490051 545.597656 668.948242
-429.124023 422.670410 618.840698
-221.020462 547.335266 702.416931
-186.842850 699.371094 701.518738
-491.999237 637.163940 646.779846
-78.282516 731.735413 737.672363
-284.549896 610.085022 671.279175
-349.710938 600.937317 645.230713
-68.368973 700.599792 747.762329
-154.086502 817.874329 729.938110
-172.485031 588.247009 700.692932
-427.413605 437.850311 641.114136
-205.874802 572.798828 696.502441
-265.164551 597.072021 681.927307
10.900000 697.141357 758.237122
-102.687729 665.546143 732.040100
-197.139389 824.127319 705.891418
-351.979095 810.538391 653.158203
-96.706146 602.919189 705.432922
-199.874359 804.570251 687.370239
-110.543091 593.709778 736.727295
-421.711578 491.846924 605.461670
-508.846680 510.961365 612.100525
-422.028381 701.261292 629.588013
-405.392548 546.142273 615.017883
-204.329132 878.842224 715.896118
-372.238129 771.746765 665.626648
-205.173645 465.597046 704.136597
-343.284637 809.646118 674.280762
-237.371353 587.088196 686.783264
-238.138260 639.738525 682.184387
-375.921814 336.867615 647.686768
-363.136292 787.572937 628.112061
-287.520721 730.832825 672.234863
-125.271667 746.356201 727.979797
-322.712982 310.259430 654.057190
-141.081772 516.775452 715.138855
-328.241730 566.146484 659.964294
-319.309601 582.352600 643.198425
-336.598633 829.157410 694.881836
-322.208832 642.737122 674.845215
-364.997437 511.129181 643.397522
-128.835480 790.118530 727.884888
-240.455902 866.828735 722.324768
-345.035400 819.174316 661.314514
-188.361481 794.553040 684.842712
-49.916149 649.984253 740.659058
-52.645527 697.322327 730.241211
-179.320297 669.071411 717.008728
-42.043415 678.339111 749.460083
-135.635040 730.984741 730.091614
-454.896484 568.460388 627.332397
-476.280823 537.130432 615.784058
-142.129532 626.067383 721.437805
-125.651245 742.480103 727.598877
-263.190033 378.900177 693.278748
-203.145508 476.807434 689.791382
-327.046661 558.320496 659.958984
-508.150360 588.967285 646.771606
-158.716827 595.840210 685.870056
-247.427261 565.890442 685.192749
-304.254456 764.089111 662.905396
-327.734528 686.164795 674.146851
-360.069397 412.827728 661.087585
-368.872162 748.683228 637.714783
-377.828156 748.290222 650.532959
-334.667023 470.510162 651.543396
-338.701813 824.732117 673.550598
-348.188232 426.261871 660.739014
-218.525162 801.071411 698.404663
-384.774170 467.936462 649.979736
-246.010071 629.595886 682.442322
-375.207397 767.825195 588.867798
-473.035370 463.095642 621.304626
-323.476471 539.802185 670.176208
-273.303314 415.169708 672.414734
-44.620277 640.624634 739.378662
-256.545868 419.018585 696.466919
-408.458984 640.484497 625.066833
-108.407959 690.678589 713.142029
-441.421417 465.981537 631.626770
-253.618683 402.365662 672.378906
-418.814362 601.509521 628.425659
-173.390244 613.300964 701.994873
-195.690887 541.799438 701.857849
-139.075256 611.885986 721.281799
-316.359802 637.875305 659.585388
-340.580902 515.716797 649.711975
-410.808136 715.925659 609.647766
-144.066849 720.638000 723.592773
-366.539856 657.932129 661.583862
-99.807014 574.992920 730.946228
-430.634949 683.954346 646.077698
-259.099854 766.380005 693.336792
-335.863647 607.855347 656.010864
-38.262417 718.541138 718.957886
-171.097565 788.550781 699.517090
-456.997589 637.689575 642.939880
-110.957588 747.730774 732.298706
-372.652008 773.557373 610.620178
-76.630852 695.326050 739.967712
-304.062988 455.981018 661.422119
-113.223694 622.308044 720.266418
-178.111633 590.923767 715.894836
-301.332062 867.005432 733.043274
-233.970703 700.949707 692.231873
-330.824280 645.362000 656.794922
-332.455444 822.499573 664.180908
-211.172073 545.139282 706.396973
-320.907867 609.844177 658.111816
-335.200531 677.396912 650.723511
-444.240540 495.339600 625.648987
-324.588745 721.331726 659.769531
-147.567810 535.550049 706.352234
-264.341370 644.132935 677.584229
-218.966965 635.137878 689.351135
-253.757904 494.833252 672.644592
-264.197174 567.545288 678.807983
-375.280426 340.178894 648.176270
-282.641479 708.736023 680.635010
-197.385422 887.665588 722.411194
-420.688690 542.447693 627.090027
-443.975555 682.253235 617.604980
-448.294800 651.287292 642.798645
-395.507172 522.363525 632.905762
-323.235718 367.163635 662.944885
-410.549713 411.449738 626.159363
-39.408226 670.376465 754.770508
-152.158615 499.879974 714.793457
-312.642975 612.912537 655.843384
-153.260101 511.062378 720.652039
-343.279205 527.640808 661.473633
-108.964043 679.283997 717.078003
-295.102203 530.517456 664.235229
-217.962769 800.500488 698.259949
-265.297668 757.078064 667.844360
-553.332458 543.795227 637.025269
-329.211365 774.628052 689.943787
-491.400909 493.387115 608.276123
-440.002472 448.098907 637.164368
-237.701645 591.650940 696.575134
-155.258057 766.452454 707.714600
-289.407776 590.103577 679.412231
-247.867615 796.338806 688.148071
-177.121338 782.126587 688.476135
-349.164642 387.533722 662.573059
-27.502678 659.313538 757.368103
-43.307526 646.348083 740.383118
-440.115173 498.830078 619.317261
-360.104492 797.266785 629.451843
-314.392395 625.124146 660.583801
-343.750458 560.828003 649.607239
-74.674423 617.412842 738.314331
-96.994247 731.713623 735.699158
-294.051971 589.317505 666.738831
-416.043732 709.642334 599.737854
-196.747894 692.225708 693.667480
-245.022858 517.347717 682.364075
-177.214417 495.586548 711.703857
-301.778595 329.604401 676.549988
-228.791382 651.580566 690.729126
-122.670677 772.344299 708.699280
-370.537567 651.682556 645.018799
-69.440590 682.616394 724.837769
-204.660751 520.549561 697.649231
-48.337090 675.509949 746.232849
-467.180176 470.297241 627.263062
-356.845032 620.703064 644.716431
-396.338837 380.063019 629.877930
-62.620182 636.826477 748.691040
-480.378357 642.207642 629.381897
-109.459084 773.617920 716.104004
-250.935120 583.654846 692.217163
-314.057159 450.003784 673.510620
-207.370361 642.526672 697.860901
-303.914215 611.009583 667.886353
-206.807327 602.139404 699.384521
-371.570068 774.661926 622.328674
-393.221100 743.267395 617.461670
-321.552521 584.983887 659.585999
-127.418060 778.615662 701.046753
-157.569611 850.027893 735.384949
-267.722137 582.379456 678.072388
-404.826538 578.025940 645.782227
-240.208313 859.010681 712.931030
-454.081635 660.631958 639.397461
-460.945740 519.854614 613.604736
-40.069473 684.682373 732.962585
-307.526917 602.814453 660.805847
-256.359192 724.752319 674.393616
-404.688812 681.021301 656.235779
-371.278320 442.356720 646.993958
-180.920395 631.158630 714.225464
-312.629913 386.363770 670.604126
-316.560394 464.823822 658.315735
-331.652985 631.177063 667.390930
-274.294464 742.403015 673.857361
-162.185486 770.800598 720.214722
-100.663597 755.566833 733.776306
-140.416611 569.761108 716.597229
-386.378021 390.631927 633.410889
-198.702744 523.818848 698.887817
-264.477966 541.558533 687.536743
-403.582428 716.948425 623.726074
-264.343323 457.210602 674.578491
-464.942596 650.157715 611.710876
-498.095032 487.611389 611.228149
-158.454636 699.974243 724.295837
-215.723618 770.297058 689.160706
-66.275558 634.495728 747.164612
-251.767487 719.853210 683.833008
-411.339325 407.086395 629.921997
-75.467010 683.256897 741.375732
-403.902435 710.535339 622.080261
-282.556641 663.689819 675.919312
-252.092743 749.424805 688.408447
-230.265472 700.930664 690.493835
-265.960480 788.721313 682.842651
-218.829010 863.623535 702.662842
-418.911560 616.773193 638.928406
-288.910095 363.874847 654.973511
-482.410400 638.481567 663.623962
-289.600983 500.183350 666.947815
-272.703674 788.584961 675.524597
-377.963135 722.083496 635.804626
-327.065094 568.101868 658.898682
-98.606049 655.542480 725.709473
-261.166748 492.463898 688.332825
-345.440704 358.809540 655.304626
-129.518997 778.648926 713.581421
-60.834400 621.136414 722.215393
-436.062592 673.614258 613.132874
-347.945435 361.446228 631.177246
-212.832932 651.941284 692.438171
-220.210022 561.965149 690.777466
-306.359741 384.501251 655.027527
-173.660065 732.370422 690.047546
-282.833832 411.748901 675.259216
-442.615784 689.428040 581.679382
-216.385117 397.487061 673.052917
-261.222504 576.616821 677.691223
-318.716736 369.462799 649.827515
-514.466980 500.892273 595.095398
-266.834412 439.821381 675.938538
-387.542053 558.353638 621.202271
-355.809753 519.495361 636.686279
-417.481598 669.208435 639.117371
-68.780884 632.016724 741.711426
-449.291229 696.879456 599.434265
-399.016357 757.624512 603.441467
-87.132515 608.025330 732.662048
-432.961823 571.599915 618.863159
