ply
format ascii 1.0
element vertex 1413
property float x
property float y
property float z
end_header
-0.344562 387.090759 -689.379944
189.180695 405.143951 -796.359497
191.280914 326.573669 -916.444153
309.673431 544.984619 -722.213135
386.677185 490.685181 -824.838562
243.120590 392.913849 -847.357849
199.674179 337.480499 -874.432068
274.089844 508.397980 -747.465149
303.060944 409.008606 -863.144653
380.242737 521.278564 -772.000732
422.762085 429.572296 -962.012695
77.798828 449.996368 -682.839722
450.710236 488.944824 -852.381531
213.840637 449.140930 -766.701721
374.040436 577.384949 -705.400269
143.336334 420.885620 -779.806213
42.191910 338.944092 -819.785828
404.562195 571.250671 -740.775269
289.574127 303.891602 -931.412964
247.083832 482.898651 -746.302124
392.393860 540.344788 -769.387085
214.118774 358.458130 -842.765076
381.435455 574.701294 -699.679077
118.270012 383.792175 -791.125549
129.843521 448.117584 -740.945618
426.669464 449.351563 -868.258667
138.377533 450.851227 -689.734680
214.370834 390.485565 -826.289856
69.818665 399.085266 -736.864929
227.737350 543.615051 -688.102600
484.312866 476.822174 -899.884583
387.066010 353.642090 -947.191040
106.959984 365.998505 -783.380493
345.060150 305.260254 -929.218689
276.290558 323.936920 -944.239685
337.440643 556.655212 -680.749634
196.959198 456.915009 -741.889404
450.646301 581.234924 -749.342896
288.126495 324.363586 -928.354248
256.080414 432.192688 -802.041138
17.794662 399.959351 -734.155640
138.456955 467.252899 -689.533752
264.277832 480.107147 -750.293457
308.130890 272.331543 -917.806335
417.992096 516.841003 -812.961365
40.515858 308.059113 -846.529053
301.522278 504.196930 -754.100342
154.850128 362.767761 -801.293762
162.673187 369.011078 -842.828369
333.632172 556.423340 -709.761658
427.203522 556.435181 -771.794922
472.667786 514.661926 -840.525146
197.378983 414.862000 -780.118530
338.757660 464.722443 -817.243103
433.168854 545.109863 -734.536316
184.354950 514.692078 -678.004578
434.921448 470.090515 -871.386414
118.008171 448.935486 -707.125854
424.714905 600.483704 -686.344177
336.383392 284.096954 -918.348816
135.815521 481.592804 -685.349121
279.803009 435.273071 -815.818054
239.994110 369.520996 -882.703552
259.401733 294.380371 -947.819641
456.682037 466.237915 -985.681641
362.771362 403.620087 -913.103943
442.442902 475.531952 -864.724365
221.389008 259.856506 -919.299316
467.327179 490.599579 -830.942810
388.923706 520.476318 -777.145813
208.170502 309.785614 -937.290283
123.761406 339.032379 -834.810913
351.756744 575.337158 -707.732483
243.993698 502.262268 -740.554810
339.888733 555.314697 -683.875305
357.843964 456.921051 -845.704956
432.258392 448.993805 -983.049866
308.599396 314.914703 -941.391968
256.828308 392.880920 -848.729614
290.440613 499.015625 -747.473999
271.705261 396.543060 -873.276245
121.616478 356.546753 -814.312744
355.845306 506.451447 -791.637085
344.441650 489.342712 -786.211548
259.049805 315.283722 -949.540710
123.943932 334.277832 -824.597168
250.081635 518.600403 -725.693604
109.931976 478.226959 -695.864014
245.546646 325.938416 -945.425903
392.843445 452.783997 -851.725159
314.922150 539.719910 -688.690674
407.406738 390.855988 -947.322388
105.543953 293.148956 -875.946960
454.952728 464.346436 -959.615601
335.732880 412.049866 -871.095764
84.376495 296.227661 -841.920044
344.075226 390.857727 -956.242554
102.168304 354.204834 -833.399902
100.124107 312.533966 -847.004333
185.307678 432.097748 -787.128296
217.796631 347.858673 -908.584534
171.204422 345.555725 -870.491394
435.151733 447.011536 -861.228210
372.278046 583.266235 -700.124207
222.873215 353.323853 -883.217957
374.370026 366.064514 -943.035950
301.336304 403.479523 -866.804932
254.883026 346.742188 -900.302856
286.477325 315.617493 -929.398254
102.871529 466.871582 -706.689392
264.166016 344.366974 -934.328735
470.049103 576.744568 -769.237915
483.054169 470.174316 -886.563354
225.478378 450.335876 -757.151550
359.914612 347.487000 -938.748718
402.370544 563.231506 -710.070435
418.096954 581.134888 -736.666870
121.269646 324.614746 -877.413635
85.471169 462.484772 -670.764343
240.868896 348.124359 -884.398010
361.135437 525.261292 -764.175049
391.838684 355.275635 -940.299438
80.329552 446.209198 -715.740112
253.136826 526.288330 -703.381104
373.136475 351.174316 -940.374573
299.503174 378.332184 -901.492065
185.509460 317.709564 -964.571838
51.956123 361.522095 -776.642090
307.674591 285.634125 -932.386780
262.140747 288.777161 -939.609802
28.432756 338.486816 -775.792847
455.872955 548.506042 -789.265320
349.227356 456.950806 -846.700806
306.865479 446.774078 -812.452209
357.750031 586.316650 -692.030945
365.938721 448.462860 -848.226074
208.875961 452.181915 -757.101135
240.220963 451.070221 -770.784241
427.749115 460.858795 -870.590332
267.351746 525.786133 -701.846741
274.417236 505.896729 -736.387695
286.469727 378.176453 -885.373047
192.746735 406.951355 -802.487244
262.094177 441.648285 -813.534546
100.609116 453.143890 -697.394043
189.127228 335.838470 -874.503906
148.756439 368.937469 -832.309082
300.624023 272.972626 -911.200745
470.651886 468.180359 -908.546387
454.423187 553.464355 -776.810364
398.652557 475.518463 -838.268677
180.053040 435.584137 -759.961548
241.985565 460.006622 -741.819946
144.038055 317.754730 -901.434692
357.222076 483.781616 -795.122192
404.849152 443.073212 -880.922180
73.563416 299.557159 -844.661377
338.745422 516.045715 -770.597229
300.688080 511.569031 -746.687317
462.552643 470.821564 -877.377136
199.212906 404.113770 -810.009033
365.423401 601.921509 -669.137390
429.649933 471.502441 -877.901550
456.414612 436.942535 -944.874146
174.368835 415.288940 -764.314209
65.061501 297.161407 -818.905701
43.760742 399.363525 -743.824951
146.097702 455.047241 -715.632568
133.855087 320.461212 -858.618713
428.618347 488.519836 -844.859558
97.953583 320.401550 -843.390320
193.945297 345.093262 -883.747437
70.900360 329.713013 -831.751465
392.522217 419.706085 -977.173462
148.336914 322.628296 -887.835510
169.223221 470.090729 -737.471191
177.887070 446.296204 -769.868469
95.040352 322.929779 -846.294067
297.575867 330.051086 -937.724243
410.129364 458.223572 -863.047302
302.532806 346.757080 -945.734680
279.976471 386.311798 -863.391663
385.748413 393.419586 -948.513489
134.232346 401.203308 -789.491028
427.693268 517.965820 -799.320923
396.067413 620.299011 -673.722412
181.319992 475.259094 -718.018494
314.718903 421.932770 -842.931152
297.212708 551.595337 -707.767456
293.453430 443.007721 -815.581421
137.179916 461.832092 -676.155457
232.331955 456.591766 -762.590515
185.773987 362.393280 -861.288025
49.107327 374.338959 -775.925171
311.582062 288.573914 -930.818604
245.991379 435.043335 -771.612427
316.628143 417.555267 -860.800415
186.776718 311.081635 -954.381653
406.230927 530.651001 -763.073853
381.447968 514.552551 -794.703247
163.411728 312.127777 -975.685791
70.042511 403.046906 -760.614197
124.232780 434.520355 -726.751648
340.150604 339.104156 -937.849731
224.081009 528.583618 -675.079590
425.026276 596.091797 -715.317810
33.908020 314.203461 -846.521790
472.200012 528.573181 -831.951599
391.702637 402.242859 -960.290405
406.010468 557.376892 -752.621521
129.782059 332.829712 -862.901733
244.548172 498.930634 -720.752869
329.743164 518.277710 -759.204224
309.357544 527.724304 -732.441101
344.301575 581.297058 -689.822876
67.741013 412.936066 -722.666138
214.135666 339.841003 -942.749573
218.145187 528.533936 -662.782043
218.137070 345.552277 -917.131287
243.947617 552.005920 -676.976501
210.401505 348.933990 -861.459106
327.560303 565.107483 -710.430847
321.957947 371.661713 -934.648010
181.610443 486.379242 -698.108704
326.922150 440.850983 -838.925598
95.829636 326.291565 -834.526123
280.998566 367.415009 -919.040955
15.212551 428.930145 -672.260315
323.231567 421.244904 -870.106079
334.401917 414.216919 -872.455811
272.494873 465.437347 -771.619690
64.109337 295.787323 -848.971619
301.277039 331.989807 -938.870361
296.768158 282.804535 -926.102051
261.070496 404.886261 -833.673218
390.171539 471.141876 -837.391907
184.704987 345.635315 -859.753479
232.005951 495.805817 -721.013733
240.042755 428.939240 -775.036255
260.539093 293.516296 -931.213806
329.408508 296.074341 -929.154907
401.095947 605.933899 -678.352356
203.989609 456.537048 -744.694275
107.858269 489.312317 -677.932251
339.279877 467.023895 -819.241455
258.845337 349.850464 -932.586975
365.221588 508.259399 -787.543823
442.589203 519.067871 -778.687927
441.425842 468.654663 -873.256348
102.820053 446.453400 -697.470886
275.917816 436.210724 -835.391296
37.376808 390.965515 -722.118408
112.099426 408.593811 -750.264526
242.179306 524.006104 -691.307983
282.824890 446.121368 -827.659485
208.027481 293.177032 -943.920532
70.863197 397.930298 -707.061279
282.873352 441.037415 -826.248657
47.729702 345.271790 -793.362366
302.392944 521.768066 -733.842651
33.287739 368.019928 -773.134827
189.706818 351.830872 -856.129211
419.104370 586.059998 -706.397888
488.024628 473.335876 -921.995972
143.349243 475.367645 -684.620239
370.564636 400.229828 -936.727478
391.920532 616.556763 -673.022461
361.854523 566.729675 -715.173523
110.778091 393.217804 -767.027222
161.285385 500.501038 -675.136963
149.853851 472.512909 -693.780640
130.614761 370.981445 -830.771790
130.491730 379.403046 -814.757263
119.615746 477.246185 -674.347351
160.951111 366.735443 -841.720520
454.132233 568.314575 -768.688965
53.100704 297.432922 -822.565918
338.742035 289.144684 -910.155334
120.012405 354.108643 -825.958923
156.462723 466.342407 -707.492371
124.287483 417.228088 -720.230225
389.840942 513.166992 -794.102905
356.570557 377.600861 -919.892151
444.534454 447.202087 -960.848999
319.784943 587.030823 -673.402283
370.254517 491.954926 -801.109802
276.585876 387.754791 -865.908447
427.154816 445.872162 -898.346680
307.938416 384.164948 -889.555054
186.069412 415.570435 -787.746338
362.542938 511.040100 -769.179016
205.348526 501.227844 -701.809570
434.661530 554.965942 -734.433228
15.834508 384.565430 -736.617615
448.190979 590.962524 -735.747437
355.087555 587.027832 -672.528198
298.462402 482.373138 -788.171631
143.253128 465.317932 -705.220154
377.731323 349.886749 -942.536011
332.082581 516.874817 -766.486938
166.203262 455.843079 -730.342346
293.413330 317.791901 -935.831055
438.796753 446.555969 -979.552673
262.530731 344.963806 -919.014771
467.651489 565.389038 -781.052429
352.363495 449.050629 -845.227783
294.674347 264.002808 -908.149109
184.932861 370.126465 -833.147522
31.416248 411.069031 -724.187500
301.447266 550.161316 -685.862427
311.075378 495.129700 -765.225708
279.069580 385.569427 -884.136169
231.424591 352.737000 -916.626526
358.715271 351.640961 -944.408264
272.751862 297.995819 -924.057800
251.385498 419.869812 -822.337341
335.626068 419.783356 -866.839355
414.703613 425.145477 -962.609497
102.723427 287.424194 -963.149414
407.161652 618.324585 -672.083252
477.390015 524.927307 -835.521790
81.689949 426.617126 -691.726929
372.018707 350.738251 -944.889526
304.319366 447.763794 -811.255981
406.801208 420.522766 -942.362610
309.076233 390.301849 -887.423462
150.466934 412.010223 -768.188354
95.943581 349.841888 -836.682068
239.854263 419.248199 -785.944336
111.184891 310.869568 -853.253723
128.537125 299.014893 -942.290283
422.967865 536.297119 -763.760803
414.443756 597.372131 -718.755310
72.175453 363.789612 -790.255249
93.228775 480.894043 -684.260010
395.123444 530.693054 -782.938660
309.840607 387.380066 -880.102539
324.070862 569.125488 -701.559570
408.386688 451.986725 -870.989502
325.363647 586.845459 -669.567078
273.379089 499.195892 -715.910828
28.287632 329.555847 -801.456909
-1.820999 375.935638 -740.366150
384.311737 450.141724 -866.465515
218.063843 344.120789 -900.384094
403.895050 601.697998 -703.673706
140.979401 395.761078 -780.379333
350.857910 469.468842 -817.681091
213.251541 416.145142 -819.815918
92.214516 327.114716 -850.655945
173.826645 357.141968 -847.425598
149.752243 451.100800 -713.113708
352.356689 371.226196 -923.052185
147.663101 311.776215 -895.672119
339.892151 451.174713 -832.280396
258.773254 508.110168 -726.781860
158.491989 492.817383 -682.590027
123.331535 294.008240 -861.414063
161.754395 314.456085 -903.187927
117.284683 302.629730 -903.693970
484.387268 516.499329 -849.194214
356.925049 346.652344 -943.441162
38.912975 404.984131 -740.596497
347.809814 473.842285 -829.534302
393.643036 396.223450 -963.477783
49.586658 380.947937 -743.465820
311.809113 373.486847 -932.219238
347.493011 321.865234 -938.337097
217.805710 513.747803 -684.390564
272.102386 508.204803 -702.557983
115.707855 301.313812 -846.559631
428.529114 618.431213 -669.655090
313.276123 350.628296 -934.679077
379.158325 477.737091 -826.781311
458.631439 601.951843 -725.760376
124.385712 340.764160 -851.292969
330.070862 435.257263 -849.404480
358.030914 567.976685 -717.307678
79.787720 303.030945 -833.523254
350.072754 392.812744 -915.989502
448.139404 584.714966 -718.511353
438.850830 579.037048 -751.869751
191.214111 318.648987 -884.251587
358.507050 527.926270 -769.330627
372.793701 463.969238 -835.961243
123.490356 448.018616 -711.092041
503.372833 502.829010 -879.348206
367.711792 604.676392 -667.869873
298.787140 441.844635 -818.553772
387.566803 383.082550 -957.123718
266.814850 434.119141 -829.845276
339.835358 557.264587 -700.833679
281.374634 295.035217 -937.432190
168.704559 510.372437 -692.350281
191.226181 468.306793 -751.055908
112.759789 445.207642 -715.321838
256.274109 291.151367 -941.417786
415.758728 436.527161 -878.492371
323.355560 518.925903 -745.268066
214.560425 379.728912 -845.345398
31.889870 447.741302 -685.147095
272.081787 500.068420 -711.963684
190.153702 494.046173 -673.109619
370.012878 575.350098 -718.654785
213.418213 394.001678 -822.397888
250.145737 359.517029 -896.923584
377.982025 484.781830 -786.370056
367.902191 454.178040 -846.944275
229.913910 407.331940 -825.039490
406.194794 414.410797 -962.148254
185.391754 437.474609 -752.833557
193.965836 505.597260 -693.947754
97.959648 464.979553 -675.107056
473.101227 559.016235 -792.168579
425.575714 588.453186 -701.067993
382.797729 372.268341 -950.372498
462.948730 461.470703 -967.896484
120.871407 361.415192 -793.273499
52.436295 284.134552 -875.214233
403.538940 486.134064 -800.295959
318.923492 506.314026 -768.671326
135.579041 428.835480 -761.510742
391.460022 478.851929 -817.674805
85.009598 290.113861 -885.547058
399.845795 579.685791 -733.150818
309.811737 324.912201 -928.279114
269.994873 538.661316 -707.921692
125.895813 390.957642 -786.977112
344.139801 537.219910 -732.767334
315.490265 386.632843 -918.097412
224.102432 522.409241 -707.158813
45.268051 373.113495 -779.810913
259.684418 509.689453 -729.775818
370.921661 408.707916 -946.970520
401.072540 555.251465 -734.146118
294.204468 293.708588 -941.946594
316.892059 458.798706 -830.782227
368.769379 511.765869 -790.720947
282.765991 366.978821 -935.593872
405.674133 437.954102 -910.544556
33.763428 437.943878 -684.670715
35.902184 372.619415 -749.146057
174.237854 416.335175 -783.238342
443.618408 503.553070 -836.202148
405.642212 443.535431 -887.509338
270.936340 283.341919 -931.735352
390.884094 505.520050 -794.424866
435.724365 548.063477 -767.073853
445.139221 536.161621 -777.465820
281.839203 488.780365 -755.548706
285.366882 420.840485 -836.858582
381.297455 522.325378 -792.706909
281.771271 391.752930 -882.534790
411.898010 538.794678 -769.058105
141.057541 426.058960 -751.970581
153.826843 448.219482 -726.609314
200.838287 335.908600 -892.263123
121.982414 454.321503 -708.767090
393.872467 406.941132 -964.156921
128.408188 463.928589 -717.554443
173.277023 319.425659 -974.689209
410.687775 541.149170 -763.026978
179.854034 519.284119 -672.101196
146.659363 475.162811 -714.699158
91.475601 403.201172 -743.258972
51.683666 276.761261 -891.223206
300.610626 548.422791 -704.548950
189.863510 343.857117 -893.413818
247.165039 402.285126 -836.340942
167.361740 447.706146 -740.451111
124.118958 357.853363 -840.096069
382.146332 479.409485 -839.760559
167.174973 475.461517 -700.313721
424.044739 502.879791 -826.853271
124.102219 498.242859 -695.006836
296.619415 379.974640 -887.523071
457.978638 494.251709 -864.383301
28.301435 331.776276 -812.817322
270.810791 485.383484 -753.261108
353.699921 409.898956 -892.139221
372.450714 618.141296 -675.823486
65.036095 421.306763 -707.215271
470.318512 537.504517 -814.354553
46.702141 324.865479 -829.219238
278.872101 471.858887 -746.941040
383.780945 348.128845 -938.743103
469.398254 486.744324 -844.267639
66.348923 335.172058 -815.616150
217.998901 503.615234 -707.470032
337.725800 449.290192 -807.079895
276.381531 334.794250 -927.298523
380.230316 410.614471 -922.195313
359.581818 520.531494 -775.258057
92.318741 363.893097 -773.618042
245.015747 412.275696 -838.436707
163.510437 318.033844 -915.661499
402.809784 482.797760 -830.534790
516.043945 483.364410 -942.684448
345.123718 485.742004 -796.025330
409.478699 386.946777 -949.771790
161.201569 324.857025 -872.410828
59.547146 399.895203 -730.658325
190.694214 337.810547 -872.474976
270.398468 377.107361 -875.444519
327.426178 544.630310 -722.298462
126.992012 403.955231 -763.172119
318.021362 507.047607 -751.283813
55.113026 348.239258 -808.459656
160.279312 317.085541 -915.286926
259.412994 548.152588 -670.599365
327.286804 549.072937 -715.107727
278.061157 502.778107 -742.322449
376.757416 570.895752 -708.453003
228.346008 279.474091 -938.973389
377.110840 545.401489 -749.775879
220.263763 440.395691 -779.732117
356.717529 561.840820 -714.422241
39.347744 417.135132 -698.755676
296.806885 528.325012 -681.287781
347.044647 504.778900 -736.583191
324.966705 313.353699 -934.152649
506.654022 497.730957 -879.608337
41.300282 342.997406 -782.505615
117.949448 350.587952 -818.458679
318.408295 290.620392 -938.217957
319.393555 450.400909 -827.303894
46.594917 324.057159 -829.349182
321.124084 464.519592 -816.998047
120.029015 338.712097 -861.253845
307.401062 375.205292 -955.699463
411.437927 423.419281 -963.311035
262.258057 531.688843 -698.201599
90.071526 370.325134 -779.426636
172.102997 380.554260 -840.060730
133.079269 378.233643 -815.251465
147.850601 412.903625 -754.762512
114.376686 476.173737 -679.593567
230.003922 447.067963 -773.093262
391.500092 557.129822 -751.808655
180.031219 510.001923 -700.330933
398.305542 429.084900 -917.227478
67.826065 439.966400 -692.473694
360.073029 367.409424 -942.570374
488.921417 480.620087 -893.532349
421.860077 449.310852 -860.122009
320.127106 398.646515 -884.883606
214.303894 402.363922 -813.755188
353.189514 586.258789 -678.654541
259.843475 362.502014 -873.473816
460.123718 557.367859 -776.058777
326.394867 536.319336 -724.218445
228.989670 531.055115 -691.058655
340.902863 444.270905 -842.352783
403.148315 577.722839 -715.979980
330.796387 590.821838 -672.927612
386.828339 570.881165 -692.574707
298.525208 454.179352 -806.486328
383.962433 413.569916 -964.459900
101.788757 317.670258 -828.994629
336.838348 330.744019 -929.225708
323.219788 541.213867 -728.486572
400.249908 568.965088 -741.349609
414.106934 431.925354 -905.199890
376.160095 340.666992 -941.343994
435.304169 448.634186 -924.099121
339.619904 332.637939 -923.971008
436.636810 598.247986 -721.969849
285.031311 347.993591 -939.481934
77.594452 303.599487 -849.104492
375.835846 424.309082 -920.231934
302.960449 285.884521 -930.004700
177.848328 448.479187 -761.689575
157.640823 304.252258 -910.835205
369.317230 465.283905 -846.470398
175.500015 412.860260 -784.246460
465.853455 471.872498 -892.928589
191.490860 409.405334 -782.919556
388.699280 502.545593 -807.444702
421.666595 544.890930 -781.273376
164.311722 454.056732 -702.627747
261.329529 506.065948 -698.751770
78.267036 367.410309 -799.627014
99.088669 429.013885 -728.071167
328.611664 439.470123 -851.153198
370.943542 527.282288 -723.745789
440.878632 584.572144 -743.700500
341.933228 325.518982 -940.462769
328.154449 357.542572 -940.688843
172.651657 494.035339 -705.235596
438.357697 547.826416 -771.522461
178.342651 357.992432 -867.183044
435.178162 408.024017 -948.712524
326.160431 506.986603 -769.886963
83.303886 357.583466 -779.019226
460.642517 539.899658 -809.660706
382.709625 544.800842 -761.814880
387.627991 515.993835 -789.678406
305.517090 398.970764 -897.107788
477.032898 522.934387 -808.736084
5.880511 399.980499 -680.093872
444.258667 446.302917 -926.289856
362.798340 600.986206 -677.634277
91.238922 405.067719 -764.318420
54.557098 318.479980 -846.279907
321.644592 384.469543 -956.971130
197.241577 483.511292 -733.315552
341.911407 497.626892 -786.111450
476.064667 451.539185 -934.351563
346.504272 446.645050 -842.906494
358.927399 543.498352 -751.557556
481.532043 450.947632 -899.527283
459.272766 500.050903 -858.612061
266.477631 546.750427 -678.705505
229.780090 331.604004 -892.199646
372.466553 552.263916 -720.169495
444.867615 507.300385 -844.744812
127.279594 431.468292 -758.233032
263.917114 506.627075 -744.335144
138.235504 464.072052 -727.692078
472.456024 557.696106 -783.310425
272.176849 465.350586 -770.857605
312.151001 288.332214 -926.917908
347.615234 496.892944 -782.456116
428.018280 438.265747 -871.765015
412.246613 438.909760 -891.688965
403.052216 529.263184 -790.331543
405.711029 509.740143 -807.230591
363.840546 533.553223 -769.089539
275.373993 550.092285 -689.343384
350.315186 331.657532 -937.815369
338.083130 424.351227 -871.736572
223.236771 502.594421 -680.357300
492.722778 506.654388 -861.787903
322.286713 367.898590 -944.217285
476.027130 471.820404 -872.003235
300.144714 452.389191 -809.665100
341.362396 337.214081 -924.779907
326.075928 581.868225 -671.171936
324.949951 446.726471 -821.713196
419.396210 621.374695 -680.291443
136.349884 326.940948 -854.838745
130.604553 419.763367 -746.770813
443.307373 619.080261 -695.102661
307.426056 430.768829 -836.750427
101.392632 377.332458 -772.248535
282.195374 458.616608 -784.930237
141.981689 350.752502 -839.222046
298.917938 321.408569 -940.522400
116.933037 415.818176 -764.826721
287.095764 484.373291 -737.180969
144.220001 442.060089 -753.830994
206.128967 385.596191 -818.664429
415.144318 444.531464 -940.983826
171.611557 324.895905 -879.692017
109.373413 461.130157 -685.067200
321.946381 420.989044 -873.007263
49.876156 408.446991 -718.779724
404.093781 371.544830 -951.922363
322.520264 491.938782 -778.949951
436.368347 567.538391 -745.134399
285.053528 363.689545 -906.594666
272.111664 374.412384 -877.585693
338.032471 575.444885 -702.039001
383.971069 545.014832 -761.630676
166.221527 419.549988 -789.277832
421.812714 477.846558 -838.231018
400.997528 407.768646 -966.888977
-5.053358 395.969849 -695.551636
318.926880 514.378723 -758.838989
206.465668 382.746399 -849.960266
212.803360 388.129669 -824.131836
58.543056 397.810760 -761.329834
287.483521 327.944977 -928.506714
263.045807 353.018341 -928.775452
346.006317 467.975922 -829.094971
487.958710 534.515503 -829.312988
485.098663 524.950134 -841.592957
267.692505 314.927032 -940.819458
193.345673 351.469635 -875.474243
331.462036 320.757843 -934.909668
346.701904 460.340393 -823.323853
467.611664 465.405457 -922.825989
269.175201 429.102966 -831.685364
326.258514 333.803009 -923.094116
230.439850 506.181152 -717.012756
76.108864 384.083618 -770.845703
355.392670 552.186890 -729.723145
395.324280 526.810913 -772.087097
93.203728 271.466797 -868.695374
168.382309 389.673553 -801.834595
28.667166 403.753784 -720.021362
326.561890 433.334015 -862.148926
391.209045 560.162720 -719.544678
309.711090 306.369568 -931.206909
128.523041 304.583130 -851.926819
36.648876 450.567474 -684.424133
201.782974 345.276184 -860.285889
338.939636 353.662354 -940.664917
370.682251 409.064606 -965.209290
252.537415 491.867279 -735.128418
237.744064 400.806671 -827.441650
229.671936 432.741821 -786.249207
443.361603 557.179871 -763.533997
386.688446 563.137024 -738.068665
484.744354 465.894531 -930.258362
421.624634 604.622192 -709.144470
392.975525 434.131195 -856.262329
311.797028 385.496582 -885.913452
245.787445 281.254517 -942.655762
486.773315 475.959717 -887.904663
16.001602 436.433990 -670.125793
429.959625 595.678406 -726.032349
473.057526 549.918640 -792.376404
87.619568 373.411194 -746.412842
242.627274 542.805420 -677.430786
342.255432 393.471680 -925.444153
298.661011 534.858459 -729.159241
250.544128 341.071747 -937.501831
359.072601 322.209686 -936.316650
327.373230 552.046021 -717.640869
339.920074 462.282440 -792.801453
372.148682 311.518890 -918.160400
334.937164 449.628662 -842.908997
346.053528 347.562103 -924.997986
384.153473 415.849091 -919.804016
250.965759 377.177612 -881.220886
357.616943 579.552734 -701.162903
29.365667 416.690430 -715.938660
356.577545 587.491089 -684.782349
369.386658 346.288116 -943.619629
418.265137 576.420593 -727.338562
285.614532 533.044067 -703.637451
207.063950 278.036438 -934.731384
459.956940 541.038696 -809.256592
412.881775 362.720306 -931.084412
162.180206 315.321320 -878.318909
517.373901 486.307068 -927.031555
264.365387 512.683533 -692.533142
428.968414 574.277405 -744.642212
441.079193 463.284546 -873.059875
241.083054 459.941956 -730.608765
287.967987 272.171356 -925.270447
238.866653 508.750031 -731.054810
397.038025 612.444702 -686.008545
160.795029 480.692413 -678.102966
399.128448 614.434509 -689.288025
403.615997 536.803101 -775.425049
301.551331 289.684845 -923.243347
377.102997 548.587402 -730.119080
346.697266 351.490082 -931.465698
142.622391 458.504700 -683.190063
352.257263 338.266602 -942.231812
57.283699 389.547394 -738.064270
234.441544 353.449799 -881.290344
274.107391 292.635437 -937.551331
308.508911 382.257843 -886.650208
412.304962 448.236053 -877.299866
201.311356 483.700012 -738.589478
118.434227 457.182098 -688.941833
284.867249 464.668152 -749.707581
287.986725 414.267853 -845.603455
347.733673 585.953491 -694.796326
380.860382 522.438904 -784.998291
435.401764 585.343445 -730.131165
321.908295 570.174011 -687.434692
37.485146 435.343750 -685.961487
40.764587 289.612000 -846.684082
171.515366 456.826935 -727.255859
310.391846 442.032898 -837.600220
418.350037 379.365967 -939.197021
492.213593 460.856537 -877.993774
439.324280 592.294067 -724.977173
197.878128 419.691925 -803.816345
207.400558 508.846191 -708.178223
403.366211 494.993500 -836.718689
340.360016 420.911713 -875.719788
209.421555 504.523010 -702.001221
389.817719 413.184998 -925.062439
471.658386 493.131378 -852.829529
451.260986 539.809326 -805.435852
465.930573 533.227844 -817.030273
301.258453 517.813293 -727.763611
232.428543 437.300446 -806.745850
348.045624 399.639954 -934.678040
308.905975 535.207642 -715.454224
390.989929 594.821228 -700.389771
215.059875 495.089111 -728.768066
197.333969 379.103241 -829.905457
336.379974 305.482056 -941.253479
119.057144 325.451447 -858.824951
75.801720 397.983917 -753.610352
352.156708 408.835358 -915.827271
256.043549 356.347351 -896.915100
344.474518 530.541626 -739.518372
455.134796 561.948608 -764.604309
238.110565 386.630615 -856.196167
204.526718 508.493988 -697.585693
392.631531 424.098846 -872.457764
23.205658 347.256653 -789.818176
243.298050 393.653198 -844.705261
321.308929 376.703888 -934.638611
210.823685 494.979187 -690.197388
437.565582 443.827698 -893.986938
465.575287 483.477478 -863.115540
96.726250 463.412231 -689.960144
283.434082 418.758057 -856.890076
351.488586 338.847382 -940.022766
44.941269 392.110565 -697.230103
50.285748 272.232178 -891.099182
253.992859 472.691742 -757.773010
156.399155 441.687012 -754.248474
197.767715 333.179047 -934.733398
190.364288 304.178162 -965.420288
196.857208 321.307953 -957.932434
158.033600 472.057556 -706.083801
264.777679 388.868866 -863.830688
460.574677 484.536285 -874.396973
129.797745 433.540253 -730.805664
392.417877 455.897675 -856.339905
363.619629 536.355896 -709.118591
452.640991 574.431458 -706.837646
436.112732 477.074799 -873.106750
239.680862 482.565582 -737.987854
387.030762 597.667053 -675.004150
216.048294 529.813477 -685.784119
212.241852 401.383331 -804.840637
67.725288 405.897919 -705.543030
104.003342 392.548462 -785.922485
219.481949 401.199615 -843.962769
138.629013 380.891602 -797.452393
276.558441 569.266296 -672.245300
291.332733 347.023010 -937.124817
319.020386 370.536163 -936.419006
418.352173 573.680176 -745.379211
343.516602 433.402008 -855.040894
387.331177 510.899048 -807.105591
210.282150 507.051788 -687.307861
335.222900 421.421021 -876.907104
116.028816 318.272522 -851.717651
215.016739 432.351105 -801.742065
499.954773 504.340637 -880.751404
450.027252 575.037720 -752.312561
261.951599 425.390381 -833.457825
384.186859 574.575378 -703.694641
329.800110 398.877228 -900.338074
324.767365 434.066010 -845.097290
188.674545 357.793060 -860.043091
381.848236 439.365051 -860.234314
375.137268 570.500732 -686.082825
237.654282 377.980255 -833.282471
386.244812 469.714355 -839.613220
241.480759 358.589355 -877.887817
285.476990 550.139709 -690.585754
383.362549 496.142151 -777.501587
351.620972 504.077209 -782.188843
60.846031 380.149261 -783.652893
452.419098 453.953064 -883.046753
287.654205 518.971313 -717.247925
23.076942 391.693573 -745.272461
287.407135 493.831604 -716.425598
213.920471 438.092499 -779.741272
339.175568 384.220886 -940.099304
358.111938 575.622253 -685.942139
419.203979 550.462952 -769.828125
351.392395 352.261719 -940.843140
49.487141 396.680115 -724.364746
336.757324 537.432556 -744.584595
143.936172 313.344055 -905.684326
342.076385 578.176636 -700.710510
219.659821 455.424530 -755.917358
207.295883 443.005615 -772.735840
213.574951 518.065369 -685.624084
343.904266 306.946167 -933.627441
430.283051 502.412018 -795.293030
266.691864 343.505737 -931.335388
213.996582 387.821716 -848.995667
462.360107 576.602173 -762.931152
76.948502 273.971436 -951.134399
409.604431 476.848206 -833.916626
144.321838 425.219635 -713.046021
256.649628 518.333191 -714.064636
377.041229 602.878296 -689.816956
192.434158 401.769165 -809.801086
108.343079 437.610107 -716.380188
224.418472 461.440002 -758.516663
263.644653 487.077576 -711.380554
167.585739 433.133087 -754.579468
374.193604 612.044067 -676.669128
460.021759 576.467285 -766.453247
422.763184 452.179382 -879.604065
158.721268 416.991486 -757.530945
384.627136 438.401947 -856.130859
245.459106 397.767761 -861.855103
385.054657 595.883179 -679.752991
404.323456 611.695129 -692.411560
303.134003 448.020996 -828.534058
383.864716 388.970032 -946.516174
344.895111 531.621582 -761.147461
298.490387 345.883209 -937.822205
223.993835 408.102356 -789.974243
471.369568 487.729218 -869.739563
279.761200 527.389709 -731.044678
260.762238 447.998169 -793.910156
380.145386 364.658539 -935.492310
375.585297 577.100830 -694.577820
170.024231 401.051575 -790.819275
245.600418 460.999878 -758.117737
458.489197 460.126770 -925.840149
488.397644 546.668335 -817.570557
85.728912 456.316254 -635.573486
217.144287 453.682007 -782.822571
260.822601 513.821594 -721.759216
419.530212 437.701111 -941.464355
419.783447 452.799713 -855.918396
207.327118 412.338531 -816.985291
26.761705 441.311249 -699.848267
241.803284 448.068909 -775.060364
117.814682 378.828217 -780.212402
127.815613 409.745331 -784.566467
369.867096 322.195038 -919.261658
215.911987 465.496979 -740.877197
265.779236 359.307709 -889.508301
64.514137 423.815918 -701.015747
403.619446 529.887024 -788.650146
234.530777 506.345703 -731.457825
321.721954 543.690308 -713.065857
412.977539 478.162201 -848.297546
37.209118 343.954224 -783.156372
411.126190 591.720093 -716.292664
263.878052 540.400085 -675.976440
227.263702 426.555084 -791.625305
458.098969 629.174561 -699.241028
393.092285 362.042053 -946.033630
209.538223 480.651093 -745.774353
83.523911 365.255096 -796.273499
221.588303 273.646118 -926.034851
45.593693 393.305176 -735.132507
435.976105 625.828552 -666.419983
329.387756 563.037292 -714.781555
332.126678 477.708923 -809.555481
84.838814 361.962616 -800.335815
369.048889 563.240784 -732.295898
409.277771 439.793915 -907.233521
160.438065 310.871887 -940.659973
88.172310 348.952698 -833.923279
181.678955 471.416077 -712.847290
367.570862 530.608154 -769.957275
366.558350 341.842804 -942.747681
172.685150 512.805115 -684.839172
341.455841 490.936188 -798.859863
319.759735 559.978943 -701.937561
156.035080 409.746948 -772.406311
433.720551 624.562744 -669.238892
141.454086 458.269928 -735.597595
369.185883 540.710144 -756.286804
113.809723 366.555267 -786.653625
208.450241 368.292603 -852.792175
412.921814 619.166931 -690.883240
428.887024 440.371796 -889.434387
312.638824 432.270050 -833.512695
122.991356 365.363159 -805.127625
230.469818 470.106171 -722.366821
312.621460 543.225708 -718.781189
228.129288 421.819550 -806.546631
102.885384 367.290771 -810.484619
340.541595 372.130951 -935.047729
333.525940 560.618164 -710.700195
65.197678 338.381653 -811.244629
327.830017 429.290009 -854.403503
457.708557 453.427338 -918.104187
73.766624 285.312958 -882.374573
483.185181 475.694183 -870.650635
476.360992 479.320435 -882.576233
373.582672 518.562561 -787.044495
444.169983 495.080048 -836.470703
190.495483 438.830933 -764.762268
397.131622 573.159363 -727.792786
198.871628 454.439789 -745.965881
180.938599 508.141418 -681.347473
291.975922 537.283630 -678.241455
107.095947 408.107300 -749.976196
420.545593 588.000244 -719.413208
61.408272 395.520599 -750.232361
75.424858 281.708130 -887.391113
332.937256 536.904053 -739.562561
202.449875 531.527588 -678.375061
439.466309 453.722534 -885.901062
207.492523 415.628326 -790.940552
258.037872 468.642181 -757.372742
386.876648 578.920044 -698.896606
104.056137 469.728302 -677.023682
310.479797 387.855255 -894.800781
503.234070 487.010040 -890.672546
313.184662 564.917297 -682.355591
81.275612 446.732574 -712.517151
456.862335 612.122253 -713.109009
211.232391 397.074890 -817.826172
306.047974 530.535950 -719.918762
59.755638 335.870636 -789.203125
180.763901 466.669312 -727.313843
392.002594 455.724060 -854.092407
78.844368 365.300781 -763.072388
65.805504 441.940186 -713.105164
337.146088 298.134705 -933.290527
364.761841 345.908691 -939.095947
231.370544 437.508759 -801.729675
444.450684 596.582886 -700.603027
425.601227 554.511536 -746.599670
347.322723 564.214539 -717.098694
255.092407 527.919983 -702.392334
391.958862 412.057953 -970.546448
285.476532 404.369080 -853.144836
325.400726 539.105408 -732.197632
69.977982 356.358856 -771.850891
400.275940 611.086670 -690.837036
222.067993 387.347931 -839.962708
460.605743 519.582397 -837.428345
320.156708 578.589722 -693.630798
285.505280 346.339294 -952.163208
147.647156 362.477814 -821.846741
359.863434 566.903687 -698.587280
174.173996 482.595917 -701.594238
332.932068 576.689331 -698.329529
404.178528 531.638916 -781.593933
478.221832 449.817413 -894.121460
336.719391 410.193909 -877.522156
216.013214 323.877563 -911.256775
452.653870 499.535614 -856.642273
235.768051 424.335632 -799.480469
264.083832 369.759094 -882.937805
440.731293 624.657959 -699.737366
192.678604 376.608398 -823.212646
249.682526 435.167603 -816.176086
224.727188 371.361786 -858.417297
286.608459 471.944855 -780.304932
306.805298 534.627014 -725.024231
463.995758 544.053528 -798.963013
168.051712 509.628082 -685.975891
402.082031 578.042603 -701.216064
369.923004 569.662781 -729.626160
394.383667 593.381653 -683.614197
432.993774 486.355255 -815.547302
102.167511 378.497131 -805.353882
285.913544 458.195526 -792.275085
127.161880 453.526947 -706.682373
335.371460 542.254822 -741.482971
229.723007 383.213776 -844.377502
480.172089 583.223999 -773.163330
108.667946 316.018890 -857.991638
369.260468 482.621307 -826.711060
349.813324 602.191711 -682.975403
194.519867 403.545685 -779.974792
219.823090 512.019287 -678.912476
419.129303 457.695251 -870.278259
197.052277 350.835449 -879.559753
412.071838 464.875244 -857.869324
332.070801 488.266998 -747.878174
404.321716 563.847595 -735.439941
243.019821 344.468414 -883.417358
351.541870 588.755005 -693.804260
243.397476 347.604218 -910.677673
240.660721 267.177368 -918.538940
263.937286 423.840881 -817.467590
359.031372 442.941498 -859.446899
35.049492 427.486420 -688.765381
63.517170 411.110199 -722.730042
27.957874 368.728912 -777.137268
59.674126 430.073608 -689.911255
240.219177 379.412445 -854.097717
120.381050 293.128906 -904.841187
85.068184 349.201752 -803.595337
199.203979 458.582184 -745.073730
131.383133 449.341095 -714.869568
322.061157 567.584351 -704.104187
116.712379 459.831146 -684.908264
256.267029 332.705078 -926.210266
132.163574 475.173126 -711.407654
286.843750 395.792419 -877.633606
159.202011 320.297852 -890.350403
123.320206 328.316864 -845.347107
253.565170 446.733490 -785.791626
220.473618 434.837280 -778.640686
404.136353 464.590240 -858.575684
225.237869 383.964844 -861.706909
485.527069 512.042908 -851.843384
350.768158 418.341644 -870.909546
148.074738 470.631958 -701.716370
111.722191 346.811157 -846.229858
84.016235 394.609802 -748.518188
193.410767 469.496277 -747.635681
267.155701 427.281921 -833.884033
326.830566 484.105072 -792.854370
273.345459 391.475220 -885.521362
314.550415 445.846924 -836.896667
519.718323 483.541443 -905.512451
277.916656 496.205536 -749.191772
378.189240 391.023682 -951.297607
301.395508 355.953003 -941.816284
-29.475525 403.355621 -690.657410
146.123337 465.886169 -677.245911
393.860779 610.748962 -681.979797
430.338562 415.153503 -954.656982
195.897827 434.370819 -788.793335
45.194733 411.567322 -712.051086
421.641388 596.773315 -708.543640
137.043900 404.865234 -767.627625
367.609985 501.617493 -804.458801
31.969080 304.206696 -869.826782
306.991730 301.639221 -930.404236
36.114582 399.287872 -744.559143
403.127197 412.970673 -970.016602
494.918518 495.528473 -875.855957
330.719391 470.081818 -811.116150
388.385712 480.415192 -821.263733
473.445282 540.694824 -813.324402
128.090851 407.693146 -781.563293
223.541199 417.807037 -800.881409
313.029694 415.823486 -858.630188
31.813791 371.237793 -768.641235
58.109680 414.898010 -689.970154
153.371964 486.491608 -704.338501
310.645386 539.220825 -717.672729
255.994583 315.920319 -946.155151
63.677521 345.862000 -795.639832
346.708984 600.260620 -678.531616
489.418304 455.634827 -883.239380
221.007706 376.618164 -856.130066
262.480438 292.504608 -939.572754
418.412720 431.287231 -973.189697
76.319572 308.110901 -848.950867
322.150177 439.560516 -853.297180
54.239056 379.648895 -753.535339
-24.223604 417.592896 -679.992981
56.534676 339.678009 -815.961975
433.295349 639.500549 -681.253479
409.537811 532.408386 -786.584473
162.809738 441.468018 -739.596191
268.463409 552.793457 -675.510376
221.530640 468.245575 -759.814331
118.014313 319.825043 -857.623108
-2.994788 396.890961 -713.434021
331.358124 507.750977 -760.952820
125.510902 392.504730 -750.981384
393.991089 557.878235 -736.560974
-4.775066 411.722534 -700.754700
231.596329 472.933044 -748.234924
312.461670 471.339111 -757.131409
311.121277 502.046021 -757.578979
241.287201 455.012604 -777.099060
263.958221 446.397369 -794.469299
129.439407 464.964203 -693.840210
133.926331 461.594391 -727.969421
285.851196 434.229340 -831.537842
176.973831 461.568024 -730.842346
46.767872 287.386383 -831.775146
463.618683 605.073364 -726.896973
349.690063 331.319946 -927.256653
177.087189 344.590790 -859.053101
265.490662 530.149719 -706.173889
329.686920 346.001221 -930.616028
201.222672 450.598846 -759.776306
316.970856 508.658600 -768.873108
42.326885 308.798157 -856.936890
37.749081 417.064789 -698.738281
37.116547 393.495056 -705.474243
223.578171 520.324097 -702.015381
376.431732 354.868683 -940.677246
424.678131 574.776611 -752.223633
296.956726 474.992798 -780.857117
342.665405 564.440247 -718.870239
112.695625 376.175842 -806.607544
263.327118 293.302521 -933.898254
128.974411 407.145660 -779.734680
178.489639 379.916565 -844.131287
159.338730 425.836670 -781.197510
202.753586 322.042786 -940.237122
441.465546 478.027863 -847.624390
264.661652 380.068420 -867.654236
415.368866 480.703217 -826.322632
114.185196 298.516022 -891.135620
380.296600 336.015259 -933.721069
297.356995 280.533691 -930.075500
240.118851 427.777802 -798.605957
78.235428 351.875824 -809.607910
428.272675 490.242401 -822.016296
381.902039 594.588379 -679.022705
88.083092 278.418884 -905.425659
383.063202 528.113647 -754.513489
292.442383 432.152008 -828.674377
178.091827 335.304199 -855.490723
311.054535 563.566406 -678.325684
228.405029 350.208649 -875.912354
456.240875 591.493530 -743.119019
346.050781 492.104218 -794.807434
132.713181 481.113678 -683.055664
129.222916 387.272797 -784.582764
136.427612 331.788910 -834.923096
311.510986 569.091492 -674.847656
415.151581 610.950012 -687.485352
388.676270 516.589905 -801.814331
359.004181 404.555359 -937.150391
324.188904 574.930847 -681.994812
86.481468 409.750519 -745.146667
184.205093 378.955750 -814.790283
45.291027 341.119598 -812.889587
469.517944 487.388550 -844.467163
66.002533 405.843475 -756.415344
359.934021 572.977783 -715.855408
119.406433 333.058197 -838.789734
81.039742 318.370636 -851.414429
216.406906 400.426666 -838.562134
356.432281 584.070618 -697.634705
290.472260 455.808258 -808.442993
273.935516 551.232605 -696.074219
316.536346 477.840607 -759.288452
335.837341 514.723450 -719.020752
76.706413 435.926849 -692.308960
86.490280 386.178375 -731.287964
26.702579 327.504364 -819.332458
333.112213 373.999268 -938.800293
468.042816 481.186951 -866.966614
317.590149 542.607849 -729.959229
214.895721 391.157288 -848.690308
64.749687 407.355530 -723.822327
291.949951 549.750061 -685.312012
109.063850 456.458588 -688.254639
390.110229 618.356018 -668.501465
372.128662 567.407593 -733.455872
188.295334 503.112457 -704.126282
398.504517 568.653503 -737.951233
412.796082 599.636597 -696.038208
107.482521 386.125732 -794.625671
415.688293 493.407440 -847.235046
293.802582 473.651581 -775.420471
248.580170 344.821625 -944.266052
354.501038 377.824432 -951.614807
327.619720 348.493103 -928.916382
161.397202 359.914154 -838.734009
121.602463 353.791901 -818.351013
229.093719 377.452393 -849.650146
71.361969 341.325836 -825.556519
172.481644 396.573456 -804.785767
287.601105 558.605835 -688.758911
385.853790 511.188934 -759.473267
154.076630 440.649445 -758.629028
132.075806 393.133179 -771.671021
11.608287 409.885071 -693.579529
414.430359 592.689697 -685.483459
38.837292 372.452881 -725.180176
246.711197 366.985413 -874.170593
393.438873 394.113495 -958.032166
168.594101 358.802765 -841.565308
297.721924 422.108673 -855.579468
361.983582 422.239136 -904.600586
254.009216 465.934967 -768.812622
293.190948 507.344879 -745.943420
242.584015 517.094910 -706.106506
392.817749 555.138977 -751.365112
397.770569 604.746826 -666.930847
104.990250 369.136871 -792.517456
447.288269 600.790283 -725.687012
393.190338 481.032898 -824.078796
395.893250 596.918457 -684.466797
156.014771 404.491516 -781.795837
398.533600 534.164124 -767.526855
29.478430 412.112885 -702.347717
323.839966 305.165009 -943.219849
247.501282 482.807556 -749.527527
130.619995 470.660248 -693.680725
295.985779 281.580231 -913.610901
207.852921 282.115021 -943.286072
170.264587 313.165161 -889.231628
183.923325 479.945984 -728.203003
361.633514 473.045746 -817.188538
158.538437 353.898315 -864.998169
197.011230 352.187073 -873.914612
172.274139 336.022400 -863.068176
478.612091 474.144836 -956.657654
471.413879 546.431824 -807.041077
151.537918 401.652649 -782.317871
346.329742 298.155975 -930.844849
429.299042 436.985138 -904.168579
304.932709 335.681061 -943.674622
224.061066 493.052551 -719.934448
232.541916 301.284576 -948.198914
237.095337 456.922424 -762.090271
328.146057 301.500061 -917.953979
256.333984 420.800751 -815.264343
399.564728 424.158844 -940.071533
259.816528 280.538635 -929.056458
424.696075 496.042358 -847.658813
157.397141 396.853027 -813.138000
25.449905 410.660187 -697.758240
307.355072 495.109955 -783.173706
223.900421 443.854431 -778.961853
361.101013 543.693359 -755.791260
450.474091 517.048340 -806.439331
479.903168 449.202576 -910.849548
215.225006 484.552551 -741.370789
205.355591 438.620483 -786.855164
143.811432 336.134460 -849.144897
426.049530 615.571228 -670.692627
300.292206 433.389435 -842.172180
317.167664 484.656189 -781.221497
203.846222 346.644012 -870.404724
415.183228 547.268127 -772.123718
339.658264 524.116272 -762.078735
226.668442 413.521698 -815.622131
396.181274 570.204956 -740.562073
132.695389 386.309998 -772.176392
454.518890 493.199036 -855.008728
203.124512 333.969330 -883.882751
455.439178 612.223145 -691.965088
484.123932 475.526947 -890.778259
402.326324 559.250793 -755.034058
429.410278 510.325897 -784.863220
333.457520 469.856720 -804.327759
370.751343 369.654785 -941.184204
407.703491 478.894745 -844.968323
133.073013 466.696198 -716.702576
317.965118 352.452911 -939.721069
149.023819 454.943848 -743.342102
256.762207 321.722321 -939.298828
281.127502 529.121094 -699.760986
146.658722 442.535797 -747.774048
20.550014 393.885010 -727.300171
175.728409 449.211060 -741.638489
398.030640 336.389557 -927.228210
417.863922 581.402954 -740.753906
292.447510 491.235443 -775.900940
355.127686 586.513184 -684.265320
310.968903 405.164673 -881.983887
360.483002 396.141479 -923.247131
472.819702 514.283630 -840.426025
270.501160 426.993256 -815.728821
285.409821 446.644440 -821.412109
191.308380 487.000427 -724.147095
226.509491 496.449768 -721.311218
358.630676 398.904083 -917.716309
305.790619 433.271393 -839.150208
346.856262 590.650574 -682.595947
417.704742 612.676697 -698.285583
193.386154 405.784058 -816.550293
322.631927 273.326294 -915.854065
329.648773 454.741852 -823.341492
135.529755 419.688293 -725.654785
86.750504 437.055481 -723.748535
1.393435 414.970032 -684.754822
337.601868 453.921082 -827.933105
310.691864 538.556763 -724.039978
301.507813 555.324219 -694.503784
373.961487 421.398621 -922.974304
237.251266 394.725891 -835.394287
259.958435 353.107025 -937.503174
475.952332 438.782867 -918.875427
68.393227 374.071686 -787.135742
456.347748 543.473389 -787.668640
287.819611 550.130859 -702.168396
368.343689 404.835419 -919.716919
412.407898 443.406860 -890.973755
220.456146 419.259338 -817.064087
187.401245 391.466614 -800.726013
472.364349 466.801727 -886.092896
134.258072 341.158478 -812.141907
238.848145 437.297485 -810.525391
476.610809 532.986938 -825.532410
92.828156 320.435791 -839.219421
215.577591 335.030731 -913.725342
375.981659 424.141663 -940.918396
357.563599 551.772827 -689.583618
111.362694 471.507690 -683.560791
91.308105 376.759338 -802.342834
-2.851105 381.652161 -722.532837
288.227814 305.000488 -923.644409
148.267105 472.895050 -672.338867
469.449066 517.726196 -843.969543
333.322479 492.339508 -787.460999
237.521408 368.064209 -865.756348
295.947388 391.369232 -885.059082
28.170700 357.295441 -779.850586
86.109314 349.335541 -825.100281
315.880096 271.346619 -907.783936
439.039093 539.145874 -782.134216
239.812424 491.675446 -690.566467
220.022766 464.054077 -746.715149
234.829773 379.595245 -862.318115
99.849937 451.237854 -697.050598
207.785843 295.323822 -957.370056
395.550079 615.600830 -684.504761
158.063187 298.745514 -880.504578
360.508209 463.360382 -842.600830
168.761826 517.124390 -675.160461
371.918182 413.679871 -906.130005
276.051117 402.920105 -864.337158
224.084305 491.039764 -725.729492
122.249130 300.814209 -897.099182
394.575775 531.911133 -782.659912
397.720886 401.409790 -961.557251
370.763062 460.001984 -839.201233
440.426086 523.727844 -792.300720
237.441498 343.332336 -926.628174
257.744568 475.380737 -765.223450
235.949005 475.479828 -748.244141
100.763000 295.368774 -873.377441
395.175903 558.356445 -748.890808
275.962494 340.899017 -940.277161
204.547928 383.352234 -848.494751
282.664063 545.570129 -693.252502
128.207932 291.019775 -950.495117
315.821228 568.031433 -700.942627
298.912231 342.035004 -946.161682
438.298737 506.764679 -842.636475
317.927124 477.806671 -788.563171
