ply
format ascii 1.0
element vertex 1405
property float x
property float y
property float z
end_header
824.808533 33.827797 -368.792847
875.343750 -28.295511 -333.809631
737.888489 139.644226 -570.245361
755.251770 82.614647 -544.528259
857.325439 -27.552752 -260.503418
994.697388 -172.763184 -212.449234
841.492737 38.246361 -260.485168
869.960449 -22.921513 -342.832703
821.722595 23.597893 -383.015015
958.129089 -128.015045 -549.051270
809.112915 70.563301 -330.961273
959.975220 -135.591614 -295.876190
746.352600 90.734055 -510.808228
849.487305 -50.636929 -575.979248
757.240051 135.226044 -289.257935
777.263428 -46.898300 -586.465393
888.867371 -29.433949 -239.078766
961.675232 -128.951553 -220.356491
959.282349 -134.885880 -240.135147
924.030090 -132.805252 -545.297180
852.826538 -8.212933 -416.690613
781.817322 87.263680 -353.926849
943.064209 -117.080498 -528.768066
850.100830 6.729482 -277.802277
983.682129 -169.682571 -247.314438
765.196716 141.655609 -302.753448
834.052490 19.130754 -527.489014
876.780334 -39.378304 -463.324799
957.260498 -131.605072 -181.991241
993.596069 -198.364578 -204.463806
958.645752 -125.317780 -245.668167
931.163330 -126.300026 -420.463715
751.435425 111.253433 -461.954590
1000.481628 -212.290237 -380.474152
977.040466 -188.023895 -289.399506
736.641174 148.412842 -556.773132
972.490234 -175.204559 -393.657043
964.669495 -151.551498 -543.531677
915.767944 -93.812180 -479.174866
757.024475 129.341385 -308.829071
925.277344 -118.349808 -470.917236
952.352722 -109.859138 -237.428696
974.357117 -174.164627 -242.793396
819.842407 -26.230112 -595.601013
909.498291 -43.759003 -205.544785
785.206970 88.949883 -328.510315
856.928711 -32.103264 -516.096802
940.857788 -126.369720 -430.828339
854.989380 7.061164 -265.487396
867.868896 -98.873932 -565.031677
785.406982 104.999634 -302.491608
943.817383 -114.435936 -331.101257
800.817749 48.135906 -522.551636
815.146423 56.450584 -289.623993
1015.103760 -224.800629 -448.520050
891.887024 -119.891518 -538.177307
907.309631 -53.413857 -234.115845
997.988037 -207.974075 -370.465363
937.650818 -98.178162 -255.294235
837.951050 43.275105 -294.441498
727.944702 166.685898 -295.638123
864.350342 -40.617649 -414.429230
888.786743 -47.235031 -266.044556
862.275513 -45.304012 -251.769348
809.571655 40.758286 -294.954468
846.847046 -22.486206 -470.894806
718.268982 152.998550 -479.619080
729.930847 172.112534 -372.991211
883.605042 -33.818638 -340.018860
959.344849 -125.626778 -210.982330
719.629761 176.060455 -462.665619
887.875671 -34.509750 -335.930115
909.267639 -80.288231 -225.488190
938.632935 -116.939079 -209.624084
958.288208 -136.224594 -536.864319
980.978210 -159.564529 -506.874451
872.410522 -5.913583 -264.382019
822.179626 27.003246 -391.981903
866.318970 -21.376696 -441.042572
742.818359 92.301079 -519.300232
927.032654 -90.982597 -228.616714
746.315369 148.676224 -327.406036
922.345215 -132.382843 -544.891724
737.583923 124.305931 -549.720825
749.474121 144.734970 -459.161346
892.475891 -47.327343 -551.584229
845.450073 -107.348129 -577.355225
888.045471 -61.233421 -546.454712
968.317383 -136.304214 -244.127380
938.185669 -116.726738 -220.675720
767.109192 116.586243 -276.490204
859.270996 -5.875429 -267.395325
920.421509 -77.623672 -222.881134
777.576599 -34.720547 -587.936890
799.439880 70.171860 -266.981659
928.563293 -108.169250 -484.496582
881.187622 -46.896584 -359.458954
889.170837 -51.503300 -231.904739
915.028198 -74.468933 -306.788147
875.931213 -130.949692 -554.947205
869.351685 -110.205849 -578.412170
830.556091 6.819545 -439.390778
753.024109 112.120262 -550.678162
942.922546 -123.846588 -213.154861
773.492554 128.083649 -318.590271
856.296814 14.013459 -324.109161
770.640320 90.596123 -438.853119
835.423523 -108.984528 -580.000061
757.121399 138.612778 -398.510468
961.707886 -155.709000 -414.626099
933.932434 -133.247086 -282.970459
831.076782 44.448772 -271.356384
892.029114 -71.650146 -423.525940
998.144897 -198.684860 -345.969727
804.107117 61.921360 -309.998657
818.124084 60.831211 -309.681122
923.823914 -108.970909 -346.273590
1013.163086 -248.849533 -456.630646
779.406555 58.891808 -524.377136
797.161499 59.678078 -532.697449
849.894226 -22.463449 -304.607269
698.597534 192.700409 -315.843628
952.867310 -134.348755 -373.310669
930.947327 -127.066933 -440.518768
808.514832 -82.783226 -579.847717
726.994629 125.853874 -579.084534
924.354797 -80.768288 -283.810181
907.128296 -79.943398 -523.460815
779.398804 82.106483 -416.651245
932.943909 -164.934036 -538.283813
848.793579 -43.400055 -574.155823
897.294067 -101.977669 -558.255310
742.092712 123.990318 -412.442993
914.911316 -97.953278 -394.894318
809.000854 -35.911549 -589.323792
792.501099 95.036598 -352.022675
821.620911 56.843704 -368.040131
749.636108 128.439560 -365.860901
859.830322 -8.668695 -319.276917
960.177185 -139.591751 -337.245728
867.283264 -75.182121 -554.882751
933.805847 -129.675629 -403.372131
924.366516 -129.035873 -240.836548
973.297180 -169.186630 -277.639862
881.705933 -24.819231 -330.681580
847.518555 -3.447478 -356.290222
742.663635 134.570328 -451.570526
838.232483 33.704823 -247.582733
1001.756531 -179.464584 -257.032501
784.671082 38.570408 -503.058319
907.867554 -83.203316 -547.373779
947.899231 -121.912407 -191.433563
922.662964 -81.682777 -217.184647
987.507324 -180.246048 -394.868134
979.719177 -159.664688 -271.923065
780.455261 95.981110 -327.082062
940.238464 -124.433525 -248.850555
964.895874 -151.989731 -331.418488
938.950378 -128.262436 -314.355011
706.704651 163.296997 -348.153778
753.280518 146.998367 -330.041229
820.226990 25.133709 -494.980316
898.314087 -37.864979 -248.639786
822.632446 -76.546127 -591.370361
942.756287 -148.039444 -263.187744
871.447815 -23.534361 -241.170212
963.764343 -131.956055 -286.444550
726.287903 141.255005 -353.279297
822.339783 54.613850 -350.296021
919.907288 -97.761986 -426.363708
915.006775 -86.050201 -388.994476
865.848755 -15.232421 -397.017914
949.300598 -137.421555 -369.590363
921.096375 -126.550941 -514.071106
737.453369 168.906967 -427.087311
964.000732 -127.838837 -198.715942
847.813354 5.841346 -294.489380
927.031860 -154.254791 -541.407654
940.695923 -130.906860 -539.133301
870.224304 -33.167572 -558.432434
798.355957 94.483139 -345.180908
834.087158 -4.853978 -325.114044
774.639465 78.265869 -403.887482
775.196899 109.401070 -303.196960
836.835144 12.880401 -336.512817
728.651062 152.290527 -390.918152
940.445496 -131.875626 -527.194763
971.229126 -142.061844 -277.905182
724.016052 173.120850 -471.828247
960.552185 -131.298706 -271.447906
749.222656 151.353867 -387.127258
905.479309 -47.521267 -277.778564
783.281006 44.709190 -539.176941
798.115601 41.919106 -309.246094
908.255005 -67.745979 -525.331604
972.939026 -174.744186 -192.240402
775.541382 104.207428 -301.174927
777.371887 94.937912 -284.333618
876.121094 -73.120247 -562.143799
893.694763 -103.715576 -487.449982
786.376587 72.923744 -446.218628
832.475098 -54.432404 -586.340698
981.371765 -190.852890 -259.811401
918.840271 -68.222351 -216.653259
963.551697 -146.715103 -354.851166
888.425964 -35.591125 -251.291855
845.688721 31.171661 -274.393280
713.009583 209.294327 -290.832031
920.967896 -95.999184 -478.872955
973.127686 -167.843964 -249.091827
735.157349 158.074051 -554.788757
851.260254 13.982011 -388.802948
801.666321 74.646164 -272.053345
831.428162 14.176295 -393.200836
801.639160 56.509472 -379.310516
811.742004 -2.239093 -591.943359
785.255249 86.007126 -310.674408
848.505615 27.350737 -272.173889
938.268677 -94.215973 -260.983398
732.916809 151.232254 -427.958557
852.706787 -20.232670 -565.991028
953.830688 -132.100891 -284.063965
738.293518 162.871246 -295.668976
846.275940 -26.912056 -361.847382
802.114746 81.237953 -358.739227
799.081970 93.448265 -310.512817
814.416382 -32.068199 -587.930420
768.449890 113.755585 -382.003754
858.750916 -22.500610 -380.977356
939.129578 -124.048866 -405.404510
751.171326 154.971588 -333.860443
736.124268 138.278076 -540.848694
738.362183 163.391586 -279.732788
805.887451 75.199585 -394.787292
864.902283 -39.500370 -420.692719
734.720398 164.802216 -392.911926
886.925781 -42.921337 -325.576935
733.116821 147.877136 -512.673340
827.126526 17.245138 -406.855347
985.831604 -180.675583 -380.009430
849.290283 -11.351161 -342.738495
861.894409 -122.744652 -570.901001
965.476990 -152.349197 -198.484268
870.401917 -37.151749 -485.186462
889.344910 -38.647179 -236.288834
862.596252 -9.997140 -299.514374
843.445740 7.789000 -462.393707
999.688293 -188.705551 -279.199921
918.871338 -115.809181 -472.193207
988.684692 -186.989548 -426.797150
789.747498 99.622620 -350.260803
891.518677 -49.925625 -425.358215
809.430115 38.515141 -422.085480
1029.602661 -183.031174 -521.482666
807.705933 22.355299 -523.736023
755.771973 113.942917 -321.134216
999.662537 -189.076797 -272.924377
878.399475 -53.061497 -560.479919
831.961670 -1.858190 -511.044312
828.791321 -119.952354 -567.436157
753.778198 119.634651 -566.458252
827.765198 42.918056 -279.942230
891.711609 -140.416946 -564.450256
806.244995 76.225349 -316.457001
808.818115 -29.965050 -593.074768
848.460388 1.168147 -321.992126
827.689575 40.284573 -385.065369
943.795410 -112.059883 -288.390228
904.768311 -73.199928 -394.961548
758.339233 140.334991 -374.335693
742.873657 135.597168 -402.848236
801.748047 78.867783 -253.398224
744.570251 145.560547 -461.457764
748.240723 126.589745 -548.480469
802.950928 48.657967 -558.960999
951.246338 -158.573746 -456.277008
826.044250 34.930759 -298.478516
819.886780 13.463227 -449.902344
799.838562 51.133633 -541.244690
706.420898 187.007629 -305.158600
830.641907 16.185797 -546.983887
744.251343 131.973312 -521.106140
764.864563 94.110580 -458.699219
789.632690 65.081978 -541.739807
754.256531 120.825607 -475.739777
985.460144 -160.479996 -227.963593
950.749023 -132.432083 -342.087311
902.508057 -78.119232 -207.888916
896.631775 -34.542595 -278.307678
764.350220 90.877586 -384.634583
923.623962 -99.018387 -527.203857
759.005066 125.610962 -462.538239
903.184021 -61.897572 -407.306244
950.538940 -133.341705 -216.340637
814.392517 -44.651188 -586.620422
821.963013 -78.031334 -572.262024
915.962585 -81.137466 -309.958435
765.504700 81.380325 -556.956299
836.335205 16.031786 -364.466400
904.083130 -51.826111 -321.238129
957.020020 -164.675797 -392.524170
844.515320 -144.776718 -558.326050
767.511963 111.217781 -354.037811
911.471008 -103.082214 -483.896332
1000.777344 -197.641144 -328.145782
777.315063 91.754456 -437.644073
772.880310 124.671455 -346.687347
903.209900 -148.177048 -561.679932
910.314026 -63.295368 -312.469635
987.275635 -220.706558 -393.657654
907.853821 -63.944065 -211.950912
993.508850 -194.489227 -183.900620
782.304871 61.764984 -507.794678
763.245544 88.369240 -495.236481
906.119629 -60.287273 -214.197540
929.515442 -108.659950 -353.428040
990.899902 -192.812866 -252.697327
873.411865 -39.841511 -336.868805
871.398071 -50.291267 -455.248505
963.604431 -133.927521 -258.738159
950.020386 -114.875473 -263.767609
907.738831 -162.034958 -549.512085
844.135010 7.743514 -314.133453
953.666382 -152.349182 -359.854797
775.554138 124.892212 -313.549347
940.824280 -128.527985 -364.808167
1019.439636 -234.117722 -377.438385
903.882629 -69.346672 -300.753937
919.734131 -89.730461 -501.025085
769.608582 80.530632 -274.908691
840.275696 -25.554399 -587.374146
877.679565 -74.726601 -546.966125
890.993042 -132.709427 -555.507141
927.007568 -113.797287 -371.617584
847.213379 54.323303 -601.128296
1000.516602 -191.516739 -257.325623
815.796936 52.413712 -430.185669
824.847717 32.645012 -316.565552
1035.554077 -198.874130 -504.798096
986.849670 -182.518799 -306.481689
822.859070 24.220123 -452.372314
713.842834 164.016068 -324.548889
918.054443 -73.448250 -307.280975
837.266907 -8.113376 -478.298492
856.272400 -117.049965 -568.888672
932.072876 -97.632477 -236.292587
922.922119 -107.238335 -383.779572
909.016296 -59.663662 -202.176086
740.232788 152.760071 -452.522858
1009.010254 -205.517334 -301.204437
931.076904 -135.640686 -405.951111
773.669434 104.521156 -291.527496
792.316467 80.725243 -299.764069
844.289001 50.562290 -596.002686
948.127380 -113.581825 -238.502213
998.962402 -209.391815 -388.954407
892.350769 -38.357273 -322.321045
863.186462 -3.136436 -282.448883
904.253174 -70.908119 -223.203110
833.628235 43.881927 -576.743164
884.793091 -44.444271 -306.923004
830.002686 3.321972 -321.318481
909.453064 -101.962334 -554.951904
988.973511 -175.998962 -323.813934
912.650879 -66.604713 -314.630646
862.742554 -30.672770 -417.269806
841.726318 14.389666 -313.070709
906.392822 -60.087315 -234.837372
1009.155090 -208.446075 -312.183075
896.473755 -39.049328 -244.942932
977.525635 -164.025467 -308.073425
870.357849 -131.061707 -576.042542
713.769226 170.060806 -425.292267
941.376770 -124.161720 -300.562500
1010.374573 -207.073517 -324.399811
936.427917 -105.633095 -518.212402
835.905273 -7.039218 -336.421631
758.090820 139.352814 -438.160583
990.533325 -159.848663 -537.507141
862.850952 -0.486427 -261.242279
1004.765747 -215.252228 -411.450195
792.695923 114.013908 -257.373932
960.574402 -134.368515 -272.172852
908.765015 -126.147324 -551.614685
921.777588 -96.992401 -346.251892
985.884460 -171.907013 -180.683838
746.825500 122.503685 -445.028442
941.780884 -113.908623 -189.701279
754.721558 98.843491 -590.367065
788.096497 118.289886 -286.234528
949.838135 -132.003311 -209.702011
981.347351 -154.354492 -255.270020
881.971375 -42.423111 -334.454742
852.935486 1.777532 -337.686218
797.549561 8.260960 -593.493042
841.903748 51.179340 -593.108459
847.603516 0.621148 -312.436646
855.003784 -4.154189 -292.632813
846.534607 1.675648 -376.353241
946.426453 -136.091721 -412.402039
744.079163 115.487312 -497.279022
898.437195 -61.305973 -339.427887
998.573242 -201.633743 -226.921295
983.028503 -189.966278 -471.697449
844.982117 -18.174568 -507.491516
941.321594 -105.482063 -252.102829
981.742432 -181.059006 -325.182892
892.510132 -152.246078 -560.576599
893.179932 -39.224514 -543.753845
874.952087 -5.427195 -254.218307
940.477722 -139.710999 -351.005707
905.836121 -54.642059 -306.755280
766.056152 93.805725 -461.949005
839.776306 5.946832 -352.519287
884.332764 -43.575230 -467.701843
844.076660 5.898707 -468.048584
772.499268 94.441284 -307.846588
718.691406 187.548676 -298.869720
980.205933 -172.666260 -261.446838
895.532471 -97.245377 -523.927124
916.086060 -73.260475 -332.181458
752.995728 131.155823 -309.147980
745.834045 139.634399 -516.733215
915.372070 -97.622185 -395.197754
1014.054443 -236.039124 -448.246796
725.489807 152.378906 -428.350647
967.878418 -169.760925 -342.732971
1008.263733 -192.287491 -190.242233
836.924927 17.660456 -378.478912
737.682251 158.781372 -309.181305
833.349487 -93.663620 -580.091614
889.003967 -80.381447 -307.556244
983.924377 -191.611710 -399.611176
863.221985 -35.629059 -470.221313
782.466919 101.673141 -385.169342
991.524536 -194.873779 -429.572113
921.869019 -73.143463 -291.159576
965.518127 -202.945236 -405.543976
834.801270 -91.596100 -568.498047
938.435364 -120.340111 -515.575745
741.979797 143.308441 -373.712280
729.949951 151.444321 -467.837891
822.412476 -73.114212 -588.954773
845.928223 -20.432936 -327.357910
1000.437134 -208.718719 -449.337494
948.908386 -143.221359 -268.767578
848.546143 5.601121 -415.116058
877.028809 -22.075882 -386.062439
887.326843 -34.662090 -228.946091
907.088257 -120.193756 -409.570587
760.129639 136.927124 -341.341431
900.817688 -66.647339 -560.439636
790.553162 74.802330 -420.985352
925.131775 -138.677017 -535.647217
978.292542 -164.422699 -217.190292
949.759094 -167.836227 -414.760956
911.427551 -80.398994 -282.752930
817.986328 -74.121330 -593.124023
760.044861 135.153107 -278.226166
788.467712 118.671432 -607.926086
910.290588 -103.710144 -409.143616
971.057861 -159.107193 -405.904785
851.612549 -27.325937 -479.902802
769.338013 110.263191 -450.625000
728.500610 165.857285 -487.498413
889.287048 -52.041328 -363.329712
869.256653 -35.690315 -389.676971
960.371948 -184.779892 -340.938293
823.324463 39.171558 -321.700256
775.606201 86.475929 -520.202759
827.772461 11.677108 -464.163055
857.448792 7.975045 -229.981613
867.451416 -139.638596 -570.710632
991.713074 -191.894272 -390.266022
774.946228 94.400505 -501.617493
820.876770 40.022282 -355.972931
784.571106 77.772118 -534.960205
720.169312 184.740829 -338.893921
821.514343 54.912014 -360.820953
857.372498 -25.222195 -503.951630
741.336060 118.022316 -513.026001
774.216553 97.002983 -433.418121
757.015930 96.151749 -521.220215
901.876160 -78.729759 -239.205902
924.320251 -91.945854 -303.824158
967.263306 -157.527435 -480.003204
850.265381 -4.800651 -368.873535
731.831299 145.607788 -548.020752
750.511963 121.407967 -515.693054
969.206604 -145.527344 -256.086823
872.517639 -42.700993 -373.026398
814.889160 43.035583 -379.580841
852.708069 -38.441227 -472.580261
905.514832 -89.137039 -409.584900
943.128418 -128.414551 -375.966858
951.183838 -137.112564 -364.551208
933.239563 -84.410957 -239.645782
722.802307 161.565079 -453.032837
941.636475 -131.094070 -397.408813
733.300110 157.650162 -336.050934
748.637573 144.300659 -339.076721
926.592834 -87.846275 -282.444366
809.720032 47.080616 -394.186432
726.395203 185.048218 -315.033081
776.283142 121.099060 -328.065002
1001.984314 -205.658371 -390.252045
727.909180 151.856857 -485.187134
992.986145 -195.679276 -222.730789
826.960999 -102.983063 -579.609314
796.908508 -64.016083 -580.237244
760.983887 128.429398 -289.584320
924.020508 -106.160873 -368.139435
986.794983 -175.499741 -328.425293
965.999390 -167.173172 -233.044540
967.096313 -148.787277 -206.955704
799.557922 55.669220 -424.251862
853.884094 -134.684036 -571.078125
714.475281 210.236374 -359.889832
885.486633 -62.593563 -551.545288
804.997803 39.491520 -290.059570
806.945313 49.109234 -495.638672
714.013733 180.737381 -392.328400
929.102417 -79.639069 -237.461426
834.354187 39.857677 -267.595245
852.599792 -129.321503 -558.008301
886.860962 -154.215851 -554.522644
973.366821 -141.160812 -216.660706
1017.608032 -160.501602 -524.765564
853.777283 11.715520 -298.574860
903.900757 -108.453011 -523.597290
765.765686 119.047661 -429.336700
828.828430 8.312117 -386.012451
832.725159 4.119700 -276.952026
843.180298 0.095170 -303.099121
941.028442 -131.836685 -538.358276
850.433533 8.307378 -381.058655
930.409729 -99.284035 -524.009338
879.113953 -54.547256 -459.144470
1010.071838 -207.693756 -306.275635
816.565613 24.513264 -476.816498
903.373779 -37.574013 -226.784576
865.612732 -59.414387 -393.083405
786.982544 82.501556 -362.001038
750.368469 170.022263 -286.060394
881.093567 -30.270479 -236.897049
877.326233 -29.777666 -386.609863
766.384277 86.444695 -517.279968
876.302551 -56.404285 -277.498169
818.357666 -9.409591 -601.315918
983.868774 -177.682053 -289.845093
854.680115 -33.241287 -496.296387
839.610168 0.678902 -505.929993
785.453369 -59.410141 -583.150513
863.858887 -47.689419 -567.927551
729.197449 180.933121 -360.920258
786.387451 83.637672 -336.869629
862.479858 3.300792 -252.126297
793.882324 90.687553 -271.295349
958.918579 -132.718781 -312.615997
888.697510 -56.029812 -305.268250
737.602356 171.254105 -403.461456
879.380798 -64.385788 -479.758820
866.603882 -40.142593 -571.720947
869.317627 -22.120394 -567.804749
999.868408 -203.511765 -363.114960
895.752869 -43.999435 -325.476868
843.075378 -68.729401 -580.616211
719.338623 197.213028 -358.213806
733.483826 130.318573 -540.181396
740.579773 139.237610 -552.869751
932.972473 -143.962997 -336.963104
913.883728 -78.267502 -369.205261
917.744995 -103.056358 -515.858521
863.780701 -12.437525 -305.872253
904.570984 -69.868401 -512.574097
838.703064 13.576828 -310.872772
803.441223 86.790291 -306.183594
870.371338 -15.126866 -281.971313
869.104553 -48.665699 -569.152466
891.522766 -67.900612 -354.206207
825.529114 12.003827 -503.915771
853.905884 8.341846 -260.493195
742.558044 176.678528 -299.250275
978.705200 -166.767288 -294.138458
968.499146 -150.612305 -181.894897
903.997375 -166.847549 -542.642761
833.804871 56.404697 -276.704865
809.725342 15.794714 -494.591522
956.426086 -146.617203 -191.021469
740.150879 158.136749 -341.331665
888.444458 -69.694351 -507.819855
755.364990 104.184967 -516.575073
989.045227 -156.794785 -527.791870
983.668884 -170.356720 -377.324066
787.825928 131.066147 -279.786774
911.776123 -123.306946 -341.708313
1015.982056 -200.268921 -485.257660
992.258728 -161.663177 -537.876892
983.942261 -191.182800 -370.103119
852.574219 -14.897631 -399.351532
883.350098 -61.582211 -454.622223
983.521301 -214.129913 -396.076843
1003.437988 -225.793686 -402.469971
887.989075 -57.018124 -516.890320
750.147156 122.455467 -418.820953
1008.687988 -193.141174 -516.794983
715.350159 206.066330 -345.199219
896.684998 -65.342155 -335.067200
726.147888 130.097778 -570.518799
764.384583 130.024734 -439.804321
966.450623 -173.014847 -299.801361
815.313965 15.294951 -503.112030
999.266296 -200.645325 -342.338013
802.854187 46.511242 -592.314026
1001.244873 -209.375504 -400.476624
853.458618 -15.343163 -437.031952
977.956482 -150.404205 -181.721146
842.025818 6.287394 -387.885529
754.728333 135.347763 -461.749695
880.662659 -35.077740 -297.291809
766.215820 121.643394 -303.069855
938.472168 -123.949730 -342.914063
825.505981 -55.393921 -590.340393
889.752625 -45.831474 -303.325806
922.890991 -94.215019 -332.881195
897.033264 -72.362328 -478.483368
877.330750 -37.346203 -371.697601
834.729492 24.247040 -321.940277
721.765076 164.549011 -399.821259
755.199036 117.556999 -390.029175
960.207092 -138.275681 -268.748718
895.385071 -56.678013 -392.233490
940.983337 -110.205826 -324.503571
940.986206 -130.695831 -432.365051
885.252197 -121.820206 -565.005981
890.377136 -49.814068 -284.679382
838.041626 -67.455299 -567.763855
896.943604 -96.614006 -341.642212
740.575439 181.541275 -300.354736
891.533875 -105.369408 -533.216980
892.834412 -31.322229 -268.671326
900.251526 -69.556145 -296.232391
820.350525 45.062786 -438.939911
1017.061829 -225.410049 -465.165527
976.660217 -199.527588 -419.952942
830.604187 68.045364 -589.840088
944.023865 -88.788292 -195.834290
983.155579 -199.929932 -321.440979
917.384033 -76.465942 -244.328720
1004.200073 -179.908157 -214.748230
876.676086 -152.003372 -563.862244
783.125854 127.239403 -284.313354
826.989136 20.631456 -423.700500
989.726257 -177.177032 -349.253387
971.244629 -152.571350 -262.369019
882.166748 -14.234242 -282.307922
911.139709 -95.551613 -410.735870
878.534912 -57.780724 -407.504242
798.675598 71.820374 -331.197235
822.594727 23.896162 -551.489441
878.056213 -30.655443 -328.079865
806.723572 54.126480 -397.820374
883.945923 -104.236206 -551.811890
744.768494 131.748047 -385.676056
837.305786 -8.546735 -464.418976
948.747803 -137.978485 -415.928955
848.840942 -14.437447 -424.212585
916.838379 -85.646576 -275.594513
883.711914 -40.212307 -260.729919
960.354919 -151.043442 -411.606262
951.646545 -141.070313 -446.378937
784.131226 70.478363 -483.705933
838.838013 -52.038998 -563.812683
989.435181 -214.098373 -372.591858
985.638184 -179.811295 -289.771851
956.077820 -126.643692 -255.586716
894.556396 -79.014473 -404.142517
983.320251 -188.304565 -419.873505
881.601440 -29.940275 -245.952148
891.337708 -39.762863 -222.029755
766.623657 113.803452 -398.711700
775.322388 128.927200 -299.458160
750.815552 161.230713 -310.224396
863.901855 -0.410022 -565.038818
962.722778 -146.586441 -312.850067
927.515747 -119.015549 -400.553589
921.203003 -129.798920 -549.056396
910.222961 -92.149803 -501.247589
972.307190 -166.455933 -447.356201
805.026489 57.717361 -529.341064
862.295898 -139.895752 -569.763550
754.188904 123.154099 -529.493958
868.772583 -1.708085 -282.225250
794.007629 68.531700 -364.825073
896.369019 -47.149391 -543.910156
891.239990 -64.990074 -381.021912
857.829712 3.490152 -263.555176
841.377319 0.121836 -431.319489
878.874939 -41.000912 -218.300430
898.514587 -128.659485 -536.075439
749.165649 110.611603 -436.299347
872.885986 -33.522083 -458.698639
965.027100 -147.121078 -348.442230
966.341553 -162.765121 -329.251953
875.077271 -5.942955 -224.623734
1009.685425 -184.599686 -522.835632
1020.580444 -222.087326 -357.057709
884.143799 -26.325779 -330.281342
809.153870 47.062458 -369.864868
931.024170 -138.688873 -469.756561
1039.379517 -246.481003 -461.571564
948.710632 -128.335175 -545.374146
943.742737 -161.097122 -259.996063
864.445618 -2.885267 -291.888489
897.590881 -79.682335 -401.022919
756.959595 155.302002 -322.960602
751.775696 147.889145 -280.977692
871.659241 -3.390018 -253.793228
898.637695 -75.921272 -511.621735
773.766479 91.002426 -317.596130
724.717590 169.996994 -373.664551
865.148376 -131.634842 -554.045471
842.430664 -0.605260 -538.362793
723.712402 157.027557 -529.259583
981.544617 -158.319092 -259.504059
731.209351 174.102448 -283.244415
756.219116 96.022888 -534.390686
924.806030 -102.873924 -338.025696
990.210510 -194.632553 -194.268250
775.320618 80.810974 -492.356171
929.296082 -119.440094 -388.227509
954.799744 -150.007095 -356.721405
877.715698 -58.942894 -280.904022
853.650879 -15.158033 -451.743408
970.115906 -165.013855 -278.882385
936.941772 -87.174873 -535.937195
983.305176 -133.012543 -180.279526
964.702881 -172.585724 -419.213501
900.966064 -49.069572 -316.265900
796.941528 98.920265 -330.146149
917.770386 -106.095108 -488.012604
973.059448 -196.599518 -388.701691
734.718750 110.802559 -426.415894
765.709473 87.074265 -423.870514
747.556213 113.780846 -403.443878
822.835999 47.249268 -400.718414
848.938232 -14.403210 -447.304413
741.265930 168.747452 -343.888855
935.473022 -148.911346 -546.494995
983.657959 -181.641907 -462.686737
794.966675 72.784630 -281.221039
787.270203 60.849957 -479.000702
922.053040 -84.672073 -350.171906
862.393494 -25.711266 -567.563599
812.087769 51.611099 -310.855621
911.777100 -131.967972 -552.110107
952.914368 -168.707779 -427.917328
930.451904 -106.768768 -229.029984
793.649048 91.108910 -367.309937
892.499634 -56.331963 -302.036713
817.411743 10.510388 -516.677917
858.029785 -8.280914 -351.038940
745.924011 132.301590 -422.378326
917.161560 -100.265327 -316.052887
828.788818 -92.396339 -583.376404
899.300720 -68.877899 -540.352966
824.189148 62.444481 -276.984924
835.510437 28.107618 -305.601807
964.606323 -154.007507 -427.149567
936.148743 -166.589264 -538.204651
957.838989 -130.791260 -307.481537
965.464905 -154.935760 -532.769775
927.721191 -136.353333 -525.187500
828.637512 -26.464510 -578.304016
753.868774 133.366837 -405.066162
906.875183 -101.244713 -280.414490
783.409302 69.725136 -384.409943
821.491577 16.391092 -453.166626
971.581421 -176.722168 -474.718292
786.164185 49.290199 -471.792633
882.931519 -49.280704 -308.681152
927.945862 -93.597847 -273.235840
812.264160 28.638649 -310.220764
864.052490 -39.930676 -481.023407
826.546692 -42.875751 -585.620667
858.559509 14.729500 -273.212921
759.717346 121.783768 -418.218201
863.262573 -29.968300 -405.276093
736.351013 146.713730 -432.504944
881.790710 -60.069122 -449.668213
869.263550 -36.627880 -476.426117
949.327942 -118.144081 -520.622070
867.237122 -27.242533 -379.369812
927.568604 -102.807152 -514.657227
887.283508 -76.175163 -516.373352
766.375122 85.261131 -429.292725
883.674316 -44.217766 -418.063690
942.113464 -112.229691 -329.045837
845.604492 -104.367317 -578.346069
897.961426 -64.890663 -516.395447
759.651917 117.747704 -432.719788
732.721497 132.190643 -410.167816
775.262268 103.463898 -271.462769
976.321289 -152.665314 -203.854111
768.626038 96.499374 -417.160431
914.091553 -72.544228 -210.621170
906.128418 -77.284554 -535.746094
886.833252 -101.137108 -562.610107
747.622375 133.330048 -367.546265
797.697327 83.417175 -390.707428
722.409119 144.808762 -363.405396
874.523315 -40.607857 -477.003448
798.087219 99.349770 -313.387848
752.480347 124.132507 -403.108459
863.989624 -12.435732 -324.540497
952.335510 -160.200821 -369.016174
915.514832 -134.378494 -550.338013
988.053833 -209.829666 -361.626892
752.325928 75.270683 -535.152527
838.929443 40.692532 -601.443054
921.353516 -116.903099 -393.566681
850.998901 -78.323730 -583.795410
733.324585 154.477081 -378.577545
825.721558 51.962227 -340.455475
827.980225 32.772549 -426.672272
827.358887 46.726135 -254.347656
967.964600 -152.132614 -304.479340
854.453552 -20.567608 -574.441772
1006.868652 -219.241501 -493.922882
874.505310 -4.776715 -292.476807
889.477234 -65.227211 -396.378510
868.219177 -15.511170 -282.167053
943.630371 -124.626457 -276.401245
956.047974 -144.818741 -481.047455
1028.412842 -187.153458 -509.714142
969.352112 -182.200928 -387.371002
788.565979 83.694862 -276.643066
877.486816 -28.633312 -429.701721
872.869202 -37.928284 -452.463776
743.193054 156.818024 -288.635986
919.449707 -92.572472 -397.024048
869.773743 -32.429466 -559.294739
802.768250 63.843071 -285.280548
756.007568 134.838974 -339.137268
810.548706 -114.931854 -572.457458
741.573059 150.806076 -315.452087
992.447205 -186.535278 -341.587585
861.126526 -34.239834 -467.741882
996.491211 -164.018494 -506.145111
724.233521 162.186783 -511.869263
768.522278 95.608620 -333.035828
748.326538 146.138641 -364.799774
797.844116 77.554047 -425.991241
887.508850 -25.883085 -248.908752
947.638794 -118.769768 -363.447418
969.929321 -156.278137 -314.783783
855.052551 -18.202843 -513.453064
924.565125 -85.172104 -243.496353
873.375488 -39.133724 -415.277649
960.242981 -126.656578 -205.536255
985.861755 -176.542725 -204.809784
838.405945 47.871113 -604.818176
990.392456 -179.417114 -201.424973
839.965515 -6.586984 -427.176636
1000.924072 -194.445953 -319.215393
991.454651 -171.124725 -523.452942
810.645630 -65.537880 -584.551147
729.787231 198.433914 -305.560944
883.762390 -23.111525 -297.463867
872.160461 -31.841988 -452.907013
884.975586 -93.396980 -561.705994
699.821533 168.021194 -406.647614
980.733765 -211.757828 -326.310028
846.395874 10.742479 -326.312805
931.694702 -132.568344 -535.212585
909.552063 -91.851418 -414.843018
883.056580 -166.724380 -552.937073
955.471008 -137.033035 -196.604721
773.457825 113.269791 -288.524811
705.140198 161.415009 -400.335968
894.672180 -99.900101 -562.177002
897.468262 -71.576988 -469.809692
983.802551 -175.689774 -310.999969
747.172058 135.524719 -443.860382
825.847534 52.410526 -327.336639
897.924011 -73.915161 -399.212006
748.924438 138.295502 -470.437347
997.223022 -215.103104 -435.143860
952.998108 -139.364899 -405.958557
857.405334 -6.520364 -284.550903
883.779785 -54.269176 -497.258423
737.131042 174.312744 -356.578308
861.773987 -6.702961 -373.281616
913.413513 -67.288841 -311.221100
968.121277 -162.284637 -376.013275
882.990234 -148.956879 -555.287781
766.932129 128.098526 -432.643555
955.084778 -142.723618 -367.698517
868.261353 -77.865952 -558.569702
933.432983 -98.775940 -328.964508
984.325928 -177.827942 -302.319611
928.659119 -85.938629 -200.616806
973.271118 -170.825302 -294.747284
895.010376 -52.029530 -403.838440
789.739990 55.481327 -480.733521
837.329834 -8.380104 -583.816711
711.194092 221.322006 -321.183655
918.179077 -123.085312 -539.731628
865.555786 -109.040169 -553.337585
869.431152 -42.114681 -516.833008
928.772644 -150.440155 -398.092072
750.389648 137.022324 -326.709686
843.371826 -5.295485 -447.851410
907.253296 -126.733452 -552.568542
730.683960 139.758957 -363.709595
886.328979 -50.817562 -286.262024
944.523804 -129.674988 -407.174744
949.982117 -98.454102 -198.243301
727.598022 166.277390 -330.309448
832.566040 49.531849 -305.349121
815.434692 26.470985 -282.432861
965.638672 -149.379089 -412.530273
853.678833 -50.390598 -574.055725
740.968140 135.542282 -407.027130
895.351624 -83.554832 -491.905212
996.398865 -156.638809 -171.705078
909.273010 -151.265640 -558.444702
854.687378 -34.612350 -561.121094
745.437866 158.006149 -410.318085
908.097168 -77.786362 -342.451447
788.638672 46.514462 -292.436951
1014.829956 -204.928497 -295.488342
1009.146729 -225.336380 -442.967621
739.602173 137.385727 -576.309021
863.366211 -7.555263 -297.746857
909.945801 -97.365433 -504.797638
887.251221 -59.412983 -378.758911
842.772583 29.936090 -361.201691
725.207214 147.142593 -581.410339
753.195129 124.711288 -352.694580
839.221863 -16.416708 -536.320129
804.269226 79.704651 -306.707886
842.927246 18.743229 -302.877472
825.572632 19.057140 -442.182739
723.368103 176.342316 -460.463654
858.038574 -6.688592 -574.650085
884.529724 -30.339426 -261.641724
921.838074 -115.485115 -514.141785
958.696289 -127.109474 -216.188385
751.472229 140.206436 -322.547546
938.252686 -97.147087 -202.280884
770.665955 110.334663 -308.222992
920.021240 -130.447876 -370.261688
878.730469 -28.387367 -415.602783
883.386536 -28.717783 -257.139038
714.465454 155.537003 -393.984802
700.489868 205.712250 -334.145416
938.742371 -111.656593 -509.893524
866.495117 -59.747059 -549.198120
902.258667 -64.836357 -265.276245
878.550232 -52.935184 -410.968048
797.563782 51.085182 -450.653290
778.430359 112.137238 -426.977661
705.549805 172.562393 -419.772369
853.942749 13.778688 -578.842224
869.059143 -16.665876 -425.844299
834.568542 -31.252207 -580.972717
777.971863 81.060303 -347.736145
717.004761 196.920502 -404.401794
765.481140 76.456657 -464.834045
967.030762 -166.757751 -211.661499
792.252930 85.681435 -329.314667
871.835083 -35.738640 -447.284271
847.237976 -2.554874 -378.856812
945.619690 -123.478058 -310.753052
896.027161 -94.785271 -553.979126
978.960999 -181.975922 -420.670807
809.071045 17.891460 -488.737183
733.609802 160.537491 -297.847107
905.215637 -110.884636 -545.015137
790.585938 48.968525 -440.439087
980.123474 -183.724670 -346.918060
987.606812 -176.498489 -227.528061
990.526001 -178.718536 -340.880310
898.846252 -57.725334 -406.826599
983.364319 -171.483917 -201.616623
890.940674 -40.596329 -269.594391
740.796814 116.214928 -445.687012
991.376526 -180.782852 -214.863068
850.833557 -12.549687 -504.596954
846.965210 -33.847931 -582.745911
910.207581 -54.558758 -268.893738
952.764587 -156.427689 -472.905426
820.939331 46.363468 -305.912170
977.050781 -172.619995 -440.512695
737.949097 153.557251 -494.011078
703.883179 196.392731 -329.532196
860.492920 -105.177261 -558.757751
1042.262207 -213.853256 -488.481995
902.415894 -76.331688 -334.151917
868.915894 -25.877939 -222.348221
742.584900 175.321487 -326.865875
776.184265 66.276154 -522.499817
810.559082 7.188781 -484.718384
942.097900 -158.724045 -550.323486
856.955383 -67.559929 -567.958862
916.388855 -93.636986 -431.763550
944.328552 -131.122208 -506.790558
1002.926636 -195.980515 -279.474335
770.935669 100.258057 -367.278534
980.460999 -157.015762 -237.901779
936.611572 -133.726685 -225.631729
764.252563 78.714813 -459.731018
752.517822 109.735390 -279.666534
738.744568 133.682480 -458.002258
747.044067 145.014740 -279.502167
824.435181 8.533188 -573.542480
825.610352 45.910625 -263.242615
805.977051 35.050678 -330.622650
777.714844 103.428963 -356.695282
974.839966 -173.398483 -223.622742
823.658203 33.914028 -351.101898
937.379089 -121.203094 -524.019958
762.501770 109.620491 -398.589600
842.716431 4.423853 -482.078522
822.164063 55.249348 -373.223511
849.808472 10.179767 -244.704239
925.664917 -118.998444 -492.875977
728.228699 160.072906 -370.169403
837.259766 38.243366 -326.190918
818.467590 46.401230 -425.587006
732.264404 151.544357 -406.156982
953.798462 -141.593536 -307.034485
977.977661 -207.643814 -263.926666
755.262024 145.762024 -278.479584
832.590149 22.578518 -308.154144
808.526428 85.408234 -252.218613
785.631592 59.121952 -429.904938
753.480408 139.915924 -293.084259
1009.826233 -240.407532 -379.007660
888.623474 -47.273045 -449.409210
947.224060 -163.314301 -323.182434
953.378723 -159.195343 -435.564880
824.382629 4.731359 -494.332458
866.834595 -13.081878 -563.116089
738.221008 172.521011 -366.897369
842.229797 -56.292080 -576.406433
811.553345 -78.384354 -585.994690
868.591675 -37.666679 -395.890015
800.522156 93.415184 -297.995483
797.947449 94.238777 -308.667664
857.755737 -1.165997 -394.251953
823.666321 41.827541 -446.801025
923.559509 -130.611343 -431.396210
926.356567 -79.331429 -279.607910
717.079590 189.983734 -360.333252
877.997314 -26.952467 -568.028381
733.732178 143.066315 -420.378387
718.616577 159.957458 -452.708496
863.989258 -41.497784 -471.558105
942.145142 -159.355118 -550.386719
879.544067 -26.535885 -240.496368
856.156616 -8.229879 -342.622162
832.125977 -42.733589 -595.940247
974.971252 -182.559952 -262.160004
965.803101 -124.566414 -191.447357
941.418152 -99.975052 -263.846008
989.396484 -174.785797 -299.706848
816.118347 7.564351 -491.964569
756.445313 113.022217 -531.306091
983.713257 -182.524612 -368.805664
995.039246 -206.479813 -457.248199
887.124512 -32.752609 -330.827789
899.381592 -91.683617 -550.567444
945.802734 -110.928551 -323.579437
995.865845 -213.532730 -443.489258
808.847107 75.186378 -334.741608
739.633667 145.521194 -484.085205
826.788757 31.618856 -305.581635
772.163025 99.904976 -377.673309
865.014954 -22.411301 -494.795532
973.598694 -184.993118 -319.991058
959.651306 -136.891495 -221.300186
889.630005 -46.956459 -261.792969
869.615967 -49.912800 -477.260223
812.157837 11.581157 -451.847229
745.821655 122.627960 -436.332947
770.981628 63.069000 -438.035431
939.491028 -159.858490 -311.477112
958.376953 -143.320969 -331.928925
954.547058 -148.139542 -394.678772
886.882507 -33.635529 -212.140671
936.046997 -104.279846 -260.446198
998.798523 -178.918365 -520.497620
885.697449 -42.183117 -261.300232
823.208374 -1.254945 -502.760406
888.717163 -52.361176 -457.818634
871.019836 -107.679787 -563.747437
911.657043 -83.667694 -316.323730
904.980286 -58.103451 -225.821671
1007.510010 -206.396683 -306.567719
936.680359 -114.077568 -431.396027
908.708862 -50.094131 -233.831161
847.056519 20.959324 -250.682724
845.671265 -31.068975 -578.590881
870.772095 -92.673607 -555.908508
1045.913208 -257.152283 -458.667389
794.943848 26.333426 -510.964691
818.401794 33.609127 -432.545807
815.810913 62.488773 -248.133270
883.672729 -38.813339 -442.406036
861.380249 -116.215996 -578.237732
936.198792 -115.475662 -283.007324
1007.940552 -168.998169 -175.703552
884.115540 -22.512156 -280.901489
884.708679 -106.751770 -565.270264
980.854736 -144.090164 -181.802536
922.329529 -93.816307 -272.915894
787.605896 63.766460 -559.458618
828.974426 30.596601 -431.821594
925.126587 -93.850845 -308.740784
933.840332 -92.828476 -230.587067
870.602051 -37.970234 -357.058990
873.761169 -15.451364 -280.752502
893.882813 -47.614861 -359.562836
938.844177 -158.623672 -441.512695
896.279846 -104.090942 -565.538940
988.096008 -162.318298 -213.154510
978.269348 -173.012985 -207.733704
885.461792 -55.659035 -329.205383
1000.154480 -171.781433 -529.989624
812.288513 54.543961 -541.391785
887.193176 -49.715176 -541.380798
918.984924 -85.838516 -341.685425
996.523499 -188.809708 -223.409363
812.148376 46.693192 -469.152344
765.246216 95.444077 -316.371399
856.927185 -117.029106 -560.556335
909.976135 -129.790710 -549.905518
887.470459 -38.707691 -542.151184
891.432678 -50.904423 -245.747513
998.827148 -192.435867 -310.052429
930.209351 -138.694778 -246.626282
993.872131 -217.557144 -386.710358
962.784424 -145.963776 -415.791870
800.015076 50.097378 -438.916962
924.752380 -79.529205 -290.984558
745.779663 106.930672 -525.772034
962.311340 -130.601898 -293.904907
951.419739 -122.774307 -290.100677
803.156616 27.696344 -475.261780
918.800476 -92.400414 -510.091248
913.766052 -91.334862 -360.206268
840.405334 9.302895 -516.432800
743.217102 134.334808 -392.341461
891.019897 -67.418823 -399.321747
777.961060 97.111542 -294.315674
965.373901 -167.024704 -448.569550
915.598572 -125.834076 -372.752319
852.197632 -26.890190 -566.731873
812.985046 9.558687 -595.649780
974.543945 -175.857559 -401.820709
1004.896057 -194.551605 -255.766006
709.872498 193.565002 -303.227997
785.569885 86.430786 -457.596863
960.425537 -134.369843 -201.891022
978.618652 -163.123642 -312.380127
808.228943 72.264954 -361.430084
877.616394 -55.059605 -456.607056
771.953674 90.391785 -424.586121
717.781250 165.741699 -386.077545
850.897461 -19.590361 -423.812592
757.021606 126.056313 -305.122833
885.071167 -58.125977 -351.260284
726.080994 169.102127 -357.411530
940.421631 -157.640457 -361.109894
964.889832 -148.325211 -306.105164
840.802307 15.641476 -356.545776
744.706360 149.324203 -296.644623
776.377563 84.019424 -541.336670
828.003540 26.399399 -516.527466
799.596008 64.427429 -340.759399
970.676514 -167.342728 -408.247955
975.651611 -135.961884 -536.608276
882.630127 -54.941971 -400.859680
979.858459 -195.413834 -444.896881
788.788635 93.297638 -278.249695
845.914307 -3.638878 -369.100433
1000.509277 -195.129486 -327.405396
791.911316 69.814705 -494.840668
852.210571 19.951138 -231.064041
971.564026 -170.858734 -247.095871
857.338867 4.212667 -285.625488
929.648926 -127.788506 -384.481598
900.223450 -60.666996 -308.546448
861.606140 2.115293 -229.487305
984.210266 -191.365097 -440.223053
988.695374 -209.302887 -457.734955
825.901367 77.270851 -607.963562
872.683777 -32.766357 -297.120972
822.098328 21.003353 -533.302002
997.573914 -208.566101 -397.973419
947.074341 -134.820648 -311.707245
815.328857 0.278295 -604.859070
778.443176 89.069016 -384.451477
897.304688 -44.067169 -313.726440
983.571594 -216.364243 -401.365570
995.176331 -175.763443 -178.679611
956.054382 -160.326004 -450.358887
921.599731 -125.152138 -301.902374
897.743042 -65.460945 -288.188660
1000.885803 -203.763794 -220.663147
966.651917 -167.062012 -282.519684
864.437744 -0.007421 -236.284729
764.684937 120.410728 -445.933502
1005.385864 -212.659317 -415.442719
720.065918 186.566315 -368.937592
730.422729 179.218552 -413.211761
940.435547 -152.863312 -459.807709
927.873291 -82.574211 -249.590576
989.830994 -205.583893 -409.294464
752.571655 108.193924 -517.728882
795.345947 94.226349 -263.350922
951.477478 -147.396103 -267.396118
908.046570 -85.263901 -462.651306
976.549072 -155.828918 -530.545105
726.044189 178.442459 -336.756256
876.183411 -44.234230 -468.442230
892.347839 -85.408257 -497.728180
816.952393 53.763912 -255.198639
853.276001 -83.176018 -574.592407
999.424988 -213.961136 -431.209564
787.360168 38.399311 -462.033905
859.096863 -16.792896 -528.507690
981.792786 -153.438156 -191.710220
859.674011 -27.821402 -270.334137
938.843872 -98.786674 -267.687531
992.686951 -146.244110 -536.192993
822.146423 14.403190 -583.452942
927.104309 -104.330978 -303.774445
810.196411 37.314930 -429.938446
848.377319 -5.765381 -349.167969
924.363464 -140.809326 -458.614594
904.778381 -51.323360 -551.734802
792.113281 81.931381 -323.168488
845.448120 -18.507536 -520.588135
926.479797 -100.741501 -484.281982
991.551636 -192.800644 -365.684601
951.422852 -129.634842 -192.512421
895.238647 -55.180191 -247.327209
920.630188 -81.898346 -368.769623
812.108887 26.964781 -470.576447
1008.919067 -209.367310 -362.235809
995.686768 -182.494217 -223.173126
720.346619 119.765877 -484.871735
762.691223 137.952698 -348.297913
883.622253 -35.829391 -358.148468
806.461609 70.304962 -383.060089
828.113586 34.659210 -266.627899
709.338562 191.762238 -353.494537
977.027527 -186.818314 -438.767914
949.278076 -148.864655 -261.975433
919.126526 -70.469292 -534.735657
782.605530 112.899040 -371.348694
962.640015 -133.598434 -543.355347
962.109680 -133.493484 -226.244827
840.630493 14.890584 -345.666931
961.001831 -125.650581 -219.048981
853.928284 -159.008102 -551.845886
979.502075 -181.663742 -396.603394
980.658264 -185.389633 -383.910370
727.071289 156.364029 -463.527924
899.001831 -124.787483 -554.760010
993.306763 -194.133514 -408.150116
852.638733 -20.833830 -545.793884
858.794617 1.284448 -274.840149
842.433777 19.335644 -245.123413
896.585144 -64.233391 -411.079651
942.788574 -116.480377 -350.755615
728.280701 155.067200 -528.578857
720.632813 208.298004 -337.563843
789.579285 84.055031 -330.138184
765.816467 97.969910 -446.170044
739.714233 130.201553 -518.814636
737.029907 133.080444 -352.788452
870.548889 -31.017029 -465.772491
900.495728 -52.093071 -249.622116
811.245850 68.902039 -259.714600
867.561096 -20.718578 -241.663254
914.822144 -166.585266 -543.183350
898.236389 -57.623920 -232.246399
883.279236 -87.214119 -521.527893
993.032410 -214.937592 -397.789429
765.475830 79.021507 -541.343140
774.017578 98.785675 -362.553497
876.100952 -52.475864 -405.487701
863.077148 -4.363031 -246.841278
891.074524 -46.791672 -226.729599
844.567932 -0.269527 -438.799591
853.509460 -5.901388 -556.594238
857.479004 0.973298 -372.907227
908.045044 -88.665527 -410.242889
872.265442 -32.806347 -371.346832
786.730530 79.271248 -374.343994
803.105347 24.348194 -419.744476
944.965210 -133.427032 -524.942749
771.739563 95.640579 -447.242218
852.221985 0.151033 -444.007355
951.137451 -161.932526 -270.285797
751.977295 151.623398 -370.745483
851.474243 23.979937 -274.041992
867.864624 -34.737576 -564.469299
887.565063 -23.951469 -232.738480
958.534973 -135.101379 -329.587463
962.368713 -156.515350 -193.066132
903.005005 -51.184097 -217.426010
753.948547 112.781052 -445.316010
924.660706 -96.999863 -254.842178
870.573547 -5.875777 -242.724854
811.133484 30.460505 -583.499695
941.794861 -101.698944 -213.824448
839.620605 -102.491631 -563.701172
875.030273 -27.168291 -394.557281
973.880554 -153.572250 -293.767639
761.772278 129.371368 -289.792725
787.335815 80.055817 -416.762726
708.709656 200.676895 -307.551178
810.056946 52.509384 -324.039825
762.128357 105.511803 -431.176392
871.135193 -43.878876 -236.262009
914.938232 -79.457275 -354.411255
757.877930 109.667107 -449.578278
958.608826 -146.893311 -392.430969
778.729553 106.444061 -285.102600
880.057739 -58.864067 -469.908844
807.412476 53.631908 -373.175659
856.391113 -95.521080 -557.344666
831.445679 -13.368177 -584.763916
913.563110 -74.052345 -343.406158
808.503967 48.352566 -424.875214
851.612305 -67.930603 -575.656433
839.462830 30.991594 -309.228851
839.313171 3.473923 -540.363770
990.211853 -223.032440 -427.753326
813.413635 43.310696 -395.669098
978.376526 -169.291321 -414.463989
745.730225 164.748123 -326.789948
914.964478 -81.366837 -261.701141
827.213623 -64.093605 -587.179626
930.377441 -105.951981 -270.269501
781.286316 100.232368 -574.515686
810.940857 10.211599 -440.635315
973.970215 -150.286606 -328.597107
809.302856 53.115807 -360.727600
837.890320 -9.623551 -476.890747
992.885071 -144.932373 -538.370422
739.871399 135.091461 -529.510559
868.424377 -54.591923 -333.736969
724.566223 137.931152 -573.763611
894.723877 -80.634415 -446.685150
974.577393 -167.164185 -448.796265
896.644958 -74.065964 -413.149445
913.961182 -124.748558 -548.407776
922.701172 -118.828880 -454.820953
877.382324 -30.289047 -326.623138
829.698547 4.164590 -410.007721
853.150635 -104.195831 -574.759460
847.127808 -23.541988 -511.558136
854.605591 -12.089394 -290.070709
945.450867 -127.592178 -399.734558
877.990906 -51.364105 -552.383606
940.679626 -124.407768 -203.458054
705.834167 219.494934 -308.524780
813.001099 52.077686 -336.207916
776.778076 116.118668 -305.256775
930.808899 -85.825790 -194.111893
863.116333 -0.015228 -370.421600
756.476074 115.055206 -413.513794
879.073853 -143.625885 -556.112183
731.348816 119.697365 -391.935211
992.866272 -216.877747 -340.606354
910.216736 -155.325821 -550.548218
972.963867 -146.706421 -542.002930
824.771423 38.782673 -265.526123
788.497559 90.900673 -311.767059
999.649170 -208.278137 -323.001709
761.528503 144.171677 -314.697266
939.574585 -100.468987 -248.925827
982.996948 -194.321945 -443.034943
948.921387 -156.289261 -450.846436
753.108093 119.208488 -425.960388
957.670837 -164.990845 -450.712982
876.008606 -26.778128 -318.758148
996.665100 -182.800568 -258.286774
948.611206 -146.956940 -208.411163
887.350586 -73.081017 -496.541382
746.470032 138.241302 -330.196442
891.486694 -54.779095 -340.024017
992.319336 -180.941818 -203.713409
860.495117 -14.644834 -439.206055
781.309631 121.753632 -594.482727
830.345337 12.641517 -412.444916
895.965698 -91.820877 -473.419922
800.690735 77.513824 -441.472900
964.438660 -199.247559 -373.001801
