ply
format ascii 1.0
element vertex 1380
property float x
property float y
property float z
end_header
744.337036 -697.111328 11.121718
711.221375 -763.363098 -6.381962
458.290924 -730.291260 -303.938385
693.575684 -636.816406 -80.102432
474.328674 -712.505432 -315.392334
674.308411 -773.064087 -35.173656
642.741272 -866.623413 -52.231533
665.943848 -719.628967 -79.883644
623.042786 -659.442383 -108.641037
538.850891 -651.926819 -251.997314
547.458191 -552.292053 -273.939606
548.870544 -623.768494 -251.979675
635.805359 -723.243225 -115.308243
553.645203 -568.621948 -235.761459
469.274567 -689.276306 -323.660522
500.451294 -731.667358 -273.174957
572.148865 -592.298889 -205.729340
725.329224 -676.431213 -7.136013
603.419067 -698.760193 -154.782349
543.367432 -652.827271 -243.439682
592.302673 -787.033081 -133.086029
473.487000 -687.282104 -305.253265
578.292969 -606.361328 -245.673752
449.496399 -690.691345 -359.118073
452.820343 -851.068909 -283.177124
726.955994 -701.666992 3.756549
494.192139 -672.448364 -305.141235
594.890991 -586.674438 -209.158249
450.802673 -690.985962 -365.791962
444.021362 -856.242554 -345.356232
413.811981 -873.793762 -244.593857
563.726501 -737.864990 -189.130554
577.456360 -719.795959 -179.054337
572.250854 -848.995239 -137.675674
467.174805 -899.259338 -187.884598
506.066284 -717.715088 -287.373413
667.519958 -721.935852 -78.905952
478.885773 -813.450928 -258.058380
496.806702 -836.164307 -265.780548
633.879456 -849.374329 -32.386055
479.028229 -672.493286 -345.166107
682.421692 -652.727905 -83.400146
662.076538 -745.942505 -68.299316
395.643127 -713.645142 -405.011322
485.502136 -836.557007 -245.358414
697.797424 -767.752686 9.415353
527.246948 -620.935486 -286.277283
515.074280 -816.041138 -216.448547
539.152893 -669.699707 -230.856110
616.588013 -890.113953 -64.356491
672.449524 -826.382446 -22.566795
632.989868 -793.631287 -86.966316
492.074615 -925.666626 -150.399063
421.076721 -887.829346 -191.708755
495.008392 -616.575378 -342.997681
563.461731 -618.253052 -232.143738
697.029907 -718.084167 -27.299639
579.468933 -754.836182 -135.027420
752.271362 -693.465271 15.473833
507.483612 -601.646545 -310.281586
532.054016 -840.824768 -203.717834
477.181213 -589.404724 -333.361877
462.084869 -908.269714 -198.934235
618.563354 -589.462708 -180.082443
690.014404 -669.060608 -52.049896
571.696533 -557.502014 -282.778992
589.643677 -622.598877 -218.074600
672.341614 -764.202271 -49.908443
684.699890 -788.671448 -11.283224
572.705383 -636.992432 -219.802673
621.890625 -633.036804 -143.625458
729.341980 -692.861023 -2.004226
701.688477 -796.320313 3.093306
508.680206 -670.699341 -280.011871
647.375488 -605.628235 -148.159576
637.905640 -718.723450 -115.991386
541.473267 -704.182617 -227.847656
562.601685 -549.594849 -261.657898
480.552856 -869.373535 -276.063354
469.680542 -858.937683 -290.325195
514.450806 -926.110657 -182.057892
457.969391 -890.520081 -241.237305
451.968384 -811.817810 -311.886719
454.703552 -709.283569 -340.428345
595.288696 -828.685425 -128.833023
445.738525 -662.505066 -360.323883
548.329895 -816.920166 -180.482910
508.625702 -548.809631 -336.723419
496.858429 -583.165588 -332.287872
607.392456 -877.525024 -84.172211
694.858765 -761.891602 -34.398624
613.802856 -965.348877 -76.209061
477.712494 -703.758911 -332.799713
563.625183 -963.912964 -133.504868
560.549133 -559.185181 -244.091461
552.608948 -714.174194 -202.300903
697.063660 -750.791260 -14.355497
475.536743 -866.551880 -279.895782
653.873901 -626.660828 -113.634666
660.927002 -864.484314 -17.997234
651.744141 -625.393738 -146.142944
592.268433 -560.763611 -249.403931
657.985229 -809.697693 -52.326500
557.223938 -809.920715 -183.577255
614.379700 -791.217590 -120.111069
534.033081 -628.791260 -286.185699
624.762695 -869.430847 -53.309387
581.184937 -792.582703 -139.993546
651.985107 -798.540222 -76.956902
728.843506 -688.762878 -14.324537
462.537811 -775.686707 -277.600128
546.641052 -590.200989 -287.621796
592.642212 -815.194458 -125.237091
390.241119 -761.804260 -431.304443
473.211761 -906.352539 -177.518814
667.047852 -710.274841 -73.696716
583.501160 -818.117432 -135.494476
546.268616 -544.853882 -254.219681
587.194763 -701.328857 -176.685898
490.622192 -587.984436 -318.574615
688.351013 -752.398071 -14.666027
645.779419 -890.849976 -36.006451
427.062195 -709.855774 -336.509430
534.491821 -668.764343 -269.197052
647.843933 -706.703857 -58.656895
446.842163 -621.935608 -371.447876
601.763000 -797.206787 -133.420166
694.968262 -772.396790 -12.724618
557.035706 -649.534912 -228.090286
575.188416 -592.453247 -249.735397
640.022095 -681.963562 -114.910690
684.581360 -764.888794 -37.261314
466.674316 -600.294128 -391.379272
516.802429 -833.967896 -190.249115
686.217712 -714.901489 -58.681458
566.765381 -602.604675 -239.675552
427.931793 -630.561157 -391.533020
576.806152 -882.135254 -121.078400
531.092224 -656.891357 -257.506866
523.324951 -563.089600 -325.246796
443.029297 -714.574524 -371.803162
454.093719 -677.534668 -372.478638
532.225342 -619.678833 -254.010742
542.782959 -540.056458 -313.967773
615.919373 -644.220337 -170.448837
391.439484 -850.704102 -268.073944
689.953064 -795.970032 -22.990515
458.354858 -891.920105 -197.977448
444.065643 -862.911987 -319.973846
520.755798 -701.640320 -278.346252
611.206482 -614.331421 -150.302002
450.947021 -746.294678 -305.041748
611.181274 -601.395813 -188.870560
478.695313 -673.790466 -290.873901
622.708740 -689.387573 -111.246170
523.031189 -545.941895 -339.997284
713.780334 -703.990112 -8.910934
737.594910 -693.279541 10.138269
522.882446 -688.613586 -248.771103
640.102417 -712.050598 -121.310928
649.274109 -710.056946 -91.339806
663.583862 -768.013794 -68.404861
512.365662 -529.894043 -320.909180
529.184875 -528.695801 -315.386475
649.211731 -641.070862 -133.602737
449.904144 -684.317871 -369.475189
679.409973 -665.534302 -63.168331
517.030640 -520.235046 -349.548096
603.149658 -601.501892 -165.890930
700.921509 -653.743347 -65.810478
656.290405 -970.548401 -19.778383
748.450684 -697.247803 12.945397
648.499390 -854.511230 -58.244923
647.478333 -803.365112 -73.707153
416.952576 -721.074524 -380.081390
496.683472 -900.509827 -195.984634
522.125366 -699.137451 -274.933136
659.554932 -816.013367 -38.503132
603.489380 -571.857056 -210.366898
673.739197 -711.724731 -67.062653
451.576569 -689.446167 -341.298584
751.852417 -708.834290 33.779972
438.378174 -781.892700 -322.215973
501.134430 -736.138611 -282.882111
407.651459 -876.488770 -207.694733
648.601929 -742.911377 -93.976105
447.038452 -713.810059 -361.776245
506.663391 -897.898743 -205.598648
581.471313 -694.276794 -202.050659
568.493713 -670.181274 -227.429947
509.629181 -639.225342 -275.864929
424.144653 -750.570435 -368.775269
692.576294 -684.458557 -13.307608
615.603394 -861.245789 -97.202415
585.891663 -712.366638 -186.181763
506.195465 -848.137146 -216.234207
494.551758 -896.097778 -245.980362
541.713806 -854.600525 -173.781143
666.083862 -641.535034 -101.732811
541.975037 -566.217041 -275.202423
537.692627 -793.113586 -175.478714
646.787720 -802.750427 -74.911240
709.767212 -746.395935 -8.720014
588.216675 -769.255676 -153.532761
580.958252 -932.479553 -163.164108
462.957458 -922.699707 -162.860840
521.318665 -511.935822 -355.780334
502.856171 -913.732300 -177.812119
627.535034 -866.750366 -32.234024
500.063538 -845.029663 -247.863297
580.965393 -823.392639 -136.115768
486.907898 -705.520081 -295.209839
609.922485 -738.794067 -131.913651
601.934753 -623.470215 -189.470978
664.521179 -845.058594 -36.188545
528.859619 -762.310547 -246.164001
552.575562 -735.236511 -208.941605
441.468201 -875.971130 -270.234070
667.690918 -855.392029 -21.452339
543.744568 -832.433472 -180.819260
688.113464 -797.168335 -20.999453
557.307678 -811.532288 -144.067368
630.104065 -727.160156 -81.849205
547.585327 -535.854492 -259.351074
459.648499 -855.081726 -316.551941
669.972412 -721.544250 -66.827728
664.385071 -647.276611 -87.867493
479.550995 -876.771790 -242.925217
709.285461 -697.830933 -0.844153
513.905273 -737.281799 -275.244019
641.847229 -608.288635 -145.181335
449.118164 -654.108215 -376.586945
511.965149 -618.307190 -296.230988
576.603577 -878.676941 -124.591904
491.538879 -617.032104 -336.688477
586.403076 -593.894165 -210.108429
605.133728 -649.444702 -190.625748
725.795410 -678.063416 -21.300339
575.549988 -877.885193 -99.410461
568.221130 -852.594910 -143.093140
592.437927 -656.000061 -186.015869
625.894104 -912.002686 -52.827717
478.037140 -926.445374 -165.556946
605.801270 -875.897888 -84.060188
520.385254 -809.534302 -218.267639
461.753326 -871.927612 -283.695221
612.086792 -931.466492 -86.896713
531.372803 -760.513367 -213.075134
708.827759 -714.726807 -17.789558
638.671265 -697.938843 -89.280411
477.049194 -595.476990 -375.914429
730.002380 -719.262329 10.512112
503.715271 -934.604858 -162.050949
633.405396 -734.992493 -75.028511
482.071045 -938.405273 -152.721436
502.981506 -754.513489 -273.151093
466.091797 -684.670288 -356.901428
552.819153 -805.047058 -176.042099
524.974121 -701.772339 -267.076080
560.249634 -806.071411 -190.316772
524.989197 -828.946655 -219.288940
455.764221 -870.516052 -294.133789
607.226685 -662.227722 -164.578384
638.913269 -920.755981 -46.219810
669.729065 -855.256226 -16.416502
657.076416 -729.138794 -90.669914
562.989929 -711.988098 -200.994843
480.364319 -795.729797 -254.591934
533.942444 -813.129272 -197.799011
585.527283 -689.329285 -179.833694
618.481750 -587.445313 -183.477554
616.478882 -640.197083 -134.891983
673.536255 -791.171753 -39.818886
602.705261 -895.439148 -55.269009
495.001831 -913.862488 -190.854568
638.773438 -713.593811 -114.752663
507.461914 -548.388184 -356.914337
396.350433 -730.320679 -392.708588
604.280762 -692.940308 -169.087234
659.126831 -637.244080 -71.016991
503.063965 -515.600342 -359.747070
650.858215 -622.188171 -118.813599
670.285339 -674.734924 -74.107864
464.868927 -676.436462 -332.459015
514.142212 -562.080383 -299.607422
545.615906 -556.834534 -273.855042
693.867188 -691.036255 -44.068344
489.824860 -850.890625 -257.222931
553.547119 -882.585022 -171.452606
611.821533 -747.894165 -96.945114
733.458191 -682.457397 -10.048831
548.535156 -592.187134 -234.915985
602.759460 -733.251709 -149.655991
445.260162 -678.645569 -380.748199
575.076050 -661.295654 -179.940506
497.297455 -782.273254 -245.778442
629.722778 -866.598511 -79.249687
637.933594 -640.407227 -96.166626
568.896301 -649.642700 -230.793655
471.661591 -902.766785 -222.830872
680.809875 -854.851746 -10.065206
576.629150 -658.057251 -226.545288
654.661621 -670.855774 -91.622841
690.601135 -743.308716 -44.419151
683.039063 -729.929871 -47.940598
419.206573 -677.719666 -356.234589
601.180603 -787.104065 -136.164780
603.153381 -596.348877 -199.986481
501.255219 -679.473083 -295.054779
698.231201 -675.528564 -52.400932
517.069885 -743.971130 -218.259583
441.131042 -882.863953 -236.789474
700.589172 -765.263611 -17.623669
727.944336 -714.776062 -3.840593
687.841919 -788.877197 -11.818116
519.427917 -932.247986 -164.412216
476.820618 -572.866516 -382.671570
443.483185 -667.833069 -360.469849
552.705627 -584.659729 -264.482697
459.885437 -616.851379 -362.893402
600.188538 -649.755432 -175.008820
647.903809 -756.616211 -48.450130
716.684265 -726.708496 13.855577
624.571655 -619.264038 -176.461517
587.262695 -857.240051 -122.627579
628.616211 -957.324951 -50.737606
415.670563 -882.831543 -234.140671
593.161926 -721.182007 -122.767052
513.930847 -936.763794 -164.576447
508.792664 -786.962952 -247.139633
512.726807 -557.025940 -345.154999
482.400024 -897.367737 -224.068100
629.239929 -734.216919 -114.553474
648.558228 -819.005920 -60.858944
533.607178 -532.305664 -308.295898
553.478882 -905.253540 -178.451630
669.415588 -679.132141 -77.529152
576.662109 -780.429504 -177.174759
675.380676 -636.612549 -92.945053
632.351074 -612.919678 -150.712097
597.899231 -587.119019 -208.565475
534.423950 -724.188171 -237.274185
445.544861 -863.505859 -343.997284
443.656616 -869.238647 -286.257843
519.009399 -566.601440 -335.127808
618.130920 -631.388733 -166.870255
527.317932 -634.145508 -280.873352
548.320068 -790.537964 -196.535263
624.326660 -703.280212 -145.379211
589.951843 -856.480286 -120.660507
536.425842 -678.560120 -262.467987
459.029236 -575.009277 -344.010468
500.282867 -725.172791 -288.487823
696.306946 -736.857849 -41.304043
425.351715 -717.943176 -363.628815
415.926636 -709.690063 -398.896912
640.854492 -903.336609 -34.402565
635.360901 -765.353943 -89.187775
719.669617 -704.242859 -20.706919
650.452271 -816.399353 -43.701794
510.326599 -805.399048 -206.799973
528.609192 -636.510803 -294.835602
707.420837 -783.277832 25.009192
648.960876 -694.874939 -99.807678
502.152771 -832.697510 -234.809860
504.969360 -829.303833 -228.309631
570.183533 -629.826477 -215.622299
487.370544 -528.960876 -376.965759
592.921570 -886.332703 -72.834778
460.482666 -858.433472 -332.137268
642.721497 -742.048523 -88.137573
549.749817 -733.316650 -181.433609
653.442261 -802.309265 -63.017651
468.864807 -629.284668 -342.752777
665.720947 -746.542175 -56.479733
510.735535 -591.439453 -336.494507
607.471436 -806.380432 -105.790337
685.205139 -736.388428 -10.171253
602.414734 -690.353149 -181.896866
573.297852 -862.389343 -130.962296
663.547302 -737.214539 -26.321550
609.093933 -966.826111 -125.879677
491.121948 -560.813049 -310.714996
590.384155 -842.219421 -114.680214
589.346863 -644.537170 -215.572617
542.324829 -857.690796 -195.792831
620.955078 -685.610596 -114.876404
596.642151 -841.139038 -124.287323
623.073242 -788.237000 -110.421150
473.174957 -651.049683 -335.769867
600.569885 -693.429138 -123.624138
601.089355 -964.607788 -101.220947
671.031372 -670.180237 -94.489594
648.591003 -789.294556 -73.039581
448.807251 -800.932129 -293.129578
426.608063 -658.869141 -406.225128
588.733154 -784.148560 -154.448334
475.328094 -560.878784 -368.702606
564.928955 -626.995667 -249.074127
432.688049 -888.738159 -227.463684
699.355957 -727.465942 -41.210918
573.364990 -865.248962 -144.567429
414.075745 -736.978516 -394.272552
541.983459 -727.512146 -216.362808
673.528320 -651.566467 -89.702118
405.423798 -769.529114 -371.647491
387.461182 -755.477600 -418.160980
643.793762 -853.909729 -47.181545
422.634491 -787.512573 -383.427643
489.352386 -866.137695 -262.231781
566.551514 -901.818359 -148.403625
479.896301 -855.691223 -253.328598
634.591736 -639.416687 -145.450119
633.486328 -714.194214 -110.802155
654.383545 -622.084229 -100.451614
514.920288 -672.671692 -290.943848
600.069031 -672.047546 -173.275131
522.271790 -619.210754 -305.037079
539.770508 -887.992432 -197.810104
704.697876 -808.219177 -0.205762
654.512268 -906.614746 -21.581501
657.856323 -849.916992 -13.865999
564.095886 -586.632324 -258.122559
529.290833 -564.344666 -294.629425
518.982239 -860.492065 -230.210663
678.326294 -693.212036 -58.045219
581.805725 -834.436584 -133.474625
590.232605 -661.055542 -189.100235
442.318848 -730.236145 -364.837524
650.596619 -688.289368 -119.624710
557.751526 -564.089233 -262.910675
531.877319 -666.229919 -254.014862
702.260071 -737.443909 -28.347338
582.650818 -750.182068 -155.372086
451.874573 -885.944580 -219.871078
468.931824 -901.127380 -209.081772
639.469604 -754.555603 -108.720436
468.749207 -876.031982 -241.171921
639.896057 -918.669128 -35.119728
506.437378 -892.017883 -208.571808
624.587097 -663.627075 -142.730545
476.288330 -640.044128 -352.480133
626.263611 -690.577026 -129.181152
675.197083 -850.046936 -18.620356
625.449463 -959.925354 -68.269493
553.250977 -594.494507 -260.153198
476.309845 -873.365112 -249.878677
520.723694 -653.630432 -262.166748
625.471741 -889.221558 -35.523998
696.622864 -683.005310 -42.851543
483.737030 -581.966614 -373.268097
496.002960 -897.653503 -224.384277
474.106995 -686.795349 -337.424164
610.606873 -619.997192 -179.524124
687.816895 -720.684326 -14.019425
629.013000 -631.536194 -164.856033
691.223450 -777.381104 -17.613327
464.226074 -870.402527 -273.411926
495.130981 -859.452576 -258.106873
541.925110 -916.306396 -208.659515
477.430817 -785.199707 -273.570862
484.931732 -926.010315 -154.983749
564.076660 -686.601196 -226.106522
595.220642 -968.866699 -144.848984
492.436920 -540.859924 -359.607483
613.655151 -697.698730 -141.611893
592.117859 -745.560364 -149.431549
677.153564 -719.939758 -51.233761
510.182220 -618.669495 -280.791962
597.707458 -802.792053 -123.678856
544.629578 -635.199280 -252.756775
653.070068 -810.721985 -49.601654
422.410004 -780.448242 -332.745667
567.061096 -683.733521 -229.300125
604.651428 -664.012634 -189.143417
617.624390 -911.979980 -55.985325
605.262329 -647.479309 -173.659042
612.154053 -972.458679 -149.475311
466.416046 -920.462891 -172.235748
635.789551 -664.815979 -146.962631
503.984833 -783.437195 -245.237015
572.882935 -685.749390 -204.433746
631.781982 -682.420349 -88.707779
439.715302 -757.036621 -330.347382
519.857727 -948.493042 -144.157852
632.769104 -817.739868 -68.596069
496.038055 -646.436707 -327.615784
511.972412 -724.835083 -254.856079
694.188232 -675.258789 -44.939114
550.985718 -709.995483 -234.783188
702.135864 -755.202148 -6.682611
725.440063 -751.294128 31.042263
557.955261 -672.296509 -242.874649
552.044250 -876.975891 -179.490402
680.854309 -816.576599 -29.063545
599.167419 -579.737244 -206.004150
448.088409 -740.064148 -344.529846
642.920166 -669.565247 -109.794571
640.552917 -692.054504 -131.862030
660.252319 -880.129822 -31.105799
530.000610 -728.147827 -258.803955
610.928223 -874.088318 -77.842697
713.629028 -685.935181 -7.822650
703.259766 -658.426270 -50.971260
581.456665 -749.827454 -165.379196
621.111572 -789.231262 -105.036804
495.890991 -899.500061 -230.123566
688.161316 -742.020325 -41.773197
653.323242 -706.126343 -105.141754
541.729370 -591.601990 -267.007813
479.531555 -702.776672 -313.353943
620.501221 -634.684265 -174.641983
441.071136 -688.326599 -376.178680
426.008698 -675.229492 -364.203369
566.887268 -717.451172 -190.349365
601.707642 -831.780334 -108.615585
657.387695 -658.627930 -118.890892
507.453094 -695.902344 -263.074005
530.299194 -743.825989 -231.378174
534.369812 -739.608765 -201.572586
609.308899 -718.091919 -140.618607
417.064697 -691.216187 -386.119904
484.728760 -634.210449 -327.027679
549.397156 -728.807190 -214.246399
743.060181 -677.980042 15.333748
568.226807 -952.979248 -163.317902
639.430359 -594.276550 -163.736008
664.275269 -673.188232 -103.652321
633.672852 -674.073730 -125.604980
676.376770 -821.178284 -35.684765
542.096313 -793.265198 -214.997696
719.832214 -653.026367 -39.738640
666.400757 -630.411255 -101.891296
502.728577 -895.305664 -230.250626
586.101257 -566.091797 -265.127045
615.682190 -758.474792 -108.449387
678.071716 -650.201416 -45.950439
609.657715 -677.439026 -173.871109
466.598907 -857.095520 -301.483826
610.271729 -718.396606 -160.371490
642.588623 -750.630859 -93.574142
606.341187 -650.028320 -171.244339
535.181396 -657.836365 -244.666748
534.194275 -658.063477 -252.872070
390.709381 -723.895874 -411.084656
661.792603 -856.529175 -40.007740
500.671539 -632.477234 -270.530487
616.437134 -613.495239 -164.900986
681.259338 -664.640015 -88.672256
517.362854 -860.263794 -197.139145
631.700256 -693.353210 -128.594620
647.118103 -778.136353 -67.247795
536.842651 -707.274963 -208.663666
499.775146 -878.511047 -241.063660
461.159668 -783.002686 -292.617249
460.720032 -874.343811 -276.518250
464.117004 -880.606079 -230.791946
686.342712 -673.053101 -76.804390
575.462708 -806.819214 -151.358215
601.114868 -940.135071 -82.655869
618.372253 -957.511475 -45.030983
408.475281 -883.428528 -221.953201
715.666687 -763.002930 26.382328
417.940277 -887.332581 -239.440903
679.846313 -683.267639 -74.090309
494.386871 -594.593567 -355.406860
580.362366 -802.023376 -165.597656
716.004883 -689.707764 7.794686
692.685547 -696.689514 -26.613636
597.431824 -785.929260 -131.851730
613.947327 -746.364746 -133.502136
620.830811 -718.539551 -125.878525
521.182434 -557.288391 -306.592194
611.840393 -675.081909 -152.270813
497.862579 -592.123108 -321.355988
645.158813 -749.479004 -72.101051
696.602539 -831.490784 0.583119
562.345276 -689.918762 -204.718399
475.755127 -814.919800 -280.303711
688.755188 -860.208496 2.814318
477.314880 -651.398865 -324.670624
589.219788 -630.134155 -198.078796
622.538635 -843.225464 -73.684273
441.022919 -875.917297 -265.230103
587.944885 -627.260864 -206.587845
605.810974 -694.188965 -172.353622
564.669617 -665.504272 -213.393753
427.820648 -901.656677 -201.501678
737.730896 -697.814392 -0.043968
511.054443 -706.752869 -267.702789
421.695679 -868.273010 -288.455994
472.283295 -775.274292 -294.153839
590.939819 -646.114685 -177.404648
499.744690 -932.754944 -151.991608
627.774536 -776.357971 -84.314461
635.210999 -726.057922 -104.920486
498.725494 -618.195374 -294.979675
713.071045 -716.860840 -5.980863
708.862366 -698.416565 -30.778095
598.355530 -971.566650 -139.838928
492.325195 -508.155579 -348.834595
528.248596 -768.525146 -226.225662
685.415588 -700.422058 -56.646538
506.090668 -802.511658 -230.077133
627.709839 -771.915894 -101.264305
633.311768 -738.194885 -102.087242
624.204163 -885.889282 -75.362846
458.772156 -919.480347 -176.103180
484.353851 -919.222046 -188.838135
496.649536 -687.774353 -295.421448
596.502258 -616.664307 -217.879166
486.015961 -538.999878 -361.669006
529.152466 -944.940491 -145.697128
690.407532 -794.134338 -19.034807
537.880249 -924.401489 -157.914368
536.870972 -703.616211 -239.718643
473.417694 -635.141724 -354.737793
730.896790 -684.333923 16.069372
545.487793 -753.628967 -224.213287
672.817932 -665.914001 -72.995819
562.152222 -790.409973 -170.703400
614.815796 -652.503784 -121.739037
457.214844 -613.310608 -392.235138
693.064148 -687.846313 -10.509308
582.556030 -648.756287 -202.706070
499.558533 -868.667114 -257.817993
610.079224 -866.071411 -100.773094
452.941406 -594.051941 -371.746063
637.264526 -649.291565 -149.407700
539.565186 -687.602539 -231.078354
510.172791 -578.536926 -316.865112
507.537720 -521.102295 -340.473816
536.432251 -678.992004 -247.362823
715.815186 -736.055176 20.783888
699.116516 -666.979187 -24.463655
471.528717 -626.797363 -361.314178
408.594971 -694.134338 -394.857056
489.638519 -763.998596 -257.470123
491.351410 -917.115479 -167.216324
512.342896 -731.686890 -251.574554
463.156708 -913.831482 -153.745728
723.860229 -686.899292 0.394257
549.998840 -865.420715 -150.466721
652.948364 -695.576294 -89.105446
552.221558 -700.029602 -238.394440
477.281403 -758.014038 -292.647461
635.607117 -912.817200 -46.859032
434.718231 -889.147644 -241.368729
597.191284 -554.154236 -239.342102
497.815338 -773.756836 -257.084290
485.766632 -911.991028 -191.461716
507.602753 -566.772827 -317.165283
670.421631 -625.413879 -99.718071
530.936646 -739.181396 -248.354004
429.754425 -891.012573 -239.103897
484.428619 -556.279724 -359.582458
474.843750 -840.721680 -307.810883
437.369324 -694.295837 -373.097382
697.426636 -771.959290 -26.212366
668.802979 -698.858765 -86.896324
534.613892 -671.678711 -273.314209
457.726044 -867.623840 -301.113892
639.512756 -663.326416 -140.502060
466.198517 -568.170471 -345.077698
546.288635 -518.983398 -308.743927
514.010254 -594.486389 -304.208130
424.378143 -731.062500 -383.961823
541.194092 -652.602905 -255.157089
614.918213 -818.375183 -99.177689
566.486572 -840.063049 -167.475525
548.198914 -829.542664 -162.406311
500.219269 -911.688843 -198.317871
603.821716 -850.242920 -112.947983
479.975891 -787.918640 -266.611115
738.827942 -694.471313 19.292978
543.470642 -800.399902 -195.926804
505.327179 -649.830994 -293.937042
608.517334 -844.461121 -106.575989
602.543518 -798.361328 -90.704536
553.078491 -705.076294 -213.938354
638.207703 -741.578918 -111.788704
572.056274 -951.981812 -171.105209
470.287659 -910.138184 -203.268417
695.432800 -670.623962 -41.068966
724.857178 -698.731628 -7.504704
556.648560 -777.319885 -177.257156
500.145508 -915.476318 -197.338852
550.046143 -761.405151 -170.428101
588.449280 -547.107361 -254.378220
481.218994 -747.965210 -273.195160
602.699524 -697.863708 -169.420044
584.126526 -733.821411 -174.111649
583.386902 -620.325989 -206.553619
599.906555 -917.117493 -78.554230
596.781860 -870.925537 -96.596962
434.078156 -733.860046 -363.860107
621.660339 -843.754395 -69.142235
506.771790 -881.429565 -250.512726
480.156952 -646.369873 -325.288940
421.960297 -815.607605 -407.952454
469.028503 -591.801941 -354.906464
520.079956 -843.982727 -203.900726
725.530640 -731.579041 9.086740
575.010010 -736.930786 -191.417694
631.028259 -842.452698 -71.929604
651.915771 -835.841980 -10.154048
590.297974 -588.133057 -206.604996
672.342163 -745.862732 -48.976517
640.151123 -914.823608 -45.230785
660.667236 -687.983459 -50.722439
694.073669 -733.121094 -37.010414
562.440491 -950.423523 -142.572464
620.127686 -681.399292 -147.523026
716.147034 -674.666077 -11.053500
616.372437 -639.693115 -184.240921
751.871277 -694.197754 25.894617
493.223785 -693.428894 -319.492554
501.805511 -865.189392 -249.784470
453.380493 -855.586060 -306.938049
535.609680 -820.515686 -205.229156
622.276978 -933.323242 -64.942970
625.969238 -936.083923 -60.043633
618.698364 -606.638489 -197.064240
688.890747 -690.343323 -52.029957
535.118408 -609.890747 -253.554337
495.879211 -750.207153 -263.721588
592.915894 -731.426819 -158.094864
583.959229 -648.742188 -220.762466
599.414490 -878.465637 -93.507233
698.349060 -782.469543 -5.404549
564.898315 -869.233032 -154.266174
523.467529 -676.897461 -259.481537
471.657654 -793.971924 -276.107452
507.949799 -730.929077 -276.886169
648.362610 -757.994141 -73.738541
629.119751 -963.607910 -59.436203
471.613129 -862.398987 -338.562164
640.514465 -897.767517 -46.755112
554.821838 -675.617554 -243.324005
535.393555 -784.950195 -221.835617
689.260315 -854.820618 -1.446127
608.158508 -753.521179 -135.003174
549.500061 -574.122986 -256.094635
635.766602 -689.651245 -128.636139
440.673706 -619.217712 -407.828796
627.449280 -732.692688 -111.646606
507.939148 -535.475220 -327.646973
618.655090 -946.184204 -31.078415
497.336060 -636.296143 -317.171936
653.240295 -694.425842 -114.601425
462.310730 -596.094543 -361.231476
642.650818 -641.799438 -133.601410
465.670898 -784.926208 -290.999878
541.032898 -542.534912 -292.544861
622.895081 -749.399902 -115.854988
518.748657 -931.453491 -178.670883
694.912537 -700.070374 -40.758823
547.601501 -617.305664 -252.341370
696.945923 -775.481567 -21.736858
577.402161 -737.195557 -144.325806
610.196411 -819.039917 -89.743874
508.328033 -915.685852 -213.004105
526.683533 -790.274841 -231.659592
540.715027 -757.810059 -225.462952
423.689331 -859.511902 -272.198456
707.131226 -654.957031 -46.494045
549.012390 -845.150269 -183.288773
537.792542 -626.845520 -260.121155
499.585754 -888.828552 -229.356552
585.541504 -631.372314 -176.543060
562.205811 -824.693848 -156.411743
643.176331 -754.703796 -72.796494
516.816772 -544.290588 -326.325104
565.785889 -832.620056 -150.828827
609.498596 -644.539734 -168.809631
569.832336 -634.232788 -235.082077
474.574707 -557.075989 -367.665985
479.954041 -659.559326 -304.749023
613.031067 -653.707092 -159.166061
725.055969 -730.343750 10.402226
616.140564 -643.626404 -160.158356
451.793365 -890.554321 -241.226486
600.640869 -697.890930 -151.720001
589.398743 -714.400635 -183.855408
650.998352 -686.906067 -94.235367
609.391846 -589.963623 -188.299820
493.097198 -680.503052 -284.560913
690.821777 -727.724365 -47.699150
684.531006 -695.311523 -70.875946
486.608673 -766.311157 -288.385010
465.363464 -743.855469 -290.831970
677.346558 -768.727539 -30.781662
447.401398 -738.978271 -332.757141
634.013977 -791.051331 -101.749245
722.739441 -696.420288 16.023643
427.805695 -901.527222 -210.529510
651.441162 -602.824158 -117.174889
604.162964 -968.208191 -143.747849
706.787048 -789.194580 0.311826
613.652832 -639.036255 -175.150665
642.058167 -697.512146 -127.751190
483.202209 -649.074524 -304.321136
549.714722 -957.528198 -147.717651
588.750916 -592.598450 -186.628113
643.388245 -738.302856 -104.822838
456.381042 -912.144165 -161.614502
475.611420 -590.221497 -366.953339
563.017578 -690.735107 -227.562592
547.195557 -734.068298 -215.310181
691.193359 -762.869080 -26.505655
500.557800 -930.146973 -166.704361
634.856445 -647.304993 -108.604721
672.461914 -683.789124 -68.420769
586.905945 -574.589539 -221.371826
445.042236 -639.207092 -368.925079
483.663422 -647.633667 -342.458008
479.537354 -919.489502 -166.064331
629.305542 -812.852905 -83.835793
422.481903 -897.479492 -194.918762
635.880493 -672.551575 -122.785561
565.120728 -613.948242 -238.164597
471.047241 -790.144226 -275.255402
436.542694 -900.470215 -212.991608
537.155396 -656.730286 -272.436371
649.872375 -697.945251 -96.779709
673.481873 -661.199402 -83.321220
585.504700 -944.873962 -164.280136
606.261963 -690.299500 -174.977234
532.764160 -587.674255 -287.780975
531.494629 -942.011292 -153.022781
641.440491 -909.057739 -44.429817
456.152405 -698.039978 -334.059723
683.143311 -743.399536 -48.365433
512.483765 -594.790039 -290.591095
676.656982 -786.106323 -39.272038
564.075500 -874.021240 -129.086716
458.190887 -660.661255 -347.421051
717.637146 -734.415283 4.213072
519.484314 -627.548828 -285.755951
497.344666 -702.452332 -281.250885
503.491608 -724.434570 -291.437653
630.760498 -729.954224 -100.073242
587.864441 -750.316101 -154.010239
593.656921 -687.653992 -177.381668
629.114441 -822.771851 -40.490280
526.882690 -794.360291 -206.232758
469.404755 -919.540710 -130.830521
584.152771 -777.512634 -117.581879
693.294556 -782.431274 -5.872600
457.160889 -793.847351 -283.987549
579.070435 -780.129395 -150.564758
703.212769 -762.606079 -21.995771
479.970276 -549.566833 -355.940826
495.097900 -718.544373 -296.029083
443.847961 -762.875732 -303.456177
440.591949 -650.107788 -370.392578
607.767273 -687.964111 -172.824600
458.525543 -880.376587 -229.848984
483.913635 -764.919678 -276.802551
681.203308 -633.691528 -95.188110
440.340240 -782.337158 -340.084015
657.900330 -838.677002 -28.658352
509.404419 -582.642517 -298.067688
708.388916 -674.382324 -42.382565
671.385437 -613.854980 -113.472809
474.868744 -754.817383 -277.915497
414.124512 -856.824524 -291.219238
467.330139 -841.645142 -297.226929
664.309204 -634.256409 -115.117989
508.009796 -887.548279 -252.589859
566.517578 -592.301270 -219.647827
509.240143 -812.283508 -224.621063
466.137390 -859.032349 -355.956268
614.771667 -713.594055 -135.542801
470.640015 -888.202026 -249.910660
546.854675 -727.123047 -212.808395
541.681519 -744.183960 -187.270294
556.273987 -518.976318 -250.531448
455.264221 -889.267944 -220.859116
544.411621 -549.846863 -305.489441
611.734009 -619.594727 -197.790405
592.628418 -756.888611 -145.836990
531.306030 -824.166870 -173.564789
732.207397 -720.412354 14.545199
615.705627 -793.100098 -120.212204
456.452545 -910.197632 -188.671387
610.396973 -776.197388 -131.434998
547.263855 -573.283142 -271.550720
560.645325 -541.550049 -273.115204
497.414154 -719.549805 -294.226471
602.524048 -831.231567 -125.024467
605.892334 -607.540710 -190.783325
640.294800 -777.920227 -52.924408
508.621643 -927.414246 -165.985733
516.178467 -569.732422 -317.627899
634.590820 -780.846680 -56.514362
550.384216 -822.325989 -196.289413
696.653870 -789.270691 -11.900918
423.971375 -793.576599 -386.007324
445.259521 -686.753296 -350.230164
579.528320 -704.860901 -187.891678
594.542847 -760.668579 -152.661484
655.848633 -886.750305 -29.976046
458.757294 -778.703247 -295.085876
490.946869 -590.102783 -354.489777
537.772888 -676.246338 -243.034668
535.460632 -569.292664 -273.068512
666.444702 -807.576904 -28.217093
578.312927 -771.286194 -173.528473
605.482544 -941.449829 -73.161301
556.035095 -778.726685 -188.338684
738.959839 -675.071350 1.794809
568.256287 -635.261658 -219.157486
491.633026 -759.763489 -265.710266
492.266541 -634.007324 -338.528961
557.139709 -878.295288 -147.896759
712.034424 -652.514282 -43.451748
551.195557 -686.974121 -245.017441
588.284363 -565.125488 -226.298798
408.801941 -859.736145 -286.994446
513.073608 -570.698975 -340.136353
575.438782 -662.661926 -221.850067
577.941956 -659.657654 -198.005035
453.701294 -913.365295 -185.216125
515.237000 -852.114502 -238.555847
679.375122 -772.042358 -39.568615
517.984436 -643.616089 -278.670319
609.361389 -706.998535 -162.300339
652.359619 -715.224609 -98.442245
445.980713 -895.720032 -229.006943
434.824707 -665.275513 -383.258087
503.609314 -870.733826 -262.921387
663.300354 -640.168091 -105.382019
492.381500 -915.465271 -185.564346
642.746521 -625.618530 -130.200912
515.178101 -739.841003 -253.341080
668.643921 -710.399841 -79.571106
743.063965 -715.000244 13.017524
507.555847 -922.948425 -168.726807
499.768158 -792.191956 -243.646484
553.929016 -587.814697 -277.067444
446.755859 -763.824158 -318.818817
646.268127 -973.884949 -74.322060
457.144104 -627.747681 -378.081329
467.819153 -852.655884 -323.059937
679.400208 -715.476013 -50.431114
580.597412 -728.702271 -171.188156
553.280640 -620.560120 -227.998642
593.679810 -629.989319 -198.717834
449.695709 -741.033325 -328.739685
426.263397 -645.464539 -375.742645
526.495789 -656.414063 -263.368896
557.541016 -678.838135 -215.262939
614.817810 -812.242859 -70.354317
662.596497 -741.717468 -55.542183
509.765442 -919.492676 -179.863159
523.006775 -564.604797 -304.839111
443.165710 -657.234009 -387.459290
558.883179 -597.994690 -267.008179
642.694885 -698.277344 -112.730110
584.435486 -699.584167 -180.580795
577.829163 -867.847595 -122.983315
502.986511 -522.208435 -352.301941
585.721924 -574.856750 -225.436813
650.734009 -659.844604 -106.497932
449.454773 -854.919617 -300.386292
605.031860 -931.914246 -96.229813
457.156769 -824.710205 -343.439514
523.110474 -858.397827 -189.175583
465.614258 -911.723633 -215.367569
546.903381 -572.676636 -270.424072
503.888458 -731.168213 -288.088348
719.666260 -668.872437 -32.154934
431.697144 -768.972229 -332.889740
590.724182 -761.589111 -148.546600
433.450653 -890.829773 -236.046417
456.562195 -679.141357 -339.341736
640.973755 -830.280701 -60.553627
522.023376 -639.350525 -294.318146
476.569427 -874.841064 -268.085144
513.198120 -918.506226 -186.665512
633.077209 -706.499268 -77.358101
611.692383 -943.015137 -103.125801
426.963165 -679.350708 -386.910675
456.185913 -765.087830 -305.713623
549.565247 -593.609192 -259.284576
444.921112 -891.284546 -194.379105
646.106018 -642.093567 -128.490448
552.344910 -859.718018 -149.862244
548.818726 -715.281982 -235.698807
552.299622 -846.233215 -178.916168
573.550354 -702.111938 -195.850739
576.927368 -952.659973 -193.758255
476.045197 -927.990540 -146.475098
728.877991 -714.114502 6.998970
401.321198 -734.536804 -393.719482
527.301880 -502.437988 -336.015808
636.822144 -761.479736 -92.792633
463.518738 -915.366211 -188.016876
579.752991 -960.976746 -146.545135
588.751282 -679.792297 -184.041458
632.136841 -944.144104 -37.022095
474.986511 -664.308472 -312.122589
460.029907 -753.119690 -331.877808
690.724609 -659.314026 -27.522371
477.386505 -697.110901 -336.088989
588.363403 -969.894531 -116.756958
641.264282 -716.832825 -72.017639
716.416199 -679.252197 -34.378105
664.650513 -723.511353 -84.019714
539.270447 -698.731445 -238.810104
601.343384 -652.779907 -187.199951
531.835510 -737.238525 -223.123535
604.342041 -869.318481 -59.088810
700.569580 -680.887024 -29.663143
524.741089 -663.819519 -266.081055
606.243347 -971.875854 -130.237091
479.643402 -898.552856 -203.425095
526.719177 -688.515686 -244.375946
576.234131 -616.810852 -221.880234
495.984680 -635.841125 -308.380157
595.929443 -652.779541 -176.917572
599.815308 -727.567749 -170.341034
712.080811 -712.429199 -9.257034
612.610352 -856.084351 -90.509140
567.852356 -786.171082 -161.014587
540.527588 -564.329468 -282.444183
664.210876 -766.208374 -38.967106
603.034485 -623.047668 -195.461502
552.846619 -538.089661 -305.840576
602.796570 -781.928711 -135.812973
441.807251 -643.339539 -380.402100
525.211609 -875.744080 -228.491150
611.623474 -627.172424 -177.601196
514.369934 -680.056335 -257.027954
498.781891 -561.476563 -311.371887
547.727600 -789.034729 -210.025726
454.924133 -698.904907 -365.494415
610.698669 -870.841064 -100.635635
622.851868 -628.283325 -173.422607
634.940552 -726.342773 -76.446251
544.049805 -683.301636 -253.630112
472.315643 -786.367126 -299.949829
528.935486 -869.488464 -191.817596
495.386047 -690.629395 -307.511993
522.446228 -595.461914 -292.416718
637.005676 -712.974976 -114.164726
664.678284 -729.627869 -64.218376
571.181091 -874.900940 -133.800598
556.160522 -887.259521 -161.774216
611.365417 -880.477844 -54.492702
550.623230 -684.554321 -213.359497
455.872345 -672.615967 -342.693573
565.776184 -753.879089 -190.506195
586.292175 -677.693237 -187.905991
484.238373 -558.986633 -365.621765
703.892456 -752.619995 10.597533
444.691437 -888.456299 -203.241913
666.088623 -672.886414 -77.566666
591.391541 -758.518311 -149.089615
654.081543 -795.048401 -68.427467
645.847717 -874.528625 -18.555542
626.512634 -905.614075 -55.229206
527.518616 -785.393188 -205.498596
601.525391 -704.514221 -162.899536
652.157227 -641.620300 -128.914902
486.287750 -868.707642 -282.458435
613.126892 -823.197876 -92.635452
503.227234 -884.587769 -197.120819
668.557312 -746.122620 -70.817131
390.345886 -728.861633 -404.244507
649.031006 -680.501160 -113.030602
527.651489 -747.891968 -224.291763
646.483887 -722.568909 -89.148399
585.375549 -747.389465 -181.299637
427.379761 -891.902710 -216.359436
634.559509 -650.021973 -151.218781
644.302979 -700.149963 -108.249344
558.865540 -742.829102 -209.679749
698.540527 -758.522156 0.262868
485.818176 -905.942566 -195.242844
593.960938 -618.811584 -197.006378
632.257568 -813.218994 -47.142090
666.437256 -818.474609 -28.040909
649.220032 -646.939087 -113.977150
480.869476 -787.532837 -251.132965
394.247742 -721.154358 -377.943237
576.953735 -735.752625 -177.748123
536.973389 -913.059082 -170.774628
464.303925 -649.924988 -330.458862
487.904205 -896.643921 -229.303223
489.539886 -590.670410 -337.918640
529.640747 -815.688782 -218.137741
429.916138 -635.224487 -383.381592
550.161438 -572.892761 -294.165009
482.204834 -659.204224 -340.014496
660.608765 -811.432434 -38.704899
445.349854 -651.826599 -385.619537
599.953308 -842.080505 -115.573364
505.830109 -662.672913 -287.417847
558.438416 -639.564392 -233.571518
486.144806 -905.915222 -228.806824
446.334015 -677.725830 -356.157501
504.268677 -497.225708 -361.045715
606.330139 -831.942139 -101.590858
526.944275 -717.420349 -244.755463
671.492859 -716.433533 -42.011433
457.861115 -908.100403 -173.053925
607.465759 -702.833374 -147.673431
439.168945 -876.320007 -233.981125
682.629456 -688.060303 -59.276302
571.323669 -733.816895 -184.647003
673.027771 -774.954346 -49.945358
550.977295 -652.506592 -260.368805
741.458923 -737.956482 27.729017
653.480042 -761.889526 -81.042046
429.458893 -732.366150 -355.561615
611.615723 -977.989868 -135.334122
473.291595 -634.172302 -359.056824
647.862366 -808.892334 -50.856037
700.775208 -721.565308 -35.624928
630.839905 -721.320496 -128.869171
465.097717 -812.420227 -281.106659
557.136658 -938.196228 -177.235809
620.677856 -749.744934 -110.017929
501.826996 -659.749634 -281.740112
657.060120 -615.439758 -133.545166
473.559326 -878.213440 -281.851166
557.697510 -551.451233 -265.572571
612.240295 -848.327698 -96.297394
664.904175 -742.227173 -74.722427
452.850586 -746.659607 -347.568359
462.329559 -889.067505 -217.809738
611.041321 -565.320557 -217.226364
420.864410 -686.964417 -385.349670
478.039551 -877.589539 -233.486908
559.072083 -678.763550 -223.686157
596.916748 -712.198975 -152.013077
681.189026 -816.802734 4.723247
508.284790 -911.598755 -193.738052
583.485901 -646.943054 -174.378922
462.388611 -906.400146 -210.018372
448.067535 -733.342712 -356.136414
573.414368 -920.304321 -140.747330
621.377136 -854.382996 -85.633659
518.309448 -706.597046 -279.038879
500.552765 -527.643066 -372.659271
587.021240 -888.362671 -95.321617
569.280884 -646.400940 -218.303085
566.443726 -771.667419 -167.675873
466.551727 -802.802795 -268.087952
668.330078 -759.853210 -47.840652
449.864685 -890.409668 -218.735168
404.285614 -737.371948 -363.379181
541.711853 -762.809631 -203.460831
537.528442 -927.138977 -160.046036
420.394562 -884.340759 -252.488724
670.326843 -670.094482 -101.551956
622.979980 -605.272766 -165.899551
426.582642 -881.810852 -276.472961
620.267700 -984.110229 -117.952950
581.798645 -675.705811 -214.244263
534.465454 -629.462219 -254.018158
466.515259 -831.916138 -326.404205
600.685425 -607.533142 -216.646088
534.621155 -667.965088 -250.142517
657.732544 -820.516113 -48.832348
492.496704 -627.622437 -341.398956
660.127930 -913.380615 -29.156950
580.200745 -643.961731 -200.596985
466.987610 -720.524963 -298.158386
568.359070 -946.654663 -122.312523
638.296692 -634.565613 -138.804535
567.485046 -605.209106 -254.861160
567.728577 -665.569763 -233.284424
562.340698 -919.666931 -180.829834
562.279724 -814.810425 -136.720276
441.673309 -630.406372 -399.294189
656.440552 -721.692932 -86.790207
437.968140 -869.153442 -286.561218
445.346649 -718.362427 -337.387054
535.862183 -642.914185 -257.960663
464.384308 -867.072937 -295.993591
556.434204 -927.342468 -161.054916
692.241577 -680.940186 -15.576787
610.783936 -855.320313 -86.064278
541.795837 -885.036987 -172.988739
481.519623 -619.742371 -320.042053
487.852936 -928.674377 -125.588165
473.020294 -637.723267 -308.563843
424.129456 -861.787292 -298.897339
407.188843 -691.572083 -390.057465
508.712891 -727.169922 -252.954254
596.133179 -656.826660 -202.547073
590.581360 -823.821411 -135.769379
607.305481 -838.717896 -82.619423
650.574341 -854.751465 -29.137854
590.419189 -677.903809 -177.569244
588.295959 -763.946777 -164.150482
676.101440 -676.199402 -58.143471
551.558533 -645.224304 -242.444138
415.934845 -890.063660 -210.842285
666.782349 -778.053650 -56.312851
515.332214 -518.382813 -328.878418
498.546387 -890.234619 -235.318542
545.256165 -912.642273 -165.056610
427.321777 -899.372375 -194.176682
452.477142 -789.108582 -291.461548
593.761536 -670.093323 -183.152649
566.827332 -734.617798 -158.585342
632.502625 -660.186096 -107.045631
533.221130 -515.965027 -341.896271
622.422974 -824.938354 -88.729073
598.037781 -967.543579 -138.293137
551.010010 -773.907776 -206.116638
657.039673 -738.278076 -84.984680
604.125061 -803.488953 -116.423187
681.779846 -803.173157 -18.836943
378.553162 -728.776978 -401.411438
689.595032 -701.127563 -64.785248
668.073120 -631.174194 -101.841530
704.862976 -668.816956 -24.054008
511.449097 -541.565125 -349.737061
409.679016 -862.952881 -263.295288
472.515503 -779.804565 -285.785370
668.798462 -712.024231 -64.664604
621.442566 -735.001648 -119.204887
482.191681 -554.330994 -362.952209
656.408142 -868.236023 -22.996925
499.453461 -572.618958 -326.078033
717.450073 -749.810791 -4.418078
579.742188 -858.492859 -132.005249
541.883545 -681.642883 -254.713394
638.288330 -807.491516 -56.916954
638.448120 -837.369690 -28.681353
492.973175 -928.727112 -133.656784
587.445923 -623.275208 -227.588440
518.694946 -554.768921 -314.367371
598.966248 -790.429749 -97.773041
442.689209 -838.710693 -359.406342
493.621063 -680.636902 -294.765991
564.951477 -703.419556 -220.451279
602.037109 -638.682434 -174.251068
509.121460 -808.059265 -221.672852
576.059937 -955.287415 -149.158539
470.414154 -801.238098 -262.229095
470.385284 -599.454773 -375.961761
583.531128 -573.072510 -229.208160
734.849060 -672.846008 0.847717
581.314392 -803.435730 -148.532837
480.203583 -876.146851 -249.420868
520.527222 -786.935059 -225.824265
647.636292 -702.799866 -60.504200
612.259216 -871.563599 -97.127037
652.906372 -713.302856 -105.243507
481.876526 -736.124512 -276.394928
653.699280 -815.045837 -55.050171
540.776062 -790.446655 -195.673676
504.641663 -517.146423 -350.990662
660.122620 -733.849731 -62.112438
465.519592 -864.978210 -315.746246
522.306946 -640.812805 -281.760803
611.131409 -630.195313 -176.175980
515.508057 -736.611267 -265.475739
623.884949 -816.331299 -88.014343
619.701416 -937.984070 -76.535416
480.294647 -717.241150 -283.822845
458.043091 -750.728882 -298.472229
522.975586 -756.241882 -240.012024
545.871460 -919.649963 -174.796280
609.697327 -677.504822 -158.094574
652.580933 -755.733154 -70.224335
663.397827 -613.648621 -125.747879
585.432434 -794.614136 -154.391312
541.877380 -663.404419 -267.600464
523.569336 -607.039734 -311.988220
564.528259 -701.871521 -167.832748
705.939209 -730.710449 4.798416
399.114685 -743.030151 -407.954315
657.950867 -790.401672 -70.351654
638.180969 -855.343445 -58.762325
509.267975 -645.241943 -316.988281
480.649811 -864.001465 -296.034241
556.668823 -687.184814 -234.595428
520.362061 -659.742065 -256.620789
583.440125 -712.665161 -180.636688
615.931885 -779.279968 -123.307045
543.856079 -635.018555 -235.553329
466.623260 -924.478394 -164.846680
623.548279 -798.858459 -102.634148
533.226257 -815.038086 -220.447922
574.170654 -895.478333 -144.423508
687.002563 -823.321106 -10.283042
476.442871 -669.412598 -319.193787
607.012634 -689.502319 -153.955124
591.458862 -690.680786 -146.637283
676.492371 -767.192566 -50.413361
546.411133 -913.970703 -156.570068
495.906738 -828.795105 -256.907471
591.885986 -660.588257 -185.315887
605.614502 -669.637695 -161.622452
413.745483 -754.407410 -365.307587
624.132813 -667.605774 -162.985977
488.598602 -868.950684 -281.755676
659.416870 -622.670349 -117.914886
463.991791 -882.635254 -265.491180
713.122131 -758.428406 1.854018
499.088318 -925.594238 -177.427292
682.349976 -739.217346 -48.995251
386.299744 -730.518372 -415.974823
637.407043 -639.144287 -130.542404
689.115479 -688.405334 -63.973015
454.975281 -911.080322 -158.922577
563.318542 -611.761841 -234.847534
512.748901 -589.771790 -304.870056
646.867188 -938.222046 -35.701027
582.588745 -754.729492 -158.671967
562.897949 -770.718262 -183.483719
576.283203 -751.657410 -191.100479
606.958069 -830.876282 -95.300545
570.441895 -845.397583 -155.876083
511.470306 -577.738159 -297.220795
450.746094 -654.072144 -388.226746
628.929260 -806.419434 -70.282646
484.538818 -891.548584 -219.613037
668.787048 -615.621399 -109.824707
532.017334 -706.989075 -218.840973
466.209381 -797.258118 -298.623535
612.184631 -777.081848 -127.025307
508.852600 -784.990662 -232.687332
476.803436 -667.692749 -321.114502
736.330383 -701.874329 7.852798
591.193726 -808.880920 -129.615997
581.532532 -679.304565 -209.544632
526.301392 -594.340637 -286.460602
496.278290 -581.961304 -344.118896
618.595886 -846.694885 -81.613434
577.083496 -594.056152 -251.852005
683.286865 -729.995300 -61.479156
450.131592 -693.913330 -346.947235
482.805267 -740.892273 -288.744202
510.530609 -749.530701 -242.223846
659.296509 -637.406799 -89.620262
556.336304 -804.593933 -173.867203
522.241089 -678.797485 -279.476196
515.382874 -571.739258 -308.601837
434.677368 -900.271118 -210.338394
422.061432 -848.431824 -298.043121
719.098450 -728.513428 2.433927
659.157166 -738.205505 -61.711960
678.207397 -621.394348 -103.645653
457.520813 -916.502441 -186.666000
652.427856 -692.542908 -102.361664
516.040283 -671.116760 -271.148163
685.070129 -705.240967 -68.862457
569.620850 -808.938171 -155.231110
453.674347 -741.926208 -337.960236
500.595428 -878.802734 -238.599762
636.404236 -650.963684 -140.014740
430.808655 -707.957031 -362.003784
512.876648 -824.661865 -236.895584
455.878387 -637.813599 -388.140564
454.315979 -729.334106 -308.659760
506.508453 -687.440552 -302.565643
707.386841 -652.244995 -41.589916
600.412476 -783.420837 -140.462128
644.142212 -892.492188 -39.059788
583.084167 -864.997864 -111.385056
673.781494 -854.347900 -22.165487
483.308899 -591.194824 -321.161499
435.810822 -897.504333 -210.488556
581.189331 -565.110840 -235.774048
651.374573 -714.714966 -86.979073
455.864685 -777.940125 -291.567352
469.368988 -600.362854 -385.519897
630.472168 -723.386536 -111.168594
516.734375 -887.499756 -234.643387
478.779175 -697.626953 -306.808716
672.128845 -889.071472 -9.231951
655.203491 -832.794373 -48.013443
