ply
format ascii 1.0
element vertex 1379
property float x
property float y
property float z
end_header
55.977505 81.967407 1094.391846
203.323853 -128.356918 1150.995972
-86.129723 -768.604980 1296.598877
-33.647461 -487.477448 946.897339
-286.902344 -812.955078 1226.824219
39.516750 -633.822815 1326.045532
158.318253 -72.529564 1129.904053
-315.830353 -685.261292 1366.860352
156.533630 -849.575317 1225.065308
-147.344757 -840.958008 1158.964722
20.644821 52.896324 1121.741699
-86.550804 -395.934814 997.929382
99.356613 -24.405657 1143.190430
-233.033691 -670.110535 1398.468628
125.259743 -399.223877 1043.931885
-29.046936 -505.149292 923.425781
-342.497345 -685.619141 1372.148315
-305.806610 -725.790955 1341.132324
21.089849 -862.985229 1251.692383
-170.040909 -885.517151 1124.137207
200.367294 -445.793121 1002.656616
-205.616409 -717.747314 1369.818115
-139.107193 -822.317139 1210.998901
-27.342329 -483.192932 923.475830
-105.920021 -633.754944 1535.265625
222.585617 -167.264877 1163.896240
-107.562851 -821.332703 1169.642212
42.465950 -410.623169 1000.979492
-116.494469 -846.719727 1195.125854
-181.041183 -864.128235 1142.812988
154.961655 -762.012756 1322.037964
-22.724503 -283.134491 1228.091797
-31.016247 -153.241699 1238.683838
72.242615 -388.443390 1050.326050
96.938637 -344.323578 1155.425171
141.407120 -479.838837 986.731567
57.887482 29.485487 1112.198486
-112.077995 -761.703857 1305.355591
-129.044464 -389.681549 1032.464355
-33.870136 -111.738106 1203.650635
15.759372 -440.204895 954.095093
-258.945862 -627.906189 1363.151123
11.498557 -90.350922 1168.498901
54.478737 29.400984 1117.137085
-103.415382 -445.368134 949.719421
79.216934 -855.979248 1266.622192
159.331787 -38.183170 1115.079224
-162.569916 -415.235687 984.895813
-310.576385 -688.181885 1377.255249
235.804184 -840.546387 1239.011475
-72.270294 -855.370178 1202.613403
-40.868839 -437.791901 969.059692
149.889465 -520.950989 923.355530
-274.180908 -813.823608 1221.876465
116.499741 -127.571678 1173.604126
76.357658 -494.687317 957.861755
-51.045048 -789.774475 1272.252319
69.952881 -869.718933 1214.274780
189.983322 -105.587662 1139.097656
119.613060 -751.727966 1323.878540
-155.104675 -431.551727 981.007141
-144.249878 -351.242279 1073.787476
-186.115448 -340.685913 1072.860840
44.975945 -886.428772 1175.476318
-311.911163 -744.603394 1297.473511
-53.685959 -860.068115 1189.270020
-238.218948 -811.753235 1239.176758
-71.956543 -463.255463 940.966248
119.889877 -33.085587 1117.652832
-60.921127 -723.146423 1306.735718
-256.762299 -620.980347 1363.460083
-263.073364 -783.438904 1253.217773
-78.258484 -512.476257 1663.173584
255.973022 -184.284744 1147.415649
-265.210693 -712.581116 1365.479004
-13.045793 -30.003824 1160.378418
230.352341 -827.684143 1295.624756
110.767502 -403.762756 1064.458618
-242.251373 -732.560059 1351.672119
133.075256 -484.558899 936.068970
-264.162964 -718.915405 1346.955444
-72.301796 -432.555176 992.976990
14.852036 -142.399979 1209.831177
215.573257 -0.025437 1082.905273
-184.794754 -865.665039 1158.380981
157.702530 -50.564980 1126.129761
137.681473 -769.697510 1331.773193
132.303726 -863.255127 1234.537354
-177.731522 -890.781616 1121.543213
5.005103 16.372746 1131.103149
-159.660202 -650.837341 1387.751221
-183.433990 -858.138916 1167.208496
-212.759399 -430.683624 1017.773376
-194.934097 -843.923096 1154.517456
-139.270523 -749.442444 1341.212524
226.416412 33.458614 1084.126221
154.805145 -829.214783 1257.661133
64.164284 -807.212219 1301.236450
-204.216293 -824.589722 1211.710327
67.746078 -839.030518 1279.438599
58.849007 -72.715858 1168.724731
-203.037521 -397.696503 1017.284851
-339.826141 -696.905090 1354.632935
-95.885124 -489.599243 1690.907715
-67.512970 -469.596802 935.414673
-207.846130 -725.934631 1361.152588
-371.479767 -645.535522 1424.196533
-197.514847 -821.270325 1218.640991
8.609121 -132.667084 1185.524536
-184.368820 -753.023254 1297.687378
283.481842 -87.919472 1109.305298
27.559433 -265.896057 1306.320557
179.081528 -422.430786 1015.130371
-235.237625 -846.759827 1163.083374
73.803703 59.946693 1107.863159
-28.753624 -391.381836 1044.388184
-59.096035 -789.919067 1271.900513
-61.679180 -644.530090 1286.909424
-98.615509 -574.969116 1569.396606
-167.444382 -801.233459 1257.508179
50.993977 -402.834625 1020.764343
47.064770 -305.935028 1205.459473
178.852051 36.040615 1102.799561
-123.118828 -736.326233 1335.099731
-77.524582 -323.159790 1124.400757
123.327133 -486.864288 974.155273
-261.756378 -645.176514 1355.254272
-296.553741 -656.327087 1394.102417
224.507324 -381.959503 1146.944702
62.533157 58.951824 1110.976074
7.785853 -95.928551 1183.186890
-88.534531 -348.653381 1080.781982
23.991278 -739.147400 1365.503174
120.642998 -844.576477 1252.347046
4.757648 -801.083618 1300.239746
44.977028 -511.828125 1683.692627
-184.832565 -775.354309 1290.867065
-212.427078 -868.858215 1153.410278
-162.233414 -331.273041 1103.040649
-157.893234 -702.094116 1387.374756
-142.664124 -366.478516 1037.293945
-48.293678 -526.898254 1575.664795
-353.547363 -635.284729 1421.055298
-124.657463 -906.211731 1078.943359
-146.759094 -362.694244 1032.435303
-145.792526 -288.358856 1139.042480
-128.103592 -375.691345 1018.752319
18.059732 -824.323608 1239.822632
124.623192 -785.841187 1293.748291
3.651025 -119.552658 1175.802246
18.872166 -520.434326 911.200684
-38.111111 -123.909668 1199.569946
126.108391 -813.238464 1310.448730
73.740166 -880.551147 1171.429199
-115.351242 -860.680603 1152.337646
-26.149467 20.508228 1152.696777
74.081512 -513.154114 919.724243
-109.224304 -886.761963 1123.999390
121.187347 -179.584610 1199.597168
32.976696 -454.915710 968.952332
97.011253 -438.285431 981.337036
-205.076721 -794.439026 1255.010620
12.637858 -900.095581 1156.441650
-85.627754 -301.006592 1130.560181
-43.968349 -727.421875 1200.117065
182.477844 -156.640625 1155.271606
73.642426 -427.675903 1017.191406
209.883316 -172.478088 1162.267944
104.638763 -375.868744 1110.140991
96.849327 -401.305206 1069.175171
-149.311844 -292.647858 1149.968750
146.634903 -161.340286 1161.629395
-304.444702 -683.974487 1357.673706
-53.028229 -335.008484 1131.363037
-214.945435 -678.247742 1404.916748
-147.901123 -659.673584 1349.217651
16.019054 -709.200439 1338.432373
279.081726 -73.191338 1098.771973
-245.278381 -834.904175 1178.048462
13.568926 46.854034 1111.829224
-149.665192 -441.568329 974.165527
136.016068 -81.694092 1153.940552
172.849426 -59.542419 1124.612793
7.412416 -460.860413 942.350586
-109.010880 -698.385376 1373.221069
158.548172 -44.344688 1141.079224
203.176895 -874.449158 1201.127319
-67.680237 -354.895172 1118.621338
227.434692 15.060684 1079.730103
-165.441162 -405.300659 1016.259949
-199.264023 -765.767822 1301.792114
-132.145920 -610.778992 1510.687988
28.735977 -436.964539 1016.783691
-141.615051 -374.860931 1027.774780
31.468842 -294.711334 1231.829224
-54.368515 -867.251038 1205.903076
-31.299095 -435.871033 972.197205
-9.610725 -471.258514 940.605347
25.180862 -815.239563 1310.158691
18.523935 -651.587585 1378.175293
-316.793884 -658.466370 1394.074829
45.927212 -172.194748 1226.120239
-150.729340 -333.448517 1088.140015
76.266388 51.259209 1109.155151
33.732471 -752.675781 1365.965820
202.327576 -382.273743 1126.051514
-83.796005 -644.287048 1396.935913
68.468048 30.898861 1111.183472
-211.973236 -648.917664 1381.214966
-76.961632 -740.058777 1356.602051
191.308746 -366.343384 1113.489746
-150.958603 -791.167847 1297.527954
13.025111 80.714256 1134.626587
-76.610466 -561.630981 1570.651489
-158.965622 -730.498413 1358.654907
-59.489384 -823.396484 1248.956299
159.634811 -364.560333 1110.135010
-320.581726 -659.496582 1394.895264
-285.671112 -678.036072 1372.428345
110.517342 -816.976318 1264.128052
-5.047299 -173.292618 1219.668457
-125.070084 -503.457245 945.473083
159.672836 -826.664246 1293.119751
36.642975 -137.863144 1180.204956
69.804924 -40.237671 1143.918457
66.610954 49.107086 1121.177490
33.197647 -428.023743 1002.988831
-149.469177 -836.326538 1181.408569
-10.102876 -172.137863 1260.985229
54.846077 -875.027039 1195.748657
-42.824013 -115.479118 1207.276489
-347.305359 -643.732727 1413.673340
-15.485611 -490.234314 930.588989
150.805420 -750.270569 1304.925293
14.823893 -457.944794 936.490967
-327.751343 -661.476868 1403.050537
-96.840668 -846.055786 1183.186401
70.208298 -345.321045 1148.912720
196.017105 -864.185547 1272.216431
170.887192 -323.510437 1215.124634
-200.408340 -136.464401 997.732727
-355.063171 -689.961548 1368.307373
50.213284 -431.863190 972.396423
-76.337044 -485.058075 1728.885376
-82.630081 -251.518555 1253.065063
-337.622894 -683.435181 1343.287109
238.357971 -809.447021 1268.712280
-216.354721 -843.113647 1182.508301
-27.575695 -827.593567 1276.759766
-255.033218 -801.134277 1206.583008
9.819352 -32.734074 1140.986816
173.809326 -103.424713 1139.887817
91.272804 33.221672 1099.010620
-44.417583 -731.702087 1278.044800
-46.553535 -871.547668 1208.552612
-67.929993 -701.170288 1411.500000
-107.789894 -851.760254 1199.414795
-129.566513 -634.655457 1506.568848
182.961990 -170.798111 1183.510864
189.845337 -388.758148 1119.125366
-89.709587 -784.108704 1206.529053
-83.781693 -706.692139 1361.009521
218.639420 -27.666773 1093.099609
51.853310 -305.926758 1238.255249
-134.676895 -350.338867 1046.609741
78.480522 -189.770081 1225.504028
-303.689056 -694.289307 1332.019653
-92.903961 -633.366028 1205.130249
-67.782196 -882.067688 1163.083496
300.809723 -145.456863 1134.636719
139.335510 40.083389 1092.507202
113.448624 -54.124714 1142.884155
-245.865982 -766.077759 1298.975098
83.652260 -113.946884 1181.396973
-230.253601 -716.460938 1367.902832
122.806694 -885.419861 1229.047607
122.147186 -68.234772 1136.383911
112.732704 -757.652161 1281.342285
-81.451553 -909.171753 1142.628906
33.734665 -392.884430 1031.052734
-54.527950 -734.162354 1329.802490
-267.782684 -792.112122 1220.526855
5.282844 -428.561371 967.000122
129.253510 33.048264 1100.779175
-116.643799 -371.341522 1039.992554
231.881165 53.635094 1105.823853
143.678726 50.544792 1102.437378
78.233925 -811.823853 1303.912354
-298.287781 -698.046692 1361.202148
24.818281 -104.200058 1187.282959
-205.445084 -703.884155 1383.554077
89.376503 -126.793228 1172.319824
-99.049011 -789.426331 1273.382568
-124.301483 -452.149994 953.245850
37.601109 -80.594223 1172.609985
-186.586792 -727.443665 1329.972168
143.986053 -797.681641 1294.595093
-162.827499 -652.548828 1408.141235
34.614677 -394.458923 1043.959229
-133.334579 -281.225403 1160.961182
199.645004 -88.617439 1129.486816
-134.609802 -745.268372 1368.090576
-185.531464 -707.469666 1370.653320
-243.522171 -724.813843 1355.422607
100.469330 -461.120483 971.518250
-45.867760 -464.538086 939.814514
30.338764 -872.670044 1228.688965
-47.193813 -603.806030 1551.359741
-65.984947 -713.227600 1335.561157
127.409508 -343.289276 1157.125244
-41.627110 -619.110107 1220.980591
13.446999 -348.557251 1113.155884
89.073067 -840.066284 1254.181030
-122.678719 -837.286133 1193.234131
-77.802887 -277.374725 1191.762329
-255.360214 -644.763855 1379.746826
-39.541168 12.072996 1130.816040
-90.516441 -395.484467 1021.122131
161.102417 -150.856552 1168.862061
-117.658447 -447.624176 953.331970
-292.454346 -745.643066 1299.898315
-142.158524 -577.506714 1589.289917
314.416992 -95.870697 1110.303589
45.955120 -761.174988 1354.376343
-54.480503 -466.406616 946.986267
44.014500 -2.407204 1129.543823
101.396210 -386.277985 1074.982666
-295.734863 -746.774414 1277.350586
107.778458 -344.735168 1127.557983
196.783600 -715.139404 1513.558228
-179.575287 -463.235901 967.838806
0.901903 -457.570557 945.305298
159.070969 -151.597229 1176.044312
81.490990 -734.597656 1359.879517
-236.599030 -710.900391 1370.233398
213.330215 -75.308289 1116.406128
106.329315 -496.822479 949.402893
-137.673630 -597.083069 1553.307495
-77.811317 -365.936768 1059.383789
-293.096497 -597.424805 1437.271484
-88.333252 -367.084198 1047.899414
37.536583 -844.321289 1274.331055
-90.624512 -775.361694 1288.523926
-101.649872 -384.390503 1022.385986
7.865900 -833.564392 1290.818359
-105.449837 -493.959290 1720.388672
-115.445999 -822.622192 1166.889893
-297.468994 -658.963379 1349.050537
129.204315 55.423817 1088.950928
-185.525452 -329.169525 1095.214844
63.301323 -459.654938 944.954102
-240.251053 -745.687378 1338.141968
-21.234142 -825.585144 1278.685669
-179.520874 -878.102417 1131.369263
225.217087 -100.821617 1126.779907
29.275196 -157.578125 1203.839478
-264.412720 -692.001343 1392.041382
119.067902 -19.137129 1117.505859
138.402969 -334.261780 1205.300781
-378.308472 -648.834778 1417.099487
-153.322754 -874.495178 1166.588623
-12.005207 -64.367744 1163.928101
204.640274 22.228836 1081.265259
-262.171631 -645.238342 1383.392456
-72.639214 -421.278687 977.963074
262.372375 -31.287916 1086.729492
-267.844940 -769.447449 1243.720581
-324.275330 -674.652771 1388.224731
132.000320 -319.515930 1199.604492
-43.600178 -454.739288 961.649048
-235.418839 -239.727417 974.185974
178.171722 -111.627029 1152.338745
27.488871 11.668243 1129.633545
-236.810257 -838.193604 1201.398926
-234.708710 -284.869781 1010.507507
-92.779213 -463.714020 960.687744
-79.688255 -632.614563 1525.735107
-187.938705 -810.211914 1252.899536
110.023201 -47.151173 1139.263672
82.589020 -92.786766 1165.787109
-272.155701 -810.918152 1234.911987
152.297989 -51.231472 1117.886353
-384.233582 -655.220459 1410.294434
-57.883633 -433.068268 955.966492
-139.139709 -473.739319 962.782715
-14.231791 -440.561737 974.334167
118.705521 63.228634 1108.379028
-52.344128 -834.253662 1191.894409
29.598759 -439.296478 978.130493
152.745590 -358.243500 1157.180420
158.183014 14.084678 1102.913208
19.327942 -878.952820 1207.630005
-259.103333 -779.434875 1261.938477
9.228002 -49.984802 1153.897461
219.989670 -212.207230 1177.167358
169.821838 -143.254105 1161.974731
-96.469101 -430.625092 961.715271
-32.502930 -347.909363 1098.533936
-172.568863 -696.979858 1394.339233
39.002747 -415.339844 1015.498535
-239.049179 -725.463623 1349.687134
229.783508 24.996855 1088.541260
67.182426 31.843515 1125.071411
-37.254913 -364.667267 1083.412720
110.470192 -803.105713 1315.821899
-113.666718 -845.499146 1164.439819
158.002945 25.669065 1103.946411
-52.053257 -313.092010 1170.778687
262.872498 38.838993 1072.348267
-88.399353 -353.337708 1102.887085
70.689957 -441.978577 994.596497
-86.101105 -911.895691 1127.856812
-25.919964 -52.430031 1152.187866
-126.005440 -575.978271 1557.784912
149.075714 -462.583527 989.369141
-122.788971 -377.063904 1052.378662
-51.084553 -371.969727 1079.721436
-81.523491 -898.411926 1125.424194
-289.860229 -763.142212 1297.147583
-287.080475 -645.618408 1400.729492
-137.972260 -808.512512 1226.387939
194.520554 -156.494507 1158.387817
-156.492752 -243.455185 1113.315918
-49.797806 -538.348633 1567.122681
66.510948 -171.683838 1197.070801
-155.559204 -892.236145 1144.604248
99.392311 -726.147644 1274.408569
113.696983 -356.910339 1141.840454
-158.803070 -712.239380 1366.876099
196.315826 -211.966232 1182.391846
171.461914 -859.956421 1254.585815
-29.876753 -877.765564 1153.808472
115.130531 -812.911987 1316.553467
178.567505 -719.174866 1482.381714
-33.907970 -495.968353 926.315002
-1.799933 -653.452332 1357.382568
-112.345589 -586.785706 1549.183716
-15.073483 -886.524597 1169.431030
3.803769 -829.535400 1227.703247
-158.774292 -467.483337 963.951416
-124.485214 -881.671326 1136.195801
51.564198 -776.208679 1336.170654
8.015320 -879.872681 1182.249634
42.007614 -890.285461 1153.774414
225.175919 -134.364197 1148.671753
-107.179977 -464.389618 944.669373
107.583748 -873.435974 1214.170044
-260.598206 -803.709473 1195.784546
79.792854 -330.388977 1169.754761
6.907351 -418.779633 980.561401
165.297714 -840.106750 1230.760864
-273.237640 -646.285217 1386.871094
103.171463 -808.995728 1288.953491
-204.581451 -740.257385 1338.328003
-228.802048 -642.104187 1386.940552
267.455658 -136.011658 1131.547974
-184.588943 -827.249451 1182.648560
63.353279 37.631153 1111.547974
-240.508148 -691.214600 1377.477295
-13.961881 19.864498 1136.840454
-164.210861 -708.056946 1359.645264
33.418842 -409.704742 1009.487732
221.601395 -124.150551 1144.429443
-32.042953 -39.565289 1160.671509
-194.509491 -851.187805 1185.852539
-307.385406 -762.301819 1271.590210
-29.980932 -87.370186 1169.611084
95.024139 -466.839020 965.205688
293.806244 -382.756348 942.104492
190.508286 -87.143456 1123.608521
182.145157 70.851555 1125.254761
214.168106 -68.449577 1113.118042
-89.930794 -856.425110 1173.281738
9.292440 -56.625679 1150.263184
-311.554565 -750.876953 1281.828979
45.806709 -483.593079 946.207764
89.514992 -308.880310 1204.134399
-237.830124 -742.213013 1298.435669
-259.874969 -726.349731 1315.227539
94.781281 -282.521484 1238.330566
-152.888428 -361.263885 1045.741455
26.002615 77.339508 1121.675659
-8.127415 1.748732 1127.182251
-94.171219 -750.336914 1220.681274
-199.831085 -787.802490 1292.084595
-317.813232 -631.062378 1348.080566
92.237114 -455.019501 984.278931
132.967789 62.584862 1116.968506
-41.788113 -831.665222 1262.172119
-215.004547 -728.051636 1359.941040
-161.260727 -603.653625 1520.419678
169.083633 -67.723305 1125.161377
-132.924057 -492.658783 935.888367
-102.121208 -705.972534 1373.744751
-5.482392 -375.744415 1059.926880
34.410439 -534.156555 923.910767
-113.734978 -342.901031 1081.040894
-227.180893 -815.701477 1215.475586
85.230927 -38.364071 1136.644897
-99.834183 -388.125153 1017.917480
102.806725 -46.635681 1135.783936
93.989006 -59.681950 1138.418579
-242.381577 -686.803528 1373.813721
-165.354507 -807.515991 1222.538208
-76.464012 -907.571167 1121.907471
-130.889252 -494.979462 1692.710083
-103.957108 -894.856995 1122.310181
-234.020309 -752.333435 1309.712402
-212.442291 -719.335449 1368.246704
13.381083 -510.277618 923.065430
141.581497 -870.338440 1212.428467
-335.215637 -714.292969 1338.021240
-110.558861 -722.472107 1385.478271
40.142803 -266.700409 1226.911865
180.999115 -15.404727 1097.437622
119.211525 -839.879700 1256.245972
-203.144165 -315.424408 1129.999878
178.142426 -133.724030 1166.249023
-306.064423 -663.378357 1404.334106
-157.224548 -772.783691 1261.814819
23.250336 -365.948425 1114.964111
-150.983398 -341.513885 1078.709595
26.483435 -399.246429 1036.142456
44.950634 -346.156036 1103.729614
-114.504051 -745.040771 1369.503662
-183.404724 -732.054260 1326.504272
127.245895 -315.067017 1208.830078
-213.731766 -675.165588 1368.156006
-8.308430 -40.941616 1163.107666
-267.082886 -753.353455 1298.502441
-48.762070 -671.055725 1190.849365
-84.450005 -434.876556 993.696960
137.678024 -320.901062 1170.289185
112.137848 -282.977814 1220.863037
126.127571 -838.547974 1261.690430
80.000763 -483.182831 966.210754
145.064056 -116.626114 1159.785522
-216.708710 -706.072510 1349.417969
184.026520 -415.531708 1053.000610
-183.325317 -824.165466 1234.235229
-371.559845 -656.684265 1399.022583
-299.293671 -708.013489 1351.652710
-327.400055 -646.036316 1438.747437
-32.564697 -734.247192 1286.649292
13.984594 -357.780548 1124.882935
115.463898 -736.597900 1271.333862
-253.981323 -809.136230 1214.128296
94.718117 -394.200531 1057.073730
-74.778145 -762.260254 1197.172852
18.119379 -86.473015 1161.611694
45.985088 -773.753723 1334.088623
-94.070480 -398.025177 1043.467773
39.410030 -135.475800 1200.060303
98.376297 -790.613831 1316.260742
182.344803 -60.448418 1133.977295
26.965212 -118.163696 1191.975952
-147.264099 -464.073181 952.342346
-39.224567 -40.661232 1163.109009
-46.174900 -854.529053 1241.480713
209.292938 -358.136047 1128.154053
-25.820024 -707.718384 1224.017456
-298.472290 -658.057434 1391.561401
-53.708263 -865.468445 1161.362061
118.961723 -20.959509 1130.527588
14.029356 -464.190735 939.822510
-73.125977 -639.106201 1415.269409
-351.600983 -648.941650 1418.017456
-356.941803 -688.337219 1381.208618
-157.806458 -861.609924 1162.259033
-280.971130 -656.158203 1373.975830
-137.179382 -366.618500 1051.393555
272.496277 -137.202011 1125.540283
-69.992058 -781.613647 1249.810303
46.041397 -510.770752 921.286804
-111.340904 -898.998047 1111.778564
-265.798096 -789.451904 1214.575562
-50.459496 -497.119690 930.783630
-39.514484 -393.403503 1067.627319
42.014793 -128.048294 1188.055664
-204.358719 -389.204346 1006.395142
-136.793686 -362.973572 1067.470581
13.398974 -839.860168 1249.460205
176.322723 -2.320913 1121.571533
18.537231 -474.193451 934.770874
-335.082886 -691.815125 1340.825439
-61.354561 -26.527851 1159.340088
-224.094604 -856.326721 1151.126709
92.271286 -131.241379 1183.303101
107.511536 -408.598083 1028.949951
130.071594 -708.044128 1479.630005
95.030083 -5.683422 1128.753540
-206.240311 -412.339447 1001.562988
92.982330 -454.444489 974.593689
-87.299561 -518.307800 1651.626709
145.375870 -105.917671 1151.759033
-22.223656 -403.404907 1057.384766
-363.091156 -660.348083 1405.411743
-29.092386 -382.771851 1079.141357
62.696068 -152.669540 1205.032104
124.101082 -147.770142 1186.753418
91.780617 -319.906342 1188.617310
58.381573 -378.048889 1078.924194
-58.237423 -627.625244 1550.086670
-54.354652 -91.861511 1191.011841
183.808640 -397.571259 1099.882568
-103.452698 -501.686035 1727.510498
-304.181183 -755.172607 1293.814331
-304.735840 -661.155762 1397.787720
73.595367 -764.710754 1323.387329
229.613602 -102.449219 1118.997559
-104.491859 -478.707672 1703.449097
135.974091 -116.434998 1148.347290
-72.467545 -765.226318 1323.208862
-198.611465 -413.653992 1027.140747
-147.645340 -822.354980 1231.454102
119.914894 -437.988129 1007.219299
118.654289 -863.888550 1234.963989
139.791550 32.285313 1093.535522
-121.589981 -530.545654 1552.965454
-194.113541 -894.037292 1136.577881
157.807312 -866.809326 1248.903442
-21.440924 -350.631683 1130.824951
38.338257 -37.460037 1150.197144
-208.776779 -841.382385 1180.145020
258.124451 -22.789204 1085.882935
79.478188 -321.484772 1204.194092
-167.391373 -811.025940 1269.663086
170.828552 -824.636353 1211.420288
53.393700 -721.125427 1325.083740
-30.818213 -388.847046 1033.335571
183.673111 31.730995 1087.648804
-116.313293 -661.518372 1384.748291
-17.233463 -506.072479 916.105591
-114.034836 -904.110413 1106.075317
-148.403885 -381.286499 1044.285034
55.962624 -507.416687 911.458923
-41.279083 -730.288208 1282.950317
163.510925 -55.372345 1144.093872
169.725906 -200.686142 1187.158081
148.015945 -192.500626 1195.669800
-37.812275 -471.427277 959.016785
13.350679 -104.876335 1186.232422
60.069874 -91.456863 1172.079834
-160.972198 -751.563477 1344.895386
4.062956 41.887581 1113.353516
165.613052 -700.743530 1528.313965
-88.308479 -906.622681 1150.540894
-100.959351 -785.716492 1273.179443
235.885529 -378.408600 1160.768555
116.917671 -844.355896 1231.665405
-139.557144 -731.509705 1376.657593
-39.533504 -598.005310 1555.062988
-242.949966 -616.655701 1310.361084
-42.672920 -261.247040 1232.095215
-124.460289 -871.504395 1137.727173
-339.679901 -690.350891 1357.686890
161.448486 -421.336273 1052.824707
-204.927673 -753.698303 1337.177002
-126.388535 -578.304626 1535.655273
-6.978587 -349.400787 1119.149292
-92.315849 -855.995667 1175.393311
-210.167740 -185.295776 971.063538
198.986359 22.536186 1087.475220
-41.042099 -62.602932 1176.131958
105.808388 -486.710663 941.469727
286.728607 -114.791718 1120.344116
227.968094 -122.861412 1140.858398
90.778633 -809.750793 1292.411987
-86.585739 -813.639282 1241.458374
130.398132 -64.837639 1154.202393
-22.117313 -361.245026 1058.138184
-232.030396 -605.752197 1447.789429
-297.523193 -671.966980 1392.081665
42.125252 -280.505005 1212.280518
199.155228 -692.695374 1534.498047
-309.469604 -747.137268 1308.550537
-118.963852 -424.691559 1000.503113
-51.298100 -500.074310 899.981323
-353.324127 -692.596985 1375.628296
-91.585564 -433.541901 987.890564
-238.653793 -707.249695 1370.884277
116.179756 -60.246998 1141.905151
193.835236 -370.309967 1107.786987
-32.588333 -833.982788 1267.300903
-175.856979 -694.836670 1370.583740
242.377975 -129.248093 1131.212158
13.618609 -524.415771 906.443176
132.600525 -418.256470 1074.996948
-211.905914 -683.035339 1415.931519
141.989273 -62.523270 1133.731201
231.327316 -349.481201 1203.552002
-265.261993 -611.872192 1418.106567
-85.612450 -721.493835 1359.028198
113.395607 -409.771332 1100.439697
-11.548535 -444.347504 969.972229
1.852320 78.913704 1134.763062
-54.371647 -421.856598 991.225952
54.100231 -366.427216 1104.468506
62.871571 -849.037109 1275.589233
152.699829 -10.835959 1113.790405
236.091034 -353.600891 1196.838013
70.452614 -394.998138 1085.556274
130.616745 -850.198303 1209.851807
30.606392 -178.560593 1204.695801
160.313217 -418.005157 1056.259399
194.359406 5.708215 1089.899780
125.730461 12.299542 1109.447144
-105.324715 -665.632996 1506.130737
-33.510181 -306.073761 1163.832642
-297.203003 -668.070496 1346.192383
-130.987061 -647.158142 1524.086670
188.376373 -457.772736 1013.361145
-249.498795 -807.934021 1247.468140
-345.911591 -712.691284 1342.703491
-52.657616 -393.368805 1007.472168
145.309860 -334.275574 1196.566772
162.956741 -118.771606 1146.312866
-62.616730 -439.557800 992.537476
-210.382706 -626.763855 1466.859619
-65.394142 -405.623322 984.697937
47.907913 35.047413 1111.067383
23.620579 -116.245888 1172.309814
-201.246002 -620.572388 1393.432739
-119.557091 -817.777161 1189.729004
-189.045212 -619.814819 1407.483398
-101.485771 -718.028259 1341.716797
73.740456 -503.731689 924.058472
-282.026825 -613.617004 1440.074463
-184.088867 -618.930603 1480.466309
-163.278931 -808.037781 1232.873047
67.791397 -781.992554 1340.526001
-180.733307 -728.244995 1353.552124
83.519089 22.413799 1106.547119
-298.498108 -688.353210 1377.880737
-321.541107 -654.522583 1384.015503
-55.988972 -123.226463 1193.890869
-199.480347 -401.577026 1011.557373
-196.856674 -420.208771 1030.301392
-92.643692 -123.408897 1198.642212
-85.960930 -139.282867 1199.762207
223.788757 -38.725811 1095.173096
122.067772 -136.749512 1160.617065
94.208672 60.584209 1093.361816
-163.240799 -770.453796 1311.711914
144.323608 -405.954895 1069.767334
7.512332 -355.867859 1113.556396
95.032600 -94.054352 1151.501343
-126.149467 -326.844391 1087.026367
-5.408207 -353.225433 1124.362793
106.579071 21.975275 1097.941650
97.881111 -50.702709 1128.419922
-282.259827 -740.380676 1313.126953
-70.310974 -823.475220 1232.815918
8.148767 -834.127441 1222.408447
-88.878258 -769.121521 1164.867920
-46.616718 -102.228111 1189.460327
-118.856033 -358.145233 1054.569458
199.580078 -470.352356 999.245422
224.745697 -146.439484 1149.494995
6.441399 -106.437035 1193.797974
-94.518082 -881.106689 1155.438843
6.163759 54.036579 1122.349976
130.528366 -790.410461 1284.521606
133.378113 -778.076599 1328.548340
-160.437683 -772.172058 1312.246338
217.749832 -174.466232 1164.340820
-26.478230 -758.557434 1350.793945
55.115253 -31.619961 1130.118774
-220.662537 -757.198364 1328.883667
-22.149500 32.940250 1130.901733
9.490704 -36.654259 1153.938843
154.400604 36.174297 1102.742920
-222.104736 -615.535522 1313.973511
-66.088638 -676.357849 1360.412231
-176.153320 -838.217834 1189.276855
85.439339 -348.767426 1141.896851
128.090652 -340.796997 1169.855103
17.826483 -284.966217 1219.122925
134.448700 -96.490349 1157.532593
62.278828 -18.860186 1135.658447
43.307747 -748.812317 1355.705078
-127.617455 -728.510559 1383.384277
134.109573 -299.377563 1233.787598
94.035370 -404.787292 1024.798462
-79.727585 -431.642578 954.941345
-19.360723 13.813287 1133.648193
-148.878922 -801.858398 1269.065186
0.144653 -270.072876 1241.493286
-100.006157 -287.694855 1149.554932
-10.872584 20.211988 1121.039673
57.971600 -860.623596 1246.114868
138.751709 -99.378410 1146.789307
-170.267792 -424.976196 988.433899
-112.494370 -868.523071 1128.344360
-229.296844 -768.253479 1284.648926
31.727308 1.390950 1133.090820
190.592087 -45.352692 1106.631592
-24.947874 -852.835754 1207.575439
139.446030 -683.984680 1469.154541
-89.222313 -413.079193 1008.309509
56.471127 -44.615471 1147.279175
85.210182 -854.598633 1236.803955
-108.235901 -663.510193 1482.565552
-28.279251 -802.699768 1231.107544
-159.087311 -420.689697 974.280701
54.415207 -862.190857 1250.179443
-178.053024 -862.520020 1136.855957
88.329025 85.909393 1101.058716
-273.736328 -773.724182 1264.350708
120.123672 -373.126984 1141.633667
-33.501366 -425.925781 995.144287
-159.874893 -649.259338 1376.362305
249.420013 -35.527252 1092.524536
132.792557 -459.412720 987.005920
-235.187042 -756.709412 1273.716919
-106.670509 -370.564331 1024.732666
97.180992 -381.240601 1097.635742
-179.163147 -702.250000 1388.836304
-86.970314 -478.346375 1708.778809
-33.069172 -273.311188 1226.110107
-173.131149 -716.100952 1390.546143
-178.816528 -645.216858 1374.105103
254.600128 -71.338310 1101.259644
13.197802 -440.215820 984.691345
223.180649 -23.391029 1109.292969
143.776199 52.450569 1082.722656
185.020966 32.786167 1104.236328
-22.075573 -402.000000 1028.659180
-38.657108 -800.069519 1314.669312
-244.654984 -788.415710 1252.509155
-51.551308 -860.336853 1217.373779
-338.982025 -660.019897 1389.648193
-233.582855 -693.282532 1363.783325
169.383148 -491.862549 961.633850
74.861534 -138.249176 1191.482666
84.365654 -405.986908 1050.192261
-112.273003 -795.488586 1254.366943
229.711029 9.988034 1084.016113
207.618195 -416.883972 1071.137939
-128.417526 -493.146515 1678.710815
77.889412 -298.432556 1215.734619
-45.452263 -121.562714 1212.669434
-64.094688 -430.224213 998.073120
187.378357 -863.694641 1255.733398
-172.187820 -831.296387 1188.242065
93.823441 -136.956543 1168.278442
109.693108 -20.389702 1123.961670
40.085922 -538.756897 921.904114
31.825939 -764.257629 1312.962280
-173.264297 -663.093811 1402.499390
53.294777 -836.316956 1231.187500
-73.249352 -890.525146 1140.304565
74.860046 -379.889740 1093.783325
235.472275 -86.554405 1108.386108
-163.647766 -789.591003 1295.546387
239.614975 -37.920094 1092.963989
-149.927139 -740.556213 1346.845947
-203.971390 -398.622375 1020.162231
217.900925 -155.050049 1160.003174
-31.937939 -68.174911 1187.178467
50.684906 -845.928467 1272.527832
-23.753483 -640.144409 1285.531616
193.433914 -63.604500 1121.335815
-187.971817 -420.912933 1010.546936
184.887146 -373.982605 1143.334473
-371.942993 -667.660583 1408.167725
50.226025 -506.308502 911.712402
-111.756126 -470.349518 939.541687
-178.836197 -450.291229 992.395020
-82.996178 -355.732452 1093.406250
-129.119949 -795.263977 1213.946655
220.510208 -41.534237 1109.655273
164.813141 -768.651917 1239.533081
-26.225006 -882.167297 1163.522705
-116.916695 -354.917816 1101.727417
-73.828323 -542.647034 1515.277222
-259.387817 -673.886292 1381.109985
-271.350311 -739.829041 1335.598877
139.718155 86.150650 1075.464478
-86.167664 -893.680481 1150.888428
84.421425 -470.539307 962.665222
171.629150 -782.140076 1352.493164
-142.541885 -787.966187 1184.132080
-124.718201 -869.578491 1154.752197
-236.920456 -210.484161 975.408508
-18.301962 -834.768005 1249.122681
-317.185791 -661.235840 1428.922607
163.427139 -339.340363 1196.953369
104.435730 -780.754089 1325.852417
-38.858501 -669.012512 1469.966675
-193.402191 -662.530273 1369.482544
98.066650 16.807680 1120.323608
158.656876 -13.163665 1116.876587
-140.715881 -295.019165 1150.954834
11.841512 21.083687 1117.825195
-207.296326 -404.061798 1012.073669
242.830246 -88.379532 1114.342896
100.371529 -465.594330 986.582275
-112.117981 -363.171417 1073.832886
-204.543777 -775.620361 1287.125122
48.465038 -801.513000 1304.304932
24.214314 -792.300415 1325.717651
54.971008 -94.832161 1171.821777
-72.769997 -459.626312 942.298767
-166.176056 -309.610321 1056.283813
93.024910 -711.027527 1224.265991
-321.968567 -678.194763 1379.889893
-104.605171 -427.550751 959.663208
-137.755875 -885.463562 1125.889160
-226.123962 -793.347168 1251.588501
185.452530 -207.972641 1190.822144
-60.268085 -62.221310 1172.399414
-12.363248 -462.217712 958.096985
-82.242340 -464.730927 959.806335
-60.971840 -786.737305 1226.917847
-345.827332 -658.258789 1407.407471
-83.991096 -420.694153 984.511658
-149.393616 -279.091248 1165.073608
96.495499 -376.901672 1075.215576
18.038189 -536.669800 934.810608
-185.994202 -633.672546 1382.524170
29.958340 -491.427734 924.829224
233.294525 -213.424255 1174.017944
-268.011414 -619.492493 1471.727539
-90.758064 -671.096680 1476.251953
257.253174 -204.072571 1167.202881
-77.483528 -385.586823 1026.569092
224.437927 -36.294964 1096.640137
24.832798 -429.179871 990.401428
127.443802 -694.373657 1483.437134
-122.811539 -782.888916 1271.031128
-202.150284 -829.829834 1222.534180
185.121918 -718.300964 1460.972900
80.471527 -331.810181 1169.788818
203.225891 -165.509338 1168.582397
197.227646 -152.658325 1146.332275
166.704941 -815.846191 1214.422607
92.406830 -129.032684 1175.082764
-63.667332 -494.800720 1748.560669
-151.120392 -883.416016 1119.694458
-187.872269 -633.958435 1346.676025
-4.030239 -897.787109 1171.938110
114.485229 27.160818 1104.837891
77.181923 -757.955994 1355.431519
-110.147797 -438.595734 966.496826
-119.610077 -457.936676 950.544678
2.706370 32.871120 1118.904785
18.814953 -56.306404 1155.684814
36.117970 34.151062 1107.781250
28.962208 -796.277771 1286.778076
35.877693 -388.681458 1055.506470
-145.001419 -744.837402 1345.615234
-17.118706 -54.650974 1153.051636
120.531464 4.115318 1121.795776
-276.817596 -760.284729 1279.380127
-282.732697 -750.093079 1298.685181
183.438736 -685.878662 1469.132324
-29.186769 -468.194855 930.101746
-140.865875 -402.337952 987.533020
96.950157 92.955017 1130.705078
-61.369396 -605.970337 1493.307495
-251.638626 -613.815979 1316.915405
-49.930828 -761.178772 1305.353149
44.244366 -534.955933 917.849548
107.681953 27.165354 1105.779785
-3.101216 -478.331787 931.659058
-259.466949 -682.214783 1358.062500
-141.948380 -719.076355 1390.282227
-68.498451 -396.369202 1000.257813
-219.873230 -807.738831 1233.632202
-98.633774 -478.825531 1730.214111
160.213364 -882.202087 1206.774536
-12.235233 -366.609009 1095.650269
-190.488602 -734.373474 1343.559937
-150.282486 -723.594604 1358.621948
-18.338753 -23.770014 1151.911499
176.489075 -140.076035 1165.876465
124.108376 -114.155609 1167.729248
277.502625 -114.289192 1121.008423
184.513718 -829.054321 1227.181396
-23.352146 -305.957916 1191.805786
169.337204 -490.839020 946.955872
-33.216381 -56.300907 1164.422974
286.821838 -39.324837 1105.660522
-303.547913 -779.773987 1267.080688
220.743729 -825.715393 1310.339233
-13.784422 -377.056427 1071.324341
-72.188087 -771.522461 1230.362183
-130.315338 -589.158691 1546.818481
46.077656 -506.064850 934.999268
-114.311691 -293.332886 1166.941772
-197.142944 -868.852112 1151.498779
-7.819746 -50.932430 1148.924072
-139.990540 -621.820679 1445.541626
-168.227829 -773.640564 1310.621704
177.018845 -378.714935 1171.800171
-79.435631 -435.174072 971.315125
195.099899 -21.257610 1106.481323
-87.230904 -737.757507 1305.786621
-60.221199 -725.693359 1174.218262
-124.421249 -325.502258 1103.939087
73.196114 -874.010559 1208.412842
7.179731 -50.517456 1160.771118
104.209869 -289.138824 1208.967407
-27.320795 -779.139709 1346.742920
194.790283 -760.309753 1413.863037
102.220825 -108.506393 1166.644897
-368.689728 -661.384766 1376.681641
224.714355 -449.725372 1045.595947
67.588692 46.353302 1104.539917
-2.635508 -893.353760 1156.145020
-8.745975 -540.061035 1540.711182
230.727982 -861.907288 1229.685669
18.371386 70.437073 1120.133667
80.474083 -450.329651 979.057617
-145.894836 -412.907043 984.975159
156.147003 -12.394627 1104.049683
193.596497 -796.361450 1294.616577
-145.753937 -654.189819 1403.797485
-43.967960 -474.730469 934.314087
-144.239822 -852.770996 1191.068359
2.677848 -443.425598 958.805908
89.413307 31.354612 1106.394531
-2.813649 -435.289124 979.970642
65.055908 -338.157684 1175.151978
238.283066 14.841131 1077.361450
-380.542999 -624.367310 1429.585205
-112.930382 -363.238342 1063.853394
122.676270 -115.972656 1149.498535
13.749663 -492.493774 918.937134
23.926020 -463.453979 949.411194
-187.480179 -297.169067 1112.030273
295.036224 -30.782274 1093.852905
-105.158791 -836.075806 1212.929077
105.236031 -826.678528 1277.579834
191.255798 -122.227150 1138.708984
-38.065903 -98.509995 1186.179688
159.983307 -467.976074 980.669128
-300.635651 -757.229858 1257.857300
-37.117439 -447.302612 951.602295
63.958694 -127.065819 1191.173706
149.457443 -427.090759 1046.155151
-131.848099 -421.649323 995.707214
-5.185577 -604.692383 1317.506470
-129.096588 -687.834412 1372.275513
103.447128 -362.802032 1132.923584
-111.567688 -593.327393 1513.914917
-171.571671 -631.731262 1430.877441
-157.273010 -849.583801 1159.980957
-136.811478 -437.824249 957.859741
182.520187 -850.413696 1238.902100
-138.202576 -453.797455 975.309631
-108.822441 -473.231750 1709.687622
-113.887390 -804.480652 1238.899902
175.874939 -33.888367 1121.394531
-319.217896 -745.636658 1293.687378
-191.960281 -741.692810 1353.118774
32.664223 -846.022400 1241.178223
176.523102 57.956951 1080.698120
-39.651634 -409.523773 1034.978271
-153.387909 -881.171570 1124.188232
-273.905487 -686.553040 1351.226318
75.295639 58.280567 1096.395996
-232.597412 -746.526611 1319.460205
-139.796112 -713.945129 1401.929321
-72.885078 -143.011581 1220.965820
40.966316 -858.198975 1224.312988
225.549255 -811.360840 1345.379028
15.811884 -435.065826 1015.495056
98.901321 -34.551197 1134.118042
-54.442047 -744.335266 1260.878662
-109.264801 -708.362244 1433.619507
-91.440659 -886.178833 1142.261230
153.870148 -206.404053 1188.739380
-151.373688 -702.831909 1396.805542
3.295464 -364.429138 1066.256348
-169.835754 -735.514038 1345.173828
49.459351 -764.438965 1351.062988
-60.650867 -40.414715 1156.774536
115.256142 -851.736572 1246.836914
-54.097897 -336.767639 1087.349731
138.644272 -354.554535 1119.968994
-170.932892 -344.121521 1093.665039
-240.409286 -741.863037 1324.932129
-104.399727 -744.573120 1363.104736
35.552841 -351.855347 1135.875488
89.136200 78.640053 1109.945190
-252.507706 -660.245911 1375.408081
-142.335129 -652.915405 1501.043457
28.565586 -58.176533 1161.761353
52.836422 69.150475 1115.996582
80.176689 -195.437210 1261.512085
-27.649406 -342.764313 1128.145386
-17.255199 -388.386932 1038.072998
130.578400 -134.828079 1173.789307
-75.307899 -506.006683 919.332764
-275.445526 -727.953674 1349.365845
101.382996 -751.164795 1348.986816
-136.418198 -393.328156 1025.762695
60.312160 -687.376221 1242.406128
-136.802078 -425.548584 971.700317
-284.666321 -774.127075 1270.087524
-124.714859 -419.003113 985.711792
170.596161 37.702381 1088.967407
-191.348892 -815.124084 1257.665527
31.228279 -812.560669 1308.449219
49.073544 -282.583191 1233.001831
-280.470184 -684.945435 1367.590820
-70.919273 -866.415955 1153.717407
-98.665382 -802.710754 1208.309326
129.693634 -417.447662 1046.872437
278.149536 -74.175552 1100.077759
-46.810600 -27.987383 1147.597412
240.284134 -38.066765 1096.216064
126.881813 -500.068451 964.516602
-184.288193 -823.526733 1246.478516
81.660622 -376.425598 1109.577026
-126.514839 -381.478790 1033.675659
-17.966433 -56.114681 1165.429565
208.017044 -792.367004 1374.056519
214.903809 66.765015 1088.193237
-57.823074 -848.796021 1177.352051
77.921547 -403.542877 1071.150391
-59.853668 -387.444672 1041.423340
-0.582639 -481.947784 934.600098
-152.643326 -868.637024 1127.116089
-137.395676 -341.442261 1058.593994
238.940842 -782.812622 1263.662109
-10.335506 -57.430359 1162.720947
-68.252304 -624.959351 1496.947876
-150.970154 -830.050842 1222.972290
162.575516 -19.557522 1119.133301
197.459534 36.357410 1078.037109
-152.267670 -387.751312 1004.032715
-230.957092 -637.455078 1412.673096
-66.002716 -82.204971 1180.184570
-64.256744 -468.355286 922.215393
84.780258 -361.223358 1119.006348
159.461441 -405.335144 1045.582031
166.436066 -388.440277 1111.080811
9.850668 -512.946106 919.346313
-222.631363 -332.392609 1004.986572
-95.162010 -424.933197 978.081604
-354.576538 -699.052246 1367.116089
-119.211159 -329.575867 1101.699219
-7.165467 -142.395218 1217.805542
38.400146 -11.062445 1129.706299
-148.989517 -653.164978 1374.681763
160.886703 -178.054611 1179.423096
264.012390 -121.243362 1128.663330
-210.665039 -691.161133 1368.550171
-132.218994 -736.188049 1376.763428
71.822166 0.797584 1119.644897
16.510534 -283.693115 1192.727417
224.140320 -845.494751 1244.265137
57.302052 -140.400269 1194.133057
124.608971 -334.289795 1178.540771
-17.571781 -303.280182 1165.114258
114.516350 -85.842590 1150.478516
-31.233637 -408.850800 1005.598145
-170.703217 -865.836975 1169.538696
143.873978 79.025833 1096.787598
18.514009 34.936966 1114.912109
90.151314 -761.818298 1280.692871
210.570618 -1.623278 1105.823730
-144.393112 -425.205383 979.913635
-118.383591 -887.809692 1128.239502
70.931198 -745.614075 1339.353516
-127.963356 -333.586914 1117.097290
12.233388 -36.597610 1147.218262
-324.984131 -705.034668 1360.414429
50.348049 -162.141678 1185.954834
-155.864182 -760.474304 1341.521973
-31.756170 -417.468597 1032.761597
190.143570 -5.996816 1095.622803
13.899337 -290.912445 1227.326538
-297.592102 -718.449585 1335.330688
-210.265305 -862.807678 1163.124756
-138.435699 -767.196594 1336.582153
113.892792 -496.177277 928.358337
-240.692886 -808.490784 1200.395874
61.000893 -877.195618 1173.434326
71.520554 -49.845436 1144.939819
95.470825 -798.944214 1313.627441
84.906174 -350.687561 1145.250854
-49.455219 -446.439819 981.506409
80.385803 -118.075577 1172.381958
-162.501144 -618.445862 1471.806763
-151.499847 -400.341797 988.903809
-41.030704 -463.941956 945.255920
-263.111542 -731.705566 1328.803345
-168.896271 -882.686401 1108.612305
-101.009064 -393.082458 1022.107910
118.328766 -361.622070 1134.285889
-223.318939 -752.736877 1333.348145
-44.080200 -359.391998 1118.980957
-94.488640 -348.940643 1066.378418
91.089363 37.684216 1101.025024
5.084007 -274.407715 1267.524048
52.979996 -88.209221 1168.574951
159.436462 -338.750854 1204.908325
-277.959381 -777.061401 1229.411987
35.363514 42.463467 1114.174316
-135.817093 -647.399780 1438.483154
34.932026 -880.081360 1226.999756
83.702156 -341.009979 1158.739258
112.390968 -160.235779 1201.407593
-114.507988 -534.190613 1671.100586
-140.952423 -378.450043 1048.972900
92.424751 -426.029602 1017.774231
-38.426762 -98.656433 1194.792358
109.282257 -472.964844 935.950073
-9.011067 -138.435211 1208.118042
-363.878326 -677.347778 1372.802124
148.083725 -320.069336 1170.952515
157.722076 -853.776123 1255.158203
-239.210495 -816.339783 1207.975220
95.626541 24.985479 1113.355469
136.403717 -464.763947 1001.114380
31.357857 -357.972717 1100.136353
9.802519 58.506214 1113.084839
95.130203 -418.347412 1033.415405
100.206528 -8.203133 1111.767700
-77.251625 -406.854523 996.218018
194.077881 46.787388 1086.608398
-26.876690 -68.551437 1171.155029
-95.311356 -475.804352 1740.156006
-322.018463 -726.967712 1315.342407
10.721329 -797.044312 1322.813354
-70.256401 -493.334351 923.738708
55.736721 -753.903259 1329.789429
215.737534 30.871099 1076.334106
-243.224655 -776.152710 1246.134644
69.951889 -319.938019 1185.314331
137.077316 -859.131348 1233.832764
54.301609 -330.534393 1166.895142
-112.067436 -717.577881 1389.441040
18.964428 -663.298096 1296.687744
251.306534 -82.857391 1118.307617
162.877319 -141.044006 1165.553101
253.177902 -147.369644 1133.393799
20.622271 -897.025452 1163.261597
-7.489388 -158.928528 1230.425171
66.096252 -521.714600 933.531250
48.751499 -504.598236 920.525635
1.381960 -851.438171 1266.155884
121.251831 -850.696594 1254.896362
108.763184 -173.072662 1187.169556
117.470093 -517.615906 924.816711
-93.718132 -359.854034 1103.018311
24.699490 -858.421814 1216.402466
227.997299 -48.752529 1095.148071
234.863510 13.547078 1086.950317
29.832272 -527.416077 918.010620
-164.924698 -387.988281 1009.335632
-299.474121 -637.970032 1353.804688
10.275761 -528.354675 930.555603
35.382786 -676.548035 1306.038452
-275.971558 -684.482910 1369.789307
-265.435516 -806.041138 1217.493042
156.402985 -60.720932 1133.755615
-198.807770 -873.415710 1135.247070
-176.853851 -723.679749 1363.489014
-239.271164 -798.667786 1208.920776
134.142899 -799.060913 1291.121826
-32.458855 -371.955566 1073.098633
22.298008 -46.412891 1162.555054
37.840946 -549.345520 1670.377441
2.518641 5.803024 1135.249512
67.039917 -799.085083 1334.404419
-160.371597 -863.942444 1132.834229
-49.844139 -343.424652 1100.427490
-257.751678 -742.238220 1315.056152
-26.691904 -534.219788 1548.684082
190.341019 -173.535599 1176.011841
-159.880920 -330.919373 1083.236572
-129.244370 -799.130066 1284.056030
90.177704 -369.742859 1114.293091
19.650894 -388.428314 1049.743774
-50.236187 -845.751953 1209.186890
-376.083893 -649.574219 1394.444092
259.994995 -179.378494 1139.110596
-163.561340 -442.332581 982.668030
63.908810 -713.841492 1356.003540
105.635132 -408.389893 1053.656006
-46.569736 -867.016541 1179.185303
-11.586182 -60.587257 1164.862915
-113.676888 -731.349304 1305.811035
-20.723909 -51.399204 1167.843994
17.769396 58.814785 1108.654907
-179.426865 -759.064209 1313.761841
-172.041428 -387.218201 1038.502075
25.636759 78.241570 1107.941162
-106.861221 -278.666321 1171.183594
235.367691 -3.372896 1099.668213
-27.030512 -10.927217 1145.205811
75.765106 -100.836044 1174.372314
102.501305 -17.453426 1140.210693
-106.261734 -337.199829 1115.195435
42.362534 -76.510887 1161.370972
159.768738 -857.277771 1215.452515
-101.870911 -890.497559 1173.081909
-236.619705 -758.920410 1310.547119
-42.532368 -485.892181 948.013550
166.211624 -195.480606 1175.846069
-337.815186 -729.377808 1327.602295
-136.436325 -716.598022 1362.032715
254.966537 -79.543175 1097.736694
35.075935 -893.887329 1185.969727
-204.338852 -661.896301 1388.719727
-187.898880 -750.357910 1347.398804
209.608505 -42.449322 1100.943604
-290.245972 -653.228821 1374.001953
93.634171 -32.150108 1121.854004
168.003143 -214.701157 1177.515991
-19.997997 -388.303467 1017.544373
-220.726685 -795.601196 1245.462280
166.503998 89.583900 1093.931763
116.902069 -418.902161 1040.808228
-72.532486 -587.023254 1202.410278
65.998642 -437.566986 968.051575
-8.569069 -825.866882 1257.653564
-212.955444 -706.838074 1379.969238
-74.994698 -307.767365 1147.144897
-202.358353 -824.794250 1207.672485
287.321442 -49.581093 1095.512939
11.916789 36.000446 1121.982910
-69.772865 -355.234222 1055.298340
8.576045 -327.609772 1187.377563
-218.158234 -644.979675 1346.513062
-92.352501 -475.148163 937.118164
-124.343330 -434.645416 964.613098
121.828453 -387.107910 1141.527588
-184.058136 -804.384338 1264.131836
158.097412 -858.319946 1234.907959
97.338753 -96.413818 1159.873291
-106.812080 -893.046814 1157.860840
-268.724213 -795.374023 1205.393799
19.351461 -429.107208 997.536987
-19.162580 -605.645569 1286.310059
33.980434 -144.566452 1195.888428
85.341087 -12.968036 1124.193970
-98.330872 -373.005402 1046.367310
17.224266 -78.306450 1167.929932
-29.275621 -746.854736 1349.589478
123.176163 -315.765747 1198.787598
-224.852921 -782.411316 1290.892090
-121.943291 -635.906128 1366.041016
67.318939 -705.191772 1306.614380
-199.748596 -800.926208 1249.567139
-24.818613 -504.249817 933.019409
-78.593903 -133.508270 1213.118530
-212.458344 -744.991333 1327.214355
-255.416031 -707.304932 1358.326172
-32.479805 -687.390320 1254.240479
61.890045 24.028803 1110.460449
-162.136459 -356.426758 1072.242188
-212.057480 -611.171997 1443.282227
10.266090 -260.467896 1230.373169
5.636864 -79.476448 1164.410156
150.193436 -456.507172 995.297241
30.286144 -333.693787 1170.584839
-196.144562 -684.581177 1376.135010
-143.038635 -639.427979 1519.353516
-57.633743 -860.757813 1163.452759
-296.153839 -777.887756 1272.479736
-269.327911 -643.803528 1429.142822
56.373276 -778.891418 1331.298584
-297.088074 -742.569458 1305.207397
-86.204094 -345.761749 1090.635254
-19.006033 -902.705750 1141.623169
-77.299797 -868.636475 1192.714722
164.360413 -770.559326 1318.184326
-225.989670 -192.371429 970.805481
-54.143524 -448.091980 956.543274
-131.211166 -783.880066 1266.796997
-46.857033 -845.255005 1239.390381
-92.405624 -576.625366 1529.694092
-47.454979 -884.188721 1138.283081
