ply
format ascii 1.0
element vertex 1334
property float x
property float y
property float z
end_header
357.856354 -509.108215 -1060.981079
185.318161 -959.706604 -1299.409912
241.593292 -1129.892700 -1072.773438
213.606003 -672.805725 -857.300598
156.392044 -660.005676 -896.814697
95.215546 -729.143250 -797.364502
241.226944 -640.484192 -965.895142
-28.974657 -881.045227 -1375.994507
-17.959118 -992.950256 -1027.534180
-11.089916 -1080.565186 -1010.911011
-3.582782 -531.038940 -1048.892334
6.931572 -631.208801 -849.071411
165.452377 -327.314606 -1117.394653
267.107880 -211.353821 -1050.729736
-89.727493 -998.287354 -1129.579956
-30.762854 -551.618835 -981.255798
4.951395 -1074.507690 -1043.314941
371.039429 -322.039948 -1018.214050
184.910934 -572.732727 -1078.956665
188.849380 -674.401855 -846.476990
273.862854 -462.872192 -1087.475708
135.856293 -628.117676 -893.605225
206.597763 -610.922424 -998.233948
-222.562286 -981.145691 -1070.807861
371.800079 -537.520752 -807.927856
-22.074139 -473.226654 -1073.299316
-180.527740 -943.282715 -1168.602539
182.937988 -634.496887 -952.824524
-240.878769 -955.160339 -1146.432861
-75.797440 -638.147034 -836.022400
248.551437 -338.457092 -1090.414063
152.839844 -241.172211 -1108.535889
167.369385 -1073.346436 -1129.611572
179.005676 -537.122314 -1108.290771
113.889320 -528.799255 -1125.354248
-81.052025 -1023.928406 -998.194885
133.887344 -260.882813 -1121.374023
-149.217850 -922.593628 -1238.222778
-88.869301 -615.256775 -860.178894
1.183637 -624.835388 -846.552490
-194.606720 -1033.050659 -992.841370
108.386780 -657.218567 -863.451294
358.516052 -412.655884 -1028.619629
38.897247 -625.560120 -887.917542
-75.784050 -619.050415 -857.520264
-142.438400 -881.401245 -1237.464111
-93.759285 -1020.976135 -1070.510620
280.418610 -249.477875 -1055.947754
160.176941 -665.063049 -834.377625
-210.850586 -923.162109 -1153.967773
236.692795 -197.501129 -1066.620483
121.416740 -1028.780884 -1236.860596
107.989479 -652.150085 -846.368591
120.211334 -306.701599 -1139.341309
75.971893 -1064.548462 -1070.713745
-32.676216 -930.920837 -1016.355530
-138.654266 -1050.257813 -956.334839
-17.115896 -578.951294 -931.866699
250.859589 -215.157990 -1078.034546
192.587311 -326.991516 -1120.818970
18.423847 -1109.306641 -972.508728
46.107491 -572.406860 -921.402466
278.429504 -257.688873 -1058.293823
-73.763184 -885.361328 -1294.794800
-163.309341 -985.056213 -1099.499390
-57.600792 -580.795166 -898.320923
240.557022 -510.639313 -1221.394653
275.226318 -260.022308 -1059.611450
-40.423332 -1089.067139 -944.961365
184.072464 -1096.430420 -1084.993286
41.047279 -610.011963 -880.560730
-182.841248 -1013.784424 -1039.310425
57.240696 -674.909363 -804.059143
237.613083 -953.208008 -1358.307129
149.308868 -737.050476 -796.123108
358.236450 -248.381363 -1016.497986
-79.052246 -602.552551 -863.359131
91.913719 -1111.325317 -1051.243774
133.869781 -948.954651 -1178.539429
249.245041 -248.611664 -1073.648071
-179.486389 -1012.937134 -1010.679504
-25.457462 -1011.136292 -1060.697021
162.600891 -737.853699 -816.158203
152.451187 -934.696045 -1345.429688
-14.663695 -1090.012451 -1004.947510
244.971420 -640.009033 -973.562927
47.836029 -610.664368 -858.125732
-103.919037 -1044.670776 -997.817383
178.801331 -576.906372 -1001.924316
75.951965 -1076.971680 -1078.112793
-72.004440 -1045.748291 -995.399841
43.154560 -552.965454 -995.843994
-43.472740 -1061.148315 -1004.372131
215.833221 -155.921738 -1073.614014
351.465637 -461.336182 -1054.235229
281.989044 -1086.433228 -1167.466553
103.825760 -1041.816772 -1143.046509
172.045303 -363.670868 -1120.661743
115.250778 -550.954285 -1109.512573
-30.526560 -610.529724 -843.576111
220.749832 -584.658813 -1096.888306
216.007797 -1011.008240 -1231.318359
200.711395 -612.885010 -969.904968
98.719727 -619.672974 -898.895081
-193.186981 -840.755493 -1201.571289
148.876450 -1056.188110 -1121.342529
17.769449 -484.604034 -1128.765381
-2.802739 -1067.138062 -1064.293579
133.573044 -1101.503540 -1091.874756
-119.163132 -879.373291 -1237.650146
220.849197 -335.485291 -1103.793701
-122.324532 -988.279663 -1164.686646
344.041901 -241.159439 -1033.866211
138.579895 -510.210541 -1146.481445
-262.500031 -894.934021 -1213.711792
-137.429810 -977.247131 -1129.879272
99.365028 -695.927002 -799.068787
142.896790 -1061.956543 -1104.788696
212.946915 -1046.689209 -1105.910889
-234.522430 -940.776184 -1149.729004
-285.981049 -891.241577 -1230.586670
27.811287 -580.064026 -955.244629
-203.304398 -984.323059 -1101.130615
203.113007 -551.747009 -1070.468994
-223.072800 -849.823303 -1164.347168
238.227310 -243.579514 -1087.706421
265.108154 -269.132843 -1069.222656
152.065872 -648.196777 -868.032715
115.370926 -480.425507 -1154.580688
413.057587 -281.890198 -1000.289917
-141.875275 -899.124512 -1260.662720
-176.399429 -997.289368 -1036.401001
11.991467 -1009.682251 -1173.811768
62.877083 -604.355530 -900.947021
-6.002409 -625.440979 -842.767639
320.947296 -305.898102 -1047.870972
-23.871889 -598.603516 -905.522583
85.204956 -733.440918 -800.846497
-124.696571 -597.437317 -898.348572
-145.810852 -860.984131 -1346.682983
-148.962875 -1016.056396 -1056.314331
435.463470 -275.710968 -1012.132813
100.829674 -944.700439 -1208.922119
422.551727 -391.874054 -1010.254944
-46.319660 -1008.552795 -1050.074463
-113.072159 -518.414368 -933.148621
60.403408 -673.824646 -809.802795
174.368591 -335.982025 -1126.392822
-76.313950 -583.180542 -908.449280
-69.509720 -1094.049561 -963.724060
-85.470551 -858.680237 -1458.161377
121.015190 -870.234192 -1229.275391
-161.941208 -864.596863 -1185.814819
221.284027 -1114.737671 -1071.020386
31.178801 -500.556519 -1063.316772
173.922318 -965.007507 -1346.992676
-92.826111 -1018.144348 -1065.116577
346.875275 -331.038513 -1032.063843
37.054035 -851.572510 -1266.045410
374.901886 -211.071198 -1018.756409
416.503754 -341.890808 -1003.728394
281.580444 -902.038208 -1495.470947
-172.408081 -975.777893 -1154.421387
-230.010925 -917.291992 -1177.314453
-202.712448 -988.385559 -1073.486084
142.078354 -680.936035 -814.537842
161.147446 -713.406372 -822.502991
67.856873 -543.719177 -1036.767578
-27.103470 -924.605103 -1006.289429
171.714340 -591.827209 -965.612915
-273.047485 -882.344788 -1252.767944
-0.312298 -534.145386 -995.390076
53.840446 -895.877258 -1157.894409
-18.424053 -888.233276 -1338.374146
-14.486127 -1026.875488 -1124.766846
-51.859238 -606.999939 -877.209961
232.226669 -188.966080 -1079.384277
231.289734 -1087.845581 -1118.299683
126.236305 -1046.902466 -1174.572021
28.702839 -1117.588501 -1000.398193
-48.147312 -513.395996 -1023.257202
245.828217 -639.497314 -929.511169
166.792526 -554.494263 -1049.433716
-1.334142 -889.663147 -1222.419922
354.832886 -321.992523 -1022.463440
280.337860 -387.444611 -1067.556274
167.070358 -713.746277 -824.817322
137.611877 -593.657837 -1001.249817
163.665512 -948.944946 -1293.280884
334.922333 -269.171326 -1027.811279
-180.694687 -1052.375977 -996.914124
378.399261 -438.114105 -1045.610840
287.978424 -1117.901123 -1090.978638
203.242508 -341.042236 -1112.663940
32.149521 -1044.774780 -1151.000977
252.517395 -1098.023315 -1139.739868
278.599213 -190.028427 -1050.005249
412.299713 -271.328156 -991.560791
21.797590 -1042.243286 -1130.360107
-204.361221 -986.646606 -1070.403687
-88.147568 -969.776978 -1175.724609
150.465683 -707.868958 -798.999023
338.081848 -234.327026 -1026.622070
51.723057 -1098.658203 -988.814636
-207.845016 -946.963318 -1148.839111
124.845940 -512.781006 -1133.688110
182.404312 -985.541626 -1203.727905
163.293823 -549.232117 -1085.806274
-86.519783 -992.432434 -1013.118774
301.044098 -952.732483 -1477.268066
177.876404 -550.593872 -1097.535522
400.330414 -236.995529 -1023.567261
-1.464803 -534.175293 -1019.854004
92.064713 -705.816589 -807.840698
117.316788 -564.793823 -1011.277283
180.653046 -571.323730 -1101.924805
193.431198 -699.991577 -827.886719
86.168472 -957.705139 -1202.924438
-2.682006 -1037.628662 -1124.490601
218.566055 -643.153503 -955.423950
115.000404 -319.285889 -1146.806396
326.674377 -300.660400 -1046.751831
-190.617264 -1004.943787 -1049.940918
166.974991 -1022.774780 -1168.723755
336.710571 -251.735748 -1025.871460
178.547806 -606.230835 -951.890869
206.188934 -922.250366 -1368.866943
251.839142 -318.290985 -1089.395142
-23.908573 -1083.684326 -995.005432
327.088928 -631.344666 -880.107056
173.534683 -1128.079590 -1054.494141
-161.814484 -979.719360 -1165.864258
51.031677 -638.855042 -875.307373
121.873550 -511.919006 -1129.184692
-211.479645 -913.992310 -1197.772095
-118.186172 -1010.963562 -1071.239380
-238.528305 -881.603577 -1181.979980
-147.475677 -1056.180786 -1021.044800
-77.957260 -1010.362427 -1045.084595
318.804077 -290.361267 -1050.178223
-105.323067 -568.179565 -887.099304
93.328522 -509.349304 -1152.550781
-172.147705 -1024.677856 -1024.022461
39.478889 -1121.120850 -993.723572
153.377167 -1105.639526 -1081.471313
-157.461594 -1018.056091 -1079.362549
204.836365 -700.093384 -839.923889
97.176826 -974.787537 -1182.245605
190.528809 -941.031067 -1327.605103
157.648239 -334.596344 -1123.509521
405.559509 -396.785187 -1017.043579
125.209320 -685.902466 -806.788757
149.007202 -638.840942 -891.605713
0.335663 -866.082397 -1227.603271
-227.927582 -980.752808 -1077.286743
-83.697327 -1023.953003 -1092.860718
-264.972412 -912.546143 -1179.297974
71.401718 -698.506958 -795.278320
167.390060 -362.842743 -1134.398193
84.863625 -695.535461 -803.425476
378.371582 -269.525452 -1010.776733
148.414276 -641.001160 -864.738831
-29.593838 -1010.513550 -1112.937988
103.885277 -669.071899 -812.980103
351.661926 -228.378967 -1030.858643
147.077332 -526.058289 -1113.955444
251.965897 -894.682190 -1333.354614
-34.251503 -906.571472 -1223.057617
390.424683 -400.382538 -1028.460815
371.930145 -283.150635 -1013.642334
447.672852 -280.359070 -1007.425354
108.708107 -535.565552 -1117.399048
23.505253 -554.908020 -970.662292
90.561577 -655.937744 -837.068542
73.837807 -555.693665 -998.392517
-71.325928 -540.716370 -937.154053
353.134857 -440.724182 -1053.121094
187.115921 -897.626160 -1380.922119
353.239197 -310.918518 -1030.617310
-152.621399 -948.627686 -1145.069580
185.017242 -672.155334 -853.742065
266.981964 -427.860626 -1082.439819
-128.206970 -1007.583801 -1131.343872
-49.679924 -583.459839 -873.887085
406.537170 -345.729248 -1014.967651
345.316528 -910.372131 -1504.392822
335.309509 -197.939880 -1043.228760
89.070175 -1127.569214 -1000.807861
295.103973 -645.862122 -907.191345
257.979340 -146.010254 -1054.872681
294.842224 -625.285767 -990.367920
316.387634 -270.196930 -1044.979980
-40.932007 -985.924500 -1140.402100
-31.530956 -638.684143 -839.284790
-32.693962 -855.479797 -1369.083740
-28.515627 -1034.617065 -1099.391602
-70.101669 -995.265564 -1096.932495
-41.154846 -1025.939575 -1028.520752
-157.592224 -1049.074097 -955.071350
394.488220 -368.345520 -1014.327209
-32.077923 -551.899780 -999.322937
79.899567 -586.457397 -989.846130
-243.341919 -835.073975 -1205.017090
129.540161 -510.126404 -1136.016479
133.284195 -558.788574 -1054.709961
-75.310738 -489.287506 -1021.012085
-98.139877 -567.679810 -903.763916
393.452118 -230.197189 -1024.800049
315.326904 -224.156204 -1040.170044
427.352814 -283.948883 -993.530884
224.753723 -686.951233 -856.223328
17.671017 -605.036255 -883.081848
75.154457 -1091.104980 -1025.077881
387.033966 -416.099976 -1022.443420
101.053391 -592.784485 -978.507019
-155.427994 -855.884277 -1391.960571
-101.673645 -591.203674 -906.853821
-252.548645 -944.515320 -1148.407227
-153.882004 -1063.428101 -999.286560
-30.390457 -603.782837 -884.246643
-145.972977 -1034.140503 -1020.428772
-176.737396 -966.628174 -1158.896240
250.946182 -215.660675 -1059.596313
119.395226 -207.393051 -1132.941284
-170.879852 -1029.608154 -1010.872803
-58.480423 -625.472290 -845.140076
124.750397 -362.182861 -1150.695435
193.195984 -1010.066284 -1125.025635
-171.141968 -1040.456787 -989.215210
-67.721176 -1014.954041 -1035.945801
209.593536 -223.206039 -1086.622925
-77.268326 -1042.062134 -1011.800110
353.580322 -230.028000 -1017.200012
-65.158943 -985.462646 -1055.037720
239.385117 -878.493469 -1477.710205
-0.007676 -578.090088 -884.508484
178.620285 -385.900818 -1135.393433
335.505371 -283.978668 -1042.674561
-77.874535 -1091.112427 -954.204346
68.987335 -585.809326 -997.445190
172.386795 -384.269104 -1119.774902
19.186459 -554.162476 -982.158875
253.580780 -681.079590 -883.417297
-82.692070 -974.526978 -1035.223145
138.307617 -547.124390 -1044.712280
276.529388 -1076.543945 -1146.184692
262.593781 -415.604065 -1084.197754
182.626572 -618.842590 -975.355469
85.070290 -1058.446533 -1136.678589
-3.990053 -1085.350342 -1040.852539
380.714783 -226.187973 -1003.649231
371.623138 -321.738007 -1013.106384
-282.238251 -896.690918 -1153.735229
31.451742 -987.520325 -1135.428711
155.529099 -976.780762 -1143.811646
239.832703 -630.733521 -959.283936
-33.325451 -490.148438 -1032.583130
100.768982 -998.999329 -1214.949585
250.694687 -302.260956 -1079.028931
120.239014 -377.242706 -1145.354492
68.537636 -563.537964 -1021.382507
231.562225 -383.988525 -1095.861084
134.127045 -663.086731 -823.315674
-82.480293 -1004.170654 -1016.677124
224.209259 -352.994720 -1102.214355
164.319931 -1053.013062 -1123.913452
336.759521 -433.414978 -1055.960571
84.317574 -1081.764160 -1036.627075
24.470139 -520.452576 -1050.628784
94.519478 -597.557007 -910.511658
-93.341255 -862.120789 -1341.611450
355.058594 -273.670197 -1022.770264
82.099167 -597.503601 -923.978394
145.305099 -1113.655029 -1072.713623
22.872780 -1020.274841 -1150.236206
361.906342 -355.271332 -1027.975342
33.641674 -984.180908 -1224.248657
94.751511 -995.426514 -1207.157227
47.537441 -694.963501 -805.478821
-57.475445 -1101.650146 -950.649292
90.097878 -586.401978 -979.182739
-227.376678 -904.510315 -1181.275879
-93.863533 -925.952759 -1231.407715
-10.080750 -1107.201904 -970.492798
95.266663 -1095.593384 -1053.634644
133.821884 -624.384583 -944.458313
124.730621 -614.366028 -924.315063
113.196289 -676.148743 -827.357239
253.628754 -285.481750 -1067.460938
-156.052231 -1003.927734 -1069.905518
-95.293701 -584.145996 -883.363831
35.762177 -1084.799072 -1063.808838
47.808182 -881.598572 -1155.729370
199.909210 -562.897095 -1046.210205
229.628128 -673.043091 -907.905212
249.433182 -594.239685 -1071.726685
342.873688 -504.730286 -1069.653442
394.466858 -333.586639 -1008.021118
-9.585581 -525.837830 -1021.896606
-123.851631 -1024.056885 -1047.898682
149.489304 -247.498657 -1107.539917
296.426758 -482.164948 -1108.038818
218.996231 -547.230286 -1136.734985
58.689224 -1079.562134 -1031.114502
276.346222 -219.759949 -1060.902710
21.925276 -548.522949 -953.610291
1.989378 -1054.962891 -1067.642944
183.484467 -643.000000 -875.066162
119.723450 -591.559692 -937.822876
-93.340614 -361.857880 -944.013489
144.096542 -577.256348 -1043.941284
368.823669 -324.502808 -1022.271301
142.298340 -1087.787476 -1103.338867
272.609558 -1060.273315 -1188.762451
406.421844 -370.860382 -1007.226074
-70.239029 -571.854370 -894.608826
-124.191605 -922.213684 -1247.315186
69.994232 -1041.632446 -1109.070068
62.481083 -1094.845459 -995.583679
168.974411 -622.851624 -945.445618
319.310181 -496.536957 -1106.360962
332.156555 -471.686859 -1065.393066
353.246399 -445.278381 -1046.829956
-152.752487 -977.368469 -1097.130859
260.779083 -365.014771 -1075.183838
303.551208 -387.624451 -1071.955566
86.140839 -578.295227 -994.365662
122.427521 -267.543152 -1125.319824
235.420547 -238.695328 -1080.560669
35.404732 -1064.079468 -1056.293457
-129.905182 -862.636292 -1352.929932
-123.935478 -554.304199 -918.903687
-75.077339 -1078.165283 -952.117371
-138.656174 -995.923340 -1122.377808
106.981819 -527.772217 -1100.713623
132.340683 -273.204742 -1127.206909
135.778793 -686.656372 -811.268921
130.232971 -615.330139 -973.129761
428.973267 -268.653839 -1008.398804
253.693878 -188.872269 -1061.117798
-22.600056 -659.155640 -822.791138
258.409332 -569.387939 -1104.366699
81.786339 -1026.328735 -1187.461548
162.156952 -663.569031 -861.249634
80.347237 -602.975525 -955.401855
-45.867889 -980.916321 -1078.210205
-59.332001 -1001.486267 -1026.520142
250.902054 -614.883057 -994.414917
-100.604820 -581.279297 -887.620605
46.853580 -614.369080 -920.599976
-28.852448 -602.708984 -861.561768
372.438721 -458.847504 -1032.802490
-164.274124 -886.432190 -1231.222656
-96.184036 -955.483765 -1205.675171
117.714684 -1031.125488 -1174.384033
391.244019 -464.059479 -1046.207153
29.714020 -545.001404 -994.262878
347.430939 -308.766541 -1037.174438
235.997757 -678.512085 -858.023804
232.981705 -319.842010 -1101.343750
-44.643646 -1087.193115 -988.257202
57.720234 -621.006653 -875.163147
83.842339 -605.676636 -910.408630
-86.209755 -1008.862976 -1085.847168
278.097565 -224.087463 -1063.559204
166.087433 -541.985840 -1065.816895
87.456047 -536.597351 -1102.323120
231.729126 -675.178711 -874.943176
125.495628 -382.706268 -1153.486206
357.838593 -329.557739 -1030.411987
240.414169 -664.331116 -908.564148
-286.730347 -878.963745 -1220.468262
325.256134 -553.405884 -818.748718
-145.798340 -999.398010 -1115.616943
155.797409 -1053.579468 -1161.003296
-29.601864 -1079.151367 -1043.065063
34.982441 -846.042419 -1314.291626
118.033508 -553.924438 -1009.603577
-182.615692 -1022.576477 -1011.579346
-42.150249 -1072.715088 -975.970215
140.300003 -974.427124 -1182.834229
-173.470215 -935.100098 -1214.476196
95.102623 -675.938843 -811.865417
36.847858 -507.495392 -1130.351563
62.330093 -1105.188354 -1024.606201
-106.120934 -546.674438 -942.827271
98.474426 -685.112976 -827.055603
-91.664703 -512.298950 -1006.652893
190.299179 -360.715576 -1109.281494
112.458443 -1083.862549 -1087.300903
259.799774 -360.165955 -1086.879639
119.845940 -282.866943 -1128.341309
3.083420 -512.955017 -1015.536011
62.199551 -1040.207764 -1163.744141
323.861267 -433.088013 -1072.120483
-44.276535 -1110.547852 -941.117249
208.003067 -277.504211 -1104.676880
363.847046 -429.094086 -1028.938843
193.959396 -252.986710 -1101.739990
-70.744179 -652.738342 -834.775696
-252.357162 -924.335876 -1129.055420
317.645721 -168.344498 -1063.233398
176.646973 -540.050964 -1134.307983
-122.336266 -565.719177 -890.520691
11.071192 -540.607910 -997.289185
-31.828465 -564.539307 -919.391418
-179.319046 -1036.406738 -986.503296
235.990097 -1082.244385 -1143.311279
212.708023 -659.447144 -888.050720
106.321281 -966.789917 -1184.972412
151.823456 -1003.521912 -1168.017578
310.592010 -331.836151 -1049.638916
107.701653 -290.789185 -1142.287964
256.503845 -221.508957 -1063.245483
178.150299 -278.210327 -1102.220825
206.866653 -1091.761108 -1105.984619
18.989576 -531.341309 -1016.004333
294.736877 -272.377563 -1064.140381
42.737831 -1105.553589 -999.497253
176.515228 -715.580139 -820.058777
258.324921 -451.378235 -1109.966553
256.640472 -348.751953 -1094.584839
-242.578888 -866.311401 -1242.458740
-276.048676 -880.418152 -1208.843750
118.409348 -357.418213 -1142.988892
42.163551 -1113.237793 -996.478821
113.409042 -633.852051 -899.136719
323.748322 -158.662704 -1044.882446
227.414413 -171.195435 -1085.537598
189.145111 -339.517151 -1115.652710
110.299530 -1081.056641 -1089.412598
165.093170 -989.034241 -1205.456787
-234.971390 -919.184082 -1151.174072
306.115265 -302.942505 -1052.133301
319.132721 -290.023041 -1060.628418
361.861664 -485.193207 -1053.815918
-194.047394 -938.215820 -1170.720093
232.665146 -585.444763 -1063.814941
143.058090 -657.597900 -848.879578
28.034151 -1006.927307 -1158.429932
-9.429516 -547.753296 -999.746582
59.743847 -555.718689 -992.458435
263.269318 -1127.452881 -1108.623169
-98.020546 -1066.847412 -971.624207
-33.052402 -1104.379395 -952.443298
-7.810369 -568.500610 -930.479492
336.266815 -240.721802 -1038.036743
5.802861 -946.486816 -1078.197998
-7.785811 -1017.361450 -1113.428589
-58.077099 -530.210876 -997.314209
228.734650 -1039.113403 -1169.411743
-4.178402 -1040.512451 -1067.371216
13.289044 -511.911743 -1053.926270
259.794067 -421.870148 -1111.456421
29.918863 -638.787048 -835.777100
414.664215 -271.037567 -992.111511
36.605427 -540.786621 -1082.920044
137.578476 -695.289490 -801.040894
-110.697151 -1011.989868 -1036.062744
30.746531 -663.529785 -819.065857
309.230865 -643.573059 -987.708496
10.763356 -801.176636 -1095.954590
-1.962765 -888.778992 -1153.489014
-113.475067 -879.175964 -1340.175049
186.836227 -964.813477 -1300.721924
-160.048477 -962.874817 -1144.853882
324.430664 -356.853149 -1039.462524
282.231964 -326.549072 -1057.732788
-5.623290 -562.704346 -936.500732
-228.832581 -882.582458 -1203.600830
287.632385 -309.887177 -1052.032471
9.850857 -513.658142 -1018.550415
-183.916214 -950.512329 -1151.230713
411.154510 -354.995850 -992.903564
133.891556 -945.376221 -1245.012817
48.711777 -600.118225 -896.536011
187.060226 -908.112976 -1381.152344
137.792526 -928.948486 -1366.454102
159.249268 -602.158997 -1020.687195
200.207199 -586.958862 -1025.383545
205.911636 -988.063599 -1357.602173
150.269333 -1082.597290 -1101.506958
347.084930 -293.462158 -1019.672791
-35.269638 -1101.703247 -980.569580
141.536087 -247.942734 -1107.715698
-154.480362 -914.623230 -1234.412109
196.443146 -740.821106 -813.822449
141.816696 -674.939758 -817.105774
-5.880381 -634.031738 -830.957886
-133.436295 -1038.391602 -986.214111
183.625534 -993.606873 -1136.610352
212.129227 -1064.076538 -1109.044312
113.604073 -1055.027100 -1150.237305
307.575226 -422.888550 -1083.697754
155.139252 -994.589844 -1147.129272
119.380142 -538.534790 -1078.898926
-224.314346 -855.452820 -1178.495483
179.029572 -1073.016846 -1112.275757
292.024292 -418.147034 -1072.548706
-241.234192 -966.377258 -1080.697998
-91.359428 -597.025818 -878.689392
301.408722 -449.438995 -1079.811279
241.816223 -900.020081 -1322.304688
297.736145 -442.684540 -1093.467163
-49.920643 -561.337830 -920.948792
374.039398 -223.225510 -1030.115356
133.455185 -274.795532 -1119.986450
138.124146 -599.123840 -962.178406
-28.506430 -1102.900024 -957.338440
85.605545 -665.701172 -841.177063
64.827400 -600.140503 -881.014404
-55.164307 -887.582336 -1273.597656
-191.274887 -952.970825 -1153.403564
197.288864 -967.395813 -1316.643188
-148.338989 -953.773682 -1195.698608
197.874466 -1029.435669 -1106.200195
-11.999614 -860.441772 -1334.153687
165.843185 -272.063477 -1118.089355
63.946198 -539.757324 -1038.085815
81.540504 -862.572876 -1210.268555
-140.699692 -1003.193604 -1086.997070
159.119263 -668.032959 -852.459595
56.678314 -1121.586792 -973.229858
368.372681 -394.917236 -1040.873657
51.331577 -1120.665039 -969.550110
-41.386803 -1017.796326 -1014.186584
385.720093 -343.773987 -1019.911255
58.888714 -1069.328003 -1060.738403
180.521881 -1046.476563 -1133.566895
-133.193390 -964.465942 -1123.446167
-82.508484 -1051.206299 -988.410767
-144.326843 -1029.375366 -1064.805054
-112.935692 -1052.523438 -977.484741
-71.139450 -875.251099 -1182.932861
76.179504 -612.475891 -875.655151
246.532242 -1064.153564 -1172.831665
-48.742725 -883.577881 -1265.568237
182.002319 -652.946594 -879.557068
59.484924 -627.781677 -845.839661
178.965103 -656.840942 -855.536133
153.765503 -570.489258 -1022.855896
153.096207 -1113.114990 -1044.994141
130.871964 -972.425903 -1134.067017
46.665802 -1026.990967 -1175.620239
376.844116 -456.222443 -1047.992432
164.614120 -1020.988342 -1234.385254
54.253746 -1011.462280 -1206.369873
208.300507 -1011.007751 -1141.789795
-220.976486 -864.675171 -1236.494141
-4.653163 -653.251892 -825.387878
94.737892 -1052.607300 -1099.966919
157.504684 -393.804016 -1141.643188
170.418747 -582.331421 -1024.617065
38.970985 -469.960999 -1122.366455
-75.154510 -938.579285 -1216.066528
221.992004 -915.258118 -1351.292114
152.397232 -701.247681 -801.831055
-140.094879 -1049.944336 -962.355896
78.833847 -636.752197 -835.260010
68.551788 -1017.521423 -1174.308716
91.532631 -707.206482 -791.723145
398.175964 -312.321777 -995.617126
-5.407100 -667.783142 -829.735718
84.333771 -472.662750 -1151.153687
90.392464 -1134.220459 -996.710449
327.397522 -394.315430 -1053.830078
138.925461 -1016.911804 -1180.941162
-94.135597 -1069.450562 -981.194885
374.391907 -471.213745 -1065.036499
221.946915 -369.129852 -1113.752563
369.800781 -485.022552 -1045.535034
67.390099 -1031.266479 -1147.988403
392.220581 -308.925537 -1011.691895
307.952240 -407.811188 -1055.446167
-228.979889 -962.088684 -1152.107788
350.293640 -396.656403 -1046.033691
183.251770 -988.597290 -1240.426758
219.620163 -997.487610 -1245.243042
128.094666 -546.407532 -1069.009644
300.570953 -670.140808 -901.137085
102.827324 -562.527954 -1006.657532
334.723785 -223.084335 -1023.326233
126.545761 -1074.041016 -1117.333374
203.198563 -553.638306 -1089.681152
-112.971725 -1073.904297 -931.961487
113.833282 -1092.512573 -1095.091919
114.117035 -274.131012 -1137.163330
411.784576 -433.571899 -997.048584
140.547623 -1062.694946 -1142.530884
-62.819427 -538.786072 -959.196045
71.174789 -595.270874 -917.276978
148.897263 -666.168030 -868.751404
12.005632 -998.743225 -1162.198975
-95.332397 -859.147217 -1209.253296
235.902725 -292.984924 -1103.513916
113.371155 -1063.840942 -1088.658081
196.518463 -655.947998 -914.624146
287.510834 -237.236465 -1064.342163
37.675827 -997.028625 -1169.413574
-78.004623 -975.500977 -1050.457764
255.456284 -884.714233 -1498.922485
183.221191 -1022.318848 -1159.274048
263.809723 -265.555359 -1071.566406
197.382492 -705.887451 -829.207642
-83.896286 -945.016174 -1209.761230
275.703217 -253.295120 -1058.487061
-192.182251 -854.564392 -1184.960693
254.098236 -681.909851 -894.641479
-187.539047 -1001.720398 -1051.063843
205.068100 -358.421143 -1125.284546
-55.828384 -957.451538 -983.470032
32.486504 -606.435669 -891.494019
357.057098 -227.528580 -1023.970947
-81.375992 -550.792664 -926.237793
189.581329 -1015.573303 -1269.385498
55.250118 -500.586700 -1077.695557
203.672089 -284.470551 -1118.029297
105.384842 -1109.247192 -1055.511719
432.831329 -298.467987 -1006.012207
17.843605 -595.729980 -889.578125
27.821547 -486.956818 -1157.351318
147.455292 -686.911926 -843.087952
101.722389 -517.931702 -1142.381470
405.612305 -389.296509 -1009.714661
-152.637451 -1040.887207 -989.108032
369.191986 -503.656250 -1030.437988
43.133369 -584.250549 -909.968933
5.362391 -609.263611 -887.984253
249.989624 -661.331116 -934.700623
293.768127 -326.157135 -1068.032715
88.209465 -587.062744 -1007.218872
189.307846 -1135.447632 -1041.524414
0.867493 -868.076477 -1077.270752
-74.591858 -507.142120 -1032.004517
-23.288694 -521.454712 -978.571960
-243.032318 -889.545288 -1181.375000
-137.047180 -860.319641 -1285.457153
-249.655716 -881.425232 -1188.482300
15.853196 -632.274109 -829.499451
-229.304169 -925.450012 -1175.003052
218.671448 -282.963745 -1087.749146
-68.382912 -957.215942 -1227.231934
58.280514 -680.107117 -807.643982
150.958694 -1014.380249 -1132.244873
19.894636 -1043.673828 -1112.404419
249.400620 -578.451294 -1080.894653
-75.997162 -968.658081 -1016.622681
226.410645 -214.373749 -1077.072998
-13.078202 -663.394043 -838.171021
370.657043 -358.439880 -1027.923340
-191.866486 -908.129517 -1225.663818
158.952774 -1016.973694 -1285.066040
155.779007 -985.691284 -1205.148193
-67.764282 -510.722076 -1013.926758
218.458435 -368.970093 -1100.091309
-191.700912 -976.557617 -1151.126709
-253.233826 -950.523804 -1111.004028
5.273686 -1002.507080 -1140.421753
123.576157 -320.581482 -1143.647217
375.637634 -334.999268 -1015.985901
176.578690 -238.677231 -1106.370850
258.083099 -180.286224 -1060.970947
214.108719 -666.029480 -885.158020
169.050858 -271.451813 -1108.912964
366.612213 -276.961639 -1020.167847
119.018478 -584.388489 -994.460999
264.912933 -406.762085 -1080.036743
-168.119278 -881.585022 -1225.318604
131.047623 -608.988586 -926.143250
93.364616 -676.758118 -808.888062
3.619391 -586.569092 -952.423218
35.871490 -476.220154 -1109.972046
255.997711 -352.838562 -1075.792969
242.963638 -700.378479 -858.396057
198.783691 -698.378723 -820.392334
196.472427 -735.127563 -835.365112
229.005112 -240.545715 -1088.253418
-59.487202 -585.179260 -879.043701
-90.771896 -1028.226685 -1006.274292
142.743027 -1074.951416 -1127.452026
-140.725082 -1023.260620 -1048.578857
255.079086 -938.802185 -1399.844604
-60.456398 -603.671326 -852.210754
376.050018 -450.524384 -1038.901855
-147.452057 -941.269653 -1194.257690
382.390717 -294.231140 -1006.506958
115.028214 -963.423279 -1206.274414
218.331924 -617.563843 -944.636414
-204.191544 -846.465088 -1338.367920
35.224152 -509.427917 -1080.260498
-6.270979 -901.859558 -1142.015015
11.963364 -571.442932 -940.792908
179.023682 -929.551514 -1362.291992
-70.375160 -1068.484375 -965.406067
160.005341 -982.090271 -1286.968628
417.138275 -396.384460 -994.629211
380.992462 -241.118011 -1017.347229
202.485291 -528.645386 -1152.700073
168.956024 -658.586304 -847.817505
397.094513 -303.407776 -996.098694
356.065277 -417.478302 -1045.951050
219.457367 -705.323547 -853.054077
311.585144 -421.802155 -1069.602783
-192.203873 -959.718811 -1156.879883
203.553040 -653.686340 -883.770508
-46.177219 -518.724365 -1000.265686
181.242188 -217.876251 -1091.634766
-182.646683 -944.449585 -1166.714111
-214.436554 -999.383667 -1068.647949
69.633987 -710.135986 -790.796753
-26.586382 -1059.968506 -1033.351929
193.540329 -1105.171631 -1073.835693
433.480408 -344.311493 -1002.715820
310.101227 -428.776611 -1057.593384
-105.703278 -1014.829346 -978.237671
189.889603 -1099.424072 -1063.322266
358.920654 -235.869034 -1025.498291
-1.511832 -962.147400 -1192.206787
-216.080597 -875.572815 -1227.918579
441.089020 -261.631592 -1003.349976
-239.352539 -950.740662 -1120.738647
71.176262 -1049.520630 -1130.576782
-135.133057 -968.382019 -1113.055908
32.799614 -675.290833 -826.466614
1.162928 -519.610901 -1042.435669
329.476410 -404.544403 -1048.922607
203.175598 -593.515869 -1018.531067
2.960228 -495.747803 -1080.850586
-180.198425 -976.599792 -1082.568726
387.734680 -276.859161 -1003.817078
122.607368 -701.072021 -801.387207
306.041626 -484.482300 -1085.119019
-144.615189 -978.592163 -1092.807251
-60.854382 -1097.309448 -949.450073
16.154675 -1036.544922 -1084.205322
157.235840 -551.794495 -1105.146973
-51.500992 -597.271545 -866.754822
246.196930 -458.539856 -1093.293579
-2.520924 -1068.921753 -1081.419556
251.668671 -1087.775635 -1130.657715
-82.652771 -988.084595 -1065.319580
136.453018 -575.898254 -1041.857300
206.197906 -666.799316 -898.173157
124.230064 -389.406830 -1142.799194
-129.876129 -869.046570 -1363.130249
160.305649 -987.379089 -1171.702637
30.586626 -1077.419434 -1074.452271
-155.401367 -905.051514 -1237.733398
-259.034576 -925.115784 -1150.788574
166.926529 -575.283081 -1064.438110
219.281250 -1111.379028 -1073.172119
-63.027424 -573.710388 -897.488220
-47.021004 -606.243225 -861.653137
-63.899437 -982.234314 -1022.218018
73.329384 -949.621155 -1255.654663
405.257294 -445.802399 -1028.574707
246.244537 -569.884583 -1149.281006
91.256355 -928.412537 -1235.460327
-188.701920 -860.450500 -1336.518921
33.528790 -510.442291 -1042.922607
-139.325821 -968.162598 -1159.282837
238.446106 -650.277161 -912.033325
265.422150 -257.874603 -1064.951294
102.019241 -949.584961 -1316.350342
123.769997 -316.782440 -1131.735962
3.547080 -584.271790 -913.906372
-52.204239 -1091.356567 -933.125977
105.019691 -730.679077 -800.281006
105.460518 -1080.059692 -1111.564575
157.398880 -1070.944092 -1125.842896
-80.405670 -574.657532 -925.796265
-78.136169 -1042.697510 -1008.906067
9.202097 -1068.930176 -1052.966797
-73.578331 -566.886963 -893.896301
-24.085485 -1027.604614 -1022.266296
-169.370132 -926.490845 -1200.617188
63.898335 -528.203979 -1067.434082
206.915070 -671.824585 -857.827209
-43.012486 -1070.916870 -1007.533630
388.422577 -224.315491 -1018.123352
325.431519 -395.563843 -1045.791504
11.979445 -1111.531372 -973.059509
-223.559097 -854.603882 -1242.863159
262.433899 -367.628967 -1077.052734
233.517868 -370.994781 -1096.690796
231.437057 -373.147369 -1090.451416
46.905258 -579.417969 -967.678223
-220.828064 -898.195435 -1213.414185
-5.273468 -566.951782 -900.823120
145.070221 -696.791504 -830.429810
278.368256 -391.757599 -1094.062500
259.822266 -209.195328 -1073.824829
393.599670 -237.059235 -1012.916382
156.186768 -363.959808 -1129.817383
282.962616 -956.236511 -1405.702148
73.812073 -476.354736 -1131.164795
17.224279 -1118.207153 -986.471191
-50.167183 -1060.323608 -1001.246765
31.086246 -533.497559 -1051.561768
-250.264709 -916.384216 -1173.193237
155.111084 -236.489212 -1126.171021
126.209053 -959.312683 -1220.869141
288.611664 -958.684509 -1445.225342
193.989090 -184.609711 -1078.175049
-206.479263 -883.766235 -1236.138428
113.843933 -1092.186646 -1068.126343
72.241753 -1117.135010 -990.059082
154.353470 -949.966064 -1271.723389
275.143890 -663.225708 -867.471680
-49.977081 -578.523254 -924.565247
166.814743 -321.373322 -1127.037720
29.451145 -996.440308 -1167.616943
101.165802 -638.027100 -865.945618
271.597992 -873.737183 -1530.351929
147.546188 -650.277832 -849.618896
333.267151 -330.500366 -1035.903687
197.529297 -1062.155029 -1112.439331
208.747726 -1006.371033 -1245.947754
336.659485 -216.784180 -1027.461182
398.948486 -244.991730 -1015.141907
262.848450 -151.877563 -1062.118774
344.569550 -922.039856 -1520.190308
185.903168 -224.757782 -1102.792725
371.346252 -293.632324 -1019.747253
347.690460 -273.201019 -1022.865173
-17.741644 -1054.300903 -1067.433960
428.653839 -258.098969 -996.938843
-263.569519 -923.271423 -1186.509644
-201.065933 -967.153076 -1117.024902
228.830811 -303.438629 -1089.633545
332.030182 -323.823608 -1042.808472
287.789368 -181.110565 -1050.880981
231.958466 -865.789307 -1467.829224
231.478043 -129.803207 -1072.432007
153.724182 -1054.158936 -1135.259644
212.610977 -661.129639 -863.300598
-203.932373 -968.687012 -1101.940552
-32.665009 -947.142944 -1123.291504
287.333313 -210.890274 -1050.831665
316.037292 -376.705078 -1058.561768
213.425613 -622.055054 -933.061523
-121.312653 -1037.698364 -1050.510620
-193.458084 -949.139771 -1125.880859
-55.300491 -961.779846 -1091.412109
-65.168182 -551.017944 -965.658936
188.078140 -1096.638672 -1106.908325
235.861694 -258.717957 -1090.243408
-59.752495 -1076.657227 -980.068115
178.737198 -323.894745 -1110.900757
69.599121 -589.626587 -930.424744
-257.592834 -875.062927 -1174.268188
-210.372604 -953.848511 -1135.371460
-218.483368 -842.538696 -1332.540527
44.947933 -689.177307 -793.415039
-127.687675 -1000.362976 -1082.087036
-101.296982 -541.047119 -937.177856
-209.070404 -834.304932 -1318.046997
-137.018051 -1042.322144 -1004.900696
207.527130 -205.901413 -1094.647095
216.006790 -305.024506 -1112.958618
-186.658188 -997.109680 -1059.017090
13.870124 -627.166809 -877.751465
-72.206139 -1044.286865 -1013.496643
237.123398 -241.297409 -1085.356323
385.101868 -295.903687 -1005.783508
386.892700 -293.137054 -1014.155823
96.690475 -1087.649780 -1067.591919
245.321747 -1064.221313 -1152.008423
299.321869 -250.519180 -1046.338989
-54.788559 -930.365173 -1187.510254
-9.837256 -880.262817 -1057.906128
157.300751 -1058.191772 -1116.057861
6.884217 -1093.662598 -1020.566895
-35.009094 -282.097595 -1017.295593
325.930664 -402.613373 -1056.488037
77.271736 -665.968140 -821.764954
191.217056 -539.304077 -1126.021362
-46.359158 -1060.101929 -1020.908813
302.793579 -328.656799 -1052.838501
187.032867 -928.954834 -1334.076050
149.974716 -655.050354 -843.440125
299.273956 -231.456223 -1037.546509
217.053711 -374.972961 -1120.192627
305.099182 -249.284607 -1043.010742
182.515884 -938.711731 -1320.362061
-289.031372 -897.278503 -1175.074219
67.379616 -609.141846 -922.702881
216.864777 -677.360779 -856.743774
133.371216 -610.992676 -944.283142
118.019714 -643.076172 -905.301819
226.514557 -374.914001 -1091.764282
413.425140 -260.441528 -1010.841370
-50.433651 -885.732178 -1298.220581
269.825470 -324.190430 -1081.934082
131.221985 -249.474335 -1117.494995
-115.268669 -868.380066 -1362.957520
6.429075 -538.098999 -1040.601440
371.946930 -238.154724 -1025.077637
126.857559 -1131.156982 -1025.794434
265.231567 -588.094543 -1056.917603
331.946442 -327.047455 -1039.542603
128.670349 -642.069214 -847.334778
-95.406456 -1047.409912 -950.558838
181.548416 -597.764893 -993.326172
176.052902 -642.850952 -944.643250
-247.525024 -871.797119 -1229.449829
197.445038 -316.467712 -1098.890259
250.814804 -176.666718 -1064.655029
228.182663 -936.426880 -1360.864258
-84.032784 -992.566711 -1030.050171
152.416031 -648.908142 -870.912598
104.313454 -638.871216 -864.012756
-128.960327 -996.491821 -1095.590210
144.925674 -646.583923 -866.891052
-42.428162 -1076.126343 -1033.834839
222.191208 -1037.942017 -1121.446655
229.107605 -881.264221 -1552.375488
-13.860014 -1061.477417 -1072.495117
-145.513123 -1079.163086 -965.432312
90.847076 -1078.693604 -1052.633667
154.121704 -1102.936768 -1069.034912
-154.357056 -851.337891 -1241.905762
382.927155 -348.110016 -1012.914734
-31.962231 -530.140442 -1053.776001
-78.283302 -952.049561 -1103.969238
330.671173 -207.604111 -1045.170898
242.107285 -418.928467 -1090.329712
15.103983 -615.489624 -857.447998
84.556732 -1088.270752 -1089.937500
191.568756 -594.044189 -974.034485
185.460175 -648.374451 -874.529907
-132.904907 -986.502808 -1127.088135
408.308563 -346.500916 -1009.227417
138.332870 -277.655701 -1118.391235
356.800354 -295.303802 -1030.809082
-122.876358 -982.138672 -1133.193237
274.563538 -223.257141 -1063.287231
-92.069206 -957.017822 -1113.484131
112.760956 -556.281067 -1031.681152
286.322693 -912.528320 -1469.196655
-203.811493 -926.445190 -1186.325928
370.162720 -318.048828 -1014.679993
257.218445 -438.199646 -1119.409058
-65.446976 -1090.204224 -961.695862
163.791061 -985.441528 -1121.382813
193.095444 -729.064392 -811.198120
-139.935913 -977.723755 -1133.388184
231.469315 -206.255051 -1067.434937
57.723133 -1100.294556 -1054.765259
163.062668 -317.471283 -1118.069946
193.583862 -1084.294800 -1118.924683
-145.597656 -1065.693481 -990.664551
-187.492401 -1031.465820 -1003.217712
173.016403 -656.575256 -853.430481
100.463715 -913.247986 -1341.372681
143.776520 -378.960693 -1140.552490
194.338226 -1000.570496 -1251.691650
142.516251 -653.500305 -875.818481
22.386400 -645.333374 -823.150085
132.448318 -987.694336 -1160.212891
-244.331161 -918.850586 -1147.470947
208.051407 -1026.901611 -1201.370483
69.117325 -610.803711 -865.652649
92.876228 -1103.293945 -998.597534
331.647797 -300.328918 -1040.475220
291.974579 -640.113281 -952.276062
305.895508 -406.906006 -1059.871216
-91.365326 -820.255920 -1427.154663
-85.381653 -894.160950 -1218.844604
59.416824 -1048.937378 -1145.883911
140.987198 -509.330688 -1148.181030
319.335693 -657.492432 -960.243286
129.261292 -313.496216 -1133.202148
250.343918 -667.897461 -861.746094
224.356873 -251.375168 -1084.243042
172.902527 -268.537659 -1120.536743
56.134823 -594.141357 -886.812073
-156.143433 -993.713379 -1130.329102
-18.588196 -520.200928 -1038.727661
83.991646 -518.905396 -1155.461548
-46.366486 -902.108093 -1206.310791
-58.933304 -618.588989 -851.851196
138.003937 -580.658386 -1038.193115
4.858682 -1073.627075 -1072.793945
37.068878 -635.296448 -828.916138
385.315430 -250.651031 -1004.448120
237.876129 -234.126389 -1084.121338
-113.615448 -878.027039 -1188.563232
172.355743 -1103.449585 -1080.500244
-145.108383 -969.234436 -1111.470093
-220.607224 -958.708252 -1113.116211
170.208023 -1121.476563 -1046.854370
315.315094 -424.706665 -1079.435791
-49.592087 -963.705933 -1097.319702
-173.226730 -1041.660889 -993.582886
98.545784 -563.255127 -1014.927917
322.462677 -437.287262 -1074.043579
312.539612 -623.408691 -1024.403442
122.859039 -272.475800 -1125.988770
137.393112 -949.577271 -1345.497681
97.084068 -625.184204 -887.368408
345.962982 -293.081177 -1030.426758
-37.612923 -621.626221 -850.617004
124.670555 -648.695984 -839.373962
-200.897644 -956.472656 -1156.459961
271.952545 -345.643799 -1073.446289
-142.497452 -1062.562012 -959.309875
13.997790 -1058.667969 -1105.149048
110.637154 -949.830566 -1210.731812
288.699310 -152.013382 -1082.653442
354.141968 -925.869263 -1510.811279
-154.007446 -908.473694 -1207.186279
151.242691 -1092.562134 -1084.893677
278.236542 -317.099854 -1059.963745
112.036026 -702.765076 -805.352295
-37.243374 -1082.759155 -1013.419189
203.103317 -251.719131 -1101.613647
85.760803 -916.669373 -1164.814209
328.749969 -190.621674 -1022.245300
277.430878 -1134.986206 -1093.269287
-83.685577 -842.313965 -1441.345947
76.478424 -989.758057 -1210.432251
7.067175 -1056.225708 -1067.346191
112.739067 -958.430603 -1175.404297
115.633797 -947.315491 -1212.729126
49.898182 -492.207367 -1143.275635
-14.385369 -1093.749023 -993.459656
171.334229 -223.748428 -1096.934082
218.397491 -712.473022 -853.014465
258.818298 -366.076172 -1087.805542
37.779400 -1038.293091 -1142.677124
203.848267 -559.882813 -1075.873779
61.724606 -1105.454102 -1010.592712
89.275208 -1064.882446 -1113.108887
-249.262344 -953.457947 -1071.260376
383.759369 -436.238770 -1027.523438
237.088974 -362.395020 -1110.320801
67.752136 -1111.556641 -1030.067871
45.604404 -609.477539 -879.644653
42.101799 -1080.317505 -1051.578003
249.606812 -382.910706 -1108.649414
396.641541 -327.905609 -1015.590698
369.970612 -422.052826 -1038.018799
144.717331 -722.654297 -801.588928
-9.101625 -601.663757 -868.501160
-87.173653 -1017.111267 -1100.453491
-81.896072 -544.810791 -914.436584
-102.990417 -828.613098 -1145.237183
-279.972778 -889.865051 -1181.820190
248.238159 -213.599304 -1077.080200
71.218445 -469.421448 -1142.066284
54.103642 -665.980164 -810.366882
86.958336 -340.109467 -1162.623047
295.301270 -325.641602 -1077.267334
16.497952 -1044.054443 -1145.831665
-181.220917 -874.611267 -1231.032715
406.166260 -351.752563 -996.602966
-86.644073 -986.823364 -1139.567017
-84.080360 -565.928833 -899.769287
-56.388226 -547.294983 -948.769226
38.050430 -876.008240 -1140.537598
-177.452209 -1020.021729 -1062.046997
-201.705780 -901.946594 -1222.741943
144.457932 -624.777344 -912.520935
199.689835 -579.817566 -1058.283325
87.283165 -1102.574829 -1061.856445
143.186890 -388.380096 -1134.100708
-154.824341 -864.066162 -1208.783936
-271.404572 -874.275024 -1183.030640
19.498690 -1107.843140 -992.611023
101.128021 -592.732788 -923.684326
170.220673 -549.162537 -1061.709595
-9.184952 -1012.441833 -1151.838257
-32.817719 -588.099915 -863.045288
22.822863 -590.133423 -934.819153
212.094940 -646.660461 -936.867004
202.233749 -328.702087 -1098.850830
-265.529755 -928.806824 -1149.285278
-119.149658 -973.694275 -1184.668701
48.828300 -980.553894 -1213.426147
-130.325882 -576.851501 -906.264404
102.897469 -966.955688 -1192.925781
-135.603882 -1014.571472 -1058.190430
165.792542 -656.117554 -910.674377
144.193619 -303.519562 -1128.496216
243.620941 -391.514954 -1099.954712
332.613434 -362.243469 -1048.376953
51.471680 -849.514099 -1153.607666
-186.407532 -826.071655 -1158.367310
210.622894 -1128.728271 -1071.860229
-30.807911 -582.990295 -898.922668
-147.363525 -993.592407 -1101.380371
262.969727 -309.559021 -1066.285034
380.418060 -372.923096 -1031.367798
203.714691 -1141.657837 -1055.533936
-218.891953 -960.403748 -1114.352905
-173.438782 -1005.930908 -1029.278198
-45.911030 -536.631348 -974.610413
122.530396 -562.624512 -1087.178467
289.360626 -442.839386 -1084.261230
213.239975 -1097.431152 -1094.927734
382.406677 -355.465424 -1020.055603
86.791595 -900.781921 -1191.117065
127.153099 -560.452698 -1002.316345
213.336441 -445.395721 -1115.021240
-0.161892 -1036.118408 -1144.013916
171.319901 -835.427673 -1513.077271
-123.186394 -539.801697 -919.654968
62.899567 -607.360291 -891.559448
-141.293213 -1011.417358 -1055.184448
41.283150 -1050.610352 -1107.701660
181.384048 -1087.547729 -1112.751343
-236.453644 -889.839844 -1197.339111
233.663406 -680.197937 -869.808167
269.275909 -441.199188 -1080.808716
85.532104 -995.008423 -1168.896484
424.144196 -313.312317 -1005.799561
-161.496780 -1018.479797 -1008.751282
63.105087 -479.634888 -1156.639893
83.307770 -1130.122803 -1005.759766
-29.515320 -599.662720 -876.299927
422.814606 -304.937408 -1005.280762
266.359924 -266.514069 -1064.888184
368.127594 -415.508545 -1032.247070
126.265274 -1065.148315 -1130.461182
-114.549202 -1055.108765 -986.692871
337.459351 -448.894409 -1049.346436
196.810135 -387.747559 -1131.562378
187.327728 -280.201416 -1124.203125
-180.015289 -892.491943 -1221.813843
279.012268 -586.896912 -1075.431641
-99.675186 -868.308777 -1206.852783
-28.941734 -563.017334 -919.448059
186.944534 -1002.577881 -1135.275146
165.386307 -1039.159058 -1144.682983
-60.348190 -526.003967 -985.693298
-166.005341 -969.178711 -1157.276855
277.242981 -946.175232 -1373.696533
198.980911 -712.877380 -808.711487
-3.507157 -910.432373 -1208.120605
177.451324 -1126.932251 -1066.193726
-63.713436 -1068.104126 -1003.570129
168.754761 -386.984253 -1132.589478
30.833885 -1013.598816 -1181.105225
392.207947 -449.152954 -1040.285889
-145.770569 -1064.668335 -951.118652
267.979095 -639.789429 -963.392273
270.067078 -264.496399 -1076.976318
198.438995 -606.717896 -981.826599
-275.109741 -862.454712 -1237.036865
-134.052689 -1063.610229 -941.667175
97.234360 -1089.520752 -1092.504150
103.638153 -540.806458 -1096.018799
133.913193 -1080.637451 -1107.784668
-96.384865 -573.077332 -884.009216
241.264481 -585.847168 -1106.725342
154.561081 -741.916504 -813.658203
-47.594921 -507.572876 -1010.154602
112.987160 -662.570068 -846.425232
125.775085 -1128.403809 -1005.443176
-157.915497 -918.911194 -1223.760376
20.883648 -578.360046 -957.277710
187.246277 -326.227081 -1116.782593
421.554199 -365.668121 -999.171143
333.245544 -342.346497 -1047.526367
141.484360 -1066.862549 -1133.515625
107.561989 -1042.623535 -1140.815552
135.997253 -656.013977 -847.838928
-38.666702 -604.811951 -865.827148
148.352356 -929.776123 -1351.954956
66.345192 -537.262817 -1084.912476
103.161430 -985.869873 -1162.767700
-91.193275 -1079.798706 -959.994385
96.175591 -1091.256104 -1063.787720
85.343620 -1046.866577 -1105.569824
139.869522 -619.207520 -917.316284
103.092041 -1097.644775 -1068.566284
29.401268 -906.502625 -1101.092285
-136.429123 -833.864136 -1226.606445
380.699066 -340.894562 -1013.056763
-185.958679 -986.955688 -1078.623901
188.521591 -592.614136 -1036.931641
123.221275 -688.633850 -805.822876
56.653721 -600.439941 -902.650391
202.061371 -1106.964233 -1072.969482
154.513321 -555.832458 -1076.812500
387.504639 -289.603943 -1005.209045
128.741592 -693.021179 -810.269836
52.166756 -595.304504 -894.116760
162.800751 -638.505249 -892.215820
-68.230118 -865.712402 -1438.235840
56.671589 -696.877625 -801.256409
315.099243 -284.188599 -1047.597412
-201.793762 -851.466187 -1170.655029
288.492462 -281.641418 -1076.137451
-75.020912 -977.312134 -1204.370117
204.613876 -342.594177 -1111.517822
270.466461 -286.527710 -1070.469360
323.038086 -290.878387 -1038.505371
244.076141 -201.283371 -1063.998169
-118.259605 -1016.256836 -1050.905518
-175.457611 -910.561523 -1204.280151
134.901245 -1040.941406 -1170.357544
401.680115 -522.266907 -902.731873
27.138680 -548.871826 -994.887329
-180.142502 -1032.862915 -970.908875
146.951706 -310.953644 -1123.627808
27.233988 -1075.409912 -1061.142944
-4.907929 -860.026794 -1167.388306
28.577982 -675.627136 -790.821960
232.538406 -643.604797 -926.739441
8.039128 -653.093018 -841.543762
338.457458 -212.760590 -1030.498413
298.544952 -150.841461 -1053.932129
-136.385712 -921.185059 -1223.042603
-44.291157 -915.208679 -1235.527344
118.316437 -617.562622 -949.186523
269.350494 -204.833313 -1063.688965
172.499039 -518.060547 -1113.140137
124.262093 -965.022888 -1180.597412
17.080132 -1075.679932 -1014.314758
218.438873 -966.367310 -1333.026001
-83.013763 -969.996155 -1191.563232
291.773132 -341.731445 -1080.219727
68.687752 -672.197876 -808.499939
-286.726166 -829.099365 -1256.930420
-234.850143 -956.062439 -1113.098267
-61.430401 -940.298767 -1021.447998
-73.254486 -980.565002 -1163.705200
-4.670159 -549.330383 -968.418823
104.986328 -1123.721069 -996.207275
198.042511 -654.152466 -880.973938
68.234375 -582.779358 -958.453186
225.758804 -564.677246 -1078.668579
