ply
format ascii 1.0
element vertex 1392
property float x
property float y
property float z
end_header
790.003601 394.784149 -1312.864990
669.607666 144.735626 -1247.793701
558.123230 115.053703 -1381.989136
876.251221 654.716675 -1411.186279
372.157013 234.889420 -949.052063
535.840149 398.984589 -926.274292
803.317505 99.314003 -1271.220459
624.237671 286.255981 -867.906494
336.716492 216.380219 -990.348022
795.741333 164.412949 -1281.674316
576.818359 563.545959 -974.944336
537.513000 145.460236 -1380.161865
466.386200 656.380859 -884.529968
752.898743 85.375191 -1257.426514
794.447327 258.422455 -1314.844727
445.893127 245.652893 -1449.487549
814.315063 325.337708 -1245.154419
595.873230 495.579376 -951.199402
527.672729 282.133484 -1402.442261
740.846069 69.712112 -1272.617798
888.848816 259.125305 -1246.911499
344.394348 659.399048 -944.588013
488.910736 359.863434 -1467.797607
579.211121 264.119324 -882.760376
508.395752 698.949341 -738.315796
349.489349 525.585083 -1071.371094
887.557068 318.018860 -1249.956909
611.306396 366.193176 -889.471436
461.683685 571.519592 -1007.534119
408.732971 197.365234 -940.868225
453.754303 208.106659 -914.367615
831.252197 371.261017 -1280.333252
730.870422 323.299286 -1289.911743
527.837830 104.633003 -1372.270386
346.339844 707.553284 -842.175232
474.772339 650.565430 -886.056091
815.233154 124.437172 -1267.084473
866.259827 357.931061 -1288.613159
579.103638 559.094849 -957.598816
641.155029 624.617188 -748.696167
473.407288 719.547729 -709.802368
593.659912 517.077576 -961.564880
430.226349 655.519836 -925.696106
615.746643 230.490204 -1376.819702
463.779541 395.847076 -960.569885
523.399719 700.506897 -715.476013
612.127136 344.302216 -881.251587
719.455261 28.936665 -1275.244629
802.310425 285.529694 -1290.663208
489.280029 473.654175 -995.195923
388.528137 237.126724 -951.919067
596.643555 314.515564 -1404.156738
692.100769 43.972729 -1269.663208
641.641113 365.728882 -880.418518
593.065186 393.007050 -901.029175
579.554871 674.695740 -705.789612
415.139343 266.150177 -1463.647949
467.275970 168.530838 -1436.265381
355.339691 757.558044 -729.841614
781.976807 42.838074 -1252.947266
389.925232 437.938782 -1004.091492
514.600708 318.388916 -932.164673
650.414124 36.189728 -1294.086060
520.923950 665.888916 -815.052002
806.223999 69.228149 -1240.142700
574.889709 489.257019 -938.034302
382.876923 220.615738 -1462.099854
387.104736 236.519348 -1432.649048
609.383301 297.002106 -1413.572876
573.353882 436.199585 -918.432434
450.172211 659.018433 -913.311157
548.291504 665.363220 -760.246155
478.657745 418.346161 -948.228455
658.091919 283.488312 -1341.721313
506.748871 200.124954 -1411.678101
567.636658 148.311417 -1369.731201
847.827332 446.616638 -1332.059326
509.344513 564.562256 -1031.268921
312.425598 292.385010 -990.161621
625.796021 313.960297 -852.259888
567.354370 355.471619 -911.924072
586.619751 627.027893 -820.568787
597.083984 328.712219 -1287.308105
639.927063 53.178097 -1291.146240
567.813599 285.805908 -1404.598999
310.073975 742.991211 -817.034851
594.300049 82.100594 -1335.653564
681.361511 112.356506 -1302.905029
817.186707 304.190704 -1296.947998
739.645142 21.263460 -1265.727661
761.182373 104.071129 -1293.552856
551.365479 449.965942 -939.355957
569.834229 248.154251 -867.757324
535.111938 659.661011 -813.930908
451.691345 527.113770 -1024.548584
553.243958 725.914307 -664.338013
365.027100 256.948883 -974.987610
568.932434 99.847847 -1372.397827
577.771973 624.781494 -846.518921
841.897217 106.863716 -1237.443604
825.744873 159.006378 -1278.409546
443.488861 288.706604 -954.601196
758.695618 309.454987 -1349.997803
530.967590 381.936096 -921.358093
811.163208 105.636497 -1267.190063
658.523071 22.907539 -1280.469727
449.818390 256.671295 -926.872986
578.330444 224.127777 -873.035950
434.780762 528.396667 -1027.953491
424.468475 184.196564 -1438.710571
750.085388 297.370697 -1318.109375
646.082642 437.132446 -876.272522
841.195435 201.792908 -1286.881470
824.075623 277.446716 -1281.322754
563.051147 375.599609 -897.961609
902.946289 269.764679 -1255.203003
421.732788 296.426422 -941.607117
346.400452 250.916763 -999.645264
863.248779 146.362106 -1241.663086
359.825256 687.373596 -845.526245
448.707245 263.504761 -1390.823242
827.678894 139.074142 -1255.175537
743.650024 123.877960 -1302.001953
517.761108 699.517883 -723.984192
395.976685 335.006104 -964.975220
602.295593 281.868713 -872.915588
664.050049 351.586823 -830.821167
523.143127 755.672729 -653.559387
468.436768 700.668579 -747.565674
350.116882 484.312286 -1022.510620
370.213196 212.802124 -991.474182
872.819031 272.535400 -1277.803101
419.145325 232.545013 -1429.334717
481.921570 746.460144 -658.710815
797.809570 292.221558 -1288.594116
877.864258 392.042786 -1296.791260
620.365784 327.558319 -879.443787
685.635376 365.566010 -865.502502
322.700653 725.799927 -788.988098
836.155518 303.228607 -1229.785767
618.313477 107.171570 -1259.350586
366.853912 643.370422 -956.176697
589.541992 148.161606 -1366.122681
799.558533 57.049667 -1240.174927
616.094482 94.078430 -1334.653320
943.321228 215.822662 -1218.041382
598.165344 311.567078 -886.615479
484.322906 346.912231 -918.806885
842.659180 313.817261 -1233.046997
486.260895 570.614075 -1011.562866
485.165070 674.231689 -821.092224
444.212982 648.107239 -941.747620
954.278198 302.049286 -1237.932983
788.176880 192.553314 -1283.293823
341.637115 282.435791 -982.925171
638.217712 280.684601 -852.119568
538.884644 669.352783 -789.955322
479.059845 660.955383 -884.344666
402.007019 428.227905 -1018.035645
699.719238 13.531703 -1264.083984
515.608032 701.579895 -704.167664
770.059875 446.840118 -1330.482666
707.817017 454.390625 -1320.951294
471.177216 708.460938 -729.155945
565.143677 442.089264 -1459.132446
509.047455 302.224976 -904.203125
426.039246 227.593567 -925.500122
784.218811 272.698120 -1331.344971
547.723694 183.880539 -898.776001
483.949432 307.970642 -931.276917
462.806793 661.926453 -890.474121
343.856537 739.702759 -759.068176
393.001984 271.643799 -948.860352
487.781342 380.418365 -938.875061
352.044586 728.677856 -770.771973
378.437042 722.642212 -757.371826
436.919739 521.867371 -1036.057007
754.335510 270.276855 -1341.299805
547.887024 191.530807 -1392.249146
615.439880 392.280090 -894.494873
595.568237 215.155640 -1386.955322
398.768890 224.293198 -1441.854980
429.769135 211.160751 -941.052734
601.027466 44.711956 -1303.478271
579.501770 294.363251 -1389.352661
486.206238 688.124512 -755.993896
1015.371094 285.499939 -1208.083374
603.286926 616.514648 -849.582458
354.112305 792.422485 -712.873413
219.202332 379.167297 -931.163513
404.032074 467.499542 -1020.090271
734.574707 375.195160 -1289.518555
665.881775 29.816080 -1292.144775
460.075226 662.359863 -846.231689
760.192993 176.559479 -1315.107788
456.683380 646.956726 -937.777527
314.984772 233.313629 -1003.104797
715.890259 -2.064599 -1253.901489
331.287170 268.274231 -977.322083
757.177979 131.203232 -1268.704224
616.932312 172.176025 -1361.714600
671.451660 604.919189 -800.992188
679.705383 370.072113 -838.391907
656.589050 609.445740 -816.042786
613.093994 286.144257 -879.276428
420.046814 689.262146 -849.851379
546.415527 519.402039 -975.040039
541.585266 649.345764 -839.642761
664.104309 307.742950 -854.425720
611.063599 647.745605 -813.339539
579.170166 372.298584 -893.453613
688.120789 92.352882 -1263.547119
369.947906 668.357300 -903.830444
333.236633 272.630890 -983.044739
671.314758 55.427311 -1279.867554
614.285156 291.789032 -1188.838379
627.811462 360.680481 -1249.322266
515.774292 510.006165 -966.132690
552.301453 233.405731 -882.885925
753.737183 140.742447 -1291.761841
513.571045 367.264771 -946.020874
730.453125 34.711563 -1261.597290
471.550232 290.999878 -919.603943
556.501160 705.871399 -675.556702
739.363098 272.688660 -1321.486694
518.463440 691.193604 -750.571838
824.419189 301.889313 -1223.105957
623.115784 73.535034 -1295.293823
571.095947 222.747620 -866.942078
903.145447 279.103485 -1252.408081
959.871338 211.162811 -1232.564209
478.376007 268.320313 -921.062622
585.483521 634.587891 -855.633667
323.559540 671.016235 -919.585144
512.168518 136.195953 -1413.786377
587.262512 211.153748 -891.680176
557.686829 362.127686 -918.536743
405.881042 277.059143 -943.609497
546.565552 205.598618 -1414.996948
584.005432 645.893677 -792.117981
423.943695 232.876282 -1410.574829
506.069946 704.458496 -706.499512
338.256287 407.937714 -1020.424377
532.754517 682.147522 -756.464783
551.886780 701.116089 -696.805176
574.209167 329.787903 -892.994629
679.205688 394.134644 -868.647705
442.591125 295.779724 -919.850342
967.286743 249.952988 -1237.849121
401.983093 229.924744 -1420.752197
561.921692 143.521484 -1372.678955
297.690796 273.247681 -977.550720
464.314270 444.298401 -1005.514282
690.527283 355.180786 -864.895386
308.636780 260.228912 -973.552246
657.236389 93.970322 -1234.396851
600.403992 487.718567 -946.390808
603.664917 481.966522 -923.437561
395.130829 748.665039 -703.640869
746.051758 17.687073 -1262.272949
565.911987 676.973389 -733.160217
886.029175 523.269043 -1349.575439
557.677612 160.274323 -1378.430664
432.624847 672.101868 -872.446838
533.625488 681.644897 -730.501038
449.808533 660.091003 -898.297363
873.443420 367.514679 -1287.947632
699.265869 71.343193 -1284.781006
560.721619 702.215149 -678.674377
551.844055 67.529640 -1361.372437
425.683472 520.383667 -1005.538635
403.419128 487.707947 -1025.073364
622.954529 630.178467 -808.361328
369.513733 756.827087 -741.474060
427.065155 693.382629 -831.780518
549.771790 515.599915 -973.709900
444.447571 656.052124 -875.286133
637.920349 450.225281 -913.307678
609.820007 337.639252 -885.952454
416.674042 575.075562 -1043.099243
596.321838 433.423462 -906.357605
635.670776 616.152466 -804.181396
893.518982 615.902527 -1383.308838
429.430725 228.395050 -927.740051
532.724243 556.394043 -1017.183350
667.173035 220.940170 -1331.457886
644.887390 243.394501 -867.127686
823.055725 115.426331 -1236.171631
860.151123 264.300262 -1253.848145
791.605591 319.508728 -1320.745850
590.644592 427.453156 -1375.560425
604.835754 424.602936 -1419.135376
378.872528 429.246368 -993.543640
461.995605 264.659485 -1404.563110
661.398071 -1.151841 -1299.901367
559.597778 421.096161 -926.331970
621.183228 245.805542 -1386.116089
711.028992 221.102570 -1330.719238
385.032166 714.007446 -805.086914
739.499451 98.571892 -1291.899658
894.907349 288.891052 -1253.810059
695.738159 304.687073 -1322.049194
506.825439 678.716064 -819.665710
623.332092 152.620239 -1352.703003
796.973022 300.311676 -1233.843750
337.122345 749.933167 -749.474304
851.878784 650.258240 -1415.005737
537.869873 413.443878 -930.242004
584.469360 694.944885 -696.498779
636.975830 411.057190 -689.568054
865.642395 510.622650 -1342.087402
588.822021 112.475357 -1364.045410
692.133118 318.608459 -1246.708496
603.275208 659.242859 -760.644531
354.179810 288.227356 -991.830322
852.111938 313.987244 -1228.060913
486.341492 365.928009 -933.516479
484.232880 286.271301 -915.673889
755.189331 58.785213 -1260.914917
341.010956 337.466858 -979.348450
980.485474 303.693756 -1233.900391
613.680786 648.187866 -788.775818
464.098297 723.826294 -698.965027
518.668762 740.225281 -661.613831
611.359863 206.068665 -883.429993
655.666260 -9.190180 -1284.311279
757.732544 425.533783 -1354.801270
364.422089 318.283447 -990.280762
494.350586 312.718048 -1429.954712
393.334412 472.863190 -1024.959717
440.575958 385.516144 -963.690613
577.243347 39.271931 -1327.717407
469.809479 396.442749 -943.885681
589.766602 294.841553 -880.854187
477.214996 292.412506 -1426.434448
699.988464 377.810638 -1285.783813
704.038818 71.796242 -1270.935059
593.537781 433.137634 -922.383362
399.084534 554.365662 -1027.209229
412.894409 722.011963 -781.658142
652.553162 180.272003 -1320.661499
346.094391 461.045654 -1038.846924
483.586639 308.494934 -919.607849
818.413757 156.695206 -1275.389648
561.819458 187.650925 -885.954224
429.103973 736.926941 -711.557129
336.203674 744.920593 -748.675964
792.029846 311.001953 -1272.961670
427.597229 326.698578 -953.757629
445.173767 711.570374 -731.951782
847.504211 208.206696 -1253.967407
647.237061 -12.718611 -1269.172241
654.921326 249.025711 -846.431458
771.405518 167.486389 -1281.622192
672.176697 346.184448 -861.484802
532.914551 73.816261 -1359.071167
518.409729 703.005005 -702.500488
403.203583 369.390320 -1003.591125
523.564453 662.647766 -821.211914
597.899963 241.273224 -865.738464
579.422424 282.516235 -862.945801
665.697021 632.211548 -825.150146
860.235168 301.880035 -1268.018555
652.922607 141.181168 -1306.014771
902.714294 265.721375 -1218.808594
446.714600 263.051300 -943.187683
830.600464 133.204926 -1254.278809
529.005066 182.911407 -1397.261230
485.695618 204.561325 -1412.848999
645.126465 457.197449 -898.444519
561.589111 422.657806 -915.629150
630.385010 132.138641 -1351.163452
738.150635 242.831665 -1326.557007
569.207764 113.862175 -1357.170654
640.004700 398.413147 -1260.254395
805.066345 279.909790 -1311.722168
565.764465 310.066345 -889.416077
471.683472 715.731201 -720.687012
468.305023 697.831055 -770.450867
402.365997 645.814453 -952.280396
772.501221 192.258530 -1285.031738
732.272461 83.851280 -1281.239746
880.272461 544.210205 -1351.728027
343.430878 718.020874 -821.364502
615.061646 -21.822481 -1279.536987
607.525696 77.230377 -1326.099854
334.760986 710.204712 -841.639282
675.913818 387.205353 -879.065369
585.309937 665.177551 -750.411255
433.037384 412.737976 -974.093567
427.954926 747.384460 -684.648193
605.885986 243.843857 -857.789856
460.023834 185.460205 -1425.748047
770.963074 44.455025 -1257.119629
609.790283 211.763199 -1380.315430
365.580170 722.673462 -790.415649
478.535431 285.250824 -1405.385254
537.142822 638.685608 -880.270264
420.254883 668.477661 -890.936157
545.703857 146.554550 -1366.555664
524.646973 41.877323 -1340.121094
575.568726 207.813141 -1374.330200
614.968811 306.393372 -1315.442749
728.219177 235.473816 -1341.994995
521.304077 206.606323 -900.061462
567.556824 275.017822 -1176.685425
418.192749 720.504150 -759.119995
374.889557 651.915039 -954.079407
532.824951 674.296265 -749.376221
895.374878 260.995514 -1245.000122
369.600403 718.792358 -796.207336
295.449707 749.575134 -766.280029
403.845947 428.962952 -995.792297
769.222961 149.038162 -1303.686279
866.486267 252.151260 -1284.047363
648.158264 251.244019 -855.259827
611.304382 346.583282 -874.873291
315.055267 305.102814 -990.954712
568.115601 47.326996 -1334.369019
526.721680 245.540985 -885.044678
797.276001 105.247177 -1260.524414
836.362976 139.480240 -1254.581543
578.086060 401.842560 -909.684814
877.722351 152.247086 -1254.757690
826.162720 212.525558 -1296.205688
630.480530 139.305527 -1221.112915
642.261597 65.180893 -1332.158203
390.807037 685.052979 -854.760132
746.637451 336.118927 -1346.762085
423.026093 360.233917 -946.925659
611.380554 648.159973 -812.887573
446.052765 732.259399 -702.751526
379.110962 284.067200 -963.374023
514.211609 684.339050 -761.696594
589.979553 272.818024 -1380.539795
573.532043 130.114029 -1387.560547
503.479218 443.022797 -947.120117
303.229218 756.529785 -757.127747
342.864929 702.378784 -853.750549
978.104126 291.560333 -1237.980835
605.842651 442.624329 -912.131958
501.944794 215.595627 -898.793518
636.850708 168.763611 -1361.708496
686.951599 239.795975 -1346.216797
869.742065 187.826202 -1256.473999
430.819977 262.391541 -950.154236
501.752411 301.045044 -1409.596924
611.450806 164.940033 -1362.931519
604.130859 474.077271 -911.442810
434.551788 227.624817 -1413.024902
416.183929 649.855225 -924.353882
451.273682 315.878235 -1446.137939
626.651245 46.653614 -1303.515381
377.972076 409.722260 -1005.738586
453.986664 734.982361 -690.409485
441.738342 257.455414 -927.364319
510.987701 198.051285 -1395.124390
709.910522 147.190247 -1308.068115
520.693726 322.419464 -912.304504
477.517883 693.145874 -764.589844
815.046631 302.401947 -1265.731689
392.875793 745.365601 -760.983948
414.191223 224.474258 -1392.603760
486.375061 237.897644 -901.510315
745.434509 211.927521 -1328.109375
513.027405 167.818787 -1397.785522
518.888367 498.748627 -990.308533
637.864929 321.223755 -1391.763550
406.336029 248.559921 -1459.570923
583.966248 11.885761 -1314.539551
727.786682 24.823006 -1250.796509
541.253357 374.338745 -903.516235
483.117798 649.817871 -895.473572
556.195618 136.719315 -1373.150879
691.523865 11.418045 -1266.128052
274.412720 722.586243 -834.882935
807.738953 101.648415 -1260.239746
386.488312 659.947510 -907.032166
659.305847 361.203125 -861.606201
807.928467 69.262238 -1249.749023
711.047852 89.497002 -1293.821411
468.853821 317.387085 -941.382935
350.697693 518.160156 -1031.991699
283.081970 735.649353 -799.917053
567.923218 311.510864 -1330.280029
448.804382 667.707642 -864.370605
710.008301 144.856705 -1277.003540
741.818420 286.704926 -1340.472412
786.667358 330.747192 -1263.576050
485.711090 232.395050 -1387.310425
668.506897 175.642197 -1310.008911
559.727234 103.810944 -1356.813232
508.043274 62.027542 -1351.860596
861.853516 130.887604 -1248.684082
535.342834 117.675926 -1373.255493
653.874023 228.893066 -862.348022
459.592224 551.775574 -1016.753723
424.369720 349.327271 -963.075623
818.471558 389.906158 -1336.105591
498.732971 669.139282 -820.584290
524.710632 696.618286 -725.102234
565.902710 309.577515 -1406.277222
551.045837 483.037109 -937.816650
775.140686 230.526550 -1321.180420
423.351990 391.089783 -973.729187
540.619507 227.023651 -886.865540
699.085815 249.702332 -1322.642944
697.590515 16.960384 -1272.861572
390.248169 752.575012 -724.794128
555.493774 227.011749 -893.780823
551.318115 493.671783 -1521.415039
329.128357 762.306213 -714.289001
859.644592 156.669205 -1261.277466
616.126526 651.454651 -776.508972
468.861481 139.250809 -1409.434326
481.599701 526.250122 -1019.926453
304.650238 764.818176 -731.617065
614.348022 458.906647 -928.103088
818.780945 475.127045 -1330.169800
817.304382 500.849030 -1396.702026
509.175537 688.788818 -742.671570
701.711426 22.026045 -1254.324829
642.343018 249.835571 -859.720215
794.889038 135.528595 -1286.263550
760.584900 332.698792 -1327.607178
648.540344 94.115845 -1270.138550
467.057556 220.903503 -906.561646
630.723450 412.484619 -899.724182
752.000671 40.471230 -1239.448608
555.019348 278.480927 -877.329895
650.823669 29.727339 -1302.622437
881.019531 205.480698 -1258.373413
664.846436 326.170532 -852.595276
450.023224 497.435242 -987.554077
687.205200 102.396339 -1277.801025
863.380981 220.078156 -1270.402832
993.988892 307.281616 -1225.734863
326.043854 738.881836 -770.026917
718.804260 170.503464 -1317.026611
840.527100 319.456360 -1232.401611
485.301239 756.483459 -668.743103
528.137878 416.837219 -1475.966675
578.122009 551.362793 -968.038391
358.732666 690.862732 -847.366577
339.446838 766.077332 -724.169495
852.286011 143.584213 -1248.624390
314.232300 689.051392 -905.632690
742.461914 86.278091 -1262.382202
612.966248 290.608521 -1406.587524
755.623047 262.140472 -1321.915283
388.526978 396.810364 -978.337341
529.067749 454.317535 -967.195251
655.790466 468.578094 -652.743347
647.517517 270.096100 -856.589478
645.892334 10.257117 -1287.444702
599.196838 105.532310 -1341.751221
609.562012 577.449524 -978.308594
229.940598 331.397339 -960.376648
369.305969 741.114563 -760.717468
399.102844 260.152100 -944.322083
789.407410 117.767822 -1284.814697
368.652008 253.067322 -957.305115
793.438599 129.014969 -1254.030762
652.419922 342.106018 -877.466980
469.887695 120.096756 -1385.908325
450.785095 335.494507 -1460.443481
431.897034 259.662567 -928.248962
323.379730 315.156036 -995.193237
375.558838 699.856384 -820.355469
358.197784 726.476563 -799.520996
845.398621 171.125381 -1261.340454
636.998352 670.350891 -788.090820
483.407471 386.693848 -1290.532959
628.430237 425.204742 -900.012085
592.039490 188.974869 -881.260437
714.851257 233.948395 -1336.113037
648.236572 444.095551 -691.101013
476.297150 320.589935 -1452.045898
536.562134 689.601318 -722.569458
793.743164 79.640137 -1260.334839
386.944763 664.719543 -888.416809
634.150513 48.064968 -1324.893677
384.531067 432.250427 -1007.972473
360.207214 428.495483 -1027.801147
905.041443 694.771118 -1397.187256
409.955414 262.012726 -943.778931
492.818726 286.602814 -1368.266724
492.933411 270.017761 -1413.968140
644.124390 254.973206 -1371.011353
561.316040 46.047955 -1321.627563
418.135925 656.736816 -927.856628
439.826355 254.997513 -936.227844
556.114136 392.576874 -916.020630
464.751007 652.207642 -860.063232
651.327393 -4.310748 -1268.618530
448.675842 292.346252 -1436.049194
590.317383 302.943695 -1411.989258
416.571259 327.558136 -970.240967
832.547180 301.112061 -1269.955322
619.794006 251.609268 -1388.964233
498.528870 208.327698 -899.031616
583.680969 45.333176 -1326.089111
579.166626 5.156165 -1317.530151
337.458008 682.038818 -908.629395
724.996948 251.009171 -1331.329468
630.142334 411.618500 -889.437134
637.762695 486.606873 -905.653015
649.399963 122.388695 -1242.639648
398.590118 211.532867 -971.451599
523.581238 252.964966 -878.679077
696.490417 53.547710 -1282.951172
618.527588 196.839981 -1371.264526
562.802246 314.569031 -1319.906250
832.078735 334.074493 -1244.205566
603.830933 148.526276 -1368.433594
371.168488 644.037720 -975.311523
428.168640 663.445862 -902.963318
529.236267 733.878784 -664.272827
504.139954 192.272400 -1425.286255
457.448853 311.852783 -934.385315
692.445496 153.874939 -1286.548218
636.910889 614.839783 -822.688110
598.015808 665.251648 -754.747253
733.192810 29.998739 -1276.889526
653.038696 5.400284 -1269.141846
343.724762 293.434296 -978.876343
443.053833 192.447876 -1409.669556
295.253845 766.349731 -755.938538
574.591614 377.282867 -1408.961792
531.980347 332.533356 -904.154724
497.535339 205.564301 -1402.695679
467.816956 722.082703 -722.520264
558.400330 416.083618 -933.131958
447.769379 309.000916 -933.688416
556.060120 33.974751 -1337.619141
650.700195 384.646606 -717.658325
789.342773 323.554291 -1334.737427
622.375793 621.429260 -822.419678
718.032043 123.756989 -1293.453979
599.955811 525.536438 -942.325012
530.042419 667.730957 -790.696472
565.963379 366.056885 -897.696472
499.030701 650.076050 -866.688965
593.976013 679.888733 -742.630249
562.409241 135.373398 -1366.230835
400.540436 658.867554 -919.179810
508.047150 702.463379 -704.640869
400.413849 364.686951 -978.678284
381.572968 678.575317 -887.468445
444.774261 733.360352 -694.236084
899.245850 368.689819 -1270.909302
798.287659 103.056129 -1267.436279
388.353821 306.641968 -961.567078
384.893097 341.277679 -956.556458
329.099609 654.391418 -968.707397
338.064880 682.778381 -900.549316
378.714203 709.664490 -826.640869
761.994507 326.017365 -1293.426147
497.429016 186.817520 -913.025330
498.256226 264.839874 -1415.406982
525.787903 233.047363 -886.407593
526.928589 454.585205 -1500.500610
353.256226 269.006165 -952.845825
861.012146 546.864380 -1339.096680
736.842590 318.288361 -1262.833862
441.946442 271.441956 -938.393433
481.166992 262.954834 -1450.345337
371.158813 681.222961 -888.467468
556.380249 243.864548 -866.599304
413.292389 454.072662 -1023.023804
370.766663 712.534607 -786.623657
591.680542 317.428406 -1360.399170
339.264771 283.220215 -1005.386597
804.056030 337.297668 -1252.800537
627.009888 248.873581 -861.485596
841.965088 189.181900 -1281.846558
761.714844 198.900879 -1309.777954
703.982422 80.692062 -1265.458984
550.110046 303.680817 -1395.053101
790.930237 277.312531 -1304.509888
350.697784 308.191498 -966.250732
748.299194 207.991730 -1316.803101
729.415710 15.129908 -1267.397461
831.989624 244.238022 -1288.201416
426.289459 749.244202 -676.931519
338.621948 695.466736 -871.162842
386.125702 269.905762 -936.492126
406.990784 213.098633 -953.974976
347.836548 429.448212 -1025.299316
789.211792 246.604660 -1317.976929
436.838348 384.713684 -986.833923
666.526184 -6.710996 -1295.635864
649.622009 -7.119387 -1265.792969
482.089661 689.806335 -791.803711
658.839722 340.141357 -837.615356
628.292175 567.264832 -970.717773
797.829468 461.273041 -1370.880493
363.951019 201.982742 -983.990662
646.699463 304.542297 -852.987671
400.449280 713.407593 -778.514099
443.744720 216.440063 -930.399048
425.143646 740.613770 -746.005371
598.864319 219.255737 -1386.696899
841.271362 117.103760 -1241.530762
459.224579 242.679077 -916.392517
618.376709 266.399139 -1386.092529
461.880920 220.559906 -919.896606
638.519348 369.870392 -869.493469
371.438568 682.627686 -848.205139
325.086029 246.000412 -998.351074
504.347656 713.733643 -693.436951
486.194214 696.019836 -778.812439
667.152710 101.339554 -1289.783569
438.561615 702.005188 -788.363586
521.292725 708.419495 -687.385437
392.420380 732.905945 -753.866394
519.047302 318.845673 -904.449585
382.199982 661.155579 -900.173950
582.180664 263.657196 -871.792358
828.249939 468.451263 -1314.325806
418.788788 490.984467 -1034.494385
564.840942 649.917786 -836.932068
501.872284 651.967346 -831.529785
835.903442 285.852905 -1277.442383
388.983459 486.658691 -1035.372925
549.482788 277.683777 -1424.544922
796.907959 170.806793 -1264.580444
564.203125 132.770660 -1368.001465
585.637695 545.826050 -956.909485
737.782715 411.325653 -1353.555664
560.549438 249.948639 -892.708313
859.653564 130.844971 -1253.563354
530.173584 425.751862 -939.810913
394.876526 321.846130 -963.768188
416.467407 727.198303 -730.745911
525.627747 583.492920 -1002.950073
583.701233 661.386414 -763.657837
409.820770 647.788696 -902.609070
778.975525 72.038841 -1267.263550
672.533936 24.238964 -1270.342163
584.930420 652.636108 -778.216980
906.784058 190.717499 -1241.316284
539.087097 643.787964 -943.407043
484.980652 734.300964 -674.004883
890.407410 278.313263 -1267.579834
872.689575 653.854614 -1383.794189
594.291138 50.616859 -1311.125000
401.941315 647.800110 -921.190063
617.544495 176.451691 -1329.278076
623.887451 365.188171 -1292.562256
799.723511 260.126678 -1318.402344
295.861267 758.594360 -762.582886
626.268005 314.504578 -1185.362183
416.001465 396.762909 -966.890625
835.187561 152.115906 -1265.871948
554.138672 222.442230 -881.614136
696.177429 342.989288 -1324.696411
799.061707 266.751465 -1307.625854
659.199585 526.393860 -924.812683
626.454590 31.787703 -1323.012451
482.805603 226.699188 -1421.978882
833.523254 185.153183 -1286.686279
527.022827 668.920227 -803.911682
480.615051 695.055176 -772.739746
591.756104 460.200348 -919.399658
607.545471 213.722046 -880.715088
878.057251 321.829742 -1281.897339
593.219482 674.034912 -718.594116
425.348358 676.875854 -838.330505
670.178528 -16.967209 -1279.640015
818.766907 467.751251 -1378.967163
794.013855 62.098507 -1262.392090
638.533813 641.677734 -767.460388
507.693542 301.371613 -896.747742
498.962616 110.795654 -1383.273926
733.856506 150.288300 -1315.148438
622.460083 647.156006 -816.799683
442.841339 495.011047 -1023.811890
698.064697 527.490662 -907.792847
503.008881 269.440186 -1402.141479
681.288940 117.955231 -1275.762329
446.422699 754.216675 -690.841797
478.206055 264.013306 -928.616211
311.667267 682.731689 -924.399963
338.546936 687.801331 -867.408020
371.942810 747.618286 -723.787476
873.803101 242.688065 -1276.285034
831.398132 296.008362 -1272.095093
837.091858 274.747528 -1300.016357
564.832886 289.111938 -1391.176758
528.844727 184.322861 -1400.301392
421.490021 356.159607 -959.443909
640.886963 264.204559 -861.334534
366.354309 733.355103 -784.081848
627.611084 277.783447 -860.775208
477.276611 742.276062 -655.166504
533.447693 370.400360 -907.327637
366.680023 218.198242 -971.325073
441.894928 356.009796 -940.649658
728.716003 489.759949 -1370.023560
398.289581 246.800629 -1417.084351
566.026672 687.402100 -704.399231
434.992584 757.666565 -661.343872
479.695374 718.226196 -748.180298
813.672485 90.958183 -1257.964844
444.679932 272.687500 -1430.076050
431.797089 720.712646 -748.481079
548.786316 667.859131 -777.389221
433.481934 732.306396 -714.283264
644.391663 641.782776 -814.519653
406.749481 659.623535 -927.668274
632.081482 273.120331 -860.503601
623.353760 165.826172 -1311.738281
850.337585 125.087090 -1242.416138
451.255829 671.136780 -882.399536
904.352966 194.613342 -1255.251465
456.096222 654.778381 -916.717651
464.091400 238.828384 -1422.734497
894.985046 232.280914 -1235.465210
446.027344 683.309082 -857.448364
490.073883 403.761475 -1349.523315
415.027130 671.673523 -891.040405
458.562195 346.718445 -929.757446
880.241699 522.107300 -1340.279419
520.644836 405.503357 -951.267944
786.162720 118.501846 -1283.966309
977.942078 240.126190 -1219.507690
866.347778 219.822647 -1250.080566
331.099243 310.455872 -995.404114
598.485413 230.076996 -863.852051
640.561768 82.186691 -1313.155151
558.389648 706.614563 -687.165039
429.303558 272.574951 -919.513855
258.982758 729.103821 -863.960999
571.584045 134.256073 -1363.791504
325.937164 715.023010 -800.408691
561.713806 684.296814 -709.091980
649.470337 129.947037 -1264.622803
208.726135 417.685089 -903.248108
518.887695 256.934052 -900.281616
768.452087 49.168888 -1250.656738
498.506653 742.985962 -661.135803
560.529480 316.120453 -893.711975
591.865540 360.791840 -1379.953979
591.280762 487.850433 -1501.060669
685.178955 182.738663 -1323.496948
318.915131 255.747208 -990.570740
374.271759 539.327393 -1058.283447
421.670288 667.228638 -901.167480
681.219910 159.880692 -1270.604492
424.304535 205.408035 -1421.714844
853.143860 475.770752 -1338.218506
882.642273 393.164642 -1281.508301
845.793274 109.167686 -1251.585083
593.149719 67.008209 -1343.439209
626.788086 324.936615 -870.205811
752.074097 51.912693 -1272.794556
864.062500 481.309662 -1356.362183
488.436462 246.197037 -1420.180542
419.821960 306.506226 -950.723694
450.732452 709.509155 -760.192871
630.777405 248.212631 -851.661926
434.157074 706.151184 -753.782166
446.275787 404.491699 -966.742371
713.460571 145.999619 -1312.884155
466.067017 681.640076 -813.310364
904.742065 672.442566 -1412.953735
752.447266 217.730148 -1301.561401
440.624512 733.811584 -703.894653
657.435486 130.873947 -1289.725464
446.245117 721.851318 -718.652588
681.677612 325.445465 -1343.551514
777.362427 128.730667 -1266.156860
710.512756 313.208496 -1334.834473
771.079834 89.525826 -1274.568359
863.607483 540.173340 -1351.167603
852.598633 250.442551 -1272.005981
410.662231 700.038818 -804.388855
465.334473 217.167709 -919.712097
403.138885 652.877747 -930.570068
934.816833 190.538940 -1241.409058
290.432861 304.233582 -987.621338
656.876465 -0.210096 -1282.482910
896.868469 173.445511 -1237.228394
321.672150 659.732300 -942.070984
394.319489 630.565002 -959.118347
690.713989 231.346375 -1331.941650
747.972412 165.905624 -1310.215698
414.558197 312.198822 -976.479004
475.674530 206.108795 -916.913574
186.271622 478.833405 -889.298462
791.267212 220.954010 -1316.060791
850.048645 283.414337 -1293.011719
432.647186 229.489929 -928.886292
345.361145 307.656708 -978.141785
795.744141 53.204510 -1240.375488
347.384094 771.748596 -737.709656
446.326630 215.806671 -927.852844
872.996582 293.313507 -1212.989624
531.691589 642.299438 -901.732361
893.065735 388.134583 -1289.123779
404.565338 710.350708 -783.242493
795.001160 228.620712 -1315.546753
794.189026 100.331261 -1270.778442
436.158569 356.345276 -953.869751
501.866089 693.239868 -744.666809
895.897522 196.304108 -1253.597168
322.030060 731.262939 -788.324463
665.372253 31.635946 -1256.178345
400.427856 233.344757 -947.136475
370.274078 727.812683 -748.480103
336.240601 732.411865 -771.343567
466.280518 202.602158 -1412.904419
315.421570 259.147766 -990.958618
456.950287 687.938843 -799.453613
495.995300 432.936829 -973.590759
526.717651 677.638306 -787.339355
660.666565 208.281204 -1333.798218
640.251648 35.392258 -1293.126953
563.923340 666.247375 -768.704346
777.998535 421.915253 -1393.781372
705.540344 337.171967 -1299.141357
477.082611 207.311127 -1421.728638
834.069275 315.159424 -1241.423340
356.904755 677.416138 -921.583313
575.136353 436.413483 -909.584778
511.083893 550.670654 -1009.670227
567.221191 630.982971 -857.433899
424.118561 282.934845 -930.818970
441.760681 304.362122 -950.934387
835.435547 405.739502 -1335.379150
473.280914 568.538330 -1002.453125
671.299316 291.087585 -758.968201
458.216461 774.959106 -680.495483
483.768005 140.861298 -1415.820801
500.112396 221.623856 -1426.202026
904.482910 577.036316 -1348.270386
424.720001 690.067261 -831.301453
320.650116 423.379486 -1025.713623
474.544891 687.705017 -792.685669
567.811462 714.446228 -668.281433
392.309021 503.511719 -1053.958008
682.635864 344.013977 -841.610596
348.062622 696.752441 -847.351440
343.393036 324.547424 -988.581299
634.829163 651.018127 -824.870361
744.552734 406.915497 -1358.907593
449.926361 772.019836 -672.608826
558.717102 281.167725 -878.084717
493.205902 709.317810 -720.613892
317.411926 692.947327 -894.536316
321.922852 733.841858 -771.488464
525.725708 302.052216 -901.454102
409.659882 688.972351 -852.244690
423.125244 729.326416 -721.034241
459.689850 673.358215 -861.983276
526.433289 406.601379 -1487.255981
320.362793 340.075806 -1004.333557
791.027954 78.456718 -1258.622437
405.833313 436.003693 -1017.229004
716.014587 135.066132 -1271.162109
452.651215 701.058289 -774.021362
630.058105 304.849548 -1383.538452
634.098572 161.749832 -1330.684204
540.052612 226.683945 -877.099976
639.734985 355.821045 -855.659119
845.609131 296.527191 -1241.908081
341.446320 677.846375 -910.133423
411.825073 339.711975 -947.919006
388.869995 742.315735 -741.516724
477.333160 490.191223 -994.072144
451.044312 510.685974 -1013.869324
521.036804 156.297485 -1390.737549
434.074219 676.548767 -866.808350
941.165100 233.440643 -1226.195923
749.720398 57.410656 -1245.841919
596.597717 478.239227 -925.157104
370.844177 204.034561 -1446.346680
456.281281 395.318634 -962.450317
587.176819 249.413620 -868.834656
607.843872 81.286354 -1329.690186
445.305450 271.619629 -918.140869
784.473450 101.090538 -1269.055908
463.365356 518.496155 -1008.047668
284.562195 727.589111 -815.403198
421.288422 723.426392 -730.589783
441.210175 181.037842 -913.599060
496.838867 616.825195 -909.357178
518.777954 727.755981 -666.480835
364.615570 701.354736 -816.556519
377.618683 443.442963 -1020.004089
462.210693 232.786667 -903.723511
626.692871 69.178612 -1312.026978
525.972473 498.912476 -977.674927
614.062195 469.132111 -1384.127197
449.801453 643.250061 -894.155090
605.444702 210.012772 -890.357910
553.085938 377.677429 -902.444763
626.766968 254.219101 -1385.475952
746.173584 317.926605 -1259.226074
440.973755 724.402832 -716.356323
345.757050 658.171631 -919.035522
606.223633 438.028473 -1400.390625
589.814880 668.802612 -747.572510
498.731049 427.272430 -954.075378
695.118408 85.009323 -1279.371948
558.688782 267.156586 -888.289734
605.698364 467.267365 -915.591248
605.063904 378.133026 -902.497009
542.562134 584.464966 -993.210083
885.422791 186.905334 -1247.787476
517.947510 640.051025 -851.737366
669.101501 386.545166 -851.026123
669.534180 460.515594 -905.663818
533.382202 697.472168 -713.627075
299.050446 758.326355 -758.872803
776.959900 338.259369 -1303.662354
376.773926 349.552185 -995.481812
436.821228 399.182281 -992.221985
340.945251 776.484924 -702.872986
387.875153 413.664093 -1015.256287
648.936401 -6.408303 -1280.806152
526.433838 200.684464 -902.309692
331.526459 322.436890 -984.956360
481.431274 405.042755 -950.711609
629.780212 241.481857 -1285.445190
810.923950 482.420013 -1358.670044
456.566223 708.693604 -761.060913
959.629944 221.040009 -1235.772339
461.463806 245.190399 -1386.578003
809.529907 125.183609 -1275.485352
329.981476 711.665039 -807.713745
633.566406 329.071594 -858.096924
832.840759 296.948273 -1289.675049
660.668823 -5.100444 -1272.576172
648.912231 84.754066 -1270.654053
422.049835 246.760239 -924.566345
519.200134 445.349304 -941.555908
390.038300 212.234528 -958.538818
421.613007 660.008850 -903.070557
285.988007 698.605408 -876.072144
473.609009 686.089294 -789.112061
695.394043 104.208321 -1264.764282
422.894196 697.624207 -805.033386
409.351440 676.068115 -857.188782
589.649963 557.453552 -955.399109
455.816559 198.272369 -946.825378
611.271423 640.294067 -830.596130
718.089172 134.791504 -1296.664551
514.371216 336.978088 -1405.729614
975.774048 367.575775 -1252.104492
413.783417 704.460144 -773.370850
494.058289 649.409485 -846.088440
704.133667 -4.147274 -1279.463623
853.866089 225.706192 -1271.073364
412.200684 273.753571 -940.252380
911.397339 170.849365 -1246.349487
728.697815 194.439331 -1332.441406
659.514587 334.679474 -854.301025
501.023285 749.353088 -647.369873
385.582550 396.815125 -995.107056
348.672089 745.520935 -744.049805
695.324402 511.017029 -909.210815
894.508484 248.944153 -1241.760864
617.116699 119.119980 -1319.125977
512.514954 339.957611 -936.287720
862.414856 229.143387 -1252.037598
590.862854 349.648315 -1314.128174
476.529968 706.523254 -752.966492
548.912292 75.787529 -1351.267944
640.923340 353.082947 -845.116821
538.705322 654.942749 -871.549255
640.758850 139.093582 -1333.698364
393.135834 758.711609 -716.069885
903.125061 657.230652 -1389.041260
303.242981 251.930389 -1001.935669
604.902283 47.845749 -1319.452881
417.138763 428.065399 -1008.981873
619.669312 328.624847 -882.195618
527.970215 646.281616 -917.081543
470.458191 230.351685 -1427.294312
767.552124 198.563858 -1289.199829
782.408691 317.194672 -1323.638672
467.988525 212.061600 -1426.791992
637.528503 290.673218 -1280.882446
606.947693 152.989746 -1341.620728
502.594147 367.147675 -945.167908
437.777008 215.721191 -1418.994019
613.003052 199.783005 -1371.778564
423.492310 701.591370 -789.816406
590.396362 265.841522 -874.830750
854.328674 132.491486 -1258.749512
453.230438 507.676849 -1008.482483
544.252014 390.478088 -908.251221
759.907593 33.430050 -1269.277222
479.327057 293.698914 -922.783997
610.086426 247.710892 -1390.404541
459.229767 246.289459 -1441.588379
697.584290 3.340620 -1267.035889
674.472290 -16.141306 -1266.785034
431.124481 210.498550 -929.490417
888.956848 142.067474 -1243.904297
516.614746 684.665100 -764.718933
600.695007 195.884552 -1387.547852
447.901642 527.779724 -998.865173
567.502441 356.615448 -897.226013
675.106445 421.295837 -787.234314
551.311096 711.125366 -662.462524
710.058350 37.589649 -1267.573242
554.291931 330.385895 -1338.882568
507.391388 686.071594 -741.743713
408.469238 683.850525 -866.750427
500.290466 290.267242 -919.388184
531.925171 237.615448 -883.934631
646.335388 239.828674 -1169.870728
857.945862 378.307953 -1295.047363
668.427612 53.622936 -1279.431396
346.238739 423.152863 -1002.158752
763.203979 45.563313 -1259.022583
889.477661 162.186203 -1252.898804
520.632019 316.610382 -1404.995239
489.995148 304.585449 -1361.021118
713.789490 46.597805 -1273.486816
562.834534 187.902740 -878.245117
844.671997 296.346985 -1275.040161
667.973877 -7.258726 -1271.601318
521.497681 707.662537 -684.297668
456.679932 734.387268 -684.536926
358.396484 205.762451 -972.603577
571.950928 67.805351 -1360.232300
534.148560 587.181458 -986.921021
374.283417 290.520142 -961.518616
481.499725 153.222672 -1410.464111
759.819336 480.734589 -1373.767822
490.207672 678.450439 -808.382996
472.763733 654.596558 -915.261841
907.130981 177.090973 -1249.841553
591.265259 261.010925 -865.019653
593.748169 638.280762 -846.956360
886.031006 273.954620 -1235.049805
402.804657 694.636414 -814.357483
504.972870 284.618317 -921.561829
433.269501 346.161469 -1473.750610
491.463318 757.554688 -653.878723
412.876556 301.515472 -931.662415
625.572266 62.593987 -1296.600830
552.395630 647.236084 -869.615662
588.157471 671.555908 -749.522766
502.027222 344.205200 -942.598694
654.802124 24.566422 -1284.158203
437.969238 740.363403 -687.054749
543.203308 251.601456 -1410.896240
768.942810 234.597183 -1323.776245
628.254333 256.228271 -857.790588
740.427368 40.988567 -1272.765015
588.578308 212.411621 -1158.425903
393.105865 300.381866 -961.269958
592.671631 216.968979 -879.970886
646.575317 109.489243 -1281.612793
560.372498 192.291168 -877.925049
495.925751 326.702209 -920.197632
577.949158 272.474731 -1402.407593
708.635437 -0.613853 -1243.601318
536.148926 665.998535 -772.635254
489.895813 330.667267 -1435.541870
565.910950 18.553175 -1329.437134
629.818237 497.877319 -926.579407
845.364807 236.826813 -1286.920410
692.099670 201.080505 -1304.374634
470.247803 703.320068 -752.249939
570.768982 232.918610 -1382.026733
495.465698 212.501587 -1409.447266
658.168457 194.963913 -1294.089111
523.872803 652.976624 -858.090088
515.237427 685.092651 -737.510803
520.158936 723.256653 -682.413574
502.595062 239.024307 -913.148987
561.367004 -14.709354 -1301.319580
932.054443 256.767212 -1241.218750
489.225769 398.936066 -1487.549194
610.823669 428.805908 -892.196167
630.653015 321.298950 -1358.765015
404.229004 724.954041 -739.725708
400.447540 584.983398 -1071.458740
578.010925 54.979664 -1336.823242
578.878784 563.133972 -987.372253
415.884979 517.119507 -1031.130615
578.852234 681.807800 -714.809143
219.254898 354.864899 -953.818237
516.167236 256.971039 -1400.892090
449.863831 667.903137 -872.524719
632.038208 291.284851 -860.896912
379.074738 217.944855 -942.181091
639.826233 326.280762 -849.244751
808.818787 315.605225 -1299.630249
458.465210 736.495911 -675.065796
714.630981 341.591949 -1290.441162
785.581848 311.582092 -1321.051514
525.592224 327.782471 -895.598328
462.820526 743.500427 -709.446472
600.525879 399.608917 -916.896729
667.502319 -13.984722 -1274.164917
519.132629 696.808655 -706.437561
518.615784 717.814758 -674.675110
500.271362 195.101639 -908.646362
489.990814 729.733704 -686.400208
553.328857 215.513489 -882.485352
472.525635 444.042633 -957.628235
643.840820 215.688889 -1332.912476
621.112671 202.626221 -1368.596191
847.103760 396.553223 -1333.453491
552.468933 101.004677 -1363.381226
531.112488 275.984650 -910.773499
578.458496 21.828457 -1326.534058
603.357239 563.097839 -976.169922
840.590698 166.572952 -1261.759766
383.653442 672.745422 -908.144775
538.062378 698.291199 -719.451965
553.425354 313.136475 -1414.200317
607.742371 292.242401 -1179.793213
631.628479 480.528839 -929.642334
498.652588 360.723358 -917.733948
563.692200 330.562927 -888.625549
385.433105 706.244751 -823.478149
732.343994 19.605831 -1274.026001
376.447540 764.477478 -700.778564
544.707397 698.872009 -702.081360
595.688660 35.985046 -1343.329346
591.565125 227.354492 -868.856995
419.636261 290.105835 -1477.689209
870.877563 369.434204 -1273.532715
332.959412 708.500366 -854.008301
534.479675 336.232727 -911.354431
762.641296 49.832657 -1268.566528
595.302063 242.487488 -861.106323
343.823547 702.984497 -853.740967
614.191895 392.292328 -894.298462
585.438843 555.000793 -965.881409
309.906555 743.985291 -791.145447
548.079407 119.103851 -1354.416992
874.001648 698.728088 -1396.104858
505.028687 273.904053 -887.042725
637.339355 301.430359 -855.246643
500.878174 666.308105 -832.905762
318.698212 391.243042 -1015.275208
436.572357 303.705139 -959.412659
596.445007 434.700348 -1426.448730
448.468140 653.994202 -868.413635
546.049744 688.320618 -728.152954
390.615540 431.499786 -1034.893555
441.456116 415.476654 -973.084473
674.411621 365.557709 -676.731812
682.400879 370.939484 -852.416931
646.758606 323.384033 -1388.415527
634.424561 634.564148 -789.705627
491.515137 199.145493 -1415.707520
585.806824 504.491974 -959.849548
500.042023 300.648438 -899.870178
669.393066 45.077740 -1302.790894
395.213623 656.036804 -934.260376
524.135559 666.951111 -798.471924
383.230774 520.605896 -1036.111450
363.723907 701.601135 -836.491211
500.995270 481.733032 -962.722717
463.292175 733.388123 -710.436584
409.598907 256.913452 -1388.242065
708.145569 260.822144 -1323.946289
328.356262 678.640015 -905.930237
415.756744 216.195587 -950.730713
470.621277 222.160873 -905.174988
764.607910 110.680840 -1287.359497
439.613708 651.174744 -935.530945
417.381775 719.961731 -742.106995
653.426392 621.038513 -804.637634
507.696503 705.626282 -722.749268
480.273102 683.950745 -806.539917
502.211945 459.839661 -973.446472
447.921967 552.740784 -1046.257935
670.607117 168.786499 -1318.826050
402.452759 728.463135 -772.201416
709.986511 324.173981 -1258.068237
757.371582 70.259247 -1264.166504
918.386963 637.005981 -1375.601318
549.773438 253.583527 -882.707275
564.522156 725.515198 -674.896423
868.071167 323.407410 -1250.873047
578.607544 138.548767 -1361.996338
409.691864 462.365417 -991.938782
716.078674 175.999512 -1304.089844
514.856018 746.035706 -658.092102
300.518036 377.555573 -1017.127563
401.884033 470.466370 -1035.077393
635.550842 353.888947 -868.011414
606.902588 234.347931 -878.622131
410.590546 663.638306 -909.450256
822.125916 140.223816 -1270.756348
500.020447 662.986877 -884.876648
593.310486 294.891541 -860.390015
559.897339 209.672302 -1392.678711
347.845886 671.732971 -901.677429
818.337952 285.796936 -1266.769653
526.272217 172.781113 -908.132446
889.380554 640.705200 -1393.344482
384.047333 205.502579 -965.344604
610.500671 124.819908 -1341.188232
459.649017 720.700928 -708.287415
413.716858 236.825684 -932.952209
625.748779 446.334991 -921.485962
316.135620 690.997009 -871.377441
434.008942 461.099854 -1028.770996
558.747864 205.541565 -896.766663
322.825165 346.640717 -990.107117
364.408417 719.346436 -808.057312
498.466492 438.126801 -947.505920
687.260803 24.393499 -1291.012085
667.062805 366.573242 -797.836060
642.803589 208.736755 -1358.299438
438.782043 385.316986 -963.070618
526.024658 702.855408 -683.110352
457.828644 580.357239 -1033.683228
566.630188 318.523407 -888.760620
486.360382 744.269531 -676.338989
363.885315 256.402588 -960.529358
920.626587 307.257690 -1257.744507
525.523376 202.951584 -900.591309
372.325531 481.311401 -1014.007629
684.317505 42.510216 -1297.538086
923.061768 265.510040 -1218.352295
547.883728 384.392242 -906.552551
767.649963 304.840210 -1346.302490
450.207367 370.123840 -938.936340
455.644043 395.619324 -967.138855
620.931824 313.629211 -1284.507690
465.898590 472.403381 -987.576233
548.806824 434.967804 -937.366516
720.933167 153.888626 -1323.699341
433.700165 203.129288 -927.702515
584.928772 692.210510 -701.472473
671.856445 514.690247 -907.414917
966.648804 235.296249 -1214.534668
518.529480 367.778595 -912.043091
414.093781 229.539917 -1415.340332
352.549744 271.478882 -966.630310
578.091125 260.045288 -1403.735474
437.764221 295.191498 -1410.749756
690.847290 467.921906 -888.345215
413.979797 240.338379 -1450.054443
619.612854 47.278454 -1309.255127
506.004974 690.350586 -763.466858
448.177734 665.838745 -893.661316
581.727966 670.896973 -754.343872
513.319153 180.170792 -1405.499268
473.501251 681.492920 -808.478088
471.061798 222.633820 -908.773926
813.443542 349.333252 -1348.520630
652.979187 258.551117 -862.374329
868.689331 284.912811 -1259.631348
518.599792 283.570953 -1418.155518
796.448364 295.471527 -1321.397827
499.004944 299.064789 -921.788147
500.281708 196.542984 -1420.879761
345.271271 422.792511 -1027.782837
638.890808 429.787872 -891.346619
629.254272 116.937996 -1300.718628
907.962708 310.727539 -1268.152100
292.156616 738.815613 -778.790710
473.733002 232.473755 -1385.481079
485.556885 386.075745 -1505.058350
484.872040 295.561981 -1416.002197
911.267639 284.564301 -1239.475952
336.079285 227.386856 -992.579163
584.188110 697.704407 -688.875854
508.441467 346.029083 -925.671814
564.644897 382.222260 -908.793884
799.252686 271.463959 -1304.724243
942.197815 185.453430 -1232.970459
609.087158 240.178757 -1361.777222
371.018616 750.154541 -746.175476
921.650452 207.258087 -1223.643677
321.344849 781.393127 -742.422241
559.311218 78.752068 -1352.624146
676.729126 41.937588 -1265.002197
600.132874 626.649963 -869.611145
559.619690 209.594818 -884.900940
442.941833 395.965179 -981.476318
660.335876 442.405457 -902.620605
618.988281 229.265610 -1257.096436
611.689087 323.243652 -1401.210693
643.876587 298.623077 -846.949707
360.862091 776.060974 -680.792297
400.787292 732.659180 -720.255798
546.945679 258.367645 -1393.316162
