ply
format ascii 1.0
element vertex 1400
property float x
property float y
property float z
end_header
-74.461296 594.937988 -1342.988770
-2.143501 919.641235 -611.737915
-40.257580 481.981689 -1412.206909
151.315414 888.378357 -671.292358
-25.488695 447.060730 -1413.145996
-72.397568 520.801331 -938.808960
73.871071 458.240295 -1406.011108
108.758171 904.954895 -918.847473
121.036377 896.289001 -651.073303
100.345078 740.354309 -954.962891
399.185333 577.669678 -1371.648560
50.912231 886.566406 -770.015808
193.667252 537.210327 -1390.576782
-26.134230 456.438538 -948.759705
382.834656 523.901672 -1399.104248
157.686172 943.187744 -595.020264
24.293299 830.053284 -971.266846
243.508087 466.771149 -941.494019
262.319214 858.846558 -785.312378
-14.703916 887.544006 -760.565369
97.410637 545.633789 -946.430481
120.041084 326.551727 -1382.895630
209.746811 603.010132 -1419.292847
28.973547 612.608032 -933.373047
-4.447386 471.659637 -957.528198
-97.110115 602.002075 -1404.920532
-96.834450 749.008484 -1446.051514
243.471970 618.637939 -950.396301
280.410309 506.475769 -941.960571
217.292847 461.188324 -936.452942
280.136536 635.234070 -1400.075195
-8.342509 889.707764 -697.398438
193.584106 870.098267 -745.149597
-158.477280 600.174500 -1417.868774
-47.555878 900.467285 -675.585938
90.734512 602.554199 -927.981445
-2.554655 933.536072 -580.104065
159.250839 372.775787 -1379.045288
139.776031 760.512085 -966.119568
281.348450 761.519775 -1380.569336
46.233292 794.960266 -947.323120
13.521577 641.045227 -1412.863281
227.322250 859.000732 -796.686401
12.006573 885.157898 -728.404236
240.492294 847.097778 -1408.222168
274.205139 867.882813 -703.690735
210.560516 872.811707 -720.638123
171.583359 424.396515 -949.990295
138.190659 640.087952 -961.437500
-93.034271 565.005432 -1401.435669
217.926605 849.888550 -856.221863
174.684296 564.386169 -1406.082642
277.641266 442.091888 -1378.712402
140.853287 929.734985 -582.690247
233.892517 566.619995 -924.181946
118.575829 616.395996 -943.541077
-38.894131 879.073364 -754.055847
39.484173 884.845825 -730.071472
189.074799 871.970520 -742.380310
231.074371 539.067444 -925.491882
391.386444 672.007813 -1387.332642
193.157410 800.274780 -965.943237
86.605423 774.456787 -970.791016
439.965363 554.198669 -1399.077637
-58.951157 868.470764 -791.698669
-56.581978 528.558105 -1408.423462
103.713173 486.994843 -929.501404
176.496826 597.860107 -1392.364502
130.788589 408.176239 -1400.376465
87.256317 364.977844 -1415.655884
196.877914 441.115204 -943.665100
255.910919 885.994080 -677.746643
65.915665 476.146637 -931.598511
-14.693578 563.280640 -928.300964
248.554001 873.390869 -711.190491
226.549103 866.947083 -761.158936
113.641029 595.049683 -958.662903
-50.065353 655.467773 -955.130493
376.460602 601.349731 -1384.794434
289.751038 840.117981 -808.373230
224.273102 777.455017 -950.790649
-69.620987 720.451416 -961.820984
67.017265 468.160858 -926.454590
227.035156 859.669922 -798.275208
-20.557018 774.412720 -1450.371948
291.313995 536.775635 -936.373047
21.319582 577.894043 -1399.999268
86.744560 484.670593 -922.507385
-155.778076 551.567871 -1419.697998
211.131943 598.268005 -1395.137817
73.952881 790.277466 -974.899719
19.036457 905.218262 -631.236511
269.797546 460.109650 -958.079407
174.717514 866.659485 -784.289917
56.460121 921.455872 -626.760010
74.849442 722.613403 -1365.365845
-57.333134 545.301880 -1396.043823
19.721197 870.491272 -824.201965
-177.719162 619.505615 -826.084229
342.196045 642.703918 -791.867371
251.030930 842.979614 -812.686035
-4.758851 863.153503 -824.756104
210.327774 644.538940 -1345.180420
209.172989 566.334534 -948.606567
150.236450 450.242493 -1407.878662
-56.608284 459.538025 -1414.627686
0.003201 567.268066 -945.679871
264.757690 406.738037 -1403.546753
362.467590 459.520721 -1388.883423
202.259430 882.976990 -671.200073
455.276459 665.406921 -1398.033936
140.079590 394.060120 -1394.155396
56.762985 867.733704 -785.083069
244.562729 484.701355 -950.392822
-49.924171 877.602051 -811.187622
67.556854 496.092224 -1393.582886
85.884392 428.432678 -1426.423828
302.943817 634.986816 -1407.678345
114.665970 618.793091 -928.559448
-173.075821 608.007202 -847.439697
258.315308 855.525513 -789.429871
193.011337 765.980774 -948.443481
294.999603 851.621460 -845.560364
-37.695854 912.252258 -689.058044
-6.594277 868.976379 -777.098694
19.027771 871.212708 -807.205200
129.175369 865.098694 -802.002136
-149.887787 628.757751 -1419.649414
94.498123 476.423157 -1421.171265
-111.342308 496.032318 -1414.365967
235.906418 491.612122 -1387.489502
-26.020433 566.731873 -1434.960083
201.770844 850.690247 -789.497437
35.325493 424.575836 -1406.054321
84.407181 316.517639 -1384.009033
271.222626 855.928650 -778.849915
170.087433 604.489868 -932.526184
274.173096 378.057831 -1388.137695
82.346970 866.638794 -857.797241
224.087845 468.793518 -1386.233643
77.419640 640.084106 -954.827515
375.344238 511.864532 -1391.070679
-32.041286 576.496399 -946.683899
350.327881 639.952759 -1352.276855
-13.317400 758.979309 -946.942871
40.019020 888.450317 -757.571350
152.149796 912.576904 -627.256348
406.960602 533.829407 -1397.515015
-35.406559 867.352783 -807.238464
52.384480 908.040649 -633.104492
-17.243805 517.792297 -942.435303
126.670387 642.989136 -1293.089233
61.774120 872.554260 -825.423340
328.667297 500.590851 -1396.206177
-12.964444 439.339111 -1412.727173
202.289093 610.146545 -1422.941772
149.005402 909.045166 -598.898621
56.856400 803.288635 -986.471436
-73.817566 615.171631 -954.863220
394.619537 560.851929 -1394.877075
255.909958 464.621094 -958.632385
254.817749 556.903320 -1404.707886
229.126816 737.119385 -944.783813
84.040634 327.015198 -1392.407104
11.582806 913.203064 -714.682739
257.060516 754.297485 -952.918091
-5.582988 893.861328 -689.327332
25.972961 365.106171 -1391.953003
-26.608904 866.978516 -797.337830
222.972733 549.244568 -931.788513
122.393951 574.018188 -1329.532959
337.595245 590.962708 -1394.343872
-52.731384 765.286499 -947.333618
307.494080 458.012482 -1401.827759
237.035522 869.757080 -718.749268
433.770020 611.454346 -1391.991333
-89.054184 535.326111 -1420.836304
212.239120 338.518921 -1399.318237
199.828339 945.335144 -595.215576
78.148506 678.676636 -965.036133
101.643486 718.610901 -955.312744
300.915253 497.980865 -1412.617798
-38.522533 844.624634 -1464.310303
-91.511230 589.714600 -1406.052612
247.719223 547.844177 -1407.012939
219.560623 852.318359 -825.018677
136.806183 457.229279 -1311.062744
74.725594 589.417786 -1408.319458
9.898234 786.335266 -969.814880
211.527115 436.990692 -959.099182
91.182602 723.192749 -1324.422607
233.933578 655.539429 -932.891052
101.820122 780.122437 -960.049133
-65.026108 619.345764 -1392.202271
311.828369 614.399719 -1334.135132
124.522560 875.859924 -730.174988
45.186012 856.796631 -861.699219
387.785431 610.113464 -1389.866577
250.155182 485.116302 -934.033325
218.026810 899.765076 -624.649719
212.576508 500.563477 -1405.410522
-32.938511 752.839050 -963.010620
55.660908 916.583191 -635.127014
275.355652 865.630920 -1406.529297
59.616638 475.837769 -937.232788
-103.163239 518.201721 -1411.369141
237.651489 381.890717 -1392.855591
233.400772 488.401154 -929.367432
12.633703 635.281921 -951.116821
-110.159973 549.325134 -1390.199219
292.288574 759.489502 -1402.582886
-78.475266 622.204651 -1377.758057
233.096161 505.418579 -938.682983
413.050354 577.481323 -1372.369141
143.032654 400.153839 -1412.715820
60.228058 512.303040 -1415.952759
196.576096 318.270935 -1388.283813
199.984238 309.161407 -1388.141846
109.990303 488.014496 -941.857788
85.193245 719.482727 -964.022522
-146.359909 532.710449 -1413.859863
270.746552 833.799316 -1433.282471
177.053436 855.243164 -852.840942
33.703243 388.804352 -1406.429688
127.502266 905.309448 -633.445496
139.442520 524.690979 -930.915833
410.469421 594.330322 -1385.761230
218.555267 900.833679 -629.091797
200.094223 700.586304 -1335.167603
52.237968 924.712097 -599.174683
39.633209 748.025146 -961.177002
7.743515 873.049683 -767.294922
-62.303848 855.656067 -1422.724487
278.876068 741.559143 -1384.955811
361.319855 455.813507 -1376.609131
192.920349 325.390533 -1379.121216
147.500961 888.782104 -683.402954
251.343979 890.947937 -645.363525
113.741920 785.674744 -957.304688
357.319916 453.788147 -1374.569336
178.041992 488.550507 -934.070190
18.695110 877.445251 -773.921875
191.714111 556.692139 -1396.163574
84.098846 539.306458 -1426.847412
-5.349778 887.232849 -734.388245
244.718140 854.573608 -741.745483
280.327881 420.399048 -1396.921021
120.044121 472.944489 -923.895325
235.111542 777.787598 -943.208435
449.896790 614.443054 -1401.075562
101.648285 428.319458 -955.518921
246.461838 873.400146 -690.089905
168.641922 858.950012 -776.258240
323.946564 577.147705 -1407.708008
182.709061 509.991089 -1393.446533
278.225006 515.932861 -1387.347168
302.110107 522.574097 -1400.813232
240.532791 738.622375 -1391.591187
333.528503 581.045410 -1385.305298
239.440796 630.049194 -931.769592
218.407089 898.203674 -638.056335
97.376427 606.571899 -1403.772461
244.418793 495.452240 -936.612122
100.372154 526.381958 -925.103271
-25.178837 864.190491 -816.500366
200.047852 842.828613 -1398.519775
22.688011 873.456299 -833.876892
202.715363 498.767883 -930.849426
34.527691 712.578186 -1413.799683
-46.764210 803.872314 -970.003357
293.139343 421.930664 -1393.563843
-102.603172 560.352539 -1385.346680
168.667099 423.561157 -954.258484
231.801239 801.260742 -1426.766357
329.879852 435.035767 -1401.866455
315.338013 479.979492 -1382.045532
320.908081 579.647156 -935.686340
207.392197 473.354553 -940.193787
-95.674309 495.941406 -1413.662964
8.601158 635.565430 -1391.742676
158.036560 892.456970 -662.314331
152.859299 558.646912 -1396.287964
196.742081 448.167175 -942.330322
211.597794 909.740295 -1349.065308
188.662933 704.569763 -941.176392
216.741455 861.208069 -792.387390
84.130043 346.537354 -1386.896606
261.652863 867.160095 -1397.281372
7.136481 877.488770 -756.613281
180.313095 858.890198 -831.803833
331.745117 668.401428 -1369.422852
273.786499 458.971008 -1412.404663
133.436539 898.047852 -654.885498
85.210220 509.439392 -945.329712
126.426231 517.810608 -1390.680298
-168.227158 613.771912 -778.392822
304.483185 637.786621 -1323.882324
276.597382 464.460022 -1410.118652
299.281372 683.141113 -944.128662
166.084869 508.696594 -1337.735718
-19.036226 863.611328 -837.527283
81.875511 631.671326 -1391.979614
131.408554 891.221497 -667.613220
77.361534 645.250488 -1383.424927
212.371262 870.230713 -739.511902
288.897644 895.305298 -1396.263062
340.340607 620.990417 -789.506104
276.600311 869.073181 -789.742676
-10.962311 868.644958 -786.303223
29.427671 400.601471 -1408.035767
48.114983 914.417969 -618.601440
100.173080 317.404205 -1393.318848
387.959381 599.502197 -1376.776611
-12.075109 443.339661 -969.253601
-15.817217 495.457916 -950.438049
281.862762 604.573853 -1407.824585
213.411316 904.361755 -631.249634
177.248764 889.057678 -674.223389
192.533066 524.462463 -926.110962
117.353073 515.424744 -1380.115234
-3.772409 660.647217 -939.650879
-25.671913 709.337891 -1412.655029
479.556854 640.557312 -1381.315918
171.249985 560.970398 -928.539368
100.838066 456.858643 -1401.670776
179.468903 819.751953 -1418.083374
227.115143 769.037842 -1429.876099
438.328918 603.456299 -1394.841064
7.097462 563.355774 -1419.196411
239.031815 702.075562 -1354.516846
63.757622 657.440125 -1409.868774
92.052200 411.184570 -970.028687
21.439941 876.188049 -784.898254
315.358215 622.234680 -1410.671265
62.272923 894.226013 -694.346680
-9.759905 568.405396 -928.535095
-37.928867 469.962341 -1415.015625
-23.340307 453.504822 -983.652710
225.689453 617.082947 -919.652100
-104.204994 898.079590 -745.218567
262.745636 364.700348 -1399.175537
-11.742888 813.187988 -964.869263
-8.083481 733.655884 -945.497192
106.986420 515.565247 -930.741821
12.461447 610.459290 -1430.198120
-33.223827 611.645386 -963.401001
45.716038 662.235168 -952.838135
370.070770 630.790710 -1393.625854
-137.947769 675.146118 -1432.929443
278.272034 578.718872 -1402.994263
58.911743 889.115356 -732.853943
22.221945 864.213989 -814.427185
278.966797 730.542358 -939.215088
29.235769 847.842590 -833.544800
292.067749 592.437317 -922.292236
-0.257951 858.819458 -852.978210
162.903824 864.923767 -863.859680
273.898529 589.537292 -1414.931885
181.994461 867.409058 -838.780701
259.960388 872.314453 -715.644836
260.716003 593.561462 -1410.876343
86.215759 470.563446 -1429.582031
61.841423 909.721375 -617.397339
176.100235 867.517639 -799.929626
131.022507 755.171692 -974.551880
119.466782 673.793884 -941.493896
113.228966 878.983215 -788.283813
402.623383 590.882751 -1395.819824
-13.799891 559.884644 -942.800720
246.338852 685.539490 -1355.768066
105.294388 646.614929 -938.987305
-143.237991 558.215393 -1402.738525
340.986206 644.141479 -1352.921387
347.598816 642.686401 -817.381531
244.390594 479.946381 -939.285583
328.975647 631.684265 -938.526978
110.046303 438.317993 -951.443542
122.260574 745.038574 -947.825195
306.219727 447.510254 -1379.977783
302.267212 960.396912 -1407.531494
116.648666 396.446777 -1379.134766
219.838638 444.665771 -1402.122437
-60.736286 589.846436 -935.978394
91.800941 920.837524 -604.522644
36.454620 417.998169 -1427.337769
231.170853 343.420593 -1405.358398
14.758662 892.610962 -702.171204
65.952888 336.305298 -1394.433960
310.928802 732.054504 -944.659241
-27.920929 893.641235 -719.335571
299.666290 699.340332 -909.743103
275.915894 850.750305 -787.852295
120.845566 522.178345 -932.531860
230.954163 663.068420 -1359.697144
-79.547501 651.409485 -938.415833
341.298065 543.939819 -1405.630981
164.321915 492.853333 -939.318420
111.944763 892.097412 -694.361328
371.349579 477.038116 -1377.782471
-19.407103 700.425415 -960.018311
124.663261 534.370544 -918.398010
72.004761 404.085510 -1419.529175
474.100525 659.524658 -1383.192017
77.825539 570.169067 -939.895569
188.270142 413.880310 -1385.373657
74.426811 850.052185 -845.949341
358.144257 584.191650 -1395.532227
-29.409483 551.950439 -959.753662
5.545069 442.103485 -963.753845
233.356384 382.111603 -1382.354492
62.617348 636.523010 -1414.173462
-56.104156 467.118530 -1415.450562
142.260040 424.981537 -1388.944336
62.960148 552.768494 -1414.122925
103.031769 360.101410 -1408.595947
386.675507 623.849670 -1377.165405
258.996765 833.831543 -1390.239258
238.108383 878.477356 -654.857727
262.524719 469.844086 -975.115479
-26.246832 908.067078 -681.151611
343.384644 522.292725 -1380.587891
296.573944 485.370026 -1408.035522
54.719864 646.649841 -942.199646
238.677597 427.554169 -961.648560
268.172699 585.578491 -929.534790
-23.944029 736.234375 -979.652405
161.716370 726.974609 -933.349426
133.605682 881.909607 -762.308044
126.861786 784.998169 -951.161987
237.005585 608.592163 -921.116272
-110.278603 629.025391 -968.600098
96.822296 431.306671 -1400.106812
163.749954 914.705933 -581.318115
-36.238388 535.380981 -961.547546
191.884644 460.140320 -945.252197
160.422287 902.020874 -646.882813
122.218529 586.386841 -1395.337646
137.930237 367.229279 -1380.656860
-72.701393 595.747192 -1360.977051
114.996109 637.824463 -938.855042
112.236320 371.471649 -1394.600586
283.026642 578.369507 -913.191895
-36.479622 905.528320 -642.898865
322.378143 1011.085266 -1423.019409
118.368172 930.749512 -585.061340
279.410278 582.016113 -1412.110474
269.017151 839.639404 -826.519592
-151.325165 540.794434 -1411.708496
108.855247 461.595276 -1409.198730
222.561966 872.981140 -738.218933
19.523062 893.529846 -716.300598
-44.603313 609.942078 -1409.259399
223.790283 490.523254 -927.556396
208.813934 314.471436 -1397.264160
121.949913 547.273010 -921.292236
182.081421 776.183777 -1425.261230
205.991470 507.342651 -929.283813
50.578419 626.609558 -1421.700806
158.446411 447.218201 -1386.942139
-9.281636 895.562012 -678.624756
124.813927 315.491028 -1382.651367
194.290833 398.641968 -1391.626099
300.609161 633.633545 -920.477112
77.795868 505.466827 -920.501709
383.186188 551.816895 -1379.204224
127.576225 500.766510 -1387.901001
197.775314 651.127014 -1349.478516
-66.929565 600.597961 -1398.660767
-26.219820 402.186584 -1397.435791
35.884678 893.730469 -717.928833
33.778484 493.303436 -1425.447754
220.927673 1046.567993 -1436.998901
183.271484 430.933807 -951.937744
231.524033 882.829468 -682.178345
181.623856 718.856079 -953.254211
77.179947 880.705872 -719.467468
-1.628962 634.596558 -1421.584595
200.927551 341.588562 -1399.273926
204.451172 566.995178 -1410.570679
170.966583 863.487305 -750.698303
-45.719635 695.868896 -961.161926
194.339737 891.425598 -633.250732
82.946220 352.115906 -1397.126221
-63.666431 463.990021 -1413.551880
-40.995373 794.358398 -1423.209839
111.498215 459.892365 -928.415710
36.968479 655.926392 -955.657776
50.543755 436.252258 -944.385803
143.414795 876.025024 -756.607422
295.619019 417.794373 -1389.738403
124.404594 425.299286 -1373.827271
110.971359 616.382080 -938.969849
20.859528 544.889221 -943.219360
-40.332943 856.791077 -864.934082
336.493805 442.524048 -1391.216431
-35.956074 431.679352 -979.559631
351.274017 536.089294 -1397.002441
200.812073 884.714111 -662.524170
246.050278 455.572388 -951.181702
12.585727 898.357605 -648.442322
95.344063 862.017212 -778.680359
209.887100 512.137817 -924.901978
332.389801 454.780151 -1405.522949
203.754211 381.140503 -1392.983154
-87.613083 768.549438 -1443.006226
232.112396 351.520721 -1399.697388
127.832161 661.417664 -954.835938
163.753204 526.695923 -919.115845
106.954575 909.422729 -618.934875
-40.955238 743.001160 -978.601685
76.154907 741.132690 -959.570068
131.070740 379.828735 -1417.737671
296.163818 960.479431 -1407.332764
149.484512 532.625488 -921.667175
178.630356 316.714111 -1389.239014
-19.841543 507.587646 -1438.129150
319.311890 614.743347 -1392.182983
181.199692 521.953430 -1394.717651
425.975220 593.722412 -1389.663818
199.217102 516.099854 -925.048401
310.077972 474.632355 -1381.772827
303.069794 491.881622 -1384.083008
173.496689 883.167664 -715.240295
13.176679 754.079346 -945.676636
103.869263 567.470337 -937.756226
211.125595 879.286377 -723.591187
277.167694 847.191467 -839.496033
-89.266052 483.117706 -960.699707
79.156555 496.929321 -954.344727
-40.967270 905.624512 -705.391235
262.494690 846.630920 -755.916687
233.502274 918.330688 -620.391785
216.313583 884.746948 -680.894714
26.931761 867.263977 -837.628967
264.005096 612.896423 -1398.264648
196.909180 424.398224 -1389.347778
205.979340 900.082031 -653.569031
93.962753 872.967285 -766.961060
172.426254 866.450806 -868.968384
54.864132 553.989380 -1435.890625
4.799558 869.680420 -826.150635
74.155045 459.597748 -1431.140381
31.916901 876.066223 -787.653015
90.822769 486.727234 -944.157532
73.868607 634.365112 -966.929810
-44.329697 549.558655 -950.108765
157.275467 908.860901 -612.639954
78.161209 785.388489 -960.950623
114.967636 466.384094 -942.856750
33.982006 445.306610 -963.915527
165.328293 901.936401 -628.223572
125.329933 914.920593 -929.032166
156.629288 655.112854 -1379.113770
412.658539 693.481384 -1370.648071
-98.231796 517.630493 -957.382324
192.157944 646.114380 -924.823181
19.608955 439.079468 -978.506958
-39.385345 610.054443 -1412.749756
343.137726 658.690796 -1354.148926
219.632889 425.856842 -964.891174
101.563606 480.016937 -922.518860
216.248108 768.022644 -942.938660
43.224026 431.935181 -967.671997
285.670044 588.111755 -921.929810
383.367584 594.687744 -1390.401611
162.951950 870.058594 -839.091675
-25.862818 883.935242 -780.200928
132.712479 436.002472 -1340.392822
351.425812 562.408630 -1383.922241
90.341591 614.164063 -945.232239
150.146408 480.564301 -1355.044312
-86.407028 585.269897 -1355.143677
289.653931 558.870361 -926.331970
62.493961 876.570557 -796.720825
189.753632 685.628418 -940.704041
371.176361 616.087646 -1393.804932
181.523499 647.273438 -1391.144409
48.419144 686.151367 -948.692017
271.834717 640.661804 -1403.395630
296.383240 806.922729 -1422.853638
145.786652 928.015930 -593.722229
9.810064 914.703613 -647.132874
-39.714439 763.393066 -947.492615
182.351517 829.514954 -958.862427
61.301517 336.335052 -1387.956055
245.981201 877.745972 -683.203186
177.199448 1061.288208 -1407.296265
232.449295 871.823975 -715.064026
64.667603 926.187622 -599.630798
292.410828 744.106689 -1389.099243
227.338760 651.040588 -944.472717
66.636330 539.763794 -948.999939
440.141907 637.079224 -1376.641235
262.420532 848.686462 -810.344299
154.497421 513.476440 -1359.169678
275.166107 611.780334 -1395.004395
116.425316 507.624847 -1393.419678
232.647171 433.407959 -949.145386
315.327240 626.529968 -1364.538330
265.889404 667.481689 -1329.274780
-1.834557 917.523376 -623.107849
92.295044 355.277496 -1398.444214
255.930817 457.720703 -978.063904
55.630241 389.539368 -1406.900879
326.862427 449.539276 -1405.858521
273.618073 667.228088 -1401.890381
276.451752 402.373535 -1401.781128
183.555420 439.290070 -957.566284
12.278132 875.237793 -792.048645
175.374649 409.569672 -955.938293
256.537476 604.339600 -1410.717407
245.461929 398.613098 -1393.521606
218.771332 875.649170 -717.533691
433.864288 721.441772 -1390.737915
257.335327 550.373291 -917.240417
207.611282 857.131836 -794.294128
11.363884 866.710693 -808.884888
94.207108 457.231354 -1379.637329
-34.539547 614.385498 -1413.576050
238.750671 849.610962 -779.861572
368.452881 635.577942 -1378.182739
267.542847 532.640930 -920.630615
92.553787 424.667084 -1386.107422
126.700966 909.246155 -615.758667
195.595901 885.911255 -1355.150391
66.876114 460.005524 -930.077148
133.938995 564.314514 -1364.427124
190.010147 625.976563 -1395.665283
154.610565 426.169983 -1384.058472
146.786041 422.780487 -934.989502
228.705032 860.919983 -835.145630
190.740082 392.446655 -1383.862427
-26.466906 899.463928 -673.165527
40.215576 638.318481 -1377.525269
181.773254 876.071106 -685.769043
266.350769 757.564331 -1435.900146
149.798309 486.013916 -920.342896
63.546227 456.455658 -1418.852051
115.386490 665.235535 -1266.114380
233.014877 861.073486 -726.572571
41.947025 400.668762 -1414.971924
186.765549 809.968872 -942.751465
353.072937 607.043518 -1398.850464
97.217827 446.085236 -1394.410034
236.784851 456.294342 -956.651428
284.975311 516.720764 -951.025879
109.784088 357.693085 -1416.704346
270.587799 441.668030 -964.049744
129.795410 895.711060 -649.527527
140.281952 680.472412 -945.384460
182.761520 884.997498 -736.306580
214.584824 906.796570 -616.760681
89.252411 519.568848 -932.226257
247.080505 583.402588 -1420.081665
199.692352 358.895325 -1403.392822
-19.922644 541.009216 -946.111328
86.841202 872.686096 -843.371033
-15.534396 826.057922 -1450.827515
190.886093 462.475769 -930.420288
320.150421 1035.319824 -1408.794556
162.817047 861.710876 -829.316528
32.981831 797.716553 -948.107117
398.272400 566.277771 -1394.492554
-19.661751 904.503845 -681.701904
252.395416 556.735657 -930.684082
-111.803612 583.840271 -1393.095703
262.984192 869.381836 -696.248352
221.725769 888.081482 -662.248230
-40.291584 572.519714 -946.269470
264.952820 836.620361 -837.103149
67.210373 966.329956 -589.264404
180.879349 308.824554 -1390.780884
162.106033 882.503906 -670.573364
-49.833221 462.823273 -962.848145
-11.362480 390.772034 -1394.195190
29.810890 468.720154 -943.311218
47.241753 511.782715 -935.100525
284.784882 556.245605 -926.409241
146.073212 642.183655 -1376.849609
9.898396 519.543396 -955.002075
-177.190094 657.849487 -778.097290
335.397125 663.130676 -1367.621582
297.313141 648.653503 -1407.948730
120.757805 863.856812 -783.723938
184.054153 891.322449 -654.377075
212.578995 507.423157 -919.411560
159.589279 427.484924 -951.352417
-4.369584 437.676178 -955.041443
-55.556683 464.594666 -954.772400
-46.102013 517.000488 -942.486816
124.249535 472.109192 -1380.522705
218.139420 502.274994 -919.903870
242.658798 906.885193 -616.178406
-21.798965 573.725891 -941.147217
64.921776 718.416992 -955.263916
345.310211 444.822937 -1399.200684
-109.727753 547.434082 -1354.852295
122.802406 435.969055 -1395.950684
60.073009 437.980835 -956.574829
297.308289 639.685791 -1370.537598
330.266022 590.898621 -925.565918
65.419022 589.191223 -928.601807
155.081985 322.450928 -1391.084717
377.993469 602.177063 -1382.350220
-2.363399 592.124329 -1430.173462
83.581047 618.894104 -938.950623
90.839981 660.225830 -1359.722412
213.177185 906.320129 -617.354675
-68.982384 558.225281 -1392.371948
211.895981 805.414001 -1426.351563
155.068771 480.183014 -921.364380
401.699982 618.053467 -1334.723511
210.415009 904.905151 -607.576111
-15.492982 455.840515 -940.547485
185.445999 760.451111 -953.364685
60.197021 602.269165 -952.877136
153.591080 616.710754 -952.882080
116.038452 902.659912 -669.560364
260.210022 478.257599 -963.085876
120.926178 427.425232 -957.275146
272.853424 876.056396 -691.896301
9.262010 450.122345 -942.266235
274.863464 641.550354 -1328.049805
100.776619 459.029053 -936.876831
96.648132 872.288452 -740.191895
39.219849 469.637421 -1422.754272
202.982773 823.319397 -957.810913
-52.494751 506.321838 -1418.207031
205.861053 884.500977 -662.402466
156.544937 383.360840 -1408.363647
380.063416 543.604919 -1382.243408
318.322723 640.865540 -1398.776245
350.585052 699.572937 -1390.459839
144.324997 336.716400 -1391.791260
59.454731 893.264771 -741.476196
0.221449 600.803894 -948.489685
245.083832 886.489685 -678.065491
399.205688 629.190979 -1333.778442
274.199066 653.552246 -1396.148071
195.674347 883.725952 -649.065002
40.976597 586.840637 -926.998840
153.499802 412.440216 -960.026245
-47.903690 868.319519 -787.102173
-36.169411 890.821289 -710.718323
258.914398 884.042908 -671.207458
163.633545 562.918457 -942.753113
293.133392 601.059448 -1387.163696
-39.155144 745.697205 -982.685486
5.093229 665.182922 -954.082336
57.479439 899.183960 -668.580444
4.462051 601.799561 -948.005676
258.612732 530.116211 -1405.123901
226.218475 494.204712 -929.857666
12.927476 868.421753 -819.019653
135.090195 886.695251 -736.364075
320.293488 618.518494 -772.817017
464.157257 647.959045 -1391.346558
355.107147 525.819336 -1395.557983
128.398209 430.511475 -1326.488281
184.661697 577.055359 -1408.491943
-46.918121 582.537903 -941.189575
164.287552 492.359619 -920.452637
431.283783 576.474182 -1394.008057
55.675438 545.305420 -958.929688
257.803497 882.682434 -678.009827
62.222858 647.797668 -950.523560
215.235321 479.871582 -923.155090
154.864883 383.507507 -1378.969849
265.532562 454.951355 -1384.085815
198.412064 885.134521 -680.799194
13.659451 387.751434 -1402.541626
-14.615188 905.517395 -683.295349
82.030617 446.280792 -1403.560669
325.456787 679.443970 -1363.523682
133.872681 776.731506 -958.269470
303.482117 526.917969 -1411.749634
158.312744 830.093384 -1363.954102
-121.645706 576.275146 -1411.195923
221.151993 578.370789 -920.657715
146.388107 799.705322 -941.477295
-81.610962 567.414185 -949.425110
28.450636 594.860474 -931.612793
-8.490943 636.533142 -937.555298
146.160553 440.703552 -964.812561
99.975800 918.092712 -631.956299
194.058151 683.118469 -933.554016
-46.648075 678.985474 -982.808167
168.787277 358.401367 -1407.663208
-13.793519 448.585785 -968.159790
71.538666 703.225769 -955.764465
66.770874 875.793030 -825.896118
140.133743 928.901733 -604.878174
146.875153 852.206360 -836.069519
187.897659 506.926514 -1380.412476
434.566315 594.283752 -1394.137695
15.177910 425.485840 -953.444336
323.787903 903.313049 -1400.955566
266.683167 470.876740 -953.182495
-26.795328 761.515747 -947.653137
12.877001 452.999268 -965.745056
142.190186 469.779602 -1403.170288
257.922058 845.086426 -786.513245
43.511021 698.117920 -969.332520
41.530411 863.258667 -818.159973
214.425049 885.992065 -665.237427
228.452133 362.363800 -1395.163452
332.311737 503.014893 -1405.035156
288.713409 549.654419 -945.430786
202.689346 436.393463 -957.112183
-89.554672 467.021179 -1399.303345
164.282974 434.112793 -949.730652
158.097412 926.199829 -605.575684
180.682175 318.128448 -1394.229248
282.642578 614.885498 -927.353760
124.589645 396.782043 -1390.603271
293.751129 504.163788 -1399.626953
38.053429 745.681152 -976.326355
88.485107 510.779541 -1397.577637
420.923615 635.042908 -1370.687866
-69.912689 491.594238 -1428.763916
381.562286 516.317322 -1404.755737
271.930023 810.833496 -1368.948730
-39.660084 513.446228 -1435.312378
-43.200863 573.333496 -1365.106201
-65.446938 869.819824 -794.427185
314.616913 611.863342 -937.799744
161.383575 529.575012 -931.365234
351.229279 538.688416 -1395.507080
295.359406 660.299316 -1407.197144
-75.324852 521.837280 -1421.289185
152.990265 311.215057 -1389.178833
369.513977 629.007813 -1384.997070
182.393219 867.003784 -779.682800
289.550659 464.081635 -1379.716553
-39.954491 496.683197 -951.010986
-78.930206 733.855896 -964.589539
192.151367 700.330994 -939.304443
313.054688 672.901489 -1379.979126
-53.710602 581.481323 -1420.848389
-43.614460 532.293518 -934.435730
99.641975 457.392426 -929.231689
243.919098 895.717834 -657.620483
-48.583004 512.344543 -942.956299
-3.941398 870.417114 -833.853271
-146.487869 556.720459 -1427.496826
364.477295 522.164551 -1402.316528
0.194408 731.167847 -959.528625
182.898117 583.836304 -927.610352
14.299983 879.440125 -791.110535
208.500168 465.371368 -935.973145
222.959656 552.099426 -926.755066
-48.634758 775.554932 -977.335632
285.165039 431.218292 -1393.504639
369.694092 464.268982 -1400.462158
366.996674 627.138123 -1351.512939
153.137497 484.941956 -934.226379
-51.810169 905.523743 -657.253113
165.165192 702.734558 -1302.534180
-51.450809 907.029541 -650.935364
93.782570 942.261047 -559.356506
68.417877 605.322021 -1296.381836
485.196930 645.924683 -1381.077271
32.493732 524.444153 -937.915344
55.551754 869.645386 -775.988647
124.048019 887.013000 -684.414490
15.642651 471.955536 -946.729736
-30.265385 513.561707 -962.496948
227.505966 666.874817 -1402.092285
370.826660 556.454346 -1402.993164
-17.863621 931.291931 -626.965698
122.487839 871.205811 -735.097351
70.553314 893.667114 -729.411377
55.349102 927.464966 -610.243713
144.003464 901.683228 -634.335144
160.958832 406.478821 -957.881897
-32.986271 862.221619 -820.238647
74.742912 443.069061 -952.716003
-50.077156 804.827637 -987.447144
242.685654 845.359802 -808.738953
110.948166 875.609924 -816.328857
257.735962 542.078735 -917.750854
-132.134109 579.518433 -1398.515137
-60.977821 493.706055 -1427.713135
6.346114 449.579285 -1411.209595
325.097900 608.384949 -900.317200
-96.927605 492.968872 -1409.031128
191.537613 635.179565 -1388.671265
234.004837 355.587646 -1388.350220
264.447266 515.520264 -934.912659
188.217697 879.399536 -731.932556
164.991577 431.652344 -1381.019043
-0.522145 691.237244 -972.502502
174.820999 894.807800 -636.705688
72.729317 524.213501 -933.002197
7.989179 496.488892 -961.867249
40.008636 432.452759 -1392.248901
-0.493944 869.551392 -784.943970
110.496399 907.158997 -617.293701
172.988998 651.271545 -1386.845337
172.823975 906.596985 -633.826599
216.620300 465.815125 -941.044922
-30.881029 458.034149 -975.525146
118.578102 842.704712 -869.012817
244.514648 692.922729 -944.657043
188.185211 636.024780 -935.871216
212.748199 367.246460 -1378.225464
143.251678 310.355713 -1380.850220
-83.064034 690.098938 -1417.052734
63.399475 869.739380 -812.575623
106.096802 888.342346 -708.203491
408.111328 597.699829 -1355.407959
160.898422 590.974182 -1294.641602
168.024673 531.410034 -919.183228
106.822403 901.624878 -684.357605
-40.463837 615.875610 -949.594421
372.974396 462.211578 -1398.635620
77.957703 713.714783 -976.356812
129.617523 938.097595 -598.722778
217.332581 898.825317 -614.630310
203.191589 876.936157 -701.746338
93.013771 518.899109 -919.719788
352.009247 589.044922 -1401.207031
214.146332 891.984802 -633.938965
194.134613 859.449341 -804.632324
99.880867 511.912384 -1406.416992
264.057465 441.222656 -1406.901733
270.287842 404.084839 -1391.735474
66.907677 672.882141 -1370.138428
65.565857 900.734863 -641.773804
94.946754 855.441650 -821.587891
46.838860 887.917114 -691.601990
68.525818 543.889099 -1373.404907
143.592163 499.367462 -1393.008423
196.343460 647.636414 -933.150818
90.821159 873.785400 -822.547852
395.977509 646.599792 -1358.475342
151.853745 344.674103 -1403.614868
203.210205 863.810364 -785.704651
238.263519 517.532043 -1405.278931
44.077232 886.439697 -732.046326
207.891357 906.956482 -629.355896
134.926514 578.360657 -1281.481689
135.501190 430.219818 -1397.271729
260.674561 749.532349 -1403.690063
21.973154 709.800415 -1402.388184
286.657654 600.392456 -1407.908447
55.259388 320.360535 -1383.677246
104.437180 516.381042 -919.309998
45.657162 877.800781 -813.719421
-54.047401 739.394348 -1442.431519
99.023750 873.041931 -742.740417
-31.390820 514.005981 -1420.303711
-64.584915 465.005829 -1412.342285
338.934326 553.001892 -1397.552490
259.653870 432.270050 -1405.854126
163.252304 868.357544 -875.505432
86.473038 650.186279 -1365.431519
53.656975 497.390198 -1396.130127
-63.610004 875.873535 -768.944275
57.979137 902.213257 -691.612854
250.256165 860.370056 -776.227356
187.513824 904.023193 -602.716858
232.499603 774.370789 -1415.156738
195.813263 505.373718 -937.455933
312.425476 976.738831 -1418.262329
58.698128 652.648865 -1401.071655
426.955627 645.288513 -1398.259155
287.927002 580.652344 -1409.159424
58.570423 913.165649 -649.160828
240.967422 502.361145 -941.648132
253.444778 396.625153 -1400.400513
304.231476 479.205139 -953.768066
38.996014 916.662842 -642.766907
149.371552 896.258118 -638.653687
330.392365 928.166382 -1416.580811
271.842682 590.902222 -1395.691895
66.386871 538.284546 -934.554749
183.675919 683.785156 -932.274231
102.314339 348.904266 -1382.386108
138.415070 861.017761 -820.284119
364.712219 504.972870 -1380.359375
31.555214 893.751221 -734.405823
442.229889 707.140503 -1387.520142
191.830032 544.318848 -1405.626221
216.234955 632.129028 -1391.810547
-28.844145 645.237427 -1403.145874
106.911850 381.758423 -1400.612183
-10.388409 755.754333 -1435.029907
80.012047 858.661621 -800.073242
196.246216 898.057739 -618.414734
61.036674 903.788574 -724.579407
261.581482 421.290527 -1404.875854
121.770302 915.218506 -592.200989
-36.599979 419.325165 -1396.744019
330.423035 430.002930 -1400.848145
265.509766 466.037994 -976.368896
223.378906 597.130981 -1406.063843
83.498085 434.295715 -1392.749756
310.242767 847.663086 -1416.271973
123.739510 537.446838 -930.032288
184.864395 903.456299 -621.645447
303.619690 646.647339 -1354.103271
279.567474 600.972778 -1410.052856
24.521729 553.500061 -1400.644043
86.876976 895.105896 -688.983093
-27.167112 855.104492 -853.760620
290.067535 529.331482 -937.297546
166.514404 529.308044 -1379.190430
292.789948 664.727539 -942.806763
250.482269 578.516724 -1397.253906
182.612823 569.728760 -928.402832
132.925064 867.102722 -826.596069
96.325768 937.790710 -595.319275
83.630768 913.114441 -609.722534
72.527473 688.378418 -1360.345947
51.153996 679.837585 -952.666382
204.009171 896.455444 -621.064026
259.497772 808.229309 -1422.758301
212.315857 550.494934 -941.775330
7.462671 452.896423 -970.724487
22.534866 484.133850 -946.226379
253.641617 529.699463 -927.730713
-32.563641 451.566101 -962.010986
126.569191 910.679871 -591.513855
325.218475 895.506958 -1404.281250
133.902222 335.651886 -1382.757813
453.027283 633.589600 -1404.342651
128.973175 467.851837 -1391.806396
-33.319714 521.196960 -945.325500
211.927948 879.814453 -697.822205
262.569214 511.673126 -946.926270
115.355820 605.375427 -934.912292
180.476273 852.531616 -1404.699951
139.072708 507.039429 -1382.090942
198.062149 889.722290 -645.962769
37.420807 912.389038 -631.135254
288.302460 465.242950 -1397.552124
41.576889 497.212311 -936.858215
201.846573 676.202576 -1337.101318
47.330345 473.351563 -1413.001465
-20.091030 611.483215 -1360.971436
6.573049 927.384399 -603.941223
299.396027 583.258850 -1411.470825
121.191597 637.283203 -962.688171
64.615295 828.126099 -960.312073
366.983276 487.668030 -1403.218506
388.912354 645.771179 -1366.408447
271.502930 806.315186 -1404.025146
336.430084 504.240173 -1384.259766
337.497986 616.003052 -796.873230
269.873322 375.281830 -1392.493896
152.746094 303.387115 -1379.823608
-92.797188 526.757568 -1430.382202
37.886562 803.491150 -948.159546
26.557354 394.136230 -1406.818115
261.022644 611.448547 -929.318970
188.109177 892.001892 -652.305298
-43.880501 806.325439 -1466.312500
248.763046 564.975281 -1396.882080
432.338501 586.748474 -1389.925171
-57.037041 563.142639 -1416.599487
199.164230 683.566223 -1340.268066
246.149445 449.605316 -963.777161
306.765350 567.713379 -1411.414795
-55.166374 609.420898 -1395.347412
263.089264 563.313354 -1390.466064
50.998795 543.753174 -939.602844
74.815994 417.027405 -1426.197144
53.846855 560.646912 -951.546509
314.770599 603.578308 -1404.370728
31.275469 805.597046 -1427.680908
292.042084 574.605164 -943.168884
-26.372089 532.239563 -1403.703247
5.255349 665.588074 -1399.118652
182.593384 479.579620 -1357.022827
1.734471 390.435730 -1393.174561
78.086571 467.214264 -926.109436
-3.480051 513.252686 -957.651489
153.183380 490.401672 -939.046143
246.193970 471.797119 -1401.780273
166.381775 791.846130 -1389.767090
192.423203 435.707520 -937.338562
140.087738 926.347839 -604.376465
59.940517 906.808533 -651.809326
29.100180 530.408020 -952.592468
247.693436 840.288574 -1382.121704
249.001068 852.690186 -1408.850952
211.167023 622.825989 -1408.081665
-15.760213 476.202271 -1402.272583
149.902847 418.993530 -952.231018
175.443893 759.170471 -936.222351
157.474991 912.704895 -583.811829
17.038311 908.748352 -633.581116
-108.873039 618.722717 -936.021484
394.258545 640.663513 -1371.535522
246.588379 838.392883 -841.648926
-9.540220 917.945923 -645.559509
236.359451 596.244995 -948.969421
183.817978 456.789093 -1369.992676
25.192204 615.780762 -948.637268
88.538818 879.506714 -769.761353
159.448792 891.476013 -674.800659
398.961060 600.649353 -1331.068726
457.152679 692.858704 -1387.063354
188.458282 520.093811 -925.193909
364.778076 685.062317 -1404.408569
-123.430305 511.637360 -1419.244141
387.906952 597.694824 -1328.471313
6.767888 502.239014 -1427.159546
305.197968 510.041931 -1406.108398
116.134575 911.592834 -613.538269
261.255493 494.008850 -1401.555542
51.364925 440.816498 -957.529297
151.538071 570.092468 -937.854431
275.764618 717.741760 -1386.525757
170.428635 453.289459 -931.402283
189.491501 445.888184 -942.668396
403.856934 547.919067 -1404.763916
287.325653 703.117859 -1383.169922
33.211529 663.789673 -953.486023
159.867752 849.076294 -823.382996
9.335483 543.474609 -1419.545776
-40.434040 593.049805 -1369.875122
58.514515 893.906921 -729.885742
-113.238716 527.299744 -1412.390869
226.559525 853.887024 -1400.685791
268.459839 918.404480 -1359.477661
-34.754398 516.075562 -961.615295
274.209930 830.646240 -823.716797
206.800522 909.133728 -602.121643
-121.396271 651.203552 -1413.949829
89.756607 869.023682 -805.838623
88.156342 451.587311 -947.166931
-113.233887 551.053162 -1381.014038
183.655945 362.419830 -1388.920898
-156.856567 604.341431 -1365.365112
133.048279 528.091309 -942.816467
107.041405 655.272827 -1396.812622
194.081726 865.883179 -772.201782
83.625854 902.361389 -686.029907
105.688652 894.971802 -706.382751
307.266113 534.048645 -1400.554443
-64.529655 463.908905 -964.064392
59.217964 550.367004 -925.561584
121.337433 910.993103 -673.372925
130.396942 886.631714 -695.204712
-62.884872 887.407532 -721.539246
131.372391 881.552551 -742.535461
82.750130 516.015564 -932.553040
179.075867 880.874084 -675.576416
-16.658058 610.384644 -1386.092163
209.785431 859.453003 -796.014404
-35.509624 724.513916 -1427.263306
52.817783 859.437744 -804.654846
188.679901 809.304260 -948.202454
286.850861 427.274750 -1394.403564
154.126953 880.992065 -680.294861
99.149857 657.638611 -1401.117065
101.641685 449.391968 -939.013123
77.337692 671.932861 -936.633911
113.786705 786.346558 -959.299500
196.464691 391.651855 -1384.395386
402.063568 588.585022 -1359.757690
180.273956 391.719788 -1360.497559
-64.129372 476.757935 -1417.051147
-54.146656 897.546631 -723.731506
-55.600250 486.021973 -976.137695
-6.530697 898.091675 -725.191467
151.810745 926.073425 -599.414734
153.557434 883.060608 -707.301880
-43.866016 539.997375 -1403.810181
67.952148 560.244263 -925.690308
367.888947 495.382568 -1389.437012
278.582611 603.876587 -1390.806152
-35.636490 741.944519 -947.121155
184.592545 873.157532 -766.417725
32.675770 557.424683 -943.264709
-38.819633 622.484558 -964.543152
196.156555 650.672729 -1336.184692
133.748657 510.241516 -1384.042603
79.093140 453.160858 -960.962341
177.604599 414.916809 -1383.415161
250.349289 750.090698 -953.466736
13.222487 919.163025 -598.151306
197.943436 694.866760 -951.889404
135.536346 933.876038 -588.536682
-170.302979 568.000854 -1385.745239
103.860924 430.245117 -952.056946
-83.587440 652.646179 -1412.924561
84.928108 349.109497 -1397.210693
233.589401 795.638916 -1393.812500
30.303284 912.538513 -671.743103
95.110283 467.048950 -954.105591
160.910217 866.252075 -782.698486
259.698517 411.719391 -1395.933228
230.196472 893.331116 -1378.634766
266.850769 419.488037 -1404.481201
19.004681 728.941101 -966.682251
113.248138 878.648315 -751.146667
-50.693687 897.570618 -686.584900
230.855621 918.649719 -605.664856
129.752182 564.581421 -1406.426514
6.126547 767.374329 -970.676270
355.062012 576.107483 -748.818726
35.107063 705.425781 -960.187256
152.219635 330.439972 -1381.308594
69.251534 434.188202 -964.529114
-60.816589 606.826050 -1392.051758
-33.683537 519.434814 -1435.085449
-64.986496 873.818542 -768.962097
348.971741 458.638916 -1390.499268
61.369209 858.784485 -848.340332
8.264033 684.895447 -956.821594
-33.485912 677.733276 -941.886841
253.302795 475.883850 -944.745422
181.514862 480.505249 -1363.024780
226.635773 818.746887 -1390.658813
82.944427 547.105530 -923.715881
96.606689 909.318359 -637.968750
52.236420 785.823303 -1405.150513
72.342323 573.384216 -950.929443
-8.879737 759.482849 -971.795166
-26.912806 463.026520 -1416.177246
202.235748 882.925842 -1374.151367
177.133316 420.124817 -962.531433
448.228210 565.601868 -1377.001587
152.808533 356.890381 -1393.376831
24.232224 873.925049 -804.892883
259.082764 460.903839 -1385.420288
91.845375 925.804626 -591.283569
171.108643 578.368652 -930.366394
189.062241 893.054077 -644.130615
281.296722 456.167175 -1386.590332
270.070099 601.970154 -927.914551
194.694122 887.513733 -674.642517
288.434326 524.145935 -939.438477
124.466507 462.058899 -1404.128174
136.835968 380.339447 -1404.830444
335.120941 563.197388 -1410.199707
111.890709 626.782349 -1402.873291
87.312057 781.349060 -982.245911
199.101624 612.722656 -931.433350
153.898743 611.795288 -940.633972
-121.965042 684.995361 -1441.315308
135.859604 380.997925 -1393.995728
17.404945 651.002869 -937.764404
-27.647648 554.268921 -1419.054077
157.451248 916.231262 -610.692566
178.048630 921.774170 -606.136597
169.087555 583.083679 -1403.837891
23.393732 416.704773 -974.142029
106.627129 398.756958 -1412.179688
63.369270 794.861450 -961.833191
-49.631386 763.003174 -1449.342041
325.175720 409.808533 -1376.123047
100.349564 870.274902 -751.337280
72.076767 648.007507 -934.423462
-13.237266 934.024963 -609.206299
331.034119 1001.876953 -1424.316895
135.167999 466.468872 -941.831665
317.684723 756.271851 -1400.851807
89.830154 525.280762 -951.717773
49.742317 852.473389 -834.074768
317.955566 644.505066 -1381.540405
236.334167 645.137146 -1378.719116
160.639603 478.992188 -922.546936
26.641630 880.947632 -810.543518
216.934387 438.782257 -1374.506348
47.248203 745.471130 -965.266785
259.323029 865.614014 -743.469910
164.459915 592.496033 -944.959534
410.138763 702.544312 -1385.052246
-33.472118 582.377563 -1411.043335
46.323341 877.708374 -801.393127
201.071793 543.473511 -1405.339355
-24.364025 739.896790 -960.820557
64.183418 520.906067 -938.008057
252.544830 910.953186 -628.728210
252.290665 652.817749 -1382.708740
-3.480832 744.316040 -959.893982
55.843685 530.275391 -935.898804
142.132553 545.824951 -1323.507568
186.615662 747.996704 -968.844421
34.164257 468.250854 -1427.292114
-79.488968 687.338745 -1419.790649
160.203491 888.300232 -666.241394
-25.831776 639.023621 -936.652405
201.543411 478.283844 -928.979187
137.341995 452.849579 -1396.458130
66.770332 351.771820 -1397.710815
-14.481304 865.963257 -787.069519
106.432587 762.523987 -969.099121
-58.096561 510.745636 -949.337341
382.929901 635.695190 -1354.683960
138.407852 492.878143 -1390.655273
173.241943 669.401062 -1378.885864
424.356476 622.878052 -1388.538208
133.585205 551.445313 -929.631104
183.780151 704.771484 -1350.664063
485.760162 668.664795 -1381.259033
313.695038 647.214417 -1343.961060
110.590210 905.226135 -622.372070
135.516647 452.512299 -1303.451172
334.101410 898.541687 -1377.482910
203.158096 611.680420 -938.241394
95.059395 877.500366 -722.753845
20.713367 624.228638 -1421.046021
17.301863 613.205322 -931.299011
35.393112 585.046387 -938.884583
112.227692 445.783539 -946.739929
271.526947 778.761230 -1437.313843
-2.556519 600.299988 -1343.314819
213.774338 392.132538 -1383.059814
109.710838 653.265625 -1411.472534
390.683746 633.708008 -1338.487793
150.935669 381.233185 -1395.630859
202.576584 672.507446 -1368.658447
-65.021431 875.141174 -783.465454
267.563049 396.305756 -1399.228882
40.313843 586.890076 -1419.129028
47.921371 900.261597 -644.135376
19.007931 520.499207 -934.242065
28.257830 494.680695 -942.502441
212.755157 869.747314 -746.841003
355.897003 630.660278 -1363.668457
15.020155 753.252380 -959.008972
53.356346 885.131104 -776.946167
-64.561058 512.498840 -1430.644409
214.972992 888.925171 -643.036133
-11.048982 552.425598 -1419.581299
137.846207 852.077637 -837.381226
-149.401871 569.491089 -1376.442871
113.658157 887.547058 -700.429565
449.156097 636.907654 -1400.643555
73.392586 940.867065 -590.592102
-11.232583 623.052429 -1396.537964
-49.973339 706.203064 -1424.215820
246.870850 767.057800 -1376.306030
119.419930 897.915466 -685.558777
89.246674 570.064270 -954.342041
315.842957 480.901581 -1395.865479
200.327408 464.136871 -931.388794
243.978424 663.867004 -1355.250977
2.767286 561.195190 -1416.487793
109.982536 450.807922 -928.804321
173.301331 351.511230 -1389.010864
222.926544 424.707825 -1380.904541
235.614594 864.405090 -805.711426
419.026245 599.297424 -1394.825195
-78.817993 586.463928 -1351.744873
170.411514 503.032410 -932.884277
196.819092 615.370667 -1419.661865
178.120316 883.514221 -667.124207
64.350960 667.941406 -1414.965332
143.058914 513.473755 -918.004150
-33.920490 618.265625 -1395.921875
351.428955 573.620850 -1394.763794
27.854361 889.821777 -692.374695
170.130600 556.529114 -1368.289063
-121.018120 606.719055 -1414.104492
-20.372051 576.836487 -1415.494141
164.250687 311.930298 -1393.768799
186.106430 520.953064 -926.418274
11.794207 901.844299 -685.877991
215.496964 891.687988 -644.372437
-17.793646 924.798950 -612.497192
191.038239 495.747742 -1407.835693
-37.461803 826.024353 -983.294556
187.868805 731.340759 -1325.206543
212.417526 516.050171 -945.395935
199.877274 492.180725 -946.887695
41.641186 406.161469 -1416.928345
104.980194 566.437439 -939.217163
165.392776 450.263916 -933.762329
116.223907 683.970154 -968.532471
230.499207 508.978607 -931.655579
257.350555 527.440002 -925.914001
246.987213 697.917603 -948.743286
420.607208 552.582886 -1404.166870
335.089539 939.319580 -1421.313354
337.683319 433.777618 -1393.749023
8.660485 877.663757 -788.221191
89.884178 361.525116 -1400.628784
152.278442 492.654907 -949.070862
-32.778912 659.699463 -963.503540
-54.534836 463.836914 -1413.185547
177.406540 809.793884 -950.644714
103.024155 895.006470 -689.336975
98.966644 680.372009 -1372.950073
99.753159 867.976868 -792.525696
141.356323 860.106140 -799.303894
158.770218 379.450226 -1380.592773
205.751755 849.401001 -1412.948975
208.694839 441.979828 -947.852173
281.955231 713.382874 -940.664734
258.443420 845.584961 -832.922363
316.014648 468.937500 -1381.194702
189.617508 895.178894 -640.731934
266.387848 520.946594 -1402.278809
-164.291336 583.776978 -1410.408081
