ply
format ascii 1.0
element vertex 1375
property float x
property float y
property float z
end_header
599.685547 196.693726 -1073.589233
508.449738 429.027435 -920.973694
651.546570 -55.873493 -1425.344849
417.215057 -86.758835 -983.482971
597.873657 356.522003 -953.206787
506.308716 -213.644409 -1391.328003
428.031311 49.892590 -1018.072937
739.349670 -208.923279 -1314.264404
544.082825 101.412216 -1000.152405
685.838745 186.256546 -1016.216858
511.641785 116.363991 -1072.003662
636.880493 442.799683 -786.837769
554.640686 55.502796 -989.579163
554.115295 520.080688 -825.939697
556.775024 -109.845917 -892.312988
646.563843 338.108551 -936.503479
705.729858 -36.737076 -823.061890
592.242188 462.186646 -827.530273
642.686462 19.503059 -1492.546997
543.010864 -110.545128 -1422.064087
533.830566 392.244171 -948.057312
502.997925 -147.881027 -1420.702148
721.116699 -366.297485 -1249.546631
498.975067 -173.745056 -1396.675781
452.962585 -175.730865 -1440.959106
678.069641 -413.953979 -1221.376099
426.510651 21.266914 -1001.384827
593.448120 500.030731 -778.723755
439.862518 490.688690 -899.409729
795.753845 -338.973816 -1233.820801
589.424194 -251.848343 -1333.926514
806.717651 -40.721546 -1365.856079
305.906860 281.785370 -970.934082
750.204468 -263.348663 -1286.160522
664.201416 -8.223939 -1476.538940
494.835449 -242.328369 -1418.743774
839.392395 -20.115805 -1363.032715
669.288879 436.063751 -790.554321
609.997803 -325.197693 -1288.652222
719.343994 294.407440 -909.314514
781.753479 -380.995850 -1200.399292
764.265808 -187.309753 -1317.316528
550.447144 -46.154499 -933.459106
898.006165 -267.591095 -1232.833130
709.484375 336.740723 -883.581604
490.134705 -23.125910 -943.758606
845.046082 -198.697266 -1298.568481
704.184570 -269.418060 -1285.948975
540.849915 181.270294 -1080.410767
684.972351 -41.852398 -1324.624634
676.051575 386.381775 -815.860657
610.738037 394.207550 -883.879333
840.596558 -273.996887 -1229.935303
564.372437 -182.991211 -1387.603760
351.060303 -54.671715 -997.440247
679.271362 -46.151466 -864.278564
537.506104 81.504684 -983.691406
475.138062 62.744091 -1032.532715
619.304260 -272.102448 -1324.618042
864.297302 -50.900177 -1348.821777
672.715637 4.508437 -1479.011230
715.031921 67.075111 -923.633545
467.814178 16.766459 -1009.688843
572.742371 -31.163588 -1510.387451
683.294373 348.701080 -858.991638
632.295959 -265.308319 -1329.357910
490.320129 95.373100 -1033.020996
625.647644 -47.493607 -888.083496
682.656006 384.082886 -828.278076
438.256592 -44.710632 -968.164368
591.677673 317.506348 -1035.984131
600.465576 -92.163658 -882.899475
889.642334 -200.086777 -1277.020386
417.561493 59.319286 -1035.714600
900.109802 -210.311111 -1274.551270
870.690186 -230.191711 -1271.999390
820.167297 -144.586624 -1346.181885
556.813171 398.572479 -942.018616
512.090393 -256.929596 -1377.664063
695.375061 325.924103 -897.727295
577.397095 -338.525879 -1301.005493
547.214722 -378.995880 -1262.218506
633.060669 -67.769112 -1381.978394
904.603821 -201.627502 -1209.269287
774.851563 -229.633987 -1308.062988
603.970520 -98.366089 -1402.113159
494.522522 18.845661 -988.816223
641.150330 457.976440 -776.344543
564.700928 -87.388992 -1439.989136
858.147949 -242.944427 -1275.124023
535.838196 187.858383 -1117.393677
592.757751 31.759081 -928.372253
618.707886 310.979156 -989.837708
675.619263 -31.725912 -872.927368
597.819580 -117.021339 -886.074036
627.992615 240.367294 -1081.717896
767.245911 -218.179840 -1330.718628
550.734863 -139.801773 -1424.384521
658.294678 11.035691 -1393.490356
526.606323 183.762054 -1104.481567
387.559998 -62.440132 -1004.139832
619.543701 -417.812927 -1229.404663
428.960999 -119.377174 -935.450195
527.531189 -42.733368 -912.676208
578.785400 528.157104 -831.645081
450.272156 -36.404007 -950.830444
447.438690 -189.961304 -1457.727173
677.842224 14.868965 -908.431946
639.284424 341.927429 -939.995667
650.645691 299.361267 -1016.661987
994.353943 -193.200745 -1233.728638
777.425293 -195.035141 -1339.799561
529.456970 -125.148933 -906.384094
505.847015 -54.194530 -911.671570
457.843964 -137.854553 -1459.547363
570.417542 434.066254 -852.319031
514.880249 61.973057 -1018.187927
467.308594 372.265198 -1037.112549
557.417725 -317.510742 -1317.071411
523.520996 -98.384918 -903.146423
546.432922 400.783783 -946.039734
412.589722 4.314332 -992.814575
645.246704 -217.904587 -1310.219360
835.106812 -325.173950 -1198.907959
482.644073 -36.646633 -939.823792
493.057281 -82.361641 -1469.641968
676.398193 -140.162949 -1389.654297
631.955994 -97.867111 -870.865112
939.069824 -278.228516 -1209.694580
552.651794 114.478584 -1042.631592
549.308777 105.869637 -1014.061890
701.711975 -31.396126 -870.073120
732.510620 310.028320 -905.042908
501.322937 -147.228088 -1449.641724
644.124084 324.648438 -934.396362
501.899323 145.902878 -1084.793579
913.676025 46.919960 -1397.674438
522.150696 -59.365047 -925.439636
527.173584 -83.503906 -912.435730
354.771362 52.843082 -1041.521851
462.095795 455.286530 -944.872131
464.149841 -182.432175 -1383.340820
620.004944 -14.497440 -901.192383
909.668396 -44.317577 -1364.897705
570.924805 353.372955 -979.048828
683.901428 13.918993 -898.909241
501.310760 371.630035 -1027.851563
466.855652 482.614502 -886.663330
787.061707 -298.419037 -1254.609985
675.911499 183.366440 -1009.891541
697.560059 355.487000 -851.625061
489.885468 191.964813 -1096.643188
734.958984 59.742085 -914.522522
416.510559 25.984278 -1007.276672
576.352356 -342.120300 -1278.980103
662.975037 352.596680 -898.677429
754.166870 313.967651 -859.258667
607.961731 390.710968 -897.313354
513.005554 437.198639 -925.007202
829.760254 -162.222763 -1337.268921
443.962708 -217.522629 -1420.007568
658.839172 -315.268433 -1244.497314
520.603271 -54.151276 -906.328674
637.250671 -261.931671 -1320.602905
474.426422 61.690228 -1011.496643
614.509155 308.833191 -985.354797
587.007874 -219.480957 -1377.313965
571.324097 -60.948437 -906.173950
610.307129 -80.152184 -1352.247803
727.836304 -372.682831 -1228.498169
627.098999 -104.924545 -863.418518
502.845673 380.650085 -992.043091
505.959229 359.431396 -1025.176270
636.141174 -58.905521 -889.356873
588.689697 -27.848286 -905.159912
650.401001 -65.471931 -1442.387451
646.523254 161.924530 -1050.085083
641.141174 -176.992477 -1383.919189
681.346558 52.796398 -941.086914
492.773346 183.825455 -1105.928467
646.506226 -159.523026 -1296.652466
633.966492 -425.664063 -1239.503418
649.901672 362.518250 -897.137512
489.096161 -111.402534 -1448.236206
475.675598 -243.776459 -1401.138306
622.652771 -187.663788 -1385.448975
646.143677 -433.451294 -1207.116699
575.062256 92.859444 -1018.131714
611.209351 501.246033 -781.033386
831.434937 -31.432409 -1406.275879
706.710449 278.469269 -938.183411
515.080078 -100.184410 -915.122070
493.576172 429.140106 -930.141418
828.796387 -119.508545 -1311.078857
803.447632 -358.565063 -1214.116821
617.211426 -312.367554 -1295.384888
600.059082 380.831696 -900.348328
892.339661 -224.702881 -1254.933105
656.199402 202.035416 -1042.418335
870.545654 -241.412949 -1266.293823
601.534119 -3.538020 -917.169983
605.359558 -255.522522 -1343.599243
599.914917 358.576996 -952.327881
929.615967 -232.570999 -1208.099731
627.710754 -271.959564 -1312.937500
497.897491 463.556763 -890.036011
682.399780 193.836151 -1020.497070
682.078491 -279.198090 -1286.755127
557.153198 398.651337 -931.159546
359.970215 105.531532 -1097.541870
636.216492 113.387375 -1002.688171
517.030884 16.241976 -978.053040
530.991394 -119.881210 -1414.878540
648.075806 366.123383 -884.210571
493.750305 -228.939621 -1398.694946
899.616272 -149.596024 -1221.683105
369.540405 -2.518988 -1007.357300
766.131104 -216.931488 -1319.113892
667.096619 -344.271637 -1218.159058
666.309326 152.049835 -1034.006836
748.995056 174.328369 -987.537048
572.342285 330.594604 -1027.442749
709.035095 390.743225 -777.171448
785.725891 0.213461 -859.659424
1006.948914 -175.278412 -1242.547485
731.542480 187.767014 -1001.338318
604.818359 -84.709183 -874.109192
628.469177 326.981659 -943.549194
463.475586 369.592041 -1038.700928
627.112244 -229.778549 -1233.692383
557.035828 123.408783 -1043.120728
721.418030 277.253052 -934.333679
545.208313 389.252716 -972.874878
549.364563 503.008728 -807.155396
760.620911 63.794144 -849.760681
556.904541 50.405029 -969.841553
482.694550 -57.755798 -934.494690
830.322083 -201.213455 -1293.366089
645.795288 -100.681549 -878.612122
465.019928 132.536179 -1080.957153
536.758789 332.151703 -1020.006226
833.538330 -92.970917 -1359.789917
352.935364 -25.852936 -1013.515747
1024.655762 176.251129 -1459.701294
671.781250 325.730835 -924.230103
682.987061 25.069340 -924.316162
682.395081 124.654976 -988.649109
881.620239 -153.232101 -1252.244141
904.583313 -258.505768 -1231.978882
722.678833 -378.228912 -1200.510498
817.838562 -201.948364 -1286.003174
526.827515 378.566559 -970.317444
696.025269 -131.359970 -1311.802856
608.755920 390.518341 -902.724976
966.623596 108.359497 -1436.476563
644.668396 -162.678329 -1392.086792
605.418762 335.187317 -966.468445
872.030334 -85.936012 -1312.251709
613.410278 7.896892 -929.486755
537.884460 -9.440122 -963.042053
747.122681 -387.394562 -1219.840332
585.642517 427.559875 -878.852478
622.884155 60.719250 -961.943176
837.539429 -294.614655 -1237.247314
484.578125 -165.760391 -1426.059204
463.309479 -115.342316 -929.929016
527.644836 -97.982544 -923.034973
656.673218 -359.056793 -1216.607788
600.895020 322.507355 -976.524048
598.666870 -208.051544 -1399.462646
666.922791 -174.111877 -1170.182495
568.465454 -273.983917 -1344.501709
759.424927 277.384521 -941.728882
511.856873 -216.256622 -1404.544067
501.562988 13.859303 -989.230347
502.879456 163.882095 -1082.227051
796.997559 -64.148476 -1406.075073
687.975464 254.353317 -1081.694580
483.008484 -178.172455 -1413.093140
448.396515 408.551331 -1002.386353
940.673645 -174.332260 -1238.003052
645.816223 178.569565 -1016.196472
900.120239 25.566425 -1350.147339
534.408142 -114.573792 -1437.235474
653.201050 429.126617 -790.827515
528.111877 373.898682 -973.923889
627.781677 -398.638611 -1238.099609
892.147278 -19.115730 -1388.365479
463.511597 414.382690 -966.184509
441.853394 -116.850105 -944.762207
472.628815 444.988678 -927.916504
737.758850 26.105715 -726.495422
610.618103 -146.795486 -877.842407
937.602783 -279.183044 -1204.542480
847.486572 -333.240417 -1188.634888
666.446350 -185.148636 -1365.927979
724.781860 370.858948 -791.851501
639.749817 385.155914 -859.639954
964.267883 -223.759857 -1223.849854
684.918762 -318.455780 -1255.533569
702.350159 -323.128662 -1261.719238
538.809204 360.155609 -995.452881
617.006226 -413.312561 -1227.457397
681.247498 427.297638 -782.261292
662.290710 392.543488 -840.185669
509.548218 28.368437 -977.898560
753.080261 21.968576 -871.567810
613.691711 -210.094315 -1379.812134
545.261963 489.427948 -810.834045
569.661560 -333.040192 -1303.605103
482.098419 20.611530 -975.836853
612.388489 32.097767 -936.083679
803.048889 -42.187069 -1360.420776
506.163940 401.913635 -973.157471
719.338074 318.340607 -901.474976
937.555115 24.096010 -1393.916138
498.472565 -42.389797 -918.673401
520.446960 433.157440 -922.539612
577.314514 -369.542236 -1277.704224
615.773438 -203.499695 -1368.830322
580.685913 122.402245 -1024.218872
667.458313 -350.396393 -1232.646118
857.463623 -298.977417 -1233.659424
466.008545 -121.105476 -935.134766
954.422485 -255.184875 -1217.574951
649.927185 -135.819855 -1173.198364
580.946350 -100.841499 -899.986816
699.466980 214.477432 -1068.234985
726.288940 308.823334 -890.282776
498.722443 -102.386856 -918.137512
593.247375 439.763306 -840.828003
629.965515 337.216461 -965.846252
661.539795 428.956879 -787.627319
628.743408 56.666069 -938.837402
563.121155 -120.094978 -1385.100830
419.210266 -58.749607 -968.880432
607.124207 439.300690 -831.967896
462.119781 -78.596764 -943.714294
496.235107 -74.536781 -923.044922
607.013306 -427.128143 -1225.631470
651.436646 424.584076 -808.375366
763.321594 -317.214478 -1231.877075
500.418396 397.625519 -971.931824
678.770569 136.774628 -991.507996
724.403381 -381.604828 -1215.077515
484.637238 -125.418228 -1433.209595
749.179199 337.835968 -809.590942
693.368225 148.845093 -1009.198975
939.682495 -265.705719 -1201.714722
515.645569 164.501190 -1079.446899
612.543884 -333.450684 -1274.838989
445.971497 103.870811 -1034.805176
926.545105 -12.520345 -1408.350830
1016.072815 165.125443 -1478.655151
541.736572 -5.430840 -936.201660
466.782288 -201.467194 -1418.028198
594.325867 408.472198 -889.087341
595.191467 -193.046997 -1408.745239
513.543457 344.625458 -1042.640503
448.523041 -56.971466 -939.714355
721.859131 -342.461761 -1256.368896
506.721893 457.161438 -898.277222
524.547058 -51.639736 -925.822083
557.563416 -199.101013 -1402.989990
554.924255 -91.432739 -881.791565
587.031372 132.121994 -1042.087891
434.209717 -191.522232 -1432.692871
514.048218 410.465973 -960.563721
572.967834 404.653015 -904.091003
600.441345 -427.849213 -1226.906860
517.141174 246.948853 -1108.333008
973.667908 -181.924637 -1250.512085
586.299072 490.119049 -785.831238
551.617371 -269.111786 -1382.497314
714.085815 -396.405487 -1191.157471
837.734497 -319.374359 -1217.157227
583.826660 339.951355 -1007.036255
402.069458 -64.477661 -965.899292
604.855103 426.566071 -860.996338
724.663513 -6.718013 -871.007690
719.686707 -359.597839 -1244.739136
551.424561 -64.892242 -894.879944
581.044067 -69.446541 -887.140625
581.581299 346.148926 -960.729675
831.999878 -71.989838 -1392.110718
731.927979 296.813080 -885.442139
656.757568 234.480606 -1076.187988
615.697327 -332.062286 -1291.663940
983.656250 147.390961 -1499.011841
502.876068 518.739136 -832.759705
557.398315 -98.053192 -909.425598
783.593445 -208.745117 -1328.916748
842.681641 -221.115433 -1294.497070
545.179565 -238.429657 -1380.549561
666.732727 348.744629 -877.869507
897.152222 32.321476 -1375.644043
679.859070 433.079987 -775.172241
490.958344 -61.614891 -948.348572
734.164063 38.934364 -716.376709
469.943726 -275.035248 -1364.810303
643.648315 120.963722 -980.599976
863.219849 -63.239094 -1368.613892
519.698853 -233.704620 -1388.938965
659.097534 -338.448578 -1240.985840
656.323059 -1.247368 -898.734558
703.872620 -405.587708 -1217.619019
691.609436 362.473114 -844.922974
429.918335 1.676789 -980.639709
498.889069 396.754456 -985.390991
542.078674 217.751251 -1098.246216
815.818604 -118.250832 -1321.369507
657.910095 344.047028 -914.547302
636.082031 -312.907654 -1310.481445
555.726379 210.592438 -1069.174805
695.204895 422.975555 -763.193909
652.175354 47.805313 -933.719360
447.985199 -168.211166 -1414.452515
693.644897 -364.953033 -1227.246704
899.899597 -228.713181 -1246.692505
688.228699 367.279877 -841.622681
738.387756 320.451508 -870.265808
522.113159 6.512687 -951.772644
586.807800 -68.081184 -1471.119995
509.563904 488.325531 -852.438965
706.152710 -162.653412 -1345.417603
699.127014 -249.256363 -1281.668945
660.685913 -98.146477 -866.061035
520.438782 -108.689583 -912.180237
531.048523 341.509003 -1030.155396
1000.617371 -238.544434 -1224.973999
551.461365 484.537933 -819.636902
501.906738 -63.165855 -923.856567
619.610596 323.515930 -973.886902
649.606445 -130.721024 -1401.109131
474.303101 75.084839 -1036.612305
654.137085 -243.163269 -1314.227539
583.113892 472.649811 -802.644714
729.338257 -367.355743 -1234.909424
456.808990 369.875641 -1049.525391
525.782837 442.662628 -886.329468
984.316528 90.231911 -1420.996094
669.163086 348.076172 -897.492554
912.255127 -194.412186 -1238.496094
616.593689 -146.987122 -1408.987305
639.871582 -228.113113 -1356.557739
542.238464 -335.578430 -1317.282959
587.157776 -174.856400 -1407.999268
667.150879 312.432434 -955.196106
603.317444 363.486938 -939.522461
656.574463 -349.243958 -1250.891357
553.474121 425.805878 -878.382080
739.508972 348.906982 -833.167969
560.778870 415.384888 -898.419617
731.431396 135.827316 -974.304504
365.894592 -12.538924 -1002.795837
855.305969 -190.189789 -1308.174072
549.330688 10.516117 -928.885315
655.499512 -250.311890 -1332.702759
772.464905 0.029083 -846.443237
486.499146 -207.353516 -1416.757935
643.434875 81.876701 -977.587402
709.862122 43.437214 -911.851929
515.045044 -172.287201 -1413.067749
769.259827 -4.184769 -876.979858
536.755371 -133.772858 -906.436279
578.261597 197.460190 -1075.758911
897.452026 -158.706131 -1213.557251
796.039368 -352.896515 -1219.922974
637.652649 371.610779 -887.181946
623.673462 347.202332 -952.911743
583.373047 -213.352921 -1383.942139
608.794128 430.392883 -847.882813
547.142944 203.337463 -1093.074829
651.804077 -253.442413 -1275.961914
518.073120 464.707397 -875.034607
396.475433 -15.768212 -973.461914
643.573242 -161.594177 -1395.885986
673.093811 76.789871 -975.757446
511.406311 229.729065 -1116.131104
598.933716 457.789032 -820.718811
695.184998 -384.714355 -1211.971558
608.119263 -104.525261 -880.828857
551.431885 -352.760284 -1295.422852
601.957764 431.656921 -853.164673
616.992004 344.623627 -974.685852
600.693909 67.366119 -954.858521
758.765015 -278.163330 -1258.898682
686.247009 -23.119572 -877.692688
855.639771 -322.593353 -1194.578491
897.664490 15.629923 -1361.725464
663.176819 381.162994 -856.744873
562.388123 440.661041 -851.146301
503.860809 -62.914181 -909.893982
425.898895 85.953766 -1049.935547
671.585449 360.221405 -870.425781
807.385193 -302.984131 -1243.016479
487.969360 419.141235 -952.620178
643.445496 -338.958435 -1242.639160
424.604401 -80.820808 -956.382202
616.164124 433.603638 -814.455627
485.669861 132.283829 -1062.877686
696.656311 315.139587 -913.680908
968.857971 -213.878036 -1229.729980
969.800171 21.810072 -1382.676270
588.110657 401.947998 -899.298706
1010.534119 -145.085144 -1259.088379
776.779846 -41.763439 -1328.601440
470.805786 -95.568542 -928.417053
473.953125 -303.278839 -1341.421875
393.445557 51.084290 -1034.731445
686.266357 -289.849182 -1293.236694
417.603027 68.771797 -1039.207520
556.062012 423.754303 -900.250000
607.322144 10.414833 -922.454041
608.678589 -91.371559 -1353.958130
432.518890 -75.021202 -956.839294
825.806274 -238.937973 -1260.598999
583.535461 335.608185 -981.549866
913.236267 -86.001526 -1355.460449
591.888000 2.283034 -926.661194
620.093445 -80.720688 -881.053894
478.541107 -86.715591 -1491.398193
576.346863 101.760620 -998.447205
456.776764 372.643311 -1023.224243
972.524231 -224.356552 -1234.202515
638.719177 129.815811 -1015.296875
511.812164 495.583771 -861.632690
590.609070 477.997162 -816.689941
573.101563 415.670990 -902.376038
595.408630 -172.039658 -1405.094116
444.481323 119.536896 -1063.736938
945.860901 93.716469 -1430.490601
649.749329 66.965225 -948.376465
370.634216 91.545456 -1055.753540
734.365051 -268.714661 -1265.934937
694.391113 309.027679 -923.807373
686.150879 -336.284546 -1262.835327
498.805908 425.931824 -938.140259
890.442688 -42.423363 -1360.550903
855.745422 -182.055878 -1298.363037
744.708069 -328.678772 -1247.092651
784.715454 -252.073639 -1287.869019
774.860107 29.549299 -865.751770
463.235626 416.880890 -971.652710
622.270142 372.171082 -929.219360
698.869690 300.747620 -935.739685
679.531616 -398.610321 -1220.686890
551.556396 -263.036682 -1361.216553
788.603516 -143.355392 -1278.328369
761.385864 28.051479 -872.536926
803.350647 -175.579697 -1306.906128
812.352234 -344.920380 -1208.137207
461.891541 -164.680664 -1416.174438
773.274475 85.124725 -903.569214
541.582520 455.155884 -862.602295
1000.712463 90.018158 -1455.711670
647.477539 359.566956 -904.174438
540.538757 -4.919057 -952.701111
494.710419 182.545624 -1098.702759
619.520569 -269.827850 -1357.229004
546.633850 409.868896 -917.410217
748.866333 291.787170 -934.263855
1004.851990 -169.518265 -1254.396118
523.865295 -356.052307 -1306.019531
485.172943 101.970436 -1036.897461
605.493835 -293.009918 -1314.334473
487.601196 24.254396 -978.439270
846.681763 -146.926331 -1256.911987
583.339478 -310.188141 -1320.832764
496.702484 -132.195969 -1429.180420
758.185730 205.023438 -1021.701782
509.186890 171.747284 -1115.165527
649.403564 370.669861 -892.646179
682.053345 0.694208 -899.084778
497.885162 107.834084 -1040.477539
473.365570 433.408539 -938.795410
645.808655 -318.841675 -1260.468018
737.821045 53.914688 -906.135376
517.340027 104.436340 -1026.484619
839.466553 -331.699493 -1216.994629
693.036316 328.714569 -908.230347
657.280334 439.115387 -773.217163
480.273102 -9.551234 -972.946533
511.044434 -144.325241 -1427.436035
630.063232 400.948883 -848.469238
481.950867 439.371613 -917.841187
716.318787 274.190704 -921.963745
784.149841 -145.161102 -1342.356812
936.307434 -188.145432 -1243.622437
908.206726 -204.312714 -1244.407715
621.763428 491.405701 -784.701538
841.569092 -67.120819 -1398.385010
554.446960 -248.938843 -1353.805054
486.703827 32.996178 -975.414734
594.044128 81.074799 -1002.069519
453.547333 410.719818 -989.595642
770.727173 -242.550415 -1300.094604
893.426270 -277.923553 -1241.840698
444.305908 -128.118713 -1418.189209
729.964966 32.853668 -856.412231
535.293640 247.103912 -1137.676880
698.748840 -73.022980 -864.669189
958.822083 -160.451706 -1279.618652
558.743652 -235.154709 -1377.571045
813.506958 -223.186615 -1306.477173
932.528259 -200.492950 -1265.903931
549.762390 67.566406 -1000.071167
385.810760 44.239304 -1034.788696
637.923645 -198.930344 -1378.330200
708.290710 324.246124 -898.546021
897.638367 -225.188156 -1247.458008
896.936951 85.273453 -1356.231079
584.795593 341.744690 -998.449402
488.971008 -95.083290 -1465.962402
556.519409 -177.710648 -1422.643188
903.542969 -143.763992 -1262.142944
875.017883 -148.716064 -1276.158813
438.356384 412.042267 -1001.250549
566.111206 133.731079 -1037.022705
936.349365 -130.401367 -1287.402832
643.191162 343.421356 -931.619141
695.709656 -247.767822 -1305.039551
771.055786 -357.227020 -1196.811523
533.528198 52.788074 -987.664612
1021.201721 157.020142 -1463.799561
646.973755 -238.212555 -1286.220947
523.471191 351.214142 -1022.352478
971.676758 -110.395370 -1292.436279
634.938843 330.061920 -941.921631
565.019287 125.384727 -1055.809204
494.931152 -104.441177 -911.614441
624.352905 -91.772270 -875.479614
654.179382 424.705780 -796.586731
739.201782 378.700439 -813.375854
609.828430 -218.792282 -1371.817261
506.730255 5.344431 -948.198486
666.322205 -193.340790 -1386.105347
626.103699 3.890621 -903.491577
750.670349 35.361744 -835.345825
565.224670 -47.146339 -902.649109
260.807800 173.123520 -952.260315
920.460876 -103.894508 -1281.998779
600.648987 -5.916170 -1517.168823
648.623962 383.713684 -868.886353
676.090637 401.330231 -815.772339
787.683105 -314.238068 -1241.427979
541.134033 399.483734 -952.806458
921.188293 188.098114 -1502.951782
577.789307 -237.920013 -1384.678711
847.134094 -25.986565 -1418.467285
723.492859 126.707634 -977.684143
578.541992 -291.830444 -1311.703491
885.056458 -161.575729 -1256.175781
663.720581 -47.820175 -871.491882
590.348022 -163.663315 -1413.142090
907.296997 -258.050385 -1222.270630
602.737854 -33.139137 -888.328125
758.645447 -359.735718 -1229.705566
573.702637 198.046127 -1108.380249
755.117981 71.851799 -884.428345
646.895569 -375.523193 -1247.332397
681.263855 -380.607056 -1218.232544
928.472595 -55.933872 -1358.918457
574.296631 444.025360 -841.199219
944.276184 -157.115692 -1289.216553
934.327515 -239.373337 -1233.428101
658.956543 -124.771584 -1403.376343
490.060333 459.152771 -891.411011
511.378693 184.805771 -1123.944946
827.360046 -155.371704 -1323.938477
589.831665 376.493530 -941.050842
679.334412 119.224335 -1005.782288
643.979919 111.716599 -998.453064
713.638855 349.348572 -847.218018
711.446594 330.341614 -885.819519
539.159302 -391.297058 -1272.800659
740.118286 -204.269241 -1322.280884
731.214417 -358.486389 -1230.724365
660.968201 322.444031 -957.811829
520.898132 376.676758 -1002.394592
522.167603 479.827271 -850.759460
847.590271 -65.339653 -1401.737305
468.695648 183.000809 -1107.266602
818.090759 -230.341644 -1300.538208
663.114746 12.772384 -902.567017
640.404541 63.399979 -939.941223
658.800232 -98.785820 -1172.404541
907.419434 -265.381683 -1233.208740
850.850952 8.488028 -1410.764038
633.728394 -267.824432 -1241.489014
758.889282 -212.739441 -1322.782104
507.753601 -98.957443 -918.250793
850.536438 -340.383728 -1198.688843
531.872498 -108.554787 -1441.666138
922.137024 -229.771164 -1244.623413
814.618042 -354.940918 -1200.944824
568.442810 323.526093 -1020.754211
936.317200 -104.544975 -1289.911987
706.062134 309.631805 -921.624268
759.947327 60.133476 -864.982056
656.383240 -327.170441 -1210.986084
616.003235 -147.123047 -1374.184326
890.661194 -129.406128 -1277.334961
612.151550 -187.655960 -1406.177368
438.254761 429.108551 -980.771362
620.727356 -209.905518 -1350.927612
563.914978 53.733849 -987.286987
461.367645 -76.714790 -957.150818
639.820984 -105.379616 -889.000488
485.133606 -235.974640 -1393.146240
481.380371 480.768158 -879.285583
437.794403 457.553284 -939.783508
627.992798 -96.712425 -871.696167
588.775208 -411.238098 -1243.245972
866.596985 -66.591576 -1325.672607
551.605286 -221.811539 -1412.159668
557.116882 -261.405579 -1344.183716
747.992371 342.415741 -834.331543
576.496216 -358.977295 -1281.844971
765.667664 -123.722809 -1312.885986
566.327698 500.694977 -796.952698
542.785706 -64.136894 -905.116882
531.728210 -317.743774 -1325.497437
482.344635 414.606049 -972.533142
553.562073 -89.825447 -1425.493286
662.174438 -389.755829 -1214.131348
505.320404 417.875031 -976.523682
931.982788 -288.769104 -1204.986450
376.217529 -12.673952 -1008.755066
636.244629 184.434616 -1023.314758
615.826599 366.883179 -928.541199
694.072876 -324.893982 -1272.848877
933.592957 -203.354141 -1249.219482
533.331848 401.435059 -955.728943
546.420166 -192.236298 -1407.637695
668.102600 -16.434851 -1483.705933
877.083862 -317.074677 -1215.401611
377.347778 21.874746 -1000.252747
475.464081 151.637924 -1082.338501
600.507507 -396.173401 -1239.381348
668.665161 280.787048 -966.419678
426.607544 183.705521 -1119.508301
433.422028 452.713257 -952.893188
685.676880 341.280731 -883.691284
487.839020 67.578484 -1011.943848
768.435669 -186.896942 -1339.329590
525.241882 -110.737122 -1316.480591
802.700806 -182.601120 -1302.482300
436.191467 497.360626 -899.334595
524.826965 333.211975 -1070.832520
423.544800 -84.326065 -980.084290
473.647400 -78.047157 -934.942017
796.049011 -98.315826 -1302.126587
580.567688 201.495560 -1092.334351
627.989929 -242.309158 -1194.576782
482.160950 75.650993 -1033.828735
826.271973 -63.119488 -1332.295288
524.387146 -15.029811 -938.951050
608.827271 484.132935 -794.872681
501.860168 -299.656921 -1354.286011
957.279785 150.217056 -1467.161987
979.865540 46.988235 -1395.183105
614.711304 327.596130 -962.462036
617.151428 383.530212 -901.224487
899.994751 -217.746094 -1266.123779
615.011841 93.637360 -980.105652
465.564026 -89.792961 -940.364380
638.438721 383.708435 -868.177856
810.861389 -261.456726 -1274.361816
498.810486 -71.281715 -919.415161
492.780212 57.192005 -996.011658
650.911621 -2.008333 -1404.184814
619.399170 410.803528 -863.207275
519.766418 -210.845596 -1404.520996
422.022461 52.807835 -1024.057373
830.841125 -298.174835 -1237.395142
657.030518 195.294800 -1024.457520
595.437805 21.311291 -1547.699219
935.641418 -211.437347 -1244.317993
700.551025 432.924866 -769.354309
560.631836 442.657043 -869.668335
523.747437 28.970833 -956.309021
857.808655 -311.964081 -1229.484131
552.618530 -117.203064 -888.210571
914.543152 -71.949875 -1342.378052
652.093933 370.455902 -866.070496
921.952637 -233.386688 -1245.552856
793.284363 -137.131714 -1308.207397
910.123901 -58.956326 -1365.586060
643.997253 -248.220367 -1281.711914
589.697266 454.317352 -823.762939
494.783325 -79.511063 -914.826599
589.473145 353.274841 -965.186035
572.410828 -58.990673 -917.489563
599.637878 493.765076 -773.282349
825.360779 -305.174194 -1247.569824
503.033447 417.627502 -952.723694
523.265259 -116.663223 -1382.278076
979.232056 -115.368507 -1287.670044
613.096619 183.947815 -1054.256470
555.726746 428.065918 -907.822449
739.761108 311.018677 -900.391296
510.167114 349.877350 -1036.276855
485.964569 -104.456886 -925.701477
543.320374 -286.254913 -1359.192505
753.661011 291.451782 -913.857056
399.512939 36.731960 -1007.523376
615.709656 324.142029 -1005.559326
782.327026 256.173309 -883.217285
748.433472 -345.154480 -1248.168457
608.216919 339.135468 -978.210510
698.715881 -267.835327 -1306.496704
657.510254 -242.188751 -1329.269165
632.473877 -221.962860 -1380.136475
543.775330 36.008789 -982.030273
480.498413 -243.542542 -1392.398193
813.251526 -219.262238 -1293.521118
613.902649 -185.801117 -1378.441895
524.443115 460.636261 -865.652100
555.476074 10.773857 -965.785217
728.017456 -307.999725 -1269.644531
456.733307 -157.194931 -1410.924561
681.706177 106.925499 -969.057007
595.660339 -399.563171 -1262.166138
650.473938 116.637466 -999.893921
459.949310 -37.006432 -955.384644
822.102051 -334.539764 -1211.564819
582.256775 -409.572937 -1244.386597
445.143951 47.065887 -1006.542114
662.728699 -85.216187 -871.313538
448.226685 -191.063995 -1424.029785
807.112000 -267.326599 -1285.399170
904.446838 -196.530975 -1233.928711
679.314758 99.570923 -990.957886
640.283264 93.007782 -971.609619
576.060974 -281.606293 -1341.465088
818.321411 -336.568146 -1199.947021
658.963074 -411.312439 -1223.358154
822.534119 -205.238754 -1305.117798
557.036560 153.968384 -1057.165283
610.654358 -383.227844 -1243.810669
626.873779 123.882980 -999.645752
591.126343 -311.002563 -1289.980347
470.731689 -48.327274 -953.604248
709.152344 338.076202 -846.196472
660.808105 420.421936 -796.518860
675.541077 320.139404 -946.128906
638.881409 352.005676 -927.593933
721.436462 -385.419006 -1228.015015
749.293884 78.155365 -830.388489
733.465881 318.023193 -880.957642
610.311035 20.095715 -919.612671
758.167480 -109.020813 -1306.732788
657.439270 145.647552 -1022.811035
576.420288 -7.886392 -943.875000
883.213196 -242.599579 -1259.117188
953.120850 -112.026512 -1280.514038
411.381409 46.290607 -1028.584717
628.339783 -160.060532 -1210.501221
1000.723816 -172.249176 -1266.363403
382.595764 -3.717321 -985.543640
611.685608 -274.328217 -1348.014648
621.076355 -132.386627 -1418.932373
644.128357 494.067322 -788.423767
916.243530 -156.762115 -1273.831665
833.925049 -133.501984 -1260.569336
517.503479 367.586182 -992.283875
629.289978 -261.482819 -1347.316895
635.711426 -33.447430 -883.667480
670.081665 -134.414734 -1377.508057
407.634705 56.563309 -1010.597107
607.611267 -287.759796 -1307.958740
473.991943 -147.523697 -1434.474487
694.362793 -159.697006 -1305.209839
472.418732 465.573090 -893.161194
754.531555 -146.786850 -1333.499878
913.130310 -218.117737 -1254.691528
716.214111 37.425808 -911.148071
628.210510 -324.600983 -1299.813477
512.714417 227.022522 -1137.199585
507.043060 438.507813 -905.007385
921.284119 -300.951355 -1213.088501
530.509521 -101.168022 -1451.763306
562.785706 -289.747833 -1352.470947
594.028381 111.103088 -989.781311
713.914978 436.875092 -762.807373
632.543579 26.009935 -941.324158
720.806519 12.887852 -763.913879
671.173584 69.432701 -935.133118
880.778015 -177.059326 -1282.216309
835.204895 -178.567947 -1328.782227
882.465454 -2.216609 -1401.704468
767.565125 -201.666245 -1323.131348
503.583038 -117.766716 -923.249939
682.535889 -31.490534 -879.436462
951.942322 -240.347458 -1198.023438
621.821533 191.595459 -1069.685913
455.710846 100.118362 -1063.004150
945.419495 -15.412148 -1365.520752
801.181946 -138.137970 -1316.503418
541.137695 30.180033 -977.033752
670.703918 -414.162079 -1231.393311
601.640442 159.683884 -1037.923340
515.837036 479.756714 -868.402039
503.063202 452.248932 -913.628418
669.856323 128.191528 -984.804810
500.028503 -180.202469 -1407.239258
582.991638 387.199646 -937.305298
802.343994 -108.725677 -1273.411011
899.998474 -145.415070 -1289.092163
432.830994 -31.270611 -991.682007
689.896545 409.392487 -791.408630
698.982849 408.597229 -770.242126
515.982605 447.086426 -908.103149
481.479858 -226.580292 -1406.775635
524.453308 138.582153 -1030.915039
629.820007 -130.984512 -1410.582153
971.784546 52.592594 -1382.759033
386.542969 7.350579 -1036.331055
535.169128 -52.048065 -914.534363
624.521851 385.533783 -892.486816
625.772949 360.422974 -919.595093
497.007874 362.639954 -1010.827881
928.826538 -45.127064 -1364.884399
621.186218 328.433960 -993.114258
661.954529 409.687317 -805.950317
437.062653 -100.050270 -958.372192
609.306763 -76.280800 -879.508057
863.248840 -294.914795 -1206.775146
482.048889 421.585266 -951.349792
595.841370 454.149689 -835.061584
567.917786 -124.507164 -1409.467896
467.368896 89.372032 -1066.078125
557.668884 -39.997147 -908.922791
534.310059 50.732037 -1002.676025
698.997559 106.618561 -963.480896
907.696960 -161.269241 -1236.686523
532.684021 495.144745 -847.182373
509.528992 174.039124 -1086.355103
628.929016 -24.552330 -896.660156
996.315491 -152.421646 -1260.533325
566.368652 439.117981 -881.859741
735.830261 -373.183502 -1232.228271
447.716919 37.648903 -999.402161
715.045898 408.159912 -784.463501
674.325562 301.668823 -962.333679
680.448975 -186.355042 -1320.043579
697.296814 -400.493744 -1229.577759
570.886902 500.497467 -830.649353
540.785278 422.945831 -899.880676
814.568848 -7.975358 -1338.857178
499.688049 469.077637 -898.471008
545.250305 -190.141785 -1409.973511
861.168945 -274.315155 -1241.520386
366.767944 -53.199272 -990.676697
825.396179 -223.636749 -1286.342773
631.473389 -330.575745 -1245.688232
654.423035 349.225067 -911.055115
565.143188 177.416260 -1060.141602
474.618591 -1.949366 -970.384521
840.903015 -336.503784 -1188.704468
750.121704 86.415947 -925.297729
455.651520 368.196747 -1041.910522
482.197296 484.024139 -869.215698
721.889648 -335.508698 -1247.207153
814.475464 -253.815674 -1275.322876
725.015381 -288.639709 -1256.917114
571.774414 -100.547195 -1364.766479
790.705322 -178.170685 -1325.355957
451.966187 -114.305702 -944.151245
440.113464 -115.892998 -1409.596191
671.618774 440.821167 -770.910461
651.256531 412.615692 -813.462036
292.158630 244.921951 -953.486877
656.415710 440.629761 -770.219849
650.500366 -267.779907 -1298.530273
514.293823 -94.376717 -1463.316406
834.187683 -130.728638 -1300.484863
561.270020 -252.119812 -1364.475952
523.412659 99.806801 -1019.038452
717.177612 -333.566406 -1240.189575
654.163574 -174.661133 -1396.246826
550.442017 -69.525970 -1487.739502
652.585022 433.394348 -781.050598
487.531860 -61.397930 -938.620667
736.049988 291.569427 -893.496521
566.191589 -135.433975 -1428.998535
884.242249 -173.695801 -1264.420532
564.692383 -125.180870 -893.964355
546.739502 -118.021935 -915.204712
530.562622 -204.170868 -1387.833496
938.326843 14.330773 -1397.607788
714.851624 180.708771 -1010.887817
914.102295 -205.610275 -1233.074219
487.311249 -155.271561 -1428.525879
720.220764 54.831699 -773.698547
846.203186 -154.288086 -1318.263794
583.967285 -137.927460 -1397.237061
771.811951 -259.999359 -1306.080322
551.149536 -274.820526 -1350.136597
482.584015 460.584869 -896.099548
650.060547 354.794769 -889.887634
828.117188 -128.918579 -1288.778809
557.843384 89.330536 -1030.167969
680.545166 391.048309 -811.826904
685.719421 27.955374 -915.342041
869.449402 -133.174728 -1266.208496
467.117706 -30.426502 -966.593262
516.254089 480.662903 -873.958923
772.214417 -250.939102 -1293.795288
794.521484 -138.681961 -1344.114624
629.758667 39.767014 -926.974792
772.733521 -137.690659 -1374.280396
621.937134 464.845398 -797.642212
540.835571 -96.349373 -1426.149292
688.388184 395.066620 -801.684570
717.412598 370.070068 -811.942993
596.195313 423.597290 -861.703064
707.625244 317.943695 -920.109192
649.256653 196.822220 -1076.973999
624.134644 362.719421 -911.371399
510.060028 91.219284 -1004.509338
429.018829 -192.461212 -1421.900391
573.128723 -175.640976 -1403.615723
368.363342 49.795780 -1051.394531
451.597290 -84.395500 -940.485657
543.313171 -389.751343 -1272.083130
568.967285 116.961510 -1047.657959
901.185120 -111.803879 -1297.992188
584.807800 -120.403770 -902.095581
803.905396 -153.321823 -1282.954834
660.538269 88.648148 -989.241028
626.387512 -78.475151 -879.614624
540.628967 -335.286102 -1316.211914
909.577454 -259.315002 -1213.021851
738.316833 302.445313 -875.846863
588.995178 50.460266 -945.357361
799.100525 -365.607239 -1199.195801
734.914185 -259.812805 -1302.912109
440.682404 119.516472 -1077.611938
604.889526 501.031219 -764.357239
611.552063 -106.809029 -878.072693
618.365479 39.334511 -1552.384766
757.706116 320.242188 -880.666016
451.081482 465.094604 -942.012878
705.204529 440.381653 -769.523987
829.145935 -156.005951 -1262.138306
668.094971 373.294830 -839.722839
847.734863 -227.609131 -1286.571167
523.500305 152.711273 -1065.479004
562.305603 -323.837830 -1293.928955
732.326721 -219.282501 -1336.046875
536.926331 91.264671 -1007.642883
514.458801 -156.392838 -1385.174438
797.841675 -364.635010 -1219.489380
426.644836 86.670601 -1078.239014
942.494202 -177.325089 -1257.558105
607.812317 -255.006683 -1350.191040
512.042419 400.031372 -960.175537
757.259521 193.525345 -1022.821899
633.987183 124.014549 -1014.726685
623.353455 -336.327301 -1222.149536
450.572479 96.346695 -1028.310425
576.130859 -328.508057 -1300.822876
504.124786 -262.916595 -1355.787231
572.221313 46.069237 -978.629944
982.798645 -186.112106 -1210.924927
562.268372 20.173660 -944.931030
683.746033 -88.729759 -1352.936035
481.240295 -220.434708 -1427.170410
576.983215 350.213562 -990.657837
543.515015 120.786499 -1025.204834
858.578247 -7.252111 -1406.085327
512.866638 -21.655386 -936.256653
521.813660 359.584381 -1013.884155
431.154388 -52.552166 -961.144897
711.559692 -266.151672 -1285.523071
377.568512 -23.947548 -978.627014
492.984406 -19.868528 -960.871216
579.232788 112.281815 -1039.610596
505.538696 -17.422737 -944.608398
696.574768 3.833728 -873.672546
907.543213 -247.960663 -1240.088623
533.515381 -108.540489 -904.998779
490.228363 11.999919 -967.917664
452.189301 -260.934875 -1376.956177
879.048218 73.450470 -1402.379028
861.143066 -159.197922 -1260.283081
500.789856 2.466368 -961.844971
788.788269 -149.766159 -1331.269043
582.355774 212.494537 -1084.510010
764.458496 178.154968 -983.470398
613.262451 346.800110 -944.924500
862.600037 -12.728473 -1399.163818
569.083618 -162.900177 -1411.551758
901.432983 -175.049988 -1254.652466
957.534180 168.020966 -1522.805054
450.907196 475.029053 -916.827332
775.141357 170.923370 -995.500610
448.817871 88.596214 -1036.615723
555.252197 522.589661 -803.058899
701.722961 -41.546040 -859.874634
861.066772 -60.149101 -1332.405884
624.145264 -21.669483 -915.279724
610.986084 228.680283 -1085.397583
926.269531 -192.555511 -1250.760742
672.612122 -119.623268 -879.667664
478.180267 218.115463 -1101.968994
862.256348 19.287573 -1424.664307
668.285339 56.716412 -954.566040
649.953613 -40.524174 -1433.191650
557.840271 -8.821736 -927.314636
469.655334 -46.585571 -936.050171
675.975830 -309.281281 -1248.690063
676.786987 10.842967 -1472.675781
635.055847 -380.380676 -1264.332397
448.579498 182.501099 -1113.558472
879.763428 -306.620178 -1210.688354
982.203003 -161.974823 -1274.500854
810.326782 -270.653992 -1267.029663
725.586426 -249.744171 -1292.387207
476.365814 73.224136 -1050.353149
530.662659 327.628113 -1045.264160
673.054993 -391.999878 -1232.357300
571.705139 -317.733398 -1310.016357
609.223145 487.638885 -789.136780
684.598633 315.422485 -927.254944
734.592224 -23.430820 -872.844116
654.684021 363.926544 -871.875488
450.875336 -112.162781 -1476.565186
712.303833 338.644989 -875.789734
784.393921 -317.098145 -1250.053955
475.356323 46.274857 -1003.032227
424.994537 -32.696915 -988.265564
570.712463 466.715912 -844.775635
672.491699 -91.037750 -870.808228
696.369202 30.113657 -865.942383
641.167358 -279.461273 -1238.614624
757.170532 118.925415 -921.060730
907.970642 -223.013870 -1260.602417
736.368713 -314.684021 -1262.136353
725.106018 -67.119873 -1287.667114
614.379639 -175.333511 -1395.494873
768.899963 -357.922485 -1222.715820
839.209473 -253.918793 -1265.116699
439.676483 89.518753 -1045.485718
531.982727 -12.731687 -963.153992
561.947754 403.381378 -926.987610
591.961548 -146.576935 -919.192566
573.461914 493.378845 -817.567871
279.149872 237.739014 -902.437134
520.596558 3.426747 -974.540955
677.827881 -65.460388 -871.837158
507.639160 -226.303772 -1400.577881
646.573242 370.146484 -889.346558
477.085052 66.866409 -1010.479919
613.140808 445.246857 -805.643677
972.095825 -217.565063 -1236.831299
691.413330 -353.812256 -1225.488770
558.227844 360.436768 -987.780701
636.152954 79.307610 -978.501953
899.627930 -270.023529 -1226.956665
618.766602 122.260773 -1001.597839
510.289520 514.363342 -818.190918
517.989563 188.142273 -1086.574463
577.675232 -185.933228 -1402.035156
408.072815 -62.617016 -969.874878
760.971741 -198.083496 -1338.258911
621.728882 -276.743774 -1210.227905
468.220032 464.418915 -901.947144
647.302429 -35.013615 -887.818115
561.100220 -167.259735 -1413.646729
676.927795 -383.882996 -1236.472534
531.339111 188.328568 -1081.445435
440.039795 467.219849 -931.187805
794.920105 -246.779892 -1267.927856
501.892670 337.924927 -1039.253052
481.687012 -181.117798 -1435.213501
561.641785 -130.450912 -1405.519653
475.786835 116.689491 -1048.680298
487.709808 -265.655762 -1381.330933
390.108948 116.178612 -1096.254395
620.850525 -279.888092 -1317.357178
616.692322 -114.618622 -1414.575195
458.016479 -185.597137 -1410.396484
652.004333 -112.066483 -1174.370850
707.074951 -121.391319 -1274.391479
727.460022 -315.545563 -1274.180176
575.535095 421.966522 -870.273804
717.303223 333.933899 -867.335693
639.450439 -173.999420 -1387.130981
839.571411 -148.736008 -1233.374146
564.043762 420.724091 -887.109192
666.650208 113.818581 -970.406738
531.035828 332.696198 -1053.002686
472.805817 -102.029160 -927.337341
590.596497 -21.568916 -895.560120
701.814819 347.953278 -854.848206
544.040771 386.532501 -954.338013
541.826477 -325.678528 -1305.580688
492.124664 380.202972 -1004.835449
683.470581 -65.771217 -868.630310
932.270142 -142.943130 -1235.538086
683.004883 412.496399 -797.620178
823.290283 -331.098389 -1212.727295
842.634460 -156.840714 -1263.403564
517.746765 135.124588 -1030.740601
645.100098 -261.659760 -1305.681274
656.878174 -189.475983 -1302.108154
645.445313 200.474518 -1067.657227
840.163879 -33.214264 -1393.393311
603.526978 -139.768585 -1411.812866
608.922485 -117.367714 -872.240784
613.314575 -67.760284 -872.696472
611.743835 -317.239990 -1243.486816
1036.288208 167.548889 -1468.877808
538.305176 32.756943 -963.987183
744.241272 28.367975 -887.708374
724.507324 143.192276 -975.540771
603.237061 -88.811989 -1428.872192
657.016174 415.310883 -800.483643
596.862366 81.367371 -976.376709
420.466461 -155.406219 -1461.677368
744.389221 -319.484161 -1261.394775
628.494751 -332.398926 -1276.238892
601.567505 457.144745 -823.211975
728.987244 281.699371 -945.051147
546.240234 -177.671143 -1399.610840
483.619629 -81.535515 -930.759888
617.003418 196.189941 -1042.259033
611.947449 456.754944 -810.221680
709.685059 -98.627113 -1256.293335
653.284180 394.196259 -841.471924
621.041565 -120.514320 -1400.623169
763.779541 141.039169 -976.148865
512.253113 335.975311 -1053.918091
715.830994 375.917175 -801.504395
595.138672 404.910065 -896.207642
686.070435 330.157013 -901.251282
446.051086 76.553009 -1012.628967
693.742432 -394.398438 -1231.307129
522.520325 -302.383942 -1357.174561
876.774170 -133.470886 -1260.077515
837.980469 -304.787201 -1229.616577
519.164063 364.336517 -1018.393372
558.262695 478.422913 -842.790833
956.690369 -231.195755 -1233.388428
858.208008 -170.423233 -1245.240845
463.354248 -111.255104 -1463.071411
554.694519 472.831818 -851.959778
608.900391 -353.539429 -1272.773438
1017.539368 131.851349 -1475.456909
929.138611 -200.089279 -1249.286377
754.765442 327.207550 -850.049500
593.526855 38.236027 -944.481812
913.197510 -179.285034 -1219.604614
610.581055 -325.693024 -1244.971680
511.725647 -314.957397 -1339.590332
588.665405 430.738434 -861.693542
635.383301 427.635101 -800.394775
354.710754 -4.960862 -1014.757507
698.172974 163.558868 -1018.685059
735.907654 -350.318298 -1215.130981
441.355438 -124.117027 -1408.239746
621.795105 351.772949 -915.022644
593.330139 371.175140 -945.192810
432.238220 115.841766 -1072.854492
673.518433 -71.786118 -1385.897705
543.922485 81.501175 -995.933472
509.188660 427.201904 -926.734741
514.704651 89.023926 -1013.183960
559.957458 -68.405441 -896.505432
670.998535 -95.218857 -858.432739
692.633118 78.659935 -960.735291
539.593323 470.079712 -862.641235
722.133179 340.505524 -848.627441
572.428772 480.364868 -813.481506
959.239197 -274.876556 -1217.558838
449.805878 448.648468 -948.960327
543.859009 131.628876 -1021.952881
473.256348 -186.250748 -1434.128784
643.240112 350.181000 -921.592041
634.490723 -320.576904 -1284.706299
579.737854 442.944855 -836.543579
517.381104 423.589783 -961.306885
537.551880 -325.480682 -1334.050781
507.828461 473.049622 -889.386597
491.506317 438.528992 -942.592529
618.711548 27.257748 -959.174744
475.295227 44.060974 -1014.450500
575.786987 -376.626343 -1269.868530
748.990356 -355.227692 -1234.221680
549.264709 -116.203552 -897.039001
645.157043 434.058594 -782.182495
611.759033 -362.026398 -1281.128662
672.421509 -208.637802 -1327.552734
475.482147 179.572723 -1108.316895
701.808044 172.207733 -1025.316406
637.010010 -81.436691 -874.603821
679.653015 -37.184551 -866.865845
471.111816 73.310684 -1018.934937
759.101379 -114.704666 -1266.964722
532.643311 -308.293732 -1349.637329
585.310852 67.665085 -960.290649
772.779419 -376.138885 -1200.619873
471.736572 65.024071 -1031.446655
589.472595 -274.171387 -1336.041138
893.393372 -311.593536 -1218.406860
737.541748 -4.995319 -791.715088
563.855835 402.733795 -912.146973
634.685913 370.696167 -906.414795
680.861755 -415.517792 -1212.678711
490.783966 -113.668510 -919.670288
546.717346 439.497009 -886.912537
843.612488 -8.001755 -1408.357178
516.086487 424.797302 -935.655396
951.603027 -2.665168 -1371.143921
532.648193 -325.052979 -1322.252930
441.587372 89.407600 -1037.385132
625.880005 447.797058 -808.786865
647.664124 -56.771500 -871.814148
486.530121 132.304794 -1054.848022
540.265564 -203.418304 -1405.862793
592.441467 -259.108795 -1370.450928
493.256805 -335.526703 -1315.818359
613.236572 -176.658325 -1409.735962
911.223206 94.891426 -1394.046021
536.000610 99.895767 -1033.546753
709.136230 -370.305786 -1234.614258
655.592163 402.452820 -833.918640
476.219116 -145.410751 -1430.313965
803.220642 -121.913742 -1340.088257
663.648804 146.349564 -1020.108521
423.794128 -162.048126 -1452.151978
525.787659 453.380219 -892.593567
808.505676 -221.956863 -1285.932861
565.005920 -297.991364 -1316.019653
584.717773 -393.907135 -1253.969727
726.544739 14.271863 -884.925659
653.509888 25.899752 -1420.305054
505.901794 398.331970 -995.736511
631.861023 -125.334053 -868.160522
471.363403 430.531036 -961.465881
745.849304 -389.760864 -1201.028442
878.612000 -278.454010 -1232.525879
902.455994 -240.807236 -1254.818359
493.162079 -169.046234 -1414.911377
559.669922 -135.169235 -1434.195557
538.628235 -295.416565 -1340.814575
628.630432 6.046914 -939.874329
489.359833 344.453705 -1046.293701
712.520264 200.435593 -1053.196899
612.412170 -429.181519 -1219.720459
390.458679 53.300133 -1036.100098
600.806702 394.547363 -885.077515
521.046509 -40.668209 -1522.498047
465.424866 -83.578934 -927.842346
628.262878 149.455460 -1025.733765
818.314087 -67.171257 -1319.852905
518.992859 -140.785583 -1425.596802
744.991516 304.136597 -874.071533
631.799744 -309.890533 -1310.174194
542.499207 -181.658905 -1411.443848
653.469177 -372.749237 -1236.069946
702.072998 337.289795 -888.083252
922.101379 -221.760452 -1223.982422
650.683533 -40.811718 -883.530640
734.584900 298.677460 -878.425598
595.871826 79.169022 -977.383789
675.679504 95.510345 -959.531677
551.246033 -68.496445 -889.985046
500.420471 136.866913 -1040.270020
398.732086 106.549423 -1069.298340
545.947144 369.529297 -991.852905
609.889038 440.849396 -831.692200
