ply
format ascii 1.0
element vertex 1370
property float x
property float y
property float z
end_header
-1120.043091 -98.540794 1032.422119
-1179.046143 -159.679245 877.467773
-756.028442 2.686055 763.917725
-661.385803 -212.517944 1000.595947
-516.374268 -38.416496 1099.430054
-737.724976 34.709461 843.003784
-1016.251099 -84.527061 1021.234985
-612.319702 182.970200 891.222229
-668.698120 -138.944153 991.022827
-348.260590 -110.430420 1094.105713
-1139.373657 -353.628448 910.107849
-394.402771 -4.090726 1073.541504
-685.287842 -26.850437 951.910156
-1097.728638 -10.384934 1099.184326
-715.172729 -111.859680 768.337646
-1089.549438 41.771137 1065.771240
-647.668274 -86.595398 1113.536133
-1113.473022 -346.357758 947.846863
-750.550293 -49.023708 737.241028
-1196.054443 -144.044159 811.438110
-713.474670 129.483109 904.195740
-1195.136597 70.531883 936.496216
-680.521179 -111.736839 969.751648
-488.823151 164.568054 1046.776855
-1210.966187 51.688625 894.616211
-709.602539 89.743553 946.166016
-777.099731 116.362770 774.829590
-1112.193359 -70.897606 854.256958
-766.041931 27.864658 731.488342
-1088.968140 -32.296474 1247.756958
-528.907593 83.048645 1083.875122
-387.254486 -11.816746 1074.814331
-1146.941772 175.531128 1109.130005
-1197.723999 19.173754 932.004578
-1184.124268 192.429947 1063.868408
-1157.645508 -220.461990 943.325012
-1135.758545 -303.197357 953.690308
-478.792664 -68.602669 1084.229858
-678.417969 -153.127731 992.173401
-1013.316650 35.818501 1330.121338
-1130.940063 143.873154 1052.099854
-714.791992 147.563202 895.297058
-1130.842773 77.322960 1060.237671
-1058.260010 30.030657 1282.261230
-383.679443 -181.984863 1067.133057
-1128.251099 -400.848297 962.994019
-703.637329 -52.038914 848.243652
-765.998230 -230.887253 751.277832
-710.983154 -66.800377 810.271851
-1044.145142 -189.409683 1016.010376
-455.232269 -121.534706 1080.695313
-359.083344 55.314545 1067.729736
-481.366882 -85.107162 1072.350220
-633.894592 -178.349991 1076.454346
-342.813995 -31.716639 1060.367676
-395.369080 15.549961 1069.301636
-345.746521 21.987961 1066.152832
-707.716187 -202.234314 747.717407
-291.131195 79.617386 1088.513428
-1195.697510 -24.517256 833.904602
-309.875214 -115.454605 1077.174683
-693.745605 13.906468 914.219116
-657.407837 -78.899994 1082.440308
-430.478821 -159.730392 1082.059692
-1184.016479 78.919754 916.434204
-350.974640 16.134945 1062.158569
-1213.900879 102.446472 904.620361
-1191.300415 201.535278 1030.996704
-1170.568726 10.803061 1029.856323
-501.176880 -13.611294 1098.014771
-1193.610352 37.946968 886.087097
-497.168701 3.127494 1094.737549
-1105.648682 120.174370 1043.537231
-739.826782 -60.358421 795.444824
-1158.322144 -14.031683 1019.299988
-1139.101318 -231.461746 988.973083
-1172.360352 45.240448 1026.424194
-1157.174438 164.658096 1068.474609
-1139.801758 -96.228043 928.788147
-1177.538086 -18.570557 912.186707
-507.497498 111.797241 1081.057861
-744.164917 101.902977 810.048828
-1219.813965 82.307098 878.803406
-1122.336304 41.707165 1228.610596
-709.661499 8.962090 811.756287
-749.730347 -49.437134 768.941345
-1170.018921 204.601883 1085.220337
-734.740417 81.921280 788.446594
-719.248840 96.238647 848.769409
-731.897705 4.706306 778.006470
-379.826324 -122.286331 1072.110596
-1141.710815 -250.331573 977.460022
-719.968628 -187.278458 823.038757
-744.982971 -32.863716 747.430664
-316.374176 -52.466499 1071.135376
-670.070984 51.239910 1065.727295
-765.743774 -149.014969 700.395874
-1063.839844 32.330006 1384.234741
-1183.587402 -173.905365 852.030090
-717.410889 -51.689369 798.025879
-715.976746 -240.495987 750.113525
-254.186768 -51.659203 1060.539429
-372.956451 108.884529 1064.733154
-1175.860474 -136.711304 827.755493
-712.811096 145.234085 911.445801
-716.090149 -201.638367 774.892700
-374.519135 133.663605 1059.040405
-677.929565 -162.594131 843.341309
-1171.918579 -63.626560 999.819031
-332.458160 -200.429626 1071.663452
-1166.078491 -193.058701 963.059570
-666.040405 -122.614082 1056.695679
-303.814362 -51.180416 1076.225220
-1133.799561 -149.061859 1039.392090
-1171.488647 172.236618 1034.209106
-1191.218506 -14.641393 847.504272
-662.205627 24.879145 1082.310669
-702.591125 -18.478836 831.195374
-663.905945 203.817169 809.543335
-411.739624 -135.057571 1075.583984
-1115.948242 -272.320068 1014.396301
-462.139526 -203.836029 1082.263794
-735.390991 127.998749 827.890503
-333.948517 111.385132 1055.753418
-775.113525 56.283951 739.302002
-412.345184 -13.251332 1071.551025
-323.761200 -12.513614 1083.164429
-1155.100220 -178.556946 981.242981
-1194.990479 160.233551 974.238403
-1196.719849 95.681023 981.585022
-426.665833 70.682053 1072.943848
-1172.728760 -225.616562 872.384399
-1114.667603 167.538101 1047.152466
-777.787537 -65.959488 722.774353
-752.607483 -23.098579 740.871887
-1171.785400 -170.128448 838.637512
-275.810822 1.877327 1064.192505
-1084.608887 -16.607367 1073.750610
-710.718506 26.604342 868.678284
-1105.279541 7.348765 1189.519043
-672.024841 -159.478439 1014.511719
-1124.983765 -328.395660 1015.251831
-282.181213 -64.485527 1065.701660
-1118.052734 -294.215149 960.730347
-1158.686157 11.310713 988.560669
-331.970734 122.898964 1059.987793
-1204.797974 -67.756493 805.750244
-1094.959473 21.432234 1145.684570
-699.670593 -54.305359 862.569458
-1196.582764 -217.007278 848.147522
-1117.536133 -400.427704 989.198669
-1085.402466 35.808052 1042.827026
-1190.730103 1.657863 970.367981
-689.596680 -169.086365 981.005798
-645.617798 -20.472546 1074.937012
-1167.489746 -234.017639 896.522644
-1143.788452 161.950775 1086.958862
-1153.413086 -281.186279 905.651794
-409.746094 -18.611391 1067.650635
-718.626160 -158.475266 775.948364
-676.219849 -70.523209 1026.029785
-1100.612793 117.846321 1033.260620
-1088.492432 -320.968842 1107.482422
-539.010193 214.389160 958.785706
-718.651428 107.184624 858.120911
-720.045349 -41.307758 838.716187
-1177.600586 -51.448952 931.578369
-578.783936 94.307434 1090.885986
-275.936493 -82.640099 1061.523560
-700.870178 -248.335236 792.335449
-718.701050 -226.393768 768.703064
-652.568420 -78.722099 1090.445435
-733.524048 -12.717711 792.757629
-349.459900 102.273506 1061.872437
-1170.921997 -269.769775 900.740051
-1190.899780 -77.931732 813.689819
-467.250031 93.037346 1078.000977
-445.578156 -68.324585 1091.120483
-337.469208 108.905632 1067.685791
-1083.340454 74.409775 1385.990112
-1187.063232 8.780172 995.154480
-704.125671 -7.925270 820.459717
-338.736877 34.815269 1058.140991
-357.508972 69.646507 1067.581177
-716.777710 -68.981087 792.962036
-688.150024 -36.910542 914.416687
-373.097900 76.972488 1066.316284
-1128.361938 122.665009 1092.566040
-683.505127 -131.378525 849.141602
-689.706360 -128.838821 950.869812
-1190.014160 6.081222 931.892944
-1178.594604 -123.273659 874.082031
-454.598572 -33.788403 1082.196045
-716.172180 -184.600479 765.028137
-1197.212280 115.417320 946.888733
-734.761963 -65.160759 753.047058
-1116.406982 -331.485199 930.223083
-1174.608276 -254.812103 836.272888
-1115.437256 72.693054 1052.322021
-534.434326 -133.093094 1064.992920
-1216.466797 44.134254 853.416199
-1021.518188 -30.299931 1299.986206
-525.115784 227.606537 899.469177
-680.918396 99.146904 958.668457
-718.398376 125.057289 864.771057
-550.098267 -33.667534 1100.508301
-1203.323730 -109.918510 841.220459
-1189.958130 -61.211281 829.598145
-1167.762695 1.432306 955.699524
-703.972778 -50.087105 925.822266
-1123.391846 -96.953957 978.459778
-421.307465 103.142670 1062.981689
-1220.398926 38.692005 848.288208
-560.168335 85.408226 1085.494019
-717.307190 -221.029800 751.085876
-679.052734 -108.150330 929.379456
-1032.080811 -135.668198 1057.114868
-480.871490 -156.552048 1082.016724
-1211.022949 -137.950363 825.649963
-1199.360107 106.609062 975.720154
-705.256897 -123.977196 826.367432
-453.163177 -96.765694 1087.596924
-692.638367 -187.925186 902.959717
-1125.952759 -225.154877 1022.977722
-1124.949707 -227.505508 986.877014
-726.817261 105.181198 834.148376
-1150.098267 -277.239685 933.701416
-1177.946289 -239.409348 849.110474
-749.902771 -1.708463 726.163330
-686.294556 -52.196255 956.605103
-744.740845 -8.615255 786.562012
-445.292725 -104.825165 1085.663574
-1058.857422 -88.590134 1067.813354
-272.478577 12.281221 1062.571411
-1203.231323 -183.676987 837.872253
-308.620209 126.924606 1073.631836
-1111.089233 -394.148285 1006.257507
-1062.156982 49.985603 1396.921021
-1089.012085 -306.924591 1014.689270
-1106.767456 -412.203674 984.834351
-1226.692749 -29.049820 775.369690
-784.587952 37.318634 731.507935
-1200.881226 -119.830704 802.399780
-522.062073 -57.225456 1083.921265
-646.628601 -186.935669 1028.028564
-1149.298462 -26.831427 1032.248535
-690.907288 -80.133743 884.692017
-1213.879395 -59.714169 774.059204
-1196.014648 139.196121 948.030640
-1153.179932 -1.790158 1038.445435
-1174.211182 106.532669 1017.219727
-482.096558 -63.410053 1088.980713
-442.239594 150.329987 1052.707642
-1124.339478 -149.009186 1047.869019
-1130.291382 -54.057640 1203.694580
-745.616150 -170.534012 728.119446
-339.626373 -57.801792 1074.514404
-707.058167 -1.320079 858.497986
-631.757080 -171.240616 1029.082642
-306.484772 31.720106 1061.039307
-1138.140259 -33.375755 1068.651367
-657.416870 -7.465652 1083.447876
-389.602966 -91.370041 1065.581909
-1205.024902 -71.958977 775.371277
-1194.962280 -176.509399 750.476196
-748.096252 -90.514923 702.646423
-425.544708 -180.366943 1077.489258
-770.580322 112.611824 767.111145
-728.893188 1.788970 825.722107
-710.646790 39.779392 914.871399
-741.354187 23.226349 795.246826
-524.104736 -72.335396 1101.441895
-1159.713867 149.918869 1015.853149
-483.607422 9.895002 1084.377197
-1089.021362 6.967102 1175.374268
-1187.301758 -136.780304 864.328735
-465.595581 25.140043 1080.634033
-1073.781616 -382.568359 963.487244
-1160.296021 -216.747238 860.987976
-654.989014 -35.758743 1078.248535
-505.690125 -134.903534 1076.776489
-1152.145874 -194.953186 967.069946
-1173.302979 101.597321 1009.937195
-787.120667 77.814667 762.096558
-760.749878 -15.569950 724.932373
-1148.552734 153.309509 1056.245972
-1201.517212 -3.551143 886.832275
-547.264893 -133.547348 1101.891113
-651.989441 -6.928591 1125.199951
-1183.116333 -215.586334 789.853271
-491.338531 132.721100 1066.825439
-350.197296 71.456299 1062.515503
-1186.798462 107.016510 929.832092
-555.162903 66.730118 1080.020264
-1224.160889 -15.682331 775.039551
-753.423950 69.374382 782.738403
-1169.479004 -187.410660 903.145569
-1035.148438 46.592113 1430.840332
-787.446533 112.804657 766.975220
-1200.299683 -6.151018 837.387939
-482.440338 3.265561 1074.343506
-1070.451782 -238.796249 1110.883423
-333.571991 48.039127 1067.828125
-1168.707153 16.953630 1035.006592
-724.119202 -105.996643 823.638245
-706.666687 4.292406 863.165344
-1177.302734 114.936340 958.966736
-709.024719 -15.960066 838.938904
-760.532471 127.491592 808.820435
-285.890381 -104.125053 1065.543335
-1170.970215 -189.024673 886.488098
-1156.216553 19.278202 1016.765137
-1072.006714 -221.002136 1087.833130
-1105.703003 115.566154 1102.514893
-1144.629639 -272.750793 948.903748
-1127.136597 -241.137711 1028.890625
-1191.339111 215.729248 1041.374512
-643.048218 -62.914692 1054.294312
-1069.219604 70.043167 1326.676025
-281.425049 25.071417 1075.660034
-1101.308228 -161.435074 1019.715881
-750.515869 9.589692 736.732666
-1088.105225 17.007273 1269.737061
-1186.339966 -95.183907 820.593750
-1107.109497 41.636002 1123.641357
-1197.729126 131.901505 952.191650
-1188.562744 -4.685259 983.811646
-692.054016 53.655533 917.492981
-730.486267 -226.645416 747.388672
-1091.785034 60.175213 1244.538940
-753.280396 -30.983774 730.911011
-380.395660 -179.903549 1066.391846
-1107.532471 9.535794 1174.192749
-292.620911 -25.127434 1068.595459
-1180.098267 -25.071850 974.368042
-1090.134766 -378.737122 1031.294922
-1079.333130 56.132790 1052.532227
-536.611633 -91.576889 1106.630615
-1132.529297 -352.308624 930.535645
-684.658447 -22.802599 935.565857
-1087.381714 -173.202805 1061.918579
-1103.858521 -368.914093 1022.451599
-1184.872437 -79.658363 861.715393
-765.575012 -134.727234 731.749756
-678.938477 -18.627928 958.596619
-1048.126831 -34.647907 1417.143433
-765.192871 -95.989464 703.282715
-325.468079 -93.767738 1078.292236
-428.658203 38.766376 1074.017334
-287.202240 58.801628 1089.346191
-1202.131592 45.538868 898.892395
-1084.964233 -244.527603 1080.853394
-1172.103516 21.394312 964.809937
-379.105927 58.617870 1061.501343
-402.254669 74.632706 1064.477051
-1212.777832 -64.328674 737.779541
-1213.987061 33.042683 859.937866
-454.224030 -4.693435 1070.642212
-654.512573 -170.345535 1044.454834
-1089.914185 68.662544 1262.726074
-497.509979 126.389893 1068.161133
-1119.188965 -198.741745 1062.235474
-1094.511841 -346.096893 1081.686157
-1135.682251 98.963699 1065.571655
-1215.183838 -23.497934 801.431641
-432.099915 -156.093948 1067.893433
-485.882233 78.987015 1066.113525
-1071.520874 -361.647369 968.268860
-1162.206299 -228.078003 984.167419
-710.646240 -112.457947 780.184448
-405.697876 31.407791 1072.148926
-1118.147705 94.394089 1048.417480
-1094.513916 -370.333649 1019.165222
-1190.567017 129.362167 915.744751
-727.041260 -217.880997 794.998718
-1181.768188 73.346107 923.189880
-258.090607 -101.730194 1075.941895
-684.518188 -51.716331 923.099487
-800.915649 -7.852513 717.469299
-1206.994995 -44.246208 809.891174
-453.734344 -121.976585 1088.302612
-669.216248 -83.184013 1046.398071
-686.863586 -102.254471 896.565918
-1072.192749 45.483612 1362.528442
-410.483490 -127.108124 1078.210205
-1115.589722 -347.288391 931.315857
-1170.902954 76.571976 1033.275635
-745.063416 -105.432373 725.976746
-725.211548 -226.131958 756.179077
-745.502075 -65.788185 744.823181
-1070.725830 10.422532 1244.410278
-1171.835327 -195.214783 935.576843
-1085.091919 -320.927521 1030.288818
-989.046692 -10.559330 1322.339233
-690.490540 -35.229412 898.773010
-1060.476929 3.473743 1050.046021
-750.381348 -168.533020 720.373901
-482.859253 -160.096359 1083.378052
-717.436951 -170.419983 764.302246
-699.635864 -191.691299 823.821167
-368.211060 115.803444 1051.286133
-446.532928 85.587021 1073.411377
-1197.471191 -145.855896 883.329468
-463.737305 -158.329407 1087.844482
-478.721436 154.933670 1066.142334
-493.757080 120.310661 1077.333862
-986.981506 -78.935966 875.718811
-389.228882 -58.830593 1076.378418
-299.183624 -104.187080 1077.238525
-1192.088135 -111.878876 820.862244
-1107.985474 -203.208023 1043.020020
-716.910339 -124.793747 861.132446
-681.396484 -33.856098 1057.580078
-340.788208 107.915085 1065.722290
-1141.812012 -54.419415 853.651001
-1161.222900 -264.334290 888.908691
-503.110992 -154.880707 1085.110474
-1211.934692 129.885223 947.601868
-677.662354 -199.400818 905.717102
-741.237915 35.104832 778.252869
-266.481171 -109.824883 1072.113770
-719.474731 11.192472 815.763184
-1117.257446 -241.046036 1000.216309
-432.878693 124.341019 1071.994629
-1033.828247 96.520180 1454.568359
-484.264862 -72.674522 1073.892212
-445.605164 13.606389 1068.962036
-711.327148 38.472191 931.138672
-259.688293 59.261631 1066.739868
-1149.588379 -322.029480 941.551636
-364.843170 -112.029076 1078.270264
-1137.289673 184.993713 1116.051147
-1163.170654 1.642372 1033.534058
-1189.558716 -162.708649 829.039124
-342.022888 58.243225 1075.334961
-1120.711304 -235.522614 1021.026062
-352.509583 120.001976 1066.180542
-713.947754 -99.989449 758.190735
-688.744202 -20.649229 919.785339
-1212.746704 18.405050 886.048096
-1180.433105 39.530891 1008.890442
-374.815613 -215.898911 1076.769775
-1167.214966 159.151382 1037.716309
-688.510803 -208.685867 821.901001
-1077.474976 -9.623947 1071.893799
-515.035095 -144.832916 1078.759277
-1163.173340 119.655579 1049.713135
-1149.403076 -72.624405 806.000000
-1208.616089 -119.267532 739.932617
-388.037048 148.345093 1062.189453
-662.856689 41.532753 1072.413574
-680.759460 -92.668396 954.377136
-735.895081 -122.098297 746.576904
-700.774536 -31.601971 915.490723
-663.106689 205.425079 777.234314
-474.815613 -43.742836 1086.199707
-713.596802 -209.975250 780.588074
-715.593750 -70.054924 796.713196
-681.786865 163.018463 861.072998
-499.619049 -203.536346 1085.333984
-653.427612 -24.983431 1021.452576
-1036.413452 -58.988880 1180.154175
-333.186432 -29.326178 1084.214600
-717.462769 111.574409 882.082764
-784.486938 40.442696 739.801147
-719.940857 -91.989937 790.457886
-358.871704 -125.801880 1070.355713
-1164.952026 -5.719752 978.055115
-1063.471313 39.814106 1302.676880
-1223.331665 -4.548651 819.004456
-766.187622 74.070961 773.527466
-701.403137 -37.136036 891.769104
-1182.359619 -72.631378 797.604370
-663.717163 -169.271667 981.683899
-782.897461 -46.757034 724.531006
-678.237732 -213.703156 900.999268
-725.588135 -96.224731 761.848694
-658.826660 49.848427 1071.467163
-306.924744 92.438774 1056.028809
-1085.428955 15.365011 1206.350098
-1062.831055 -42.850853 1081.055786
-665.044678 -241.418350 934.267639
-712.075195 11.788341 839.243103
-551.669434 119.801544 1063.513672
-1188.783569 203.459930 1015.512329
-673.128967 101.221870 1025.611938
-767.702820 89.308304 767.628601
-1194.680908 221.504593 1035.512085
-686.806396 -238.785812 836.641479
-699.780701 -215.450241 803.189453
-1120.510742 -201.961609 983.680908
-1083.493652 29.124798 1072.407104
-1181.891602 122.488770 956.700195
-463.008301 12.825233 1084.513794
-1070.911865 68.408501 1261.210693
-776.337341 -31.837614 716.038391
-1090.098389 -352.030334 981.678223
-687.364441 -182.630310 983.302795
-762.286194 -182.498566 697.252686
-351.487579 -122.740738 1062.673340
-1097.122803 44.475292 1170.733276
-704.908936 -231.797455 785.663574
-1192.007446 90.463753 996.226013
-1137.803101 -306.677551 943.620422
-1204.961914 97.170876 932.415527
-442.786987 -141.054504 1085.167358
-689.049133 -94.958862 844.896118
-1204.232666 -173.960709 774.397095
-1197.679810 -209.265747 820.981018
-438.238190 36.962418 1071.863403
-751.861206 -24.478584 733.248352
-1153.604858 -203.546310 961.135803
-452.171387 30.191847 1085.217041
-1175.803589 -61.882992 947.407104
-477.759583 -207.833481 1091.046143
-1189.169678 -64.774712 899.211426
-343.200134 36.810112 1067.924316
-485.614105 -189.531540 1079.071533
-1164.723877 -36.333416 1008.055359
-510.832092 96.682983 1079.200684
-1107.584473 9.227647 1262.833740
-684.474731 -133.501770 878.374146
-1077.954224 46.731121 1087.570679
-289.424011 -121.699768 1062.967285
-1230.735718 -7.325798 787.447449
-1166.544678 84.168663 1019.554626
-663.793640 -175.758743 898.706970
-401.226990 -92.797043 1081.454834
-1184.597534 -47.012726 925.817810
-1121.319092 -220.489151 1030.041992
-728.204346 -5.794199 783.022705
-1046.576416 18.321579 1368.843384
-1182.044067 55.441494 935.890320
-671.295349 -189.127289 907.671997
-1141.925049 -176.757706 1006.132874
-1127.779175 -248.463837 1010.312561
-1040.487915 -76.577911 918.116211
-472.299530 79.013565 1077.360962
-1224.204834 -26.023352 808.644958
-1057.814087 57.526138 1362.546875
-1097.465454 112.267883 1073.394287
-1190.570923 65.906448 953.903198
-686.387817 -122.786079 880.671509
-671.321655 23.372824 970.898621
-1156.767700 -259.314941 976.735046
-703.908386 -55.561527 838.448853
-363.331085 46.202324 1063.844971
-468.098267 117.618004 1069.916382
-1122.988281 -398.193481 974.414063
-716.674622 -216.389145 754.256592
-1161.453857 -253.002151 971.932983
-1042.450806 -68.191895 1410.470093
-505.298004 3.454679 1097.039551
-759.620728 -179.544128 740.703186
-679.612427 55.831741 994.875183
-1170.690674 -163.443024 961.243835
-481.720917 135.863342 1076.654663
-767.980591 -26.628614 742.425476
-399.089111 -170.340256 1077.303955
-1012.918762 -65.781853 1427.225098
-1098.894897 -334.060944 934.942993
-1109.844849 -324.947296 981.557007
-1090.386353 91.645988 1036.497681
-653.482117 -215.139816 983.824768
-314.032471 69.078407 1057.220581
-1212.468506 -98.723389 784.028625
-1198.750366 10.285182 899.100464
-1211.038696 -6.560866 846.639404
-283.887817 -76.541046 1077.961792
-747.609802 -49.759605 746.097473
-1128.465942 -188.204987 1038.903687
-681.129517 -46.431465 1015.109558
-703.905151 -150.225891 772.610718
-1117.336914 -194.325958 1065.316284
-1120.316284 -94.022957 1076.386475
-1212.704224 -84.649666 740.893005
-707.457581 -71.596550 881.597595
-682.289673 -23.521461 1021.311462
-426.148987 58.562893 1072.740845
-432.624054 27.502188 1072.070435
-1031.436157 -77.530594 869.795532
-399.055054 -192.438919 1074.414673
-374.027954 109.663956 1063.923706
-375.665558 -16.706171 1067.221191
-1171.405396 -119.692169 935.380188
-1082.475708 -334.705322 1139.466797
-690.561523 13.052708 1003.957214
-737.876343 121.719437 850.701538
-439.162140 -89.989067 1081.284790
-683.441956 -255.260696 820.672302
-323.878693 -70.226212 1065.608887
-730.469238 36.633411 795.457886
-1171.438477 -283.960205 890.948059
-1117.545288 -380.596466 940.222412
-683.874451 105.099258 947.433838
-1119.767700 104.745613 1099.992310
-740.676270 -19.506205 741.717957
-751.494446 -141.902512 728.461975
-1109.649780 61.612518 1076.081299
-1128.099365 -202.589310 1035.608276
-307.668640 -107.197090 1077.752930
-652.771240 -186.400177 942.757874
-687.967712 -68.263016 948.478027
-1103.754883 -202.167007 1057.972900
-676.377136 -191.976974 951.329102
-1183.755005 26.444944 894.125427
-637.613647 -175.820328 1053.509155
-743.713257 -122.390205 706.062256
-275.282623 -91.462395 1093.647217
-390.151611 -54.045364 1065.857422
-1006.146973 41.166618 1255.411865
-1139.691528 -284.411835 985.622070
-363.599060 -35.211056 1075.421997
-712.309387 -119.611412 884.846802
-717.425903 104.599442 878.426636
-424.154999 -58.355892 1080.218750
-694.609131 -112.883965 862.063416
-648.490601 -148.279312 983.481201
-1141.539429 21.131542 1186.312500
-1187.765747 -235.526917 847.540955
-1122.828979 121.333122 1053.168579
-1074.835938 -74.028305 1084.228149
-1101.081543 116.766106 1103.468018
-744.149231 156.574524 859.996643
-730.609253 -94.539635 738.788513
-493.133575 -296.748871 827.672119
-1056.676270 32.160988 1338.630981
-676.776917 79.769600 1019.263123
-1122.626465 -242.485962 1041.052490
-1180.309570 196.883102 1046.787476
-1157.484497 -325.281433 929.894592
-360.680511 -34.296761 1078.724365
-1215.465820 -94.969147 775.385986
-685.832336 -98.431740 856.546753
-661.768738 -152.130280 1093.248779
-729.101257 96.306046 827.410645
-473.108765 -175.571030 1077.978394
-357.648285 99.304001 1063.233887
-1029.292725 -59.180943 1256.828735
-1087.633789 55.835484 1264.038574
-1170.286133 149.830780 1018.994812
-1210.923340 -14.232212 770.990906
-509.939514 63.358456 1079.004150
-723.805298 90.820313 835.760681
-718.498352 -160.513458 763.486938
-385.765564 59.814644 1062.324585
-501.245514 135.405807 1069.202026
-501.583221 -3.983369 1082.695679
-527.663452 120.054413 1101.999146
-715.114319 -212.775360 764.615173
-515.396240 -64.551712 1090.722290
-1132.257813 -238.383804 997.004944
-687.812012 44.829094 968.684998
-1194.889893 -25.380426 898.973816
-1164.183105 41.601505 981.417664
-1184.831665 -56.357334 975.629822
-713.106995 -50.231430 810.773865
-676.800415 -144.904968 897.323669
-422.291473 72.185516 1078.221680
-728.994141 43.109810 807.424377
-1086.260132 -268.033020 1170.433594
-1124.061646 27.893402 1086.390747
-776.694458 -18.124430 736.206848
-525.643555 -91.886452 1091.165527
-1153.883179 -108.382507 947.927246
-448.315094 133.848404 1072.277466
-669.577759 -52.393425 991.900330
-258.779327 -40.860466 1078.433594
-1030.245605 62.344524 1452.952026
-716.197632 -199.797592 751.936340
-1131.664673 -362.769928 973.934875
-680.557190 -136.027451 908.787231
-1206.234985 -55.760258 781.007813
-380.630341 80.910805 1063.963257
-1107.391968 -198.803009 1003.467468
-1144.714111 -320.745178 921.374634
-521.050781 106.042488 1069.448853
-694.661255 -239.366882 762.364319
-998.360168 -76.185364 1075.094727
-733.183167 15.974156 794.776672
-1103.927368 39.000008 1060.419067
-477.654663 -186.993958 1080.152954
-1161.326294 -169.420761 961.408630
-1123.424927 170.400467 1093.130493
-727.168823 175.420135 867.001587
-646.154419 -134.019623 998.387024
-1087.857300 -41.631248 1228.376343
-1139.907593 -69.008011 1095.705688
-544.905396 85.956314 1093.104248
-650.716248 -140.223618 1056.382935
-1134.419067 107.024513 1090.120605
-1157.426880 -1.006291 1040.842285
-329.763947 13.922294 1081.197510
-726.898193 -136.308563 816.425720
-675.443054 -192.455673 886.509155
-1167.021240 -168.329117 913.474243
-739.668457 101.335831 846.153198
-548.735779 10.022136 1081.589722
-1165.271851 -197.058487 853.442993
-633.430603 -199.701874 1009.452942
-729.380676 -5.745240 775.809082
-296.323120 35.329926 1057.577515
-426.063354 -42.560242 1090.005615
-1175.407715 61.770153 1002.949463
-1189.411743 -159.815109 839.776855
-678.491333 -203.799072 877.761292
-1179.593628 138.694885 972.532715
-421.727631 124.787224 1055.952026
-455.333954 -189.028381 1074.208862
-1064.998657 19.876770 1282.659058
-274.905243 53.060135 1065.404175
-721.491150 66.187012 807.316711
-749.954102 150.167816 843.226318
-260.361603 -155.749512 1066.585938
-1064.172607 11.496853 1106.874878
-1200.261108 143.084167 966.468323
-691.460876 7.030286 876.909790
-517.025818 -114.055161 1068.770996
-748.356262 65.972809 760.362488
-653.449158 -69.295952 1089.718140
-276.596741 -14.467517 1065.693604
-1101.841064 -238.973068 1215.169067
-769.512695 -159.763138 704.642029
-501.709778 -106.257866 1090.277466
-1179.432983 67.484367 1005.501892
-384.967529 -56.923321 1074.250000
-1156.648193 -158.406662 978.516113
-1170.611694 -176.002075 918.078735
-1174.496338 -113.312927 823.410034
-1079.795410 74.908348 1350.594727
-1126.869629 36.753124 1070.478394
-428.627869 -69.261566 1090.954468
-409.414764 -98.224937 1074.878540
-497.165466 -124.297295 1090.507324
-341.339233 -28.895134 1084.548340
-681.942627 -170.224991 888.580444
-767.389160 38.011501 716.532166
-526.988159 31.736713 1084.720215
-400.874451 -43.877338 1089.172485
-693.250488 110.643166 962.140320
-478.406097 -53.465134 1087.497559
-1183.027222 -48.595741 974.780273
-771.628113 4.492027 743.625854
-1125.639648 151.447556 1084.373413
-725.757263 84.734634 875.883423
-725.010986 -31.186289 767.274231
-291.867279 -89.248390 1063.610229
-649.937378 -137.532135 1062.377563
-521.009766 -53.915405 1099.891357
-687.154297 -154.762482 998.629517
-351.567322 -55.218056 1067.901611
-713.087463 53.955208 835.595337
-1187.989624 -137.019424 833.740417
-493.073608 -181.846146 1085.385498
-364.467743 -17.151785 1064.066406
-1157.607788 10.647549 1066.328369
-718.214233 -125.505508 812.132629
-1047.065918 -35.499046 1480.480957
-717.554504 -7.010147 793.934204
-695.365662 78.351067 987.675781
-1155.348877 57.653244 1041.950439
-559.179016 -33.132095 1116.109375
-1207.174438 -142.301224 777.579895
-696.071289 51.463696 900.944031
-1186.771118 79.532738 968.788147
-1216.594604 -49.377502 801.369446
-515.270569 -123.174973 1088.020142
-1127.738525 -118.026215 914.461914
-1182.750854 -8.111629 952.320557
-388.318390 -99.151665 1064.722534
-257.669342 -54.003384 1085.029541
-289.624939 -93.091728 1064.850464
-1180.926636 -83.297432 808.732422
-743.549622 58.998680 783.565369
-741.644104 -38.406006 751.308899
-355.855988 101.942184 1052.516113
-726.482971 88.985855 873.520996
-763.480713 106.635162 789.264282
-1174.188843 -17.835119 1007.181274
-311.345978 -115.669250 1073.245117
-325.011566 119.037834 1076.084595
-1159.994629 44.710682 1027.493164
-1092.076416 -383.610657 1081.353638
-691.477722 122.524338 992.751099
-341.781250 -66.615883 1075.349731
-1156.111084 -81.319336 1003.964661
-1181.615601 144.512695 966.607849
-402.661987 -155.546219 1066.559692
-1139.257080 134.047623 1046.410522
-707.131592 13.869842 939.795166
-1187.622925 -232.533127 874.969177
-426.916779 52.869411 1069.102051
-1205.493774 80.059624 898.728271
-1161.125977 69.366180 1073.006958
-1166.744995 -240.675064 874.654663
-327.976013 89.165405 1065.484131
-1076.764648 -261.336151 1012.985779
-692.329041 -114.442932 887.688171
-551.967529 -51.015774 1073.105591
-1143.229980 -272.306946 1011.065186
-1179.734741 -43.246326 968.433716
-1172.199585 124.980553 1023.824158
-669.105652 -177.109833 980.275391
-1132.179443 -267.022430 992.688965
-1172.467651 23.746435 1003.235046
-1132.185913 83.506905 1112.389526
-745.114319 -220.238037 738.652649
-741.998901 134.019714 848.243103
-1195.089111 -166.388412 802.678406
-1116.538940 50.063606 1273.655273
-1179.809937 172.169495 997.665649
-372.017792 -28.402723 1066.123169
-660.488098 -127.911674 1016.054932
-1180.733032 22.428740 916.229370
-1057.471924 -276.663452 1001.187195
-472.080933 -75.460976 1070.193481
-1164.091064 -265.270325 943.179199
-1093.401978 -254.461060 1069.177856
-690.828369 -99.467552 881.064575
-1106.351563 -68.022400 1105.424316
-1203.886108 28.149866 926.402344
-680.501404 -57.308216 886.955811
-1178.034790 48.090923 1006.695251
-470.891724 -8.520076 1079.461182
-1107.056885 19.002129 1242.142456
-1185.807007 129.728485 984.024902
-728.932129 42.103558 846.997070
-1191.213501 93.029030 982.461121
-507.679718 99.305580 1082.591919
-337.459900 -147.657181 1061.815918
-393.070465 35.526024 1080.921021
-463.146667 151.285477 1073.730957
-1110.313232 -148.169952 988.361511
-672.225464 -220.338669 987.931152
-1130.816284 145.763580 1033.552246
-1206.595825 30.043274 822.152954
-476.493835 96.990326 1061.063477
-1102.424072 -349.149017 974.360229
-1169.656250 -90.892967 912.546265
-1126.330200 114.462929 1052.638916
-756.471497 -170.156830 739.481506
-531.619263 -66.195023 1084.633545
-707.465149 -189.088898 870.141724
-335.948090 -72.661346 1067.635864
-1187.045898 96.594933 973.890381
-1117.005615 50.745274 1231.593262
-747.143982 54.566692 796.212280
-1179.154297 -59.796715 940.874451
-740.980286 -104.623238 771.058899
-709.007324 -118.705635 760.998779
-347.220764 -148.968475 1075.042969
-1170.517456 23.780119 1031.999268
-1185.358643 -203.532913 882.051270
-648.888123 -113.899612 1049.976196
-485.409485 46.446365 1066.597900
-276.563599 -83.548523 1084.905273
-1147.373535 18.433420 1066.327759
-1060.938477 67.977219 1398.376343
-519.237610 -17.273336 1093.371704
-1125.202881 12.737319 1234.925537
-719.630127 15.753077 909.942139
-672.520508 -45.731609 1017.984802
-757.561279 40.129848 771.464661
-444.561249 77.525490 1070.533081
-701.252686 59.396519 892.725708
-1150.870361 139.239243 1055.479858
-727.568970 -100.565773 755.078308
-1026.753784 -100.453865 911.951416
-1119.374878 -384.079559 953.673767
-411.798157 -165.812668 1070.425781
-747.303345 33.575775 755.813416
-655.254517 -83.110069 1051.643677
-1206.896240 -141.087296 733.630066
-651.171265 156.012634 946.993225
-701.075073 -8.702679 908.709167
-1145.961914 -352.534454 943.812805
-741.436096 2.807375 752.079346
-397.310486 151.434021 1061.325195
-1051.257446 -111.805763 964.650208
-781.496399 98.451492 764.864502
-699.881775 -2.289885 887.210571
-511.262939 118.397514 1067.953491
-1170.901611 170.009842 1031.217407
-1107.247681 -69.264046 1055.531616
-700.591492 -212.570541 805.881042
-1191.305908 -43.746967 833.653198
-1084.792847 -309.629761 1236.248779
-1089.150757 -372.182709 1106.641968
-701.085510 -141.602142 878.966797
-1106.441162 86.250389 1053.793945
-720.642883 -179.218567 754.536926
-1104.301514 9.587386 1226.254272
-672.560364 83.498810 1024.078369
-451.271118 109.515244 1068.820068
-757.491882 -53.736423 730.272705
-399.006653 -84.232605 1081.532959
-458.026520 -17.985659 1083.941040
-1129.058716 -295.648987 944.082581
-651.497986 -125.820137 1077.744385
-778.171875 2.964611 695.477356
-677.666321 -46.650883 919.427734
-772.784363 -191.306213 720.149475
-722.794250 -176.563339 760.606873
-682.548401 197.221497 816.110840
-530.226074 -39.136681 1084.054932
-1170.305298 -102.946495 871.705017
-1235.147461 -70.611549 772.972778
-1138.316650 -277.123230 920.159363
-524.373352 -150.628006 1078.781250
-1205.860107 5.277500 894.366455
-1209.016113 -94.173111 774.020630
-271.914185 59.474220 1063.871582
-1202.552002 56.215065 846.979553
-719.190674 -79.638123 826.548767
-436.066650 120.004814 1078.149780
-268.378479 82.300529 1071.814209
-727.770996 32.152245 883.529541
-265.373260 -126.077988 1088.624268
-716.335144 -191.672470 751.852295
-1131.183105 -207.206528 1022.207825
-652.028870 -99.780800 1042.703247
-451.482697 45.805004 1080.180420
-1147.347046 -243.698257 966.834045
-460.162415 103.421936 1074.304810
-1218.881470 -30.213974 820.433533
-478.303284 -136.646515 1075.656738
-1215.761353 59.288658 887.061035
-1177.834961 -187.333282 824.016174
-1184.163696 180.834991 1023.036377
-508.828827 31.477270 1082.484375
-479.746948 112.347237 1076.107422
-676.311829 -3.069353 1052.397583
-1176.769165 80.389755 999.531006
-997.411987 -109.354576 1446.647949
-1161.854126 203.714874 1072.301270
-771.276184 14.558007 748.855530
-1144.648438 -228.956696 917.722595
-1167.604858 -231.624695 876.080261
-471.267609 -81.516930 1078.628662
-513.826416 108.718658 1075.711060
-1094.823730 41.145084 1257.974243
-1061.687134 -37.038898 1064.202881
-1070.993652 -251.349121 1189.002930
-692.228088 -46.445919 855.575928
-544.111511 154.204056 1077.815063
-1157.827271 -199.580704 933.610840
-673.348328 -161.692383 942.815979
-1190.893433 -127.289574 814.548523
-449.342285 127.405487 1075.739258
-690.074036 -87.140450 954.402649
-1146.692383 -57.056915 1076.722900
-697.643005 79.099586 944.556519
-1068.290405 -46.810471 1163.604858
-390.357727 129.956696 1060.506714
-698.952332 93.183846 891.321167
-1212.857178 -92.536903 765.383179
-1170.266846 -21.773596 1031.122681
-1154.711670 57.472538 1061.326294
-1124.795776 101.422867 1153.185059
-1128.522705 -102.121086 1026.715576
-382.483124 11.875482 1069.082275
-737.271667 -56.405567 733.809814
-1086.874146 -121.864326 1069.294556
-680.446716 -182.500122 823.151917
-1209.412964 87.621948 876.236938
-1086.174316 74.670616 1386.711426
-1102.555664 -399.665283 975.037537
-1150.426514 141.639877 1025.402222
-643.747253 -110.827797 1080.391357
-1223.753174 85.136391 871.866516
-1058.384888 -5.727045 1055.008789
-752.449524 26.729841 756.121704
-688.877869 -126.196579 942.898071
-1156.938599 -207.367645 945.982117
-465.874176 118.706459 1068.616577
-386.889130 121.403641 1064.925537
-429.288574 -185.172150 1070.956177
-1115.496338 30.605366 1205.014160
-566.746216 -51.677277 1085.207397
-310.715546 -90.699310 1074.119995
-1096.380493 -291.820007 1231.425415
-1157.744385 -253.687790 968.757690
-725.870056 65.970139 797.746460
-670.804871 68.967667 1058.445190
-706.039978 34.970589 982.213989
-726.047302 7.587677 806.469849
-672.443481 52.526024 1043.070679
-1130.856201 -40.285114 1046.597290
-577.604065 203.409500 852.002869
-1167.245605 216.915558 1048.201538
-764.050842 82.194130 750.730896
-655.868530 -212.445313 968.873535
-447.420105 -79.226517 1087.882202
-1196.941162 -147.334686 768.719604
-341.751556 -130.680161 1062.914795
-384.064575 22.856632 1064.841553
-730.117798 -175.438980 744.183594
-606.901245 199.499512 883.300781
-402.678314 -165.205048 1069.657227
-776.506104 52.800327 757.626709
-1157.668579 -19.216652 1028.659546
-780.888367 58.930321 747.946838
-1205.379028 -3.847687 927.093994
-1176.696045 -261.104523 841.866943
-1087.045654 78.036385 1079.004395
-747.508179 110.594231 834.842285
-737.933105 -101.131119 717.019043
-1096.108521 36.754036 1262.929077
-678.417297 14.335831 984.022766
-471.372192 141.179138 1079.995361
-455.571136 91.164467 1072.943481
-761.408203 -145.190033 729.049744
-1226.472290 -80.725166 789.137817
-1189.529175 -77.604095 825.031494
-682.701538 14.785427 1010.205383
-1145.859375 122.699287 1034.205322
-431.244354 132.763016 1052.673462
-1154.297729 -182.956741 962.868347
-515.547791 -116.927917 1076.467773
-413.058136 3.255941 1077.205078
-1214.145752 122.393013 927.011353
-1045.350708 -154.768097 1040.338989
-422.683533 -30.817095 1065.751953
-423.119629 75.645058 1066.237793
-1209.731445 -92.631531 734.223877
-480.754669 -35.025890 1071.539795
-1158.781982 -209.371765 948.489014
-1096.828125 63.671253 1058.671631
-264.740143 -102.440041 1067.681030
-691.822998 -178.500671 915.236694
-307.372467 -3.120833 1060.662476
-444.853210 111.827805 1076.835815
-1192.567627 25.602022 927.461975
-1162.408081 -214.192688 912.210632
-1131.806152 -99.410202 1012.730347
-1175.335449 19.468464 951.619812
-1173.769043 -169.333801 889.375793
-438.546173 -185.856857 1072.034912
-699.919678 -46.358315 865.018188
-713.602051 -206.200089 803.624878
-1154.328125 -219.389130 951.718079
-1210.473877 129.176102 944.676270
-671.437866 43.482140 1040.222290
-1138.754517 156.144135 1074.058472
-741.869507 -63.716534 738.096863
-1213.751587 130.524750 920.888977
-452.000214 18.822142 1082.027954
-1171.870361 -107.420364 890.497192
-1144.071777 -279.921600 949.645569
-494.545319 -115.255196 1090.431641
-1175.257080 104.685509 1019.054382
-723.847778 -33.989086 784.808777
-1114.128906 -243.610458 1001.955444
-581.127869 205.881821 875.509888
-726.168823 -26.814245 796.478027
-510.247986 -115.724419 1080.042603
-1111.055786 -262.072113 1009.013977
-415.469452 21.722797 1073.358643
-1126.986938 -90.327187 1071.800781
-1169.166260 -171.767883 850.393372
-1186.135864 199.001907 1024.222290
-770.595215 15.793537 727.093506
-333.288116 -75.679802 1069.268921
-387.884766 -134.562469 1066.723389
-726.079773 -165.052795 775.777405
-548.181946 61.780621 1073.709717
-758.468018 31.007265 735.648682
-1177.130615 3.725481 1018.754761
-1111.334473 23.039360 1062.374023
-323.884521 80.597115 1056.435913
-1039.396118 35.877159 1470.611816
-1082.822021 -79.326813 886.942139
-1080.902588 -210.819092 1039.038452
-636.728333 -184.380661 1068.147095
-731.776611 27.067331 800.101318
-430.197906 65.785492 1068.577148
-687.939026 135.886841 864.571045
-666.962769 -65.485924 1026.119385
-1126.453979 -111.487495 913.484497
-1137.203735 101.925255 1053.116333
-722.036316 -184.599167 760.773865
-1195.308105 -226.819183 828.279724
-694.025452 -196.303268 834.174744
-1149.150391 -211.759872 962.757507
-738.071594 69.468117 807.486511
-304.756531 -95.132622 1078.394775
-751.784363 100.574867 791.582031
-1194.884155 92.476036 993.500122
-286.481537 -134.088989 1065.701660
-1200.912598 -197.874619 812.993103
-1182.742676 36.893787 971.990051
-681.091614 95.201614 1032.608398
-559.229187 23.761677 1105.380005
-491.754730 13.564932 1081.416138
-1217.743896 -27.439039 787.020752
-507.136536 -67.382584 1099.411133
-1201.107178 -126.577835 811.173767
-1103.243652 72.793938 1037.377441
-1102.469116 -208.003906 1069.831299
-702.022827 -102.799797 792.355835
-333.251892 116.284317 1052.321045
-1184.333862 -29.984947 988.137024
-1196.479614 -8.835107 830.159729
-1062.404907 -101.357620 1034.686401
-520.725647 29.183805 1077.676758
-1114.196655 90.137154 1164.668091
-1106.256836 -376.389404 968.590576
-448.044250 -161.134964 1075.260254
-290.030609 55.910065 1062.600342
-267.224091 23.799408 1056.218750
-715.824402 35.038673 854.905273
-739.042419 -123.188637 736.924927
-1101.827759 -29.844931 1178.189453
-1055.093750 -80.358841 1070.413696
-405.674866 107.367447 1064.656860
-1200.107422 -59.501858 863.014343
-1170.973511 237.459366 1045.077881
-1125.781128 -228.595963 1058.689331
-1171.859375 -78.359077 821.928284
-1074.390503 -45.174217 1242.440186
-1162.478882 -52.862160 948.025818
-413.434967 94.735519 1067.474487
-1205.260742 -13.974789 840.638672
-696.580994 -237.905823 788.802246
-1171.271973 169.241913 1041.245361
-669.440430 19.820744 1018.763550
-538.765015 20.718338 1088.755859
-496.163666 -55.282513 1086.973145
-282.036255 46.763630 1067.765747
-1190.101318 -53.328205 932.441040
-645.949280 -56.200752 1132.881226
-452.063202 -112.158356 1080.411865
-419.265015 -212.181824 1071.803589
-312.092010 -52.317989 1067.714600
-1150.406250 -247.120636 937.303589
-1109.071655 -325.523651 938.913391
-1157.347656 -181.935867 949.226196
-679.842468 -178.296936 843.922974
-1176.519287 -226.025772 851.387512
-498.911987 -48.912979 1091.114502
-1190.581665 -154.148697 788.373413
-462.297150 -73.923683 1084.186035
-1165.865479 99.738419 990.960083
-734.580811 -51.128048 752.542175
-1084.958862 -333.154663 953.974182
-688.060425 -40.266880 970.985229
-480.362183 -190.702545 1075.612305
-1060.084595 24.475208 1280.439697
-1131.260864 -315.473114 953.280151
-680.545837 -193.951935 883.034485
-380.824707 -35.545818 1081.000977
-1123.211670 22.892891 1095.310669
-694.558289 -170.742905 849.016663
-721.748962 -175.848999 784.961365
-1191.804199 -28.026501 930.459473
-766.844177 -125.491455 702.166931
-1124.920410 -295.693848 997.304504
-485.073395 -183.297791 1080.964844
-352.010071 -171.317429 1085.429688
-692.295288 -50.209900 893.416077
-624.681274 -125.592873 1072.325806
-1228.059692 -143.327835 773.376282
-1082.639404 27.977291 1258.577759
-778.370789 86.536484 767.676270
-1213.208252 -27.741707 843.775208
-716.376770 -168.466248 843.477966
-462.286743 167.246964 1052.076294
-731.616882 -81.705040 735.471802
-278.927826 -27.559265 1067.704102
-705.784424 156.895035 919.934082
-429.415955 76.477478 1064.657959
-686.966736 -77.104797 948.099976
-755.559326 -36.655060 730.322876
-1125.846436 102.773743 1066.878418
-1212.288940 -45.749668 817.927429
-405.494995 -23.336037 1078.867676
-510.916656 -12.654757 1083.024414
-353.167725 -82.753746 1076.928955
-313.046265 107.024864 1065.800049
-1145.112549 188.362045 1119.518066
-1137.236694 144.521118 1061.601318
-332.589569 74.627396 1072.891602
-409.652222 115.575981 1065.451538
-1197.343018 7.590071 955.527649
-1194.093872 -18.824104 897.397034
-1187.086914 81.696892 1005.671082
-1208.075684 57.215321 911.458801
-686.300781 -27.756975 972.546326
-1149.163086 -304.139496 861.906433
-284.372040 -6.834174 1067.362671
-719.344971 99.965332 835.884766
-751.898682 11.980265 752.197083
-1145.932861 -229.103043 974.932068
-1099.541382 71.801277 1063.763062
-1144.470093 -91.269836 988.316956
-410.683868 -80.232666 1083.010132
-672.954895 126.195244 871.427734
-1041.285889 67.952225 1463.092529
-335.938934 -84.221863 1069.080688
-1166.965332 -182.877014 927.301880
-356.100342 -80.291130 1070.844971
-1204.521851 -178.389252 807.787964
-1206.019531 64.129829 935.933350
-718.533630 30.797012 797.451965
-1147.920288 -35.797050 1027.700928
-1210.261230 -63.411777 772.886169
-1170.300537 160.158264 1034.961182
-356.330109 -61.198154 1062.843628
-1224.346680 -111.593231 787.696594
-744.485596 -13.376018 755.671997
-741.089172 -142.511856 769.617859
-386.350281 -152.963150 1076.452271
-1157.201294 -226.165054 934.607727
-1147.508789 -326.366486 895.562500
-753.273804 7.220603 748.331726
-715.258606 19.633055 833.030212
-1138.338257 223.180984 1129.840088
-1186.470947 150.587357 949.796082
-1156.191406 -7.301126 1029.617065
-1062.760620 -355.298523 957.079102
-1143.905396 -331.891235 922.308838
-705.743286 -155.773270 867.628174
-1168.951782 -237.994675 815.783813
-295.732544 -150.537064 1063.255493
-1193.894531 -117.667923 803.639038
-362.226929 -70.903572 1062.535156
-719.485840 -130.958023 829.896606
-1095.416626 60.029636 1287.183716
-326.079834 -112.258110 1067.515503
-743.374695 24.252813 757.021179
-1192.450684 58.562485 897.468384
-1205.138916 -4.910949 883.734558
-1096.131592 -345.010010 1012.473206
-758.195251 23.230776 751.826416
-309.972565 -42.043182 1059.454102
-1211.501831 2.357257 869.505859
-691.127625 69.708275 975.542480
-370.481964 103.896629 1058.439453
-1213.892944 -175.515732 817.436523
-1184.858154 134.065445 998.246643
-317.451569 61.621521 1064.683838
-1132.006592 -274.083557 943.474487
-408.237610 80.372261 1058.110107
-448.828094 105.636208 1068.315552
-348.214966 134.219589 1070.798462
-414.963043 63.109898 1078.611206
-1161.709106 -260.081238 883.816040
-1152.381714 171.318497 1089.735596
-478.544037 -13.841094 1086.861328
-722.969055 22.014751 809.840149
-1081.032349 30.168755 1227.916992
-450.013428 -0.120843 1083.521362
-406.538818 81.713470 1063.391235
-699.173096 -127.225784 886.326294
-1185.822388 -4.802008 941.389465
-658.509155 -164.260986 929.895813
-782.956421 68.913841 742.022766
-1129.661255 -167.811417 1057.259277
-1039.536499 -94.107552 990.804077
-1149.828247 -193.365051 974.242065
-369.555542 -146.697784 1075.668213
-1076.060425 -253.770233 1046.410278
-317.626587 -69.032646 1058.954468
-491.927032 161.016663 1068.916260
-671.165649 -43.531349 1059.875732
-1127.347656 -238.767715 971.490845
-473.950745 -93.944244 1091.920288
-1097.094971 -361.700562 1124.721436
-516.680359 30.159550 1089.132813
-691.356873 76.760391 989.126526
-1153.672607 -288.890869 912.583252
-280.536591 43.301693 1082.621826
-279.915466 -131.314865 1068.611938
-542.724976 -37.279121 1094.677979
-1149.875244 -121.944138 857.781738
-1162.925903 -213.534241 863.037842
-993.231506 -32.552162 1306.191040
-311.394806 78.974464 1056.706177
-553.644531 23.843111 1074.231445
-756.647034 -44.618988 727.160095
-752.959839 -132.569214 745.412781
-651.779053 -127.759956 1056.681030
-1051.443237 58.868660 1425.018311
-436.327087 -97.981155 1080.595947
-477.144012 129.782837 1054.792603
-1060.806885 -90.548973 902.412476
-492.318268 119.475739 1079.756592
-1041.072754 74.293083 1423.053467
-771.027832 99.251442 791.862061
-486.770996 -145.525253 1082.167114
-1208.897217 14.494249 807.242249
-1111.016724 -46.176273 1099.176758
-297.911682 -121.812462 1059.120972
-265.679230 10.518152 1063.810547
-375.450775 72.172592 1064.486450
-1080.326172 26.772211 1275.360229
-545.570435 -92.756989 1098.432495
-1144.364624 -113.532478 829.646057
-442.868622 -162.755676 1071.131348
-459.601318 109.155846 1076.157837
-770.616516 83.990257 757.009338
-699.648071 -173.918915 814.184998
-376.085632 -92.446358 1081.393433
-709.205688 -10.417547 892.125366
-696.003906 -164.453827 817.790710
-1082.816162 -269.603912 1031.738647
-1201.587891 149.227173 943.779419
-525.499756 9.324660 1089.596313
-708.321777 -125.528557 797.005554
-721.808167 -110.679077 763.191650
-756.984131 79.170380 779.771973
-457.532654 126.077156 1073.848511
-499.308716 90.466690 1074.187012
-516.893188 132.667358 1067.598999
-456.599030 134.014999 1080.404419
-409.028717 -64.105530 1081.974487
-707.451355 -48.229534 857.543823
-1122.309448 32.527794 1095.552246
-711.856201 105.863564 853.057861
-1223.246338 13.780639 847.505859
-424.999359 -30.103378 1066.105713
-1122.855835 -289.775146 1010.861450
-400.385834 135.819290 1061.457397
-1025.183228 -133.289078 1189.836670
-366.768005 41.159710 1064.050537
-529.958496 -74.072021 1096.603516
-1138.749512 159.474487 1114.106934
-679.056580 -112.210037 945.882935
-771.961731 105.467583 769.042542
-779.421814 125.787033 813.139709
-1164.045044 199.193359 1085.987061
-954.697388 -60.915081 951.577576
-746.961914 103.635567 792.939148
-1173.890991 165.910004 1043.042969
-1021.836243 -119.860611 1142.438721
-1083.214478 -364.840118 1125.772949
-1192.803345 -181.250290 809.151672
-1138.659912 -66.666931 815.938721
-1195.835205 180.678101 978.357300
-687.089111 -186.645523 841.704590
-735.826172 -16.015381 793.189880
-702.402161 35.355103 885.352844
-760.277954 -51.817047 711.492676
-387.793182 32.936733 1064.384277
-1153.160278 79.409470 1078.552002
-1064.637451 -288.505554 1249.883789
-720.940491 -36.058540 762.893127
-758.931274 37.706638 757.391479
-674.967285 -70.946541 964.416443
-1192.518188 -124.111801 830.821899
-728.017212 -214.888947 787.574341
-775.205566 -119.713837 718.578308
-1174.832275 220.604233 1074.245483
-406.926239 -72.852493 1082.543335
-1183.505371 96.000969 984.626526
-1191.026978 58.226730 950.228516
-734.658203 -32.756248 764.651733
-1161.981079 -254.038315 940.370789
-1203.165527 42.296249 935.456970
-1164.095947 157.345337 1053.412109
-1069.215332 -32.831463 1123.971802
-415.872223 -70.568764 1083.863037
-948.671204 -82.422935 894.318420
-1150.503418 -7.324644 1033.593628
-751.076416 61.688862 807.931458
-457.067169 7.338809 1079.748291
-1110.751465 -140.956985 1027.905029
-1057.316650 -245.901260 1258.774414
-532.838379 -69.968071 1084.435425
-386.807861 35.193726 1071.106812
