ply
format ascii 1.0
element vertex 1364
property float x
property float y
property float z
end_header
-591.114197 969.247559 -154.930969
-667.199402 747.704651 -501.230011
-827.317749 1021.871094 -884.142639
-668.438232 625.241943 -514.667175
-812.600708 800.743469 -953.066406
-571.795593 969.044006 -148.386215
-675.384888 749.416748 -484.627380
-763.435059 788.306274 -399.006561
-1099.407837 1244.372314 -634.314941
-612.902039 665.849121 -579.261353
-1066.984863 747.826233 -791.096436
-787.418945 1009.021973 -880.603027
-837.228271 985.333801 -806.923889
-897.006531 802.442810 -917.969971
-895.404663 847.300903 -890.623718
-627.756165 739.057312 -519.977600
-807.248901 909.179321 -951.497375
-654.055725 947.611084 -164.702957
-746.612915 849.351318 -36.577988
-672.298157 839.219421 -452.311829
-833.974182 738.600098 -383.434174
-605.998901 965.193359 -183.431992
-948.425842 711.534363 -849.603333
-828.305420 788.708435 -935.400146
-897.214722 675.994934 -829.172424
-559.738342 980.238953 -124.579247
-611.251343 919.901184 -37.635597
-802.117859 604.928894 -420.403046
-773.228943 905.156189 -222.468933
-859.068237 683.031067 -340.524994
-791.332336 1044.407471 -908.363464
-740.801758 809.743408 -412.429047
-583.854187 735.439636 -563.904663
-617.235535 966.059692 -207.053711
-662.073425 807.430481 -465.646179
-976.046814 896.936218 -788.567810
-708.972595 849.555969 4.224567
-896.636780 683.924561 -364.624115
-1075.797974 629.354370 -809.656738
-633.376282 936.162903 -132.699844
-868.053772 637.819397 -936.239502
-663.347290 920.363037 -126.590218
-702.783997 735.516968 -467.138428
-832.340454 641.009094 -387.423218
-659.579529 880.447449 -10.003497
-832.536865 1048.469604 -850.410034
-825.333252 738.524170 -959.609619
-617.846313 967.923279 -213.242325
-694.927246 587.530090 -525.876953
-607.786682 953.931213 -145.761566
-903.302612 647.259033 -348.535614
-857.549500 1005.959656 -821.874268
-480.024536 826.356384 -390.659851
-1256.515625 941.005798 -643.151489
-1039.270996 667.930786 -838.834412
-901.850159 752.835999 -315.948761
-865.170410 979.777771 -870.811035
-898.098999 720.532043 -884.559998
-640.019348 913.724487 -77.231827
-845.250366 844.322571 -922.833557
-599.944885 698.874146 -568.268250
-779.749695 992.188416 -944.833069
-818.536804 801.025696 -378.376373
-582.729187 954.156311 -124.810852
-733.599304 538.608826 -525.312134
-621.924133 984.471191 -238.855682
-681.806641 923.267944 -169.477905
-1219.637939 888.774109 -653.669067
-635.249756 1004.985962 -270.487915
-1005.156738 730.584167 -829.107849
-599.815186 985.371094 -311.250488
-820.302856 965.660889 -916.530518
-771.245483 924.697510 -236.583725
-851.392517 940.453064 -909.695007
-773.054504 982.870239 -893.092102
-592.331421 792.490173 -545.155334
-983.401367 623.504517 -887.382385
-874.007202 638.995300 -928.751221
-778.630737 806.642456 -24.711910
-814.826660 751.561462 -405.666534
-1002.257202 811.506226 -788.172852
-866.893494 705.838623 -331.427094
-704.272827 822.390442 -428.394348
-784.179260 1031.003418 -931.546326
-823.940186 838.485718 -125.865662
-857.545349 711.869446 -337.778625
-699.330933 750.895020 -450.770355
-789.788635 856.097717 -152.719788
-844.717468 565.101807 -385.921448
-693.588135 922.339417 -174.538498
-849.571838 558.945862 -386.794495
-905.278503 613.427795 -929.840454
-686.729980 994.229309 -304.882202
-995.301086 852.402039 -791.699158
-719.852356 738.158752 -447.698730
-595.931152 811.005615 -514.771240
-573.681152 823.736267 -490.809906
-629.988892 896.878235 -4.112179
-868.566284 841.675537 -303.381989
-618.899902 935.696228 -148.963394
-770.987610 1065.455078 -906.323059
-616.989502 966.406982 -222.811050
-707.024414 912.440552 -177.824219
-915.897705 897.271973 -860.135620
-608.469849 925.221558 -6.972358
-1088.593262 1229.538940 -630.828186
-744.147888 818.879578 -393.502380
-828.519104 906.169495 -918.768799
-591.580200 837.097351 -525.635620
-607.182373 916.788452 -35.665955
-1112.554688 773.058044 -726.625732
-836.086365 978.870056 -847.530518
-761.878845 761.196350 -421.151367
-891.130127 792.050110 -906.444214
-889.720032 775.475159 -339.559875
-1094.750122 640.615906 -791.333923
-910.671875 776.053711 -875.898499
-840.389709 837.972351 -945.478088
-908.971497 726.320496 -293.449951
-685.529968 686.559021 -482.323059
-687.723267 625.367188 -523.677551
-612.189392 671.309509 -586.124573
-564.641357 942.928345 -28.960224
-934.493713 872.127991 -711.938293
-1126.032715 659.091675 -753.048584
-1223.021973 726.797119 -661.063965
-786.494751 694.442078 -421.899292
-841.350891 775.041870 -956.686035
-585.706116 790.354919 -564.435120
-803.953430 1054.798462 -911.014954
-704.753418 742.520874 -450.268463
-1088.329712 693.131836 -811.353027
-661.454468 617.212646 -528.412537
-624.924316 969.533386 -214.108047
-660.931702 899.147400 -74.545692
-742.609009 846.692078 -400.107269
-658.260620 970.520630 -287.782166
-1196.900391 890.148682 -662.806458
-597.093994 936.846497 -110.950218
-893.554749 939.073120 -760.400574
-694.478516 814.307373 -436.090271
-1118.381714 762.862671 -748.815735
-653.522888 760.647888 -478.642242
-812.795593 669.363464 -389.137573
-1128.407715 690.488037 -768.750854
-1091.381348 909.829529 -670.033386
-975.939026 932.355896 -823.355896
-818.965332 803.737305 -959.065735
-799.792847 1011.050476 -899.755615
-788.603516 809.670593 -11.364758
-671.866394 912.214966 -93.212051
-842.370911 750.692932 -945.711853
-833.643799 745.622253 -959.185059
-700.084412 685.918762 -488.463043
-1127.167480 737.142151 -728.803955
-579.752502 1006.794861 -324.740814
-759.528503 874.347839 -140.500137
-1098.651978 798.176147 -724.621155
-1020.524597 1223.989868 -704.031433
-800.941467 883.788574 -234.988190
-667.651184 680.593994 -517.864685
-867.470093 948.934143 -888.069519
-766.681396 849.256653 -81.761162
-632.370850 778.292419 -509.041260
-758.174438 856.714783 -72.086235
-934.188232 792.961121 -890.472534
-704.474854 908.305542 -156.598999
-889.101013 955.073364 -785.444946
-872.285339 1042.191650 -836.962891
-661.214783 909.331421 0.418270
-758.932434 837.961609 15.894505
-857.031738 827.673096 -154.033600
-1076.155640 709.374207 -769.370850
-829.792542 821.013489 -129.668716
-1053.100952 1025.899292 -703.833130
-619.967773 966.456360 -219.817841
-754.944397 597.968994 -437.122772
-1129.576416 635.006592 -770.318054
-828.789429 878.527222 -228.789261
-712.407715 877.733582 -404.770508
-704.380554 594.357117 -497.380127
-960.956177 692.052124 -875.662170
-617.356873 702.903564 -543.155090
-805.032349 846.806152 -359.820618
-913.376831 747.131409 -889.824463
-576.010681 989.955688 -199.852356
-870.050476 908.489746 -891.985901
-1022.709351 736.578613 -816.521057
-851.763794 738.205994 -358.561737
-965.764282 724.827637 -856.065552
-811.283936 825.639160 -959.725708
-716.289734 577.637146 -518.501343
-796.122620 826.015015 -93.370613
-646.350098 793.169250 -474.646210
-1050.729126 663.917297 -831.638550
-597.825195 759.291809 -554.776672
-731.828796 857.971619 -18.897272
-754.062744 837.329895 -49.362617
-629.602844 899.318115 -14.907337
-633.806396 815.968018 -491.252625
-731.248291 907.022705 -146.186752
-730.424866 895.382507 -400.370483
-1164.387085 684.031738 -686.577820
-655.512146 887.356934 -50.409412
-606.001282 764.312317 -533.562561
-920.761841 732.437378 -838.111633
-961.252686 783.756958 -754.336853
-941.544189 918.180481 -848.919006
-781.313660 880.152039 -151.541153
-833.129761 751.787720 -347.490875
-677.912598 600.639587 -505.121460
-1045.110840 1035.272705 -728.164795
-614.212280 766.985229 -516.904541
-725.862854 877.405579 -407.162659
-1137.119141 673.823914 -752.377930
-838.797485 826.439636 -154.984879
-1188.146118 699.793884 -685.787903
-951.839783 897.772156 -833.008972
-882.323486 937.461426 -877.780212
-968.354065 817.457153 -748.314636
-730.884705 776.600586 -453.070007
-922.425049 622.396912 -926.806274
-669.164673 974.176453 -292.553436
-1061.890991 777.173279 -799.542297
-777.643127 527.358582 -478.638855
-767.411926 539.723999 -506.162231
-769.202576 852.698425 -111.537186
-642.654480 709.820251 -502.582977
-811.591675 992.787415 -892.400879
-956.617065 950.749390 -759.320679
-703.424194 904.546021 -127.084663
-660.715149 918.690308 -138.292969
-982.058594 830.323608 -760.447021
-911.437866 750.557312 -870.242004
-1113.432739 751.396301 -737.211365
-765.004822 912.463806 -392.058167
-961.679626 1065.510620 -753.649841
-741.579651 870.345825 -134.292007
-698.292847 617.075867 -488.659760
-621.677124 709.653442 -510.348419
-812.073242 765.919617 -404.323029
-674.942993 648.432129 -495.612091
-655.895691 613.176392 -559.470703
-595.324524 911.211304 -4.388890
-798.099976 718.698181 -397.642273
-687.346436 976.708740 -306.853241
-759.908936 565.251831 -462.765808
-1134.508179 748.557922 -683.067200
-798.118286 679.887207 -402.905426
-663.108398 629.427002 -573.154236
-897.728088 991.216614 -791.833008
-1166.978516 692.623657 -721.749268
-872.567261 942.765381 -858.790649
-739.738586 880.166992 -103.414795
-877.172485 735.153259 -357.482513
-919.938782 797.493530 -891.105469
-843.656250 726.460022 -960.055054
-1086.620361 751.474304 -670.865662
-733.247803 768.366028 -427.725220
-579.633423 959.322632 -126.561958
-992.118286 1037.937744 -727.770813
-1068.847046 843.476746 -745.071228
-785.180359 1036.130493 -914.681641
-655.563904 898.717651 -463.359985
-719.846741 558.002747 -490.793182
-1217.975952 951.273376 -637.625488
-746.254639 680.636169 -451.675507
-581.520813 696.051819 -577.925415
-619.857788 681.992920 -527.361328
-868.142517 999.568176 -827.183838
-936.569275 946.613892 -790.327393
-621.424683 924.214355 -29.883860
-736.788391 843.898438 -408.763702
-869.502930 620.605530 -346.844452
-818.275818 946.837769 -923.596375
-1115.775024 684.579834 -722.816833
-1131.666748 702.951965 -654.001404
-959.689087 817.778381 -665.982727
-781.938660 649.264709 -434.995056
-824.891541 904.145691 -355.802399
-739.572021 837.713623 -46.632534
-867.723022 795.556030 -917.484375
-874.548950 543.578735 -275.328674
-636.393311 851.052429 -473.778259
-729.880127 906.154602 -416.253540
-907.664490 680.426880 -928.624268
-1059.951172 849.882568 -740.644287
-1089.834595 1263.160889 -621.864258
-620.454041 940.949951 -165.449951
-802.839966 626.520874 -425.049194
-1163.629028 944.085144 -655.167297
-1020.438232 631.939880 -847.109741
-639.868225 829.329529 -463.995850
-603.214783 959.086060 -154.552765
-707.567871 768.730652 -450.892334
-798.084534 1053.689697 -920.474548
-593.159973 796.952148 -506.468964
-624.172363 737.082947 -496.760254
-721.855347 937.636719 -258.713348
-851.741394 851.520386 -916.863708
-1108.822388 1214.865723 -612.976624
-785.698914 570.809692 -438.798431
-609.765015 723.468628 -526.692261
-792.820435 1068.123291 -895.849487
-1007.095642 738.825317 -668.583618
-863.719299 833.905212 -202.645996
-795.113281 834.563782 -79.791191
-1067.755371 676.668762 -783.779358
-657.390930 972.365906 -286.952972
-766.453003 680.906433 -419.523407
-807.374878 823.527100 -84.168350
-813.508667 665.092957 -398.878662
-735.547119 982.571228 -296.139862
-722.993042 659.313293 -442.862274
-813.662476 518.834106 -485.622528
-766.362610 853.765137 -70.828957
-658.575684 925.563721 -135.563995
-1037.020752 593.401367 -827.619629
-1023.187866 1013.241150 -784.737854
-683.331543 612.760620 -511.703308
-765.213562 791.703552 -408.624573
-780.680908 1039.923218 -908.301147
-1054.238159 592.984985 -814.703552
-755.061340 833.170654 -39.119617
-931.428833 840.637939 -293.071991
-845.883240 1053.464966 -883.794373
-1169.457764 674.585571 -651.535461
-1065.059082 777.994690 -798.885986
-945.959595 948.175171 -726.142090
-853.080444 652.954407 -945.690613
-946.226257 702.566162 -848.260498
-791.572144 923.898865 -957.096741
-964.893127 620.796204 -890.325562
-1111.452393 894.565308 -623.283508
-600.463135 931.727844 -86.119530
-913.035828 840.943176 -892.685913
-802.700745 541.728271 -449.800079
-784.638245 1010.758545 -926.036133
-882.916321 641.453674 -341.106750
-944.145203 831.980164 -863.783691
-653.138489 962.021362 -283.687042
-899.992981 908.886841 -851.032959
-828.476318 586.509277 -155.288406
-781.257141 983.725037 -920.968079
-938.322327 814.818542 -832.775879
-1091.064087 812.325623 -703.937927
-1146.347046 712.245483 -718.438110
-1109.406494 661.600220 -772.866089
-789.644531 893.787659 -947.100403
-829.078125 899.576050 -337.170837
-1005.178955 717.134338 -799.931580
-636.733398 796.847656 -476.586212
-864.527832 686.215332 -385.052734
-568.666687 774.701965 -548.161377
-957.935242 941.461975 -813.398987
-668.574524 749.989258 -463.825531
-764.608093 863.123901 -393.788666
-971.214355 972.289307 -774.073181
-756.820129 861.356323 -103.429420
-664.907471 806.262268 -474.340149
-903.870300 934.436279 -852.654175
-828.950806 781.159058 -946.544434
-887.073853 957.760864 -775.987427
-693.852844 928.594849 -184.508804
-781.397522 814.550354 -13.103484
-823.249573 815.940247 -110.517883
-684.786682 857.743652 -425.182404
-821.967896 823.122742 -928.108459
-649.555786 908.375488 -91.283783
-966.119263 850.163391 -796.225342
-846.477295 800.654785 -351.217041
-842.643677 820.415466 -121.241783
-570.451111 985.267151 -274.144958
-1004.045654 746.217468 -836.620850
-740.135071 860.272644 -53.913891
-677.974182 964.570251 -271.581726
-727.982422 893.116577 -167.975082
-704.555176 780.176758 -440.506042
-850.239563 823.992798 -343.892181
-623.773132 680.608948 -562.406860
-1026.580688 747.774170 -832.176392
-876.408447 638.514587 -942.029114
-884.756653 764.593262 -348.799713
-710.315369 713.721436 -453.887451
-790.355774 838.198425 -76.670853
-978.043884 1164.848755 -708.434875
-894.217773 784.997375 -904.563965
-1032.894043 1106.466919 -684.377258
-606.889587 820.717712 -514.238098
-714.364929 848.252869 36.525272
-905.288208 630.409668 -907.883362
-839.928223 739.818726 -379.236786
-830.496094 837.777893 -151.046524
-760.831238 810.666626 -387.872528
-610.167786 991.517456 -221.046204
-1052.109497 803.207886 -706.843750
-1118.621460 916.809692 -654.687561
-1087.418091 738.441345 -752.539551
-861.988037 647.682739 -343.946228
-1011.348206 1064.342163 -737.742554
-928.939819 773.551636 -861.231689
-584.297729 932.364990 -57.128513
-667.019470 910.977295 -118.260399
-909.362305 825.545105 -888.634766
-989.105042 829.321411 -822.688171
-595.628784 925.115173 -60.660442
-1110.329224 1207.572876 -645.757324
-1045.684937 1022.036743 -747.244019
-791.102844 638.978516 -415.756317
-1076.569092 598.869568 -794.120605
-901.032654 843.392578 -904.767151
-600.246033 921.390381 -38.570042
-856.538208 675.228577 -343.182983
-770.032532 945.055969 -352.436005
-882.818115 908.819397 -870.086243
-922.745483 817.917053 -692.745789
-676.763000 889.127991 -87.719200
-864.453491 692.276855 -349.598999
-593.579285 838.479004 -531.558472
-672.583130 942.746460 -212.199844
-810.866516 526.262146 -419.908752
-1116.105103 625.867432 -776.108765
-741.330200 878.629089 -114.792320
-827.641418 951.479431 -921.041565
-641.533020 808.546448 -478.034332
-1115.698975 851.928040 -692.763489
-578.442566 773.033691 -544.538208
-699.869812 941.159302 -232.462997
-780.439880 857.692444 -142.398041
-795.143494 566.069397 -439.849915
-799.921814 983.064636 -922.008179
-1032.015259 650.380737 -837.426208
-611.478760 915.862366 -19.943634
-628.974792 950.167358 -181.559402
-766.921753 778.723145 -394.708008
-799.485291 859.188110 -169.169754
-604.394165 744.992004 -539.373718
-978.469849 717.573303 -825.066528
-667.548889 718.737732 -479.833374
-777.388245 897.454468 -354.563843
-614.634338 799.018005 -504.218506
-1075.604980 661.142273 -799.929382
-1146.237549 723.780884 -696.283813
-980.240295 867.166626 -803.054688
-859.220459 940.578613 -890.401245
-1050.274292 720.680908 -786.082458
-778.875732 585.638184 -461.539520
-609.383972 685.382690 -597.914001
-617.867981 910.731323 -17.681372
-795.767517 568.235840 -444.370117
-1142.369507 650.333862 -668.673096
-622.716187 641.184937 -548.775696
-714.299561 704.747986 -467.694519
-733.115417 780.358826 -421.650146
-598.746643 935.895020 -30.609364
-800.544373 853.093933 -132.054825
-1009.738953 681.423401 -838.020874
-571.016357 962.731506 -94.688576
-790.537781 1005.012329 -895.344727
-725.323242 604.276001 -467.985779
-783.934570 605.050903 -409.112793
-554.912170 976.906982 -171.191406
-805.073547 828.960205 -95.594261
-1026.934570 751.109009 -781.010925
-892.644836 1022.692261 -807.469116
-764.985718 864.723511 -106.428421
-884.279175 666.484009 -932.531677
-971.594727 888.944946 -771.894958
-793.788757 517.369019 -457.037292
-1166.716553 662.687378 -718.366638
-946.041748 933.575500 -774.131409
-693.398743 813.365051 -463.591949
-873.910400 752.458740 -357.811707
-811.445862 942.398865 -939.093811
-929.162415 1000.635071 -831.170837
-764.785767 850.792542 -384.393494
-734.885620 686.319519 -425.257111
-1173.735718 925.919128 -645.310730
-671.357788 761.859070 -471.881195
-933.409363 782.897156 -859.037598
-1098.116211 696.045227 -677.353943
-1021.046509 735.053406 -837.175903
-892.315674 659.805847 -938.310181
-839.071899 922.045715 -910.982849
-574.099243 954.728088 -133.637695
-1119.842285 724.573730 -744.422791
-824.977722 753.726379 -398.942810
-695.385376 859.390747 0.416090
-1147.860962 689.303040 -681.336304
-768.081421 893.483643 -362.050079
-826.455444 801.635315 -66.953262
-976.071533 869.989380 -834.017029
-760.759766 560.879089 -473.651154
-881.794678 1031.767212 -841.138855
-986.702148 652.148987 -884.223083
-604.851685 916.620605 -497.149506
-677.676880 947.539612 -203.098022
-1109.469482 639.650330 -761.388855
-644.508484 1020.620728 -312.600281
-917.052979 750.354858 -892.966187
-772.059998 834.534302 -73.492348
-937.138123 1063.117065 -791.713684
-886.248474 924.893066 -887.559998
-692.202026 799.852173 -454.550354
-1087.770386 730.899170 -789.674194
-753.184753 627.275757 -447.171753
-806.000183 676.607300 -425.104950
-999.267517 612.718872 -865.718689
-767.493774 901.939575 -208.794403
-725.356140 890.032898 -111.431908
-641.914368 984.120178 -260.996887
-613.250427 735.218445 -519.445496
-1168.081665 853.584290 -675.882019
-567.401062 710.222778 -595.676453
-801.764160 956.249084 -905.741028
-559.940918 987.256287 -249.028381
-761.728210 1068.550903 -923.396606
-1013.052734 593.479065 -854.899048
-790.719116 550.279358 -425.095459
-868.458252 845.197021 -316.946472
-722.184265 856.680115 -37.148323
-556.528320 987.116272 -78.509720
-1069.553589 791.537903 -708.070740
-440.735809 806.139465 -446.399933
-661.859070 607.308228 -547.265930
-585.951294 810.549011 -522.917114
-665.245239 608.165833 -540.970886
-876.319824 807.061707 -146.452026
-662.537109 970.336914 -273.243896
-1250.102783 847.326477 -628.928284
-655.558838 965.088379 -279.618805
-1056.102417 1062.557617 -724.168213
-730.862671 593.057678 -454.491943
-1101.964600 680.890381 -779.399048
-813.891418 592.664063 -411.985107
-657.315552 679.061035 -515.238831
-809.977295 910.646790 -240.767899
-670.660706 891.610779 -5.170080
-973.293030 669.637878 -864.202026
-902.770691 613.699524 -918.319214
-577.700439 966.572693 -190.487793
-1196.203735 724.950928 -665.985291
-864.582031 835.490417 -931.081360
-692.200562 864.074646 -17.568325
-801.890564 1014.595215 -909.527649
-651.752625 759.879028 -491.466278
-813.901550 883.848572 -206.147385
-914.048340 982.597168 -801.105103
-545.604553 988.542542 -156.739639
-602.842407 716.103455 -526.951294
-831.942566 806.611267 -373.348236
-720.019043 883.585388 -409.219482
-943.526794 885.781982 -862.914185
-738.382324 566.383362 -470.431793
-989.974304 1020.695679 -728.518677
-761.953186 836.539551 -58.969624
-604.130432 727.967590 -544.928650
-901.236511 815.080627 -893.156860
-1013.495605 1077.373535 -754.908997
-819.341858 833.256897 -960.175171
-1189.133057 767.832153 -664.885742
-895.109924 895.539368 -896.062744
-852.850403 1016.533325 -849.685608
-751.745056 599.244507 -459.183655
-647.939514 726.288635 -495.203278
-603.974243 912.621948 16.721712
-686.148987 738.536133 -478.155121
-833.448669 810.811035 -81.746201
-821.160034 650.786011 -373.117859
-976.871582 882.602295 -821.380737
-612.697449 724.639099 -514.714417
-1143.376587 610.419556 -758.809265
-1140.824097 662.269653 -749.547729
-1045.048950 613.711731 -830.686951
-1108.659790 649.839539 -767.953125
-855.758057 776.371155 -916.025635
-1156.282959 693.314819 -701.551575
-807.699524 941.615601 -906.262756
-1107.200073 778.662842 -714.458496
-1221.603516 943.999146 -624.585205
-804.562256 830.091919 -79.520332
-789.356262 861.653137 -357.148621
-874.106934 547.660278 -225.090744
-929.025024 938.138123 -849.878052
-678.421814 961.045105 -263.783508
-657.513733 946.851318 -201.734039
-1058.054199 704.570068 -805.946106
-942.791565 946.880920 -842.422852
-856.843018 965.137512 -812.431885
-761.064880 839.011536 -66.180420
-1009.073181 628.449158 -878.947144
-668.092224 804.089966 -454.112610
-1159.424072 668.883484 -732.301147
-645.834290 912.677490 -115.306168
-1055.472412 793.689941 -789.709473
-898.340332 969.486023 -814.569641
-1102.438843 808.764343 -754.017273
-748.539612 847.098633 -62.499382
-860.414734 810.177185 -922.119751
-887.332886 1007.149841 -796.625610
-973.508911 884.072021 -828.690674
-799.707825 798.044189 -35.929077
-780.641296 913.176941 -382.739807
-927.119873 600.638550 -904.116516
-872.302612 883.921570 -899.069275
-605.370911 708.026184 -551.784790
-972.148987 1093.371338 -777.951294
-653.388550 930.756470 -141.185867
-661.842163 608.614807 -540.150269
-808.613708 1004.593689 -854.266663
-776.033997 911.891724 -367.373535
-823.331665 998.034668 -852.677490
-833.453247 933.512207 -891.903870
-599.270142 929.669739 -73.509773
-761.760925 541.568909 -498.033234
-609.789856 917.514954 -34.654640
-1142.214355 649.895630 -686.434387
-1151.545532 632.079224 -712.012207
-873.824951 818.391724 -323.938416
-743.389893 860.896118 -92.913269
-631.979614 920.690186 -119.589424
-603.471313 678.663330 -570.766846
-693.572510 654.687744 -502.377808
-1125.608643 866.161621 -685.817932
-826.587708 672.764526 -412.744598
-1133.209595 629.890930 -750.608521
-1018.912659 589.550476 -835.956970
-909.501953 677.290283 -901.368164
-657.383911 914.316162 -438.882294
-914.907776 635.166748 -941.662537
-893.658203 676.569763 -939.820679
-1012.181335 1241.746216 -704.586670
-590.162659 788.576599 -509.939758
-976.035339 726.065369 -809.494019
-770.500061 562.957947 -485.058716
-888.242249 916.835144 -893.491516
-972.667419 945.455139 -785.761108
-658.450745 616.209595 -534.934998
-639.521240 698.486511 -508.832855
-779.064453 530.994507 -499.841980
-963.903259 636.400452 -878.319885
-830.491272 913.822632 -904.262695
-1169.885620 700.359680 -670.184631
-659.534485 881.975464 -19.370861
-735.309387 857.307251 9.698836
-662.059448 656.570557 -503.971161
-1084.774658 1229.236572 -658.037659
-735.081299 667.089905 -443.335785
-602.895142 730.389709 -542.001465
-996.628174 646.075745 -858.323486
-554.292603 961.347595 -94.653458
-622.164307 986.761841 -235.604309
-819.897339 907.432678 -339.234009
-583.236572 788.944824 -548.008789
-660.564880 781.474365 -471.868500
-670.583252 583.446350 -552.466370
-757.930664 863.036926 -90.387794
-498.469788 813.234131 -450.229340
-580.849548 750.805786 -565.912048
-792.313538 858.998108 -79.111588
-599.485535 715.713257 -582.246399
-902.813354 729.819763 -315.558960
-928.569397 904.520813 -846.580811
-772.933044 641.093933 -427.343292
-682.330505 811.741333 -459.015778
-814.086548 842.419983 -119.266830
-843.073303 995.216370 -818.157898
-961.429504 838.570313 -846.419800
-1045.135376 1304.901611 -644.672729
-747.808350 941.410583 -377.756226
-810.699402 841.994080 -928.331360
-844.360413 806.478760 -348.742279
-686.345825 924.938232 -160.564987
-880.359192 729.090820 -924.701538
-1038.415283 728.508667 -826.091248
-690.351501 723.570068 -463.793915
-740.673828 566.707886 -493.205475
-612.708435 669.665466 -555.592590
-1027.262939 789.568481 -791.089844
-924.025452 843.656799 -871.326599
-718.242615 854.117554 -414.243164
-991.243774 1179.543701 -734.759644
-817.804138 873.557312 -949.801086
-828.999878 651.495605 -370.422363
-839.914246 827.635681 -326.149384
-1060.573853 731.911194 -773.599609
-892.516174 677.382874 -909.917603
-940.603760 686.896362 -881.883240
-998.886658 821.990723 -741.161560
-803.050659 896.198914 -361.472961
-817.056763 875.384277 -230.411652
-913.170410 754.514465 -898.809753
-715.444031 675.363220 -484.900604
-651.205750 946.636658 -156.958405
-620.007507 910.184326 -25.826351
-631.539063 1032.206177 -316.503235
-954.080139 968.874451 -682.151489
-787.849060 637.608704 -411.270752
-772.297424 896.589417 -250.683105
-633.440186 711.401062 -499.483459
-828.474670 1010.013184 -846.416199
-888.019836 725.580139 -354.181580
-596.661499 695.366272 -566.857666
-862.203369 802.256348 -919.710571
-790.739746 825.160828 -17.854378
-1111.484863 630.890198 -782.037842
-925.954346 973.043213 -744.017944
-748.891418 694.776184 -445.025513
-746.935974 872.822998 -396.639709
-610.012939 927.747192 -91.785408
-1232.944092 690.951172 -655.431396
-802.286194 705.947693 -389.760559
-1076.552368 1226.762207 -665.689331
-982.455933 854.096924 -809.182068
-931.089050 784.270752 -836.936890
-977.151367 932.000305 -762.282532
-740.502686 612.461975 -461.991516
-924.897400 863.313354 -865.833008
-604.713074 661.838501 -565.230469
-864.572449 821.516724 -926.493896
-977.541199 899.363403 -784.751831
-486.386292 829.503967 -397.178223
-1001.752380 602.777161 -861.161560
-718.915222 883.501770 -95.222839
-1004.572693 857.976563 -753.745850
-957.802063 699.782959 -856.900574
-652.134949 891.505676 -37.193684
-1029.695068 1112.053955 -628.841858
-636.699402 836.621887 -475.770905
-871.354614 978.459839 -840.943665
-615.900513 908.829407 -448.558655
-827.094849 982.519714 -850.573181
-932.099243 930.527466 -831.603943
-736.344421 870.486572 -79.192169
-898.070679 916.593079 -850.618469
-850.899597 798.684265 -87.410263
-679.401123 610.652832 -524.878174
-675.299011 775.565186 -478.903839
-950.815735 791.147705 -288.493134
-704.733887 939.998718 -270.706635
-605.255920 965.854187 -227.600723
-662.526917 919.726135 26.555079
-829.575745 832.993469 -332.588257
-804.954956 1021.121765 -908.192200
-812.033752 1001.309387 -902.820740
-676.554626 906.861694 -89.763283
-823.425842 596.692810 -388.732910
-1051.425415 737.634949 -805.209839
-940.770447 966.576965 -828.479736
-963.986572 845.024963 -804.274597
-836.885681 823.456116 -142.417435
-661.441162 893.073914 -45.299603
-843.659790 705.120422 -396.875336
-730.720276 867.210266 -404.072266
-1251.752563 815.822021 -640.899353
-858.830811 809.582214 -342.207123
-806.304626 621.512634 -407.627655
-818.176697 648.105225 -393.923004
-727.326538 870.935791 -61.794453
-1168.265259 617.598328 -738.234558
-932.729919 864.365784 -696.007874
-871.787842 734.907288 -912.479980
-647.962585 934.957581 -143.578568
-961.499329 856.313416 -820.854370
-914.931580 862.497009 -888.994080
-579.731201 724.608398 -586.316589
-972.299744 1042.456909 -754.049744
-945.930786 599.058960 -901.634399
-792.515686 850.200684 -141.537170
-870.952637 802.832764 -127.261024
-628.119019 925.394165 -76.011627
-557.695251 955.794128 -104.736946
-810.558655 824.674988 -365.058899
-788.310852 831.865234 -385.502838
-889.839539 866.848938 -870.171021
-719.499329 787.134827 -430.599518
-891.181458 793.338379 -923.458496
-787.829529 810.125977 -382.515259
-713.251282 710.822876 -438.445068
-678.685669 876.692566 -32.269516
-1044.033569 1029.038086 -707.539978
-808.977844 960.965942 -932.610168
-711.055725 868.865417 -7.084978
-737.343567 553.974731 -485.528229
-655.886658 650.160278 -539.509949
-858.566406 849.496704 -929.316772
-948.241272 835.153198 -651.009399
-1053.158691 738.955444 -821.916687
-980.289978 816.518494 -710.401733
-738.718140 626.564758 -470.594452
-758.463318 881.005310 -412.953247
-677.289368 754.919128 -468.201263
-880.358398 929.062195 -781.447266
-746.267700 916.066162 -204.356094
-1093.938965 918.017395 -636.330261
-705.786865 883.743652 -109.818016
-742.637878 955.038696 -401.679535
-845.534058 963.650635 -879.705322
-933.686096 808.412964 -852.996460
-717.918640 586.028015 -547.124695
-964.610291 1053.508301 -773.990234
-764.029358 826.077820 3.780902
-977.025879 942.723389 -774.836914
-1046.354126 1001.983276 -708.377136
-672.665955 756.330322 -485.022034
-586.839844 951.370667 -113.868904
-585.867249 784.288879 -571.149353
-675.229919 666.753357 -495.219635
-859.867188 644.812683 -951.187561
-766.939453 892.467468 -180.293335
-665.460999 967.942383 -283.689636
-1023.085327 1122.588501 -667.029236
-1023.012207 1112.816895 -711.759277
-1109.677002 782.803284 -733.173828
-845.771484 545.677551 -394.640259
-1024.754150 608.749023 -843.706116
-1010.793274 900.103699 -782.189880
-556.340393 984.246826 -155.202316
-1012.767090 1088.284302 -725.431641
-659.413147 889.331787 -19.622971
-748.006775 730.128967 -450.990723
-788.009827 825.848511 -64.249977
-786.727966 636.792969 -421.434692
-1028.147949 847.859070 -757.545349
-1013.846802 637.549316 -862.852234
-681.855164 957.416260 -302.283936
-808.351868 898.620239 -950.634155
-803.130920 858.218262 -948.095337
-695.224609 973.272461 -276.291718
-947.909546 851.760498 -860.483398
-818.203674 574.052124 -429.633820
-970.426208 1013.237000 -746.216980
-667.476318 763.580750 -491.181000
-801.766357 915.127808 -241.592834
-1030.438843 781.303528 -799.396484
-625.352417 774.914368 -495.800903
-904.272766 711.323486 -820.358765
-883.683838 983.836487 -819.812073
-818.412598 951.476624 -930.977905
-1083.760254 700.341431 -799.012390
-710.328491 853.674011 -8.859270
-705.200378 859.676941 -43.823040
-966.873169 801.802368 -812.826355
-928.299500 855.170166 -865.030273
-1117.328735 680.426025 -757.830627
-692.233276 640.042480 -509.373901
-873.643860 675.194031 -958.416748
-952.450134 840.307068 -863.619873
-831.215820 988.285583 -864.083801
-889.673035 657.891541 -913.122131
-1148.859009 917.478516 -676.732788
-965.103699 828.231140 -774.905334
-1097.729736 836.908691 -729.091431
-872.415283 696.420715 -943.469116
-1113.284790 764.449524 -700.461548
-608.807922 679.196411 -589.085693
-908.579224 979.341614 -846.610840
-915.669189 726.587646 -322.853394
-704.403320 589.014893 -502.957184
-876.726929 829.071777 -329.570923
-723.204895 642.926208 -487.785034
-836.148682 876.255188 -334.234253
-680.636536 903.810364 30.720089
-785.390869 859.759705 -137.764740
-772.614929 832.911255 -64.902824
-855.697632 1053.453613 -866.512451
-866.181335 887.767273 -880.055420
-1114.986328 732.652466 -744.507507
-756.314453 562.107300 -495.680786
-809.082092 802.620483 -958.948792
-618.473755 925.097168 -85.838776
-613.140686 698.010864 -566.207825
-645.538513 890.515930 -26.324736
-726.326538 876.015076 -109.797981
-998.990906 1023.853210 -716.078186
-789.441345 737.237183 -381.772766
-663.912476 610.184570 -548.515442
-864.474243 931.026611 -886.012146
-700.290100 740.388672 -460.391144
-933.483398 773.488403 -879.996643
-967.678101 916.224121 -827.347534
-701.788513 708.493835 -447.849365
-997.407349 761.776062 -845.353149
-603.523926 966.493286 -189.809799
-591.005127 931.706116 -73.171211
-593.305176 983.430176 -204.103958
-619.401978 745.298950 -528.132935
-749.261292 855.735413 -76.493034
-773.770447 825.736755 8.013845
-988.825195 916.791992 -801.861694
-1120.114868 647.109436 -768.117310
-608.721252 654.858643 -566.273926
-921.637207 749.768616 -801.455017
-824.026062 926.218018 -335.089355
-701.114868 884.518433 -90.453789
-719.348694 655.612854 -483.678741
-736.916138 571.352417 -494.759338
-803.031372 947.610657 -941.573120
-1080.196411 756.095276 -777.348694
-809.562866 952.413513 -894.664673
-831.986572 985.372925 -854.560242
-944.916260 673.165588 -858.968201
-762.189575 831.106445 -21.582104
-691.534912 749.908508 -460.905090
-723.856750 912.072083 -209.884598
-663.043335 716.901184 -505.471893
-763.114380 567.951538 -489.176025
-679.040405 878.466919 -438.682983
-693.023621 870.846619 -6.062128
-772.489929 911.256042 -236.470230
-754.049927 630.133423 -428.086975
-969.941101 898.522705 -715.612183
-630.210693 639.399841 -540.787781
-886.442322 674.398560 -926.839600
-976.289734 843.809448 -779.984924
-787.535339 1030.449829 -928.652100
-798.646057 985.503723 -858.475220
-879.187866 1021.979431 -298.597748
-785.609863 907.513367 -948.679321
-961.712158 806.649292 -738.286743
-1022.101501 646.700317 -853.457092
-612.551758 679.049683 -547.493591
-681.377625 672.029907 -482.393555
-781.501831 535.838379 -459.669678
-1001.315918 1202.993530 -732.872314
-890.027527 738.651245 -306.774261
-1079.208740 649.768311 -797.714478
-834.857422 763.472168 -391.494446
-718.565796 916.767029 -175.162415
-930.708130 868.551270 -876.888062
-1076.775635 848.684753 -691.564880
-903.579529 735.953918 -900.075500
-1026.730225 602.092346 -849.209534
-779.726196 947.142639 -376.250793
-754.441345 558.659058 -479.931549
-842.098999 591.309082 -376.455139
-1070.659668 820.514954 -747.051331
-821.324219 996.652588 -847.362000
-868.929138 829.350464 -891.619629
-668.713928 960.876404 -231.759583
-626.943420 976.056580 -246.424438
-1040.246338 783.426331 -799.300354
-787.351196 839.017212 -384.702057
-694.589661 674.494080 -457.070587
-769.063293 720.103821 -439.813690
-734.839783 806.745667 -444.507813
-680.855408 895.897583 -78.445908
-998.661682 782.612000 -808.185425
-596.946167 996.990356 -295.920868
-932.950989 915.293091 -737.485229
-859.025330 666.151733 -934.011597
-954.371643 942.378967 -836.291260
-862.861816 726.482300 -956.702148
-808.800781 533.494324 -445.286743
-776.186523 765.006409 -405.193451
-1164.180542 684.057129 -718.709229
-1151.218750 636.477234 -737.144104
-905.982239 708.478333 -355.261017
-817.313232 605.656372 -408.222382
-874.992065 918.196960 -898.937805
-817.911194 809.274719 -947.566040
-547.776917 986.865906 -175.479919
-1051.915283 1222.289673 -661.038513
-566.341675 963.692749 -110.184181
-1113.765869 674.710938 -748.740601
-672.501160 762.741638 -494.513702
-911.212158 710.672607 -335.128357
-986.003906 770.597412 -781.767334
-815.892822 1014.804871 -887.857605
-714.858032 927.258240 -195.172668
-682.479492 854.251892 -454.087036
-706.999268 650.380493 -486.062164
-991.986755 879.974609 -803.232666
-968.445007 724.835815 -867.592102
-1004.698914 811.513977 -771.787964
-590.627686 926.739441 -53.833893
-696.686646 600.832581 -551.383301
-919.571533 917.475952 -863.130005
-832.303467 843.809631 -342.905304
-1222.870972 827.311951 -638.461121
-686.541077 906.235413 -124.957169
-900.711609 760.883911 -703.526184
-946.378113 707.357483 -885.519165
-1114.112061 743.392700 -710.789612
-788.020508 647.157593 -419.260651
-876.115784 703.089478 -939.224731
-617.284119 910.028442 -59.730736
-668.135620 601.854736 -555.465942
-646.655762 766.775269 -472.132721
-989.885864 1098.483643 -735.728943
-1034.616577 711.615234 -846.930908
-619.131592 664.877869 -561.737305
-672.073181 587.356445 -538.214478
-591.343079 734.056885 -571.698242
-454.878540 803.369873 -458.144897
-1141.809204 740.903870 -727.154785
-647.670227 930.912415 -161.435471
-1150.099243 671.947266 -693.661011
-744.014404 703.700745 -433.527039
-621.554077 974.538269 -214.365250
-838.716614 773.944763 -359.082825
-807.190247 803.101135 -367.428711
-927.964355 814.043579 -870.820496
-947.989258 910.437073 -809.365295
-701.398743 746.483154 -473.074432
-751.992188 897.376587 -386.642151
-975.595337 1043.677490 -717.976318
-711.632874 821.280457 -450.021545
-588.455688 882.315247 -494.232727
-805.050598 827.433411 -367.459808
-738.102600 847.442810 -36.763084
-894.821960 699.595703 -904.180664
-808.550598 1042.733154 -882.217041
-623.277527 949.801819 -171.978470
-582.820435 988.680542 -241.468552
-1172.553345 907.919495 -672.196838
-564.999817 955.591248 -110.604652
-877.155090 913.742004 -893.482117
-841.246216 870.556580 -333.561218
-919.507019 864.664246 -883.683594
-590.412354 919.129883 -29.673615
-783.047791 824.930481 -41.526855
-1047.928223 770.296021 -808.712219
-793.042419 929.960022 -952.324219
-1056.310547 773.586304 -747.367737
-651.478821 904.598816 -79.671082
-579.437927 721.875488 -563.325500
-669.194641 846.622986 -466.897217
-642.106079 722.031982 -525.015320
-1048.761230 740.654724 -798.793884
-870.213867 667.542175 -964.346252
-607.476440 696.728943 -541.736145
-939.606934 685.296448 -859.914429
-1123.246460 606.535767 -759.790344
-604.666809 937.329285 -83.314201
-887.029053 915.929382 -784.965210
-691.135925 636.581360 -473.120636
-743.085449 609.740967 -441.708649
-578.973755 778.934692 -547.952576
-715.465637 896.629822 -139.425064
-802.060852 808.771545 -958.352783
-660.680969 871.025757 -454.979309
-890.887085 712.090027 -887.894653
-714.659668 904.365845 -409.146240
-1202.528687 825.160706 -668.591064
-928.194702 789.360596 -881.148438
-700.932739 607.025452 -497.120361
-770.076111 642.653809 -431.730804
-670.515686 921.410217 -93.286758
-698.552307 962.754700 -263.282898
-828.080933 679.878967 -382.822327
-990.238892 932.364624 -761.294250
-1036.932739 750.881104 -767.569397
-915.539307 798.913757 -685.933594
-934.818115 940.268188 -827.457520
-741.826416 851.336975 -5.019279
-597.657776 698.404236 -596.280151
-707.146912 924.911438 -205.213837
-922.807617 733.611328 -889.147705
-981.344238 1155.784058 -724.504456
-766.636047 913.114136 -391.384674
-645.252563 681.668579 -531.353943
-795.282959 897.346375 -229.468445
-1224.463745 796.095032 -659.259949
-930.554443 945.003113 -761.587036
-880.794067 708.031067 -929.177551
-788.157166 661.005737 -427.961609
-595.942505 764.620300 -540.593201
-934.501526 780.470337 -298.536865
-940.827881 696.627686 -845.590820
-1144.817993 614.662231 -758.047119
-852.755371 986.648865 -865.762329
-722.440002 748.863220 -450.222687
-845.702026 960.018555 -794.176147
-1150.056274 661.264099 -715.375061
-869.119324 825.644836 -179.182037
-739.602112 931.011047 -395.243530
-1076.249512 790.234436 -776.575623
-1068.617554 624.917419 -812.920227
-788.787842 933.897583 -955.922119
-685.164185 708.603699 -460.359833
-792.576355 863.373230 -113.851227
-897.271179 704.526367 -845.903503
-839.132751 965.326782 -900.801697
-781.779175 836.604980 -76.379257
-839.613403 979.460083 -870.949829
-983.502136 945.018677 -783.611450
-1011.850586 611.286926 -867.507507
-585.631104 843.698425 -512.423218
-1238.200073 716.668152 -653.233154
-708.764893 797.523438 -420.987061
-679.891418 864.791870 -439.783569
-1073.228394 838.829712 -773.941528
-833.928589 913.579163 -928.532959
-732.296753 639.565613 -471.307129
-895.008240 754.322754 -896.677673
-700.030945 854.344910 11.350979
-790.260315 852.461609 -117.497589
-603.103333 938.072510 -136.416122
-911.495544 877.702148 -880.086182
-601.778076 1010.361877 -278.173035
-732.290527 725.362183 -438.566467
-807.582764 534.851685 -444.298828
-949.433044 771.536560 -856.006165
-663.933228 903.899963 -74.052582
-666.216370 923.335938 -163.703461
-962.377991 678.513550 -873.683960
-810.991150 806.056152 -373.974060
-584.276245 965.941528 -168.221527
-574.550537 701.328857 -599.390259
-687.437500 777.731201 -456.954315
-995.774902 820.494080 -675.977051
-713.277466 847.997803 9.315209
-839.915283 716.000305 -964.662903
-708.209534 961.546021 -418.421448
-631.430664 931.548706 -37.170708
-794.212646 530.848206 -480.610626
-1071.672363 1267.773438 -643.809265
-904.373901 782.034729 -810.597229
-755.920654 585.447144 -464.836853
-838.221130 769.590393 -947.207031
-829.191895 967.737000 -909.112244
-591.937622 702.895752 -569.642700
-973.604004 751.933289 -837.700134
-1030.175171 721.400513 -803.646912
-803.627502 826.019653 -961.089661
-825.473938 822.587585 -940.114502
-613.297424 946.276917 -149.026260
-881.139893 683.611694 -876.035889
-977.775940 599.652588 -885.998291
-596.664795 811.955383 -507.383514
-931.280762 849.942871 -882.865845
-756.742249 783.213806 -415.567963
-674.396545 821.705200 -454.318878
-579.965454 943.091248 -60.331146
-869.630737 687.119812 -371.779419
-541.541992 982.785217 -119.233376
-877.916748 821.204590 -177.643875
-703.058044 918.631226 -135.883926
-742.760193 534.109802 -512.013062
-625.338501 962.490784 -207.332443
-833.326782 936.867432 -918.362366
-712.367004 568.848633 -535.594238
-1037.921265 656.714661 -828.032043
-715.545776 862.433289 -43.930462
-770.116333 749.636902 -401.062408
-529.752380 985.403992 -128.722855
-960.763306 597.072754 -880.590637
-901.368591 699.425354 -331.490967
-837.401123 800.016724 -371.397369
-906.442078 948.207825 -853.077881
-984.182251 807.617615 -755.833374
-709.329651 608.655396 -466.013580
-613.595154 974.243591 -226.662979
-994.688354 738.402649 -842.089172
-722.374878 917.901550 -165.581833
-1126.422729 637.058411 -743.894348
-824.082886 1071.443970 -892.019409
-695.830750 810.698181 -442.760193
-922.601257 957.150085 -839.427307
-650.326416 909.241028 -42.079639
-684.948547 613.471436 -543.629028
-586.616821 717.430359 -555.030640
-821.038269 849.929871 -177.695465
-814.511536 898.931458 -234.226440
-808.884094 539.750305 -442.504761
-723.206116 881.411682 -120.871231
-616.557068 750.302246 -526.624634
-563.412292 946.364197 -52.703789
-601.608154 992.292664 -277.366119
-751.976990 850.253540 -61.275238
-962.389221 965.559937 -754.849976
-741.353760 863.818176 -78.066452
-1159.674316 638.190796 -726.106445
-891.434021 771.670532 -910.070068
-1122.713623 666.786011 -769.909790
-777.041992 671.011841 -413.503204
-688.849243 623.967529 -479.983063
-888.371887 625.571533 -352.513062
-600.150024 960.733337 -201.153381
-890.737488 941.175537 -864.921936
-925.643494 828.236694 -886.500366
-851.428650 988.688904 -872.650757
-875.313416 930.629883 -877.850342
-1063.571411 681.774170 -805.941467
-565.263855 818.666748 -540.394836
-613.068237 866.086853 -498.362701
-630.120483 669.748962 -525.940125
-908.061523 1017.604980 -809.876221
-700.011169 932.539795 -209.732697
-816.881531 896.939941 -942.295288
-758.760864 800.701965 -387.418335
-980.761597 905.265137 -814.151550
-585.323181 730.329773 -538.975037
-784.531738 772.118713 -378.595123
-581.543091 717.951111 -577.683411
-614.791687 675.964966 -574.760315
-750.939026 842.777832 -29.320135
-754.404968 882.719849 -128.831161
-619.567444 702.415100 -522.362122
-862.025452 687.379639 -360.610077
-728.181458 841.925293 -441.458527
-449.327728 814.115417 -423.598450
-863.565796 983.147034 -798.862366
-693.387207 601.885864 -515.794067
-714.057617 873.416321 -85.640060
-966.975586 679.343689 -885.800781
-801.734619 542.596313 -445.494873
-705.902527 883.092102 36.631744
-583.664795 981.022400 -218.892441
-670.307251 829.846741 -462.644501
-888.765747 913.048645 -883.148621
-972.257690 723.144165 -860.558777
-712.110413 613.455505 -464.182098
-590.174744 777.674683 -541.397400
-1180.869873 740.876282 -653.234436
-1006.568054 744.993286 -825.739014
-770.022461 894.143188 -187.692932
-718.396606 595.420471 -487.597839
-1150.699951 637.823853 -717.826172
-1009.672363 698.200684 -834.732788
-864.064697 815.500977 -917.112610
-840.504028 825.918945 -346.089081
-743.161011 909.504761 -232.283722
-677.277832 649.520813 -520.856506
-632.972534 930.886230 -99.486702
-975.270264 931.028992 -806.419189
-841.912903 968.073181 -883.142517
-629.914307 1012.078857 -267.291992
-918.319885 665.232727 -928.494873
-660.702637 646.447083 -510.032379
-796.016724 838.302429 -100.884232
-666.406555 592.564941 -560.335022
-749.811523 571.685608 -470.118378
-789.678223 610.489380 -428.240601
-704.964844 865.440796 -50.859501
-573.008484 934.126465 -42.278152
-549.067871 965.734070 -123.547386
-646.687988 882.008423 -476.440491
-1020.999878 599.046265 -850.257385
-720.727661 643.982605 -453.733002
-431.924042 830.829407 -386.289551
-613.587769 723.064331 -539.995789
-671.603333 741.121155 -476.839905
-855.188843 969.970825 -851.269287
-658.235962 687.515503 -511.845276
-878.368958 666.129944 -380.192871
-963.257996 668.279175 -891.294128
-800.050415 827.306458 -373.637329
-984.674438 944.831787 -784.153870
-707.501404 594.521301 -504.335083
-847.079102 570.912109 -387.375580
-933.014526 729.966431 -311.841278
-581.773315 983.616516 -199.130219
-1228.253540 768.295105 -662.493591
-654.790649 989.985107 -284.881012
-595.048645 755.064880 -519.687561
-842.957703 948.305542 -900.387817
-567.345764 981.410217 -172.934158
-715.629089 659.155090 -445.308777
-608.656189 783.658447 -505.286835
-817.731018 666.102112 -390.239563
-873.102844 685.401917 -946.738770
-910.075134 938.800781 -814.765747
-1153.536499 682.525085 -711.182495
-973.003418 616.084290 -902.097595
-761.462708 894.624329 -168.957733
-585.784058 942.955994 -66.911110
-588.833557 804.871765 -535.787231
-831.330017 955.620728 -915.495117
-735.153320 833.072693 18.210747
-708.725647 601.293335 -497.620331
-794.405762 572.500000 -431.250519
-584.571838 761.230042 -535.222717
-951.195557 937.667542 -824.043274
-663.382568 879.416321 -464.961273
-620.516357 853.370789 -497.680237
-576.917664 858.169250 -514.564209
-1151.617432 624.290955 -738.643677
-696.285889 620.243286 -516.912537
-630.775085 966.712585 -257.442047
-912.520386 628.345642 -914.146057
-918.046509 978.079468 -783.142822
-846.343933 827.031738 -158.981888
-991.634827 893.420654 -771.932373
-846.248840 808.608215 -930.261230
-674.689758 893.280334 -10.656951
-821.177979 518.920837 -457.731567
-857.799011 707.267517 -945.274780
-830.718140 837.198547 -166.257507
-992.221619 992.376038 -784.858582
-808.134705 521.692810 -470.699066
-682.834717 605.743042 -499.419464
-898.716675 739.924744 -299.359589
-837.586365 757.418945 -957.578003
-739.022461 840.731201 -36.414696
-947.573059 799.394958 -872.923218
-708.368774 900.614441 -83.480965
-918.512268 997.381592 -841.805847
-665.543579 968.012512 -249.230942
-939.496338 586.762817 -897.240662
-937.929077 658.193787 -871.699158
-1122.704712 730.264343 -760.641968
-922.979614 902.632080 -867.094055
-688.568848 846.255066 -442.277832
-885.108276 685.535034 -925.250732
-864.265076 716.107239 -942.231384
-996.862000 1195.151611 -727.443237
-893.909973 680.598022 -920.412415
-802.667664 1050.056030 -914.093201
-1250.466064 861.231812 -611.866516
-744.381226 911.232056 -385.410706
-1013.024536 1134.681030 -635.783936
-931.012939 629.364014 -893.165710
-917.983704 723.853088 -892.112915
-1071.955200 774.062805 -671.094116
-735.647705 692.552551 -438.568481
-658.739197 897.632324 -86.605606
-1108.797485 759.877563 -745.638367
-818.520874 729.747131 -955.556091
-985.651672 912.899109 -813.910522
-841.816711 719.702576 -395.558411
-555.480835 959.830200 -102.815033
-793.116760 1060.907593 -903.647461
-789.342834 914.334412 -952.759033
-796.459106 869.294800 -360.168335
-800.952209 1079.646973 -881.296631
-758.832397 753.970642 -396.217438
-827.534912 819.715332 -104.936684
-930.238831 643.306458 -900.779541
-947.959534 761.411743 -839.251221
-850.116821 726.493347 -375.425385
-970.388184 849.039612 -722.271179
-971.564209 875.300964 -846.525696
-1029.759155 779.690552 -811.325500
-603.985718 677.089661 -583.007202
-645.364685 918.462891 -445.727783
-773.884399 951.563538 -379.203796
-786.172424 828.176514 -67.779152
-846.108948 686.031433 -939.184387
-679.271729 944.088257 -417.328491
-879.142944 703.662537 -924.303650
-852.719482 758.597595 -918.601257
-935.448547 666.073792 -892.929871
-560.780762 955.563843 -60.260433
-635.809631 920.753052 -127.641678
-699.948792 885.408936 -61.104626
-876.610779 944.097595 -878.400208
-603.078247 874.952881 -525.575317
-587.277588 929.087036 -55.249012
-680.063782 596.627991 -532.664856
-607.676514 644.904053 -584.940186
-713.673401 856.755493 44.874554
-1106.624390 693.658875 -763.417053
-1035.034912 774.675537 -789.437439
-1060.973389 999.058899 -695.312256
-675.333252 898.488464 -47.563046
-683.577271 961.554321 -248.983810
-1024.654785 1079.835327 -720.125671
-580.963135 819.271545 -473.135712
-762.607361 716.883789 -413.156799
-894.190369 929.864563 -797.060608
-696.398926 941.176575 -221.389648
-1098.446777 705.988220 -753.430542
