ply
format ascii 1.0
element vertex 1362
property float x
property float y
property float z
end_header
666.221375 -672.472229 -618.694336
518.537170 -925.951904 -284.059448
783.822937 -760.335083 -207.858643
561.625427 -784.255249 -648.356628
965.442993 -1236.605957 -155.184723
823.271057 -565.176575 -532.273010
965.428528 -1211.634644 -16.527420
736.948364 -1268.295166 -33.386295
964.984436 -1182.690430 49.338161
866.388977 -1201.080933 97.114639
699.775635 -1345.934692 -217.568542
511.056763 -919.019714 -255.411728
599.957520 -759.506104 -637.185059
519.769775 -930.619263 -256.107727
842.611572 -1210.191284 83.805099
759.141418 -1243.374512 98.245407
1063.808716 -1148.142090 3.983001
788.534790 -1163.168457 -169.763199
798.230774 -761.990479 -493.073395
634.394958 -960.315247 -409.940704
713.134155 -1310.902954 -88.142136
727.797852 -1324.034424 -199.191635
792.289307 -1224.365723 97.390213
835.921509 -1252.425171 -196.318680
697.996338 -1280.547241 -259.990387
649.361572 -1332.002686 -70.795380
491.525665 -926.725464 -166.255402
823.555481 -616.105286 -511.039429
719.826782 -905.847778 -419.265381
769.226868 -725.676208 -522.361328
732.887207 -841.267273 -318.278503
616.828430 -1352.558228 -94.717430
708.751709 -930.689270 -446.344299
835.027283 -594.376587 -528.369568
641.956543 -1288.459473 39.991764
703.854004 -826.026978 -520.665710
978.268860 -1200.268799 -28.166407
805.841736 -607.523499 -530.641663
615.907349 -698.569702 -632.301758
725.888977 -571.653442 -622.209106
546.617920 -901.114746 -163.997665
784.236694 -688.606628 -520.076599
670.653992 -682.599854 -599.099182
918.294189 -1200.197144 47.473038
742.392761 -1242.093506 71.251312
788.753723 -753.883728 -207.728073
658.382690 -560.706421 -681.170471
587.051880 -1380.454590 -141.157089
553.864929 -877.464661 -161.147003
793.337158 -790.542358 -493.687683
1128.631226 -1140.159058 -72.287033
711.090149 -846.193726 -73.055504
527.802856 -877.684082 -181.982651
807.799683 -842.023193 -319.629028
1150.685059 -1282.638184 -415.685547
670.866516 -702.765991 -612.372742
736.593750 -1322.279053 -270.795502
560.918701 -893.052307 -152.591217
748.033752 -1317.041504 -121.127220
791.543640 -1217.845825 62.901405
589.086426 -1358.262329 -101.414627
622.440247 -621.889771 -667.756287
690.930420 -564.679199 -637.438721
942.878052 -1225.175049 -29.030373
767.887207 -898.682861 -462.021393
657.434814 -830.612793 -218.206558
709.186523 -799.324097 -125.200340
690.940552 -1348.617432 -224.465546
483.174164 -936.496948 -281.462738
582.230591 -859.878845 -169.705444
1089.244385 -1181.703613 -102.965408
730.984314 -562.340271 -602.668396
739.334534 -710.434998 -559.069519
847.353394 -720.366943 -478.228027
829.551025 -604.281189 -516.843567
748.093506 -1236.878174 22.294945
1065.669434 -1168.841431 -57.936291
884.968079 -1218.732422 52.024231
811.708374 -1413.475586 -407.248932
614.028625 -1340.734009 -120.829010
563.693420 -1391.033325 -200.560806
665.039368 -587.525513 -646.538574
731.732971 -1348.863403 -166.552170
488.980255 -919.661499 -236.853424
733.142395 -1287.413574 -28.157465
545.731079 -911.321472 -329.718170
766.874695 -1315.029785 -211.672607
691.382935 -808.446655 -128.498566
765.450195 -1102.676514 -179.986298
876.322510 -1240.104980 -38.199059
901.427490 -1242.355713 -158.808411
730.614319 -818.856018 -153.173309
579.340820 -874.277405 -126.734070
717.404297 -1254.318359 -23.982016
664.345459 -1341.841675 -124.083458
563.709473 -896.391724 -131.594498
820.690063 -794.398438 -489.337433
1029.168579 -1231.359985 -300.106964
672.240723 -564.651611 -644.482117
763.044617 -1327.316650 -168.724365
720.846375 -617.487183 -587.676025
1092.437012 -1150.277954 -58.917023
760.602356 -1213.026611 22.726141
486.071320 -905.104370 -192.823456
729.762512 -807.448181 -133.740768
761.249512 -693.344604 -547.233826
1002.067139 -1218.346313 -97.533493
672.888977 -910.378967 -441.960999
928.595337 -1173.031372 47.222179
676.729553 -1285.850952 33.026199
879.931030 -1172.414917 -189.066147
738.416870 -1262.914063 -265.934875
563.214844 -942.840881 -369.623016
783.166077 -790.212646 -178.523575
661.613281 -1349.012207 -86.247581
963.996887 -1279.944092 -314.962891
702.551453 -1272.987183 30.985895
1115.019409 -1259.576538 -448.600372
731.294678 -1337.917969 -196.466003
948.850647 -1205.473999 -74.537285
740.818298 -1343.116943 -157.054657
710.328796 -606.709229 -599.767090
1114.035034 -1171.050903 -76.968887
746.337402 -1294.715088 -60.671989
863.746948 -1228.226685 28.727049
1000.661926 -1188.339111 -63.518658
1001.284546 -1193.682617 -105.111435
584.441772 -846.703918 -139.720001
594.757324 -1363.680054 -175.490479
600.637634 -791.411682 -617.029602
635.644470 -1366.189331 -170.779800
997.894104 -1192.469116 -16.485935
776.008667 -1316.012939 -220.087631
492.392029 -916.802307 -231.782959
750.182617 -1229.597900 108.825737
1092.337280 -1160.588501 -13.724237
750.021729 -680.342163 -568.118469
556.945862 -874.933960 -130.580841
666.922546 -1343.849854 -179.848953
580.273865 -928.712952 -352.545868
857.544067 -757.179138 -218.656982
590.913208 -1375.375854 -182.332108
673.632446 -857.915222 -273.034302
695.651855 -866.081360 -311.815796
1174.083130 -1246.067017 -398.413361
482.842438 -941.307007 -321.346191
700.318787 -674.491272 -602.948669
926.897461 -1238.870850 -72.531685
801.159302 -540.105957 -576.957581
669.073853 -1278.617798 37.893692
799.879822 -1262.711426 -69.693855
1032.957397 -1226.470459 -258.547455
818.572754 -701.143494 -491.791992
739.408997 -1239.131470 100.496231
744.227600 -1275.448975 10.166093
718.341370 -1341.448486 -215.355484
843.668823 -1258.666626 -70.835541
619.564575 -1275.306030 65.526192
1128.569214 -1136.247437 -31.317480
544.923218 -936.518066 -354.639435
786.239441 -800.852051 -143.435883
757.426270 -546.581238 -599.919312
616.058899 -808.304688 -609.523621
720.932434 -571.841797 -623.538452
735.858643 -1323.496582 -74.510933
749.089050 -695.607727 -550.850220
725.144775 -685.755554 -575.752625
763.573608 -710.712585 -519.200195
782.577087 -713.062073 -529.026184
640.699829 -892.002319 -273.760925
789.295837 -1384.442749 -377.857666
668.345459 -878.232605 -320.322296
630.853394 -617.903503 -714.040466
1001.583984 -1147.095947 -71.173523
620.756958 -872.939575 -190.674103
681.328613 -1295.196533 -13.646554
745.558655 -790.209473 -144.297302
576.338928 -882.812805 -112.424568
705.032166 -741.924316 -561.675720
1075.662354 -1156.447144 -20.333508
966.035767 -1148.781250 -122.472054
598.621460 -1354.903687 -192.576401
782.659851 -779.186584 -151.321289
1003.084900 -1162.335938 -58.288277
625.234680 -786.714844 -597.925720
1080.881836 -1257.937866 -437.891632
694.390930 -642.804932 -606.804077
776.678162 -1294.482788 -257.567902
588.287476 -934.561829 -391.794128
928.461304 -1215.771851 -249.977127
784.511108 -895.051636 -401.078217
1121.768188 -1161.822998 -126.727158
701.224060 -862.523621 -287.721405
678.247620 -656.395386 -635.513367
615.052917 -637.058594 -667.818970
675.103882 -1343.127686 -128.667084
574.729553 -880.056702 -218.436325
758.397217 -692.272278 -545.866516
824.519165 -619.027100 -518.057495
630.084229 -905.711304 -347.359192
599.971863 -634.695313 -682.455322
756.858215 -669.676819 -556.981689
818.767456 -789.120483 -184.121033
667.311340 -1360.459106 -188.900986
681.771057 -827.893005 -149.484726
625.296265 -841.071655 -112.145157
744.186646 -793.153625 -155.237946
602.006409 -795.015808 -613.136658
620.642395 -1333.910034 -64.942596
731.770447 -563.368896 -597.699402
939.863831 -1237.932373 -93.827591
760.713867 -788.786743 -141.427917
652.031616 -841.687439 -81.163246
599.496704 -641.920288 -672.792114
831.032471 -1220.582886 104.019028
942.567322 -1218.576294 -10.222480
897.501953 -1203.442871 35.578049
1006.147522 -1197.962769 -62.395367
781.243896 -1235.135132 -226.645737
971.996216 -1189.606567 -50.401493
827.772217 -1253.502197 -92.373070
740.789734 -669.569641 -564.185059
688.239014 -574.529785 -642.911621
683.700806 -1336.067383 -54.886208
717.773193 -877.339294 -347.113312
800.155884 -598.854309 -184.055206
782.062195 -837.592163 -291.451630
571.587402 -863.296692 -164.972183
974.512451 -1286.329468 -265.797577
788.786560 -561.620850 -548.900452
817.726563 -1268.130737 -55.453510
553.712280 -892.222595 -240.058609
718.490601 -1227.623779 53.582958
1081.555786 -1164.183594 -73.157089
731.247986 -1260.268066 86.044815
676.607849 -648.533875 -618.686462
795.459045 -628.005371 -531.775696
1037.747803 -1181.799805 -355.895844
791.887329 -1296.341431 -145.830688
728.747986 -941.979797 -462.754272
689.804016 -880.731079 -336.977936
659.125000 -800.425598 -574.877686
1107.771851 -1248.167725 -330.682190
1029.694580 -1175.535156 16.791212
736.747559 -756.647827 -549.075439
644.329285 -1350.602295 -190.944763
693.888245 -1256.887817 77.787796
820.220886 -564.034790 -545.725403
771.610046 -1265.153687 -60.910767
817.989868 -730.708679 -483.661713
574.106995 -1375.128296 -207.831787
907.327393 -1258.187622 -80.213326
680.548096 -746.563354 -585.747864
1000.993103 -1164.261108 -22.911451
852.988586 -763.716003 -221.851440
706.288147 -891.784729 -426.433960
930.797424 -1250.206177 -165.168457
785.871948 -581.976135 -548.857788
886.736389 -1211.774902 -198.822311
643.346558 -849.407959 -587.314270
758.719482 -1215.318604 109.630714
736.440491 -1260.523804 -72.030617
600.582520 -857.655151 -177.764359
473.603455 -933.511230 -223.183701
1006.733704 -1180.338745 -12.044929
665.346191 -665.856750 -609.673828
557.283325 -876.118469 -244.962616
1109.302002 -1285.516968 -493.020569
705.766296 -803.069336 -168.628326
754.255310 -1313.877808 -91.858994
858.547729 -821.143799 -309.404358
658.600464 -858.865845 -255.797867
916.876343 -1234.264038 -147.396957
523.249268 -965.714417 -394.779694
645.807434 -634.318970 -644.301636
576.865906 -809.083801 -628.486389
712.576599 -1394.806763 -366.387665
846.254456 -767.443237 -217.919739
649.947815 -828.556213 -140.263077
1026.522339 -1184.386597 -57.310768
802.965332 -797.275269 -229.140778
794.624756 -549.333496 -611.075500
726.137146 -1285.884766 -41.653568
1043.041870 -1170.039551 7.225651
801.947021 -755.172974 -192.410583
617.287781 -1369.158325 -201.942856
759.529297 -723.221863 -519.170227
679.472839 -819.094604 -88.678238
648.463501 -646.448792 -674.367554
1041.218872 -1201.150269 -128.234589
738.614014 -1339.849365 -258.510406
947.069336 -1195.289795 43.444962
582.426636 -885.035706 -131.428635
719.860596 -1299.697021 -62.042885
931.485718 -1265.046387 -150.728790
812.880798 -1293.626953 -232.232956
743.991089 -911.162415 -428.787842
757.596924 -875.240906 -432.569977
581.524048 -878.148804 -266.844666
972.044434 -1227.675903 -129.789551
865.917725 -1263.713013 -141.615280
736.226685 -1317.766113 -188.410706
725.166931 -1242.342407 53.995396
615.321228 -837.186523 -124.619431
525.651123 -916.391602 -261.549286
715.820923 -1253.015259 26.293726
936.645264 -1221.491577 -168.852570
819.502686 -709.471741 -479.480408
582.382874 -864.868713 -129.390289
658.153015 -853.905273 -177.617798
715.493652 -1421.501709 -384.706146
654.793274 -693.370178 -626.192566
651.394653 -830.296509 -158.485626
987.918213 -1158.739258 25.737173
601.581787 -854.658813 -229.277191
631.640991 -1340.031494 -72.654663
719.623474 -928.291870 -493.392181
877.354004 -1254.051880 -83.641640
744.260193 -846.177429 -304.464874
759.247803 -1301.940796 -143.558762
658.189270 -871.396240 -297.514069
479.758820 -926.603394 -244.862228
711.786621 -1249.600220 19.893463
681.686035 -837.642395 -170.644348
882.351868 -1258.746582 -115.008377
755.652954 -768.661316 -528.899048
581.604980 -645.054199 -685.889221
545.399719 -908.769958 -268.341125
499.988708 -916.252930 -186.808792
597.929688 -1357.432007 -98.834969
1011.891785 -1164.383301 -100.284096
773.956787 -795.045715 -151.379105
926.479980 -1246.258911 -83.439095
848.316589 -1262.454712 -48.751858
882.345093 -1229.711304 -217.186127
667.316162 -1325.868774 -85.055626
714.252319 -1363.948486 -218.357178
662.254639 -597.105713 -673.973328
766.114502 -1288.798096 -89.267998
627.144348 -784.198730 -598.537842
648.548401 -841.860779 -569.289368
722.897339 -1286.802490 -101.740265
780.454712 -706.715210 -521.905273
751.936646 -550.028687 -622.754700
847.633240 -687.294250 -483.354645
707.713440 -931.412476 -477.363464
637.017334 -1315.589111 -67.964966
592.754089 -834.836670 -611.719849
588.867981 -874.259705 -218.204147
1023.512634 -1182.042847 -24.957535
664.742065 -859.404297 -565.106384
778.104858 -864.992249 -382.960327
769.685547 -644.879150 -552.158508
791.371277 -576.636292 -544.985962
828.435974 -1214.622070 89.895584
740.614502 -826.138733 -212.735107
693.106262 -1330.290039 -244.118729
657.127747 -1358.136475 -127.466583
461.408417 -958.322021 -214.344589
581.656189 -864.050232 -227.185303
655.534241 -1284.468506 12.065060
740.750793 -575.563049 -589.496094
659.102905 -1302.072021 31.950634
632.787231 -1305.805908 -249.005035
723.825195 -1273.589233 52.710041
703.017822 -1300.481079 -97.123802
700.888977 -825.085327 -86.268555
769.656067 -892.350342 -453.321411
709.095398 -816.197632 -223.168671
667.471558 -933.034363 -426.270081
639.293091 -731.548645 -616.763855
509.690338 -892.077209 -180.715256
764.588928 -605.742371 -567.890991
774.826477 -1181.062988 -136.847672
669.923950 -1280.883789 48.896770
1009.340088 -1138.440308 -88.938011
732.593506 -670.779846 -554.723877
614.709412 -873.477417 -257.676605
1099.681274 -1161.973999 -83.793655
646.637146 -733.572571 -604.651428
721.193420 -804.577637 -109.977776
598.325195 -689.599609 -654.770508
769.447571 -800.140137 -92.326187
1154.635254 -1248.853271 -427.862457
594.054016 -745.409180 -637.831848
736.843201 -714.574402 -547.847046
618.113708 -1362.193970 -231.255737
690.235779 -577.295654 -674.330994
549.901123 -944.457458 -380.685852
803.826416 -1236.473267 -32.320625
449.861267 -959.941223 -205.817368
817.354431 -1296.086670 -168.554230
683.541565 -826.769104 -150.657440
1186.166870 -1243.031860 -422.500824
551.996521 -1379.769897 -185.184845
608.575745 -871.558044 -244.658279
734.546936 -1241.666016 28.449337
652.508484 -815.511719 -90.811302
727.208740 -1331.830322 -96.532234
771.601868 -611.104431 -541.760864
640.117310 -658.022278 -653.107422
590.274292 -769.513245 -621.092102
583.214478 -1409.855347 -235.618835
741.210327 -699.622131 -559.830811
732.106079 -817.415344 -538.094849
832.601257 -1244.416992 -98.025764
651.050476 -665.108948 -643.281799
787.666138 -636.237732 -523.581787
837.490723 -1222.210815 82.566170
723.968994 -1146.938110 -132.887939
667.419250 -646.972900 -615.727844
1039.514893 -1243.480347 -285.468536
764.786743 -866.502930 -372.654083
941.587830 -1221.948486 -19.239485
796.619629 -1317.729858 -219.052719
774.702271 -641.722717 -545.838257
759.338257 -901.277344 -461.400269
762.287781 -555.010620 -589.766663
630.669922 -664.381958 -653.523804
805.816406 -803.253601 -271.283325
725.537231 -1292.585815 -84.884224
856.208191 -677.987854 -454.360840
563.718140 -926.547058 -385.300842
780.912292 -852.480042 -343.855408
873.131042 -1210.676147 54.557877
1006.580994 -1182.119263 18.017633
607.833984 -1374.709839 -155.356857
727.937866 -755.791931 -546.899963
707.264526 -803.977539 -549.339355
735.098877 -1239.055176 5.764980
792.447266 -1254.235352 -171.627060
783.806091 -1228.843506 41.962776
644.630432 -1365.549927 -187.245819
621.715088 -847.878235 -116.308174
812.866516 -1242.478394 11.166513
735.785645 -855.321960 -326.604706
757.372192 -805.533752 -83.196228
798.274597 -1287.204712 -285.924316
896.453674 -1245.440674 -37.588608
802.505920 -1251.994263 -42.158340
630.956299 -882.512268 -279.214172
801.660583 -640.189697 -528.143494
958.043823 -1252.954468 -374.256134
766.219727 -1244.313721 77.612610
914.640320 -1221.262573 15.860495
587.728271 -652.848999 -676.696289
1177.556885 -1276.995239 -489.348724
913.396301 -1236.757690 -148.398438
727.575012 -815.752930 -209.073959
782.333374 -546.378113 -566.441528
771.026306 -610.283569 -559.064453
894.684509 -1181.187744 59.159595
864.222839 -1255.072144 -117.400337
667.062378 -1273.150024 62.330368
732.926697 -1270.343262 15.666167
777.639954 -1261.065063 -84.413399
940.739685 -1165.022339 49.436264
1054.949463 -1184.422729 -354.967438
702.167542 -591.893250 -611.470703
787.984741 -1308.957520 -151.117752
713.560486 -658.400879 -593.630005
982.495728 -1174.184692 31.125666
644.886292 -1323.786499 -100.054878
563.487915 -948.097229 -358.149750
786.247742 -861.117065 -356.520355
716.048218 -1316.365479 -230.891724
921.607849 -1235.415527 -35.977074
657.907043 -866.103455 -261.353943
670.301636 -858.777649 -564.417725
658.211060 -587.918030 -682.824402
639.520142 -777.104126 -592.547852
883.504028 -1284.337524 -196.470428
722.908875 -881.588806 -343.605438
454.069580 -951.200134 -202.874161
737.662292 -553.764343 -599.529297
727.171021 -816.873962 -233.531418
595.434570 -1355.422485 -96.529762
631.571106 -849.644348 -238.630356
663.463074 -1352.257568 -140.474380
586.967896 -775.993286 -638.933594
684.950256 -728.851990 -573.313599
1016.535889 -1175.715454 -89.728386
788.314758 -1199.934570 108.283318
802.813721 -657.922424 -208.170670
536.668091 -886.895874 -184.876770
786.926880 -676.348999 -530.259033
730.642151 -823.918762 -83.140648
753.674988 -734.831177 -545.166138
404.340332 -854.429688 -392.881409
948.034546 -1202.524292 -45.934254
574.950195 -936.923767 -367.507416
1116.265381 -1166.207764 -86.979912
738.848633 -852.751282 -281.557343
532.782593 -877.291321 -167.826370
673.840027 -820.087891 -111.009979
641.388977 -747.484985 -601.626953
737.410400 -573.264099 -586.842224
686.692383 -817.427917 -107.890297
657.987976 -859.307129 -219.687958
617.020203 -681.851807 -656.593506
1002.987427 -1165.712646 -113.948318
704.014465 -922.778137 -418.684967
1095.438599 -1182.912720 -149.381714
957.522705 -1199.723999 -121.215820
926.280334 -1212.257935 -44.227737
565.750549 -894.557678 -248.201050
793.418762 -617.538025 -228.593948
614.584290 -664.091309 -680.317871
670.164307 -854.133667 -77.324249
666.766785 -655.408691 -625.336182
959.686462 -1232.202759 -130.125641
499.253601 -907.458618 -226.328186
854.100220 -1239.126709 -15.932698
736.053284 -822.759399 -231.150513
724.491943 -682.134888 -573.214050
599.204956 -849.185425 -208.877563
684.460693 -793.081299 -570.086670
789.170532 -1237.695435 62.341759
549.739258 -870.423035 -205.312271
575.695190 -725.924622 -675.774780
670.030579 -572.501831 -655.195190
696.137390 -1407.219971 -325.772797
657.788879 -1350.224365 -239.656357
747.518250 -773.529724 -534.664795
631.231445 -835.211243 -148.487030
959.292053 -1173.314087 55.887882
468.805084 -934.031250 -235.499069
857.721558 -1230.977051 13.771721
694.360962 -1321.166260 -52.619228
587.838745 -796.022339 -620.238281
725.413452 -795.760803 -94.461708
587.659607 -940.491882 -405.524628
843.113892 -763.848450 -239.113495
694.412170 -828.670105 -243.364426
767.208984 -829.315247 -258.583527
1124.032104 -1253.890747 -420.667145
502.527039 -933.224365 -282.830750
754.862122 -802.593628 -179.586578
900.447998 -1225.240479 20.931498
673.896057 -884.822754 -273.819885
706.102112 -1290.425903 -7.688825
718.687866 -629.662048 -583.858826
637.926636 -931.128540 -387.499237
559.218811 -1364.192505 -282.256195
916.126587 -1239.095093 -119.441048
618.549744 -1401.511963 -309.223236
947.941650 -1291.091675 -338.435516
903.656250 -1260.379028 -112.476021
528.073914 -930.154846 -143.378250
1011.981384 -1193.691040 -89.530685
1010.706909 -1277.461426 -298.110504
624.789429 -678.464050 -643.141541
986.299316 -1195.254150 -197.167542
552.492859 -926.466248 -285.928650
613.461182 -619.855164 -682.991821
491.658447 -933.109131 -282.369568
671.050293 -755.780823 -578.993225
789.852295 -857.412903 -409.471191
701.910889 -650.347290 -606.395935
655.468384 -1328.069824 -61.703239
668.011719 -846.912415 -243.542816
754.189819 -1236.633301 -17.765318
930.189514 -1181.556152 -130.144562
860.402588 -728.727661 -467.249664
760.084106 -877.923523 -409.155975
1067.597290 -1160.419800 -63.905087
664.277344 -1345.082764 -242.617493
655.451538 -739.257935 -591.944092
675.491150 -1318.437622 -68.918823
771.936340 -783.294617 -123.381493
698.520142 -820.245422 -114.166595
769.948730 -1369.871826 -354.314117
629.125244 -906.758179 -387.024261
808.225708 -879.604614 -387.592957
629.375549 -771.731201 -613.954102
669.389893 -731.186279 -594.746338
606.877869 -1378.708130 -206.133072
758.350647 -870.580383 -354.125519
739.466736 -575.256714 -601.084961
556.758423 -927.323059 -382.261841
627.673340 -666.978699 -645.337646
706.545044 -1350.471313 -270.879395
745.185364 -882.562500 -405.749512
652.825745 -1413.043945 -346.190277
649.809875 -601.833313 -705.747253
604.404602 -701.298401 -642.140686
652.530273 -580.200806 -654.902405
697.651184 -830.871460 -79.592575
863.395935 -1254.970825 -168.161880
728.532837 -1248.946045 57.621811
661.686279 -1299.778076 -35.027031
690.448059 -816.127502 -114.700401
752.007385 -859.975952 -317.651337
890.318909 -1232.609253 -29.758211
760.744385 -794.442627 -122.274826
650.072144 -824.799377 -187.830063
747.481018 -1239.099121 74.368225
639.361206 -1355.130005 -245.108658
685.569275 -809.664795 -161.788239
798.649536 -1341.444092 -369.024841
739.718994 -1283.743286 -107.069122
605.886169 -1355.977783 -158.466461
649.707886 -960.748779 -468.469086
640.410828 -769.478821 -599.253540
639.153198 -857.185364 -241.427063
879.389587 -1256.189697 -82.137634
756.237183 -812.177124 -68.178185
580.299744 -727.089661 -657.613831
733.922241 -720.905518 -561.107666
835.198547 -1166.482300 -208.766754
509.333221 -899.590759 -196.028610
805.184692 -1245.860229 47.862034
668.218872 -1335.984741 -57.105804
816.244385 -585.444824 -530.636108
882.324341 -1242.648315 -103.059090
698.483215 -1257.785767 23.815996
1050.673584 -1153.737305 7.743094
1008.050354 -1193.770020 -35.757492
774.469116 -1289.857422 -229.063721
838.574341 -1249.421021 -121.576057
637.601379 -750.232910 -603.198303
665.820862 -1357.832153 -231.443726
655.541443 -684.227356 -617.243408
845.197449 -738.370117 -232.738556
780.261475 -1380.953979 -362.730927
792.978271 -1235.051758 74.356400
655.030945 -1372.978027 -134.821426
647.020447 -821.005432 -574.194641
835.932434 -767.040527 -480.059021
864.178772 -1195.385986 -242.477234
900.407227 -1261.948364 -144.909225
1079.997192 -1167.614258 -53.980057
582.401550 -1421.050659 -226.920013
943.584656 -1215.926270 -20.303778
693.460510 -860.425110 -316.434235
609.192261 -1304.530640 4.171140
1018.912659 -1169.109253 -133.505585
757.151855 -1308.149414 -91.573402
683.979431 -755.984192 -585.813721
468.671814 -928.946655 -238.764999
722.661255 -791.757507 -138.061600
808.026978 -1241.670166 -37.565556
660.059509 -823.217041 -69.640137
521.108032 -915.921143 -184.892090
1073.351196 -1200.047974 -378.991943
734.097229 -1234.140991 94.539932
687.026794 -1266.888306 72.864067
554.244263 -953.307495 -456.856049
533.892578 -889.610107 -246.889084
729.687561 -541.427795 -614.555542
737.017578 -789.420593 -147.905777
696.481323 -1288.555420 -2.225480
620.383179 -679.282715 -645.926392
801.967834 -590.340759 -198.339828
648.534729 -903.320374 -396.038513
700.657715 -552.689575 -641.752625
725.156738 -639.788696 -585.088867
748.464050 -660.348938 -557.056091
831.372864 -1220.093506 93.005066
778.779968 -849.271729 -351.835022
715.270752 -805.291199 -116.357140
579.668579 -922.380554 -297.179688
711.169983 -835.981079 -200.004593
642.908508 -828.218262 -580.967102
977.623108 -1205.024414 -33.557068
821.984009 -793.311340 -244.324173
838.827209 -811.444641 -265.729431
703.711670 -880.109070 -389.586090
724.202820 -683.295349 -563.299072
752.604309 -835.276001 -266.636780
818.406860 -1222.339966 15.330688
635.294373 -696.504028 -629.274048
937.100586 -1160.133179 -163.626495
851.584839 -1234.938477 20.716576
760.673889 -1246.939697 0.523544
480.825531 -939.144897 -330.541107
664.643127 -705.770691 -604.280884
718.965271 -893.346436 -399.707489
844.780151 -654.665833 -482.129395
544.601196 -950.770325 -439.836700
654.193298 -814.102417 -99.292953
630.635742 -789.941162 -589.806763
673.997192 -720.058777 -604.953003
764.076294 -1317.234863 -263.395966
647.905701 -1279.687866 72.154327
722.439209 -1322.306396 -126.617897
746.855774 -1267.236328 -230.611221
567.648376 -910.429993 -248.133362
694.100708 -806.534973 -166.510117
904.594666 -1248.437256 -110.001694
822.059448 -809.585327 -246.982620
616.724976 -839.165588 -124.850891
918.662354 -1228.718994 -12.856359
958.138123 -1225.256470 -60.555340
649.450623 -715.880188 -621.179688
587.305603 -1409.051758 -277.307739
662.497498 -815.803406 -98.448280
636.476990 -704.265808 -618.738892
637.167786 -874.711609 -243.512451
807.369263 -655.989624 -517.518616
864.837830 -1259.244385 -66.937637
718.024109 -797.067383 -173.762024
548.606689 -954.645264 -404.736816
498.748413 -927.434326 -169.553513
634.887146 -1365.994385 -234.947327
706.784424 -550.089111 -633.725586
568.265747 -901.619324 -238.520737
717.013062 -853.757629 -335.247467
721.868652 -1284.796997 9.743425
659.258850 -845.027100 -562.538635
866.223938 -1258.048462 -210.617783
1113.199341 -1151.647095 -86.038033
612.785461 -915.165588 -290.783691
745.123718 -823.733765 -517.582153
745.418335 -1260.471436 -77.195938
934.931091 -1220.775879 -8.088194
796.405762 -810.794312 -226.000229
793.304626 -1229.577759 78.539482
744.870056 -1344.520508 -226.379196
628.269470 -736.075317 -626.070068
578.102356 -900.488770 -230.127136
668.202942 -826.579468 -87.146881
748.135803 -1403.193115 -373.264374
976.585449 -1195.598145 -3.775360
874.920837 -1259.731445 -48.706738
813.010559 -1257.641724 -339.608093
726.164185 -824.923523 -184.924271
720.666138 -1196.474976 -50.491695
703.122192 -898.505310 -391.371185
978.449463 -1203.702637 -70.233917
837.076355 -852.467285 -404.694336
815.552551 -778.738159 -186.444992
709.312134 -824.968811 -82.160583
917.892090 -1263.478394 -130.229126
1047.681519 -1137.685303 -64.977562
745.021606 -576.612122 -581.390137
647.181763 -618.728333 -648.065857
656.414551 -1379.262817 -268.971008
640.403992 -657.477722 -640.421814
805.370483 -649.481323 -514.984619
727.678833 -1248.164063 87.732574
732.169678 -1229.314819 130.184891
852.857300 -790.489746 -297.035522
753.274536 -1308.463623 -122.065582
1041.891235 -1260.404541 -233.244644
655.526123 -684.395142 -626.985229
671.482117 -835.577515 -115.341202
827.536743 -844.901245 -394.691010
748.144592 -742.262451 -547.572083
831.478638 -1273.794556 -155.653015
811.196960 -748.678955 -498.000000
911.774109 -1256.621338 -112.632912
782.386963 -1228.428955 51.510666
754.867188 -720.940613 -541.754761
636.445496 -648.484375 -645.306885
635.674133 -1354.652100 -127.540962
783.851257 -817.343384 -268.829803
899.293518 -1231.358765 -18.859674
577.695374 -873.827698 -173.708160
1058.731079 -1171.356689 -33.645672
636.421631 -737.809875 -624.822571
848.500061 -1234.961792 -243.503998
602.398376 -897.441162 -249.097519
727.327820 -589.877991 -589.064636
793.778625 -536.054138 -593.258850
739.079529 -1303.724487 -36.063164
607.076721 -699.655151 -654.168884
760.324890 -1159.864990 -142.678787
664.747986 -770.948608 -594.558838
726.498962 -794.474121 -126.251312
555.065308 -880.083191 -254.584900
843.789795 -635.487183 -488.312775
567.642700 -855.671631 -160.961197
730.195923 -804.663879 -506.175537
729.499268 -815.190247 -157.413437
827.656311 -683.982178 -488.637268
619.155762 -839.760254 -585.630432
706.693176 -682.397522 -591.389465
772.214478 -742.653564 -522.200134
801.993225 -751.091553 -491.427643
981.086182 -1183.234863 0.053554
872.651489 -705.918823 -476.298950
649.093567 -1374.070557 -293.616638
1003.625183 -1135.614502 -107.871574
842.063354 -684.927368 -475.065277
1120.760498 -1153.824097 -46.527718
989.516235 -1171.888062 -138.620743
677.829041 -676.173340 -597.593567
1108.905396 -1175.678467 -117.089844
744.294922 -1275.512939 -59.047138
657.418152 -822.029175 -108.004639
626.460083 -742.447998 -619.781860
752.061401 -843.332458 -271.600525
619.685181 -859.347168 -128.307465
933.371399 -1286.122070 -188.702179
671.773865 -837.654480 -545.655334
1020.067810 -1191.207031 -386.311096
583.601807 -1414.094971 -258.936005
748.354614 -801.665405 -167.643723
640.302246 -717.971924 -607.806702
713.076965 -808.510742 -104.018234
804.195068 -673.337891 -518.184021
632.866516 -930.541321 -418.739105
555.854065 -1403.827515 -203.472839
805.361938 -871.951721 -390.099121
673.354187 -830.901978 -85.671959
723.313721 -786.134155 -551.444641
797.480225 -1219.252808 -9.462988
877.226318 -1278.217651 -148.729294
644.050598 -661.475891 -644.121460
635.732849 -967.381042 -481.550751
669.195862 -833.649658 -130.799530
588.652405 -862.105591 -111.846992
720.925598 -1407.405273 -367.977509
833.757629 -1234.916992 21.650387
707.430359 -583.432251 -616.495667
658.878357 -850.150513 -569.230408
898.776001 -1214.735474 -42.286911
865.646667 -1191.509888 61.436588
936.925415 -1222.488525 -194.616486
608.487427 -869.086060 -268.491730
773.066040 -874.772888 -366.917877
628.610474 -1332.068359 -66.658180
606.289368 -898.191345 -342.479095
730.123901 -828.924805 -227.557449
641.433838 -632.773071 -643.712830
844.291992 -691.396484 -485.652313
810.557861 -879.499878 -432.770416
725.391357 -620.088379 -583.241943
675.199890 -568.004883 -639.801453
663.624390 -882.435852 -258.732361
719.076599 -1306.044189 -85.000381
862.313965 -756.648254 -470.867432
720.724304 -663.078308 -576.318542
733.992065 -1141.430786 -111.118568
590.779175 -877.912109 -230.536240
751.084106 -774.808960 -511.531464
1063.532959 -1171.015137 -65.520699
694.807251 -693.420288 -588.071228
748.458008 -901.269287 -441.410950
577.660156 -924.517029 -391.100433
804.511292 -1258.159302 -60.991737
687.590332 -697.745667 -594.704590
575.670532 -1362.818970 -134.824539
875.865906 -1248.172363 -188.037308
775.240051 -1186.071899 -202.389069
735.755615 -633.331909 -583.107117
691.781128 -1347.722412 -261.649506
839.491577 -805.513794 -490.485474
915.040039 -1176.487427 51.970211
572.843811 -893.772766 -255.668121
1052.830688 -1159.685913 -1.767446
763.827515 -625.564697 -555.346863
670.038452 -759.033020 -575.616150
994.169617 -1201.891113 -149.085922
1130.685913 -1270.876343 -392.169037
1037.928955 -1172.231445 -22.948635
699.466797 -1332.412720 -211.814789
780.247192 -776.065002 -174.894058
617.878723 -724.614685 -623.947571
552.885193 -932.922302 -344.010651
737.800537 -1213.056885 40.155792
741.764465 -1256.071167 -13.530050
651.011169 -734.401428 -630.564453
705.600830 -802.086792 -89.818794
612.024780 -1347.080078 -81.390381
716.009766 -806.113098 -544.903442
946.838074 -1228.880127 -150.296005
653.819092 -1417.370605 -328.455109
817.046814 -874.458008 -427.973145
610.125427 -860.266296 -168.680145
600.437134 -929.462036 -359.661560
709.624268 -817.618652 -78.696037
812.093506 -859.267822 -358.363068
611.900452 -709.768921 -654.459167
696.963013 -768.166016 -569.396240
757.341370 -582.035095 -573.144897
766.949707 -834.406006 -330.783752
763.325134 -1329.758301 -179.758743
741.301514 -567.458496 -583.322571
678.430725 -1256.594849 57.249226
509.071442 -918.168701 -156.460342
720.504578 -1225.222900 103.500786
608.228149 -1385.163696 -176.101257
800.030396 -753.719299 -485.319794
681.382751 -850.602661 -256.197968
1060.738892 -1148.120850 -43.006123
656.997131 -1347.941284 -135.858093
748.860046 -1320.723633 -129.832108
1031.953735 -1167.908203 -37.834011
514.720886 -932.135010 -354.941895
585.775696 -845.033569 -614.072693
758.422424 -889.147339 -407.159485
676.643127 -686.740784 -617.507507
696.016968 -1278.951538 17.744188
778.110107 -1236.090942 107.286980
840.905396 -828.623413 -358.358795
667.589294 -723.231750 -588.890625
901.556274 -1194.665771 54.051819
546.170044 -891.055969 -227.785400
620.324707 -732.596436 -621.896423
968.405273 -1204.275757 -175.409286
691.166016 -782.946899 -576.926880
819.308350 -676.631531 -507.475494
813.840088 -1250.416504 -53.692364
679.467041 -1320.631836 -111.432243
492.176971 -957.248901 -360.698029
742.125610 -808.290833 -90.945549
559.312317 -936.141418 -321.758728
606.900757 -758.541687 -623.900024
893.455444 -1275.991089 -131.609055
553.590210 -927.420227 -297.661987
576.784180 -1329.485474 -217.111282
811.237671 -686.584839 -501.913361
457.312897 -919.566284 -237.816910
614.051819 -638.801392 -690.868774
1024.054443 -1275.660767 -346.558441
672.847351 -1338.317993 -122.737572
721.578613 -573.354370 -611.816528
647.950745 -607.182373 -651.763184
714.382568 -1353.467407 -185.385040
695.588989 -1329.943237 -167.493622
623.553711 -906.143982 -383.986542
747.057251 -1137.952881 -66.812920
687.348633 -1318.601563 -72.221954
778.661438 -1170.097656 -116.597939
708.560791 -1322.837524 -231.110123
758.973877 -635.014282 -560.954407
617.326294 -832.609558 -160.990021
762.500061 -816.966919 -183.616287
896.691772 -1235.670898 -45.516472
781.315613 -530.216003 -585.252197
954.899353 -1269.978760 -321.889771
1124.044067 -1139.552124 -23.550049
681.685608 -866.018860 -333.983795
588.561462 -902.429321 -264.768066
777.533142 -874.825378 -385.865936
753.495789 -1115.571655 -111.981155
697.500977 -1262.456787 27.199011
629.749023 -893.288940 -254.475052
1047.505493 -1139.202393 -123.797607
769.574890 -1431.700806 -378.837921
565.129883 -914.586975 -307.435760
855.074463 -792.180420 -267.699249
623.601501 -651.650818 -653.902588
525.899109 -931.390747 -268.113770
806.392395 -858.222229 -376.519409
1068.642212 -1152.982788 -34.949329
786.466919 -1291.942139 -220.346832
754.684082 -1291.281738 -66.750923
599.604614 -659.323669 -670.383789
697.519775 -836.592712 -245.815369
609.881592 -1333.223389 -218.223236
723.281067 -1229.399780 19.517437
688.721252 -1342.642456 -111.817833
903.318542 -1219.303589 -297.886108
718.296082 -1334.402100 -78.490425
603.815491 -784.973389 -628.550659
1007.314514 -1258.666138 -285.806427
725.798096 -615.869141 -601.094421
678.835999 -606.602722 -651.165894
668.118530 -843.611816 -94.234497
631.474609 -841.003357 -204.095993
982.969666 -1235.778687 -409.246643
636.294983 -850.580078 -77.394951
1034.321411 -1184.185791 -337.756378
837.091492 -1372.389282 -391.570007
814.101563 -809.617493 -271.882813
763.261841 -1292.656982 -96.786697
878.617493 -655.045837 -457.653564
880.040100 -1250.663086 -75.564781
957.722351 -1163.223511 44.856110
1025.178833 -1193.237915 -59.799511
719.018250 -683.735535 -583.528625
667.254700 -756.949402 -592.037476
744.780762 -839.884644 -258.440491
768.393860 -581.477966 -572.275818
656.238342 -1278.491089 72.229591
741.136963 -894.958252 -358.987030
1114.964966 -1155.495117 -51.719875
680.552734 -763.904358 -587.590637
895.548462 -1252.013428 -144.107666
862.612732 -1278.707764 -120.954399
856.583252 -1257.709106 -115.309311
630.478149 -1368.582153 -152.543854
688.226807 -660.658142 -611.546692
987.065979 -1207.226563 -127.294861
700.909973 -730.158997 -583.155701
510.742950 -916.410828 -161.872375
594.768372 -856.646179 -182.309128
923.519775 -1183.642456 75.626671
662.096008 -920.469360 -406.098053
857.749756 -1266.387573 -57.124729
987.467773 -1176.230957 44.544315
751.135071 -744.838623 -539.884216
748.282898 -1342.493896 -214.076035
758.097961 -570.518005 -602.849243
1044.334229 -1163.425049 -96.510513
758.015564 -905.532288 -464.451752
562.128296 -876.471191 -163.664307
866.753723 -1240.631348 -24.301086
872.680908 -1198.251343 34.917530
698.186584 -827.380066 -64.637421
676.322327 -810.941528 -570.126953
709.057068 -798.995422 -97.780792
846.947144 -642.263123 -483.882050
735.113525 -714.228577 -552.937073
762.234497 -639.215759 -556.728577
761.595459 -627.122009 -550.319092
817.699463 -1242.331055 59.421478
664.390503 -1336.660767 -252.325974
677.478394 -643.671448 -632.357788
971.346924 -1214.718384 -38.846275
751.470764 -1274.624268 -229.513458
613.829163 -1344.794556 -116.358391
682.157410 -819.390198 -563.903809
799.046570 -639.266541 -523.642212
953.037598 -1202.916260 17.924149
597.993103 -1390.907349 -197.917221
655.524658 -887.868164 -298.200623
781.561401 -779.341553 -498.522705
1009.605957 -1290.114136 -281.444305
687.405945 -832.778870 -144.833527
1047.114746 -1235.570801 -263.770935
671.184753 -807.112000 -567.623962
576.435303 -887.210938 -122.490875
984.494507 -1201.792725 -160.181580
946.545959 -1194.762817 12.088544
1008.211426 -1194.763672 -71.384621
985.524475 -1199.616455 -121.646927
690.259460 -1282.682129 -224.339554
860.693970 -721.511047 -434.028381
1077.346558 -1179.652344 -188.515640
639.138489 -835.751343 -82.015228
611.926208 -625.864136 -668.694275
1009.660522 -1193.004639 -34.218834
838.620972 -772.541443 -224.879089
962.991211 -1172.450684 44.441959
759.385010 -759.611877 -505.683197
626.251831 -878.235596 -268.925812
1024.539307 -1264.176147 -227.743530
802.123352 -813.714172 -300.120636
678.747864 -696.501160 -599.406677
780.582886 -1236.452148 49.867508
734.433289 -719.610352 -555.007202
1127.410034 -1146.856079 -60.771702
684.952820 -1377.147217 -214.612228
807.347900 -831.863281 -286.305267
993.538757 -1189.925049 -162.943909
617.332214 -1385.908203 -140.584259
635.663940 -595.351624 -676.770203
872.287537 -805.496704 -317.915527
766.324707 -1241.245117 24.920881
715.163025 -827.709839 -239.945282
788.476257 -668.759094 -528.034119
604.716248 -856.357056 -182.802933
657.507446 -1326.721069 -107.981277
739.424194 -654.602661 -562.162659
520.868042 -909.926514 -233.898605
658.476074 -848.149170 -553.760742
753.077698 -819.110962 -263.772156
646.966980 -726.034607 -615.372986
692.847351 -1261.246216 64.881645
659.081604 -1363.880127 -184.719452
742.848755 -798.452881 -101.801155
659.229919 -1300.115356 -45.704521
727.039001 -1287.452637 -112.518997
705.144104 -649.007629 -592.492798
765.849854 -1224.272827 -3.399415
952.162170 -1192.414795 -184.579727
719.181274 -1274.004639 69.966675
628.656250 -871.022339 -574.404053
800.309814 -777.778992 -466.129150
612.936768 -725.483398 -633.980896
731.722473 -1246.263672 -44.882175
693.119019 -1347.020874 -163.457413
891.021790 -1249.066772 -147.433975
727.483093 -698.321655 -556.223389
684.417114 -1290.272949 -249.574402
622.529846 -845.137573 -173.975571
1083.856567 -1183.692749 -104.292168
682.020935 -892.270386 -299.064972
695.509033 -1313.460571 -69.964088
648.487122 -818.224304 -133.688507
661.576660 -1252.552002 96.787117
862.797791 -789.913635 -319.355469
468.402954 -924.861633 -212.264191
721.525452 -852.575989 -296.662506
707.148926 -825.089417 -143.996002
686.442444 -725.646973 -593.799438
927.790283 -1241.093384 -59.472046
596.343262 -1381.056519 -152.776474
682.391235 -838.752197 -218.547668
467.988464 -947.769226 -328.069000
746.093628 -1220.439209 56.099251
689.784668 -1328.275024 -37.940258
746.277222 -1236.985229 41.665607
699.643127 -615.954590 -623.322876
817.718140 -1354.373291 -370.230530
714.914429 -733.141663 -548.117126
776.459473 -1219.591431 -187.756638
1027.517456 -1184.360596 -72.199921
657.330750 -791.240356 -570.324829
740.946228 -897.637634 -431.815430
753.253784 -806.505066 -95.861465
685.805359 -933.462097 -475.838287
777.750732 -739.255188 -527.794434
757.199585 -790.454529 -191.474503
872.147766 -1271.219116 -89.347603
690.042603 -1320.156494 -72.679550
652.661621 -1335.836792 -95.268471
753.221069 -552.016174 -606.727356
847.613281 -816.449951 -300.151367
599.010742 -1386.044678 -223.941544
790.944885 -877.362854 -407.938690
739.607544 -796.540344 -172.032043
666.673096 -743.382141 -592.311096
774.690674 -1226.615601 51.389217
713.858948 -831.873718 -240.630264
757.767761 -1336.599365 -161.486572
599.863586 -891.013245 -317.530365
703.859436 -1346.159912 -199.017487
656.031616 -595.067688 -657.532166
948.315796 -1238.353394 -158.443573
719.312744 -806.276489 -122.323921
969.136353 -1257.383545 -285.384735
662.823914 -830.279663 -182.136566
664.161316 -692.638855 -620.714539
949.361572 -1231.564941 -73.859406
783.823853 -786.011719 -146.334457
711.884583 -915.545593 -408.444336
582.677734 -941.101440 -443.247955
738.782288 -832.704529 -201.652893
636.732727 -898.487305 -325.047638
717.382080 -657.453735 -578.735229
802.757568 -585.621399 -533.416626
618.427979 -848.362976 -96.255066
613.387695 -862.154297 -75.372955
797.452881 -1225.737793 37.055836
792.281128 -617.912781 -531.550598
751.993530 -871.745544 -351.087006
1056.688721 -1271.706055 -268.074371
783.937195 -843.708130 -328.009644
796.695190 -1230.795654 81.300812
773.330933 -1281.974609 -57.792927
717.129822 -1249.071045 46.107006
592.139893 -1409.220703 -301.035034
836.610962 -844.239746 -371.126587
1164.542236 -1291.349487 -457.136871
779.703125 -1375.662476 -321.015015
820.808411 -652.064392 -248.845306
658.448669 -827.429138 -158.374222
841.775940 -729.666016 -461.478760
634.874390 -841.188965 -94.781860
773.619263 -790.254028 -128.978851
734.876587 -840.639526 -219.010086
885.544434 -818.137573 -334.837769
578.479431 -858.117859 -212.017120
888.794617 -1273.909668 -151.523773
588.279236 -1406.130859 -265.576752
675.054504 -1335.490845 -105.281151
616.380005 -1349.084717 -89.362755
861.551514 -689.963196 -461.870392
750.089783 -800.888184 -103.340408
812.550354 -737.133423 -485.919586
710.223572 -942.480103 -442.710632
698.353455 -642.673950 -615.356262
746.919250 -1183.125000 -104.154976
731.805481 -1326.511597 -106.647049
715.137390 -820.806946 -138.718399
715.066345 -1249.275757 92.607109
711.808838 -843.453369 -234.350159
753.019043 -1326.172241 -165.303360
571.162598 -809.096985 -646.668274
737.235779 -707.375244 -556.486816
651.098938 -837.378052 -573.305847
768.733643 -806.738831 -207.751770
732.994324 -808.927124 -505.573792
550.258667 -884.181030 -210.628281
742.664795 -723.802551 -531.363525
744.302246 -1217.549316 115.396133
599.842407 -855.595215 -98.761307
606.531189 -906.621826 -365.138214
583.193237 -845.857910 -101.825500
647.780029 -895.372253 -372.984711
744.753296 -1199.798828 -21.191725
691.606018 -550.082642 -634.941772
679.900696 -861.241028 -246.606537
858.416809 -672.119446 -465.905945
794.395081 -1393.568481 -375.932648
623.939026 -858.586304 -123.404121
794.967224 -1220.905762 114.882317
991.456055 -1272.074219 -313.096527
772.721069 -738.454102 -518.705322
669.955078 -615.346375 -674.887573
965.098267 -1187.392944 35.243641
848.422974 -825.536072 -358.745178
902.167358 -1221.430908 2.833200
772.887634 -904.594238 -447.242828
704.318481 -1241.044678 120.604500
1003.592651 -1192.573730 -131.491348
666.090393 -725.781982 -598.417664
704.594482 -639.052612 -594.341125
640.174438 -1353.385742 -208.659851
663.299316 -661.023438 -629.976807
773.426575 -639.328308 -207.891174
605.081177 -818.467285 -608.771912
1006.587036 -1238.411377 -304.996704
843.715454 -690.774963 -486.017670
853.826477 -615.910095 -354.258270
767.738403 -1271.929077 -83.616127
681.929749 -650.216858 -615.439758
695.667053 -1338.057129 -69.533134
909.250854 -1216.139526 -54.240261
783.082703 -614.828796 -541.585754
935.085876 -1220.171387 -51.743973
630.130005 -859.119812 -233.533707
789.585144 -1240.507813 -5.738255
830.712341 -766.357422 -477.941803
770.517212 -687.468262 -547.426025
761.100159 -702.887207 -523.687561
636.943359 -1345.278687 -101.631332
739.159424 -547.422302 -598.565308
493.872040 -914.571289 -199.335754
723.098450 -1357.269897 -226.326813
687.073242 -1299.465332 25.562124
565.596558 -914.247864 -258.197357
637.541565 -873.850281 -238.538803
667.269958 -568.636475 -681.301392
798.065186 -805.070801 -196.626541
995.500122 -1175.764648 10.042838
541.543091 -917.624878 -123.101524
542.493774 -927.403320 -285.155396
668.982910 -1284.989136 67.986572
749.675171 -1317.508057 -128.770874
682.306824 -732.547424 -595.089478
761.332642 -1376.161377 -334.578613
979.096741 -1156.010010 -106.585457
532.237000 -895.675171 -202.021286
1125.232788 -1245.353882 -355.916473
596.058411 -757.795715 -635.396606
705.027527 -671.988403 -588.549927
1069.491699 -1181.714111 -178.743362
670.869934 -1289.742554 13.650451
659.256042 -1327.805786 -83.337463
742.072449 -649.575562 -565.223816
719.767639 -1327.199463 -204.664185
782.719971 -895.784912 -423.702332
629.672974 -1353.282593 -186.980835
667.708679 -828.082336 -128.642960
963.634155 -1160.883667 -128.955887
771.504150 -1233.779907 -92.451347
964.498657 -1305.739380 -255.573441
959.189392 -1171.726440 20.428545
552.251587 -908.142761 -221.725098
949.992493 -1222.562012 -31.483183
761.608582 -1292.046875 -60.662231
793.752625 -1201.677490 98.725578
588.856873 -913.537720 -332.674866
981.124695 -1186.059082 -1.049628
641.105408 -930.542664 -350.208862
577.911682 -923.221558 -385.777100
653.762146 -1267.156616 64.020203
799.909424 -1249.664795 33.183277
632.720459 -851.416931 -184.348709
607.674500 -638.839966 -672.772095
937.535461 -1219.820190 -46.278252
717.392395 -842.322388 -296.845551
668.445923 -824.327026 -139.257477
802.611023 -1367.470947 -422.118042
587.515320 -856.523071 -210.719727
1088.479980 -1224.128296 -329.856384
485.052460 -933.982178 -268.705231
805.455444 -636.555237 -516.632080
1052.101563 -1181.483154 -114.360916
740.268188 -598.151123 -584.625916
877.064575 -841.249634 -395.351044
810.705994 -859.681396 -415.311798
533.860657 -932.015869 -327.346191
596.760803 -775.305237 -633.294128
802.100891 -678.592041 -516.865784
636.376526 -842.864502 -181.335770
648.689880 -1296.205444 33.837364
715.893188 -678.205383 -587.991577
712.057983 -775.609131 -547.152771
635.110535 -825.493408 -152.180603
535.117188 -930.695801 -286.204956
852.637207 -1223.997803 31.266230
678.852783 -861.785767 -251.920715
761.038818 -747.560730 -538.431519
766.573181 -718.470581 -530.360413
806.898682 -1348.708740 -347.314117
910.651062 -1234.992310 -98.229210
1114.860229 -1292.429321 -520.121277
678.928284 -951.361572 -494.324646
991.488403 -1191.045898 -28.030340
898.012329 -1222.384155 -11.671455
791.753052 -1229.570313 69.662811
713.017090 -1346.572266 -290.924713
822.464844 -814.819824 -313.059540
995.366272 -1162.514648 0.630362
681.927917 -923.979431 -438.868622
646.387329 -948.195984 -463.031830
769.875061 -611.425964 -549.504456
606.344971 -1335.699463 -50.030762
843.109863 -779.819397 -230.175049
658.867188 -638.307434 -623.982849
661.699951 -1354.727173 -251.646362
953.538818 -1189.454468 47.138130
643.426880 -1364.303711 -239.061920
660.402649 -1276.773438 18.680052
695.947449 -1388.763794 -337.723236
756.490967 -1319.182373 -109.713486
734.832520 -801.917786 -150.432587
745.437927 -829.497070 -244.037994
722.987488 -795.602539 -126.596657
785.030579 -721.536194 -512.482788
785.395203 -1308.571289 -229.113037
619.529480 -1284.378174 39.418831
767.364380 -781.706665 -128.440079
971.135254 -1245.813354 -161.135361
657.515625 -822.977295 -140.381088
799.301453 -1221.396240 53.033543
566.811584 -889.235718 -153.984436
721.949097 -1297.615234 -44.621231
637.839050 -735.468872 -621.529785
790.864807 -643.425110 -524.156921
803.841003 -642.167114 -523.898132
1065.888672 -1169.654785 -58.878624
955.633179 -1183.617676 46.011028
515.456421 -903.836121 -191.292709
899.397583 -1255.765625 -155.957077
824.876953 -875.109497 -412.340546
666.759521 -1284.633423 24.835573
703.513916 -1405.666504 -388.815613
848.500244 -1242.671631 -64.915581
889.327454 -706.496887 -467.694641
601.392700 -1341.579712 -94.564507
851.680298 -636.091064 -479.220062
676.859253 -844.781494 -268.317078
677.011719 -723.719727 -585.506104
761.626465 -797.827637 -118.723915
652.755981 -677.557068 -631.443604
672.740356 -815.245239 -545.237732
632.708923 -839.815002 -119.034950
701.742859 -719.379700 -584.669983
642.945374 -1350.178711 -86.106949
680.859985 -769.135254 -563.915649
825.867859 -1231.700317 -12.425277
785.786377 -1300.739990 -244.512711
875.867310 -1241.857178 -29.105112
927.725342 -1229.861694 -75.472725
706.676758 -808.311584 -188.580933
881.325073 -1230.997437 -198.385513
730.201111 -548.862671 -623.316284
802.517944 -863.527405 -438.353302
765.536255 -855.514099 -324.848175
463.838257 -929.509827 -223.306107
812.588745 -1197.232788 103.325684
563.424561 -862.072815 -166.396973
859.412231 -1216.294067 76.477310
684.293945 -601.831909 -649.285034
