ply
format ascii 1.0
element vertex 1367
property float x
property float y
property float z
end_header
-29.562986 744.625305 -1319.197510
-241.757187 665.136841 -1297.111084
-131.527527 687.789734 -854.686890
-249.074661 915.666565 -820.756226
-0.023115 732.631348 -1329.595215
-63.582584 685.071472 -852.928955
-49.103741 609.368225 -858.964294
-274.267487 605.995850 -1332.797119
61.420517 850.598267 -1272.631836
-63.869484 557.706299 -1338.350952
-178.598816 842.867493 -830.830566
-238.231567 858.193542 -821.990479
-9.027015 732.086121 -1305.535522
-276.592133 783.036865 -1219.173096
-200.051422 634.505554 -1314.145996
-13.934207 894.573608 -1252.355225
4.894979 857.886658 -1306.505737
-256.593384 944.408997 -635.722412
-280.556091 949.063599 -594.569275
-285.311249 990.908325 -428.822418
-170.657928 590.237549 -1320.214844
-322.604736 729.109497 -1304.584229
-45.270309 886.645569 -1277.344238
-291.773529 830.018921 -841.292725
-111.916916 592.994324 -1336.443359
70.112144 857.752869 -1264.462646
-64.434875 827.938538 -1308.369019
-291.316711 945.710999 -547.814880
-135.247665 605.743225 -845.165466
-402.793396 928.304260 -529.301697
-242.276810 927.827881 -844.866638
-257.522125 987.027161 -485.214478
-175.041565 980.617126 -559.527161
-294.128113 960.728577 -516.077576
-357.105713 923.396667 -686.951721
-125.119049 995.858276 -572.498169
-314.989044 545.412781 -873.083374
-347.388367 736.409058 -1283.925171
-188.927811 775.657471 -1179.165283
-124.833229 941.180420 -833.575134
-132.804794 690.192444 -826.524841
-92.917366 860.947754 -1242.600708
-167.297623 688.186707 -1294.082275
-109.081696 730.218140 -831.641296
-257.761993 802.553101 -1301.159546
-71.134338 752.341553 -1316.950684
-35.447136 997.924805 -630.776733
-61.400887 601.320007 -888.306335
74.458694 925.612061 -1302.631714
-135.485825 683.592590 -840.399353
-290.099304 655.011841 -848.960388
-174.039963 623.066589 -843.867371
71.375519 783.057556 -1301.196167
-168.165680 698.211609 -1314.937500
-208.446426 556.613770 -879.590515
-242.788055 764.584595 -1306.546875
-345.950195 948.399353 -538.787537
-161.125809 564.876465 -888.040161
-289.371094 906.802856 -820.648499
-440.797882 675.158997 -1284.323975
-118.653084 868.554993 -1292.302246
-78.661003 663.592041 -1315.030884
-304.702576 692.594666 -1305.913574
-264.177338 612.522583 -1301.226685
-275.555084 834.537598 -1249.886597
-280.237610 696.878967 -837.540955
-141.005371 1082.816895 -1265.408203
-157.466980 1086.296997 -1251.965942
-163.629578 975.268616 -707.984741
-117.746536 997.915833 -463.499969
-293.578125 868.029968 -1266.560791
-53.816868 592.686768 -891.086182
-19.526817 851.912109 -1308.953247
-225.658188 672.490479 -1313.140259
-35.699177 656.632019 -1332.555420
0.634166 840.244690 -1304.750732
-158.846024 1276.545288 -1272.950806
-303.416351 781.016174 -844.988586
57.429932 749.766663 -702.626709
1.427629 842.364929 -1310.609497
-279.107635 657.432434 -1312.959351
65.897827 893.829651 -1242.593262
-221.519043 721.834595 -1291.604980
5.842464 679.167664 -1332.933716
-226.450012 776.024231 -1229.269653
-285.012848 594.217468 -863.900879
-105.337540 683.714783 -828.931946
-150.758591 892.171753 -829.647888
-107.976212 981.442566 -659.996643
-429.337555 670.713867 -1279.091064
-326.686066 721.776550 -1298.126465
15.137415 952.540466 -1299.510986
-467.015198 678.183044 -1289.599854
-71.142662 595.490723 -876.796570
-266.569031 621.616638 -1304.400513
-124.238617 1085.718018 -1275.202271
49.844807 782.486023 -852.207397
-150.918716 781.432556 -826.092957
-261.650757 966.214600 -567.045654
-141.108566 989.446167 -627.791016
-41.876816 866.042419 -1308.412720
-149.757980 700.667603 -853.257446
-93.772285 581.156982 -872.580078
136.397720 949.092102 -1290.228760
14.848399 646.344788 -1324.201782
-335.906097 951.313171 -539.925232
-238.717010 975.710632 -453.203949
-90.022232 582.652161 -854.336731
-45.397915 601.047424 -922.815430
-193.114487 639.252991 -1329.814697
-154.513367 685.237122 -1312.690674
-7.829192 705.272766 -841.140869
74.904190 954.441223 -1295.788330
-183.536499 835.934021 -842.862976
-300.391693 964.784607 -586.451111
-98.981926 989.782471 -693.837219
97.048615 937.371948 -1290.185547
-126.403923 990.964233 -723.144470
-281.450195 650.774414 -839.142944
-97.175415 794.914795 -840.888611
-5.569350 928.883240 -1282.999512
-33.766884 786.250244 -823.084167
-107.025414 792.537964 -1327.745361
-343.344849 930.918335 -622.015442
-314.464600 850.093323 -1237.847778
-365.198944 668.270386 -1288.611328
-60.964058 780.980286 -833.501465
-273.679565 739.098328 -1324.354614
-220.701996 873.356201 -1168.231445
-79.766724 1045.083130 -1279.453735
-236.307098 617.473022 -844.051880
-224.255768 918.952759 -826.903992
78.896202 902.715393 -1306.287842
-151.605545 992.367615 -441.520996
-161.468750 970.326538 -655.352722
-130.700317 599.729004 -854.815735
-61.099270 605.936279 -1331.602417
19.115154 644.490173 -879.728699
-425.335693 852.321655 -1291.746704
41.340874 734.406433 -1333.201660
-188.277710 889.312317 -837.031494
51.548477 815.316162 -1322.116821
-179.845993 748.710815 -1073.397217
-85.741264 857.552246 -1304.207153
33.498184 952.569702 -1288.746704
-85.244354 876.246582 -1265.133911
-100.461021 922.876221 -831.158081
-24.337782 835.531555 -1291.404053
-205.040863 895.941528 -812.001282
34.417290 791.472656 -1299.041870
52.290325 824.237854 -1312.778564
-167.476776 594.888367 -1323.666138
65.878876 903.645691 -1298.069580
-176.276184 689.692871 -824.631104
-238.960815 853.786560 -810.968994
-322.490265 943.026733 -702.300476
-156.316925 926.486450 -813.537964
10.491844 813.500793 -1323.631836
-191.058685 923.456604 -817.787476
-317.950684 948.774719 -603.547974
-366.573822 773.939209 -808.182190
-202.633041 978.878174 -435.064056
-202.619049 1242.637451 -1242.133789
-235.368652 648.546936 -852.232178
-135.228210 705.327026 -825.624268
-283.501709 828.752930 -827.947083
-204.065231 579.561218 -1306.698730
-221.344604 577.931396 -1330.891846
-147.971420 981.467102 -562.837402
-116.337448 987.121399 -592.114014
-77.088821 591.235840 -854.352661
-215.260498 644.970642 -861.084290
-211.393402 975.160950 -515.733398
39.321445 977.966064 -1272.384888
-114.433006 982.051392 -527.965942
-53.757473 769.709290 -834.781494
-68.801430 600.779785 -1329.959229
-380.209534 910.220398 -1270.957886
-395.366455 856.893372 -823.921509
-214.824738 983.587891 -509.289215
-136.074371 988.218079 -504.883636
-81.571014 789.775452 -1326.322998
-151.881973 632.991577 -843.855408
-96.663834 592.277161 -884.636780
-126.178032 888.632202 -1291.287109
-150.640442 790.959534 -837.113464
-241.030823 1028.346802 -438.328003
-116.803101 830.059692 -827.628235
-166.288605 1224.880249 -1265.524658
-161.247955 812.432190 -1288.877441
-15.311749 749.652588 -843.408020
-120.387444 671.694519 -851.763123
-124.679680 1032.264404 -449.466400
-129.457703 997.662109 -1258.979492
-222.635300 639.541260 -1301.072388
40.578114 936.559998 -1298.977173
-117.450165 755.979797 -831.674377
-111.941521 609.324219 -1308.669312
-79.399284 670.820740 -1329.188843
-274.720642 961.706604 -512.505249
-209.481384 682.228271 -1276.338623
-132.003235 571.424072 -905.194397
-71.268867 760.957214 -1315.215454
-389.440277 671.382568 -1308.482910
-12.985998 869.124756 -1301.240601
-99.228523 536.318054 -1330.586182
-250.442703 766.080322 -1303.049805
-182.106308 544.643738 -891.922058
-216.961487 825.193176 -1284.677490
-231.989578 628.443481 -1338.953491
2.733967 769.778137 -820.670776
-378.259033 764.228271 -833.093872
-382.799286 972.723145 -1296.226318
-383.087463 927.243896 -611.462708
-315.014648 606.572754 -831.910278
-217.465210 822.944885 -841.154053
-262.841064 707.207397 -1309.767212
43.891785 654.786438 -897.498108
-185.023987 531.768616 -1323.869995
-11.207331 651.847534 -876.265930
-113.183876 993.721252 -638.391174
-278.876343 897.058105 -821.092957
-165.918396 982.246277 -563.357666
-329.898224 656.242371 -1308.735474
0.273746 706.168152 -1320.296265
-119.906952 636.185303 -1292.538574
-83.782837 997.441162 -1276.594727
-211.495789 817.930847 -1205.409302
-57.019371 853.635437 -1296.796387
-74.275513 668.449951 -843.961975
-83.520844 813.402100 -845.234924
-189.369965 999.038757 -1260.524048
-73.917992 678.571228 -1325.975586
-73.464691 602.017883 -868.867310
-455.276215 859.222107 -1286.204468
-186.761658 722.310486 -1246.544922
-420.630157 980.105164 -1268.999878
-325.491486 692.973572 -833.624207
-383.492859 913.814148 -588.757446
-18.879950 677.069153 -866.055176
-202.717728 973.395935 -486.274475
-266.544037 613.930176 -846.611206
21.894255 676.575989 -872.308044
-67.019623 624.046570 -852.784241
-370.077454 925.139221 -685.458618
-194.709763 537.167236 -1329.302490
-102.138657 641.873596 -843.789978
-319.571808 613.299011 -1315.172119
-113.955284 647.395935 -841.384705
-211.979446 990.330261 -444.190826
-349.237335 936.407776 -606.686096
-285.793304 957.524658 -612.137268
-115.184540 659.355896 -845.221741
-166.712723 978.059998 -564.993164
-215.521072 966.942139 -603.655945
-349.541809 652.153564 -1301.417114
-448.910034 654.980103 -1277.772217
-281.497192 780.546631 -1313.551025
-161.508606 975.590820 -640.336914
-86.625465 763.835876 -1315.844849
-148.892792 649.540710 -1321.346313
-370.855621 958.077942 -1263.313354
-343.018951 773.721436 -1273.728882
-308.435303 940.740784 -566.345703
-98.710655 1036.257690 -1271.917847
-136.562424 975.585571 -634.060669
-400.584290 912.212952 -653.218262
24.037527 875.921265 -1267.145996
-352.008301 707.249817 -1295.234619
-157.654404 685.830750 -1101.654297
-343.050415 934.179871 -540.656006
-304.738037 785.242188 -843.658997
-246.802368 549.215393 -886.746521
-131.073257 999.818848 -453.762878
-324.362152 797.594055 -1264.629150
24.024055 807.949890 -1325.037476
49.456493 682.311951 -873.678284
-61.730621 1021.653625 -637.135315
35.005886 802.329651 -1320.465820
-391.215637 911.517151 -1285.185547
-316.561676 936.682617 -547.972595
-147.804398 755.167358 -1214.410889
-280.401001 960.364868 -727.101501
-288.137726 688.590759 -848.011169
-261.842560 858.993225 -850.629333
-157.245239 554.414307 -1335.998535
14.316670 758.020508 -837.668335
-210.046280 842.015381 -1265.004517
-304.135803 736.775696 -1286.267090
-94.452538 694.444641 -849.665100
-333.255554 776.956238 -835.025940
-350.448303 640.539490 -1308.692993
-305.808289 841.424438 -1257.098755
-66.498390 596.985046 -890.411743
-221.158203 973.020874 -603.649353
-124.062943 1013.196045 -467.730865
91.484268 997.744568 -1272.498535
-186.579453 712.837219 -838.044861
-116.526901 791.137390 -1296.043579
-208.783615 572.979492 -860.211365
-138.401825 989.682556 -528.184570
-95.688110 1178.468506 -1255.266113
-0.456775 672.407166 -861.235718
-153.722504 985.663818 -614.459778
-263.847321 686.020935 -1313.518555
-23.335146 988.358276 -1258.165283
-169.152405 578.738647 -852.960938
36.106792 923.357117 -1283.347778
-181.874725 677.761719 -825.296143
-227.626968 974.845032 -649.316772
-54.513725 839.567993 -1314.636597
-118.879990 669.670776 -1214.882324
-142.811295 623.160828 -848.025574
19.775656 761.740417 -834.223755
-9.374647 947.556213 -1251.059570
-137.763474 600.035522 -841.250061
-273.715057 800.024292 -842.688232
-273.121246 970.413940 -589.311646
-113.566704 551.721680 -891.479797
-296.335846 744.682434 -844.780029
-295.058044 769.072693 -1238.978271
-96.143661 668.042603 -843.593750
-85.918922 678.267761 -852.608826
-175.130112 853.067505 -816.427673
-157.345627 983.178162 -628.530762
-40.785725 691.747742 -1321.207642
-202.219788 890.598267 -824.636902
-145.474335 568.567810 -893.564270
-137.912277 578.423645 -1321.637939
-151.179291 578.420288 -1321.939697
-58.562702 598.400879 -1321.674561
-211.890945 1010.050476 -1261.654541
-180.625259 872.459351 -1284.642578
-191.489197 977.923706 -524.664001
-208.406631 661.773926 -1318.248657
-280.472595 603.160400 -846.450989
-78.500557 709.801575 -835.789612
-215.038864 737.686035 -1303.797974
-14.985326 647.981628 -871.908020
1.153409 845.813782 -1309.234009
-170.625671 871.616821 -825.539063
-328.924591 936.735657 -707.211121
-353.507568 657.472961 -1308.888916
-212.255020 566.299255 -862.868591
-248.103775 901.484924 -834.668884
-266.113342 657.874268 -835.109924
-64.208519 820.797302 -1318.987183
19.679930 885.772400 -1234.317627
20.136494 665.166077 -888.971436
-351.734344 935.937561 -524.228333
-164.799606 982.739563 -603.041260
-172.890030 857.173096 -839.784424
-189.607452 982.688843 -526.847107
-279.862610 962.122192 -707.031006
-106.388092 553.049927 -1337.674561
-343.493805 932.307129 -594.915894
-253.324493 774.922913 -1308.432129
-107.443924 813.682495 -1314.754761
-292.701752 957.914490 -576.472351
-183.369141 971.122986 -663.824219
-335.357971 620.646851 -834.191833
-48.459476 765.236755 -1328.868896
-142.382980 849.568298 -1230.505127
-204.113632 748.210815 -848.909424
-265.338470 781.382080 -1286.103516
-72.983749 731.785889 -841.704468
13.845200 657.601196 -1326.780884
-277.051849 597.246460 -1318.755615
-282.497406 982.159424 -452.621857
-410.815918 903.921204 -1271.253784
-333.657990 721.625916 -1286.428711
-287.486664 810.197327 -1282.806519
-316.702332 918.802429 -843.668213
-137.713943 973.928406 -592.675232
-118.901772 605.323547 -870.506592
-10.696203 628.141785 -873.934265
-224.482239 961.472778 -618.352722
-7.983335 649.603943 -853.556763
-145.155991 724.877502 -820.422607
-297.619812 730.704285 -846.879639
23.719923 707.186157 -1325.950439
-358.490295 697.112671 -1299.497192
-299.622498 716.020630 -1307.550293
-123.389954 685.492371 -1315.114258
-245.850876 989.426270 -438.598511
-140.178772 531.542236 -871.605652
-305.201447 781.074158 -832.038879
-200.367981 776.194763 -829.219299
-155.935150 974.484375 -581.899048
-121.069107 987.717773 -562.790955
-53.318817 886.916748 -1243.776733
-280.790131 835.568115 -827.563660
-266.220154 1252.316284 -1235.656616
-252.694687 682.551453 -1315.230957
-148.471085 991.439209 -446.987427
-289.050507 960.375427 -478.022644
-81.484962 872.538208 -820.496704
-169.508484 974.863281 -665.071899
-387.489441 921.812195 -677.904236
-202.773148 718.156128 -1305.554077
-83.941986 982.751587 -591.151123
-337.409302 938.756897 -562.750366
-212.498123 849.672424 -814.533020
-248.503952 580.130493 -1320.675781
-13.395844 799.609497 -1326.849854
-136.008743 844.789612 -1283.883301
-115.009895 564.192078 -906.397400
-237.412567 976.605469 -465.670746
-78.642876 992.280457 -630.253662
-90.171036 621.053345 -1303.637207
39.403263 724.935303 -861.991211
-283.891754 774.581421 -1284.100586
-251.103439 966.380249 -609.663452
-156.259842 758.847412 -848.700989
-303.284698 946.304016 -683.559509
-412.868378 701.423462 -1269.004883
-104.118500 841.127502 -827.082458
-106.595818 574.530640 -876.165894
-180.324844 975.183777 -633.731873
-3.878664 753.110779 -1318.279663
-34.236668 859.979126 -840.091553
-108.861900 624.033264 -847.645874
-135.517700 923.440552 -820.228943
-234.266693 764.124084 -1302.589600
-42.191456 596.820923 -890.952515
-366.105927 707.042480 -1293.449585
-242.349197 634.263489 -857.504517
-321.213715 960.695251 -499.964600
-70.945908 716.515442 -1325.912598
21.858854 819.212341 -824.068665
-338.021271 934.572876 -606.410461
-376.141235 943.547729 -529.387207
-6.523429 870.459656 -1293.601807
-408.828705 691.893738 -1268.650879
54.379665 855.558655 -1240.003662
-215.935928 646.199707 -824.120117
-76.170319 616.273071 -845.422668
-292.166534 773.213806 -845.578186
-74.392693 682.447876 -1329.320190
-12.751853 829.890503 -1318.208984
-56.976273 799.513428 -830.659546
-207.463669 985.772949 -445.175079
-201.388275 985.218750 -480.269073
-103.873367 788.293213 -1310.418335
-180.164703 780.388916 -829.595825
-239.959930 610.964294 -831.530640
-280.869995 715.900452 -1310.623291
-431.396088 656.777344 -1274.680420
-378.781250 597.807617 -792.161560
-104.139313 718.774780 -825.375366
-144.541153 982.177979 -480.094757
-283.020355 920.442932 -710.031860
-59.540791 825.407043 -1317.096313
-119.610374 991.945374 -567.779724
-158.706467 696.114868 -826.261414
-110.592484 995.592285 -602.960876
15.759514 755.203125 -823.771240
42.792076 708.762146 -1326.055786
-259.775574 964.414001 -664.496277
-118.685669 579.305969 -869.460327
-25.031055 649.707336 -848.291809
-290.119049 554.570251 -859.539307
-342.775513 813.652893 -1276.401123
-122.093987 1013.299255 -467.833282
-55.238232 766.098755 -1327.062012
-326.633301 862.911865 -833.420410
-420.255127 822.311401 -1286.114624
-114.117050 614.808838 -1289.890625
-176.627151 972.090454 -675.293518
-65.336525 589.991821 -1330.903687
-297.472504 938.830566 -622.983948
-472.548431 708.019287 -1279.672485
-131.393677 675.313721 -837.296692
-76.290016 526.572754 -1329.937622
-270.241455 607.377380 -1316.127686
-276.719940 907.789795 -833.004333
-254.131424 751.913025 -855.312622
-161.900085 619.557983 -854.726929
-181.641724 1097.653442 -1227.173584
-357.426758 670.598389 -1293.948975
-79.118233 952.759338 -825.679688
-6.535272 672.660767 -849.742981
-273.880524 671.153137 -837.096802
-209.882706 709.917419 -831.648804
-180.462555 974.399414 -599.682983
-320.411835 966.686462 -438.236603
60.443111 958.253845 -1300.013672
-17.008266 784.258606 -834.869995
-143.776871 1013.913818 -463.520660
-264.533112 848.255310 -1259.322021
-54.511486 750.643250 -846.711304
-248.465546 888.753601 -1213.531372
-78.598396 637.032654 -847.253906
59.305717 767.046997 -1316.720459
-380.224762 725.272583 -1282.256714
-99.631699 807.235962 -1314.005615
-47.648769 594.092834 -880.276184
6.256075 958.198730 -1300.081299
-303.164703 840.244446 -841.644287
-90.380104 603.592529 -1310.164307
-443.573730 682.720032 -1270.753296
-187.813538 919.252380 -823.023376
-74.092384 1001.275085 -666.609741
-416.959717 978.871521 -1300.227173
-235.590668 542.312134 -864.892822
-109.268494 654.751099 -1318.434326
-327.541321 941.304504 -503.777161
-164.793274 658.728455 -841.782593
-117.886795 699.999268 -1316.597168
-87.675980 616.121399 -1303.446777
33.973022 886.208801 -1298.204224
-66.975494 598.502563 -1326.946411
-102.756744 897.389038 -1284.515503
-320.476898 928.139160 -1210.158813
-68.744255 855.078369 -839.220276
-294.529449 951.164001 -563.137268
-266.367554 854.568787 -826.888916
49.421230 734.994568 -1327.934570
40.606857 764.154785 -1316.883301
-193.237518 1091.113770 -1209.198975
-151.318207 744.332703 -822.086792
-131.113846 977.031189 -696.055115
-93.235016 632.296326 -1308.108398
-224.761963 543.070923 -899.257141
-213.880920 908.426147 -824.960876
-70.478989 639.962158 -853.433472
-77.783073 690.252258 -840.069031
-118.361183 984.979065 -655.843567
73.967506 771.307556 -1302.276733
-127.669922 554.649658 -889.421631
-12.788309 710.225708 -1320.461670
-349.636108 878.731934 -1268.516602
31.286795 662.289856 -880.552673
-275.187653 632.510132 -823.048157
-8.576154 649.430603 -1340.897827
-53.057076 729.136780 -1322.428467
-149.834610 976.383545 -690.307739
-159.742813 734.887817 -843.543030
2.957038 798.009399 -1313.840088
-198.564331 546.795166 -885.092285
-275.109039 620.913025 -856.632568
-165.519241 585.893372 -847.271240
-303.986572 938.396545 -658.030029
-124.748390 984.743958 -573.275208
-5.028678 655.670288 -1332.351196
-33.563969 926.226563 -1268.526855
-51.072083 825.589722 -1307.891235
-408.646729 688.523865 -1272.422852
-150.718109 849.658936 -1278.422852
-214.958344 618.028259 -853.860962
-241.512878 977.519653 -416.560089
-207.960022 909.169922 -835.290771
-296.055389 783.100525 -854.997681
-303.880859 936.106567 -602.266785
-168.198288 873.111084 -1193.805908
-214.781815 633.480042 -851.984314
-189.516830 795.096863 -1235.365234
-423.345306 880.603394 -1286.682129
-51.198833 859.893066 -1295.827759
-101.571922 559.546631 -1310.102173
-92.825089 702.987610 -839.980957
-9.496330 864.385132 -829.350525
-426.323151 753.221130 -1279.552124
-48.816166 834.364502 -1302.165771
-286.558624 773.232483 -1286.359985
77.524826 769.087646 -1329.021240
-195.472107 742.325195 -1283.920654
-200.133072 957.240479 -725.367310
-298.500214 976.606201 -466.009460
-159.942337 860.705811 -816.718506
-313.546997 590.485535 -1312.732056
-41.949455 770.093079 -847.805359
95.480812 827.675171 -1325.564453
-47.296703 562.076538 -1334.113281
-4.441179 827.423828 -1308.149658
-363.070587 862.619385 -835.996094
-145.536728 622.816528 -1328.253052
-92.016586 869.956055 -828.574646
-280.694458 934.633911 -711.401794
-244.085312 964.915527 -531.640259
-134.043121 637.234619 -1241.352051
-170.721313 979.700317 -494.479736
-112.023033 989.065247 -529.302734
-264.060699 986.006165 -420.160919
-409.381012 906.225586 -616.900757
-116.390877 990.067383 -542.041809
-343.541290 793.088318 -1253.104126
-135.441864 1021.184509 -1305.711304
-315.776215 555.440063 -859.193726
-372.579041 936.724976 -515.106934
18.425560 657.040405 -1336.936401
-279.670776 905.372192 -845.260437
-117.124191 877.961060 -837.300110
-5.005435 662.045410 -849.434875
-413.298798 641.788635 -664.373718
35.550808 818.730408 -1310.224243
-164.633850 1006.167053 -840.375244
-84.158325 994.292847 -534.302002
-159.397064 979.255676 -491.513580
-122.581390 730.865906 -1287.453613
-137.438385 925.255920 -816.074646
24.670341 715.066589 -1326.718262
-183.034164 987.278076 -483.656342
-236.652069 967.611206 -499.516510
-138.894623 1051.761719 -1242.593628
-81.084755 992.355103 -643.467407
-334.029755 673.033020 -836.371094
-174.312973 667.430908 -836.721558
-321.266693 955.735657 -500.464417
-194.245041 772.737366 -1193.578247
16.092564 626.406494 -878.389771
-337.234894 936.847046 -540.097290
-220.272766 963.623352 -719.857666
-225.939499 975.358215 -569.390625
-278.962616 965.494141 -461.078552
-313.377380 836.287292 -831.938477
-324.644653 954.843933 -504.925110
63.303123 806.471130 -1323.419312
-4.426689 726.216980 -852.686096
-298.986389 953.446594 -551.348328
-317.780243 717.654114 -1306.689819
-85.792725 1013.296509 -490.148254
-373.831848 922.261719 -581.415894
-239.193222 845.564941 -1282.738159
-209.258057 736.724426 -1264.998291
-343.793732 964.316223 -1267.783081
-362.646301 929.036926 -550.717896
-5.487710 607.590942 -1317.249390
-134.333466 645.023682 -1252.358276
-39.106739 604.730164 -872.241577
-252.640594 970.948181 -521.358521
-257.199432 971.671814 -722.237671
-211.296249 627.753784 -1320.397339
-62.241932 539.714661 -1319.883789
25.154549 729.953613 -1329.838623
-316.267609 677.474182 -849.161011
85.300880 899.582886 -1296.202026
-279.368652 569.416504 -855.954712
-93.279266 989.074524 -578.903381
-104.176376 989.050537 -703.150879
-114.915375 702.380737 -1309.127441
-3.068595 842.818481 -1291.886963
-368.165070 666.741028 -1292.133423
-373.944672 684.582214 -1273.757568
-313.207275 778.434937 -828.332764
-42.073391 835.154053 -841.170227
-111.017662 535.909180 -1316.966675
-121.082466 1000.327576 -494.001648
-146.135971 656.144653 -832.337952
-45.621254 877.949036 -1306.401367
-171.939972 976.897400 -519.678772
-206.819626 1013.200439 -1279.305908
-143.565048 595.657715 -1330.297241
-160.478210 533.270874 -1315.851929
-333.358917 940.568481 -557.172363
-385.108368 695.843994 -1287.679199
-73.818954 599.136719 -856.189758
-185.685059 892.992310 -828.937439
-89.852219 575.651733 -1306.823608
-101.882736 601.488647 -1309.289185
-276.118164 955.570374 -650.734924
108.215584 737.933105 -731.987915
-73.687965 654.090271 -836.338379
41.423157 848.873108 -1306.673950
-195.257080 805.636169 -1265.596436
-296.722900 854.390503 -808.373108
-122.552299 681.446289 -855.371582
-258.260498 975.985718 -440.595062
-230.917480 1023.213501 -1276.378296
-41.234230 614.714233 -868.477783
63.864109 854.548828 -1265.414673
4.563675 698.101929 -844.694275
-129.721436 745.126404 -838.408752
-63.999439 982.314453 -598.583984
110.920013 927.160889 -1312.709106
-99.183647 994.511475 -613.367126
-433.595673 665.658142 -668.165955
-257.875763 717.482483 -1306.326538
-95.948471 801.998047 -1308.635742
-171.785507 547.192627 -893.548645
-66.552238 805.316711 -1310.843384
-96.026520 855.728760 -1237.962769
-287.689575 770.934265 -831.468140
-243.622910 970.178040 -513.879272
-213.188141 970.667847 -510.973389
-124.364594 809.448181 -850.892151
-303.546387 804.297852 -1290.678467
-164.974365 739.865662 -837.686035
-306.416626 949.006897 -720.248840
-235.017487 963.381714 -600.225281
45.940624 708.004333 -863.531433
-167.076721 685.195984 -825.099365
-297.908569 888.114563 -825.555786
-88.614586 806.383118 -1312.022217
-82.802177 993.984741 -551.938965
-7.895199 700.673401 -1311.598511
-27.176506 650.391968 -850.921997
-199.385376 969.583435 -587.608032
-25.377188 658.259155 -852.114563
-268.518250 666.603027 -823.894287
-170.515701 894.889526 -837.372314
-258.917419 892.808960 -847.494324
-156.560547 815.719604 -827.802368
-210.922516 968.414917 -625.393188
-54.029991 868.177734 -1225.203125
-247.088760 966.944946 -539.245300
-204.175171 978.408936 -461.086884
40.568092 738.660706 -1331.049438
-43.120152 570.334961 -1330.874512
-69.411148 997.092102 -567.482300
-31.514257 642.073364 -1325.968018
-307.844910 964.303650 -498.825195
-320.814087 810.033447 -1259.055176
-340.790161 745.656921 -812.409973
-348.732941 944.481079 -564.094910
-130.578705 653.336914 -830.357056
-214.678268 686.082581 -1300.466309
-229.523849 626.618225 -1314.171509
-356.579010 653.718201 -1312.114990
-116.369698 991.726624 -546.868835
-200.042389 909.710205 -818.190369
-306.698944 809.483765 -843.029236
-154.400421 967.093933 -636.322815
-104.060097 612.822327 -847.401733
-339.121033 604.274353 -1314.163208
-286.215454 592.028809 -1314.100586
-329.530762 931.068054 -699.760315
-135.247543 999.009583 -485.414764
-208.188278 960.825562 -621.567566
-324.556824 934.194031 -585.813599
-286.670898 735.997620 -1323.279907
-315.565704 947.513855 -523.300354
-178.974625 976.054810 -717.312073
-216.636673 955.566223 -657.568481
-193.403671 582.226746 -1331.510864
-144.354858 722.467407 -1270.178101
-67.211197 561.597595 -1345.308472
-107.584854 642.518494 -834.263672
-293.948334 950.436707 -614.762817
-222.706223 778.054871 -815.796326
-40.963577 947.982483 -1251.377686
-9.793485 667.389526 -851.980103
-332.403778 756.705994 -1217.791016
-113.091309 983.913269 -653.469971
-85.435150 997.044922 -668.260986
-157.286072 783.263550 -1294.296997
-121.004654 586.122864 -1303.376953
-168.360840 827.540466 -830.400024
-64.960609 748.893921 -1322.106812
-217.588318 969.610168 -607.411316
9.123353 772.361450 -1316.287476
-156.187180 981.162292 -607.348572
-235.834579 658.969116 -1313.301392
-193.331299 624.763000 -828.132263
-150.018219 985.614319 -518.145447
-83.803505 892.898315 -1237.792725
-161.605103 525.575867 -1331.980225
-167.899750 566.301636 -891.109375
-344.619934 611.370667 -1312.636353
-46.968693 567.034607 -884.591248
-59.190567 989.956970 -649.657532
-108.067665 889.873962 -1299.548706
-25.486141 774.939026 -846.055237
-82.949257 624.564575 -1322.746216
-138.282974 704.919861 -856.833435
-347.604828 657.680725 -833.721069
-127.302399 794.799438 -1305.372192
-397.165344 612.366028 -1296.601440
-107.054771 590.871521 -882.921692
-223.995636 929.116821 -804.142090
-377.795471 924.100403 -568.199768
-122.994194 563.642822 -907.144592
-150.773239 732.343567 -1095.385010
-12.469593 658.853760 -1311.741943
-274.912292 604.444702 -860.528748
-142.960754 666.464661 -1279.023926
-151.331757 980.182251 -540.991882
-80.618896 848.494019 -1304.667358
-270.072540 701.080872 -1294.576782
-176.794952 641.054749 -1304.463013
-348.529633 864.536438 -826.887146
-289.373840 694.551208 -1311.795410
24.971130 703.256958 -851.102417
-177.122528 962.212341 -1222.091309
-229.672134 995.631592 -431.980286
-39.139339 591.193359 -884.388245
-234.035812 791.728394 -832.230957
-82.678589 673.898499 -1323.681274
-78.221634 586.526245 -1326.391968
-97.013084 768.279480 -820.137085
-393.525299 699.591492 -1270.220337
-214.999557 985.570313 -480.161560
30.706203 995.326111 -1282.165771
-94.834396 648.845215 -1322.365112
-132.291962 752.785400 -1300.238892
88.830315 781.843567 -642.095642
-73.628342 790.602722 -1314.199463
-202.383682 644.667786 -842.350281
-214.165573 974.211914 -592.439392
-258.886658 601.004517 -1314.970947
-299.879883 872.140137 -828.869263
-78.521286 672.516663 -861.268738
-22.985590 822.044495 -1308.578857
-329.461578 749.650635 -1223.954712
-102.939217 548.850281 -1316.452393
-376.920502 673.589722 -1295.851440
-59.884453 596.469666 -1332.541138
-274.714050 971.257080 -581.087524
-42.569969 837.291687 -827.362244
18.077436 816.551453 -1311.089722
33.318474 915.916138 -1272.571533
-67.278137 647.676880 -1324.845337
-272.868958 978.418640 -477.446930
-255.313705 988.424255 -433.575165
-115.979584 758.586487 -1312.653320
-123.153198 1080.723633 -1222.526489
-14.718791 858.898193 -1289.878540
-270.417786 943.946045 -631.987000
40.017208 794.448364 -793.802917
-409.798889 633.928772 -1288.163330
28.420258 864.423157 -1279.568237
-275.950317 832.866028 -1290.322021
-113.885216 718.047974 -1303.213989
-214.038330 860.362427 -827.110413
-210.000336 962.806396 -603.581421
-215.349915 706.328003 -1320.086060
-260.164368 960.877930 -542.829163
-328.952759 651.715332 -840.591919
-389.615204 927.499084 -627.794617
-94.051003 707.482117 -1305.329346
-288.848206 959.019714 -496.642151
-73.430969 552.029114 -1318.074829
-18.372324 794.499939 -841.327332
-96.612000 723.256348 -851.647156
-263.042236 954.478455 -672.286316
-250.288727 1176.971924 -1259.386230
-15.273558 616.681274 -1326.609253
-262.228882 857.837280 -1243.160522
-244.763321 875.279968 -821.197937
-148.452011 709.703125 -1112.684937
-163.861649 972.469666 -591.900757
-142.673843 1176.500000 -1251.348145
-185.951416 1003.355286 -1285.429932
-104.211624 957.577148 -1308.082031
-331.847382 672.699646 -1308.458740
-214.359772 695.465210 -1308.800293
-196.902222 980.684692 -484.323669
-184.912537 983.897827 -464.960297
1.305315 747.726746 -857.111450
-184.396973 1214.443848 -1259.336060
-327.304840 789.075745 -831.112427
-209.164627 607.345337 -1318.346680
-242.115021 617.498169 -853.581604
-138.842377 981.608826 -588.496460
-164.427689 716.891602 -1080.869019
-263.940796 960.844116 -658.085022
-378.647003 645.085449 -1307.599365
41.443615 714.673340 -1320.914795
13.457228 771.037109 -1322.800537
-412.677887 672.885376 -1237.579834
-318.968109 940.953613 -540.424194
-256.852570 1240.047852 -1261.632690
-66.400948 878.995056 -1253.049683
-326.738068 940.237671 -635.846191
-332.077606 926.301331 -689.411194
-33.892006 904.497009 -1232.191772
-106.195618 571.980530 -873.033997
-320.010986 721.675293 -832.400391
-235.134628 946.449158 -822.542053
-97.718910 605.974365 -1262.118286
-100.960526 527.450073 -1325.723633
100.599220 898.608643 -1313.522705
-335.861542 734.307678 -839.401611
-169.653931 968.752563 -665.748962
24.644167 957.195190 -1292.685425
-231.624176 764.634338 -841.442017
-195.530518 1041.228638 -1272.866089
-394.592560 690.036682 -1286.664185
-118.784622 750.267334 -1303.054565
-128.823181 989.014893 -559.863342
-12.604055 668.443420 -1323.320435
-266.653656 755.162537 -1304.226929
64.386261 772.610901 -1327.044678
-16.904737 715.112976 -854.978088
-233.110794 973.894226 -464.649872
-135.852020 574.233398 -870.112244
28.406349 682.572510 -888.528992
-102.658493 722.653381 -1302.392822
-190.967056 855.324402 -1271.238770
-4.340949 799.415527 -1312.324463
-123.265762 1010.672485 -1272.798706
-328.175537 946.745911 -573.913757
-92.850540 991.117554 -682.831970
-178.765564 975.366211 -673.488403
-137.807571 795.701355 -1294.886841
-149.654587 988.158264 -629.958008
-156.889587 978.026367 -605.191101
-254.078888 599.542358 -1315.806274
-96.800339 868.412231 -828.220520
-87.635033 641.230591 -1317.616821
-17.292337 710.480530 -852.980103
14.761863 671.835449 -860.009644
53.117134 845.560547 -647.635681
-197.903732 761.240723 -1288.155273
-130.287857 588.337891 -1324.336548
-183.470474 984.383240 -700.333069
-163.381607 981.456421 -646.506714
91.727364 852.148682 -1308.179810
-359.397308 725.174683 -1292.085815
-108.627525 798.593750 -1297.629395
-154.732574 684.569092 -849.257690
-179.416931 567.739136 -1319.115112
-385.242920 721.092590 -1306.913574
-75.740608 632.187378 -1322.352539
-239.117996 988.323242 -462.361908
135.472885 890.090881 -1304.012573
-177.911819 677.620789 -1308.459961
-324.540131 809.502563 -1264.955322
7.174511 723.840027 -1332.232910
-395.890656 688.353088 -1297.711548
-45.235909 661.312317 -840.353699
-260.620453 663.790405 -1311.738770
-275.829620 982.471680 -457.077423
-341.382935 697.712463 -832.995117
-278.039642 578.939575 -834.429871
-212.560074 661.282410 -1315.371460
-204.030289 982.428284 -521.296143
-73.315765 620.504028 -850.024353
-152.259262 510.636993 -1327.495117
-75.823898 691.538757 -1325.240356
-169.979263 974.914490 -1284.000488
-160.310684 653.190735 -1312.949951
-301.736053 934.238403 -630.003418
-216.241638 669.960571 -1317.443115
-48.321693 590.878723 -1328.431885
8.292209 749.908875 -836.404236
-33.357681 762.952759 -1322.975586
-29.463297 724.199524 -851.093811
-72.714455 696.828308 -847.739685
-350.766876 927.960144 -604.739624
-237.370377 830.266479 -825.458252
-68.734169 688.414551 -841.531799
-417.575745 809.201050 -1280.509033
-299.710724 809.771790 -1293.441650
-181.566635 969.181091 -593.588013
-83.476929 1009.335022 -503.244354
44.402237 737.918701 -1324.450928
46.785202 680.544128 -867.216003
-137.029541 982.197937 -507.414978
-117.518387 614.586792 -847.765137
-114.335487 644.671875 -842.310547
-2.890328 773.251404 -851.928955
-60.295616 784.390076 -838.719971
-120.981819 840.239014 -1293.630249
-270.604126 963.261780 -526.850342
-12.649621 667.988770 -855.788513
-102.178711 897.035156 -836.367249
-255.075851 979.820129 -542.909424
-277.940491 569.673950 -876.457336
-363.535126 808.523682 -823.528503
15.788434 855.143616 -1245.691772
4.053421 746.410828 -850.400696
18.935240 848.818787 -811.409485
82.907784 810.512390 -1314.983643
-280.686127 804.975647 -1287.073364
4.162927 635.291809 -878.815308
-131.213181 596.399109 -1305.226074
-101.270966 992.297241 -509.339691
-334.363617 941.189636 -626.719055
-165.387833 974.920593 -626.415100
-336.751190 774.112366 -1217.661987
14.754478 710.097900 -867.109619
-79.849602 879.330750 -1253.227417
92.375259 907.829712 -1289.943726
-341.472046 678.712524 -1302.343262
-119.279869 989.630676 -546.793030
45.444469 860.321045 -1256.613037
48.532482 864.492676 -1304.804810
-42.625675 597.654236 -900.405823
-133.393372 880.310791 -833.111023
-324.053497 755.297791 -825.331970
-116.167953 585.259094 -1311.597412
-110.543449 761.828430 -1317.998779
-378.700317 928.703857 -541.738708
-260.073120 640.641052 -853.430176
-149.104706 983.186523 -533.550476
-112.757133 586.862854 -885.547729
-153.205826 746.084167 -844.937500
-164.486313 705.599976 -1293.309937
-142.892181 714.897217 -1294.247437
-164.673111 649.052979 -839.050659
-131.068909 681.707458 -1311.097778
129.438904 906.573914 -1303.082397
-323.601166 794.040222 -1287.804932
-176.120499 698.533325 -1293.964600
-91.568665 628.540588 -846.127991
-10.287547 693.286804 -859.622925
-388.576263 929.053589 -539.850098
-257.235138 678.617981 -834.544250
-125.091339 851.254944 -822.620178
-103.812363 1020.555176 -475.508636
3.493026 787.863892 -1327.306396
-217.423218 742.451538 -832.029297
-395.446381 672.677490 -1273.705078
-218.594284 793.511597 -830.195984
-226.073990 792.378784 -1189.187622
-373.782471 927.329712 -612.331665
-325.691193 935.776794 -585.027832
43.213070 734.580994 -1329.435425
-143.040085 634.429565 -1323.914063
-139.129868 734.784363 -1309.896973
-177.677109 982.146240 -670.894775
-413.439728 830.910217 -1282.947998
-240.465195 965.121704 -672.720520
-249.034256 539.301392 -858.803345
-85.858238 660.157837 -847.191711
-371.752258 730.468689 -1274.786499
-96.763298 646.746399 -843.261963
-301.445007 609.070923 -1311.842285
-307.929749 675.311035 -1311.835938
-234.843292 635.955139 -843.003296
-121.333809 876.726807 -1283.341675
-137.853790 995.041931 -501.267151
-151.655411 883.208618 -1264.977417
-261.200470 963.961121 -598.914429
-163.859818 605.586975 -1315.914551
-95.498955 591.496094 -1308.782471
71.512199 769.937622 -1330.856323
-16.935541 911.063171 -1256.791382
-153.863373 947.229248 -1235.399292
29.537165 671.632568 -888.225769
-38.077839 636.476563 -854.110840
-20.884398 732.668762 -840.541870
-309.324768 718.258606 -833.686646
21.203941 910.591125 -1240.310669
-88.902252 605.994690 -1332.949219
-215.218246 975.696960 -501.641602
-324.212646 604.906738 -845.388062
-335.724579 764.856995 -824.906006
-6.975314 623.354248 -885.494019
-218.034256 846.620483 -840.056274
-4.633838 678.470337 -847.125671
-319.611420 955.869507 -528.815796
15.983063 683.843140 -1322.529053
-108.517654 974.436340 -653.651184
-329.436829 938.592834 -495.101440
52.998146 861.564087 -1273.396851
43.130432 754.904602 -1305.070679
-136.751282 985.188232 -587.331299
-376.218048 673.086670 -1282.478638
-99.469048 978.905701 -602.960632
-8.461782 882.066650 -1251.880859
-233.168076 958.147095 -819.845276
-5.448157 737.274231 -1327.487793
-116.149368 678.604614 -1308.198730
-299.097321 807.471008 -1295.465332
-87.990509 1001.405457 -684.416870
-181.852280 817.856873 -834.955322
45.245358 912.103455 -1270.405518
-66.295990 677.992798 -844.124146
-381.410461 939.523132 -467.355682
-270.334167 562.406860 -860.962830
-409.416779 891.006104 -1289.771362
-163.444595 1050.167847 -1266.876465
-82.938080 792.901855 -818.935303
-7.349045 787.374573 -1314.264160
-309.514801 765.428406 -1297.558228
-43.492466 574.255798 -869.456665
25.970295 750.083496 -830.396973
-71.132538 525.288452 -1329.250366
-152.868454 697.279724 -1301.464966
-154.542664 978.063538 -535.244995
-198.255157 635.615112 -826.374695
-253.451981 805.529236 -1198.006592
-114.616982 778.207947 -822.191345
-67.686867 936.148254 -1282.186890
-48.796921 999.817810 -1261.676636
-367.771362 767.658264 -1267.400757
-106.464027 868.409668 -1301.558838
17.582916 848.318237 -1301.569824
-109.273155 1070.075562 -1275.079834
-295.427032 958.417236 -469.550598
-199.581894 782.631653 -1240.021973
-398.721100 686.106445 -1270.166382
-116.676796 1030.841797 -1289.866089
-17.745157 596.165344 -897.150818
-169.664703 1276.960205 -1239.491455
-307.716461 782.551453 -825.233032
-52.476181 637.234253 -871.161377
-304.861359 954.348206 -1226.829346
-226.997452 968.576416 -529.218201
-275.253113 755.988953 -1304.631836
-286.184143 755.931885 -1316.793335
-91.906792 655.952087 -1308.934204
-83.410950 825.451782 -1319.571533
-156.362961 816.052002 -1292.528809
-287.712067 777.574890 -1242.611816
-86.110214 786.935181 -825.857605
-125.924675 781.421936 -830.675354
-182.109955 974.022522 -519.752625
-200.997162 654.271667 -842.057251
-201.691025 961.702576 -582.092529
-19.961634 825.725647 -842.608582
-66.373184 875.539124 -826.034607
-25.310007 710.648010 -1320.234131
-257.012573 650.696533 -840.160217
-55.642307 913.969788 -1305.568237
50.578789 913.150269 -1239.490967
-299.221375 867.533630 -832.590393
-89.002357 988.735962 -677.648926
-75.954521 797.015686 -1313.337280
-308.258087 694.765564 -1323.648682
-190.604477 975.162720 -503.744476
-329.808655 636.159485 -1332.093262
-70.902725 624.480042 -1314.845215
-144.772644 1005.485779 -442.580597
-216.977005 990.790527 -407.264648
-166.751633 968.640015 -704.050049
-481.977112 820.273071 -1274.647949
-35.372601 865.902466 -1255.957275
13.897776 666.673767 -872.757263
-115.537430 830.012329 -844.043030
-359.877747 849.051392 -818.480591
-376.471832 930.367065 -660.308960
-336.493469 591.391235 -848.079224
-204.026199 622.698669 -841.245056
-78.755676 848.539063 -1297.748413
-97.312508 989.507263 -691.527588
-115.500114 543.798706 -1322.442993
-193.102081 973.766602 -494.098602
-69.182426 595.472046 -866.466614
-142.825058 632.645142 -842.334229
-387.334045 795.036499 -807.810059
-8.682065 678.730103 -1306.878784
-341.827606 928.481201 -594.846375
27.128744 868.188660 -1297.424194
-300.265747 951.046509 -542.641113
-86.732605 725.198547 -827.729004
-63.464573 804.534058 -1323.757324
-96.510353 593.111389 -1312.359497
-128.768890 985.776062 -1276.738647
-98.217255 996.509460 -1268.820923
-76.859833 986.762329 -728.162964
-282.019714 959.784363 -718.904236
-180.567520 1057.927856 -1248.866455
-122.181557 784.261780 -1317.367065
-169.980331 1058.630615 -1254.320679
-148.734726 724.674622 -838.666016
102.642471 824.401306 -1300.750244
-159.629593 665.184265 -1182.636719
93.129982 913.132568 -1295.208984
-37.761116 664.935425 -840.516113
-101.727592 525.649963 -1327.939087
7.189892 784.867188 -1314.694458
-138.888626 992.619019 -592.837891
-241.986038 581.627258 -849.613892
-239.471252 992.390259 -456.986145
-237.064819 981.619812 -492.318024
127.540237 874.310791 -1313.883057
-183.152985 572.450867 -865.242859
-57.746391 669.077698 -858.726257
-172.498962 932.637573 -1273.940063
-174.980118 702.316650 -833.262939
-168.293961 562.626221 -865.597656
-161.332443 653.659485 -828.465637
-16.445688 823.611145 -1319.575806
-102.485184 728.875061 -1302.790649
70.998314 842.782898 -1293.345825
-23.800493 830.604553 -828.925354
-378.494995 753.211426 -1277.782227
-207.717606 1002.842041 -419.653870
-20.341642 796.585144 -1313.800781
-309.056122 577.600403 -859.197083
-344.380707 935.414673 -540.046997
27.954239 767.005859 -1316.677734
-52.740814 999.354980 -520.408875
-113.605164 709.724365 -826.461853
-179.615677 975.363647 -524.885376
-286.613251 653.132996 -1333.893311
-91.553223 852.532776 -826.714539
43.954567 874.430420 -1291.089966
-55.494358 881.678650 -1308.098999
-261.993469 576.293152 -874.540771
-72.288254 769.953735 -832.500244
-103.362671 710.426086 -1314.123047
-117.243896 993.613770 -613.107544
89.028915 830.116821 -1308.837402
-330.214630 634.275513 -1312.908569
-270.829926 665.638611 -848.185669
-40.251926 754.561279 -1331.452148
-308.883850 636.992310 -1296.359985
-120.121437 987.226685 -687.519897
-134.925537 897.247559 -829.529175
-47.877621 621.076782 -878.786438
-25.115404 603.947266 -1330.729370
-242.251099 973.711365 -474.747040
-187.732559 1287.062988 -1270.801880
-151.256729 996.369690 -528.443848
-220.284988 766.276489 -853.670959
-124.361931 595.875549 -858.732849
-97.415756 594.747681 -1293.030273
-144.891144 982.632019 -621.150574
-91.016838 713.411133 -1312.504517
-49.199486 880.053162 -1248.637451
60.442722 840.290527 -1318.773926
-253.206741 967.981201 -563.635193
51.761803 885.549805 -1296.757568
-427.436646 778.461121 -1281.010986
-135.028885 607.839661 -1298.535156
-251.012451 638.750488 -1313.511108
-377.033295 726.804871 -1316.363037
-331.364899 940.733276 -646.242126
30.807091 685.187378 -865.221252
-134.274918 653.038696 -1286.036743
-284.139404 595.361145 -857.181213
-141.572388 567.236816 -862.246582
-112.209007 786.845337 -1296.767944
-295.041321 953.327148 -559.136047
-241.279175 643.253662 -1319.138672
5.300084 661.584717 -1324.146973
-321.197571 968.642151 -425.626617
-209.236389 725.218750 -1290.279175
-69.437538 687.535400 -1317.576904
-205.901917 594.676636 -1319.259521
-205.741913 726.730835 -821.788513
-273.159180 578.240051 -863.590515
-91.332756 992.056763 -615.786865
-73.809158 983.094666 -609.416443
-170.276825 892.147217 -837.143677
-217.738419 613.246521 -1340.394897
-269.075134 556.876526 -876.205078
-288.263245 928.120911 -1232.424072
84.065407 819.515564 -662.948792
-178.599579 800.513184 -851.574829
-185.630646 978.380066 -484.148743
-4.359261 659.397644 -1323.953125
-327.003784 736.172058 -1296.785278
-292.912567 757.457825 -1314.232300
-162.553665 599.816956 -1316.323364
-80.274612 997.566101 -716.707520
-364.309448 950.644592 -1283.182739
-364.167389 619.065796 -1313.244995
-243.371353 948.868164 -657.857849
-73.245987 985.442078 -1264.371704
-220.834793 769.372681 -847.205383
4.776950 898.988770 -1237.094604
-13.276509 876.091553 -1254.188232
-92.657059 652.198547 -859.909668
-145.868500 980.832458 -574.574585
-237.843307 562.188354 -1306.394287
-307.870331 942.484558 -697.914551
-317.730072 738.756958 -1297.208130
-182.550018 970.063416 -584.560730
-131.787689 727.222778 -1316.695313
-167.291550 907.161804 -1280.435059
-439.942932 686.191589 -1246.672485
-198.848663 752.905640 -1226.727295
-295.320953 693.881226 -1309.441284
-45.320282 628.225769 -1321.890137
17.603874 756.350037 -1329.909912
-221.222656 589.254150 -837.056152
-129.913483 921.549744 -1236.847778
62.731876 874.065063 -1304.136597
61.792274 792.395996 -1323.465820
-313.826965 679.651367 -1309.764282
-130.513290 779.270508 -1307.724121
-225.148849 651.734192 -823.169434
-104.721169 855.775818 -820.051758
-274.131805 950.515808 -538.539551
37.185966 889.954712 -1238.648682
-142.823853 670.094299 -856.497009
32.088047 762.457275 -840.199341
-18.919083 805.747437 -1321.208618
-367.456665 794.998169 -822.262939
-87.662148 853.443726 -828.064941
-222.358551 653.648560 -1296.254150
-233.067917 978.982849 -446.866791
-190.897476 617.309143 -1317.914185
-96.925262 744.271240 -855.126831
-238.060867 735.788940 -1305.514282
-107.411728 636.872192 -844.211121
2.973520 769.762756 -1305.269775
16.939142 829.475037 -828.042664
-106.610519 848.468567 -825.159119
-395.737061 711.509766 -1292.073486
-64.017433 568.649963 -1328.586548
-16.204018 619.701355 -1343.632935
-91.698929 649.082886 -848.521667
-210.898392 974.955505 -607.351318
-60.465145 901.430786 -837.147034
-1.913729 762.375793 -839.561523
-181.490829 582.646912 -851.095093
-27.704111 821.211243 -1295.279419
-216.410004 979.088623 -452.399750
80.473465 952.029724 -1279.186523
-11.064773 726.867065 -1309.615845
-150.010132 882.008423 -820.443604
-8.606230 902.187561 -1286.670776
-216.770691 584.341797 -1319.460327
-226.802933 633.564636 -828.363586
-86.612007 820.756592 -826.762634
-66.067780 1002.829956 -597.151062
-5.949913 655.754456 -1329.614746
-23.821222 962.208313 -1264.874268
-151.815506 866.789429 -1232.834961
-37.940964 871.202759 -1306.069580
-256.075562 973.642822 -465.076813
-181.603195 815.814880 -824.836487
-37.078266 638.140198 -1335.522217
-155.241409 978.983521 -542.943359
-271.021088 664.229553 -1313.082153
-46.412086 741.092163 -835.509888
-13.336290 694.246704 -1322.921509
-97.911911 586.039429 -875.980164
-274.701172 893.233154 -835.180969
-376.012421 918.988953 -615.111755
-226.855682 592.113403 -847.423462
-99.051895 539.566650 -1317.770020
-254.364456 952.304993 -576.396301
-49.775864 647.298828 -843.453857
-123.096924 891.015564 -1236.792725
-223.485229 760.516541 -826.259094
-201.867142 981.021240 -452.360687
-222.214111 878.866516 -847.482727
-238.915833 705.107910 -822.016296
-316.607330 939.555481 -549.451355
-210.134750 959.321777 -591.482849
-281.040222 602.824280 -1328.158569
-335.460419 946.234497 -585.160706
-207.935654 957.303467 -647.685059
-185.313492 875.018860 -1247.848511
-64.390259 889.786804 -1295.663574
-334.871765 768.982239 -1276.722656
-41.500607 886.431030 -1277.896851
-343.919495 933.759338 -558.016846
-278.316132 943.791870 -591.216492
35.270275 685.459045 -855.475647
22.372099 654.985596 -862.318298
-132.418289 836.003296 -839.516479
-111.054611 1143.417847 -1258.273804
-70.640312 736.235413 -835.939331
-219.579468 546.759521 -877.733521
-16.260664 627.686218 -862.967712
-248.373871 798.596008 -844.537537
-103.811478 755.854980 -820.539917
-395.469849 912.574280 -654.169250
-195.865005 713.792786 -846.527832
-180.414276 966.268921 -637.950989
-164.378220 940.032166 -842.106140
-139.580948 588.734497 -860.512329
-136.950623 924.830750 -818.074585
-285.169037 550.917175 -870.251526
-144.787079 749.534912 -829.055542
-367.306488 661.815552 -841.264038
-115.070343 1196.775024 -1274.779053
-313.252655 651.048889 -1323.003296
-204.588196 586.005859 -1324.705566
-269.316772 941.683350 -679.543701
-60.039394 592.605713 -1326.426025
-253.694717 965.315430 -644.834167
-45.945656 950.817322 -1273.059937
-214.349182 797.058411 -1161.792969
62.881683 834.003845 -1319.899658
-75.103806 948.118347 -817.747009
-45.026115 914.002075 -1232.852905
-416.011871 753.211731 -1240.274170
-86.681465 582.796265 -876.514282
