ply
format ascii 1.0
element vertex 1390
property float x
property float y
property float z
end_header
147.582489 279.663086 -997.218567
95.672768 210.461914 -1478.031738
151.293015 761.145935 -810.148560
-114.979225 265.363770 -1510.230225
239.328659 437.873199 -1035.591064
-76.976990 759.265808 -814.503723
224.268570 342.501343 -1013.682434
221.751587 708.082886 -956.154846
51.650398 513.224976 -1466.423096
-18.894657 682.140076 -1016.319397
-51.022808 237.428268 -1487.076660
290.673096 169.020065 -1445.437256
7.871359 739.913635 -886.040405
279.942535 314.460693 -1015.379761
36.301167 517.097656 -1078.304077
47.123138 312.706635 -1505.546509
284.929688 381.602905 -1006.470886
55.732628 235.671219 -1486.868774
218.471375 402.149841 -1446.759155
200.434875 394.492493 -1442.738403
263.508209 669.868164 -971.877747
196.747559 59.464630 -1421.815308
99.227264 681.012268 -973.348206
211.881866 80.028778 -1425.414429
350.788269 181.895584 -1426.356689
439.180450 387.282227 -1476.541138
244.937759 58.146675 -1415.689087
309.941895 295.697296 -1486.777222
40.866241 533.573730 -1581.432251
173.265594 245.022736 -1009.047607
163.162994 239.727905 -1453.783447
18.261974 524.678650 -1093.666992
191.597229 707.091675 -956.867920
226.488495 713.780396 -944.261963
186.753616 705.121033 -939.827698
189.967804 410.932495 -1382.849609
-141.548355 262.982178 -1476.552368
-0.320864 744.164856 -858.560791
192.308121 738.091736 -874.119690
149.712189 95.659073 -1445.727905
9.557922 755.550964 -816.787476
-163.797180 270.663025 -1484.968750
355.968689 373.868286 -1477.371460
199.381958 65.479950 -1417.543091
57.583923 472.635132 -1044.389038
350.510376 368.911072 -1481.680786
172.144516 74.385857 -1425.528687
183.933746 118.477623 -1438.067139
24.778332 598.093506 -1111.073120
262.586182 544.649597 -1560.046387
45.172230 352.504669 -1513.383911
300.513000 514.703796 -1498.586304
-0.273633 543.786133 -1101.728394
112.506607 366.951630 -1391.950317
111.873451 428.176605 -1053.299194
226.224930 765.236084 -818.532959
302.268555 338.083282 -1490.257935
360.857483 283.797089 -1476.764648
-87.275391 384.108154 -1056.781128
210.571884 699.304932 -932.665588
110.004738 255.100998 -1015.896240
228.341263 334.332306 -993.831787
215.399612 312.687744 -997.558899
200.573288 610.638977 -1075.808716
19.649261 545.829529 -1098.808350
333.204437 314.750519 -1460.288330
-21.380840 242.967514 -1498.914673
83.302742 302.192932 -1007.974609
94.446037 96.674408 -1453.514404
230.399429 48.592209 -1400.001953
364.130951 288.084808 -1475.901733
208.893127 391.800415 -1452.720093
124.829659 400.257996 -1024.277710
280.546661 398.883270 -1018.866333
88.379997 769.256714 -804.976929
319.883331 325.782593 -1464.392212
233.126877 508.377655 -1526.485596
-54.073826 749.907837 -853.066833
-6.889760 304.183075 -1504.301758
234.127304 562.648193 -1549.034424
-70.657135 536.378662 -1074.012695
75.560379 263.348541 -1470.934448
379.296234 210.239975 -1438.942871
-32.351376 748.664124 -849.454468
44.425529 462.444092 -1058.997437
188.049072 733.883911 -884.344360
324.380341 251.030304 -1460.556274
304.644104 471.365326 -1491.889893
248.709473 395.188263 -1504.469360
117.179512 715.054749 -955.320313
-51.594933 251.685150 -1489.061035
158.167526 432.269196 -1018.603271
135.803116 309.956818 -1464.577515
265.676025 153.921570 -1444.794189
51.626148 248.766479 -1491.046753
307.841309 282.975464 -1485.526978
-60.307045 334.248322 -1492.164551
-70.886719 700.465881 -949.445679
227.166321 50.798012 -1411.762329
32.706703 252.327316 -1477.713745
115.068932 253.353622 -1013.197083
352.459198 313.506195 -1481.113892
200.868362 118.277969 -1423.537476
186.118195 106.772034 -1452.835449
346.116241 237.890137 -1453.786255
438.434509 340.561432 -1468.301147
252.739655 420.714478 -1452.356567
100.413963 280.069366 -1005.579285
70.380112 294.567383 -1489.891602
-91.580406 746.933716 -864.467896
349.477112 249.328140 -1462.467285
438.082336 337.030304 -1470.678711
97.055717 548.978882 -1088.412720
132.001923 758.597595 -823.274292
425.237305 345.562958 -1441.367188
165.898697 753.315308 -839.456787
24.958525 776.702148 -814.445862
97.972137 758.924744 -803.293152
-113.023560 406.286987 -1536.279541
136.596985 620.134521 -1076.917358
313.899048 453.900909 -1016.396362
221.434570 122.586029 -1430.240723
206.275803 688.423828 -973.412903
24.552317 145.558029 -1462.015015
-26.947298 192.186523 -1482.303223
-34.250694 291.740631 -1014.919495
22.624697 770.879272 -805.601685
129.777267 41.163639 -1413.781616
101.684532 251.927734 -1472.320801
67.174606 279.759979 -1028.454468
-64.387505 743.325684 -847.851135
159.207870 681.224854 -1014.748657
203.439789 306.034180 -1003.723877
-65.573532 465.010925 -1573.724731
399.577759 251.302841 -1450.050903
-17.271271 336.269653 -1016.365662
271.452576 327.124573 -1485.581421
289.218384 320.262390 -1015.909058
55.394524 344.026398 -1022.024109
264.711182 418.427429 -1427.889771
-21.315542 520.237488 -1099.165161
38.016411 716.780090 -928.018433
12.159562 251.056747 -1495.623657
-56.729115 284.190796 -1026.104126
-29.039724 427.659698 -1050.254395
-11.111817 342.933441 -1491.064209
317.052734 610.671143 -1529.409790
206.853149 122.498299 -1439.116089
25.827911 353.217773 -1485.533325
120.473862 344.075714 -1475.575928
-120.012787 389.728546 -1545.007446
98.905228 346.273407 -1018.533203
15.521178 712.952087 -907.510132
201.394714 293.646851 -1017.641052
39.534843 238.850479 -1473.187256
-37.594872 714.665955 -930.168457
264.091705 506.629150 -1523.145996
134.429031 749.549805 -828.859985
370.594147 245.726181 -1452.413330
-2.002614 390.844025 -1494.017822
301.059937 112.353142 -1422.954834
173.539139 447.345886 -1049.708374
71.156197 264.860016 -1015.829224
317.573822 439.319183 -1003.172607
399.473816 358.535461 -1451.533203
264.825195 430.466125 -1013.613037
136.969498 703.631958 -987.970520
-9.281260 742.680603 -857.752319
196.234436 96.912796 -1438.255127
142.422974 302.868652 -992.769104
-55.422344 727.206299 -898.675903
243.023834 416.368988 -1507.996826
78.346893 678.956360 -999.831543
-0.102418 285.682068 -1515.863525
60.485054 387.122009 -1018.463684
97.970062 303.469818 -1024.954712
232.879089 262.831512 -1023.271912
273.506805 333.322876 -1022.482300
493.517975 421.606415 -1468.604004
251.668335 513.862061 -1053.847046
274.511902 297.290527 -1023.827576
182.303177 775.932068 -797.292053
301.130768 359.872528 -1031.684692
150.271118 285.020264 -1324.590332
19.848837 129.839661 -1458.315674
-5.999949 710.616516 -921.843628
234.137863 182.738022 -1453.942383
106.622581 284.125732 -1023.808105
169.704056 340.846527 -994.262512
349.823334 216.762100 -1445.707520
285.966705 417.081085 -1029.105347
207.479202 756.642334 -829.244141
153.408844 328.720001 -995.019897
133.308243 762.072754 -817.328247
303.349701 366.655701 -1481.983154
184.020706 242.654709 -1328.439087
97.429916 440.883942 -1489.716187
78.522575 215.247986 -1007.016785
183.747284 504.452454 -1055.493652
177.580032 239.782715 -1398.481079
160.539047 527.363953 -1059.313477
64.368607 796.602356 -780.505981
158.303757 489.183411 -1037.967651
127.024612 242.415924 -1480.281372
-48.774578 316.966980 -1493.371094
213.845444 420.180725 -1418.787231
38.378525 754.150452 -843.681213
192.624039 306.310364 -1014.383240
112.449417 279.310822 -1012.338013
-25.887646 606.783447 -1113.935303
199.363800 244.290939 -1016.145569
272.882568 438.216400 -1440.100220
67.506989 351.190338 -1023.806030
109.597580 762.467957 -800.822815
86.409088 296.942505 -1464.746338
349.094208 273.764008 -1469.854614
90.239708 774.527710 -790.721619
148.323883 680.816895 -983.879028
164.215073 227.241760 -1436.297485
152.135010 256.140686 -1296.874023
92.064598 728.625244 -893.500549
5.767358 676.150818 -1014.099487
306.646362 736.755066 -1599.119263
191.342102 744.426514 -861.802002
303.895264 483.269775 -1023.539917
268.509674 606.985779 -1078.702393
17.610933 143.084900 -1466.594360
23.369175 223.546860 -1031.346313
149.504074 377.914124 -1017.796387
294.079742 257.408997 -1452.045776
198.341156 709.890625 -953.756592
9.483469 196.741852 -1463.871704
-10.491706 765.556641 -826.382263
156.434113 207.189484 -1350.233521
275.070038 540.300842 -1526.922729
131.763412 700.632141 -935.187012
80.170929 327.703033 -1490.371826
84.721283 782.938171 -764.065918
-30.307844 282.472778 -1488.521484
323.409454 397.429932 -1414.710693
37.656532 182.790192 -1470.955811
211.136642 601.993896 -1077.330322
71.171768 793.887573 -756.901062
319.326508 173.454269 -1426.112427
3.369700 296.170868 -1015.378662
-24.344868 167.885452 -1464.293335
322.432922 233.051559 -1456.434937
247.109573 337.805267 -1487.239502
41.615868 357.095337 -1009.813293
240.167404 482.893585 -1032.831543
34.528183 114.596191 -1441.892456
-19.927832 247.240387 -1040.209229
82.390945 368.414368 -1021.552002
-94.294060 779.996216 -808.161438
156.692642 288.008179 -999.287598
199.311768 414.322327 -1027.970459
-9.782278 258.828522 -1033.326172
-30.625340 687.828918 -992.660095
432.139282 423.935120 -1490.690308
234.437515 313.541840 -1007.266418
487.596863 359.758636 -1463.243164
-117.039360 336.860077 -1525.558594
229.763443 146.143814 -1430.083984
77.600349 742.396790 -876.735596
134.933594 296.956360 -1004.620178
-57.154762 222.367676 -1474.902222
410.212555 391.269867 -1463.563354
92.966881 724.292908 -933.046265
41.767670 461.568542 -1051.987061
143.156769 377.712830 -1017.759399
210.940353 173.267578 -1437.216675
42.185432 557.848389 -1099.021240
14.535792 523.179382 -1083.817749
28.177259 311.551666 -1504.320190
260.459625 358.585144 -1014.127380
189.499405 793.832336 -786.389343
270.723572 328.815979 -1004.881226
-33.772224 312.590515 -1024.280396
249.315445 485.332733 -1025.946167
55.067924 138.107880 -1457.145752
-71.328247 270.040283 -1489.458862
202.050903 439.762848 -1023.496826
250.142242 363.857544 -1008.902832
190.760956 432.102448 -1021.334778
217.634460 167.363663 -1434.710083
61.469406 786.243225 -792.467590
156.229492 83.556526 -1420.378052
67.884445 319.273621 -1000.940186
-122.132408 358.657227 -1541.321533
0.919688 175.974823 -1475.918335
-61.196640 211.059189 -1495.991943
-73.866798 473.407166 -1055.579590
331.493256 420.789307 -1436.507446
100.824135 265.132294 -1007.432922
161.145065 250.148422 -1016.907715
172.876450 749.337891 -848.015564
311.266815 217.391998 -1461.718140
38.751408 746.615173 -835.896606
25.174351 405.319244 -1033.023926
154.053375 101.137619 -1421.420166
-35.294968 265.846405 -1027.859375
129.950165 87.054138 -1454.084839
265.893433 513.611755 -1521.744995
79.930016 99.311188 -1448.640991
9.943171 547.091064 -1090.685791
197.111435 297.488708 -1009.627136
108.255966 502.756714 -1071.815186
36.528790 325.853882 -1510.856567
231.053314 316.421661 -993.765991
308.047913 332.689911 -1480.759033
1.501161 387.480377 -1040.643921
121.284554 618.474121 -1103.958984
333.676422 393.094940 -1470.087036
272.655853 389.430359 -1021.816284
37.556332 183.701035 -1474.450439
64.394272 444.440552 -1042.328735
63.761204 268.828156 -1014.001831
166.985489 361.811615 -1445.966797
142.337158 789.143311 -754.118164
220.330872 67.186485 -1418.849365
74.856354 772.391296 -797.578857
-72.213921 367.200195 -1047.342529
66.920319 321.943542 -1510.230835
188.761002 101.698868 -1425.518066
75.112862 277.592285 -1497.288330
-57.760887 671.793579 -1010.481873
163.239655 755.866394 -815.791931
406.858917 284.950287 -1470.991577
52.939991 713.478882 -951.868530
174.654327 150.982635 -1405.775024
142.701111 702.428589 -939.308167
36.500145 196.756500 -1479.195923
93.997643 299.977173 -1477.933838
-74.377213 458.480377 -1068.739746
461.187256 347.921204 -1472.232544
42.130428 315.448639 -1517.886719
90.562202 765.376709 -796.901978
-3.004992 549.902405 -1094.659180
227.375839 492.397858 -1560.103394
17.455713 280.756439 -1014.405029
32.161480 707.256348 -958.409668
406.957764 316.879486 -1460.492310
98.464165 755.290283 -822.247681
119.059334 242.552429 -1481.103271
145.839066 105.955826 -1441.452881
126.211136 796.290466 -755.676819
83.157166 300.029877 -1007.117615
34.142891 793.564819 -755.312805
314.696136 242.707169 -1465.560303
30.089918 703.500183 -955.325928
325.268921 401.973816 -1451.393188
31.846992 138.176178 -1459.155396
58.484886 249.800858 -1009.412842
220.990250 717.430054 -918.115723
311.042755 623.892578 -1536.769409
292.072632 354.418488 -1017.572876
158.991501 367.318024 -1017.112183
460.831818 356.609009 -1473.972534
-88.507423 792.766296 -782.189148
119.442230 265.943085 -1025.785156
-5.152716 433.794800 -1055.419800
335.608643 431.834686 -855.065735
168.887207 182.369141 -1432.172852
72.973999 222.660507 -1494.500000
291.720703 146.387268 -1438.122192
155.699127 579.685242 -1074.702271
-31.361317 314.121979 -1029.218384
186.814194 739.432617 -879.994568
345.172180 153.235748 -1428.358887
256.636322 277.947754 -1476.229614
264.385437 177.207550 -1431.362671
275.804993 380.562012 -1467.075806
378.956116 297.571350 -1478.493042
55.088154 272.850098 -1002.862793
275.930115 789.615784 -1580.731567
232.386887 245.780823 -1475.865601
418.414368 397.023834 -1419.370850
46.779888 316.772919 -1510.763672
261.366821 313.594208 -998.065552
128.780396 721.746338 -923.949829
247.494507 234.194031 -1466.898193
188.725830 213.078018 -1356.632080
27.366734 668.797668 -983.491394
235.030838 359.754791 -1506.715454
73.134346 314.761322 -1011.005920
200.562088 417.026062 -1032.786865
-48.922852 484.053802 -1549.387451
153.279922 269.969666 -1368.081543
19.607225 772.429626 -793.054932
-61.438850 535.593628 -1072.943237
-109.036705 273.543304 -1512.994385
281.695099 581.922852 -1545.905884
337.292236 304.046722 -1472.264038
41.979858 696.997131 -1002.758667
366.255859 344.804413 -1480.311401
279.118408 307.798218 -1011.708191
334.339966 187.611908 -1453.477783
246.373840 345.844818 -1000.321777
208.230011 372.632507 -1489.848022
-16.332167 302.382843 -1488.826660
35.607010 695.261108 -942.342224
109.807297 238.808472 -1015.979187
-22.404327 755.316956 -854.249817
456.070129 347.170868 -1452.995850
109.265587 742.487671 -876.529053
-46.773018 258.398743 -1470.370117
87.679565 265.274048 -1004.483765
294.181793 556.804199 -1544.734985
174.863449 263.634705 -1006.410156
188.569824 82.182930 -1418.702759
-24.182411 759.721191 -837.403748
138.898193 131.086166 -1451.013306
-17.052347 275.760345 -1037.998535
184.509933 615.428040 -1080.731934
121.672050 331.466827 -1012.305420
-20.129610 789.379761 -777.698181
77.059334 303.632080 -1501.654053
228.892273 72.311378 -1429.441040
276.525482 356.740570 -1499.320801
333.164612 267.821472 -1462.455933
206.318375 470.858704 -1500.371582
262.760712 288.778595 -1011.909790
-16.395817 750.013550 -865.965088
204.270126 721.640686 -890.791199
352.332825 404.721649 -1435.615112
97.007729 735.305054 -873.025757
176.557571 511.141357 -1430.490356
41.824970 669.769409 -1011.022461
168.721161 448.849030 -1401.218506
-92.125931 334.342346 -1049.937012
92.299072 547.029480 -1496.008911
11.967558 170.585098 -1461.220093
154.265686 735.993896 -874.212463
283.745880 292.486603 -1010.383179
-10.873037 228.303055 -1500.268677
177.200974 743.708069 -853.592773
295.087555 348.222595 -1493.840088
197.835220 269.689850 -1012.221619
228.437546 57.793831 -1420.585083
470.202026 448.218323 -1477.651611
72.985863 717.742249 -938.597046
178.401932 784.844421 -768.548035
106.023071 670.398804 -999.683105
115.732033 468.404205 -1056.764160
200.840973 738.584595 -862.455933
169.850830 63.445923 -1429.920166
137.154694 798.789063 -777.416748
-73.525154 753.550964 -849.763367
210.693527 387.946594 -1003.964661
309.176239 382.581146 -1446.993530
379.677704 305.127838 -1450.197876
244.893066 245.870514 -1485.478271
76.851166 307.265930 -1008.582458
196.023544 774.238708 -803.349670
249.755493 349.204529 -1003.509155
-50.343700 722.555115 -912.112000
-71.896828 740.253113 -851.350220
-6.635773 231.225281 -1048.284302
113.712494 289.727356 -1494.579834
301.530823 494.641785 -1001.642395
203.436386 765.940247 -822.888855
240.061905 402.470154 -1000.699097
117.357529 336.917084 -1002.999512
66.373871 522.363098 -1084.971680
106.468124 795.481018 -775.706665
467.255188 336.812500 -1451.952393
266.117279 149.041809 -1426.445679
-14.833303 693.380859 -985.308350
254.873444 344.616119 -996.720520
356.106842 307.705994 -1470.216675
149.299133 738.848633 -870.384521
59.261410 754.928223 -827.438538
133.224655 790.948242 -753.442383
303.792175 394.132233 -1462.095337
-140.733200 281.275452 -1472.327148
244.163223 425.916748 -1443.554321
248.530930 270.184998 -1027.255249
216.608978 255.146118 -998.356934
353.777496 364.964478 -1488.079834
54.235054 511.689362 -1083.467773
50.389015 187.456528 -1484.567871
60.298149 528.700256 -1078.140137
466.398682 328.866302 -1469.421265
150.101166 244.512665 -1430.862549
97.844978 256.547699 -1011.863159
150.418518 189.987534 -1458.041870
200.519455 727.194519 -912.068909
275.476166 334.734985 -1008.324890
202.563950 110.049301 -1425.446899
144.647659 327.249847 -1261.728882
191.921967 268.994781 -1022.377014
152.748154 513.884644 -1528.084229
209.919754 251.342911 -1023.866577
-89.869034 334.979919 -1502.732422
-3.462102 755.570374 -854.913269
327.494080 345.801697 -1477.038452
272.771027 403.122192 -1017.194275
31.566406 579.398010 -1105.587158
276.199677 295.261658 -1492.039429
7.152836 326.876312 -1023.049255
72.848328 329.949158 -1025.928101
255.857574 132.455704 -1444.158325
-58.621521 678.438171 -993.925659
304.083984 312.462585 -1030.755615
271.707886 160.162323 -1425.617065
354.045135 184.667725 -1438.549072
38.125610 688.092712 -968.721680
10.445360 338.819794 -1040.127686
28.210253 529.824402 -1080.999878
-40.869892 690.647888 -956.675720
-33.929367 774.784729 -817.654297
338.856201 269.280365 -1476.145386
37.185589 749.309448 -863.070984
485.428314 356.190918 -1466.747437
186.123978 81.378967 -1426.079224
465.478394 325.917633 -1471.601318
70.796753 145.104156 -1457.572876
149.407303 61.889042 -1426.110596
212.762970 341.134521 -1001.489136
147.071106 768.725159 -780.672913
-27.866913 519.104248 -1096.648071
-74.077187 237.565872 -1475.671387
138.745483 119.119026 -1440.502319
-17.901983 699.952698 -941.933899
143.712662 756.617676 -804.355896
-30.912933 236.063034 -1481.579834
137.036484 245.693558 -1391.319214
-25.263920 701.113708 -966.317200
12.262733 726.516174 -914.866028
93.675255 106.194992 -1458.607178
72.798767 810.765320 -738.906006
19.893576 590.049500 -1094.503174
28.498499 452.267151 -1049.463989
-47.076103 334.352203 -1030.014893
96.349510 669.110168 -1001.253296
255.370255 341.665924 -1486.267822
-114.555481 708.874084 -913.431519
77.856628 727.877869 -1116.717041
303.586182 382.239532 -1446.945801
173.403305 436.391846 -1035.414307
282.134338 645.855164 -1550.212891
289.634277 353.089233 -1025.337158
139.450272 313.209595 -1260.567139
18.073187 751.129822 -828.238770
356.655029 210.040207 -1443.936890
266.555847 84.909142 -1405.863770
313.771851 328.682068 -1464.347290
-49.883606 470.252869 -1074.677002
22.925333 336.833008 -1007.306763
-4.257626 440.977234 -1042.100342
108.554543 737.587769 -861.880432
365.638397 283.707642 -1476.042114
-31.919216 779.763123 -787.055237
75.627121 787.663574 -804.490295
-99.752144 705.997864 -947.521667
19.191994 292.746246 -1515.989380
345.019806 180.750595 -1436.354248
200.098099 56.249866 -1408.084106
162.939987 418.316254 -1424.924438
221.342255 715.023987 -953.596008
256.018646 184.137375 -1437.733276
106.957184 816.722595 -754.815125
217.150330 693.317688 -980.551453
98.968353 790.613342 -760.348633
47.694279 445.970459 -1046.908691
47.042904 421.107391 -1030.235474
95.671852 784.067688 -769.142273
177.323578 455.002045 -1031.622803
127.208603 779.986450 -793.070801
227.812775 242.445374 -1472.697510
47.682892 309.645050 -1001.922607
103.187408 554.395142 -1089.197266
66.521690 438.807831 -1049.508911
201.785782 207.459671 -1459.757935
290.448700 478.363800 -1490.743164
-17.066584 323.004059 -1037.763428
7.225992 518.835449 -1083.607178
-1.889223 297.903351 -1515.991577
250.045929 688.621338 -988.124756
110.557320 733.672852 -869.829346
427.118774 415.781525 -1484.350098
83.081238 763.772766 -815.790771
48.681950 670.338745 -994.657410
127.339211 766.754883 -806.536072
221.878372 231.917770 -1462.161255
42.910519 159.817261 -1450.885498
-54.596985 249.379547 -1494.840454
18.785618 523.827393 -1536.689575
191.242691 417.102264 -1509.317261
55.952221 171.839279 -1467.845337
183.437042 254.969971 -1012.393555
188.700195 265.962463 -1432.769409
234.348877 254.638168 -1458.534668
-21.674107 706.443909 -952.318726
111.439903 729.628784 -888.206848
-52.620327 756.996887 -808.719788
365.150848 390.847443 -1472.051270
197.415863 354.990417 -1484.482666
213.340973 478.357025 -1025.897705
129.981567 811.596863 -764.728271
251.526474 212.580872 -1446.573975
-53.465733 360.906067 -1039.171753
-62.974762 730.803162 -891.111267
119.708656 62.964836 -1434.528687
151.902725 261.543701 -1009.491211
-55.983681 379.469543 -1036.824951
133.380524 262.200287 -1484.535522
-115.789993 246.241272 -1473.597046
295.936401 518.486694 -992.283508
-52.202785 721.695618 -881.525940
267.887512 613.982727 -1540.717896
128.741364 777.087463 -786.092224
68.668991 605.337219 -1092.167236
233.437759 413.128387 -1452.280884
164.876694 257.871338 -1027.196289
-26.378391 479.236755 -1073.194824
13.489903 732.050232 -884.503845
-115.451103 235.099350 -1476.924316
97.284859 361.729187 -1037.408325
368.083191 219.579330 -1456.942993
61.665733 677.741516 -989.948059
302.388336 191.147797 -1462.654297
-53.268318 680.078125 -977.568787
350.989471 293.144592 -1467.290039
339.850525 389.666534 -1452.838013
-82.624870 685.370911 -983.637512
141.769913 761.512146 -805.217102
244.614197 726.605408 -1583.354614
182.110992 188.614578 -1371.349243
159.382233 180.869827 -1426.633423
91.950714 801.190857 -735.854736
159.445984 310.755463 -1017.900024
9.389187 630.425110 -1111.484863
190.592300 748.957947 -831.998352
188.328201 745.778015 -849.663391
10.546053 673.481018 -1002.337402
260.576324 359.042603 -1502.959961
183.278732 248.879105 -1461.610229
66.008636 715.791443 -928.336243
111.540260 483.595245 -1062.014038
79.890770 755.782837 -812.816040
123.905151 302.338867 -1005.837158
15.010283 345.696747 -1029.642700
318.678101 155.263306 -1433.088989
333.895874 186.558212 -1439.875122
-79.096596 261.358795 -1435.480347
-71.838379 296.595734 -1486.058350
72.738892 629.600220 -1100.605713
-99.201103 274.215393 -1478.366821
65.769638 148.498260 -1460.179443
136.366776 492.085114 -1052.500977
-64.160477 773.983459 -796.087097
183.207062 752.951355 -831.733704
186.540756 770.383423 -788.649170
440.943604 444.024567 -1495.087402
30.804920 794.624756 -760.346008
-66.539047 465.719971 -1563.988159
228.404922 270.406891 -1032.044067
261.771515 386.171021 -997.484863
360.337311 408.260345 -1430.068481
402.118744 316.307587 -1463.255981
206.769974 236.298721 -1446.683838
234.735703 268.515167 -1475.742920
44.111217 230.451996 -1035.732910
241.741592 363.865356 -1008.362244
-47.906052 763.401001 -828.851196
235.792618 335.558136 -1487.598145
-84.919250 550.168823 -1113.817139
299.214294 405.517365 -1461.983887
-29.008608 810.492554 -771.481812
73.746849 726.258179 -904.480042
21.694981 261.527496 -1037.112061
114.001305 277.446320 -1495.110596
35.502655 342.213928 -1041.329346
376.817535 288.443054 -1449.517822
233.442764 535.092468 -1550.739380
199.221771 200.354111 -1446.785522
420.559692 378.639252 -1393.583496
116.957382 350.286896 -1016.160278
-86.343315 229.278824 -1492.379517
142.069351 161.774048 -1432.468750
14.515890 278.793121 -1485.890503
437.889740 297.176849 -1457.362793
190.442352 482.080078 -1041.208618
-35.794262 738.825256 -882.269836
360.200317 381.318390 -1451.506714
-64.908592 678.079895 -987.179077
150.661346 465.835052 -1027.009644
93.319504 772.240784 -806.442810
235.478912 53.958885 -1413.747437
221.389877 504.409454 -1518.771973
159.930923 322.447601 -997.198792
188.339462 695.792419 -970.385925
200.709442 194.443100 -1386.702759
238.091980 594.428833 -1078.559204
231.048508 344.085022 -1015.463623
55.657337 343.796509 -1019.275879
189.402924 158.608719 -1426.820190
185.332932 186.428574 -1432.521851
184.131027 687.769104 -963.187073
-34.037399 452.940979 -1066.368408
225.220108 489.575623 -1026.622559
32.308872 749.401611 -845.332642
144.278290 690.455383 -956.223633
226.406357 753.552124 -841.045898
8.862900 736.221497 -875.520813
209.669189 611.888855 -1524.763916
116.091904 211.133316 -1476.221191
148.329193 347.405579 -1304.731812
319.772491 293.913147 -1478.951782
157.027222 761.107117 -805.559021
232.900131 724.063232 -912.741455
-59.998981 294.213379 -1025.465698
57.519485 448.219727 -1073.313354
126.634254 820.442993 -766.008301
131.354111 177.245132 -1455.791626
-30.274166 431.972870 -1389.679443
445.876129 446.417877 -1482.928467
215.053497 78.627495 -1417.213135
220.553055 350.835236 -1000.895752
339.661560 295.231628 -1481.805542
65.350006 697.333679 -995.085876
212.958984 294.003662 -1002.147095
276.075043 105.900772 -1410.552124
154.117889 583.191101 -1088.488281
149.821075 430.327881 -1019.237488
299.667450 407.047058 -1474.192017
39.985851 493.897614 -1063.364502
-19.766880 734.122131 -897.486023
55.313026 703.130005 -977.230408
308.148712 463.874542 -856.404968
261.918793 258.358002 -1482.870239
118.925102 170.410934 -1484.379028
116.070801 717.288696 -916.278259
325.166870 411.165100 -1444.749023
-75.502655 216.689636 -1498.946777
128.724487 149.619431 -1457.697632
-77.455643 339.044830 -1038.240845
218.962662 175.668839 -1412.379150
-27.029291 794.158997 -761.888123
87.458344 287.759399 -1497.306396
104.442490 121.610191 -1447.617554
238.636780 252.122452 -1017.381775
218.819031 418.449341 -1465.834106
-119.245255 238.961212 -1497.823364
302.879242 771.865662 -1592.878662
-52.305355 220.839157 -1502.123779
137.271561 228.781967 -1027.848511
76.048515 260.407654 -1465.310059
-91.591324 708.355591 -897.398926
142.406281 725.833923 -898.614197
162.902206 734.682129 -856.508362
4.803469 334.940643 -1477.134521
-46.181759 186.110001 -1484.942871
130.080444 278.813049 -995.846924
32.222126 687.029358 -1001.666443
257.066956 346.536102 -1002.913757
1.705433 779.394287 -783.380249
107.978722 727.599731 -901.870300
2.222069 661.296997 -996.662903
456.939026 353.395996 -1469.605347
-28.093250 742.051758 -854.230469
33.068573 719.463379 -924.038757
141.925354 257.230438 -1004.795959
305.441101 777.525391 -1574.323242
258.468933 192.268173 -1454.161011
84.241234 715.582458 -932.261414
108.674217 509.303589 -1057.672852
146.683075 525.787659 -1050.344727
-62.792679 795.284668 -771.209167
84.242996 692.920288 -950.919006
180.171448 257.724701 -1010.328796
127.720657 736.665344 -876.596130
22.267170 488.535400 -1070.269531
323.170563 261.266083 -1446.527222
-50.294662 303.297241 -1403.450195
76.591156 534.277710 -1078.387695
12.056303 134.771866 -1460.297729
138.557526 782.584717 -762.928101
179.022888 795.611267 -782.760376
-53.152664 413.337097 -1068.624146
393.865875 353.089355 -1462.298096
131.958527 86.369492 -1448.218628
161.743759 388.043793 -1007.482056
222.777710 361.560364 -1015.039124
-1.646979 176.030045 -1474.657593
-45.930862 766.924866 -828.292480
66.281883 508.049530 -1069.359253
460.220276 326.436646 -1460.547729
303.165253 442.942657 -1495.610596
192.113571 151.255386 -1399.488525
116.583672 690.636292 -993.046570
176.857620 241.140182 -1382.823730
385.354645 322.438110 -1452.331787
120.074760 191.649246 -1480.535156
96.597382 408.807739 -1054.634277
205.658081 346.466705 -1482.048096
363.265869 172.340759 -1447.053711
238.743103 309.728912 -1500.784058
121.556252 110.027916 -1447.687866
-134.443253 736.758789 -896.427917
173.769440 251.312897 -1462.064087
122.389977 70.353416 -1421.918823
441.478058 404.811127 -1483.366455
129.391998 120.421486 -1444.455688
-94.518082 252.187927 -1462.677979
428.154083 318.773651 -1455.030396
-13.051280 307.183350 -1499.955322
247.232407 568.795044 -1057.059204
10.223134 338.951508 -1429.841553
7.424464 835.254822 -766.010803
135.691162 304.205902 -1002.594727
21.881147 761.908630 -846.664368
159.151352 495.195496 -1058.497070
34.413464 757.189453 -811.510925
447.892761 322.933350 -1459.895630
250.339661 690.122742 -1001.006042
49.520885 352.307343 -1487.697388
93.399734 184.115265 -1481.424438
100.544655 751.663940 -873.310303
225.559555 750.256348 -848.808228
184.416977 393.596252 -1032.282593
52.608433 313.380920 -1014.882690
-103.868721 698.810974 -966.890747
27.628420 703.351990 -972.869141
-22.263212 782.677185 -805.585571
-55.023224 731.447510 -866.154724
180.464630 475.514343 -1040.099121
190.850571 217.083359 -1348.796753
-13.420973 319.546448 -1041.407959
54.459946 127.663017 -1467.424316
251.076263 420.398926 -1488.575562
273.560577 312.950867 -1467.032227
378.276001 420.086243 -1431.234253
168.507813 357.914612 -1488.720825
103.462631 275.607330 -1464.733032
267.435577 539.463684 -1490.038208
113.613495 797.526733 -773.411499
-41.838913 532.072388 -1093.677856
53.479824 754.583313 -816.935181
43.959068 333.957855 -1017.497437
-58.164616 759.322083 -819.259644
262.971619 75.610016 -1426.994507
219.201126 509.153961 -1529.730591
150.509689 776.691162 -775.599548
307.443665 149.187851 -1444.486694
115.267990 407.549713 -1031.140869
266.586670 648.154480 -1532.138428
63.394138 749.192993 -835.956726
-26.245527 187.584167 -1482.206055
285.097198 250.588348 -1466.453979
257.973267 527.295593 -1034.857422
285.202301 320.657959 -1002.946228
287.486237 106.746155 -1423.945435
-87.619812 278.728973 -1508.248413
58.800224 770.212952 -792.504150
68.827019 739.323364 -869.988281
28.790905 777.829407 -826.874634
-89.279457 703.799805 -918.905701
-57.556511 267.535583 -1015.157898
29.594940 722.354248 -886.804138
273.130859 419.283539 -999.186340
85.853424 757.328674 -818.966919
276.763214 186.222824 -1435.317993
259.113037 119.598038 -1434.347900
245.992111 138.420197 -1438.958862
250.065994 201.426636 -1466.645264
198.816544 175.561493 -1456.428101
300.453674 313.959137 -1479.109863
-62.875221 761.164490 -815.767822
416.486969 450.404572 -1498.975342
229.503906 68.204987 -1438.608032
21.617136 219.207565 -1015.879272
170.516068 244.317734 -1015.879028
119.864021 80.266312 -1424.723877
168.867310 53.865555 -1422.012939
100.801987 111.459427 -1464.040649
78.975685 755.211853 -849.201355
-28.266378 284.245697 -1477.039917
247.032761 357.283600 -995.071472
28.866346 451.893707 -1068.147217
315.585022 192.880768 -1445.427979
325.510681 411.391449 -1447.209839
127.353828 375.936768 -1452.201904
306.119507 749.408691 -1568.155151
-48.287437 358.665009 -1515.122192
278.102203 402.185883 -1445.573853
232.263214 450.670715 -1013.999878
161.549637 181.620712 -1465.701416
-17.878271 748.905884 -860.057373
243.131180 169.511902 -1440.664063
-6.487678 749.495789 -847.453430
284.621857 383.495483 -1464.700806
22.730343 795.541748 -743.683777
-70.705528 694.631531 -965.541931
121.755211 285.699402 -1003.606567
253.797989 499.045319 -1530.839844
3.147226 683.687439 -978.141907
54.686211 264.928101 -1492.492432
196.792923 381.524414 -1440.177856
310.579407 506.416656 -945.845764
202.281601 779.637512 -807.178223
148.515366 256.706085 -1009.939575
38.839622 501.104370 -1068.510742
247.768295 343.288666 -1479.728394
-45.142529 229.719559 -1477.331177
-31.971020 564.943665 -1094.001465
299.219482 347.585175 -1005.896973
-87.714142 325.586426 -1495.096436
145.104813 274.821716 -1469.779663
245.548584 246.286438 -1021.792236
168.127090 48.138763 -1423.731445
41.372017 251.251266 -1040.087524
-116.007607 694.697998 -930.894958
-77.563339 767.450684 -808.230469
283.092621 346.962708 -1003.479614
206.579956 532.010498 -1040.429199
-19.023695 305.963898 -1012.428650
-8.576446 717.138306 -909.505493
415.153870 289.794739 -1466.061890
206.553574 520.371216 -1534.200562
-16.744940 218.319290 -1474.715820
-12.612281 676.678711 -1021.849060
218.504288 509.205566 -1492.668701
-57.509052 414.247894 -1047.352173
170.659271 728.698669 -900.889221
218.106064 78.327492 -1431.600830
110.923485 725.807007 -907.912415
71.795341 262.147156 -1504.080322
-21.142883 756.777649 -874.887756
16.283632 736.388550 -856.910522
-128.919067 231.640228 -1480.148560
272.944427 422.330933 -1467.515137
-10.547750 763.299561 -841.571655
93.186371 712.903870 -942.201965
117.598083 142.520248 -1438.698242
199.510117 781.987549 -796.598450
-25.423960 341.882843 -1034.376343
163.373047 790.253418 -770.731262
111.982445 154.187546 -1456.769653
192.528046 365.016418 -997.121826
85.478355 151.671356 -1448.007324
-40.009949 675.493530 -991.640625
-7.852185 463.142212 -1063.437744
324.187134 214.658478 -1462.436401
207.069733 262.631561 -1463.570068
-5.749548 305.959259 -1021.542664
-17.861761 499.465149 -1087.415649
255.258392 198.967941 -1466.556885
320.361328 256.359650 -1451.486084
197.677628 747.292053 -859.615662
23.770952 227.332703 -1488.636475
205.938492 390.318268 -1034.206665
49.642136 690.777100 -998.229980
-7.725837 830.237671 -769.239136
205.413925 336.980255 -1499.994629
280.589233 397.253510 -1488.035156
327.167847 260.471008 -1463.698608
458.654541 359.055359 -1468.571167
202.954025 522.024109 -1542.702271
108.998894 806.649475 -739.415588
28.026001 441.990112 -1056.201050
-55.227905 421.812073 -1053.997803
453.857056 303.590485 -1456.604370
98.067726 702.361877 -930.694702
68.428154 767.388489 -812.469543
111.207741 734.195007 -877.499390
281.494263 135.194534 -1432.448853
101.549690 317.437866 -1501.290039
167.652954 744.577393 -842.359070
-8.643984 764.556702 -818.075012
74.110611 764.080811 -850.931885
248.941666 314.820404 -1493.579468
62.460529 245.286438 -1028.489258
138.104813 716.331665 -920.252747
296.855927 374.616882 -1014.401855
60.609982 708.614380 -954.265076
99.005035 691.751709 -1003.542969
63.406158 376.420471 -1513.321289
21.819077 711.660767 -921.738647
218.891403 515.164063 -1542.024536
223.224350 276.200378 -1016.272888
28.463121 749.570190 -828.990967
85.517128 707.032166 -963.299500
-44.516125 683.688416 -976.093872
179.667618 294.956543 -996.064636
293.564270 358.139557 -1026.334473
245.390701 743.258484 -1563.602051
354.659790 382.117676 -1463.809937
154.200089 745.019348 -1604.905640
148.998444 182.693146 -1466.489258
-13.935513 722.742065 -921.056458
-48.396492 738.330017 -885.031250
158.304031 420.283020 -1385.954712
-118.146194 232.022552 -1488.771973
49.076160 149.499466 -1464.790894
302.710266 214.304840 -1452.969116
181.696259 564.660706 -1078.619995
386.515869 263.182343 -1438.686890
157.283539 333.164520 -1479.217896
-134.260361 252.903625 -1504.011353
9.691832 793.011963 -767.254395
-65.343399 668.756409 -1018.525146
139.146896 700.783264 -929.866638
51.919174 248.933868 -1027.379150
256.511322 367.423767 -996.900513
70.759155 153.672150 -1459.647583
228.620346 192.668335 -1450.800659
406.912384 296.060730 -1474.172729
188.225967 258.651611 -1009.879211
-4.102463 276.185822 -1486.135986
288.297028 346.392761 -1011.372009
152.273819 780.581970 -784.823730
151.814240 567.862061 -1061.200195
221.536957 748.559021 -859.811951
255.901230 217.275192 -1476.614014
69.235474 722.428589 -931.494385
228.347885 78.245216 -1439.196167
379.382050 197.564651 -1443.582031
52.984539 268.655304 -1017.507141
79.810310 804.694153 -759.001221
361.807281 321.101471 -1457.598145
198.193451 337.445343 -1021.877136
143.336243 715.465271 -897.799194
65.193077 733.240906 -903.911621
333.264801 177.044022 -1436.925049
105.572014 242.751556 -1012.666199
-21.493139 411.858093 -1051.126099
180.808701 730.845459 -869.865112
-59.192905 309.106995 -1028.560181
369.088959 200.322845 -1444.383301
-99.872643 748.602844 -831.383057
195.340820 424.992645 -1034.883545
100.012527 288.999054 -1024.547729
137.378860 779.336853 -777.722595
202.770370 276.214813 -1003.632813
136.324310 372.641357 -1034.325928
283.949951 537.064026 -1519.731934
-78.529076 298.958618 -1034.780396
95.175209 158.631973 -1444.773804
163.185516 748.659119 -821.743591
-89.964523 756.523499 -859.768982
321.700165 317.801178 -1487.392578
215.753326 336.948822 -994.961548
17.500584 344.653473 -1495.923828
-64.041870 372.495178 -1525.642090
-37.896263 443.851746 -1423.365234
-37.993362 410.646210 -1050.451782
126.741859 726.453430 -902.263550
211.099594 481.774689 -1046.363525
-94.307358 732.641479 -864.727356
298.070038 322.828522 -1483.155640
319.246826 251.186722 -1460.555664
193.976013 778.356506 -803.884277
94.259338 196.981369 -1475.237915
-26.991085 730.318726 -871.445557
291.590118 300.606934 -1479.024292
200.203262 106.152435 -1424.421143
308.547821 161.642868 -1447.970703
-91.832359 716.440186 -916.192932
50.087486 409.060516 -1028.915527
34.095062 755.375610 -855.132874
-69.071777 289.276154 -1033.818970
-1.240706 522.280518 -1096.070923
3.291851 291.781189 -1029.538696
259.049438 758.757507 -1575.898315
250.735519 333.502869 -998.813599
236.923447 694.776733 -951.446716
122.785728 776.739868 -783.916016
305.842102 779.942749 -1608.939819
212.595901 398.361115 -1026.651978
78.636322 694.090820 -951.532776
209.781967 468.474518 -1507.160645
108.817566 752.474487 -853.150024
20.295769 772.004333 -825.884949
25.910999 377.663544 -1036.076538
80.690689 365.006012 -1009.809326
403.520660 302.467621 -1469.135132
-34.149647 166.277679 -1474.235352
-14.877023 745.294556 -870.739075
-29.669411 301.336517 -1441.729980
224.401321 196.088669 -1450.180542
130.772507 107.398598 -1429.892090
278.673920 279.074249 -1459.276001
-87.374557 700.646545 -943.684143
311.373199 132.671539 -1437.006592
293.266815 523.059875 -1536.999512
142.145065 251.835892 -1015.438904
254.233398 318.228516 -1470.774414
100.908974 752.361572 -829.752197
88.562492 758.066284 -828.110840
123.597534 354.076385 -1016.266235
-12.102960 601.844482 -1131.353149
221.406555 413.628052 -1020.777649
106.840637 372.149200 -1038.629517
46.375896 753.874573 -819.895264
54.214973 772.263245 -805.710938
408.161438 341.798920 -1446.374023
107.973267 465.018738 -1056.821899
-62.759403 308.874603 -1445.206665
-59.704319 721.187439 -884.623657
248.420395 244.152725 -1454.272583
-37.802395 617.800110 -1121.963501
319.551392 763.026184 -1584.355347
221.482452 202.961685 -1459.735962
315.128876 323.521820 -1488.743408
274.159149 145.754883 -1454.677490
16.015493 390.975708 -1061.848022
100.505806 384.089142 -1026.923584
29.240421 290.677155 -1003.213623
252.590485 517.296936 -1556.319580
94.713974 747.407227 -883.497742
293.821564 795.662964 -1591.106689
130.646896 127.965569 -1464.626709
314.635803 421.017090 -1444.402100
169.564621 535.251099 -1071.548584
98.552109 371.974091 -1516.618530
245.032104 527.447632 -1544.218628
149.976456 590.425842 -1100.109985
-67.047562 786.383240 -797.713989
190.059555 772.396423 -1584.644653
9.472973 731.417053 -906.222534
219.128784 354.115631 -1481.803345
128.506760 811.495789 -767.516663
254.228180 302.174316 -1004.319824
92.905174 600.714355 -1103.350220
204.907028 247.581223 -1460.097046
282.205811 334.144684 -1024.964600
60.537060 792.116211 -759.285461
-32.617214 309.501007 -1025.451050
328.539551 340.395142 -1478.253784
83.192291 325.594086 -1033.636963
274.583038 417.437561 -1461.295532
213.184799 131.033142 -1408.158813
-22.572088 790.459106 -766.888428
-81.428940 717.845093 -916.142761
114.117264 357.330109 -1013.751160
296.899017 550.644897 -1005.236755
-34.010117 742.623474 -846.886475
306.328003 159.203766 -1420.933838
178.331757 733.621033 -882.248901
29.792526 696.415161 -997.757263
131.237015 320.724548 -1013.610962
352.049835 194.369217 -1429.824951
144.691483 283.585266 -1009.407715
36.349400 744.062744 -876.385132
237.353607 322.248260 -1017.839294
422.001343 313.269836 -1472.391357
77.884644 785.295654 -789.206543
296.956146 622.006897 -1510.677002
-5.761292 450.332520 -1529.095459
174.389511 68.987381 -1430.886597
-8.401580 707.751709 -926.031250
132.204056 792.745789 -785.321472
30.484642 251.845810 -1039.516602
43.456795 427.848694 -1045.907349
100.462479 487.294098 -1078.235962
134.869827 317.658539 -1005.372314
426.251282 367.408539 -1457.854614
114.136002 807.076050 -765.783813
97.290573 729.702698 -898.058411
-46.537727 258.096893 -1469.783813
36.593460 381.311096 -1436.058350
225.879501 527.009644 -1544.701172
101.022278 272.311798 -1025.180908
394.636322 369.401459 -1453.603516
235.619598 378.008179 -1472.758789
-48.189125 304.312500 -1512.388672
464.973206 442.103851 -1482.107910
319.362274 720.757996 -1585.924316
308.780701 318.550232 -1034.310303
54.921501 809.625000 -741.827942
128.547913 93.125168 -1435.825928
221.585114 492.835358 -1485.701904
3.892778 373.946472 -1058.195923
125.209084 714.335266 -941.930054
173.958511 706.284058 -964.107178
259.264740 552.803833 -1541.199951
442.013123 352.356781 -1467.807007
214.190781 757.580383 -842.667603
25.205965 585.350464 -1098.175903
195.320160 537.304016 -1058.438721
-14.028681 546.597107 -1071.889038
70.602943 679.265503 -988.704773
130.474503 743.809753 -860.885925
-29.945158 338.041229 -1497.246948
194.985535 751.555298 -835.458435
400.195404 335.977386 -1475.434814
54.321976 568.193848 -1089.118042
198.067093 459.361938 -1055.322388
84.547691 724.597534 -907.133728
20.911894 188.529221 -1499.258301
-20.802340 459.942810 -1047.550537
60.157578 171.048462 -1480.812744
234.664932 131.788452 -1438.583008
-16.660969 258.687225 -1038.768921
24.268303 189.490692 -1477.546753
139.129929 52.006935 -1415.587769
17.607420 352.664398 -1508.900269
295.985962 214.157990 -1453.616943
75.565590 315.484009 -1023.342468
268.880066 414.848816 -1429.939819
-64.089401 772.971130 -797.893738
140.652023 382.974945 -1040.557007
90.125610 357.637787 -1010.210999
-45.467381 274.263245 -1028.771240
113.704933 423.021576 -1019.108582
62.684513 313.430328 -1517.751709
349.071350 439.692261 -1026.040649
275.088470 182.300369 -1448.685059
-30.036348 741.803223 -859.959656
133.524368 275.963562 -1486.104126
63.496853 262.637451 -1479.945557
164.175888 750.232361 -825.792908
149.603180 799.285156 -746.706665
217.955292 435.324097 -1035.327759
443.750977 332.133759 -1462.421875
129.530487 300.436707 -1002.795410
256.549377 93.280807 -1432.452271
-60.207237 770.314026 -822.950317
95.479172 156.151031 -1464.220459
163.941498 120.389091 -1443.317139
352.591064 209.911362 -1459.057373
-146.338882 256.967468 -1481.555908
33.083481 300.929108 -1025.029297
49.165012 746.096741 -835.823608
25.955145 710.075928 -914.958618
102.902863 758.443665 -810.522156
-88.598473 257.471222 -1512.175659
54.720852 763.564514 -810.601318
217.808487 71.914185 -1424.324951
86.225960 785.465332 -786.569275
247.297180 254.818695 -1019.043152
148.914780 47.806606 -1408.928467
161.178726 242.970383 -1449.687012
323.670197 153.280548 -1417.127563
225.195084 443.741180 -1451.030396
246.356140 683.980835 -951.753235
191.404678 777.292480 -803.893921
289.838959 350.905731 -1492.376099
64.753738 372.915710 -1482.799438
172.481491 749.478149 -829.478638
-4.474588 227.466888 -1045.702637
-25.910976 308.534393 -1026.253906
266.419434 395.672455 -1018.410034
-4.295344 207.331192 -1486.148560
126.312080 763.491150 -802.541321
366.334625 239.055496 -1437.277832
166.554428 420.234711 -1022.123535
-32.637291 363.727661 -1467.865234
23.482845 283.539886 -1515.492065
37.842136 762.043762 -815.061157
207.486847 679.373535 -988.748047
205.500351 452.835846 -1052.412720
-13.226508 562.932068 -1098.677002
110.993469 262.593689 -1009.002686
219.544357 386.528107 -1025.405273
196.336456 693.537659 -936.502991
-118.330803 382.735779 -1545.955566
-77.879807 689.482666 -963.170654
217.957565 521.885986 -1545.682983
333.595734 199.725891 -1457.305298
93.611938 758.949219 -814.360596
-37.524014 743.995117 -868.282776
68.757133 814.968445 -774.889771
21.033766 686.085144 -1008.680359
136.043182 226.639694 -1426.094727
236.615387 381.033966 -1495.994873
-9.078765 213.388687 -1496.883667
127.287346 746.457520 -855.418213
297.345917 551.656067 -1547.923706
288.714294 492.805328 -1512.790894
188.356735 63.782726 -1408.507202
299.183960 169.164185 -1442.524902
96.774231 173.676315 -1449.452637
-3.776377 328.951538 -1513.837524
290.945221 706.915710 -1576.108765
21.677895 787.877014 -757.021851
462.193420 326.056976 -1461.475586
172.340897 82.387497 -1439.176758
-61.925632 711.995972 -938.056946
240.950684 199.273438 -1472.922729
135.377045 734.079834 -856.147583
-33.172577 380.738068 -1055.847412
-9.594020 315.680206 -1011.794067
-27.343735 588.487122 -1106.421387
145.019348 411.880707 -1012.719971
144.885315 45.474892 -1422.227539
201.832596 281.370270 -1482.004028
-51.283752 698.692810 -942.295715
-6.004474 249.678192 -1496.962891
30.565670 274.798645 -1512.974121
260.078003 383.178802 -1478.748291
417.823944 458.438995 -1463.239502
86.738014 385.391968 -1016.674561
-22.575090 299.757080 -1483.353760
293.769562 254.293167 -1465.865479
373.831299 210.159195 -1451.861206
138.576965 690.042725 -983.206787
-17.577063 298.598877 -1007.769409
122.068527 723.077148 -891.110229
42.442802 281.721313 -1010.532959
185.663452 781.548828 -773.448730
306.864441 401.946228 -1459.082397
153.434845 232.730347 -1029.189331
337.654175 389.382874 -1478.367065
76.759888 739.007141 -879.657715
139.719147 289.434235 -1005.703064
204.460617 340.235016 -1002.080078
-14.338762 779.737000 -783.907166
126.920227 737.081970 -878.037476
-94.289360 729.306030 -870.386658
64.812546 326.340149 -1013.390808
302.047333 125.081467 -1438.836426
352.589539 443.076904 -847.137329
414.067688 268.192780 -1466.292236
-30.743464 192.307434 -1485.623413
392.789429 464.982208 -1492.323853
176.669586 392.208221 -1016.472656
212.164505 752.577881 -1573.971558
40.428497 339.413452 -1435.804688
262.037048 398.283997 -1506.672852
277.377502 552.767578 -1523.039307
417.872284 368.288116 -1428.957397
250.378983 266.048462 -1458.542480
-38.763748 775.004761 -816.121033
436.361969 360.837372 -1448.623413
-97.314034 237.992996 -1517.561401
-18.674471 759.071838 -842.721985
452.134857 304.275391 -1466.852417
171.869858 415.588165 -1467.948364
94.894806 286.476654 -1005.691589
5.413746 348.666290 -1441.867676
101.574257 703.788757 -927.827942
363.070465 432.814148 -1463.450684
193.341583 421.818970 -1010.597473
190.720383 259.810028 -1017.662292
28.769730 816.220032 -738.760681
-41.424450 395.433899 -1044.133057
202.383514 773.022766 -1589.614624
235.928513 463.032043 -1027.341797
-2.431884 148.705154 -1465.650513
-16.954889 685.280334 -976.855103
385.810089 295.389130 -1464.391724
160.141830 313.344482 -1006.185059
194.008682 808.255859 -776.531372
111.885452 786.890869 -765.720276
287.727783 382.947906 -1504.616455
150.666931 749.057800 -844.697144
-32.606930 679.614502 -972.813354
-74.112930 707.611816 -920.334656
63.870964 794.799011 -759.727234
381.805847 446.192688 -1504.503906
99.136818 104.439919 -1444.760132
36.031372 495.868042 -1081.396118
137.387344 421.130463 -1325.802002
-54.785671 335.063049 -1028.166870
354.331848 218.710114 -1430.264160
222.846085 367.736664 -1025.888428
417.272034 435.220947 -1481.953125
147.388321 515.404114 -1052.222168
325.102173 141.861511 -1428.847900
192.746002 163.178909 -1422.870483
375.202087 263.833923 -1440.085938
131.345947 433.419678 -1023.285156
337.859375 200.280701 -1442.963501
295.234161 189.394165 -1455.563477
-83.000717 445.102936 -1574.782349
66.706467 788.509888 -764.378540
69.901947 713.519043 -906.654236
339.697052 332.220001 -1475.844360
223.051300 705.789734 -969.288025
55.389889 780.263672 -780.572266
197.237915 735.502808 -860.452393
93.202278 320.492249 -1008.713013
141.265182 495.160950 -1063.891357
138.445374 259.333191 -1008.597656
205.307114 69.077530 -1407.890137
0.906816 728.604187 -872.515320
2.078018 181.791641 -1464.879639
127.427361 715.450378 -955.588379
447.574677 360.250488 -1456.153076
152.692352 760.577576 -824.746033
129.246613 257.334961 -1000.577332
56.555107 199.369217 -1462.105591
265.439575 400.967712 -1006.365906
230.353455 458.350098 -1027.112305
216.561737 70.470924 -1421.335083
164.436157 209.675186 -1456.402710
92.112831 370.805878 -1413.265991
