ply
format ascii 1.0
element vertex 1431
property float x
property float y
property float z
end_header
990.015808 424.397675 980.430725
868.017578 626.920837 1129.375000
1128.322998 481.564026 901.296143
1011.127441 623.444519 872.005432
911.930908 419.180481 1112.645630
837.727478 742.733582 517.984558
1131.121582 544.273743 897.786926
728.532043 836.845642 506.875336
531.715637 884.548462 467.714386
682.128357 582.339722 684.533936
802.738342 397.140320 599.447266
544.104309 874.356567 666.383423
585.337524 898.714417 284.388153
1044.892334 459.286469 941.636414
980.991821 487.973022 1058.888794
661.974731 856.642944 317.590881
1067.888794 640.372986 866.833862
1001.841675 408.761230 1008.870483
950.377747 325.545776 1041.674438
550.911743 610.768738 782.740173
691.143250 707.311890 696.979675
983.149658 714.924866 919.417480
657.952271 749.530151 712.253174
622.221802 860.755615 402.553680
830.602661 519.515625 501.883545
550.263672 839.759827 652.968994
938.045776 667.579529 1037.499878
637.194641 513.697388 730.097351
774.808289 551.628174 568.711975
915.963928 606.595764 1100.089844
1011.859619 327.402344 959.410095
1094.443604 486.935394 915.191284
747.725281 424.410797 609.962830
974.526550 406.546936 1043.651367
474.619171 887.978088 455.791168
589.811829 860.978821 518.270142
1161.483276 409.670258 853.643616
702.092102 845.126953 495.872650
962.995605 425.402802 1029.793457
870.803284 599.930664 1131.880859
946.202759 517.667664 1080.500610
500.278107 887.455566 532.655640
568.467529 847.456726 668.795227
1017.091431 535.535217 934.650146
692.625000 450.386627 663.575867
1008.788330 489.018005 979.784546
451.639526 899.984741 456.035400
995.816895 575.535889 1028.584839
1041.321655 353.009857 932.846558
996.700012 906.419861 1043.668579
552.232117 899.428589 360.634613
752.840576 418.751801 585.476868
1064.332886 637.474609 711.148010
525.697205 879.163757 520.586060
1091.178833 742.870239 849.142029
733.615967 602.130432 616.689331
956.285583 404.783691 1052.172363
665.783447 653.892029 698.468750
583.579529 861.400818 457.511322
700.468323 432.661774 640.309082
1126.819336 359.747742 871.273254
1001.739990 878.349915 1039.112793
1097.273926 509.292389 915.989807
612.187500 485.703827 751.095276
623.106812 846.354919 586.731812
443.990753 576.599548 729.612610
740.270569 753.151978 641.864258
443.912231 715.097412 666.578613
1106.829346 515.366150 930.801392
1064.314087 375.449310 956.450500
987.770325 643.719360 945.300903
846.997925 545.281799 518.893433
533.286804 621.252136 769.661438
1003.649902 761.934753 1030.701904
725.352234 846.804871 543.544983
866.645508 618.259155 1161.533936
844.228027 626.069580 522.217529
994.284485 434.468567 1005.361145
703.253662 742.629944 663.561584
1005.249329 335.979645 1005.855530
1199.664795 464.363800 788.540466
980.147034 350.766571 1025.388062
845.866394 612.094055 486.341553
1056.180054 486.208923 936.292114
662.315063 606.076050 708.995361
664.235107 481.793335 681.977417
647.125977 571.530212 702.218872
719.599854 462.671631 618.219177
1124.872437 996.937134 913.471558
1262.533325 625.545227 766.411072
984.182007 769.007202 1045.854858
934.157959 545.030212 1091.590942
442.028259 901.109436 541.458557
799.256104 615.304810 583.439636
651.303772 855.742920 623.220093
696.051208 572.894836 638.769897
1009.354492 844.573242 1043.196533
764.606873 544.557678 578.079468
1135.484131 447.128815 897.111206
795.983643 420.985168 534.466003
744.327515 758.481995 655.629456
614.213074 868.600891 450.569031
666.121033 632.491943 703.750916
1095.142456 643.856689 885.564148
1223.323364 622.572937 779.256104
462.630981 910.149292 452.732941
811.115234 797.170471 613.310181
665.113586 852.786926 444.612732
929.876160 500.718475 1091.361450
893.618896 652.673950 1124.174561
957.672180 673.563782 980.222168
913.492737 445.061432 1110.728516
861.619080 621.629028 507.395386
1047.498413 607.352417 861.290405
733.177002 495.321289 590.203186
948.212097 441.657959 1065.700684
964.149719 639.159729 875.671265
829.162109 684.613770 550.952637
989.404846 494.907440 1027.380127
478.993347 618.172180 713.537292
534.858704 872.600037 519.276367
644.279663 461.444885 695.300598
645.745850 853.305054 464.905212
1192.385498 618.541687 809.901367
1208.957642 455.281586 806.544617
1059.194702 560.639893 896.536316
1061.695190 393.654175 916.237976
1010.447693 550.219543 1015.265503
669.497803 601.984375 666.908447
694.555359 422.357880 665.504883
914.824707 548.265808 1089.650269
722.659302 636.988892 648.026306
913.293762 615.404236 1114.930908
991.093750 457.480133 969.602112
967.803467 661.254822 997.555908
639.857727 454.983704 737.018066
1145.537109 544.899658 864.365356
609.283569 867.350647 440.560059
1080.952881 431.432739 929.819519
853.624634 714.124084 546.683105
1079.179077 565.727600 897.720032
458.387299 938.595581 432.434296
993.217712 894.818298 1047.583740
997.127441 881.017273 990.800415
971.110107 428.008728 1018.360657
647.360840 425.834320 721.119202
483.927917 883.590332 557.459106
589.606384 880.124695 348.306549
898.866516 684.043579 1126.382568
979.096313 368.740082 996.807373
758.122742 655.996277 622.776245
772.918396 819.605225 415.412903
725.071350 543.166748 615.903259
995.528992 277.632019 975.259277
993.509521 482.157257 1045.835205
952.501953 512.520325 1048.726685
1012.138489 796.367126 1037.925293
999.964783 778.434937 1031.176147
573.604614 602.383301 777.596924
961.350952 308.766266 1029.750610
798.000305 538.485229 566.625854
448.451141 677.573303 682.173157
808.587036 923.070068 616.218811
916.425781 620.434814 1083.606079
624.425354 518.854004 712.014587
1109.128784 407.146362 890.886536
589.893799 536.813110 762.449585
603.330872 530.872437 752.156250
941.755554 415.896057 1066.901855
492.383789 879.157410 587.432190
736.964661 400.339447 601.702515
916.668396 576.501343 1114.730347
638.680054 867.723938 405.257080
1251.925415 513.548645 754.714661
1168.718750 414.082947 806.666443
927.807373 598.013672 1078.307373
827.406738 783.807617 559.121887
575.281494 872.920654 692.367920
687.121216 847.971924 343.091705
621.245972 468.664063 750.568359
655.437744 420.581665 727.517151
1036.075806 469.222900 957.515442
900.125977 584.549744 1124.496704
1003.967834 633.787964 967.932190
611.202332 523.607971 755.803650
861.154846 631.940674 507.825928
701.991089 583.879028 666.643250
1028.334106 387.177429 964.326538
1051.093018 741.008423 879.426514
753.940002 560.893860 574.167725
604.711487 867.772461 499.065155
1136.085693 474.325226 856.000977
1091.606934 1010.590454 1006.578796
967.722534 358.834167 1037.254150
657.775269 500.778564 713.887573
516.632690 875.977539 535.721436
1237.216309 725.621216 800.632507
900.233704 614.976746 1123.431885
726.985657 442.373688 619.158142
667.477234 484.335815 666.219788
842.034363 623.352112 1165.043335
1033.063477 753.514526 1005.501099
1087.217896 622.639221 917.886719
683.805908 586.956299 666.534363
659.003601 693.175476 708.172607
682.475037 850.904602 618.626465
645.932495 442.984711 738.243347
697.226501 554.037903 665.406250
1053.879761 400.871460 950.840698
1137.500977 548.691711 845.177490
902.531738 449.524414 1109.723145
779.420471 683.015625 570.981262
895.149048 644.291321 1113.532104
757.347900 420.475739 590.714844
971.725647 412.528198 1037.358398
926.251526 553.700867 1116.808228
926.712402 521.428040 1078.283569
801.641357 626.639893 540.719116
1157.742310 516.173523 827.224182
977.320435 347.113007 1027.716431
983.056396 474.183868 1012.120117
638.231812 658.178284 736.691772
573.527832 861.367615 540.788879
987.289124 580.001709 855.263367
926.833435 552.020508 1102.700562
691.071472 397.254669 667.412964
694.169739 412.466583 658.763245
970.919250 858.581787 1053.999878
1049.546875 566.557739 915.429443
665.261169 859.515137 362.014984
953.167725 446.000916 1038.757690
675.744263 561.065613 682.162354
953.298157 449.844116 1071.747314
1137.845215 429.561279 864.426697
1155.894775 536.683350 850.323975
1007.744507 842.163940 1048.822510
513.983887 872.600342 541.989929
631.604309 863.492065 476.230286
663.524841 586.013916 705.058228
720.960083 838.703125 375.526611
617.044434 449.240814 756.718079
949.095703 442.046143 1081.665039
667.408997 486.501801 674.060974
640.148987 848.201538 439.277954
941.252075 569.356873 1101.549683
1026.264893 337.362244 957.710632
1024.015991 967.775085 1064.544922
824.353088 689.319824 556.208252
954.456177 731.860535 1069.265381
690.821838 410.465607 677.471130
588.773376 867.943115 438.055023
850.424622 619.332703 1105.841064
1044.305542 418.502563 967.959167
602.739929 481.885376 761.758667
1095.976685 417.658417 886.530457
593.434814 890.685669 351.071320
663.921204 852.337708 545.449646
540.249268 896.530945 348.445221
758.054382 827.067688 409.881195
634.243835 601.904663 703.860474
781.767578 434.297913 548.280151
633.810364 549.696350 698.568237
1045.606567 467.876373 950.183533
683.918640 418.408142 654.248535
580.587097 885.783997 297.578033
654.755981 606.087463 730.273438
1115.600342 363.813873 878.396057
706.615112 578.358887 674.010925
552.405396 863.791016 566.264648
977.087952 592.014709 1057.297119
711.111877 491.309753 612.640808
1182.245239 540.826233 806.470581
888.943298 651.394104 1074.962524
742.413574 761.024292 656.950134
831.347473 692.986511 546.541687
654.496765 852.802002 490.592010
721.948730 404.775299 640.082031
1005.024170 545.247559 1020.795532
825.001099 683.544617 551.639587
697.999939 422.955444 664.360901
555.287109 887.521667 380.207611
704.333801 620.085754 669.983398
1142.285034 578.475769 840.159302
568.166626 869.768677 557.550781
760.568909 554.496826 611.910339
806.407593 543.885803 557.291138
655.169922 436.275177 713.543335
499.007263 855.448425 594.673828
1237.557373 479.942535 763.123474
583.669800 898.482483 337.918976
732.286194 739.913208 626.345825
586.613953 515.417969 795.529785
948.414307 373.812988 1052.411499
915.524780 552.657532 1121.965576
989.134216 360.238831 1017.050049
1065.261841 341.783783 925.028809
952.128906 432.782715 1041.619263
1254.936523 643.642883 772.851196
1187.032349 531.374023 780.791260
613.577942 489.176453 757.661438
568.998413 728.279602 741.528931
1087.826904 696.242249 867.850769
1183.020386 507.336548 745.477417
1181.828369 398.616394 814.582031
609.445679 896.567261 308.662476
979.874268 796.002319 1038.733887
1001.929504 459.606934 994.702881
669.434387 858.619873 351.753540
991.729065 439.214661 1043.758179
1132.478882 533.753235 784.188965
696.833923 490.448914 646.936890
738.564270 656.917603 621.649658
738.615417 587.368591 631.358704
961.668884 426.898804 1050.668579
1072.760376 551.926086 920.349731
580.784302 884.037354 392.333984
1074.346802 387.770111 903.884460
856.898865 630.214478 500.796875
719.051819 577.901855 656.061951
984.929993 683.674500 915.267517
757.328979 434.094727 582.552979
675.287048 456.739685 682.382629
1012.797058 298.080109 973.182617
1171.015259 463.777466 833.800537
1193.827759 463.484161 791.730713
516.492859 910.322205 385.530457
1215.748169 440.081604 777.788879
539.754822 871.201050 484.023926
646.865784 437.138062 720.522461
944.369080 417.378448 1082.302246
729.619019 830.067993 392.825653
709.102478 498.127960 646.999146
852.355835 561.752319 517.362244
1199.610352 750.941895 846.126038
469.744537 941.399292 416.801300
828.909119 652.082275 1205.021729
519.387756 879.843750 463.391083
511.557373 883.930664 417.426605
1013.200378 546.124512 886.789124
511.544006 883.581421 508.175690
513.010742 888.930481 447.400024
677.426697 858.223083 450.077240
1028.307739 375.776520 977.004700
713.719360 553.695129 630.367188
521.055786 877.702942 510.240356
1009.851440 540.327759 1034.384521
984.966064 323.407410 991.823181
1012.349304 577.736816 1015.747681
1118.306152 598.425659 902.587769
609.221069 502.029510 764.385986
784.375183 830.682739 372.680450
592.884888 878.895569 376.223175
776.230957 465.260712 582.271179
724.627014 561.140747 607.431335
886.776917 576.187927 857.503174
864.935852 668.406555 498.278625
859.872437 755.630310 534.693298
1179.235229 554.475464 773.210327
826.344543 759.554688 556.494385
1058.006104 798.999451 972.571472
1109.427612 406.583008 910.151611
1022.467102 815.119690 1030.958618
776.790710 623.830627 591.580261
627.677307 437.014557 771.563477
1014.810120 292.885223 966.619080
959.061584 635.632202 1074.405273
657.057678 685.320557 711.731689
447.636688 905.365479 467.307922
982.977844 429.224060 1025.858887
618.469543 643.075928 728.261108
635.926575 854.624939 493.126923
894.776550 483.900940 1123.960205
580.457031 872.662598 427.011993
1134.223267 443.857819 875.697693
981.636963 537.625549 1024.398926
739.259827 403.072449 629.497253
997.851746 452.310333 1010.036987
671.871277 504.978058 683.310059
837.940613 469.956696 478.854340
841.367737 552.848694 485.821228
498.272522 901.424316 411.385498
899.982666 626.572876 1035.136475
1014.952454 316.095276 957.603821
598.750000 536.785522 760.702148
962.075745 604.627625 1052.663818
753.098755 744.209290 635.267273
1208.482544 642.090271 810.494202
952.030090 473.304260 1067.237549
663.193359 844.482239 472.119049
926.809143 375.544098 1074.171875
667.091431 696.429016 684.477173
541.658936 903.649597 314.259064
746.015198 475.112823 596.924622
1069.712158 353.045258 938.594666
986.174255 460.325928 1038.903564
498.670502 859.599487 596.284912
577.598938 871.000244 407.463501
633.698669 469.842041 714.047058
595.232056 607.205627 762.345703
649.103638 833.000305 596.818848
1167.341553 477.422394 855.986755
1190.989502 451.767273 828.386353
1030.228027 572.035950 977.799500
989.398804 712.747803 912.058350
894.174438 676.511841 1061.556519
964.312195 520.381287 1079.433716
693.335510 651.873108 666.743835
631.002563 865.114197 458.739288
780.701721 515.910400 566.503235
1143.669434 497.462006 873.247620
1207.321289 465.274231 801.787415
1188.893433 534.662476 791.818481
1029.235962 822.534851 1039.510742
611.316467 516.066833 742.949402
470.539307 901.811890 474.006104
860.685608 546.434570 1166.371216
670.192505 770.042236 706.689575
940.315918 715.995056 1047.327637
590.490906 541.056946 761.985168
869.316284 604.594116 1153.324585
728.326782 825.815613 357.661499
1122.873779 555.989380 910.702087
696.444397 665.219055 681.753967
535.448669 888.356628 414.913208
1102.173584 615.876770 873.692139
947.416870 353.230072 1055.349121
859.424316 592.804321 1182.178955
839.914795 624.040222 543.930847
638.636108 847.536194 556.447632
995.581482 377.117523 969.364075
651.094849 867.247742 275.798889
575.985596 911.382629 326.112762
618.351379 473.678162 754.575012
1009.815063 839.228271 1028.321411
915.007568 405.544556 1099.214355
1133.803467 493.653931 857.914307
732.143311 835.155518 402.360565
1006.004639 735.375000 979.688293
639.379700 459.807037 745.769104
574.070740 595.306458 794.363770
841.219055 597.263245 1155.356201
665.380981 554.577332 711.203552
604.434692 868.556641 475.613678
535.683411 874.813904 464.848633
901.737488 751.660461 1106.315674
1151.750610 527.725830 758.375183
550.306152 870.374268 577.743591
1032.679077 527.029602 1005.678345
1116.994385 550.209106 912.225952
1005.950684 479.112244 1034.689697
805.207092 483.850342 540.993713
978.659119 764.458008 1040.633179
568.819824 875.405457 433.207031
539.980896 874.136353 513.648438
556.811401 863.515625 561.560974
711.250732 831.055664 336.819214
700.995850 463.202087 643.834106
976.637634 433.846710 1013.766724
655.272888 461.108978 706.143433
577.527832 863.852966 621.050537
985.988098 640.904236 988.870911
651.772339 434.949707 714.044067
457.868958 902.712708 497.136536
1174.570068 424.033569 821.764404
1005.523926 462.000122 1016.978577
491.767670 920.345825 379.604065
1082.617432 783.416321 951.899536
715.223755 453.341156 627.103516
1101.087524 591.767151 866.719910
646.382751 443.499329 726.239685
780.721313 527.280396 579.780090
779.797241 543.361938 558.443604
693.917114 535.745850 656.895264
1016.670044 284.854156 967.197876
1034.968506 566.464478 901.845276
983.818054 332.385956 970.375488
480.722137 884.437439 535.481689
777.907471 430.297241 554.228821
1039.142456 540.095520 966.591370
727.981201 628.578674 626.001892
689.271545 535.650696 652.185425
1136.198975 554.779907 876.140137
932.636597 455.355957 1081.677734
720.698364 474.535675 616.717773
853.719543 670.540039 525.206604
711.221985 423.622772 643.481567
834.440247 722.536194 518.609741
1004.133179 769.572998 1042.352173
732.700012 829.107544 381.975708
694.594299 420.123199 700.922546
729.007141 835.845642 487.133514
551.345032 883.270691 430.159119
818.894470 461.742981 516.651123
614.183777 611.567200 729.243286
1128.110596 359.180389 846.806702
885.087341 737.377258 497.646118
1103.680542 400.046021 900.638367
1250.614624 517.209778 745.435059
659.604553 857.806641 544.823669
577.529724 871.177551 459.368347
637.908447 853.901611 490.018616
669.078308 426.695038 695.272949
791.621948 591.186218 581.207153
718.326538 413.057892 645.944580
1023.161987 447.770172 955.861328
528.860901 886.693542 440.530762
797.453308 651.271729 586.689209
969.274536 495.635193 1053.287476
895.824646 706.380127 494.716003
792.225220 687.991943 596.097290
842.897034 586.146790 1156.819458
1162.291504 407.053802 861.046387
642.745789 833.642761 564.483276
1036.675415 469.578918 945.452637
620.385925 590.519104 720.286865
937.196045 497.975433 1101.570068
784.033264 819.916565 441.909363
1007.916748 457.227722 1000.856262
985.269043 675.578186 974.545166
606.489258 873.729736 362.834564
655.199768 851.356323 461.747772
1042.968872 324.246185 946.656799
857.751831 623.425598 537.956604
561.846924 889.538452 414.790680
1252.890625 690.636963 798.873535
1035.435425 795.379883 1011.860657
636.870728 765.400513 757.767761
994.143066 523.450439 1051.855103
537.591125 895.349304 349.582794
728.627563 456.564697 610.242310
666.226624 494.304108 690.330750
1099.489380 348.735718 897.167603
685.344910 690.335327 698.801086
622.043152 534.175537 743.194763
919.450500 589.995544 1116.544067
643.321777 853.823364 615.231873
922.023804 696.541992 1045.978882
1026.592407 464.717682 965.692017
832.354004 625.632996 1203.570068
502.553894 891.749023 444.621063
1135.021606 362.077362 861.484314
1003.316833 673.292114 1005.651001
626.805176 866.662842 452.078491
804.557922 590.987549 552.752747
866.133179 536.078186 1155.401733
783.270752 531.348267 556.863831
656.001343 510.999847 705.131104
938.396912 633.289429 1071.580811
992.408691 770.297546 1062.042114
817.489258 489.052429 523.656433
1083.644043 353.809753 909.253113
673.995667 863.249451 359.596527
1265.439941 615.251343 757.276001
577.431702 852.450439 601.848816
698.852844 849.706726 402.902313
555.590637 882.834839 452.137360
836.169434 676.116272 530.935364
609.940430 522.876831 792.454529
593.995422 597.946594 789.152161
1026.221191 555.364868 1003.646545
576.987610 881.556946 382.209869
561.545471 861.824280 568.637024
781.150940 812.746094 442.757385
965.529419 504.225372 1074.663330
1029.424438 318.579987 944.093201
681.343933 855.336182 337.578217
705.278870 846.973999 381.297089
571.765564 890.939270 313.978088
1045.046509 684.246094 851.529297
969.597351 420.303864 1050.663452
546.549683 863.855652 575.126831
776.466858 718.986877 604.265381
698.950073 662.898865 658.600342
983.894897 600.342712 1042.484131
477.484833 901.430481 454.945221
914.361084 633.156982 1108.408936
941.640869 378.197388 1083.668945
693.804321 514.432556 654.175049
1079.046387 444.873840 911.238586
1039.853271 474.679718 951.801147
1001.587036 312.848541 964.856323
1133.559204 580.941345 873.025269
625.519043 861.380981 416.371185
961.221680 591.621338 1061.290161
1085.918213 444.251678 904.912598
635.692688 522.879272 699.267822
582.900696 849.276123 614.741455
684.597229 513.138550 657.464172
684.710938 473.892212 671.057922
522.281677 877.687744 442.897644
1065.441406 304.215820 920.210815
979.841858 288.494659 992.901062
732.933411 837.005432 495.981689
909.936951 572.022034 462.092377
709.013550 488.324677 659.877197
457.824036 907.265015 418.329041
532.377625 872.879700 550.472778
1253.861206 456.736908 741.290283
632.738770 617.947510 711.211243
614.983032 894.408081 293.977386
920.544861 536.687683 1115.795776
1032.557983 552.994080 975.012817
1032.165527 551.418518 1010.698059
583.091492 839.533936 649.180054
737.132935 676.904114 645.210571
824.875854 634.770630 561.132385
840.678711 594.902588 532.943298
1035.475220 541.064819 957.548584
923.487061 545.282654 1104.134399
753.872986 819.245239 444.420319
1107.951172 598.490417 889.025696
1149.793213 406.356018 848.332031
1135.661743 595.370605 836.232666
686.953003 494.576019 659.624084
888.027771 588.151062 1127.435669
1152.941406 736.652954 864.187927
665.539551 856.042969 322.896454
1077.448120 321.745972 926.230347
614.997009 865.703918 447.958527
679.026123 847.193481 442.554993
949.807312 482.398499 894.033691
538.135620 879.278503 458.759491
697.840454 829.549988 441.836792
508.779846 888.476929 452.729919
679.214355 686.728394 710.330566
1146.497681 573.001038 858.001465
1036.419800 562.281494 984.273743
979.375732 420.348541 926.920654
1004.092346 605.523254 981.857239
952.065002 483.526245 1048.559448
543.150635 846.687988 646.601196
613.017395 871.881714 427.572052
884.020813 534.856323 1160.024780
496.619995 883.501648 592.681458
809.199890 402.992218 560.357971
1004.479858 582.488098 1025.330322
539.587280 883.827209 443.322418
793.550598 554.395996 549.331177
785.132629 510.397369 550.735352
983.861206 374.815063 1001.324890
1231.426270 738.223877 837.762634
540.236328 890.891418 366.448334
736.400696 830.507935 382.096741
962.392151 381.177094 1039.820679
1145.246704 577.173401 861.282410
686.234863 827.988037 536.135376
1087.081421 682.290955 869.258179
1062.448120 999.419800 1033.515259
1136.063477 598.740112 829.164795
955.203247 508.655243 875.438232
931.540100 532.423218 1095.624390
649.855103 504.669037 701.914612
748.830994 472.595062 569.587158
650.222900 847.071899 412.466736
779.593750 825.563293 472.476868
998.408447 409.311493 1016.610535
671.730591 475.068756 699.930115
618.790405 548.761475 725.982178
629.654602 463.777771 767.858276
796.697388 814.561462 404.577271
1096.895630 712.610901 814.061584
616.183655 570.996216 730.576843
685.747742 634.371277 674.577209
656.296692 442.388092 734.118408
992.662292 548.132141 1013.986206
644.693115 442.822327 753.164001
1116.951782 345.955994 881.157288
758.210632 535.928223 583.568787
617.636719 859.132629 609.841187
619.080627 866.071533 335.762756
1181.383789 423.188721 809.657471
757.476868 473.387177 560.603455
690.785217 429.813202 653.863708
922.343628 717.946777 1110.388794
935.844116 651.398315 1066.373413
671.882996 496.065063 692.523315
876.769531 637.207825 1106.549194
1078.064697 315.174744 916.004089
834.222351 476.214355 510.586304
571.520203 849.637268 609.108826
953.319214 561.579224 1076.240112
724.178711 796.524841 663.825256
632.582397 686.349670 728.559814
977.529602 765.067871 950.193604
982.589417 383.676147 1002.879578
1014.606201 477.702820 1015.384460
792.380127 398.185059 587.859314
664.530273 837.923889 557.716553
449.112885 897.071655 545.041016
695.065186 848.042664 568.408447
708.976868 390.819550 673.023987
962.737183 456.825714 913.040833
1143.445313 522.809753 892.491943
1143.448364 527.578674 869.719666
589.792969 864.330688 505.158295
615.066162 523.362000 734.230652
1210.182495 496.936920 730.647705
579.573486 660.297974 794.385376
1262.894409 604.398010 751.669495
910.447083 489.210663 1108.932129
493.615387 896.353882 490.799133
925.689697 456.043518 1097.585449
1137.382324 374.173950 860.972046
648.905640 434.317993 743.271729
1236.834717 502.576324 773.821899
1167.226196 471.483826 830.746582
640.363403 866.156372 298.980713
703.405701 398.534637 638.114563
697.914795 845.562622 414.563385
1153.951050 563.447754 830.431213
882.750122 581.630981 1119.738403
900.488464 628.293701 1125.265259
1032.905151 314.256989 972.703003
719.441162 428.805176 637.746765
723.481750 657.616394 643.551331
795.036987 523.888306 567.895874
1227.540771 449.855469 767.072632
1043.183960 632.568970 995.301819
677.275085 600.178528 699.176453
463.282074 884.069763 530.808411
1035.138794 613.176270 926.486389
446.396393 899.793274 539.530884
1070.230469 379.010193 934.220581
1098.856812 598.300476 918.068176
1149.458862 493.809509 886.108276
676.335022 850.623291 557.663940
761.970032 733.921448 624.504517
847.514282 583.291626 538.603455
566.591553 885.208374 647.639221
966.319519 376.068634 1034.014038
1062.401978 293.659119 923.197083
644.453613 851.268188 502.765198
535.047729 892.119507 392.743774
731.342346 831.465271 338.999908
511.548279 885.197388 488.930084
677.219177 845.748779 461.776855
641.310791 479.818542 708.184570
890.873840 500.487152 1125.671997
552.707764 870.885254 475.644043
721.297852 614.271851 652.516907
644.536560 553.806152 700.384644
953.583740 550.446472 1090.978516
635.227417 880.388489 316.977478
1093.370117 438.327728 911.813049
530.117188 880.000244 411.509552
923.890137 377.842529 1058.079712
704.586975 845.898254 474.439758
564.771667 875.131042 467.227478
677.610046 603.265869 658.275574
615.407043 865.200989 424.386444
520.889465 882.380371 464.746552
919.640076 648.898254 1082.682007
650.399597 856.304993 455.523804
1126.177612 457.508850 881.940125
1098.850098 469.014404 909.953369
730.978882 404.829681 641.719971
674.195557 869.833557 308.753113
569.404297 877.067078 362.143860
1196.767334 419.973450 781.958801
692.897095 481.422516 648.224060
456.169586 672.832031 685.645081
895.505432 622.878784 1065.899292
931.442505 491.207336 1105.871094
545.403564 661.544373 750.722961
753.110535 389.562103 642.852600
527.989563 876.507019 517.696777
1172.802734 486.622070 809.018982
680.659607 450.824432 694.263184
509.623810 878.743347 602.639343
656.756958 648.072266 694.069153
581.955566 578.829712 775.623657
590.963379 864.845764 507.183380
1012.308899 631.288208 1016.281799
742.120239 628.521912 606.369812
1189.752197 514.091553 772.275085
977.845215 403.944794 1025.243164
965.530518 436.027405 1028.413940
659.641479 432.818207 707.299744
926.953125 542.595459 1077.284058
1046.811157 378.249390 953.232483
567.343201 862.621643 611.237366
1203.581543 518.961731 759.707886
1207.663330 433.978973 809.754883
990.880127 798.590271 1018.250061
838.406616 620.664978 1153.162354
958.253052 557.039978 1085.964355
635.552429 493.477722 710.102295
1001.391663 361.741394 973.876648
926.953308 362.455383 1058.274536
963.761292 340.337677 1028.620239
662.269165 505.217407 667.114563
937.475403 391.439209 1078.042114
509.864197 854.019104 596.900452
958.129028 519.448181 1076.407349
775.628052 417.253265 578.486084
454.096680 903.418945 448.880798
724.526917 425.897247 632.868164
541.690918 869.156555 532.069031
638.994019 623.870422 706.245605
1004.693665 420.155243 975.596863
836.780701 765.180420 558.852295
864.964722 525.308533 1154.517578
510.569519 881.752625 510.040741
1004.036865 681.596680 970.451172
686.479797 843.460876 458.586975
677.857117 597.913696 674.409729
801.076416 438.155792 540.524170
829.869690 654.109985 558.193604
862.076660 755.169617 559.851257
1004.855957 628.755737 1045.570313
457.921600 907.925415 452.258972
972.376587 351.621460 1027.089722
717.364258 558.427307 654.541809
613.014832 517.447021 728.511414
992.467468 526.474304 1049.891357
1001.671509 303.601837 994.273987
1139.061646 530.580505 879.689453
644.107910 752.266602 725.924377
902.462952 446.222565 1088.028564
546.341003 864.267944 588.318420
978.594971 391.704254 946.118652
1004.201111 841.678650 1059.674561
923.096008 650.262024 1027.602661
625.063538 744.477173 737.868286
626.024292 858.294739 496.509430
459.761230 914.003540 403.130676
709.888916 661.164001 640.756470
887.044067 659.272278 1071.971802
638.406616 845.727539 636.905212
1015.190674 356.089355 978.379150
977.164429 362.968903 1027.675781
595.306152 874.517273 337.706299
1027.602905 705.745117 970.889343
1170.250732 644.592712 829.456421
1114.390869 354.233124 881.335571
1198.232056 448.382935 822.653687
967.665649 376.559326 948.976379
783.403137 512.315674 554.791138
1035.606689 970.134949 1009.112305
926.336548 420.238068 1096.549438
737.890747 597.456177 612.128967
1027.970825 281.991913 937.413940
846.876831 768.905884 532.887024
931.581482 707.852539 1075.626099
987.414124 714.043030 934.735535
857.384277 595.100342 1190.338501
809.552002 404.628510 572.247070
604.535095 574.732239 734.791870
660.892334 612.247864 725.282104
630.756104 844.093384 628.545593
998.883179 298.473053 985.556641
655.755432 858.194031 425.428345
650.409180 855.718933 499.766174
740.753113 831.173462 448.640991
980.082947 353.812958 1022.164673
888.457336 621.544678 1133.347412
818.650879 791.958618 566.886780
669.413940 566.052856 709.165222
956.035889 588.242249 859.952148
644.470154 444.000427 734.417542
817.912170 714.121216 555.304932
1142.609131 501.074036 846.956848
1215.531738 508.659180 767.980042
697.048584 848.699036 427.629730
554.224548 901.132629 321.252777
483.657745 892.713745 422.267365
544.087280 897.959412 393.789337
597.322998 870.552429 405.625702
1086.463745 382.556580 912.746155
648.889465 576.935303 731.072754
1020.896545 333.551117 960.245850
672.113892 426.296997 732.305908
1188.536255 536.723511 777.526917
669.799805 854.322449 458.994354
859.346252 433.288757 499.743073
1105.154907 455.099976 882.336792
989.182800 427.731934 1030.407715
767.760620 830.908325 422.619537
578.806580 591.592102 751.956726
664.883789 480.705475 674.329224
735.002869 829.210083 353.686188
777.474915 459.333099 541.814758
671.113464 650.668579 692.114197
489.691315 883.021179 497.226501
841.321838 623.790894 1179.090454
648.713989 866.591064 409.140564
645.735168 561.604431 723.704468
1113.319580 462.206909 912.959717
996.176514 639.359314 926.801758
626.869263 538.671509 749.574280
682.399658 847.966248 456.644226
887.527588 673.245911 1120.323364
899.380920 599.083679 1126.987427
812.405640 769.061157 550.824646
658.010193 863.959290 288.276398
944.127075 702.843384 1031.048340
497.926422 876.572205 543.628662
916.469543 624.739929 1077.045166
464.904266 898.053406 476.718872
548.195679 869.689331 608.156555
993.549133 704.669678 1047.861450
840.292664 602.704895 1174.049316
935.622070 501.576843 1071.538940
1199.447266 506.862640 722.143860
890.566040 650.671692 1083.163208
1016.469360 490.366180 997.579834
628.241394 836.793152 614.569519
965.922546 470.030975 1032.990234
696.973572 828.875671 454.871277
986.246338 363.207367 1020.403198
1196.285889 445.006531 823.421143
702.810974 835.212646 362.089966
726.467041 505.718994 612.807251
701.708008 681.630554 669.313232
569.699646 870.880798 436.472687
798.867310 524.188782 522.171204
994.567444 807.213806 1039.197632
649.203247 520.997559 716.970276
1089.981567 344.705048 926.886169
790.152100 704.127686 586.457520
1048.662109 514.412842 906.895630
785.908630 506.652008 560.803040
841.614990 579.337769 512.962952
1012.930969 448.539093 999.595947
954.790283 440.872192 1072.873901
1009.172119 653.782227 838.679810
977.302307 393.852539 1032.623535
722.443481 835.953064 494.323547
760.541199 558.471436 590.357178
1029.954224 361.910706 983.497437
931.638916 527.151611 1110.881958
728.468506 635.141174 641.558655
1188.206055 465.458862 799.009094
847.675293 597.330383 529.641663
983.647827 422.999512 1050.048096
1014.123657 543.905701 1011.946655
980.456238 765.525879 1048.089722
1033.853149 512.812439 968.776978
759.807800 535.431702 603.014282
666.924805 783.857056 720.137695
712.423035 832.080750 406.978363
701.166016 840.395569 409.986908
904.251770 439.462067 1093.306763
782.134949 663.847412 590.542847
957.852356 495.127716 1064.306152
867.341125 554.939697 1163.033081
662.949707 885.949768 356.124451
582.095703 667.892395 777.390259
1004.930847 274.241730 974.786560
654.525574 863.666443 359.370392
895.666443 647.935059 1095.662354
597.280640 547.703491 749.478516
635.329163 869.265259 299.629913
867.909607 611.947571 1101.988525
1039.324829 507.009674 947.365479
1132.093140 415.981842 847.238831
965.456970 431.915619 1057.848755
775.589172 432.580841 564.310547
679.041199 849.874817 404.811920
887.429382 610.819641 1126.771851
837.809998 681.065002 552.460449
802.164001 817.699219 418.777954
864.566467 618.098877 1055.216187
944.995178 571.919556 845.849426
690.504395 849.533691 373.889496
972.786255 646.326965 988.787537
1010.821106 502.134094 990.298645
621.220642 850.254211 606.390137
1203.396362 713.149658 830.529236
763.412048 386.304413 631.126099
448.053497 897.342041 498.271149
945.721252 721.989380 1079.425293
1003.200439 282.992065 968.035767
947.562134 406.856812 1074.496582
503.221924 874.200867 550.462830
774.559021 403.715607 605.002502
729.109253 779.217529 663.055298
1001.817993 916.983521 1040.103271
704.185486 501.472443 652.155579
873.193848 660.515503 1082.123901
1124.435669 468.878204 884.498291
697.874939 553.654602 657.011353
645.302307 454.138489 762.068848
907.104431 491.799866 851.873596
1058.844238 403.754456 956.202454
749.574890 381.351929 626.361450
831.731873 702.900208 519.220764
757.118774 832.811279 391.866058
607.780212 852.396362 682.701660
920.186218 705.813477 1110.053467
1098.296631 577.874634 921.162354
1006.118774 299.870911 1008.600220
527.339905 893.493652 396.341888
962.104797 377.010986 1022.674622
662.932129 856.420105 330.320374
613.007324 491.652069 759.023132
736.028992 621.361206 621.032776
593.258362 499.583954 769.093933
698.041748 626.071960 668.576355
723.066406 833.369141 397.021057
691.833069 438.479828 645.641785
841.084351 682.203552 1191.988037
1249.723145 695.989014 792.240723
1048.870972 524.997192 947.040283
717.640625 800.655090 676.895935
747.152954 460.621674 620.437195
1098.052856 387.537659 932.989746
1195.873535 511.443695 797.793030
1136.834961 669.030701 848.437256
960.251465 611.752197 1071.224243
982.179016 491.705048 1039.734375
1098.618286 353.764252 880.400696
804.132446 609.483948 556.443481
695.388306 835.270813 396.410431
821.449951 659.945435 550.457458
975.236084 311.561737 1036.004517
541.313843 873.016418 541.577026
1008.022278 450.862030 1007.173889
649.392334 577.774109 696.500793
984.375366 431.272156 932.665588
548.930847 630.059692 738.064819
1182.617676 555.057190 787.001587
464.835022 891.549866 554.633972
1071.486938 309.669922 915.012390
593.393494 583.250122 762.188904
1045.298950 316.416870 939.190491
576.117432 862.041504 529.172180
492.289459 893.583679 438.120270
960.246948 632.466858 1065.254272
683.904236 526.548218 688.335632
849.990295 624.471802 507.737579
1108.548950 400.836700 916.451172
1132.004761 530.007019 906.296143
677.028687 426.906555 704.580688
594.961487 887.363464 277.556824
497.469971 886.037659 516.561401
1052.619873 1047.601318 1024.855347
687.860413 837.333191 476.551086
998.420105 775.617371 1059.971436
801.118713 773.540344 602.547791
587.481445 875.515320 438.376892
585.653198 576.316467 757.880310
1037.987915 302.215393 951.041504
461.847595 907.446655 442.906097
1138.504028 529.304504 778.612000
713.307861 840.942627 464.729584
514.241638 901.647705 352.129761
714.693726 552.932739 630.427063
584.454407 877.213318 343.801147
1105.021729 400.886902 893.317383
833.252930 399.720337 520.235657
611.394409 637.074097 758.508972
861.072815 571.524658 515.972290
1210.254272 439.908966 787.184814
876.869019 622.404663 1106.509155
454.595367 897.709534 523.905518
665.507202 857.416992 484.247925
1032.594727 529.228088 994.134277
994.551208 560.723816 1018.756348
492.442230 613.391785 723.326660
907.060791 560.783508 1130.622070
947.289856 349.214722 1060.045044
926.668762 593.331970 1098.265259
980.201172 351.275116 977.360718
714.075195 434.576904 662.140503
685.812317 637.429871 704.710754
1038.808105 345.518982 968.593018
590.726196 880.148071 320.132385
782.602417 803.543823 609.488525
984.684998 526.457764 942.322327
582.515930 873.014587 447.386749
754.234253 607.992615 608.884033
668.756165 863.628784 436.497223
1100.333740 511.423645 916.913635
770.848389 833.560669 375.162048
562.511230 874.854126 471.486633
460.747650 900.544678 520.578979
491.545288 888.324219 475.203064
1038.830444 849.416687 996.646545
943.473572 389.101440 1071.895142
990.492920 329.103912 999.230286
1185.345093 438.270660 780.162231
1021.535950 702.007996 991.973206
1001.539185 435.430908 1015.631592
1015.823303 304.956787 952.729431
1107.290161 555.767456 794.444641
503.456604 883.166931 540.501221
638.229675 852.434265 617.743225
894.078003 628.262268 1126.734497
1103.504028 556.552856 915.601563
736.809082 445.422852 603.916931
720.159851 764.329102 661.803467
487.166534 895.107788 470.827637
766.473267 620.143921 582.721863
699.155457 641.072144 660.913208
1018.932556 297.215149 967.059387
970.644531 385.099396 1005.298035
933.617554 396.978577 1086.305420
636.561157 576.740234 713.901794
592.499939 883.085205 311.548279
1179.715576 478.327209 848.845947
985.960938 443.520538 946.148071
949.888672 620.074097 1081.895874
532.404968 869.598389 583.925903
662.949768 859.175415 490.391113
501.161896 878.677002 505.736786
1215.829346 660.408020 809.098328
718.209412 839.407532 552.218445
615.141296 521.555969 770.001648
726.358459 460.149719 596.018555
564.307861 642.902161 758.889771
536.854736 864.253845 513.741211
466.481262 907.690857 433.489838
979.470947 604.000000 1057.143188
649.109070 554.940735 698.933716
1068.850952 311.092316 924.966187
924.046448 422.150574 1096.065674
1050.196411 425.022095 945.221680
1131.137573 449.052429 874.372925
685.053101 839.268250 457.363098
640.056702 512.484863 693.689148
626.203613 480.371643 783.641174
977.188538 295.213013 1024.088501
1201.047119 519.842102 799.509155
854.738892 575.924255 1175.749634
745.827759 419.221161 595.809509
925.549194 479.459229 1089.915649
686.561829 406.735046 694.541260
702.262817 847.084351 401.324738
1162.644043 389.254974 828.972290
1019.105103 517.565125 983.237366
610.260742 549.558655 728.623718
530.732971 879.284302 448.079346
1163.234253 538.306641 824.722412
933.672241 632.235535 1056.355225
1117.305298 566.551880 924.938110
527.695435 873.469604 538.993164
606.761536 839.181580 631.751831
808.745300 737.059814 575.523193
481.032196 895.587219 557.866028
1089.161987 589.778625 820.015991
1002.712952 649.533325 979.803894
716.364807 843.062805 516.535583
851.261780 611.459290 1146.073242
766.574341 492.641113 603.469116
1081.064819 929.784668 965.748230
630.611694 724.962402 733.146484
895.243530 457.942596 1116.447266
896.634827 662.893738 1053.464722
560.773376 850.723328 611.125549
879.908081 547.614990 1159.602783
792.934875 468.081970 570.598328
1052.390259 534.873962 934.081604
844.117798 571.954285 525.816101
610.067993 545.838562 766.746460
1119.688965 570.524170 796.275513
937.604248 435.566284 1061.318970
1177.769287 417.715729 816.907166
1109.913452 435.641876 912.335571
971.242188 344.259399 1028.564087
924.091492 414.105743 1104.399536
885.112183 665.994934 1097.313110
482.676208 894.519104 506.170685
610.046265 506.887604 783.302856
1069.665894 471.710846 932.187683
670.435486 783.603088 730.683655
691.751648 669.900635 673.202454
912.280334 596.754333 1105.954468
866.218262 551.236267 484.909271
579.752869 592.133911 782.698181
509.362518 888.307983 421.061981
551.668762 869.632813 529.543213
527.262634 906.271057 342.734985
711.010498 859.205200 313.724487
927.008179 391.426300 1085.391235
958.659790 343.762573 1036.623657
1101.962769 503.174683 933.328674
1122.558838 557.233276 793.222168
535.559814 862.160889 645.230835
556.744629 857.845459 539.471252
864.615173 718.246277 517.201538
708.282715 397.550537 686.918945
875.973450 605.777466 1151.855225
955.017456 654.106750 1061.007446
753.028809 784.685364 634.007507
648.654602 457.494476 720.502747
590.574707 883.712097 410.763702
644.437683 727.276062 742.570068
563.953613 859.217590 597.293762
604.056641 508.969604 756.805237
970.462402 567.543335 861.784668
1007.034119 306.882874 979.957031
845.030762 551.763123 504.338257
662.103699 585.264221 677.812012
995.097717 698.413818 964.163147
857.371948 657.112915 1159.290771
636.390991 613.101868 708.507751
967.768311 317.706116 1030.566528
519.111328 870.498108 493.536011
476.170685 867.181030 595.739075
948.018005 507.852509 1088.730347
743.579346 399.403351 632.966187
524.984070 904.951416 390.504425
776.953186 757.826965 624.212097
991.208435 640.681396 1026.932495
1025.746094 354.730316 945.551453
607.549072 527.256958 756.433044
792.636230 426.864807 561.776855
847.846619 630.706482 510.618896
717.963928 769.469666 662.664490
1096.357910 508.331421 925.586731
1152.120117 489.645233 860.491943
982.325867 484.716675 1017.996765
958.176453 570.838440 1086.325317
613.621826 674.676270 769.830627
970.912292 641.132996 1043.415894
974.598999 428.043396 989.680115
1004.172119 552.391846 1019.700928
797.118652 814.730286 606.425598
429.633057 915.570007 507.860382
572.428894 871.445190 514.679199
966.361511 501.841797 875.804138
665.511169 425.530701 705.835815
579.885681 850.668579 608.265076
941.559143 566.436096 1091.169312
638.108521 853.792786 467.753662
605.291809 551.834229 763.625122
971.015991 287.206787 996.958923
1048.498413 293.666229 936.998962
948.959656 508.892975 852.201294
1173.401489 409.751068 805.034180
1018.173523 496.503998 921.484253
844.387573 684.642700 551.204590
970.459839 370.210052 1042.436768
652.450317 460.435883 696.261353
733.666016 539.780823 598.674377
713.643677 443.332458 633.606384
1087.720215 476.339935 895.634033
712.315857 857.356812 593.835083
702.018616 511.512421 640.703674
1003.696838 876.491394 1001.220764
1168.979736 514.436523 757.630310
918.076477 586.751587 1106.085693
962.673096 428.209442 1026.918701
996.675659 955.622620 1051.490112
713.341309 609.904663 623.194580
809.702820 433.517426 540.805664
970.982666 674.072144 1002.580994
915.067383 591.332947 1123.334839
664.904541 659.287903 684.917847
934.097717 521.114380 858.879089
733.367981 421.544312 617.175598
862.479370 659.859619 514.277771
887.780945 551.666626 1155.080688
772.171204 433.646118 553.041077
1021.532898 835.594788 1043.041870
1242.514282 663.845703 794.034058
703.209167 813.856384 549.509827
520.706177 903.771973 400.946320
764.297546 593.988647 588.863770
846.932068 592.146973 518.528809
1155.097656 466.744843 830.489441
978.261414 811.817932 1026.189941
663.458008 587.244751 683.533264
605.987549 564.696777 755.637817
598.028931 853.909363 584.721069
721.797913 827.569763 433.189117
612.512146 883.794800 415.814270
680.961426 433.504120 674.716858
443.538086 909.822632 455.343597
780.640076 420.766449 552.706604
792.133850 655.025208 592.336426
636.369324 853.386353 551.276306
875.733154 661.644226 1163.816772
1117.346069 562.852295 797.767761
622.789795 865.687500 367.196472
613.596924 887.704163 386.039246
981.885254 662.509460 966.542725
1037.154663 708.180847 869.266541
773.728394 544.691833 603.929077
976.311890 383.251373 1049.582397
1012.961853 604.965759 1001.834534
494.224731 932.136108 397.537109
595.942383 553.228394 752.439148
917.401978 415.637543 1106.953613
996.130188 396.439667 989.702148
513.919983 883.008423 437.949005
1179.044189 451.085968 768.740540
831.190613 681.887146 558.627930
1136.280151 603.058472 879.023987
611.086975 863.238159 379.546295
878.388245 640.415588 1105.489014
631.236084 857.530701 612.737122
1026.067383 283.093567 943.794739
617.023254 496.595215 775.413147
1026.918213 487.424530 993.863159
774.658142 460.178040 594.721741
1094.545166 663.598755 858.777283
1129.877563 407.156952 869.952820
693.051392 419.765961 677.083313
559.876770 876.260437 410.626099
845.224426 654.092590 543.538635
1078.342041 516.231262 935.117737
1047.150146 329.875061 957.263123
996.304810 357.322632 981.693909
1101.490967 984.962891 929.910095
1004.863831 371.540588 966.596802
932.040649 637.062439 1040.805542
726.931824 721.466553 649.153076
594.904724 512.897888 771.797302
977.720337 336.706116 1036.641968
1029.625122 805.260559 1049.845093
519.369690 897.021790 466.156372
875.540466 615.438538 1114.024536
721.873657 703.617004 668.225952
1072.094360 626.855286 847.891968
1022.298218 435.981506 947.372559
610.846741 532.258972 775.800537
803.858582 403.617371 571.885254
950.084106 500.102844 1049.152344
696.717773 463.055786 629.037781
845.260254 625.788452 1204.631592
1007.718445 735.017517 949.355408
1166.872314 425.619843 866.520813
1045.728516 340.354187 942.842163
857.511597 652.115479 508.203613
893.639099 622.583191 1111.416504
475.632660 879.544861 498.196930
568.419739 869.576294 448.929260
1023.088074 573.649109 938.433167
739.554993 500.424896 584.489563
589.999451 851.294800 645.385681
738.689453 842.218140 505.521790
600.025085 858.374695 577.095154
526.421204 893.577637 376.165649
1001.112671 319.077209 995.535034
448.613434 713.985046 684.794189
759.661133 444.812500 581.046631
679.124512 839.373169 582.033569
681.257080 844.034851 493.450317
631.544312 873.478943 393.651825
799.300659 384.995636 588.218811
543.115173 875.063904 482.742493
593.145447 888.492249 358.875061
1003.001465 427.801880 966.140808
607.518005 869.057617 422.779663
992.278076 721.023376 985.533142
706.576904 462.581268 662.049377
691.974976 861.502136 599.315735
581.181763 858.968018 507.016449
1017.618164 568.968750 1018.076111
680.247742 427.043945 725.321411
832.073853 503.269348 515.386597
726.472717 834.546082 360.415741
1248.602539 493.937378 756.532959
1102.189453 315.248840 865.212463
1050.467529 781.169556 984.507813
809.044067 691.314758 565.891174
869.329163 729.465515 508.545776
1077.687622 358.497253 918.921753
843.893799 472.864899 490.484619
1027.677612 454.508728 950.464172
598.502502 882.673645 301.930176
878.514343 554.732910 1149.355103
1131.598999 570.107056 855.836731
617.935547 871.975281 422.782532
634.539856 847.916504 449.907593
1110.010498 602.352051 872.722351
738.753052 625.677795 605.008423
1132.326050 494.202728 907.113770
1049.446289 408.000275 968.044067
517.417603 867.044678 532.653320
766.009216 584.867615 582.806763
651.140320 433.579559 720.546509
870.672913 738.552979 1133.745117
597.721497 858.875854 589.851074
784.047791 596.140808 553.794617
800.603333 657.599792 546.401550
1007.738464 313.984375 983.555176
711.288452 641.482300 673.185303
630.968445 870.287048 311.474030
619.213257 865.137695 370.946259
1083.344116 338.964233 905.210815
1061.896484 386.275421 965.093933
1023.599609 791.286804 1012.927795
732.542603 477.681610 603.558167
716.205383 828.569153 441.014984
669.238647 645.307251 673.763062
584.547913 868.404358 514.919800
733.369507 452.781860 605.616272
1119.656616 366.896637 878.710571
664.267029 437.146240 704.188843
582.656494 870.707153 425.902313
956.275269 376.329163 1025.134644
793.769653 618.213684 565.392883
737.848877 687.338318 617.569641
755.252075 483.903076 567.398560
737.287598 837.721802 493.415253
640.427063 463.877533 702.461487
842.135620 562.804932 495.173401
939.877930 624.002747 979.208435
579.434204 701.350525 757.308716
882.445801 651.730713 1084.366821
633.226013 583.873047 704.740723
913.892090 717.953064 1072.803589
990.413818 582.013123 1049.320435
947.332642 401.052643 1067.121460
751.026428 432.984436 598.794373
892.733032 498.444000 1146.186279
626.781311 854.028259 573.480835
579.217529 893.365234 349.400696
604.292053 583.507446 751.295471
720.748901 655.579407 628.981140
925.850525 702.143616 1093.422607
1011.668030 539.466492 994.464172
520.990845 888.947998 400.745544
1001.097900 574.018188 1027.295044
732.480225 840.965515 357.177887
626.487366 596.197632 715.460083
703.441895 417.174347 651.932556
607.387756 543.683472 796.462219
705.275208 840.353638 375.299103
788.242432 704.882324 590.831726
622.023315 873.983032 349.150909
747.551941 663.461609 634.009521
454.648773 889.780823 498.733459
1183.966797 498.067749 809.156433
679.957092 856.088196 404.885101
1007.213318 361.409302 986.142700
586.278381 914.835205 315.537811
902.420654 563.925293 1129.912720
