ply
format ascii 1.0
element vertex 1359
property float x
property float y
property float z
end_header
815.432373 -468.162018 -1195.502563
954.201172 -383.312866 -1197.010498
492.533264 328.654388 -945.693481
576.711365 -226.677536 -875.062683
706.041748 -480.580841 -1218.215210
826.791931 -408.060486 -1227.459961
359.472351 301.096313 -1025.433960
614.281128 -160.307510 -909.165222
374.802673 222.099854 -1085.365479
518.860718 -553.064636 -1241.552979
665.219055 148.783218 -996.728821
935.413391 -407.842773 -1197.035522
511.941803 44.689110 -1144.030151
923.389526 -404.304626 -1216.825928
493.919037 -316.191498 -1359.792480
545.112976 25.733110 -1093.286011
581.107117 -594.200134 -1154.417480
606.019287 307.429749 -899.166870
634.363464 244.789566 -929.257263
664.544312 42.914291 -808.716492
456.752075 183.232590 -1094.479858
665.848022 187.339890 -985.696289
498.458740 370.330597 -903.483093
442.059204 -197.092316 -936.171326
626.862183 -569.032104 -1159.847412
410.492371 -233.999390 -928.045349
416.868805 -137.447800 -1004.423584
440.854065 -452.013550 -1380.485229
473.563049 344.030182 -933.949829
425.692078 -51.314838 -1082.097900
425.435059 -209.709702 -933.499329
640.539246 -134.702072 -896.323364
887.688660 -386.992310 -1213.011353
643.405701 -24.188190 -1028.197144
571.723389 221.060349 -981.576416
597.520752 -573.309448 -1169.624146
718.416504 -5.829453 -970.149536
424.758118 -87.632431 -1029.181396
620.283813 60.406750 -1134.209473
749.192322 -375.666443 -1302.380005
513.318054 -533.820313 -1265.866699
536.471558 291.415924 -938.740112
571.043518 -252.981262 -883.350525
515.089355 -561.763062 -1234.763550
453.574127 353.888611 -931.020569
347.020508 -73.235405 -1093.909912
880.627197 -419.818909 -1195.786011
635.243774 -229.462616 -897.006287
377.049774 -176.313599 -982.908630
647.977722 -196.024750 -873.986084
425.294678 389.896637 -963.650574
598.068481 15.480989 -1062.286865
528.632202 -203.894073 -892.641785
501.250763 -61.934090 -1033.416138
503.396576 -236.259949 -902.163025
507.405334 284.036102 -957.159912
723.219604 -328.616669 -1300.158447
486.137634 -7.505392 -1099.116699
546.751709 35.404263 -1114.548462
400.104370 -439.143372 -1373.062988
921.072693 -402.770416 -1201.409424
872.734070 -426.323303 -1213.484741
566.625793 -220.693604 -874.895996
481.097321 -509.098541 -1308.276367
382.022919 256.294373 -1046.456543
515.513794 -200.441269 -914.113159
588.231201 132.002441 -1068.920044
474.254669 310.687592 -955.626160
850.303589 -451.079102 -1196.397583
472.173462 157.082565 -1094.623901
580.874390 -522.453857 -1216.979980
562.461731 222.343521 -1005.827271
557.713989 -423.328583 -1357.493774
401.637817 26.712807 -1176.624512
423.417999 -125.682304 -997.460571
666.469788 -381.299683 -1326.065430
654.651306 -22.510675 -1016.446106
489.932220 297.248077 -969.743835
522.508423 358.345367 -920.297241
661.764221 -558.106934 -1176.443848
763.576538 -472.558411 -1194.771973
493.228851 -530.645874 -1294.378296
584.516479 -12.874281 -1052.235718
530.791077 -519.891785 -1273.584595
894.278442 -297.045746 -1256.784058
639.518616 -105.475662 -932.846252
439.989197 -329.740875 -1456.492188
564.913086 154.302719 -1047.035889
426.919983 355.696320 -974.648438
444.466522 -264.798401 -919.935852
738.422546 -266.336792 -1326.556519
596.073364 -259.674286 -1300.672852
511.965149 -167.205872 -951.933228
403.701294 -468.982391 -1374.211670
637.122253 167.364944 -1009.314941
586.603882 -440.302673 -1323.349731
450.073639 17.606470 -1142.914917
362.754181 -197.052979 -996.996826
514.944519 -238.712418 -897.937195
851.404907 -393.065094 -1221.802490
355.659210 2.162143 -1142.300537
633.922119 -9.885655 -1053.808228
823.022827 -417.763306 -1221.157349
639.044373 175.606689 -1006.513306
499.583893 -504.529053 -1296.277100
643.522400 192.071503 -988.685486
435.120911 55.762890 -1209.177979
580.946533 -10.281561 -1074.672363
403.882355 183.361206 -1113.790405
568.409607 335.204773 -894.294312
570.754578 297.656616 -921.204468
917.284180 -430.165985 -1203.210571
690.105164 -382.207184 -1322.103027
645.032043 -154.433319 -912.349548
448.231445 -157.594254 -963.889099
430.725983 -447.210907 -1371.350708
497.832825 -262.475525 -915.577698
755.092651 -456.878845 -1218.716553
516.700623 168.562912 -1092.846436
594.956116 177.450363 -1028.088501
800.038696 -468.277771 -1206.777954
363.666168 -119.819969 -1062.618408
688.396362 -284.006775 -1262.182617
422.317657 -441.598450 -1392.809814
382.047119 231.608429 -1064.311035
487.159363 -384.589172 -1411.196411
771.340149 -311.696442 -1275.889771
595.319946 -212.860596 -887.260986
382.004852 237.516037 -1059.151611
693.527161 -28.636265 -757.578796
612.068359 313.098969 -896.689636
516.640137 -409.179993 -1360.420776
387.603088 -38.595982 -1111.346313
642.787537 -552.722473 -1165.047119
618.850525 277.319824 -895.930176
618.407288 -16.057270 -1050.199951
393.150848 225.070999 -1065.599731
843.133667 -390.222626 -1264.392822
443.559570 -75.360130 -1048.386841
625.731812 -80.325912 -983.817932
449.170929 189.214767 -1090.048340
352.233704 -107.777733 -1063.574829
498.202515 -477.037445 -1324.970825
620.919312 -159.466675 -905.915405
388.315308 -229.149612 -944.630981
462.334442 216.860626 -1064.980957
401.492706 252.836243 -1055.649780
398.224579 -417.193420 -1362.518188
685.739258 -535.529724 -1186.570190
643.191284 -560.083923 -1186.110352
610.119019 226.583786 -962.130737
714.095764 10.945986 -1019.830139
374.216034 -241.252640 -935.908264
382.193115 -100.053894 -1073.949219
612.212585 -193.647812 -883.924072
808.950073 -476.453552 -1211.166504
581.230286 -409.682617 -1352.286133
412.043793 222.841980 -1066.834961
499.936218 -413.565796 -1384.770752
401.986115 -108.580063 -1030.932495
432.125854 -125.303047 -1022.156006
352.996216 -152.266312 -1018.777893
503.449219 66.733955 -1146.552002
534.886658 -1.131190 -1108.548096
525.248657 235.125305 -1005.536072
929.473816 -383.692169 -1213.589966
676.948242 -565.305786 -1174.036377
549.020264 191.868134 -1052.479858
420.259796 -362.088501 -1370.654907
403.911285 -260.536865 -931.964478
415.638123 -94.092545 -1045.521362
731.428894 -296.108673 -1314.096191
477.876801 -140.972366 -971.484741
572.484253 253.543427 -945.933533
216.228439 -15.811817 -991.872131
512.094727 -517.716370 -1305.511963
710.568481 -326.377106 -1370.093750
446.906616 235.933044 -1048.763916
687.053894 -13.676397 -1013.302002
486.184814 -295.490906 -1518.916016
427.830505 387.332764 -956.098816
515.047913 -537.094727 -1278.706299
591.480957 319.686707 -899.911743
481.608704 -515.876953 -1299.282471
410.614349 297.134460 -1019.112915
469.508698 -39.878212 -1074.359863
800.044006 -393.169434 -1253.705322
430.070648 162.955307 -1107.872559
604.645935 327.638123 -892.491211
594.638245 97.711693 -1178.227783
654.710388 256.069244 -893.973328
624.877136 -81.904694 -961.929565
698.025574 -333.117035 -1303.012817
476.673035 -176.991257 -951.726440
675.190430 144.390778 -1003.178528
579.019287 -493.387177 -1296.385620
615.677612 -255.202454 -1406.093384
686.723083 -442.140198 -1278.264404
614.530396 -432.473785 -1315.163818
637.474976 -521.672302 -1202.803589
952.259827 -324.294403 -1269.870972
534.828064 -610.310852 -1177.988037
621.881592 269.103424 -911.006470
838.033325 -446.454651 -1207.294800
444.083191 -193.404343 -940.830811
381.907318 -23.480146 -1155.143677
402.048248 -442.146851 -1415.480591
595.422607 -130.341721 -922.794189
443.405182 -332.644104 -1497.243774
354.608826 -239.028107 -974.171448
559.503662 -236.512238 -879.071411
865.862366 -422.139404 -1230.663574
516.494141 -483.062042 -1292.540649
395.478424 198.926407 -1101.957275
546.555847 -585.872742 -1223.461548
588.466431 202.145721 -1007.574768
578.334778 317.815033 -895.038147
545.146179 241.320786 -991.436340
698.523315 -543.377380 -1178.648804
820.447449 -358.237457 -1280.976074
573.740662 362.188538 -882.171326
390.875000 -431.294678 -1374.548340
436.926697 187.108780 -1101.836914
427.383270 205.063324 -1087.029053
569.798401 -100.346237 -965.722534
524.430603 -338.483307 -1331.084717
571.284363 -418.607666 -1333.599121
882.835266 -362.105011 -1234.434448
450.258789 289.655945 -988.179260
422.093018 -369.355804 -1453.621216
914.753540 -427.275848 -1189.851196
554.603455 -395.742950 -1378.681763
413.869354 -449.218719 -1382.923584
739.911926 -337.188324 -1320.880615
671.670593 -454.079834 -1254.512329
809.123901 -464.168793 -1204.145142
534.039978 -385.942566 -1385.571655
673.854492 -426.248108 -1265.751465
427.869568 -186.206512 -964.129578
536.410278 -306.533539 -1361.607788
593.550903 -417.247955 -1351.807617
619.980469 -576.202332 -1170.467529
399.371918 178.646774 -1120.639648
883.442322 -75.070168 -1518.151978
497.474915 200.657974 -1059.257568
684.440063 -445.700134 -1280.930054
510.464905 -81.376503 -997.241516
483.532471 -178.812866 -929.201538
515.712585 -157.485214 -933.384155
440.856323 -44.506176 -1089.224854
689.724792 -545.655762 -1176.413818
601.257813 259.659149 -936.487488
612.023071 -554.302307 -1182.782104
739.816467 -364.554474 -1311.275757
448.467651 -490.832275 -1329.688843
736.404785 -398.222778 -1318.577759
447.856384 -491.165802 -1333.172241
398.769073 332.123199 -983.167236
598.446472 -482.119598 -1269.768677
387.988678 -203.421997 -950.731506
550.531677 -419.728607 -1358.009155
586.885925 -278.419495 -1406.775635
426.902649 -240.549927 -945.868103
525.271606 -89.462029 -993.068604
288.127716 -135.561172 -1055.524536
576.379333 -541.847229 -1261.205200
535.057861 -223.456894 -890.647095
909.312500 -409.169464 -1213.900146
523.179443 227.291107 -1020.874756
413.786469 -86.117798 -1035.460083
568.986816 167.851868 -1053.902100
581.191162 127.602859 -1057.678223
663.116516 -141.796951 -890.692566
497.436523 -90.586113 -1044.665039
399.080841 -214.808563 -936.084839
534.225952 -141.043732 -943.804077
638.125854 -414.065216 -1307.131348
482.968445 -167.693008 -941.342407
477.212494 181.820679 -1073.832886
565.575012 11.336988 -1070.457275
401.930969 203.444183 -1081.316528
737.369507 -499.140442 -1227.586304
576.933350 -351.599976 -1391.787964
636.561157 -481.863403 -1208.346069
587.094055 365.336395 -910.197205
588.756714 262.270996 -944.866272
502.559509 -534.422852 -1267.802368
646.917908 232.763199 -934.937683
497.894684 -216.120941 -895.050171
407.144012 337.305450 -972.047913
390.160614 -385.738983 -1383.203003
853.023438 -414.870270 -1229.893311
372.227631 -125.859192 -1051.153320
528.506958 -247.254990 -888.352295
615.985474 163.357910 -1023.890991
401.387695 -85.688881 -1062.030029
430.063782 -119.712608 -993.758057
673.001343 -32.205147 -816.540833
726.015930 -528.932922 -1195.072266
354.764557 218.775116 -1094.451172
380.205780 172.007690 -1126.807129
572.510559 -135.106247 -915.903625
584.936523 -447.173615 -1263.102783
578.226135 -559.361572 -1207.834961
386.970886 273.447510 -1045.680542
383.297546 273.461761 -1037.536743
571.717041 182.196198 -1030.542725
490.083496 -400.938690 -1418.033691
424.829498 214.491623 -1088.204102
471.240112 246.964340 -1034.229248
608.937927 -448.794434 -1281.403809
774.075012 -344.997711 -1308.115356
619.512634 -188.948074 -883.666809
421.862274 -120.803024 -1017.120361
597.078796 210.296280 -971.945679
462.820007 -211.775391 -912.261780
402.163086 185.542084 -1106.295898
507.655670 -506.165985 -1296.253662
542.618530 -367.539978 -1402.880127
466.776672 297.182709 -977.432495
860.004944 -431.775604 -1210.468628
507.865295 196.506760 -1035.757080
420.750214 321.496521 -969.837646
394.901306 -469.858032 -1377.114014
589.045593 262.724182 -956.167542
535.974670 51.277855 -1137.850098
656.168274 -161.174026 -883.149475
751.803467 -300.171997 -1275.076050
741.358704 -445.337006 -1265.932861
861.914551 -396.842987 -1229.302002
396.057526 -161.288300 -992.149963
438.170868 -141.859253 -990.689941
697.801575 -300.177612 -1309.148804
602.242249 -425.573578 -1354.535156
535.349243 351.101776 -892.697876
752.933960 -265.858063 -1399.724243
490.464905 -426.867798 -1377.935059
620.304016 1.249240 -1070.360107
572.971497 -566.528931 -1200.558228
614.606262 -404.356995 -1327.318970
524.700684 -319.155365 -1407.204346
502.287811 -8.341278 -1101.638672
548.383484 -435.957153 -1352.005615
548.703796 -218.285919 -887.213440
643.364929 -188.006378 -884.799438
569.679382 -235.221252 -893.150574
429.164093 -351.045105 -1454.968140
749.595947 -375.031921 -1327.447510
407.685089 -9.672296 -1164.889404
620.259460 -304.989349 -1337.137329
455.350739 -152.656738 -950.369690
372.979523 193.140518 -1108.611816
577.931458 269.834808 -936.041260
493.872345 242.818039 -1034.699707
786.719727 -334.977142 -1290.381470
485.330170 283.228302 -978.415710
573.479431 189.913406 -1031.896973
670.337158 135.090195 -1004.315430
379.954407 172.821854 -1128.417480
616.998413 10.541531 -1079.506958
558.529358 331.330261 -900.159302
531.621582 -208.131302 -914.493958
471.897705 6.845162 -1121.417847
640.594849 -189.417618 -879.089233
631.712585 -422.801941 -1223.957153
448.908875 396.082611 -920.564270
911.928833 -135.066193 -1467.609375
553.574829 -245.075409 -884.991638
530.769714 -102.509842 -1008.294006
809.333191 -371.625183 -1297.465210
694.036194 -4.847567 -1007.363831
342.138367 -403.529022 -1419.083252
417.192291 -53.741863 -1064.131226
471.601746 -479.748138 -1356.942017
486.537994 376.017914 -944.824280
523.997864 350.625214 -902.942383
551.515869 188.171234 -1020.182983
437.476593 233.732666 -1056.830444
521.540894 -206.611649 -897.953552
606.713135 -479.403015 -1194.922607
390.911469 293.415710 -1025.252930
394.388428 -237.735931 -924.419861
308.922119 -177.844254 -1012.137268
644.196411 -137.062744 -904.873901
657.791321 -55.871769 -817.498718
408.594208 -239.122055 -943.234436
830.531128 -345.638367 -1318.265625
770.276367 -482.244629 -1206.241333
575.150085 -397.637390 -1370.649536
550.694275 -141.334763 -942.044678
584.901733 -335.351898 -1196.078613
484.713623 247.425186 -1015.001343
354.165924 238.164948 -1090.054321
613.438354 -357.363678 -1304.358521
756.896484 -290.172546 -1410.518188
709.768799 -519.034119 -1196.385742
604.720459 272.348419 -927.212036
399.732697 300.347382 -1001.688293
587.470825 -94.053535 -948.235413
556.372375 350.315674 -903.603394
416.258606 34.346489 -1176.616943
597.215210 -257.544708 -1461.869995
377.157562 -427.453369 -1408.586792
789.955994 -323.552429 -1292.043579
552.354553 -369.171875 -1390.699463
439.999786 228.663315 -1043.797119
426.097778 323.423584 -985.242188
685.204773 192.793930 -949.629456
675.083191 170.616699 -978.660034
488.455688 -549.544861 -1257.209595
565.557373 -42.771706 -1053.037109
503.068756 337.543610 -933.476074
632.221375 -253.403458 -1349.714478
350.557220 342.020905 -1003.590698
558.821411 157.668030 -1057.177368
663.085999 -44.103973 -971.102539
482.569000 -110.164787 -1000.104309
808.031982 -409.225647 -1267.042725
516.936279 3.742832 -1119.634033
467.938934 -184.026764 -942.767883
665.425537 -102.041039 -924.290894
643.513794 145.925430 -1024.131470
602.709778 -586.921936 -1173.957642
533.438965 225.727386 -1018.770874
692.883728 179.932846 -960.130859
580.733765 -174.899521 -913.239929
694.076294 -131.320343 -904.920471
779.724731 -423.388123 -1274.867310
629.320862 182.082123 -993.050903
568.756042 -200.256226 -1497.343872
518.301025 181.591751 -1072.762329
582.826843 -93.660057 -966.529419
839.731689 -189.148010 -1438.195068
507.748932 -170.200836 -929.902222
600.511169 50.858078 -1091.706543
565.696655 -170.106186 -893.888611
412.482880 -404.900787 -1378.263916
880.525391 -171.522827 -1411.197998
682.408813 -544.785034 -1189.528320
587.726257 292.936493 -908.266602
441.738739 -165.977631 -958.839966
580.498047 -278.913239 -1450.716187
541.295288 -401.350983 -1379.683716
368.148224 -239.368469 -948.716858
550.724915 -583.640076 -1182.964111
775.498047 -308.897644 -1260.376831
413.517883 -371.184753 -1459.183594
434.024384 310.118835 -977.887207
381.919189 -236.416992 -941.429321
809.509827 -211.334290 -1429.250122
588.755737 -9.559628 -1060.004761
610.342285 -422.035858 -1326.892334
639.659790 -96.032921 -941.938904
646.142639 -104.701416 -923.537964
442.111145 201.088821 -1080.747437
877.600464 -396.815765 -1237.813843
422.881500 -159.136810 -981.203003
622.538208 -595.624634 -1158.839233
357.310730 -218.924408 -981.678040
560.085938 36.224747 -1133.119751
579.639221 -465.288513 -1214.805664
817.299377 -337.573029 -1181.611816
337.542908 -426.106415 -1409.630859
725.904236 -301.447266 -1374.895386
432.721954 298.515045 -985.084167
598.933167 283.316956 -903.078491
391.130859 279.650757 -1025.308472
716.182251 -398.450104 -1322.468872
516.773743 -292.539825 -1494.973389
295.133545 -205.110977 -1013.897705
896.981628 -450.421539 -1193.546509
654.418396 -592.956787 -1148.262573
706.822937 -522.996887 -1201.750244
585.828674 229.800339 -972.548828
593.009827 -106.713661 -939.183777
455.708069 -445.626678 -1370.846802
372.704681 -70.621803 -1122.961060
396.369629 -243.587952 -952.432739
577.738586 -476.763733 -1173.779541
584.081848 -27.901550 -1031.405762
432.049896 339.784393 -957.826355
529.750305 -587.042480 -1205.807251
422.452057 244.424026 -1042.101318
573.696106 -567.614685 -1218.629150
856.077820 -372.097992 -1243.398193
411.034760 331.447784 -974.168091
716.872803 -390.131042 -1296.724365
682.088074 -0.221357 -1022.248718
590.602722 -129.472488 -928.629272
795.284668 -275.653656 -1342.954224
583.653687 -224.341522 -878.032227
614.354126 -529.951965 -1232.321045
758.067749 -239.549957 -1436.042969
471.075989 -220.944885 -918.734131
485.237793 -351.503174 -1393.061035
452.931885 53.718323 -1177.735596
401.928131 230.565125 -1071.415405
490.416870 -59.885971 -1029.159302
417.161285 -488.524750 -1344.311523
486.859650 -67.430832 -1042.267456
772.662781 -498.624176 -1199.982910
954.159790 -389.255951 -1208.083740
455.269379 -119.921143 -1016.062622
566.956177 -72.795113 -977.266174
455.193817 148.365097 -1105.202026
492.919464 -540.863159 -1270.078735
765.565491 -450.283264 -1225.787109
398.697845 -211.020020 -958.932800
463.973053 -202.696579 -916.007446
697.823364 -532.497681 -1194.885132
487.944122 -230.627869 -920.354187
578.986816 -152.205276 -920.107727
460.871277 -30.934067 -1098.843994
876.345825 -456.390991 -1197.337646
456.281525 -404.004425 -1371.067139
622.284912 -91.490288 -951.258606
529.328003 -224.267075 -883.640686
644.053101 -43.427963 -991.351990
571.762695 -467.733856 -1181.090698
639.743042 -82.223717 -950.775146
341.939178 -205.411667 -983.076477
445.359741 -202.113403 -928.629761
647.884583 -29.082895 -1022.589355
443.477570 -37.441143 -1115.847290
651.144836 -504.955933 -1234.820801
459.730042 261.093170 -1026.197021
538.749451 355.012604 -912.840576
693.941528 -425.271088 -1299.777588
443.545013 -8.259010 -1119.089233
398.891632 -400.885956 -1400.665894
692.468750 -9.167953 -845.885193
834.130371 -254.587769 -1373.036011
894.318665 -425.692963 -1203.164307
549.837708 -127.483047 -944.958008
758.809875 -506.982788 -1187.552979
560.590271 -53.976547 -1017.841431
492.387512 -561.961426 -1250.391602
485.763519 -392.356598 -1407.340088
471.837952 240.368042 -1024.450562
697.017822 -96.574402 -941.955933
769.046875 -421.439819 -1282.311768
413.005463 33.953682 -1196.139893
628.048828 25.433634 -1089.796265
790.366394 -471.554077 -1183.610107
509.611084 159.693466 -1071.361938
541.775513 -109.264000 -970.994873
341.211121 -238.070557 -978.828674
918.375732 -393.539978 -1203.985107
602.569946 170.666641 -1033.885254
608.753113 331.714996 -886.472595
526.164612 357.302582 -914.133118
588.408386 -357.628418 -1388.546265
505.542236 -106.917267 -985.499939
608.492737 -178.870880 -884.454529
411.543365 262.638702 -1035.854736
631.025513 148.859207 -1041.855347
337.675507 -150.606277 -1049.710938
450.889343 -140.836914 -1013.062805
490.778717 -101.259590 -1008.916016
680.378479 -35.481518 -760.202393
433.310303 17.045242 -1192.934937
793.787964 -84.730194 -1450.125854
526.895691 -148.394119 -935.925354
361.503723 -170.020645 -994.865662
509.394348 -527.959473 -1269.788330
387.162750 -180.338791 -975.730225
820.023743 -340.937317 -1231.938599
665.903564 222.875580 -955.606384
700.548767 -25.506605 -987.411438
467.652588 -182.034485 -920.410950
488.418274 374.727539 -930.204285
518.901245 -36.693874 -1054.159424
624.551331 -104.029366 -922.401245
528.990417 -225.090347 -892.823914
658.238953 -585.675293 -1157.069214
443.261414 -122.032143 -1005.343872
719.350769 -221.301605 -1352.790894
556.989685 317.850006 -904.919556
582.443848 -478.766998 -1283.116455
778.700745 -536.221313 -1164.066528
715.740540 -456.529846 -1234.640015
935.911926 -302.132446 -1286.733887
786.180786 -305.152252 -1327.202148
580.609253 -505.784180 -1267.859863
550.310059 297.833496 -923.545288
849.183167 -426.083252 -1237.459473
773.373657 -284.497101 -1300.264893
525.782959 -243.141159 -895.160461
527.175964 -476.787445 -1317.103149
897.199585 -123.325638 -1479.902710
471.297882 -462.778809 -1349.693604
564.172180 -191.496613 -883.977539
619.367493 -415.066498 -1304.177368
568.899109 336.165405 -891.043884
585.504272 -581.623962 -1182.374146
487.863647 -539.838928 -1276.293213
767.303894 -362.402740 -1317.466675
628.383850 -541.285278 -1162.935791
544.887512 -9.522556 -1094.320557
530.923889 37.663967 -1145.970215
353.415009 -23.307207 -1143.941406
577.726807 296.994476 -902.984924
573.142212 -184.856949 -890.919067
448.335510 180.030380 -1101.416260
790.258423 -214.446823 -1433.508789
707.376465 -349.151459 -1317.770020
481.268738 -229.627792 -894.918396
466.471710 298.206177 -982.943298
495.057648 -77.023254 -1022.553955
776.270874 -305.972076 -1259.858643
820.035278 -248.254196 -1404.450195
892.742615 -418.160645 -1220.602661
521.336304 -321.607635 -1432.494629
384.523834 179.441589 -1115.347168
502.033447 -184.899445 -905.237305
476.646362 -336.573364 -1456.646362
702.099915 -478.808960 -1218.615479
626.663818 283.623596 -898.079773
731.082703 -558.582092 -1169.707275
796.334900 -403.105743 -1247.233154
543.498169 -561.543274 -1229.618164
846.618896 -396.820251 -1243.940796
600.148499 243.536072 -956.919739
534.723572 -395.981110 -1383.607300
547.309509 218.509796 -1019.705688
584.286133 48.525551 -1152.059448
487.095062 -254.788345 -919.006714
699.999817 -525.736328 -1175.683472
759.968689 -311.018341 -1258.548706
582.970703 -485.514313 -1288.960327
567.616699 203.672531 -1026.779663
325.633026 -147.517456 -1018.539063
341.955017 359.184509 -995.828735
784.728027 -514.188171 -1183.188477
498.233246 -461.386566 -1362.135010
518.390442 -523.548645 -1253.612183
524.680359 -141.694427 -976.649719
705.019775 -383.723724 -1332.380859
589.106873 -565.737122 -1168.110596
624.985535 -476.552094 -1206.063599
731.674683 -464.505432 -1222.272583
833.210327 -382.044189 -1271.731934
847.353271 -208.476807 -1432.630859
498.539398 -380.919434 -1416.187378
636.386963 42.377312 -1106.657227
602.839844 318.043121 -894.986145
420.819275 191.589630 -1087.440796
655.792480 3.989827 -1032.964111
518.721008 197.867279 -1055.054688
577.649109 -268.702148 -871.281372
573.330627 336.123718 -899.597290
451.056915 -337.174316 -1436.960083
534.126465 -121.783714 -962.046387
467.916809 -124.426109 -967.948486
550.480652 -154.756027 -926.962219
473.426575 -212.676758 -903.883057
521.330933 239.927658 -1013.622009
522.174011 68.074890 -1163.324829
495.019745 -90.406982 -990.457092
481.053925 -164.078552 -960.831543
377.282104 328.990814 -999.489319
707.536987 -111.878235 -893.371765
619.161926 -422.316071 -1322.929688
694.353821 -32.692402 -897.878662
496.098694 -53.074066 -1029.752319
658.806885 -494.082947 -1228.558472
828.503418 -218.044952 -1394.044312
848.119812 -198.860199 -1436.249634
414.029755 -396.917725 -1405.412476
621.996948 -295.518616 -1378.254395
970.223145 -383.155792 -1205.897827
676.650146 -544.311646 -1182.787964
390.753143 251.403946 -1061.723145
548.597046 25.858580 -1112.990356
425.600494 -332.785004 -1407.043091
398.149902 213.148636 -1082.703613
400.468262 258.309143 -1045.119629
420.357025 342.355499 -960.430847
564.272522 235.944199 -979.762451
802.541138 -67.730103 -1585.984741
543.736450 -546.926819 -1236.878296
709.931824 -354.518982 -1318.542603
568.211121 52.123734 -1135.724121
677.963562 -509.565308 -1223.288818
523.628540 -494.684113 -1303.778687
473.015656 -453.688263 -1363.666504
541.242188 184.482529 -1035.817871
477.236816 -63.892235 -1068.133667
523.336060 -584.269165 -1209.506592
469.801544 -537.404846 -1286.183594
600.565552 -455.821930 -1288.264160
777.230042 -474.212036 -1211.496948
514.682495 -507.902191 -1314.629639
417.113800 -264.094574 -935.797119
592.002502 -169.642242 -885.950989
573.886658 -590.157959 -1178.841187
413.778625 184.437103 -1109.478271
654.839600 59.514839 -1102.118042
567.831909 -223.236542 -870.196655
656.592529 135.619812 -1019.012756
546.130432 -38.077812 -1077.047852
656.861145 257.101715 -922.268494
609.696167 -589.438660 -1173.013062
901.332825 -293.624451 -1274.458862
502.352448 326.183228 -935.819275
600.141479 38.886448 -1131.738281
492.640991 334.846069 -928.106323
662.127502 -524.506714 -1210.104736
630.410461 229.597305 -947.025330
826.233582 -404.288940 -1249.909790
656.462708 250.114563 -906.410767
566.367249 -248.495346 -890.566101
646.809082 -598.467468 -1143.285156
478.971924 -76.865715 -1016.604919
962.322754 -304.998993 -1273.081543
471.521271 -350.241150 -1402.552979
624.240051 -608.875610 -1138.777588
599.600769 43.823624 -1108.824707
916.857422 -382.188110 -1229.260132
598.070496 -138.201996 -932.220398
467.943329 38.399632 -1154.986694
360.326172 215.379593 -1096.226196
516.173767 -188.708588 -898.976746
397.427643 278.125549 -1029.482544
903.631897 -412.964111 -1194.626587
453.846832 -119.343803 -1006.180237
585.701050 323.435242 -884.176025
552.266052 -176.427444 -904.252258
437.713959 226.488678 -1051.112793
871.525024 -456.554077 -1201.223755
408.444214 -478.539246 -1366.294434
629.477966 -588.216553 -1157.549805
766.296509 -311.296844 -1254.742554
535.970093 -228.641983 -1528.218384
625.768738 -166.502441 -884.185547
443.666931 306.768982 -998.618103
465.614136 5.342790 -1133.277222
474.028442 -367.823395 -1406.599487
580.665283 -490.311371 -1240.692261
617.305786 -465.887299 -1245.078125
866.195374 -218.690750 -1407.647461
834.917419 -345.332794 -1202.644165
532.025024 188.536591 -1057.423462
697.698975 -349.731415 -1326.646240
358.745117 -422.877869 -1398.422607
521.347351 -543.466064 -1255.775513
839.253967 -475.260406 -1181.204224
595.791687 -80.772980 -957.164368
525.599182 -434.358978 -1354.223755
583.780762 -616.669250 -1149.827881
612.269226 258.231354 -942.857544
610.963318 -92.745766 -972.692688
385.377441 -146.622055 -1023.588501
649.817627 -200.540680 -878.655518
383.887421 216.044464 -1079.280884
509.995636 159.115341 -1081.101563
772.737305 -394.600891 -1291.969360
456.190552 -498.298462 -1322.570557
428.857239 230.436966 -1051.651123
718.508240 -553.887146 -1140.297852
746.499878 -483.378632 -1224.541748
632.873901 -340.905090 -1299.319702
933.836243 -326.547424 -1282.651123
757.200500 -363.045837 -1297.055542
616.512329 -300.801971 -1236.840698
703.982483 -432.887695 -1285.066284
705.170654 -358.291199 -1344.451538
436.983032 263.397034 -1014.786865
827.962891 -425.448242 -1233.103394
703.193298 -532.115540 -1183.960571
784.110474 -301.582550 -1316.819336
644.634033 216.850006 -947.405334
851.455078 -313.496643 -1242.124878
577.339783 -576.115540 -1175.988647
410.286957 293.455322 -1003.007874
396.048218 -244.871063 -938.876587
750.364197 -429.076355 -1285.041504
934.733459 -344.610321 -1241.722778
852.255066 -256.964600 -1386.888184
465.558960 -222.047653 -933.565857
770.788330 -77.711525 -1474.314331
589.155945 -145.067276 -922.749634
585.468384 281.237030 -926.284058
773.879028 -318.488007 -1278.981567
468.779755 -43.278965 -1079.288330
592.050598 -33.518356 -1015.972717
507.322937 185.780197 -1071.578125
582.971252 -431.229004 -1286.480347
404.685303 299.788483 -999.327759
537.307007 255.972427 -972.337708
777.109436 -429.890625 -1241.295898
578.214966 -528.142761 -1176.746948
555.638794 -424.630951 -1359.617798
530.745239 -177.854568 -938.280579
561.905762 -253.177216 -1525.066284
619.723511 140.443268 -1033.839478
539.612366 340.388214 -898.290771
691.332397 -569.904602 -1176.798340
912.057983 -145.842743 -1463.747070
395.244843 -394.840790 -1373.350830
510.954651 -562.724426 -1235.982544
392.641266 4.467882 -1180.202759
579.186340 275.454590 -929.780945
557.204529 -571.190125 -1222.251465
509.736053 24.457926 -1102.515259
834.961670 -152.782730 -1384.251221
592.602112 -135.704529 -919.185059
559.232910 -117.011696 -964.484741
500.006134 -471.408020 -1315.696167
577.179932 19.523149 -1074.257202
531.780457 -229.739731 -894.320679
398.828674 -174.974136 -998.802185
824.164673 -260.013702 -1401.369751
662.538147 -151.666931 -874.612732
557.781982 -311.371582 -1139.412109
533.550720 331.340454 -910.003967
407.153351 -55.579124 -1112.381470
855.320190 -159.180862 -1426.447998
583.031433 -352.695831 -1384.990234
555.746460 151.537796 -1080.080566
628.534241 -333.042999 -1292.465576
787.446167 -371.539551 -1300.032959
606.101990 249.358246 -945.052246
803.599426 -505.916809 -1186.585205
483.742279 202.007126 -1060.675415
542.268372 -78.359741 -1001.730408
559.804810 322.730988 -911.619873
793.831604 -499.474762 -1192.598877
759.547913 -515.222290 -1158.310791
505.383820 -574.626526 -1227.594482
643.179382 -165.013092 -879.468506
795.390198 -513.755249 -1168.763794
882.739319 -442.655365 -1208.129883
751.998840 -406.883057 -1266.201782
474.719757 310.967957 -965.323975
565.845093 294.110260 -942.445007
761.235352 -303.302826 -1316.280151
709.381897 -476.482849 -1257.285767
817.724060 -368.842529 -1276.212402
517.420166 -126.419121 -949.292419
815.060608 -418.690796 -1258.853516
714.318420 -522.202698 -1210.170776
478.110138 -148.767990 -957.601074
630.679016 -207.131302 -886.216797
689.079590 -569.420837 -1154.638306
411.341705 -271.428680 -942.058228
572.268188 211.382675 -1000.839905
472.746643 283.271423 -1001.067505
405.291534 173.391495 -1106.037109
491.444916 -3.473493 -1106.020142
624.941040 -173.552673 -893.476868
805.851318 -327.768799 -1292.915894
384.285614 -117.925537 -1055.803711
462.761017 184.473602 -1092.057129
344.696381 -56.288902 -1123.798096
515.524536 189.481003 -1066.625488
666.380127 -355.014069 -1314.029541
610.868896 206.686432 -987.258301
622.346497 235.166504 -946.935669
366.235107 277.117737 -1047.441040
608.490417 -604.998352 -1147.361084
560.058716 353.813812 -885.091370
502.190125 -405.256500 -1414.915405
628.350464 258.187866 -922.510681
583.907959 -87.939209 -955.307373
895.320923 -388.266693 -1212.935059
618.946960 -413.567383 -1276.778809
827.225403 -436.003632 -1239.880859
852.387695 -386.086853 -1254.359741
722.359680 -430.972504 -1298.504395
806.926147 -417.659760 -1248.944702
525.078613 -452.450073 -1323.603882
771.352783 -203.323212 -1451.147583
554.406006 -479.549438 -1321.538208
887.469421 -405.817627 -1217.730957
382.290192 315.948273 -1003.382324
617.348511 -74.707199 -972.116089
829.314880 -489.583405 -1183.195068
719.772156 -517.579590 -1179.662109
779.390320 -521.970459 -1178.774414
509.446869 234.246429 -1000.218994
860.766541 -450.341980 -1190.822021
376.623169 260.196472 -1050.718140
673.820374 -150.439743 -911.686768
643.098877 -95.354172 -909.320801
540.589661 -475.950836 -1344.669922
795.594971 -234.132446 -1451.747437
440.344940 -138.236816 -970.637756
539.755127 133.867340 -1094.517822
627.384155 -14.018283 -1052.178711
568.984802 228.508499 -977.327637
402.677490 -148.996246 -1014.985413
504.930878 -273.812866 -1544.510864
541.053284 -99.570366 -995.734375
904.782043 -418.678772 -1206.396973
551.161926 324.729309 -901.541809
566.737671 190.027481 -1031.135498
566.564453 314.447021 -895.626160
616.526001 -371.859131 -1371.812622
822.737244 -491.540283 -1170.819092
664.695496 -537.850403 -1178.122803
622.754395 -575.301636 -1156.845825
573.124084 306.139069 -909.079712
373.688354 -174.353943 -991.194458
871.084167 -359.733795 -1177.229614
680.753235 -373.691650 -1328.635010
602.626221 -229.019135 -872.232483
699.013672 -474.263916 -1255.038940
483.682068 197.407272 -1048.866821
791.455933 -116.921959 -1525.056396
564.523987 296.054108 -926.218323
557.840271 282.342224 -945.637573
860.792053 -219.745453 -1429.386475
464.784424 -479.895142 -1339.930298
473.662811 -452.223053 -1362.964600
561.139465 -404.453644 -1373.500977
563.026672 -568.913208 -1231.852905
448.470276 -362.745605 -1359.494385
567.987183 -528.946533 -1260.460571
518.400330 264.311279 -984.612732
477.670166 -211.056244 -921.514465
584.595886 -232.917542 -1487.044678
465.885864 309.411957 -983.587097
587.699524 176.928162 -1033.489014
477.257813 -222.925568 -903.903931
425.723633 -59.840839 -1101.545288
524.663269 239.376907 -1002.878906
879.811340 -316.041779 -1276.681030
402.883575 172.759781 -1119.112671
430.662750 -347.531250 -1362.668701
557.687012 -127.555733 -941.588196
798.938904 -253.467239 -1435.395630
294.928223 -161.640442 -1038.189209
468.302338 378.719635 -905.762268
478.801392 -356.071350 -1417.832886
414.805908 221.909531 -1064.156738
516.376099 -1.651732 -1074.677734
538.661987 282.990509 -939.810852
571.523926 347.199860 -891.265991
745.838562 -359.618408 -1345.044189
608.771912 -181.956512 -886.745117
440.711853 -120.745316 -1039.837280
617.051758 -184.797592 -886.136597
921.161621 -416.785950 -1196.752563
807.070251 -349.415497 -1313.232910
416.723083 322.466492 -982.025024
613.025330 16.796043 -1088.272705
469.138123 -431.181244 -1359.411987
691.219299 -504.763580 -1220.484985
803.835327 -330.080750 -1178.135742
449.562378 -242.659698 -921.145081
429.277435 -162.342026 -953.276733
433.471771 -379.452454 -1408.689697
911.385376 -431.349243 -1197.666626
498.319611 208.236496 -1028.669556
518.913879 -202.277603 -895.965454
469.105774 254.497986 -1019.822205
503.651367 -403.890076 -1387.232544
385.067078 4.323767 -1165.671021
365.354156 7.363784 -1174.592163
553.654358 -128.641632 -955.870605
884.133606 -180.770599 -1421.994751
418.130554 -216.313324 -928.943787
719.644104 -567.069946 -1159.824585
787.392029 -481.529205 -1199.177246
548.194031 -20.007786 -1068.797974
416.689240 -368.835693 -1407.275146
673.462830 183.703339 -949.704529
591.799377 -238.777161 -882.153748
870.873169 -329.510376 -1211.940308
631.402161 257.904480 -921.790100
427.669495 179.058395 -1095.762207
479.515839 -457.247437 -1356.451782
485.629791 324.511292 -949.764526
612.184021 307.711639 -893.327026
555.511658 -176.667145 -928.183716
610.354248 -93.743828 -959.429871
522.331726 353.897400 -908.607727
542.499451 305.525848 -938.729248
943.349670 -351.512177 -1254.912109
388.255859 263.884338 -1038.334473
496.881805 -467.832703 -1339.487671
556.409424 -5.492326 -1081.881226
527.895691 -357.588501 -1387.465088
455.348602 277.292145 -1017.483887
953.589478 -387.195648 -1207.094604
563.248047 -155.900116 -944.289429
781.664612 -519.071960 -1164.652954
824.821899 -323.619324 -1266.952148
503.079956 -160.205780 -927.893005
724.497864 -293.070587 -1304.983154
494.273651 -401.714661 -1397.717651
508.459015 285.619690 -961.817261
506.006134 229.441864 -1021.118530
583.438049 51.990086 -1125.941162
687.563904 -392.962738 -1307.815063
436.163757 181.389832 -1103.495361
582.662537 -106.700951 -978.203857
663.673584 -398.722351 -1311.406128
565.577271 -90.188980 -1004.127502
406.282196 -161.231918 -1007.952087
776.393494 -461.024841 -1208.661133
646.407776 -104.475052 -927.948303
418.582367 -85.078072 -1047.697021
595.265442 -197.429977 -885.000488
676.152344 -318.212097 -1271.446899
801.215576 -507.536377 -1174.436401
684.172180 -588.786438 -1145.991577
689.922485 -444.806519 -1299.591553
642.766663 181.040131 -999.007263
885.914185 -404.848236 -1190.502563
483.246185 -450.327057 -1379.378540
878.750549 -197.197693 -1395.307251
675.376404 -413.933777 -1294.838379
446.065460 185.527924 -1096.094238
642.952148 -453.126587 -1270.088623
632.718567 -276.866669 -1173.324219
579.872070 -236.287048 -880.954102
483.351196 -183.762024 -936.920410
332.311737 289.015869 -1049.047852
391.429016 162.989532 -1142.923340
787.395874 -200.524048 -1414.273193
424.291656 -250.648682 -923.724670
590.856934 -29.281338 -1029.910522
603.769836 -236.743561 -872.225342
418.001831 -66.738503 -1083.790283
425.117279 -249.813705 -946.393860
377.189606 315.491943 -1010.819397
791.391357 -456.113129 -1239.478516
565.716431 -404.467712 -1386.401367
438.124573 -130.792679 -1001.496521
622.695984 -111.714249 -929.748047
545.703796 -268.044281 -1547.195679
705.516174 -427.203552 -1298.757080
462.144958 -106.162697 -993.164551
562.731873 352.642090 -877.191345
613.031982 209.883820 -963.295166
602.568604 -371.553192 -1360.997559
485.468781 -130.955307 -980.393738
725.539978 -343.448334 -1303.928101
381.526611 334.570862 -990.283325
487.875458 46.976711 -1164.212646
701.006592 -535.645813 -1169.282593
622.678406 -227.169571 -857.021606
502.174835 -53.287766 -1064.996582
572.603882 -88.093391 -960.903137
426.851501 219.503845 -1074.644287
875.260864 -433.294952 -1196.937622
524.410522 -162.284424 -930.501099
897.622681 -107.179756 -1509.311890
555.934204 273.701782 -949.371948
835.420532 -140.263092 -1420.565918
718.927063 -414.635437 -1293.562500
379.474884 -244.979858 -962.453369
490.241089 -160.470535 -949.274414
725.698608 -477.993347 -1247.271606
599.936279 -138.955933 -936.423706
603.736816 -429.713715 -1318.211060
303.118347 -171.491379 -1001.196533
569.490906 -311.018524 -1271.480835
490.686035 313.435394 -975.869934
530.732910 16.176504 -1107.186890
480.367554 -253.211090 -881.349915
542.489929 -241.630157 -873.116516
537.847534 208.446182 -1038.161499
588.176086 -556.714050 -1183.350220
784.569336 -496.287750 -1200.555420
465.324829 154.867859 -1096.023193
551.202026 -96.994377 -996.668823
625.406067 16.998659 -1041.648560
458.024506 -209.876236 -923.654602
484.811829 165.038208 -1094.737427
832.388672 -421.969238 -1218.154419
456.337067 -517.459900 -1289.232178
711.268005 -394.510376 -1310.535767
890.786011 -443.876923 -1205.865601
468.233490 351.428375 -935.958740
736.645264 -445.561890 -1259.330688
605.366455 -164.698639 -891.746399
434.104889 252.126144 -1047.053955
678.021057 -459.654327 -1230.047119
907.513977 -430.201691 -1206.184448
674.708740 -467.540558 -1263.811279
513.742859 345.268982 -924.851318
678.969543 -519.272217 -1221.640015
580.906189 266.307953 -942.264832
645.084473 -139.978424 -898.819824
347.056671 -78.849022 -1093.357666
781.444153 -71.128098 -1586.947388
542.287109 -536.092041 -1249.139160
630.715881 -569.368225 -1178.644043
789.378418 -457.944946 -1240.485229
611.047241 -218.396194 -874.693481
571.898743 344.847382 -887.572449
595.376587 -339.004761 -1366.308838
359.002319 245.258774 -1080.529419
819.537842 -451.492401 -1194.641113
689.820679 -541.128784 -1160.542725
628.923584 192.041031 -970.233215
461.770813 -75.474533 -1029.230713
211.028381 58.023735 -1003.459290
566.152344 245.949356 -974.335083
585.798157 198.007736 -1007.158813
778.550964 -506.452698 -1175.260376
523.423462 309.153076 -945.989807
785.740662 -381.154358 -1305.789917
492.292725 -213.558640 -909.557617
484.379639 -493.212646 -1335.057983
545.795959 -135.583832 -972.928955
767.470642 -345.983978 -1295.377563
417.101471 193.302429 -1100.548950
513.243103 -64.506775 -1024.385986
848.769470 -224.488647 -1396.107910
624.663757 263.266876 -920.212769
469.912354 -47.283298 -1068.179810
765.611938 -327.801697 -1285.633545
503.612854 -467.165894 -1336.669678
339.340332 -148.549850 -1032.577026
509.433685 -158.208527 -941.251770
507.196655 -560.929810 -1223.655029
585.221313 -566.212158 -1185.897583
571.570129 -14.773113 -1049.538452
604.334290 -508.956940 -1163.818237
587.207092 -395.960175 -1326.177124
705.458679 -504.027100 -1213.758911
544.025085 -195.360367 -907.254456
297.483398 -208.871475 -1020.763367
373.828247 8.904028 -1183.028687
529.490356 -191.117004 -903.331848
875.866089 -449.583710 -1187.780640
397.070679 -243.090515 -935.096619
615.980591 -158.864243 -918.803833
423.656433 295.535767 -997.001526
723.260437 -327.509735 -1319.203735
830.839050 -446.596069 -1213.838379
337.030243 -91.823761 -1081.034546
360.819611 -216.719238 -960.128174
603.364197 -189.826721 -890.472473
573.900696 -486.217010 -1240.194702
475.803955 -397.288116 -1411.354492
478.367920 190.505859 -1058.866699
444.632935 50.580017 -1195.609497
330.512238 -205.527100 -979.930237
599.210083 17.814240 -1095.579346
499.960236 -241.358261 -893.480347
727.305359 -456.119751 -1253.093018
537.207275 -214.705231 -886.971741
658.766052 -495.802704 -1225.297241
417.340607 11.531232 -1152.237671
540.141052 -243.973907 -883.150269
505.434021 -219.218353 -898.143799
849.902100 -156.381653 -1395.097534
702.000244 -114.206139 -898.655701
576.090210 -360.733093 -1378.476318
522.915161 63.785488 -1132.012329
840.113220 -385.009125 -1250.249512
752.000183 -222.479309 -1451.880127
208.137329 0.653752 -993.319397
526.589233 155.665573 -1088.182495
360.607788 -247.797485 -968.820129
835.817444 -305.579224 -1352.650635
539.980408 337.136383 -912.923523
640.795654 238.405731 -934.476318
701.614441 -251.627502 -1323.010620
889.868713 -387.305420 -1231.286499
498.566437 -180.731400 -923.693176
550.369812 -186.471375 -887.548828
492.052521 -368.732697 -1383.595581
615.975342 229.078445 -957.864136
501.470642 359.746490 -942.046509
425.824432 -428.584229 -1384.082520
527.570557 -249.177185 -886.034851
409.911011 306.824066 -999.312012
594.263245 -530.818848 -1191.775635
515.664795 -175.281693 -919.908447
823.029724 -360.257874 -1254.696899
680.285400 -544.235107 -1193.993530
597.997925 -170.283569 -884.071411
369.798553 -106.599678 -1048.805176
513.409241 -261.462372 -1529.669556
408.264252 -428.985321 -1381.119629
728.124451 -227.962708 -1435.064575
579.844055 229.579651 -976.697693
602.120605 246.492172 -947.644775
622.698181 -406.898834 -1301.658081
553.697693 -522.978821 -1257.419922
390.411774 24.129732 -1152.592285
894.934387 -383.274231 -1215.077271
542.811890 -564.143555 -1218.387451
568.668152 -516.305481 -1254.352417
376.385040 187.575256 -1113.191650
522.116394 291.275024 -948.297729
854.129395 -308.068512 -1247.286133
580.185425 221.986877 -982.912659
485.405884 -462.075806 -1349.388306
643.208618 258.792419 -916.821045
668.699158 -49.128094 -766.221497
643.883911 240.026077 -926.030090
623.054810 -532.634460 -1196.762207
381.303253 -127.070679 -1009.157776
506.663300 -138.398254 -956.282104
836.100830 -368.664246 -1269.459351
587.680481 -110.315247 -938.238647
382.967346 347.756561 -974.734863
623.410461 -166.129700 -875.731262
683.535095 -294.447815 -1333.920044
644.012024 -300.644409 -1264.471802
375.305206 -171.823547 -967.160461
460.557678 -160.260406 -988.236694
568.933350 286.282471 -916.955933
558.598328 -219.331268 -883.611450
499.160522 2.932014 -1089.464844
404.777740 375.855835 -978.885864
332.597382 -218.977478 -988.097107
418.149719 317.636993 -996.868408
836.409546 -478.409546 -1186.492676
582.346863 -392.153961 -1286.304932
458.284637 -45.317146 -1058.250122
578.774231 -511.022583 -1177.079224
514.062561 -464.501251 -1336.966919
446.865997 -517.610291 -1308.058472
860.660339 -166.616898 -1430.304199
542.844055 -180.580948 -903.867737
514.097595 345.796814 -940.577026
533.692017 -505.667297 -1309.343506
792.392212 -528.648071 -1165.168335
798.516357 -485.009857 -1202.670410
481.135101 -189.627029 -910.623230
588.260193 339.758270 -885.166809
687.461060 144.580811 -987.323120
324.639435 -193.925323 -1000.938843
618.804565 306.299286 -901.641418
495.113617 -426.214752 -1375.118286
421.141510 -70.287521 -1088.994507
519.983582 -153.790146 -960.706726
467.318329 379.581024 -936.003601
325.125397 -185.696823 -1003.142944
533.519592 -265.114960 -1497.994873
489.915344 168.016571 -1103.048218
479.820679 -44.728794 -1073.534912
489.125427 211.155960 -1036.538208
645.914246 -552.119690 -1181.887573
388.815338 -192.149155 -994.493835
667.043701 135.477585 -1022.107971
526.302368 156.263809 -1104.626465
375.191681 -238.134827 -952.078247
402.630615 -341.695313 -1470.915161
502.624390 -156.713455 -971.901184
576.693054 -458.948120 -1309.727539
899.837341 -365.825378 -1209.704590
655.470642 -506.272827 -1209.851196
426.665283 147.850708 -1122.344116
664.128113 -156.373001 -904.085815
535.819275 -541.619751 -1225.093994
494.618225 -128.305435 -1004.778809
926.652710 -353.072327 -1241.625732
561.005859 316.856293 -901.225830
652.633484 -587.759399 -1163.892944
406.757416 166.700836 -1115.639160
514.869202 203.437363 -1050.862671
435.709229 -513.659546 -1315.669312
535.433716 37.882927 -1136.138062
420.112457 244.994293 -1070.804077
328.349640 -212.611542 -989.286621
441.529480 177.744370 -1089.074707
542.474609 -68.740219 -1009.256165
461.571991 215.431503 -1056.339233
859.953674 -49.732166 -1579.842041
437.628510 30.138306 -1139.921631
356.371185 198.732758 -1119.041260
580.317383 327.466309 -884.515198
382.650757 226.881180 -1069.856445
686.744141 -40.754326 -976.828979
684.389465 -581.559326 -1158.875977
638.305298 287.632813 -895.447327
431.041016 357.983368 -952.618530
502.264709 -483.159515 -1352.698608
505.812592 -320.034485 -1355.439819
438.270844 -181.816422 -952.149841
526.679199 279.056458 -969.781372
589.698425 -259.825623 -870.094910
462.419006 146.891800 -1120.325317
390.583740 214.257278 -1084.585083
422.166168 150.608124 -1134.295654
578.700439 274.549927 -936.875732
868.334656 -96.718056 -1530.912598
946.608582 -317.525360 -1277.928833
733.295471 -454.637665 -1252.798340
738.370300 -418.028503 -1269.811523
631.725647 -215.686920 -870.275513
742.540039 -500.981201 -1199.171021
440.606781 -190.251144 -926.180969
520.153442 -105.180855 -968.566650
613.719238 -501.017792 -1183.537964
727.489929 -272.361084 -1332.859131
519.178894 58.249641 -1154.616089
818.139587 -357.076996 -1277.917603
325.004944 -120.449318 -1041.418091
620.828857 -45.724037 -1002.754700
332.808624 247.772430 -1093.689209
588.592346 -250.363892 -883.684326
921.519043 -368.971771 -1236.513184
829.083374 -368.179688 -1276.820068
512.670654 -393.600372 -1373.725830
798.323181 -407.962097 -1260.588379
722.718079 -527.144531 -1168.355103
583.753845 330.426727 -900.351318
381.982727 195.851990 -1104.020020
507.203217 201.762329 -1048.631470
594.131653 -408.602509 -1373.614746
616.439697 164.257156 -1026.820190
626.441833 -585.494507 -1169.578735
556.768677 -514.793274 -1270.579468
831.567749 -368.439545 -1263.221680
621.315186 -515.319092 -1166.005981
513.603394 -507.705017 -1292.162476
487.821960 -129.125397 -1001.326355
462.687897 -373.060242 -1407.642212
522.446228 268.019836 -963.580444
524.931458 -263.668671 -1562.452515
507.313629 -526.294067 -1275.980225
522.075806 -104.565994 -991.504578
489.794678 49.933529 -1155.807251
562.950562 -163.367874 -901.115540
399.571411 296.034210 -1013.511719
476.511932 220.876663 -1054.718750
442.042786 55.003975 -1198.562622
542.286377 -554.036499 -1228.664429
567.051331 0.308884 -1053.195068
642.016296 -534.252625 -1206.721069
654.038513 -141.476883 -909.127930
505.863861 177.563705 -1083.161987
678.755615 -19.821232 -755.913513
594.502930 -206.421768 -871.969482
648.910889 -154.462509 -893.141785
408.088776 -233.207733 -947.994629
627.339783 -18.986738 -1012.678040
602.023315 148.501831 -1053.389404
742.404785 -294.026855 -1373.424683
826.339355 -326.711670 -1265.286011
382.340698 -236.539856 -971.316895
565.212585 -105.035286 -973.748962
649.834595 -464.959229 -1244.034424
703.208069 7.252578 -1033.636597
619.276550 -559.465027 -1171.872192
485.421906 -370.670837 -1393.974609
575.914185 268.442596 -933.307190
564.767151 -268.277222 -877.122864
482.507050 -209.882431 -931.237061
490.513306 -360.247406 -1403.533569
526.814331 -415.286224 -1376.661865
336.781342 -125.465958 -1048.471436
471.789215 -421.321075 -1365.038086
453.889526 -129.774887 -993.526978
535.289490 307.683472 -931.353455
523.237854 -391.408203 -1391.346191
568.572205 220.104385 -992.142517
490.619415 -439.087494 -1345.975464
459.098053 -257.665741 -887.879578
