ply
format ascii 1.0
element vertex 1376
property float x
property float y
property float z
end_header
224.630386 523.101379 -971.970703
168.535751 -82.051651 -1508.998901
346.849884 -117.665062 -1437.620361
203.054749 293.460052 -1188.346802
479.777374 -2.497647 -1507.167603
398.546844 -231.491470 -1389.443115
339.202881 301.660522 -1142.868774
169.555176 564.490356 -922.841492
174.607986 -144.206161 -1491.496460
444.497101 -256.990479 -1364.922852
171.165359 450.038361 -1067.702026
414.375977 179.947739 -1598.919434
133.360809 600.118652 -933.365295
303.025024 166.002457 -1077.470093
174.683640 1.811138 -1036.347534
42.283737 158.261032 -1143.990356
218.646362 498.980957 -1024.305664
575.323425 -94.564743 -1442.257446
59.952843 452.190918 -1073.604736
253.652023 -16.561760 -1034.252197
173.282120 77.426720 -1077.112427
202.638000 -216.281509 -1443.457764
602.805420 1.025530 -1477.474365
191.711227 -8.528062 -1472.994629
478.727539 -175.023849 -1422.024902
319.079834 230.122818 -1108.419556
252.066513 183.192215 -1105.080566
163.014740 204.512344 -1148.081787
279.943878 497.374664 -1008.947327
117.070473 54.288246 -1065.258057
169.232117 277.841187 -1217.720703
392.047485 -178.948441 -1428.069580
286.376587 538.684570 -949.885742
123.517975 600.186523 -919.070374
165.880096 420.535126 -1097.489746
281.138367 192.004639 -1098.185913
196.221115 -26.974003 -1404.874878
123.992302 506.051270 -1016.655396
92.732170 29.225273 -1061.218628
89.167023 145.708374 -1127.161011
368.822937 -118.740707 -1447.040405
171.227066 554.092224 -938.009277
279.615784 347.732422 -1187.934814
91.738403 485.199432 -1044.578247
370.210083 36.929325 -1019.433411
227.759491 426.740234 -1095.168823
248.403320 55.849957 -1057.101196
222.337555 407.874725 -1152.491211
269.616394 259.295319 -1133.956909
305.385315 525.544739 -949.062439
84.799278 447.453186 -1081.641724
325.855835 -284.841095 -1386.303467
118.957298 -33.545715 -1067.679688
259.045258 -304.745911 -1381.172852
189.174362 242.981445 -1162.432983
34.516983 192.410263 -1169.214966
53.685741 196.123398 -1145.434570
251.213943 3.037978 -1036.924683
473.072540 191.248886 -1595.971680
258.201202 17.746218 -1489.930054
381.954376 91.273659 -1032.533203
265.931030 551.759094 -933.306335
320.001343 -275.045685 -1380.482056
244.605515 -96.570946 -1470.510498
221.204010 131.536621 -1108.946289
145.490326 -223.233765 -1453.016479
353.321075 -63.966404 -1493.018921
432.714081 214.949417 -1605.465454
331.570007 486.342194 -1003.151611
297.650665 -279.029633 -1381.622070
27.820065 503.080933 -1007.231750
294.023621 511.703705 -971.374023
276.558502 159.558838 -1093.169189
148.720032 510.700592 -1008.744202
325.368347 58.025532 -1460.851563
559.118225 -33.361256 -1465.429932
460.472229 166.866989 -1565.685425
319.474579 495.842377 -984.921082
414.615448 -224.123093 -1391.529541
-15.396037 501.938049 -1051.519897
359.811554 -174.449219 -1382.872192
310.206329 -201.014511 -1391.807983
160.811600 -25.518932 -1035.274658
339.007965 -12.066588 -1040.778687
115.711044 27.555571 -1616.841187
106.932472 -137.695221 -1501.940186
286.872223 11.684225 -1020.598877
519.762024 -15.109511 -1460.477051
336.902557 439.089661 -1060.992920
258.678131 -6.048878 -1015.736755
19.445562 126.226189 -1129.306274
391.135498 291.379242 -1151.116821
318.056610 460.535187 -1038.863281
240.749039 148.158203 -1075.302734
235.278427 169.331039 -1109.543701
358.508667 -205.896896 -1387.971069
203.381317 282.385437 -1181.525635
316.524963 55.114456 -1013.105347
132.681824 180.390564 -1118.773071
377.492950 43.068516 -1508.204224
266.039093 19.346975 -1023.149658
271.281067 118.473587 -1068.484131
243.832611 467.002747 -1043.606812
373.962585 155.128937 -1061.319092
404.429749 317.979492 -1674.082642
241.720642 530.276184 -966.642944
212.304001 447.657379 -1085.228394
252.402130 7.158146 -1484.690674
145.040451 177.873199 -1127.766113
104.492935 242.548294 -1203.746338
350.269897 130.606857 -1053.663696
367.295532 -156.086365 -1428.405273
29.873224 422.822479 -1109.444336
283.461426 202.567871 -1118.140747
270.764435 232.501419 -1159.040039
442.886292 3.732575 -1436.577881
489.893555 -180.164230 -1410.591675
195.256195 122.256393 -1088.841431
-60.782131 184.760834 -992.119446
247.882507 491.032104 -993.796021
210.784058 518.086365 -966.965637
506.016357 37.323845 -1484.365967
281.509399 441.329834 -1064.781494
169.304916 434.184052 -1108.197144
484.849854 -147.729233 -1439.234985
303.367706 330.195953 -1203.474854
201.683517 -84.921104 -1507.005127
168.879471 132.112640 -1599.890869
125.301460 95.987373 -1084.107788
293.124786 145.929062 -1059.111572
179.997299 -13.834710 -1039.443481
424.863770 -83.392967 -1482.864502
282.930054 125.448616 -1078.392944
275.913300 132.148010 -1089.277832
323.134308 -229.429321 -1373.729980
265.412811 -39.813389 -1283.194580
52.772915 558.797668 -955.536682
404.237488 -44.108810 -1503.583740
149.171066 465.353546 -1060.647827
178.051071 -32.334370 -1539.983398
483.491669 26.935286 -1425.858887
140.012405 442.635010 -1098.804688
493.501343 93.348625 -1525.842163
51.525753 141.054443 -1131.949097
78.846298 391.970673 -1167.494751
358.407135 131.948380 -1063.127441
486.631256 -177.812210 -1387.980591
331.498871 -186.255341 -1422.671875
388.031158 21.256952 -1492.429810
306.053650 46.347191 -1486.122559
373.754669 -195.100861 -1405.559937
149.975906 577.221802 -920.858093
151.571152 100.970284 -1085.386475
299.457336 581.655029 -922.541748
544.972961 -152.247635 -1401.056641
277.185486 -264.933655 -1399.133911
392.501465 157.291489 -1595.900391
78.512703 279.502655 -1206.234375
291.596710 -206.022171 -1443.756714
346.744141 -295.994141 -1375.073242
131.268082 91.314796 -1067.805298
270.254639 -252.899933 -1409.149414
260.311188 286.760193 -1184.957642
185.489899 -0.168712 -1474.524292
285.957794 84.109077 -1062.985352
182.992035 455.874054 -1048.593994
228.136856 490.652618 -995.680481
513.632019 -176.149521 -1378.862061
267.678284 219.332794 -1117.133789
521.447937 7.771238 -1407.521606
261.095764 -243.808136 -1435.838013
385.382660 -259.243164 -1361.850952
431.334106 166.546768 -1604.980469
195.663406 198.833206 -1147.545776
224.905228 236.193817 -1161.897461
398.974274 103.898376 -1030.633423
249.648621 508.971863 -981.773132
65.332550 288.101837 -1240.175781
120.235069 -13.932292 -1032.849854
113.771584 80.552200 -1077.384399
643.072693 51.774223 -1480.700562
446.102386 -108.794174 -1464.601440
287.486481 -255.086334 -1422.438599
144.135361 262.976257 -1187.930542
151.446335 471.912964 -1044.518799
319.142334 -198.769928 -1400.385498
399.239288 57.541374 -1458.862671
297.133179 462.144501 -1038.189209
503.419891 -181.107391 -1382.098755
571.558533 -108.804558 -1423.295044
281.523193 4.076102 -1007.841064
344.420776 -263.021332 -1386.618774
324.043915 -41.547573 -1466.188477
251.252350 473.899200 -1033.555908
303.016968 -282.481812 -1387.686279
119.779778 84.029198 -1097.236206
140.748108 465.823425 -1046.817017
268.767731 37.112442 -1014.316833
214.838837 54.347237 -1563.574463
219.542892 -150.847153 -1479.854736
343.826050 125.449799 -1046.863037
220.243393 238.907684 -1156.040894
191.512604 447.730743 -1058.358154
366.736420 50.261948 -1023.225769
422.566101 204.002319 -1073.944458
62.872150 431.676331 -1087.145752
288.821838 201.592422 -1128.087402
250.560638 58.600941 -1022.739624
283.704193 -192.977936 -1410.696167
286.207581 478.395294 -1020.066284
182.709854 -149.027954 -1475.762085
246.089569 15.923013 -1544.330688
404.651917 36.459213 -1017.776855
394.867615 -55.135643 -1507.099976
417.821930 -149.797195 -1440.591064
252.830429 556.380920 -922.031738
239.932510 19.152658 -1015.093445
177.956818 108.505157 -1069.852295
354.353699 197.514877 -1088.557983
327.412598 -96.970543 -1393.316406
196.731491 290.698700 -1189.180664
160.976578 527.272644 -969.217346
195.739792 476.815460 -1055.580322
188.205246 456.241699 -1065.074097
206.201157 -214.376801 -1428.891724
367.169647 108.208344 -1027.628906
234.850784 -13.970584 -1028.696289
209.516281 563.823242 -924.867798
111.358376 -141.567505 -1502.517944
200.197540 398.488739 -1115.217529
268.984528 132.831329 -1068.309326
147.801575 106.477943 -1100.489258
7.381365 519.117371 -1002.137085
430.554169 181.917938 -1077.062744
468.855011 -225.065002 -1365.983276
169.586502 -116.379532 -1512.005737
130.500687 398.639465 -1158.387207
517.951111 13.043075 -1477.615845
135.424408 591.510620 -905.816223
117.850906 594.974121 -936.630981
109.573280 18.410051 -1064.924316
195.506516 -252.655472 -1426.274658
408.310791 -199.844193 -1415.455933
157.464294 -33.301788 -1050.287109
300.064087 113.003609 -1066.700562
213.893417 -240.973633 -1429.776001
338.437958 514.601990 -963.246399
82.757027 -147.420395 -1502.414917
195.518570 572.419861 -925.431274
204.451187 485.788361 -1013.924500
167.883011 -0.316073 -1537.025757
60.521660 551.588318 -960.314148
221.828339 -221.918243 -1440.997070
423.908600 91.040665 -1571.287109
227.997116 58.790558 -1028.186157
585.967468 -74.627853 -1447.829956
180.731232 307.595032 -1231.609253
455.544098 -154.385132 -1439.189819
240.433670 167.957169 -1120.799194
54.174263 -50.679192 -1567.869751
74.678322 50.376476 -1074.455811
200.856033 43.155323 -1037.157349
390.803040 29.941534 -1449.609253
601.004944 22.417706 -1483.132935
554.519104 49.594433 -1449.284180
186.333221 275.614471 -1185.202881
410.300415 205.119186 -1069.475220
198.222061 -250.119186 -1426.418457
388.539490 -255.064880 -1367.505127
548.986450 -163.037750 -1407.467041
410.421387 36.682468 -1475.752930
293.384003 -277.744995 -1374.519409
159.073135 507.158936 -1009.774048
281.705139 -61.709576 -1284.650879
334.586029 150.610672 -1063.143188
179.064651 -24.921312 -1015.653198
624.553711 10.913657 -1478.728516
93.547775 -34.735088 -1055.663574
390.556793 229.351547 -1101.387451
186.448654 4.066918 -1049.911499
335.561096 -297.046875 -1368.326172
250.709106 -246.736633 -1419.968384
437.712097 184.951111 -1072.134155
595.102478 -70.215767 -1424.132813
374.100555 11.183932 -1027.096924
343.036621 254.368500 -1123.244263
134.596481 64.101974 -1652.639526
52.566677 82.794228 -1089.333740
320.614960 -170.382919 -1373.076782
328.629608 120.217911 -1037.460205
27.159702 49.711678 -1091.171021
104.198204 -104.580231 -1530.909790
107.151192 485.135925 -1033.612305
611.587646 -39.691830 -1456.420532
187.449219 9.185748 -1022.867432
324.708374 57.472694 -1020.585693
194.996826 547.841431 -960.019287
506.452087 -51.001595 -1475.204712
9.491735 450.243896 -1070.982666
323.118408 452.107941 -1050.984863
384.108856 420.744537 -1082.042969
63.537376 506.248718 -1002.860840
59.664185 405.927460 -1127.027466
371.282196 110.906853 -1043.953735
177.888275 461.979767 -1060.876953
388.804932 -142.625793 -1458.288696
270.298920 571.148438 -928.150452
43.636669 166.684113 -1142.830444
275.475281 267.248413 -1153.147095
229.111465 239.674194 -1154.196289
150.929565 25.891182 -1042.533447
434.550354 -188.103607 -1408.611572
45.488548 -147.853683 -1502.401123
326.719879 -177.398529 -1332.035034
523.072083 12.602350 -1452.589355
233.696930 500.921814 -1002.013550
105.125908 44.129017 -1622.311890
151.434860 579.425232 -919.840271
409.832886 -164.417450 -1429.150513
227.027252 61.003216 -1053.786133
414.454895 166.869888 -1607.949219
198.669479 -184.255936 -1463.172241
23.969948 132.971451 -1144.348877
399.165161 -256.587280 -1382.344360
361.240906 -108.857117 -1458.905029
47.512447 207.095840 -1171.718628
21.027273 446.688690 -1073.936890
344.216339 152.121964 -1063.931396
207.758209 0.768606 -1022.762390
118.734322 492.174042 -1022.169678
201.705399 506.058868 -1000.745178
495.007629 334.268524 -1688.644653
158.483185 104.687172 -1085.856567
521.545776 28.895073 -1431.490601
341.270172 -31.152884 -1502.530029
555.194275 30.125450 -1430.891235
383.921906 228.486542 -1091.412476
364.432465 63.104881 -1024.036987
209.888107 577.426941 -910.498901
67.383324 470.592529 -1043.787842
326.890686 74.109337 -1032.585449
317.951935 47.892303 -1011.127136
373.718231 46.021744 -1034.236450
85.429718 101.596939 -1080.743042
223.075974 490.840698 -1013.804382
106.959114 -9.702387 -1056.649536
123.069962 465.558990 -1042.040527
500.473236 -143.428009 -1420.677612
363.812744 -288.058472 -1349.727295
128.151871 562.648376 -945.511230
121.792915 533.212219 -970.891541
183.500885 -48.264694 -1517.755249
476.423798 -187.926117 -1384.819092
399.144379 -67.177452 -1491.526489
103.755142 -86.173553 -1508.624146
170.653488 115.380142 -1099.604858
388.838715 197.004929 -1080.540405
322.355713 122.641388 -1051.035156
109.051315 189.700943 -1160.514038
179.560226 -242.196228 -1438.327881
201.102829 1.114938 -1478.925415
277.996063 113.774162 -1047.375000
421.481018 81.336586 -1033.295898
253.041473 461.874481 -1045.069336
24.642326 497.880951 -1018.060669
183.347473 396.584747 -1123.129761
535.241882 -14.055937 -1463.621460
347.952332 -173.807434 -1364.656860
121.043465 47.386452 -1078.979858
127.877502 115.839294 -1083.334229
313.327972 520.233765 -967.928223
434.115265 320.998016 -914.268738
280.972107 469.707489 -1029.296875
603.641541 1.502397 -1465.920776
343.912201 86.100433 -1028.891357
614.043335 -0.143320 -1474.136597
289.721985 570.992065 -923.482239
244.367355 500.877441 -989.984741
459.899078 176.324020 -921.664246
384.966644 -198.186249 -1409.218994
30.072962 515.929138 -993.028259
434.942017 140.332825 -1540.742920
58.597675 66.743126 -1088.239380
193.883789 182.828186 -1105.251099
384.222321 116.418968 -1562.210815
577.985291 -82.419640 -1448.070068
396.301544 -271.581268 -1365.987305
403.467468 -240.190689 -1373.004150
223.851669 288.305603 -1195.937622
499.381927 -144.459396 -1417.606567
228.428101 -131.116882 -1495.260010
496.278595 15.138322 -1514.300659
135.483749 480.323669 -1025.061157
219.560577 121.325493 -1090.333618
38.160954 -105.909454 -1508.190430
416.479828 134.415466 -1039.026733
353.734039 -49.344250 -1494.475952
365.885834 -84.884201 -1490.433960
266.484650 -283.758026 -1405.497681
156.052582 324.524963 -1212.508301
266.092682 107.124275 -1042.463013
408.048584 -2.293961 -1465.902954
191.837479 454.569489 -1070.093506
238.944366 448.872101 -1073.237183
253.604492 -24.470905 -1027.853760
111.175934 391.064667 -1139.754517
137.952499 599.008606 -949.518982
130.495468 76.943306 -1060.009766
77.047615 449.541382 -1070.380005
146.355759 288.701660 -1179.638428
337.074707 74.645905 -1016.760620
481.504364 -186.932144 -1397.619873
130.801697 -24.032038 -1036.922119
311.053070 55.639347 -1021.845764
555.035889 -53.905209 -1464.303711
415.796051 59.351952 -1020.286133
158.621796 570.601318 -927.422607
375.705780 -99.307037 -1489.146484
417.338470 -106.958473 -1477.793091
71.477402 408.144989 -1132.400635
280.292999 -155.024170 -1468.452148
146.679016 183.277130 -1138.310181
278.082489 545.625366 -929.794312
459.047516 4.349082 -1489.228882
295.047791 -249.879852 -1397.296143
396.652008 -72.438560 -1476.801025
71.767540 -0.107209 -1087.775635
337.120270 448.980499 -1045.689575
140.587082 491.270416 -1032.596558
136.909836 447.179840 -1092.407227
401.595245 -11.263065 -1527.526978
472.650330 -180.114990 -1407.056519
377.412994 -78.773781 -1488.104126
242.697769 597.464111 -906.433167
403.258240 -71.577637 -1483.788696
248.236816 -131.858612 -1471.491821
423.820984 -195.185333 -1390.465088
186.623749 -48.407478 -1014.597717
224.733429 175.641098 -1097.276733
440.467377 -113.621887 -1470.835693
157.932083 510.157379 -999.127991
331.638611 288.644623 -1168.268555
408.784302 -148.102722 -1442.342041
374.668884 -277.125031 -1385.000977
220.400467 -25.956980 -1541.646606
103.876518 463.394775 -1059.011230
230.828476 50.069717 -1034.121094
120.949493 505.190033 -1008.876587
154.578049 533.253662 -996.044067
169.326202 563.189087 -933.851563
308.891327 -133.362900 -1442.431763
291.397675 -203.581345 -1436.088745
106.500984 -147.336548 -1495.767944
291.760864 -1.079124 -1022.102417
103.075363 513.784546 -999.973328
329.547150 0.975853 -1000.920898
517.313660 -3.913064 -1454.094482
265.487000 -27.496964 -1495.946655
253.832855 353.628204 -1197.750000
454.477905 187.419159 -1597.898315
244.833740 581.745972 -900.895691
391.575623 21.634771 -1014.979431
449.123444 -167.351593 -1432.769409
330.486115 -12.738581 -1035.850098
174.202881 -8.835813 -1039.681152
86.429535 508.995087 -1038.411865
90.723480 -25.408260 -1560.869751
166.220490 -59.647236 -1534.227539
168.448410 485.394867 -1024.784180
230.683365 -86.887260 -1498.287720
116.951508 -87.730835 -1532.219116
300.507019 553.936218 -925.609009
190.068420 -8.769400 -1023.862366
46.031204 520.029419 -992.177734
247.585953 566.956604 -937.327637
208.567581 -205.919601 -1463.234619
141.295059 -15.231375 -1059.182129
42.983654 -150.563660 -1491.737183
384.430420 -185.966522 -1408.569580
265.654449 509.227936 -987.685120
320.325043 -19.300859 -1025.944336
260.605042 -53.686131 -1520.790283
427.083801 -131.281982 -1447.864990
297.784607 414.807190 -1131.648438
233.869858 420.285980 -1115.050293
485.418549 17.888083 -1500.829468
132.246002 448.713379 -1083.700684
268.825012 272.493469 -1156.173462
94.331619 467.624451 -1067.125854
100.378860 -143.028381 -1499.378784
295.035583 -298.899109 -1358.934570
176.329315 493.498962 -1008.631592
157.041519 594.276672 -923.656677
100.732468 428.717102 -1115.649780
99.457748 -153.787521 -1498.023560
621.764526 -26.315222 -1448.157959
394.240112 71.220200 -1598.753174
107.860435 155.506561 -1134.604980
498.411224 -58.674446 -1472.364258
92.314148 561.576416 -942.995850
323.673798 -136.596237 -1346.461060
428.400513 -204.168747 -1412.336060
-73.484581 275.640350 -1003.575134
391.870422 73.221405 -1489.833008
17.993065 -102.182159 -1543.180420
327.728821 477.806335 -1021.786987
360.587524 215.984955 -1109.003906
479.812622 349.156006 -1700.358765
465.866058 107.103462 -1552.704834
244.509460 -80.045181 -1514.973999
455.599579 -45.117649 -1485.865967
108.363152 12.282588 -1054.565308
366.058807 459.043213 -1003.462585
356.613312 -215.541351 -1351.521729
279.786743 29.613195 -1027.917847
166.173843 440.075104 -1087.558716
159.011078 561.828491 -953.051025
85.954109 206.885895 -1167.201782
420.157166 115.757896 -1587.931641
567.407288 -120.839035 -1412.705444
154.694260 -204.541763 -1464.081665
96.454918 -132.741287 -1499.957275
115.739052 -140.295578 -1501.645386
498.048920 -57.376953 -1474.973877
92.899185 205.807968 -1194.727905
79.838066 244.488510 -1184.713989
282.803192 288.048309 -1149.209839
499.299713 -50.467819 -1478.392334
61.299282 284.627991 -1195.675659
155.362244 306.528656 -1218.078735
133.128510 54.717415 -1044.713135
74.250778 120.613792 -1113.891968
325.036285 227.365204 -1113.955688
405.646423 249.982147 -1096.926758
387.266479 126.253029 -1589.247070
519.894470 2.265252 -1384.677856
448.396851 0.044951 -1507.413452
198.424316 570.816467 -932.571167
422.241272 -43.372169 -1477.062012
421.077606 119.691719 -1576.869751
175.494553 403.977386 -1166.162354
450.463776 -104.982841 -1464.989014
351.377197 481.897064 -990.400513
139.311874 -117.105667 -1513.442017
64.258461 -114.055542 -1537.532227
260.469238 -293.452698 -1387.865479
271.725037 51.139683 -1026.796631
576.609009 22.860733 -1471.138794
307.064056 76.499466 -1032.611938
207.125809 553.614624 -930.999695
184.697098 -53.664703 -1526.226563
411.951996 -71.075264 -1500.843994
191.144089 574.687317 -914.968933
54.462147 431.673981 -1097.248047
301.962677 528.464478 -954.026855
445.131165 -36.345604 -1489.992798
433.610596 248.861115 -874.257507
93.421967 446.876068 -1074.096802
185.850647 415.428680 -1099.756714
384.750580 69.139557 -1018.901062
264.819244 -295.632263 -1382.622192
224.929749 474.225586 -1038.789185
148.359711 -166.594833 -1489.752319
298.939453 98.433098 -1068.167725
95.898628 78.509476 -1100.676758
410.056000 -191.604782 -1417.262939
332.924896 -175.991684 -1386.948608
230.472733 508.464478 -987.658203
413.187195 148.942566 -1542.661255
576.604553 11.125162 -1449.234741
583.046753 -51.172565 -1422.490845
321.277008 -307.000702 -1365.625610
146.717133 531.213806 -989.981995
298.672577 -264.861969 -1376.604248
649.710999 20.828630 -1472.232056
205.309235 503.343536 -991.372070
316.704620 -148.690918 -1441.282349
423.124634 -123.432465 -1453.137817
339.459930 442.914703 -1037.736084
301.244232 -197.368637 -1440.994629
269.382843 481.704132 -1017.059448
141.502838 -58.942459 -1493.737671
485.792542 -168.546371 -1393.580078
332.184296 425.075073 -1116.594360
84.719482 183.510696 -1149.515991
92.937721 -162.824295 -1501.478638
388.062195 131.491180 -1596.078491
74.392853 -35.048828 -1575.658325
231.507553 236.304993 -1144.199219
331.633331 -227.591248 -1372.459595
141.256607 18.827072 -1045.677368
242.992706 536.433594 -944.073303
366.591766 19.562792 -1020.955017
422.992493 175.515305 -1043.009521
568.550415 -57.426353 -1432.151367
377.014526 -277.957794 -1364.219971
123.023872 455.415283 -1079.826416
252.988708 -195.574890 -1428.247314
498.640839 -210.889603 -1378.491089
296.609802 245.656448 -1148.924438
85.457748 501.126343 -1011.290833
101.376282 62.479496 -1077.703491
313.720978 -91.326576 -1351.805176
381.631500 64.116791 -1039.025146
169.249695 -69.801437 -1508.617065
177.386948 560.582947 -950.251160
546.525024 -9.216471 -1458.217407
149.042465 57.683685 -1633.961792
181.261734 129.838379 -1094.266724
143.690598 448.390564 -1080.927124
102.653412 598.044128 -936.452881
526.759949 -128.493713 -1433.692017
288.420074 325.656403 -1191.650635
95.794014 -135.858337 -1488.773682
411.786804 85.224335 -1025.047974
197.795044 445.401367 -1083.557251
116.410416 161.962555 -1113.853149
330.974976 -301.790436 -1375.915039
332.255646 51.517975 -1012.344543
316.900238 167.448380 -1066.944824
115.084145 451.713806 -1069.418823
116.491142 471.326508 -1055.048828
115.292007 0.511110 -1048.660400
593.776062 -21.823524 -1460.022827
169.397964 480.736694 -1018.086243
88.896057 232.376694 -1192.071289
262.528473 409.246674 -1097.796387
472.889252 279.522949 -1666.332031
340.993103 465.353149 -1051.818848
197.142883 152.187469 -1103.750977
288.052673 -1.496662 -1481.552612
517.161743 -197.496796 -1388.730591
58.622314 277.840302 -1224.386108
306.325287 -177.916672 -1425.255737
339.850098 465.261841 -1018.901306
327.884583 83.873207 -1034.170654
104.529274 -184.371536 -1478.956787
301.703430 -7.397906 -1025.924805
115.343292 435.529694 -1096.442627
15.968122 448.905731 -1089.525879
196.223373 534.029114 -956.141113
149.796066 471.555969 -1057.907471
144.392197 47.806839 -1059.496338
539.374268 -50.259811 -1445.024536
123.853645 244.072189 -1185.546021
178.859009 -153.965622 -1470.507690
147.604385 572.938843 -927.828857
310.902222 59.428970 -1015.234680
220.594131 247.088287 -1162.898071
316.514496 -271.265717 -1387.667236
538.399170 -122.814735 -1436.936523
409.114349 24.890215 -1511.571167
336.613983 116.645836 -1489.896118
294.032440 18.015553 -1030.580200
13.966479 436.192749 -1087.130737
419.329681 -189.778809 -1426.408447
280.776306 -32.431477 -1020.634155
166.280945 -219.134155 -1472.279663
294.912384 148.530884 -1070.093750
97.349686 564.058899 -965.499695
75.967468 -156.743317 -1519.921631
72.976746 514.459656 -1000.289551
323.360168 63.129757 -1022.929077
164.447250 277.678986 -1202.507690
365.995972 21.794830 -1532.887573
418.866516 117.222725 -1546.942505
338.983185 478.261444 -1027.365234
185.969543 245.234177 -1148.857422
347.021240 478.126221 -1000.543884
500.373566 -21.932337 -1471.447876
219.723450 412.591522 -1158.170166
234.791351 55.188358 -1024.169556
545.750305 -141.046005 -1408.012939
341.797729 79.035004 -1018.004639
227.456253 442.507355 -1086.340820
457.080933 -237.433517 -1374.592041
105.432304 497.569855 -1032.927124
218.257065 190.393875 -1140.073242
260.195435 324.223999 -1194.405762
228.359634 107.464340 -1065.543213
511.554382 0.927972 -1456.264038
163.423004 97.464958 -1081.360352
331.973145 -101.121925 -1316.983276
-27.146618 461.373260 -1089.927856
438.235901 25.216614 -1497.630615
287.953705 424.976196 -1091.308594
263.362061 586.329895 -924.352539
548.998230 3.373604 -1426.388672
311.001923 -44.072739 -1470.058838
141.600571 454.332886 -1082.593262
88.403214 417.520660 -1127.303833
361.001831 -257.337341 -1382.477783
373.398560 110.254318 -1505.850586
374.161224 30.945276 -1020.615051
366.771667 441.808014 -1066.741455
145.353790 227.924622 -1178.301392
229.851303 421.944763 -1088.877441
190.668732 -192.801712 -1444.516357
536.416870 -73.507843 -1436.379517
245.649994 492.361206 -991.833740
345.272247 107.499870 -1578.159912
111.789803 466.889313 -1053.960693
458.027985 -175.280914 -1393.038574
189.832275 251.693802 -1196.312256
333.425537 318.657562 -1719.604858
330.428375 514.904968 -972.387939
275.556610 550.796814 -923.408325
408.000702 -247.380615 -1385.532471
353.281586 7.716545 -1013.794495
345.978424 207.433594 -1095.839600
271.870697 23.091814 -1018.358154
57.104919 467.361511 -1043.432495
83.426399 -100.331474 -1489.111084
157.541916 -49.709415 -1463.433472
157.942184 -0.913258 -1056.038208
342.664948 308.567871 -1153.525879
108.472725 455.414703 -1063.074951
291.374023 196.029221 -1089.183228
113.842285 434.834839 -1083.877930
73.214676 23.585020 -1070.116211
258.147614 -226.741928 -1430.429932
217.030960 450.737183 -1085.204712
302.086334 468.494385 -1028.423218
91.087624 89.475365 -1090.899902
491.246429 -195.754684 -1372.937622
368.218658 -116.682793 -1481.563843
149.793518 137.893860 -1087.700195
113.209534 -26.567657 -1054.904785
200.536469 -181.183258 -1453.857910
333.388824 475.909546 -990.509033
429.571167 159.920700 -1556.918457
347.264496 -240.088272 -1394.942383
208.270126 -262.595245 -1414.949097
239.383163 597.752930 -910.414551
245.905273 560.582214 -935.087524
562.429016 -71.763649 -1430.428467
107.051155 428.260284 -1093.084595
240.608078 -257.487915 -1416.486450
161.159088 320.998322 -1212.120483
86.977859 52.527191 -1098.859497
285.389496 145.991699 -1075.711670
54.458759 434.542908 -1092.451660
352.281799 138.211945 -1061.434326
89.939178 530.379089 -995.287292
228.283646 -247.450333 -1446.511597
396.758606 289.068542 -1143.314697
273.586487 -176.113846 -1475.826416
98.156448 447.563873 -1073.511841
535.506409 -27.653627 -1472.537598
429.332611 -22.082067 -1503.311035
273.194397 95.054138 -1051.031006
428.372986 -114.206535 -1473.829590
573.826843 -53.683750 -1445.765381
264.558136 330.798584 -1212.021606
384.957855 -184.622101 -1427.188599
117.814079 212.649307 -1143.010010
290.573090 188.978897 -1120.140991
344.505249 258.220947 -1143.999756
91.257294 482.473938 -1046.717285
275.859070 -307.315155 -1373.981079
329.356262 123.990738 -1058.979614
38.156071 453.087891 -1071.054321
251.203079 22.507580 -1039.214111
244.940903 -199.742020 -1432.493652
237.904785 311.721771 -1193.435059
312.679474 -176.019852 -1399.605347
155.395233 109.577278 -1100.491455
287.856476 524.971863 -961.547607
465.300568 -202.141846 -1408.215088
208.712326 312.299408 -1211.462769
338.894836 -82.624344 -1477.497559
533.747559 -5.316015 -1445.185181
389.106659 -262.313812 -1361.374634
161.486374 282.170166 -1212.250854
162.368439 577.106262 -919.507690
179.333008 191.282120 -1117.452026
185.819641 -256.069305 -1408.714478
319.623627 190.114426 -1094.260742
70.341576 503.214539 -1023.579407
414.076019 -263.651886 -1381.158447
216.974365 265.284180 -1166.360352
615.582886 -55.578430 -1453.575317
89.760033 83.197777 -1113.304199
281.822937 -29.851574 -1463.710571
460.873871 26.558451 -1427.114624
347.881989 94.519707 -1035.567749
351.096069 -91.019562 -1481.405273
25.742012 50.611435 -1089.827026
425.867706 -34.628216 -1501.877319
512.299438 -10.009891 -1481.220093
106.796104 175.822662 -1135.753418
260.682434 458.216858 -1057.221558
271.103302 272.328186 -1173.857666
259.329376 -274.569580 -1400.989990
518.282104 -126.501442 -1432.963501
154.680267 28.027121 -1029.669312
280.264038 -253.518082 -1432.208862
230.976120 4.518822 -1040.768555
269.921967 142.590210 -1066.341187
247.147263 -64.186356 -1521.435303
309.361084 446.656281 -1057.274170
383.086731 23.935478 -1021.188660
128.024033 -153.018219 -1502.430298
456.530975 -91.150719 -1463.729004
200.643265 -175.242966 -1469.490112
480.751160 -48.769642 -1471.648438
114.922615 525.440918 -982.193665
57.204681 -130.712585 -1499.898438
166.605347 53.442444 -1073.758179
307.444489 -307.859924 -1354.580200
98.561066 505.711487 -1023.340698
411.651062 151.249496 -1566.559570
267.623444 427.703522 -1078.823364
416.437561 -196.341614 -1397.271362
115.208839 -94.671005 -1515.644775
349.921997 -67.159966 -1466.998535
431.106537 328.971466 -886.883850
102.531563 -42.336754 -1055.367310
172.355972 328.441925 -1192.836914
229.465988 -233.106766 -1430.713745
471.558868 -82.115829 -1461.769653
336.384705 148.837601 -1063.478516
191.451599 463.959839 -1065.722046
485.030518 19.638712 -1466.803223
255.621841 416.228638 -1138.658081
332.195770 -299.508911 -1379.507202
17.218689 462.699066 -1060.959106
226.579041 -256.827148 -1417.441284
388.440887 -294.540741 -1354.663330
136.262787 123.593376 -1115.740845
152.152954 -68.011223 -1522.752930
528.598328 22.745419 -1487.346558
402.900299 108.376259 -1032.935425
425.297974 107.323860 -1038.718872
142.711792 50.447102 -1055.508545
452.089569 -158.540604 -1425.291504
290.777191 -195.893097 -1457.501587
468.625427 10.488080 -1442.623901
500.059875 -111.842300 -1451.659912
559.139954 -85.153099 -1446.646118
-64.417694 238.270676 -955.779236
146.619385 17.888943 -1035.782837
32.684937 133.103638 -1125.450317
402.123932 -91.792274 -1491.148926
91.290527 420.697998 -1104.157104
290.771729 98.802628 -1060.144897
391.030731 106.036766 -1033.161133
164.107239 451.867004 -1090.522217
370.094604 -232.923996 -1379.037354
118.664978 27.427776 -1609.866211
218.700897 -148.976364 -1483.587036
246.050827 -17.298193 -1541.149780
157.397491 99.006264 -1100.723633
163.484451 -20.688877 -1045.474243
341.196045 41.891949 -1464.102417
292.106720 501.345276 -988.144958
194.663223 71.278610 -1052.898926
102.396538 235.110504 -1211.032837
517.783691 -169.372833 -1400.180176
283.359009 502.920074 -986.266602
444.774109 117.747772 -1549.212402
429.619598 64.383202 -1577.092896
138.167358 570.513367 -946.921204
35.724018 394.444000 -1162.038086
407.025604 121.088013 -1601.649048
214.461044 521.140076 -982.340576
188.514099 436.425323 -1102.359985
369.947327 121.742355 -1033.114502
361.087982 -169.755890 -1402.955933
460.129700 119.284332 -1565.526001
225.485657 578.106567 -937.938110
315.429810 -273.248108 -1383.770630
173.604630 515.364136 -983.678711
169.528854 528.507935 -967.016846
587.493652 -56.535938 -1447.928345
295.786591 215.192627 -1108.478760
412.867310 -28.631529 -1502.249390
390.335724 237.936050 -1578.548706
445.771729 328.229950 -1696.038696
97.242111 185.711884 -1167.180542
317.666901 14.913984 -1415.235962
373.526489 31.051327 -1021.390625
484.115753 -226.115707 -1381.213867
505.169800 -167.291534 -1405.639893
270.252594 521.890747 -963.449585
281.256775 291.155090 -1161.323853
440.373260 -117.132210 -1433.054077
626.363586 -16.421509 -1446.364258
147.822845 598.177246 -901.281494
309.679352 259.153870 -1153.667114
189.595154 -2.103628 -1023.983826
398.766998 -132.066254 -1435.588379
280.345551 530.713989 -951.080688
288.519043 373.754761 -1253.795654
220.993439 518.714172 -975.634033
536.468506 -146.310852 -1391.224976
500.813904 0.793498 -1452.019043
54.763672 481.096252 -1048.172119
168.311676 82.713585 -1475.063965
66.445374 68.123589 -1080.121948
363.478058 249.815964 -1104.410034
124.165802 114.472572 -1113.417114
81.420227 587.389099 -918.015076
577.289001 -7.751345 -1456.149292
213.773651 492.034485 -1033.264771
487.300568 -97.199753 -1432.163574
283.637421 145.671707 -1062.690674
251.505829 439.943085 -1074.134399
254.659683 483.240540 -1014.721252
562.047668 -7.372807 -1405.610596
566.111389 34.861382 -1445.664063
57.728031 -109.134171 -1504.003906
302.873291 -0.633710 -1015.381042
163.615875 -122.484161 -1504.102783
266.333221 167.112228 -1099.858887
201.062668 586.967102 -915.429138
8.366611 454.118103 -1055.037231
455.725098 -211.162338 -1389.446411
396.129059 89.439468 -1035.684937
25.206446 428.852631 -1107.055176
414.382019 -281.845703 -1362.933960
248.084427 120.118408 -1094.533936
319.733063 -248.655228 -1380.203491
318.058990 -278.115814 -1367.358643
208.072571 -26.616350 -1456.862427
186.665634 72.604683 -1078.894043
424.624878 -227.869781 -1388.279907
523.498962 -72.935524 -1452.660278
129.595734 -173.589569 -1489.818481
265.181641 13.324844 -1016.847961
132.527710 -158.574478 -1476.293579
500.792664 -77.953644 -1458.190430
128.798386 466.430176 -1060.202393
370.203979 -4.187605 -1496.778687
229.261215 504.828400 -998.250488
136.986847 452.970123 -1062.426636
476.380402 -122.087112 -1439.665039
73.762802 -108.498611 -1492.144409
92.764946 479.520508 -1045.705811
117.766815 -59.459610 -1477.559570
266.637512 -130.760452 -1466.738159
337.731537 527.473755 -951.317200
343.429688 500.927460 -973.322266
227.399323 140.377975 -1107.545532
356.441833 142.918045 -1062.933594
376.998932 -230.734436 -1396.872437
615.770142 -39.376991 -1438.360474
75.073616 526.918640 -995.278381
68.977013 62.797260 -1102.351563
341.889618 437.002899 -1044.718994
290.829773 520.425903 -974.147949
573.520020 -40.389694 -1434.597656
87.392761 398.681641 -1151.389282
383.225464 -217.524765 -1393.182861
288.450500 568.117493 -926.271667
501.995850 -80.812798 -1466.643677
281.892944 -131.691437 -1481.509155
280.434906 508.850464 -984.900024
336.598145 -314.011505 -1360.508789
90.462624 -157.399841 -1516.284912
329.979797 41.018894 -1466.171997
168.504776 539.899536 -961.140076
303.025696 461.820648 -1032.830200
226.775330 -231.036911 -1444.471069
161.005157 599.242126 -913.209961
188.444595 539.266907 -950.481018
35.501125 463.818542 -1068.252075
74.519073 186.334488 -1168.037109
117.407692 41.103519 -1043.302856
112.633476 558.483398 -954.594421
126.406822 540.810486 -956.672607
468.630249 111.623466 -1540.145630
404.719452 176.475159 -1603.129028
438.079193 114.801529 -1604.208984
419.708984 253.814301 -909.213867
370.390472 189.830643 -1594.438965
242.970154 31.651907 -1499.317261
269.669861 141.390106 -1075.406372
255.323883 490.834656 -1010.526001
392.153961 30.705599 -1454.294312
372.609283 22.975525 -1433.605835
425.155670 209.096268 -1603.865845
140.531387 42.180553 -1078.946777
402.546539 -89.517059 -1478.575195
422.410034 -111.062180 -1441.647095
268.548004 158.147079 -1083.218262
553.972900 -71.382927 -1444.634644
352.254578 468.511902 -1013.183838
516.799316 -53.377422 -1448.881348
472.603668 -212.267715 -1400.800659
292.269318 -151.127548 -1391.770264
342.246155 -204.669586 -1403.425049
554.496216 -45.515945 -1464.896362
410.043427 -99.447441 -1475.256958
372.889160 -86.786095 -1468.630981
57.194511 -112.799683 -1479.781860
210.878098 530.101624 -965.175537
477.033325 -135.872147 -1415.437134
94.518135 50.399872 -1621.455688
310.648834 114.420593 -1057.636475
101.653061 464.713104 -1063.900391
323.113922 -23.998764 -1034.011963
101.245758 90.874748 -1088.129395
86.172531 -188.597260 -1488.396240
355.428253 -206.700378 -1387.157959
326.200500 -289.770813 -1373.813354
176.276642 17.844011 -1024.464600
105.221939 37.116219 -1058.361572
295.051239 -251.561050 -1396.839233
283.791626 320.178284 -1169.558472
293.958282 75.582260 -1035.610840
163.637161 112.016846 -1089.876465
214.148254 572.195374 -931.323669
274.663513 -91.636330 -1497.303223
117.619743 -5.906625 -1049.716797
287.576141 -15.176362 -1505.645874
407.911499 -125.365692 -1462.578003
254.128860 -6.473825 -1023.558594
155.874969 546.265442 -955.564880
331.684601 24.204107 -1013.042114
159.371674 594.055481 -911.326721
220.352798 558.394653 -926.573120
90.961639 153.892838 -1138.349731
239.726685 499.224457 -994.608521
546.402527 -105.850281 -1428.296143
101.448166 -16.516911 -1046.383057
583.312927 -75.593277 -1436.016968
246.401688 441.270264 -1084.428467
349.890198 -175.867874 -1421.149780
440.491821 -234.383301 -1384.540405
441.965881 -8.337204 -1501.561035
503.564697 -10.867567 -1491.066040
398.820740 -96.254791 -1490.393921
281.018158 536.514954 -939.590454
518.578674 11.165641 -1482.079956
374.645477 268.868988 -1134.616577
213.634155 -77.694298 -1514.851074
362.968811 -192.613861 -1399.276733
335.468292 423.732697 -1099.867676
272.963776 507.326019 -988.628296
91.383774 -23.310154 -1576.851318
163.309616 9.801101 -1041.489868
267.008423 -250.308151 -1392.928101
316.103424 173.975006 -1078.471436
497.663757 -27.968506 -1467.398315
364.474091 -52.153332 -1509.553955
238.668549 546.649048 -949.780151
307.734100 208.539948 -1100.797607
37.521214 544.869141 -985.252747
82.466583 0.545710 -1608.458618
486.515869 -141.147400 -1425.699585
384.446167 24.686829 -1021.604065
328.342834 -274.307831 -1381.886841
239.427551 80.512939 -1053.398682
311.680450 -284.201080 -1363.425049
475.208679 16.350735 -1437.630249
309.868805 -136.204330 -1472.763062
306.005585 450.972382 -1051.651611
495.286896 21.056007 -1462.228760
249.724503 416.454803 -1090.252686
453.264221 -30.335466 -1503.790405
235.512283 539.196106 -955.677551
540.688354 -117.985909 -1437.456177
204.234604 534.516785 -946.527771
475.143982 -64.126564 -1472.693481
363.145538 -152.697281 -1432.435425
327.307098 -297.144104 -1388.022949
305.005280 92.591255 -1054.109863
467.441071 154.979721 -1559.606689
543.937988 -99.557312 -1416.604980
333.637390 -137.455795 -1346.100342
299.350708 -165.598007 -1364.024170
276.614990 78.250664 -1040.632813
395.613953 50.711620 -1039.711426
185.043137 13.391768 -1052.416260
248.246628 -287.691833 -1394.121460
403.755890 -69.102646 -1494.794067
398.791962 214.058609 -1603.073975
53.964348 225.415939 -1193.085449
342.176422 84.625351 -1042.893555
266.001678 506.453125 -1001.500610
263.896240 339.339569 -1203.814819
101.309929 465.655426 -1061.363159
458.617371 329.687622 -1690.612061
235.154587 521.293823 -972.268127
238.733658 578.969910 -914.147095
399.713806 172.652283 -1048.383057
279.187195 128.082520 -1072.669189
266.937805 578.137146 -925.481506
355.351257 -24.078106 -1018.899536
139.875198 42.487728 -1053.001709
215.960022 1.301116 -1540.217285
105.037903 553.269104 -952.500122
95.109070 -180.456345 -1470.299683
202.341949 -83.522385 -1527.892456
184.613052 493.206696 -1024.817993
111.330475 -65.962326 -1518.481079
274.161194 -32.191654 -1431.442261
348.885376 193.976151 -1081.019897
124.024635 -144.653290 -1503.110474
292.175446 -146.808685 -1459.849854
245.538040 -115.379951 -1500.895264
114.515732 597.419434 -941.873352
138.617523 172.743439 -1133.387573
47.903774 481.090454 -1039.574707
90.552025 501.724121 -1027.894897
25.804691 117.305107 -1109.125977
148.820358 -0.406058 -1047.246460
405.334961 138.434067 -1045.628784
174.196198 104.278084 -1613.839111
111.982224 411.480469 -1130.221191
256.708710 -127.667358 -1491.306885
454.457428 280.864349 -1649.454346
140.794144 490.360809 -1029.686768
160.102707 -145.197922 -1496.085815
177.007416 -196.578156 -1482.601196
561.219910 23.899384 -1496.663208
112.939560 -157.116638 -1495.283447
455.566071 -63.865219 -1487.452271
183.660110 581.893127 -929.807617
233.459213 167.077408 -1113.126587
168.509552 591.496704 -906.682373
429.376251 -204.826904 -1403.202759
24.935642 436.631836 -1099.261230
411.568848 25.555729 -1445.222412
283.460266 131.953506 -1069.865845
119.452850 560.345398 -941.116272
522.767578 -117.497185 -1428.241577
124.074646 309.867035 -1215.353394
394.400238 -257.352020 -1386.302612
444.811005 -152.857834 -1435.727783
64.297028 234.762314 -1191.619385
71.874512 264.241180 -1216.982788
138.201141 467.478119 -1059.053467
370.724640 105.648720 -1583.139526
409.696136 -224.450089 -1398.817383
424.569305 58.086617 -1570.365356
273.851685 556.729858 -933.768677
201.361038 481.763916 -1029.348755
239.903275 96.508141 -1060.687866
114.044746 45.152878 -1599.691162
286.177734 -39.393776 -1030.445435
314.733093 232.539612 -1105.421509
453.220001 -238.928452 -1379.553101
277.058197 529.465698 -966.963013
274.640808 32.854721 -1011.993164
575.075439 46.963150 -1449.226440
394.787384 119.377922 -1038.574707
221.742905 493.557556 -1029.750732
365.100586 418.735107 -1071.529175
373.600067 -265.304626 -1377.012695
172.188736 149.854996 -1135.010132
359.044250 36.722534 -1509.979858
301.425995 12.122210 -1343.753784
64.736000 429.919769 -1107.174072
582.969543 -0.494772 -1421.027954
68.320091 553.614746 -956.647522
31.873100 181.980255 -1136.968140
70.672401 -179.515533 -1490.521973
112.741119 214.164307 -1169.955078
413.181763 -210.099213 -1405.904053
265.022705 507.078644 -986.415955
252.094833 414.334778 -1117.852661
354.016663 461.971954 -1064.747681
70.597862 16.610565 -1613.043823
467.374603 -106.764206 -1465.982788
446.805359 182.871674 -1597.031250
270.862305 496.583160 -993.555603
538.456482 -136.472168 -1399.525391
191.456100 132.051712 -1095.810669
357.531921 -157.218460 -1376.667236
359.502106 179.318878 -1065.551636
317.666595 -247.596024 -1385.547974
211.795227 420.148987 -1140.009766
331.130280 456.538727 -1051.861328
252.402069 496.061584 -1004.235535
570.898987 -121.012291 -1421.696899
52.074787 406.413574 -1124.606689
571.438843 -23.556753 -1418.599365
602.115356 37.798714 -1484.510620
217.584686 543.432312 -946.100952
80.713531 414.163361 -1129.737305
338.736816 -152.126648 -1438.148560
195.469696 32.571831 -1031.360474
-54.055569 147.228317 -1006.572449
324.273102 -5.427551 -1011.393799
148.153656 43.266819 -1609.352173
120.185875 172.012894 -1130.328491
113.715752 17.718700 -1547.710571
373.697815 39.644241 -1020.080200
295.866272 507.815552 -978.348816
530.975586 -177.854156 -1405.166016
369.786591 -46.531185 -1497.328003
480.028992 48.066616 -1532.082031
23.291643 -116.555855 -1542.436401
322.123474 29.913322 -1011.748840
241.357910 -55.489941 -1525.399780
97.001495 504.289154 -1021.608765
136.013672 -181.086075 -1462.158203
197.265228 274.806183 -1183.242310
231.391357 -28.088900 -1046.931030
153.045181 466.620117 -1054.775146
138.644623 -199.589691 -1482.729126
306.592773 230.009811 -1127.439087
577.272095 -28.322868 -1450.480347
210.851959 490.665894 -1018.491333
371.974792 -116.042778 -1470.963745
461.954407 359.145447 -1689.957275
247.248138 18.486008 -1502.351685
470.147369 156.083542 -1582.082886
66.318932 510.353912 -989.563660
143.916916 14.927111 -1036.759888
193.439499 493.679321 -1014.779175
177.483414 -36.503284 -1487.229614
328.255981 -210.659439 -1372.222656
175.569641 293.389496 -1196.894409
220.613052 -54.044632 -1505.611328
110.105667 114.423203 -1100.531738
412.009949 244.748367 -1595.154785
261.709167 -266.145203 -1417.206787
36.888409 142.864471 -1117.402222
523.322021 -179.285919 -1394.025269
313.926361 95.046165 -1030.894531
530.775452 -27.268030 -1452.551270
350.454163 473.583344 -1005.638794
63.445526 424.398499 -1128.651489
112.959496 8.993635 -1061.032715
32.062798 434.664856 -1096.796997
176.031586 138.828247 -1126.591553
156.177628 556.568848 -940.797791
552.287598 -77.991592 -1456.394775
393.030914 -167.460190 -1434.610718
136.440735 -53.373737 -1047.580811
294.432159 55.931519 -1024.479614
428.452820 -97.128189 -1467.584961
46.473244 3.611996 -1067.321777
151.876144 461.336029 -1051.285522
139.443680 575.340088 -922.468140
589.952209 26.949259 -1480.961060
242.861145 574.300720 -905.944763
250.521057 -273.601776 -1412.537476
249.576782 135.552139 -1103.660400
88.551422 96.799469 -1098.348877
292.778717 450.399719 -1063.439331
237.182678 466.986328 -1058.402344
215.499344 -101.586220 -1511.789551
283.818085 -171.452423 -1416.035156
425.308075 -187.523514 -1398.342773
142.765350 -213.708878 -1461.971680
501.980560 252.370026 -1660.195068
571.209534 -89.692551 -1448.342773
196.583298 132.597458 -1116.788696
142.161423 603.940979 -901.597290
266.916809 540.553345 -944.004944
362.945282 -157.041458 -1447.274414
478.691681 -151.915787 -1430.365723
609.678345 -29.342325 -1459.213623
170.150421 295.675232 -1195.330078
233.695251 92.118790 -1590.380615
471.165588 55.689281 -1503.052734
308.887177 -225.231781 -1434.404663
46.993629 150.780136 -1116.395874
346.332092 -171.627518 -1401.415161
369.324249 53.371803 -1019.110168
414.991211 15.412752 -1482.680542
377.095581 76.847595 -1549.830444
354.796265 11.680275 -1443.699585
162.097641 454.955170 -1072.085327
165.614868 481.576080 -1037.069092
256.819122 -214.987366 -1416.844116
154.047592 -123.733070 -1504.244019
196.938766 -31.338652 -1499.005981
241.973022 -263.038666 -1396.608887
194.410095 -153.581299 -1511.148193
70.941566 227.933884 -1179.416260
303.074066 311.017273 -1187.823853
43.327950 49.647385 -1084.874756
93.942749 -128.876602 -1480.034424
133.892609 80.139580 -1631.400879
302.808258 144.839371 -1089.483521
318.051636 -136.945541 -1407.554565
279.284454 47.900909 -1018.540588
180.390808 582.354370 -935.369141
219.638733 -0.134994 -1026.478394
506.296570 -187.010178 -1406.138062
203.762192 -31.098225 -1548.280640
461.735474 -148.868195 -1427.601074
24.268864 560.577881 -953.537109
200.437454 11.385869 -1019.521912
52.700279 -111.238914 -1503.074463
312.070740 -320.192108 -1356.650635
128.412750 -207.447784 -1463.496948
185.779221 403.428162 -1116.183228
278.196106 443.712494 -1074.989380
89.424843 -120.382065 -1481.034912
240.921295 -240.405090 -1405.799561
294.700531 544.953064 -941.542725
110.051422 -41.621346 -1051.971069
495.205902 59.915833 -1473.611572
169.413010 93.336533 -1088.693115
62.232323 261.579956 -1210.560303
214.769943 273.483643 -1174.866455
322.866425 496.459412 -983.111816
273.739655 272.807861 -1145.685059
321.652435 -288.606537 -1372.112183
402.299011 96.188034 -1049.097900
239.222427 247.547958 -1138.770386
376.285278 -34.481056 -1505.582764
334.247986 -39.007744 -1495.830688
276.901337 15.876266 -1016.302856
340.239410 -309.155273 -1357.938354
321.241089 -150.162781 -1433.585205
492.162048 40.125885 -1442.276855
355.711334 73.343918 -1018.756042
368.364929 95.300339 -1045.644043
199.311264 588.075562 -928.727173
630.998840 -4.405770 -1467.940918
287.155396 93.747940 -1053.986084
198.506638 499.342499 -1004.731689
197.701492 519.498230 -971.244385
321.646729 420.422058 -1092.005615
251.352646 11.371782 -1014.849365
588.781982 -10.313115 -1459.660522
362.243073 -156.022369 -1378.914917
191.795212 15.763017 -1034.426392
331.920044 -5.891615 -1002.982910
259.514404 235.294937 -1132.081665
265.487061 -42.354404 -1526.847168
283.488983 19.002178 -1015.843262
337.927429 39.242275 -1324.656006
82.205917 32.441341 -1087.981445
592.819214 3.463840 -1468.291748
151.823395 -105.478210 -1517.307251
332.287506 -16.607252 -1503.588501
433.951660 203.763336 -1070.264038
290.358521 226.306213 -1117.323975
210.647751 91.812813 -1075.385254
281.245148 -115.881638 -1489.743652
525.908264 -135.717957 -1399.721191
271.658112 -291.613617 -1405.399170
437.647675 -258.818115 -1387.177246
360.202728 147.986755 -1060.855591
378.054443 -110.289024 -1470.296997
302.457977 206.213928 -1121.531982
243.318741 527.167969 -963.899353
134.799255 586.471924 -918.914368
229.455872 572.982605 -911.490540
373.017883 -33.900639 -1510.103638
359.071533 -163.018463 -1394.989868
245.612656 101.196182 -1056.212402
458.092896 -75.375259 -1470.060547
225.901886 -142.779877 -1498.643921
48.317604 464.058380 -1072.463867
425.296021 156.201523 -1039.674072
251.171051 177.315933 -1110.301025
185.013199 -42.674358 -1408.250610
359.804077 35.578274 -1019.072998
206.974213 -249.470749 -1424.670166
115.090149 170.609390 -1130.851807
142.404694 563.373596 -935.027405
471.391388 -23.231073 -1473.390381
464.093750 -67.035927 -1469.827026
242.705475 593.101563 -925.476563
384.211548 -159.734970 -1438.799805
224.482956 -20.389782 -1005.250488
481.358429 -60.757217 -1479.975708
461.987823 -76.997971 -1480.929810
96.032509 190.528351 -1171.111084
323.345825 -312.093933 -1360.731812
180.481552 20.756275 -1033.097046
352.253296 281.003448 -1123.797729
634.237488 -7.430851 -1458.438599
381.510345 90.600807 -1028.091919
274.888855 -146.685059 -1475.521484
270.286743 -72.449501 -1467.414185
231.517059 219.376297 -1154.265137
