ply
format ascii 1.0
element vertex 1393
property float x
property float y
property float z
end_header
360.961731 353.337311 -1344.170898
339.305420 914.536255 -557.829468
161.993774 904.651123 -727.406128
-0.822886 571.697144 -1398.436401
387.173492 605.246948 -1345.092773
395.761200 395.303436 -1350.242310
105.254318 599.283691 -923.994141
405.783600 849.625000 -769.755249
455.126038 863.338318 -1344.255371
442.728333 854.111816 -1353.865234
216.864487 505.872772 -902.243896
292.766449 516.424927 -1372.800415
178.031296 523.485229 -1390.224609
243.990524 623.989319 -886.188110
48.093288 578.701721 -925.486023
283.063629 406.388031 -1348.874390
457.885925 518.838440 -1345.024414
480.441040 735.815491 -1294.867676
313.222687 529.416321 -881.605652
238.349030 584.929932 -916.651062
218.936386 911.097778 -599.936646
303.274231 540.618591 -901.184143
137.183350 877.806458 -819.623901
114.417679 900.646484 -723.917786
242.075302 912.821472 -621.852051
308.641968 397.389374 -1368.736206
261.487610 464.890686 -906.137878
226.001419 675.650085 -1378.372437
443.217194 591.348572 -1363.827148
424.291321 1072.466919 -1346.703125
60.398285 636.725220 -1400.750977
423.933197 482.333984 -1355.053833
459.553253 667.909302 -1297.647217
164.654388 846.215027 -1434.910278
114.934174 509.814362 -925.595093
374.628662 369.384521 -1343.363037
206.229538 435.819275 -910.466064
234.647751 892.793396 -793.440552
438.889496 494.761353 -1356.636230
339.569794 381.514648 -1369.080444
105.885773 914.898560 -663.183044
174.721436 829.663757 -1407.672485
241.889847 649.017151 -1380.724976
238.130493 496.128204 -897.729736
344.893188 547.139038 -1194.200806
428.940002 651.089844 -1349.120117
223.944153 929.643433 -553.604492
487.165802 593.419067 -1344.923096
120.518776 547.880798 -921.139465
424.538452 439.614014 -1328.704102
255.202347 559.393860 -1376.537476
211.776337 693.475403 -906.365479
424.121948 397.282227 -1349.627075
176.428726 640.912476 -911.576416
398.199341 691.886536 -1293.856445
205.952164 769.578125 -946.221130
376.545593 631.611511 -1355.156494
587.490601 580.988037 -1328.171631
432.893097 668.741028 -866.073059
106.097549 917.432007 -643.443909
492.787476 548.761780 -1338.707886
493.265930 747.897766 -1335.547119
312.980927 883.411865 -636.112610
77.967331 891.481201 -762.804626
110.469475 880.138428 -839.551575
249.095291 468.947479 -900.092651
307.676880 751.216858 -896.959473
280.203735 455.265717 -1366.525391
647.188965 613.086060 -1321.390015
497.900238 662.926453 -1287.158203
297.854340 916.997192 -546.990723
242.834290 926.095337 -521.139526
247.576752 507.862610 -889.818909
139.992661 689.681580 -929.147583
111.328407 495.472260 -947.776367
435.743347 628.063599 -1350.516846
438.014160 646.795227 -1359.874878
245.324310 729.101013 -1361.553345
320.500671 358.306549 -1374.960815
412.393066 599.107666 -1362.738892
329.270752 527.833618 -1209.999512
288.499146 897.906738 -611.213013
298.044830 916.651245 -535.477417
377.383362 338.947662 -1354.068604
422.404083 845.574707 -675.871460
171.190414 889.176758 -806.533752
353.748596 859.561340 -716.818909
270.443146 939.204041 -540.718384
226.149490 655.831848 -907.650696
174.982681 584.831848 -1393.133423
190.052979 442.593109 -946.229614
523.943237 914.580322 -1328.500732
333.140472 400.700256 -1361.401367
197.042221 902.961365 -708.505798
61.951820 623.232361 -1406.740601
145.169037 736.487122 -929.109131
379.013885 811.243530 -1279.538452
244.187881 517.152100 -903.275085
260.175171 817.800232 -914.767822
481.264832 691.111206 -1287.340576
140.653732 915.763916 -674.708191
351.681580 493.241394 -901.962402
536.630066 493.171722 -1311.061646
105.053993 755.136414 -932.567993
155.213333 894.428406 -752.633057
70.353783 504.208069 -932.800293
385.406555 582.462646 -864.309631
361.297180 449.155914 -1326.651001
247.530762 681.877991 -1390.162354
327.857239 658.553955 -881.517700
269.401520 548.869141 -1372.364746
156.514755 528.694641 -1403.580200
318.441681 542.807251 -1318.033203
278.715820 379.177979 -1375.974243
294.233826 603.699646 -906.625610
247.425995 628.325439 -888.720337
71.561272 560.435791 -1404.536743
312.450012 600.050659 -873.349915
486.543671 660.699036 -1348.448120
234.271423 634.726501 -892.336243
115.011284 478.836609 -933.489197
497.758972 671.315918 -1342.876709
391.046265 513.159668 -885.569824
298.884857 889.793823 -660.361145
411.320709 637.647766 -1338.736206
335.827087 867.724304 -742.988953
315.861145 489.709808 -1327.174072
412.764008 617.961731 -879.326843
633.476624 632.272644 -1317.912476
387.156403 867.691162 -742.486572
222.016998 667.115112 -1340.918335
331.798950 881.866943 -680.016479
91.743095 542.283630 -923.295410
338.668945 532.821350 -891.925293
224.235703 521.585266 -1370.142090
473.630219 608.790222 -1348.210205
390.602600 458.531433 -1336.398804
300.132782 395.093445 -1359.917603
551.208374 1045.831177 -1340.488892
304.722107 487.905701 -1339.640625
648.145935 706.950317 -1306.753906
189.908646 875.813171 -782.791077
442.594147 978.656677 -1301.524048
494.780151 672.652039 -1331.880615
392.942474 657.667847 -1339.180420
372.222900 892.409302 -571.519165
147.999878 898.599792 -783.286255
207.033798 452.363770 -928.596619
367.238312 407.448700 -1339.898193
251.034256 642.485046 -917.960144
69.360680 942.269104 -577.529419
303.935333 496.143127 -879.854553
246.841888 452.143738 -914.567627
215.197708 818.109436 -922.645508
311.337921 901.740845 -571.181946
379.729950 507.025757 -874.362183
216.887512 476.582764 -927.518799
257.342072 804.514832 -1303.010254
233.078033 739.534485 -917.773010
477.031128 879.785828 -1349.557495
237.253601 457.837891 -934.191772
244.581741 575.503113 -1385.625854
94.157944 667.415222 -915.707581
199.497681 899.691589 -682.483765
203.427139 737.558594 -923.062500
195.797272 910.780518 -664.075623
235.306503 568.364746 -1380.755127
396.270142 389.742462 -1334.498657
467.194336 659.729614 -1352.328247
612.789551 550.576721 -1315.665283
96.308533 735.252502 -920.262512
84.503571 901.676453 -726.302612
322.162781 880.320862 -687.725769
496.837524 641.086060 -1317.682251
77.090431 493.898529 -955.264465
174.857239 880.158325 -749.348877
376.767334 343.877899 -1349.919922
162.563812 500.482086 -914.179749
277.389862 708.572327 -891.174805
574.257629 537.622925 -1322.727783
212.100937 810.032654 -946.498901
66.241135 663.022949 -915.339172
305.257721 678.401062 -887.715576
254.041367 887.266479 -769.188904
291.079498 660.864868 -884.403687
195.065704 458.587982 -1367.428223
581.455566 629.340332 -1306.175537
206.646851 723.108276 -930.159302
391.026733 475.384369 -1346.537720
373.216766 584.521973 -876.925110
87.730522 772.013794 -1413.187988
300.775146 865.752197 -746.271606
478.420135 409.040375 -1320.501953
477.241821 469.895081 -1347.033447
183.177490 878.153992 -768.565308
45.500092 656.185486 -1367.946045
214.283173 594.089905 -921.890320
182.221985 536.470825 -1392.352905
392.216705 687.599976 -1278.735840
375.993225 557.682007 -879.377258
513.854004 847.949463 -1326.760620
381.557465 880.842163 -618.119629
295.297272 655.808105 -891.986633
237.570206 942.023132 -546.397949
394.536987 803.837097 -1373.209473
438.855927 676.390686 -1317.392944
325.550507 704.812500 -892.131104
203.376541 543.090088 -902.350098
198.972778 620.569275 -931.564026
186.537903 517.037842 -1371.953735
307.639191 558.226074 -1353.411987
340.866180 886.409668 -610.140869
270.140839 679.140076 -922.472046
356.655182 490.527985 -1345.623779
209.162277 924.248413 -607.152832
221.519226 543.096619 -898.672668
236.425858 860.762085 -803.085693
154.610519 630.893555 -1325.329956
139.587326 637.288330 -1400.933105
218.713043 903.779114 -635.326477
269.549225 350.440216 -1366.203979
273.092499 503.630524 -892.183289
419.550537 857.790466 -683.837463
289.319794 880.348511 -768.122620
381.076965 664.041870 -867.006836
516.826416 480.371582 -1339.580933
349.499420 607.006531 -868.704529
409.093536 504.761841 -892.756409
81.931831 616.466370 -1374.477539
466.181061 623.652771 -874.392822
464.255096 581.911621 -1357.913574
292.971344 625.361023 -1369.959595
271.154236 357.696289 -1369.323364
99.373863 930.851624 -589.701294
214.854202 626.920776 -916.971252
195.012299 767.144104 -929.063843
531.778625 553.074890 -1338.565063
308.818512 887.249023 -620.586853
231.796509 887.841125 -785.281372
167.499039 952.429993 -567.687622
141.397949 908.661194 -640.835999
620.217529 606.347961 -1316.553589
156.242035 521.435791 -1390.440918
315.936554 557.458923 -892.004822
475.218262 599.772583 -1345.048096
413.903137 367.630493 -1344.669434
315.501953 471.520844 -898.176025
495.163879 613.890076 -1324.450928
412.941895 438.164612 -1346.755615
389.549805 867.722534 -679.124573
256.577423 892.539673 -703.289124
284.691528 692.870117 -895.368164
332.486023 533.363281 -1351.730225
174.939819 847.273438 -1403.226685
126.571182 890.832336 -788.291260
206.573105 659.911865 -1365.062988
519.835022 1019.045837 -1331.345703
150.674774 530.026062 -899.173157
208.984390 922.067749 -565.631470
426.918396 546.643188 -855.546021
419.657379 468.906342 -909.981689
219.036270 916.765137 -620.767944
338.115051 872.144226 -705.968140
128.004700 552.295959 -916.624878
228.142242 628.880066 -1392.385254
174.648010 445.049591 -929.562378
170.753174 462.086121 -918.986816
281.888550 880.854980 -753.354370
298.723785 492.109528 -1270.481079
351.545013 747.491821 -904.742798
238.496277 374.664459 -1369.522827
194.050446 527.258118 -908.052856
202.436508 672.806458 -1390.427124
349.923187 623.470459 -1327.849731
354.979340 902.227661 -582.818481
150.491608 908.789001 -671.052124
182.776215 635.668823 -1382.145996
125.707657 500.850250 -912.289368
384.304321 358.576477 -1362.564331
330.653931 409.769379 -1341.451782
351.463165 455.867950 -1295.924316
229.795273 873.732300 -743.381897
447.020905 684.251221 -1286.392822
136.132065 731.113770 -1400.984985
363.184967 382.048553 -1348.277954
430.789154 651.734863 -857.279602
140.725952 900.423157 -686.526245
278.763153 913.429565 -545.244873
143.014114 467.927002 -1375.963989
360.805084 520.125305 -882.870605
435.559814 1058.656982 -1341.609863
380.422668 804.894592 -904.011230
145.795898 629.267822 -1328.577759
252.280502 363.019867 -1368.277832
437.319183 620.316772 -873.642456
369.385529 490.048737 -888.035339
400.089508 396.869568 -1353.088257
342.307983 509.682129 -873.708008
327.590668 880.579041 -617.399902
119.168785 463.603699 -937.466187
437.483856 453.626617 -1341.273560
453.130676 596.000122 -857.905334
389.276276 416.495026 -1344.213745
239.040146 395.441803 -1360.818481
488.020416 599.832336 -1352.366943
258.057190 475.378967 -897.002747
552.278809 517.226013 -1325.733521
290.515778 620.008789 -1248.190552
205.526443 872.621948 -785.387939
482.337646 614.589722 -1337.157104
182.214630 455.245911 -937.860352
57.680943 622.880493 -1384.860474
156.843887 873.050049 -792.174316
123.839020 643.975464 -1398.828979
393.513031 742.080444 -892.755798
190.202484 657.151245 -1323.922119
387.572418 525.947510 -889.246094
71.125542 891.889404 -793.588013
23.528143 920.855835 -743.650391
123.113609 530.318604 -942.458740
535.201904 994.581543 -1358.682739
452.011871 439.003662 -1329.743408
206.107117 926.700684 -600.749451
403.313782 850.358093 -747.213135
347.377380 504.619781 -874.275757
63.663879 520.558838 -937.654907
352.682281 902.522278 -576.173828
227.134766 854.968201 -808.324951
404.123779 402.919708 -1346.330566
97.645477 614.436890 -910.539429
197.454803 911.255798 -706.370605
193.156357 639.476624 -914.789307
641.226868 668.419373 -1297.359741
305.534760 922.725586 -537.508972
258.192688 879.144470 -783.939758
451.093262 660.074524 -824.975708
634.659180 589.210938 -1300.918945
93.224945 701.033936 -950.949768
137.324692 680.833374 -926.001160
355.618134 380.938507 -1347.145386
248.480835 473.647278 -895.358276
406.673126 801.113647 -1386.432617
200.724625 463.472931 -1383.934082
235.725189 451.119812 -940.853210
269.319855 437.002167 -923.749573
497.908691 684.588562 -1293.348267
101.109047 717.795837 -939.287354
577.769287 558.041382 -1319.655640
125.212410 463.910858 -939.484680
180.247528 924.826904 -593.475769
106.762451 599.949463 -1391.681274
223.041412 942.231384 -526.023682
492.427826 938.914612 -1334.240112
199.575775 762.972473 -905.492432
115.090004 521.224915 -922.371704
301.768677 895.909607 -579.586487
158.092102 482.764618 -1387.349854
406.955048 522.583679 -872.669617
247.204636 892.968567 -727.308472
276.397980 382.130035 -1353.577881
438.746063 630.537476 -860.530029
175.170868 509.960480 -1386.685303
204.421036 914.702576 -632.623962
162.145111 794.431274 -927.580872
343.852936 893.049744 -607.318970
299.029938 906.523560 -549.993164
98.856697 672.693604 -915.312988
209.546814 892.334656 -669.506226
87.463326 916.299255 -675.427734
246.257965 913.953308 -610.909546
275.110077 719.778198 -1320.599365
251.748169 383.642761 -1367.553589
228.726349 401.442108 -1377.948242
239.158524 883.110901 -735.833679
388.994263 861.617004 -726.381348
407.905579 768.842163 -884.151550
393.962189 680.043762 -1308.750488
138.338638 790.720215 -961.748718
168.343430 600.827148 -1393.768433
175.757370 725.109314 -937.361023
226.026505 502.990814 -896.704285
453.297089 721.732788 -1323.236572
254.650024 637.419128 -911.893677
302.733582 656.757019 -1360.313110
75.759010 558.485107 -930.646606
120.542084 898.504822 -734.832275
298.659058 929.103271 -549.543030
476.525696 574.820313 -1344.268311
164.752304 641.052917 -1389.138550
379.048065 509.423157 -1322.608154
307.950073 887.621399 -682.392395
165.645737 656.537598 -920.469849
252.789322 539.351868 -895.592896
258.958344 518.495911 -1375.356445
375.054810 875.102661 -657.615234
111.453606 893.784485 -719.475098
149.403687 598.282715 -1395.856445
109.427818 549.636597 -922.580200
312.448151 885.976196 -674.329041
181.629593 471.948883 -1402.824097
214.252380 885.637756 -817.940125
377.184937 653.206238 -871.208862
422.115936 659.174072 -1311.790039
240.741547 739.839172 -908.982178
289.437866 495.831848 -888.712708
416.294495 712.882751 -871.372986
127.084930 913.743164 -633.215149
82.366875 705.594910 -1412.236206
276.833740 883.529541 -738.804810
202.714203 797.052246 -925.505432
468.335052 496.752838 -1341.086060
182.966904 558.304565 -911.767944
356.843719 894.452209 -598.070618
430.772461 784.523743 -1347.055420
251.956863 911.365173 -585.336731
129.442902 971.059753 -565.490417
241.925919 530.562317 -1379.620972
383.474945 657.461548 -888.452209
535.946350 660.867188 -1308.062256
556.813049 649.224792 -1288.325439
347.315765 697.569885 -1298.707031
230.794769 483.038635 -902.327148
301.764038 550.392334 -1354.461182
432.022766 561.965637 -1334.934082
259.709595 785.774963 -909.258789
333.400330 880.570557 -718.698730
214.059418 619.825012 -1374.390015
162.705795 552.770264 -1414.313599
90.606987 524.142273 -1398.681030
426.182922 569.140320 -866.957947
570.483276 535.460571 -1335.834106
451.435547 411.333771 -1347.966797
121.243149 672.347473 -929.772156
314.048248 365.594025 -1368.403198
47.556091 889.894592 -759.890564
506.638733 482.408417 -1343.173950
376.188202 398.791473 -1343.388794
441.246521 776.381287 -1313.864624
125.258026 503.878601 -933.364319
376.801575 384.382446 -1346.734375
286.775757 881.147461 -719.815125
241.776474 468.502075 -1376.133789
280.707062 891.609009 -610.374817
357.729614 597.667603 -867.966248
399.195862 409.800110 -1350.397583
341.090271 595.651367 -877.213501
188.715927 667.878540 -931.692261
562.690674 634.752747 -1259.969604
83.938957 707.751526 -919.461304
319.592712 453.528503 -896.052856
124.937836 520.205933 -1393.822266
76.627144 622.027466 -1366.309570
325.629669 402.577301 -1320.184570
332.054718 481.665802 -1346.120972
371.101288 650.758728 -889.641541
161.656601 878.581970 -772.731384
187.522995 673.494324 -917.174011
277.698212 782.639465 -892.387512
281.036713 344.715179 -1363.322144
320.764923 491.875763 -884.438599
204.664352 845.732971 -1400.627075
142.610718 505.149445 -916.698669
488.112885 687.702148 -1299.865845
294.110809 887.649963 -656.552979
347.574646 418.110779 -1339.094238
306.397308 877.106506 -806.878723
445.149139 454.936737 -1342.313232
321.390167 501.699432 -882.645325
446.498627 649.247620 -831.075073
245.282135 624.783081 -897.953369
120.913582 927.892639 -641.826965
218.991257 903.444275 -627.817444
266.289642 587.695923 -1332.994019
135.368759 831.560303 -932.936523
182.502502 939.066040 -524.036011
406.027191 710.516846 -1346.111206
598.110779 584.450867 -1310.779541
434.732574 819.963257 -1373.656738
388.667572 635.118225 -1363.626099
207.711975 545.192871 -1387.076660
389.847443 710.543579 -879.618713
510.765778 949.264954 -1334.045288
637.465088 627.452454 -1301.063232
250.946930 635.217224 -904.618286
114.516151 952.207581 -576.616150
465.758942 840.304749 -1358.306885
235.331299 914.419312 -614.649048
331.066742 454.841064 -1291.001587
277.331726 950.466797 -936.477356
513.323547 656.668701 -1268.369751
506.815674 731.738892 -1341.992432
86.402008 907.460693 -688.623474
107.958717 879.429871 -814.334229
288.189850 931.043945 -517.985901
643.928162 600.722229 -1295.581299
221.847366 407.023224 -1378.909180
153.391220 602.765320 -900.540710
275.058014 684.436951 -922.056885
493.787659 831.138000 -1357.090820
159.151352 493.755280 -920.774597
549.168640 651.348572 -1296.492676
281.805145 580.399780 -1370.694092
525.410583 601.017212 -1331.913818
380.214722 436.749847 -1353.090942
114.318336 541.725708 -1397.442139
256.746735 558.446289 -1382.142456
82.136505 918.517761 -661.243713
299.306549 717.847717 -913.500244
277.071167 931.985229 -540.739990
132.120880 941.183594 -578.805115
514.139404 476.816223 -1328.143433
304.966003 910.916260 -545.495972
65.518143 906.448364 -750.264465
244.447418 721.343201 -920.924988
57.268112 645.702637 -926.150452
250.969131 889.071594 -843.599792
203.574890 884.745117 -713.651123
282.037048 660.263428 -1339.254761
360.359283 332.280334 -1344.242798
458.208679 801.019897 -1319.932251
501.477966 469.265869 -1339.657959
433.375244 850.576355 -1360.217163
400.520447 636.559753 -1332.576904
318.300140 446.297241 -916.790222
277.144440 581.748962 -1373.246826
266.179993 878.059265 -713.840881
136.880829 607.796448 -1396.701050
227.533066 575.780823 -918.442810
123.739479 889.122681 -755.341553
319.604065 625.730103 -1228.467285
502.760132 448.691040 -1342.186646
650.197083 596.363464 -1310.972656
502.923279 770.637146 -1315.715210
347.504974 545.841614 -1339.258179
658.878906 638.243896 -1310.731445
293.795380 567.882629 -1304.871582
195.923203 511.686493 -909.039246
387.105804 875.106750 -674.019043
122.730942 469.971985 -946.549194
504.512939 603.566956 -1345.292847
332.781250 572.638367 -893.421814
510.756744 951.254883 -1342.229858
334.543213 719.170044 -892.913513
654.850098 651.993225 -1300.285034
63.774403 592.603882 -933.661255
325.342377 535.491211 -885.321106
484.824860 672.342285 -1299.473633
498.516937 591.700134 -1352.501465
79.208870 920.161682 -654.589783
303.868408 505.404694 -902.787964
143.597168 902.076721 -726.205627
142.967331 494.938110 -917.592896
337.085510 891.096863 -625.855164
268.921875 582.123230 -889.906128
524.223450 954.902466 -1339.685913
139.786789 525.163574 -922.450439
237.886093 644.209717 -1394.715576
283.590576 883.253967 -722.265015
78.895462 576.059998 -930.140869
242.997894 920.052551 -551.507874
171.030853 595.680664 -1392.856689
341.343903 860.572449 -784.438110
288.631042 892.900574 -646.150330
282.626129 549.927368 -1386.115601
185.888535 890.488281 -801.917053
397.125824 665.817322 -1353.350342
271.014557 900.641479 -598.032166
154.474854 889.173828 -793.315796
490.148193 441.816345 -1347.000366
98.684776 518.924194 -926.356018
162.732529 920.351929 -596.238647
183.052017 927.987000 -612.275940
409.375336 871.986755 -679.956787
154.411728 915.940796 -625.860535
234.872147 601.604370 -911.725281
134.555359 918.575989 -661.403870
207.508865 559.759094 -1389.444336
228.944946 681.215454 -1353.380127
314.178040 865.508484 -723.300537
125.425980 537.301331 -1413.287720
628.927734 715.259460 -1309.082031
364.644592 421.490356 -1345.636108
295.517883 457.019043 -1352.790161
236.143921 893.542114 -667.695251
376.839111 478.776642 -882.882751
403.192719 880.700867 -730.914001
178.792175 698.107788 -915.928833
276.776184 873.070251 -795.623108
180.826569 485.654358 -900.470459
276.539764 697.932190 -916.972900
287.649261 700.327881 -1341.940796
302.313477 579.865051 -884.066467
161.213760 947.157593 -533.659119
300.654083 619.098938 -1259.288330
608.307800 542.599609 -1321.135620
543.087341 473.586578 -1332.616455
125.650085 449.911713 -959.048157
231.574326 789.575623 -916.893677
468.908173 644.280457 -792.695740
126.735725 684.006409 -925.722473
305.533295 711.207581 -1225.698242
481.759247 680.009521 -1327.359375
80.622223 905.226868 -664.801025
191.055237 917.600586 -611.604187
427.274658 723.634644 -1295.589233
256.796082 931.432190 -523.599304
216.718277 603.407715 -1389.052124
357.686493 869.489990 -706.867737
105.035797 762.007202 -920.711426
66.111961 919.340942 -699.855652
286.804474 879.995667 -789.661133
672.499329 666.898376 -1296.572754
380.530579 862.525024 -650.216309
147.395111 838.760498 -932.657349
360.251434 502.908234 -881.314758
367.653137 449.749512 -898.575317
312.545898 734.496826 -893.091675
258.068207 873.675720 -754.974976
448.964325 625.503235 -862.410217
258.568451 716.676331 -891.716797
343.024628 626.922363 -1329.111206
521.867798 455.835693 -1326.053711
378.627838 712.721436 -884.798828
161.966187 880.797852 -786.347534
308.516083 493.411346 -1363.282471
68.029465 688.499268 -1407.100708
157.024765 865.861084 -829.389343
104.427399 596.517517 -1389.129761
477.481873 820.810120 -1306.930664
143.672745 473.371094 -950.214111
263.504211 903.487244 -638.027039
286.408875 660.568909 -1358.505127
78.702843 895.327698 -745.977722
213.594727 881.186523 -785.243835
196.829803 943.312866 -540.418640
248.068649 483.719940 -1377.652954
445.456421 687.143372 -1339.631226
200.711441 731.341919 -932.769104
393.227417 503.580292 -872.208679
271.179108 584.390564 -895.143372
284.888397 412.403931 -1366.618286
230.159485 896.510864 -712.761719
355.319672 428.607819 -1341.558228
85.859673 906.686340 -742.749512
227.333572 501.800415 -1402.750366
464.176636 571.961060 -1356.750732
362.985535 606.986389 -889.367676
270.119446 964.026978 -542.421875
173.597580 548.016663 -909.091187
93.915138 903.070190 -713.168701
117.207123 911.436584 -625.942749
77.420013 593.696533 -911.235596
338.911346 629.471741 -1321.114624
166.354919 636.870789 -1373.025879
414.991730 504.949951 -1349.930298
387.254333 489.818176 -895.191650
134.284378 650.075623 -907.872864
522.417114 606.383789 -1340.715698
343.208649 863.052124 -754.141541
62.183170 901.137573 -759.940186
305.938538 450.998352 -1334.276855
376.720703 862.704224 -705.817200
435.849426 610.278564 -1335.386841
585.705078 630.711243 -1301.478638
445.365967 660.045227 -1347.894043
204.546188 908.396301 -690.224487
489.153320 585.020691 -1325.270874
168.122299 444.556488 -1383.769531
357.376831 403.236237 -1326.256714
468.877960 683.819092 -1296.286499
161.648895 915.112793 -712.342346
204.653809 544.937073 -1388.763062
79.416130 535.167664 -926.289246
100.776489 898.929321 -705.736023
546.092651 695.782349 -1306.187012
339.182129 889.661682 -659.325745
312.815704 691.992004 -902.362061
309.097931 833.839050 -902.749512
286.760834 826.002747 -894.328064
342.434143 646.975281 -1240.774292
393.932037 444.419495 -1360.442139
305.651581 447.083740 -922.040344
199.171799 678.213440 -912.899414
504.252625 898.108032 -1332.580688
176.127075 940.139221 -539.366699
72.906250 731.402893 -947.125916
239.635742 870.393921 -768.519836
194.009918 483.964661 -1369.565430
464.827728 424.745667 -1334.241577
296.526520 469.469604 -915.987183
-25.794947 640.732056 -780.014771
141.626282 579.098877 -929.152039
105.398758 545.348389 -1384.183838
310.191772 912.201782 -535.550354
104.727661 579.300415 -925.478088
238.804886 389.943695 -1375.332031
568.505310 562.930237 -1321.959473
343.948059 879.100037 -616.745789
138.609283 876.774902 -836.299500
180.653076 911.773438 -676.224182
240.845993 571.178406 -1361.785034
183.994659 893.049377 -763.214905
371.696869 579.843811 -874.097900
328.729675 825.615295 -905.298767
393.424683 878.167786 -707.782227
264.851837 544.383118 -1380.358765
191.033722 977.856873 -543.729248
166.953278 933.357727 -589.316528
161.179840 889.270691 -791.009216
416.186127 860.438538 -811.143127
528.217285 493.473206 -1326.442139
451.433685 1050.513306 -1365.060791
63.180271 929.172791 -635.260193
344.251526 854.457642 -740.044128
395.403748 877.302673 -1351.078247
426.773254 572.344604 -886.531738
331.285645 505.447205 -901.976746
227.651062 664.596741 -1375.175903
156.901505 483.448029 -908.651123
402.211670 770.935913 -1293.145996
108.835892 616.009766 -1374.227539
561.001465 511.934143 -1307.662842
437.358521 653.050964 -1329.583374
212.947968 782.185974 -921.671814
256.763214 704.373474 -1331.336548
465.312622 689.892761 -1305.507568
274.303650 628.846680 -894.760803
334.347870 598.299988 -1353.616577
353.446228 360.198059 -1348.673218
240.598022 393.042297 -1381.365723
192.780731 552.961121 -1389.754028
281.940674 911.382629 -550.829773
197.763565 552.795471 -1389.093384
279.195068 486.283386 -885.807251
560.691040 603.298950 -1297.460449
435.785980 564.396973 -1357.052490
160.043686 529.604431 -906.823853
547.384644 527.577393 -1338.479614
210.538971 858.114868 -816.442322
121.247314 489.927490 -924.159119
350.287567 893.048096 -600.874146
262.707428 856.233398 -920.360657
551.644043 690.323059 -1301.150391
225.416290 886.562378 -722.720459
160.518219 593.869690 -898.688904
118.907143 735.589661 -1405.156006
158.006378 651.844727 -1390.521729
482.623566 707.033264 -649.729614
167.573090 479.402954 -909.178223
172.039658 863.804016 -1417.317505
315.224701 877.403992 -740.853455
79.047325 534.651794 -1390.155151
155.643539 645.209595 -1325.603394
417.751648 520.842224 -882.937988
192.251434 895.164246 -833.093201
280.750366 679.443420 -896.120972
201.715317 547.205505 -925.551880
272.594147 819.508606 -935.010376
229.635773 901.415833 -635.471802
378.803650 693.701233 -1277.062256
100.521484 485.252441 -951.143433
529.893555 596.347839 -1316.347290
209.235764 581.576965 -1389.620605
443.772003 826.170227 -1301.238159
361.306061 883.007385 -629.334473
199.423477 909.107178 -672.711304
354.354645 869.609375 -722.881653
301.651764 451.300964 -1356.594604
325.382141 873.205505 -820.359192
554.567688 524.913269 -1333.297363
181.846146 562.381592 -1393.618774
272.113953 435.358582 -1353.922852
635.647400 636.376831 -1307.211304
407.213867 900.433899 -1319.680908
201.362167 583.381409 -905.113647
522.287537 597.066650 -1331.135498
152.341431 562.927673 -1390.415894
494.621063 613.845581 -1333.339111
421.103729 711.654663 -1373.025879
236.622955 894.534241 -752.682983
435.771210 816.828979 -1343.435059
349.632385 538.332764 -881.591003
145.768127 898.030884 -709.113953
301.327759 631.192932 -1319.595337
146.140610 643.534607 -1367.979614
229.707016 653.542847 -902.755981
163.498611 479.947418 -1386.472656
394.653595 600.282593 -860.227295
262.791779 900.374268 -654.858765
165.987259 888.329712 -783.928101
250.037277 710.228638 -1369.380249
276.768768 659.803772 -1358.431030
401.976654 598.010559 -865.326843
66.182747 903.542542 -730.017822
595.362061 678.889832 -1279.420044
248.623642 464.109161 -928.070923
281.544830 895.465820 -704.678162
380.834503 876.790466 -634.641357
520.134705 681.340088 -1269.538696
505.214752 791.231750 -1336.389038
228.272659 764.282715 -1357.160156
599.508484 560.787170 -1330.693604
88.766739 544.549805 -932.291687
242.500992 583.509216 -1380.525391
208.461533 904.803650 -648.859192
306.117523 459.938141 -899.746094
181.697693 907.391113 -678.604919
523.356201 507.547241 -1318.824219
389.259064 450.302856 -1345.725830
434.529022 465.617767 -1347.513184
233.507874 895.575623 -730.968872
-34.448753 605.200378 -835.621094
392.571075 626.054749 -1364.989136
379.631561 499.875061 -1342.889404
65.625854 906.034790 -730.429993
283.368347 459.967346 -924.237549
236.633057 550.828308 -897.881897
227.250687 543.649170 -1382.476074
15.790530 578.674561 -1401.025513
362.704895 339.719696 -1347.250122
424.763336 599.007690 -838.335632
184.357819 915.091003 -611.607544
205.538864 535.499146 -901.692993
342.569885 709.318848 -898.724731
421.803162 381.352570 -1348.966187
599.332520 537.721497 -1327.620361
153.801483 699.533142 -938.159119
70.527687 587.924988 -933.254822
180.480865 579.767883 -927.694946
70.233513 925.544128 -635.103455
172.134460 644.935547 -1311.693237
211.499542 595.830811 -915.991455
269.814117 878.441467 -754.683411
202.823318 901.529419 -635.426270
640.596985 595.103760 -1320.772339
291.844177 931.036621 -528.781921
512.084106 675.708557 -1267.937500
202.167435 436.588654 -1380.384399
310.607025 475.009125 -1247.737061
228.953201 510.827942 -900.036133
96.736038 623.040466 -1378.906738
383.403259 467.588715 -1356.276978
63.936092 638.107483 -1357.020996
410.708252 374.705292 -1347.369751
340.216827 614.691162 -880.974182
556.077698 1078.474976 -1329.534668
389.940552 596.787842 -892.093628
167.750031 906.689392 -635.619446
323.633179 360.925201 -1360.214478
136.908112 903.946777 -727.590271
80.809502 514.122192 -959.844604
161.791580 816.452698 -933.583923
238.123291 562.537048 -884.085205
271.065887 602.278198 -915.294128
535.686646 544.339844 -1342.083496
485.975830 872.838928 -1281.026855
321.314758 428.735809 -1358.298096
190.835815 514.336243 -909.566833
353.680664 704.470642 -1317.481079
299.144073 484.128998 -890.832031
143.708984 592.681885 -1400.484741
134.691544 818.286072 -941.263794
405.458923 441.764832 -1335.185425
392.032867 817.045776 -901.615356
379.979889 461.193573 -898.213440
203.225342 796.874939 -1396.263916
141.699585 977.429260 -554.155945
246.708176 466.460663 -906.528870
302.705017 936.835571 -546.462097
603.818115 559.179932 -1309.188843
408.601471 661.898743 -1279.969238
392.863098 492.509186 -1322.825073
336.840637 663.479370 -873.007263
447.427460 419.465912 -1344.382935
166.214310 659.128418 -1316.602051
276.983521 659.852722 -1372.127686
284.549164 889.663391 -777.646545
329.425690 467.175507 -897.688965
548.613342 580.965332 -1335.844238
347.360565 558.661621 -870.988159
324.682770 370.545135 -1353.604126
207.905197 594.718384 -1398.940674
315.304718 452.897644 -904.960571
123.747322 740.805298 -939.554260
352.793823 502.465332 -885.977173
497.041534 564.065491 -1351.182983
372.798920 517.838501 -1344.945679
498.064209 659.965149 -1327.617920
220.943222 655.699951 -1381.938721
230.641312 883.851196 -803.924561
151.960266 924.468628 -619.005249
322.306732 557.596924 -874.113464
588.561829 562.040527 -1332.059692
303.453156 453.286621 -1339.549438
614.635498 590.013062 -1307.307861
404.266296 488.699799 -1360.162964
575.094482 754.451477 -1306.182983
624.095764 572.099121 -1314.481567
285.289185 517.574646 -897.764832
123.448395 878.662170 -824.084961
548.012329 610.571716 -1240.025879
483.756195 434.587677 -1320.522461
228.555084 588.205750 -1396.890259
211.861328 469.041534 -918.815552
340.866302 513.838013 -1298.875977
465.726715 457.215027 -1337.086182
271.963654 683.928284 -1366.490479
445.187256 599.835754 -871.974121
387.551117 412.302124 -1336.688965
63.897976 685.596436 -1387.311157
259.798798 669.908630 -906.878906
199.067413 627.694702 -926.955261
361.589325 884.956604 -658.523682
541.499146 959.038757 -1326.898926
277.274109 664.820190 -892.735168
109.063126 774.028259 -936.476990
469.086182 650.259705 -1347.492554
80.925476 497.795410 -930.868958
211.420425 722.080566 -1353.535767
524.348633 662.293701 -1323.110962
613.258728 572.927612 -1315.829224
416.162445 604.544250 -1367.514282
54.187447 633.526489 -939.976563
126.721497 568.259521 -918.518005
273.024841 917.762756 -603.906860
310.555878 932.177551 -526.693542
204.495300 445.770538 -958.702026
322.380707 737.517090 -909.595764
73.911247 602.764893 -1359.942871
139.513824 930.099670 -626.806580
305.750031 601.135498 -893.652039
253.350281 918.500610 -535.198486
472.605347 858.482300 -1335.572754
189.553421 576.795776 -1392.419189
509.723633 594.817749 -1334.741699
201.242065 878.013672 -741.946960
323.935028 378.322815 -1343.511108
400.846466 655.421936 -1365.784424
115.484505 627.263062 -911.639038
43.887486 893.805542 -754.048950
385.511230 506.285339 -1359.788086
477.855652 553.299683 -726.252686
267.170898 895.794922 -632.067810
417.536987 477.610901 -1350.334106
259.609589 448.073639 -911.559814
176.663284 937.497375 -589.302551
218.224533 593.569397 -1368.736572
65.822968 891.205627 -760.481873
448.325378 415.321136 -1342.098877
454.845581 735.281677 -878.477295
474.008850 871.140503 -1275.495361
330.827393 886.836243 -612.648804
215.402634 401.264648 -1361.747681
376.660950 674.092346 -893.792725
389.837738 508.010468 -897.429382
407.255280 393.111847 -1342.112305
573.835815 580.057678 -1333.160034
81.870178 891.236328 -840.351013
260.259766 557.563843 -882.472107
273.572083 891.560425 -735.767456
454.671295 611.511841 -867.227356
345.509277 624.881104 -878.583313
378.287018 859.403625 -679.437622
494.286377 805.561646 -1332.051392
107.917976 586.565552 -1355.148071
293.259827 544.475220 -889.652161
664.598511 643.439026 -1309.724487
374.437012 545.973694 -871.624878
310.943451 585.720825 -897.756042
208.546631 902.761597 -664.456177
161.967148 485.523193 -907.212708
491.013702 584.027954 -1352.125000
268.383301 865.059937 -771.820557
282.790466 859.306946 -815.710449
209.001465 796.244019 -1382.090576
574.804382 729.206360 -1324.721191
368.013580 876.567200 -629.278320
228.023758 921.686462 -591.641663
420.452484 482.557251 -880.596558
164.714279 889.888733 -790.764282
189.146011 587.483398 -911.670044
678.375000 672.019409 -1295.604858
201.787292 895.229431 -703.209534
410.171814 563.603271 -868.313538
154.784348 802.838501 -1420.113281
57.184082 511.790710 -942.786560
285.509552 698.688599 -1348.516479
228.830841 908.056580 -652.371948
172.710007 758.352356 -940.429749
66.020004 675.456726 -930.253845
582.748108 665.820129 -1260.883667
299.106506 890.711853 -647.522278
412.578888 707.121094 -1287.428223
92.315933 553.895569 -1404.216797
490.887177 826.321899 -1333.789795
402.885223 878.746338 -1333.069946
295.774017 426.749664 -1345.926025
283.585297 890.264832 -675.462646
357.761169 506.385529 -1323.731934
304.615112 438.026123 -910.570251
252.106216 945.346558 -541.861023
182.099915 839.684082 -1382.084595
190.972992 922.592407 -594.970825
60.718239 594.419800 -1392.820923
282.481812 848.674561 -909.323547
449.702545 470.839203 -1348.776001
146.416504 887.354736 -757.218689
281.324036 888.880432 -654.922485
124.827408 480.539368 -925.361633
371.928833 628.267029 -880.420593
476.442993 851.112366 -1368.012329
567.118835 692.263000 -1328.917847
90.926796 926.632690 -608.380676
653.082275 633.330383 -1312.490112
60.765682 530.197998 -939.425964
120.959679 905.087524 -735.135681
346.786591 711.109253 -903.287476
205.831818 482.291565 -1385.457886
398.244537 728.575928 -890.245117
276.272308 823.974121 -910.763062
177.403824 888.971313 -730.036072
456.115112 679.014526 -877.900940
250.536270 897.531616 -687.297607
599.486877 618.260620 -1313.304321
402.859375 470.547058 -1348.760620
385.588623 507.148865 -878.497803
347.727631 886.107971 -604.817078
410.098816 491.224823 -912.971375
295.310638 567.544189 -877.808899
179.793945 710.154358 -921.142090
302.085266 772.558777 -887.938538
173.984802 465.289490 -930.277405
102.197449 896.382751 -855.024597
171.090622 697.502197 -1373.465820
127.361176 580.002808 -1357.119141
288.113403 860.348633 -776.862061
177.772675 826.119995 -933.065918
405.328583 620.609131 -1340.953369
369.619598 655.846558 -1286.364746
222.605789 789.083252 -918.725403
79.312447 947.179993 -612.348328
171.626740 904.732361 -718.932190
184.925400 691.228394 -1355.362671
237.463531 888.356445 -729.653687
334.213348 436.756744 -916.237732
158.465652 887.883667 -736.410889
444.067657 668.810852 -866.149780
304.974152 565.821472 -883.948608
191.112595 925.674072 -545.439453
253.898773 931.571045 -545.583801
455.629639 612.704895 -883.980530
57.933620 592.539978 -1421.756958
100.734024 932.442200 -598.857666
311.825256 597.466858 -1346.076660
162.503128 542.575195 -1402.722778
109.185616 633.833374 -1392.911133
280.613312 479.113495 -893.187195
157.870911 821.537903 -944.913574
399.663086 620.488159 -884.996033
316.514496 591.244873 -905.810120
96.541550 622.303162 -1393.890869
311.714966 888.604980 -599.113770
76.275444 891.138184 -764.564148
466.910950 516.794434 -1355.048828
141.561691 454.846436 -938.306763
370.827454 541.465210 -866.228943
334.228333 549.651123 -1343.019897
428.283905 379.545532 -1350.095215
167.021469 606.802124 -1392.780640
321.161102 535.190674 -1340.534180
218.258789 500.482849 -1380.416992
314.360199 450.379791 -1325.039063
406.177887 356.831696 -1341.522461
382.402954 391.157043 -1347.156372
225.470093 395.486023 -1375.622070
147.818665 623.413513 -1383.605957
428.559692 456.376099 -1352.303833
86.217735 932.178223 -643.853516
347.492249 909.668091 -570.065369
334.136627 721.127319 -877.875793
60.700645 608.577393 -1382.813843
284.769562 908.475342 -583.712952
141.097382 584.500183 -1397.037842
293.379578 885.854797 -694.902100
531.575928 466.205200 -1335.478516
408.565430 358.424988 -1331.162354
453.154663 533.789795 -1346.063477
112.606712 874.151184 -841.169617
179.538635 600.314514 -933.785583
391.428436 879.834167 -621.576782
452.327759 623.444092 -1341.614746
609.985352 586.968994 -1310.773438
237.172287 467.803925 -901.761292
489.716125 590.347534 -1354.874878
371.318115 875.816895 -697.528625
465.920471 622.991211 -1350.845703
364.879059 398.820526 -1362.242554
105.186691 817.813904 -948.744446
218.760941 901.679810 -674.753113
380.135468 872.457825 -651.187378
192.237045 795.923706 -909.043884
340.842346 931.655579 -553.290649
289.293274 911.287292 -574.118896
132.400711 477.054474 -930.586182
298.150299 491.310516 -906.311890
286.863770 667.893066 -1362.319336
192.354004 906.569092 -645.830322
155.664139 894.240845 -748.553589
219.258987 654.858765 -912.331970
281.744171 882.700256 -725.656372
121.787926 561.689453 -1385.413574
383.533813 448.239838 -906.063293
331.271423 885.848877 -647.705750
531.812683 558.628418 -1343.488037
273.041168 652.933411 -1334.221069
197.521347 535.247803 -916.105530
89.214645 921.348022 -623.414856
80.163368 666.727173 -1391.445435
121.076607 889.057190 -788.304382
156.942978 523.963196 -901.238586
37.792873 561.112183 -932.589233
132.747055 504.412140 -930.106140
280.363373 771.055237 -901.230225
440.462738 534.389648 -874.254639
276.257904 883.981506 -711.435791
338.651062 859.670532 -786.103821
618.320984 555.650513 -1314.831299
299.119232 820.799438 -892.221375
251.852356 466.392365 -1358.364868
176.813217 808.480225 -909.701538
465.892761 553.221619 -1329.431763
117.730675 930.904236 -635.507324
163.162613 607.387329 -1272.662598
228.240494 432.381134 -929.022583
237.564804 596.165710 -903.528625
286.548615 852.620056 -815.506165
403.104980 463.376160 -1357.960327
339.145508 871.724304 -664.627197
195.902893 488.232788 -897.348755
272.516510 392.533966 -1365.047607
409.648712 685.331787 -864.150696
317.699677 889.120972 -588.121155
240.080490 449.795593 -922.918823
340.515747 648.320679 -1308.946533
323.142578 495.726685 -1236.557861
329.006958 699.985779 -1229.438232
302.209320 903.539368 -632.975830
86.139679 739.784729 -1410.583984
442.657074 644.921143 -879.304260
163.975281 835.327881 -929.427612
590.820251 541.531128 -1319.495239
205.428665 419.812988 -1376.942261
369.797211 878.609985 -641.923950
331.737305 597.795044 -893.892273
348.989838 900.096985 -581.684082
309.636627 642.164063 -911.146851
91.155777 904.710876 -706.005127
176.482788 896.476257 -725.138062
88.938850 923.398193 -682.994690
403.564209 628.537415 -881.991394
299.974335 610.207520 -1316.551514
356.997009 453.726563 -890.722473
204.802933 751.489075 -920.209534
331.071350 875.198853 -838.633606
418.356873 517.281555 -866.459412
402.193665 877.237671 -613.590454
152.866837 438.653473 -939.860779
108.819283 928.386780 -629.315247
447.041931 887.196777 -1343.505737
511.953796 532.132080 -1346.208618
327.371521 594.086914 -1309.043091
296.705017 775.627502 -909.691772
96.838318 557.205750 -1417.691284
217.644577 908.768677 -669.104370
462.950287 628.888367 -1353.100708
529.676636 691.412903 -1274.954712
155.233490 899.202454 -1388.719727
280.751129 525.272644 -1376.586670
121.239456 560.419128 -932.953552
225.585373 609.233765 -1388.221313
392.358826 592.197571 -1359.540405
507.933167 633.904114 -1338.058960
309.806335 448.983917 -1351.869873
181.148987 607.320435 -1389.183838
79.622810 902.859070 -718.394043
361.043579 913.577820 -575.633606
613.964050 627.193726 -1294.976196
183.852753 887.801086 -709.566162
331.722992 880.649353 -649.075989
276.174774 431.525940 -1369.717896
347.578003 411.231903 -1340.407959
517.016235 578.919434 -1318.205811
183.494598 488.162415 -913.075134
143.048004 921.772705 -597.795532
192.446991 931.734314 -591.611389
342.967682 390.912842 -1357.750366
517.991089 1069.606934 -1348.250488
303.221436 910.360107 -571.347656
286.180695 599.354980 -1374.446777
285.437561 450.225311 -912.144775
528.931641 515.145020 -1329.078369
327.409607 898.729919 -589.549438
272.528656 873.978271 -779.558350
135.187851 447.966644 -944.472839
157.320602 890.611572 -796.172607
309.706757 869.836121 -813.067688
183.349045 935.473267 -557.700623
244.729111 911.716736 -570.411865
314.267639 881.503723 -742.195618
164.650482 926.700317 -603.154053
404.734741 565.401123 -1348.377441
385.802887 514.719482 -881.049561
270.579041 935.897705 -524.129089
262.529907 881.037842 -783.791565
414.648254 533.787354 -873.944885
381.431122 669.304504 -1289.466553
233.379501 912.295288 -600.646667
74.107903 896.386292 -719.385925
185.899506 554.869873 -910.923889
380.927917 686.178345 -1329.594238
238.082993 661.881409 -927.528015
409.904602 665.215698 -1269.001465
226.599121 508.869568 -1397.971680
314.113525 903.233887 -591.294067
305.029572 651.664063 -1265.380127
367.291779 654.752258 -1358.309692
141.958588 908.482422 -649.006531
405.246857 388.624878 -1344.250854
264.793518 503.092102 -1387.181152
268.908295 487.656189 -887.008972
461.801270 611.009094 -856.721008
87.755844 576.902588 -1407.663452
176.326218 487.145142 -1389.401855
377.334137 670.772827 -879.497742
258.735718 881.169373 -685.876892
584.684143 647.730652 -1298.566772
290.676971 438.748840 -918.576843
485.641907 647.891479 -1338.693481
401.323822 836.672363 -767.249268
129.496902 611.829102 -943.952637
599.178528 608.005249 -1316.199585
426.730560 663.178711 -1327.530518
509.262726 457.326904 -1337.056763
64.088531 645.189392 -1383.370239
501.217773 429.325439 -1343.765137
309.001129 930.486023 -542.589539
151.066330 650.290100 -907.532959
229.635101 797.801331 -919.789368
238.795853 733.660950 -915.053406
309.292725 827.776001 -897.949280
209.141815 551.185120 -906.478699
470.553192 666.817810 -1337.625854
75.108650 919.959534 -637.551392
551.231018 733.878540 -1320.905884
436.468750 700.892944 -1345.886597
214.051178 902.676636 -646.814758
426.809692 395.622772 -1348.949463
588.586487 565.813293 -1330.860107
292.158020 514.795227 -1323.863281
374.505676 503.628998 -1357.336182
284.902435 511.300598 -891.497620
225.248688 631.471130 -1383.026489
472.354797 645.939819 -846.259766
172.465042 880.814331 -761.339111
284.278107 664.726318 -893.378418
311.892395 712.235840 -899.193481
153.936783 521.874390 -1379.480591
112.217804 524.826416 -927.202454
295.871857 584.162292 -909.059143
301.435303 804.398315 -1297.972534
361.298706 624.737549 -1352.273438
468.225037 1061.094116 -1373.963989
329.634979 376.048859 -1340.674683
290.248413 497.391327 -899.939880
297.531372 559.752686 -1266.343994
199.666977 856.804016 -1353.382690
302.673615 690.561157 -892.163452
384.903748 1081.367920 -1351.895630
88.114906 899.692017 -766.807556
177.113419 467.629303 -925.450867
384.696594 534.631042 -868.581665
464.695984 660.144897 -1347.971436
248.865097 924.485901 -534.091431
201.152924 912.319397 -634.603027
247.375320 882.357117 -702.021790
524.006714 674.371643 -1268.931274
193.967239 561.924622 -924.566956
313.560120 892.227844 -632.930237
162.696213 834.342590 -959.023254
346.150269 583.081665 -1352.686401
176.059174 648.231018 -913.867554
342.497345 523.309570 -879.468018
179.883484 887.329651 -830.604370
284.839905 887.450562 -745.986816
387.629974 620.330261 -879.645935
544.176819 580.804077 -1330.335815
354.802185 714.469238 -897.867554
59.091572 559.921326 -923.431335
361.383240 482.801636 -881.265564
156.410370 877.802002 -797.510803
107.348915 528.371521 -1398.768066
414.184296 502.369873 -883.100403
382.671112 616.897034 -895.347046
410.930389 518.062195 -893.363770
163.984085 899.387268 -773.285828
301.455078 479.071747 -1281.516357
351.393463 882.171448 -661.750244
290.131836 890.187927 -686.043213
356.106171 691.358765 -1312.770386
78.185158 709.912292 -949.579712
160.731216 977.640625 -568.826294
375.807220 497.459839 -895.643616
164.955460 490.423920 -935.980408
196.080719 453.768188 -950.843140
307.588379 596.485535 -1290.679565
200.394165 892.334839 -755.333252
198.872528 591.994995 -1399.858032
259.373260 615.840515 -1380.168701
180.421631 469.946381 -930.706482
383.532379 522.530396 -873.896362
279.449036 892.809326 -631.590393
177.590958 770.848328 -933.826538
307.041779 669.639221 -1253.226196
594.728577 610.247131 -1280.293213
546.390320 568.212830 -1327.771606
487.927338 771.300171 -1360.633789
346.767029 405.827423 -1318.529175
328.778442 515.248230 -1352.591675
470.301727 596.880310 -1356.867188
107.576088 541.264404 -1403.547241
536.682251 497.466125 -1338.672974
235.201782 597.514038 -898.762329
281.420227 572.939209 -877.121216
409.482727 462.676056 -1365.025024
169.318436 685.654968 -916.577332
388.718628 565.432251 -1368.718994
220.592117 571.531677 -914.096008
423.278198 778.532654 -1312.060059
168.612640 570.096558 -1410.626587
320.656464 600.213562 -1241.951538
132.404816 529.304321 -1412.713989
419.583832 501.302094 -1351.396606
408.094208 853.461304 -756.598633
73.018867 529.234253 -1391.265381
436.922485 681.223267 -1358.154175
149.484512 539.130798 -932.734497
189.890778 906.295532 -669.345459
258.917206 880.847595 -749.260071
56.881115 906.008972 -709.843628
501.794983 846.032959 -1340.826538
553.972534 633.115356 -1326.608643
396.405212 525.305969 -1355.672485
190.607101 940.407776 -531.566833
480.025024 775.915833 -1328.396851
643.344666 600.077576 -1309.237427
180.774765 545.624084 -896.082153
582.312012 550.338745 -1330.209229
526.885193 668.581482 -1300.454956
63.376171 615.357300 -1411.802246
489.539551 655.510803 -1343.312622
207.940048 571.416992 -895.263245
141.708679 897.398621 -760.031006
308.413422 484.617126 -887.615723
331.559509 458.247040 -902.640137
488.337158 664.954102 -1333.478760
216.117157 743.060852 -912.515991
256.847198 840.780029 -940.886414
285.717590 884.719543 -713.525208
188.791870 868.170288 -1427.782349
168.835556 798.875793 -926.318604
139.500168 798.325073 -1404.732422
376.792084 483.475952 -1357.046631
96.125862 540.754639 -909.922119
183.053406 610.002319 -1390.300049
215.141907 847.094238 -1399.273315
424.012146 546.964844 -1363.678223
176.037094 915.236816 -676.301147
260.413208 865.453369 -780.574341
279.161285 455.595337 -1367.194214
99.672501 903.578613 -736.467896
402.033600 802.403870 -888.973633
342.275238 427.233612 -1365.703125
287.634216 489.853271 -886.792297
588.374451 624.409424 -1279.003784
66.683205 902.458923 -813.024536
342.259521 407.867157 -1339.786255
520.923279 629.408203 -1320.879639
494.138489 716.999756 -1313.698853
192.628769 657.730957 -909.752991
80.319107 905.376282 -735.960022
203.167282 528.602905 -1396.801514
88.337799 893.717834 -727.389526
337.580902 885.878113 -639.161804
