ply
format ascii 1.0
element vertex 1343
property float x
property float y
property float z
end_header
-353.699402 800.368347 -651.123352
-408.836243 1094.771362 -1073.872803
-297.373199 1059.311646 -179.616318
-545.087341 722.665649 -556.889282
-374.523987 1114.655640 -1069.781982
-394.746094 738.017456 -637.771301
-419.661469 928.074402 -564.342773
-395.441406 1084.324707 -393.612976
-267.888885 838.163696 -677.858948
-430.084351 761.472839 -599.035278
-201.411453 1079.348389 -312.278625
-797.218689 913.724121 -882.504761
-455.822235 1023.433899 -191.881256
-610.307617 1405.020020 -808.193481
-780.179932 1177.963257 -794.032288
-746.194214 884.313354 -941.188354
-357.473694 1061.224365 -233.110977
-508.611938 1037.353149 -330.329590
-344.213806 1078.487915 -341.846771
-637.831116 1096.983887 -816.558411
-371.747528 762.616028 -641.495361
-445.897491 1045.216309 -264.625854
-642.933411 927.169617 -970.831177
-386.697998 1064.266724 -186.246628
-416.151611 1086.973877 -383.820709
-569.484131 807.828064 -1053.353882
-395.817444 1043.255371 -519.959900
-406.543274 735.466431 -677.505737
-514.736206 878.787109 -1089.145874
-619.837219 777.854065 -475.679840
-193.662048 1067.319214 -268.383484
-507.831329 1078.120483 -1024.819580
-372.036957 1064.171631 -309.512054
-299.026276 911.726868 -629.224365
-573.822876 831.726013 -1054.518188
-653.213928 820.871338 -1031.671509
-191.616409 1062.298340 -270.881744
-369.187317 1051.290161 -192.922592
-425.280853 1026.397827 -110.646248
-326.704346 789.583008 -650.593079
-315.665741 786.098938 -677.980042
-387.428711 1072.099487 -310.402679
-443.107605 1043.488403 -218.871750
-912.232178 968.986145 -812.532104
-169.692642 1071.293701 -302.352142
-837.496704 913.589294 -820.973694
-424.564545 925.394287 -567.601318
-263.236389 1103.529663 -434.143860
-848.797424 1154.628174 -794.700684
-634.001465 738.621460 -1035.728027
-445.613800 1060.808716 -314.922333
-825.895935 948.010315 -851.649475
-685.554565 836.667847 -987.026978
-630.787292 1404.101074 -842.164124
-177.850449 1069.659546 -314.170135
-594.033447 841.784668 -449.851105
-412.752441 1051.649658 -232.271896
-304.593597 906.966309 -606.285706
-842.940552 1221.630615 -808.673523
-886.643494 923.959534 -807.463257
-377.120117 1090.872681 -415.392029
-376.250916 793.122314 -640.144592
-360.402802 1084.283447 -363.585815
-258.845154 1089.416504 -372.889313
-388.475983 847.577881 -574.192749
-246.198135 1064.813965 -308.278503
-853.541626 993.510925 -805.335205
-381.771484 1071.985474 -362.167847
-415.350250 1052.969727 -1091.127075
-229.254990 1097.186646 -381.662933
-634.392639 1021.039856 -925.809143
-621.869324 886.461487 -1005.904297
-430.242432 887.078308 -556.773804
-288.416168 1068.169678 -305.525330
-379.607788 1033.354736 -145.742767
-812.811951 1016.583862 -838.294983
-454.402557 1106.363403 -1000.881165
-540.679504 1290.673828 -923.223022
-761.466675 1183.677734 -821.248718
-537.660278 754.223572 -522.647583
-236.384338 1066.221558 -284.685608
-584.332031 796.507690 -1063.098755
-653.543457 800.098816 -1007.125977
-615.733887 860.627869 -981.133911
-174.990250 852.659912 -535.913025
-389.296570 783.305176 -597.458191
-569.134033 757.088745 -505.090240
-616.275635 1174.752197 -910.414551
-359.638641 1049.121338 -162.388748
-473.735382 720.125427 -588.942200
-302.781281 1054.141846 -138.426971
-475.573547 1062.031128 -977.208374
-451.542542 1036.035645 -1044.541016
-504.284302 950.137146 -1063.614746
-293.137634 1078.569702 -354.171570
-881.662842 1090.185181 -796.258667
-839.414001 984.965332 -848.870850
-407.864655 1067.875000 -1086.416870
-246.257507 1088.577515 -359.766754
-111.480240 961.471680 -465.118073
-364.768677 809.848511 -621.697754
-646.214111 804.260803 -999.031250
-284.605164 1062.767700 -139.387009
-712.482666 1013.905945 -883.753235
-494.093109 899.886353 -1087.796021
-315.970245 1082.220947 -316.966400
-418.272125 770.262390 -601.220337
-679.036926 797.122864 -998.993713
-542.789917 1083.079590 -979.927490
-291.533813 1077.193237 -347.432922
-444.652222 1103.947144 -1021.108521
-440.216095 1026.138184 -151.973953
-209.884232 1065.350220 -235.395294
-298.871124 955.829285 -623.920593
-311.287018 1102.682861 -426.549591
-195.069580 1081.132813 -346.195953
-398.277985 727.150513 -676.341736
-385.127838 1108.912354 -1081.479004
-276.572510 884.276794 -642.996155
-591.058960 1011.884460 -448.955688
-283.813873 927.121033 -638.151489
-496.331055 935.613892 -1071.910767
-589.560669 995.034363 -983.942627
-492.707214 1090.483521 -978.571289
-445.004639 835.074524 -575.843445
-743.277283 821.731445 -960.631592
-684.916687 924.386597 -945.124573
-541.264160 1296.680664 -914.812256
-741.989075 823.972656 -974.366455
-594.773804 994.873169 -441.864655
-559.320313 909.090820 -758.399109
-526.027832 749.285889 -550.593750
-585.821960 1002.868896 -817.699463
-807.872009 971.778198 -868.187195
-501.308411 1048.809570 -300.537262
-440.301544 1060.050049 -1033.723267
-419.121460 1082.669922 -1068.699097
-544.643372 904.281006 -778.212524
-410.095581 963.998657 -564.609253
-421.968567 1035.047852 -535.289917
-309.551697 1067.364014 -250.080521
-635.403381 780.129517 -1038.665894
-385.513184 731.283752 -668.937256
-636.044006 759.011719 -1040.428345
-520.072388 885.401184 -1089.734253
-263.597717 1065.264893 -270.951965
-773.054993 1003.915588 -887.120300
-479.477631 1044.230957 -1055.865479
-428.666016 1062.183350 -1020.576660
-545.229370 780.004395 -549.396423
-364.067108 1088.064087 -397.799805
-315.067749 1055.028687 -204.377121
-578.571106 922.407837 -471.975677
-253.469513 1084.817749 -324.077698
-863.068237 1215.714233 -799.699524
-406.828094 1048.363647 -301.043060
-442.965881 1054.264282 -1052.080811
-301.412537 1071.078369 -320.969269
-337.371124 982.653687 -585.284302
-518.379395 973.205688 -1049.056274
-474.605743 1070.145874 -1025.467651
-229.050629 1079.375610 -377.603882
-416.974396 837.090027 -560.226624
-286.559937 1088.242188 -385.721344
-623.630737 920.596558 -856.489258
-589.507141 925.695190 -435.222870
-267.442291 887.034485 -651.085815
-474.559113 1039.802612 -264.210327
-526.854431 962.636047 -489.083954
-549.657227 1327.910278 -840.060181
-490.598389 953.568909 -489.479309
-215.316284 1076.018555 -307.673096
-395.274994 807.693176 -596.295471
-908.691284 903.440308 -824.574463
-699.592957 788.626282 -981.561279
-195.483490 1074.255371 -249.483521
-348.037781 852.134216 -618.616150
-300.531464 1085.319580 -403.558441
-808.503662 1190.656372 -816.193115
-667.190002 755.006042 -1034.201294
-565.072266 742.256958 -549.033813
-614.169128 928.344604 -446.482849
-796.788208 856.156921 -920.179138
-392.767578 949.470642 -560.913635
-267.370605 871.663940 -650.695862
-280.328766 1072.544434 -309.527344
-499.184875 884.383484 -1082.867554
-216.838272 1081.090820 -342.483246
-616.437744 852.415833 -971.966309
-597.492554 888.181458 -888.077454
-509.441986 791.215576 -524.146973
-419.939331 1070.321411 -343.446014
-774.850403 889.768921 -922.808044
-454.366669 807.653992 -565.961487
-310.618347 1047.268677 -145.896957
-208.885574 1082.113281 -343.002930
-625.245056 1007.777344 -935.017639
-750.737549 1041.952759 -836.296204
-307.225952 1082.345337 -359.701660
-344.934784 797.244446 -624.234924
-520.607849 790.714233 -535.431519
-730.488647 1025.106689 -889.739380
-207.255737 1064.189575 -243.276978
-356.184906 1080.144531 -363.189362
-509.886475 977.179199 -470.691467
-411.998291 930.089050 -538.168640
-587.625977 690.626038 -552.654358
-628.296814 1099.780029 -950.970032
-476.431030 937.465515 -1063.530884
-521.304382 1067.946289 -990.207092
-245.681366 1056.295288 -159.295380
-404.383942 1031.943970 -1089.280029
-171.588287 1075.621704 -387.504700
-445.631409 1045.152344 -281.869751
-860.931763 965.088196 -797.298462
-526.690735 1043.825195 -1017.130615
-393.324493 1062.629395 -1101.148315
-460.885223 1052.969116 -1061.322510
-624.656189 799.364380 -1025.254395
-502.098419 1055.192871 -322.579865
-333.635132 763.441406 -688.255249
-828.702332 1154.209351 -827.508118
-436.523956 932.196472 -536.323303
-556.594116 1073.879639 -960.650696
-373.034760 833.325195 -600.864746
-573.524902 945.979431 -1037.686768
-544.284180 882.531982 -509.502441
-582.800781 825.126892 -1058.391846
-281.553375 837.844910 -661.486877
-510.204651 1033.625488 -1038.248535
-444.860260 709.298279 -642.952576
-489.205994 755.405151 -562.754517
-693.364014 950.546082 -951.989563
-408.506470 728.661316 -656.872742
-700.225403 846.354492 -963.693298
-283.857178 861.203430 -649.632385
-193.568069 1075.387207 -285.120178
-563.168396 903.859497 -1025.401123
-682.673462 1026.160889 -828.302307
-424.176331 963.441711 -535.673767
-229.281891 1063.415161 -228.179108
-251.336197 1058.268433 -142.019714
-531.940552 1260.574829 -872.787537
-547.397217 998.856323 -457.725037
-483.486572 1183.429077 -985.405640
-388.743500 1098.552124 -1079.238037
-730.298889 870.602722 -935.561035
-692.959290 763.070374 -1008.665710
-323.883392 771.459778 -661.438354
-553.690247 1407.945801 -866.963806
-777.219299 833.617554 -937.133667
-127.610924 917.469116 -498.594757
-297.796265 858.403687 -649.362488
-493.704651 902.257935 -1089.237793
-439.219269 1014.124146 -1065.427612
-840.214111 883.292603 -879.208008
-353.386353 963.420410 -587.422485
-631.602539 1200.012939 -898.428772
-470.788605 877.739685 -518.536377
-505.570923 835.377625 -527.766785
-324.402344 759.178101 -697.819092
-592.690491 965.846558 -1023.289429
-384.224792 1079.958374 -1081.400635
-446.282257 1066.517822 -1034.371216
-638.279053 1031.611938 -940.075439
-302.419037 1050.552612 -202.815033
-668.793884 729.333374 -1017.597656
-436.739594 796.504089 -585.135559
-807.907166 992.762329 -858.464111
-476.434021 1015.225830 -511.428864
-356.411499 1044.491455 -550.807434
-774.830078 968.526978 -891.317871
-631.718750 1013.171509 -920.840759
-627.550171 1235.759155 -904.350952
-724.277771 874.194031 -968.648682
-347.025055 801.677551 -644.742371
-580.916504 836.589905 -1054.388916
-357.379578 1038.790405 -136.377701
-878.396545 1091.627197 -804.676697
-549.452271 716.825439 -584.948242
-411.632080 710.275757 -640.644409
-262.218414 1058.268555 -141.543030
-609.912964 1103.542725 -905.814636
-555.680603 913.310547 -1029.795654
-281.366669 1043.933594 -148.108215
-395.955017 1115.906128 -1032.633545
-380.703766 1073.280884 -333.490723
-514.053162 948.483032 -475.920868
-562.995911 1070.576294 -878.715454
-542.168213 1028.706665 -472.458344
-271.837097 1084.766724 -350.490540
-529.052063 912.901123 -491.424774
-833.200623 945.741821 -817.087036
-510.216248 1004.043884 -1044.004395
-487.265625 729.648071 -607.070740
-260.844299 881.115051 -638.290894
-343.535065 867.544617 -634.084412
-620.300537 780.156616 -1049.095703
-305.489044 1089.797241 -439.451996
-852.778137 970.025391 -816.197693
-268.118896 836.300110 -696.700745
-629.204956 883.631409 -996.691711
-681.373718 884.773987 -938.381775
-303.435822 1087.935425 -425.025726
-162.704636 858.099548 -529.864990
-559.832092 810.190857 -1058.557617
-566.536682 962.898682 -795.603577
-500.619110 1050.649048 -315.499023
-273.702393 852.519958 -672.534607
-210.339859 1070.819946 -289.335571
-582.224976 1296.574341 -856.849487
-722.649475 1054.872314 -842.779907
-542.712891 983.479919 -488.684174
-506.288177 1170.461914 -954.082703
-581.642700 1007.863831 -444.220337
-257.759430 888.485107 -654.210266
-550.948547 883.063171 -472.883698
-304.029083 1006.404785 -596.841736
-680.535645 774.934143 -1033.861084
-524.509766 956.521912 -1066.890747
-402.049347 736.331299 -681.748230
-567.172607 787.090820 -493.952606
-741.429138 961.120544 -922.551758
-408.659973 1066.170288 -188.858124
-746.369263 810.755798 -962.911926
-382.595093 846.453003 -594.243896
-274.285004 1088.057495 -424.085999
-524.329346 743.243713 -547.435608
-547.230530 837.544434 -505.514221
-201.746979 1067.053589 -265.733612
-274.385345 1058.127075 -284.749786
-536.768616 776.986511 -527.607788
-843.337891 1062.414185 -815.003540
-353.126740 833.218567 -615.429321
-910.550171 896.445007 -821.926697
-620.635559 1088.528076 -961.689636
-511.065491 954.941650 -489.473969
-576.135925 998.554321 -865.111877
-459.945251 1067.138428 -329.328552
-427.442413 1042.643799 -201.463394
-242.396194 1056.282593 -163.919922
-275.476135 824.306091 -682.371216
-625.478699 774.203247 -1035.942017
-498.093811 699.371582 -590.409241
-604.853271 760.144104 -1054.562866
-549.389404 876.698364 -508.187256
-363.499939 1053.625122 -150.343155
-580.243591 1235.679565 -887.481323
-582.562378 1034.407837 -1008.077515
-595.792236 960.193665 -1024.385254
-405.156158 1080.191650 -335.887299
-404.152893 1079.435425 -981.163208
-555.194458 1267.957031 -937.691101
-593.964417 945.297302 -480.320648
-861.582275 867.639893 -871.825928
-803.605408 1000.590393 -820.417969
-613.060486 879.894653 -933.513611
-561.600708 1061.496582 -445.347687
-597.186951 745.767395 -511.813995
-478.052124 768.406738 -589.455444
-201.144089 1071.070313 -277.767792
-610.999512 782.841797 -1035.520264
-500.983978 743.117371 -566.990356
-500.089600 929.355103 -525.187317
-169.667725 1091.839111 -251.048523
-739.547241 816.862976 -946.045471
-395.540924 1031.801392 -148.358139
-714.549072 778.386780 -987.251587
-148.317917 1054.087769 -471.927032
-237.133850 1064.669800 -280.624725
-489.035828 712.989380 -580.621277
-466.230774 1212.771362 -467.320435
-397.787231 928.729248 -559.845825
-448.629517 1046.354492 -290.166687
-582.381653 1025.992920 -980.187195
-537.079041 1428.722290 -897.247864
-322.896912 1076.484985 -409.516907
-357.813965 849.532104 -604.808960
-568.982178 869.671387 -1049.774902
-491.482910 832.947083 -532.543091
-496.523590 1056.793823 -474.770325
-679.657837 824.028870 -975.255249
-598.743530 832.747803 -1024.998047
-595.974731 968.745789 -436.505432
-535.441040 1155.049805 -950.986023
-203.255997 1094.746826 -361.620789
-413.358429 1053.297852 -338.639709
-694.286194 823.710632 -971.319458
-366.387878 795.951904 -626.390991
-548.802185 867.338440 -523.034546
-493.516388 852.849182 -515.574280
-290.151367 1068.007202 -348.059784
-614.495117 767.049377 -481.483032
-518.583496 1001.160950 -1040.234741
-569.845337 1031.400024 -999.265991
-483.591339 992.641479 -1074.371948
-528.651672 870.814087 -1086.588379
-290.182037 1066.864868 -290.110931
-578.742981 1020.643188 -845.575012
-521.192810 736.828613 -536.267944
-508.407745 1057.422852 -465.876648
-521.367188 1029.768433 -1009.232788
-580.882996 827.533813 -470.164337
-604.108643 779.552490 -1058.723022
-361.328766 1056.665649 -212.652954
-436.386749 1074.014038 -341.311951
-562.146667 799.092590 -510.870819
-309.767700 872.847351 -614.217651
-902.464722 856.270874 -830.875244
-410.527405 1064.583740 -516.592102
-370.099609 1074.866211 -340.738617
-272.419220 1101.032471 -427.441345
-421.258545 947.432434 -554.991638
-483.351654 1045.657349 -308.452148
-561.885132 1216.213501 -945.745422
-386.665283 1111.183960 -1092.634521
-549.092529 732.277222 -557.806213
-202.392960 1094.717896 -378.997131
-627.625122 934.771240 -911.193542
-128.852737 1001.240723 -499.123199
-443.072815 752.728577 -616.615051
-471.138977 726.314758 -597.845154
-745.192810 788.370422 -970.413330
-559.315674 1265.600098 -910.782410
-631.940063 897.647705 -992.747559
-699.082764 976.553711 -937.467896
-738.755066 781.835388 -961.675537
-410.181122 946.131165 -547.165039
-639.541809 778.344360 -1015.712769
-424.398163 987.831482 -1080.870850
-393.537445 1047.786255 -163.644089
-852.543640 967.466736 -821.448853
-456.742065 1047.642090 -1049.543091
-506.504578 1162.690430 -949.269592
-280.578247 950.397888 -612.227417
-326.281158 1064.081299 -255.161453
-453.683411 1060.069336 -322.054138
-431.604248 834.926147 -555.551514
-394.110657 840.579590 -591.425293
-482.030487 1048.809326 -360.422546
-408.024475 952.067627 -557.795715
-552.015625 881.668701 -796.032959
-265.058929 1057.821167 -202.298172
-291.832123 882.821899 -621.370850
-584.577271 1065.590088 -980.996948
-243.260269 1053.067993 -223.020782
-385.897064 895.721741 -577.095642
-290.194153 972.624573 -600.476685
-221.324646 1076.859253 -321.017273
-536.922241 828.622009 -1062.297485
-442.947937 1074.176025 -351.329041
-222.560883 1069.164063 -193.225067
-383.428650 1063.723877 -291.982544
-491.132172 930.688171 -1056.936035
-314.410248 786.957458 -665.008911
-492.314575 762.714294 -557.025635
-374.946869 1077.584473 -1080.805908
-366.392822 858.539307 -613.441650
-521.613464 686.675903 -606.882141
-617.436462 835.427185 -1016.873596
-313.957062 971.700195 -606.655273
-294.411499 931.567932 -631.351563
-697.493896 1003.974854 -851.250671
-540.546204 1301.599121 -887.234497
-381.180969 1034.569214 -109.680222
-523.915527 1038.372681 -1034.525879
-538.739319 1166.070313 -926.295654
-558.688660 1294.260620 -890.274109
-842.953064 1149.536865 -791.532532
-210.594131 1082.658691 -345.815033
-221.169617 1077.663818 -248.988312
-356.286682 878.083191 -623.967163
-478.379364 1050.288696 -1053.323364
-384.816284 756.139099 -636.358643
-475.243225 729.752502 -587.542480
-613.838989 823.652527 -1028.164673
-624.841980 954.555847 -997.030090
-592.516357 808.547729 -1064.262085
-572.701111 1060.207642 -438.796631
-630.329956 777.613708 -1024.569214
-446.692230 1046.381470 -267.469055
-819.311646 822.120239 -901.135437
-456.953552 707.018677 -628.574036
-477.694122 759.808716 -565.007568
-363.666992 1004.861816 -573.984131
-564.994324 954.562744 -1029.067871
-399.031647 1046.865112 -182.259918
-438.567810 1147.610718 -985.544067
-299.008331 1044.897949 -196.014954
-581.837097 1058.894409 -986.427307
-315.544403 942.625977 -591.405090
-547.747253 957.694458 -1045.394165
-597.687378 786.935974 -496.001068
-319.159180 793.284668 -652.975037
-645.079224 941.601990 -967.838562
-314.674866 1053.182495 -168.175812
-552.105591 1022.122742 -1023.625122
-499.247040 1076.882935 -1023.999329
-514.895325 820.100403 -523.015808
-574.475952 953.192383 -437.898193
-540.799683 816.737427 -529.578125
-510.671661 855.133423 -1072.835205
-807.587769 946.597595 -878.199219
-726.562927 786.945129 -978.881958
-470.852112 793.313538 -542.279846
-217.955933 1071.278687 -314.113495
-738.334167 910.804993 -953.464233
-932.468079 888.833740 -797.906494
-415.607147 1128.169800 -1043.131226
-274.788391 1018.871887 -609.729004
-460.954559 1032.244873 -187.045242
-593.140198 1066.377563 -942.074463
-593.647278 794.937866 -1027.562622
-765.400330 899.415833 -927.400879
-622.264465 924.935059 -451.640564
-269.797791 897.346008 -668.089844
-482.708191 1049.920044 -339.845123
-524.609192 879.392761 -1089.220947
-561.360413 906.908142 -1045.540527
-689.037842 776.111328 -1003.867676
-420.155884 864.083374 -565.527832
-400.904175 836.593323 -610.032471
-450.817200 744.601563 -590.570740
-322.832367 1048.333252 -217.782639
-451.297821 1038.633179 -213.455261
-389.716431 1103.283936 -507.286407
-498.431213 717.655273 -612.134827
-418.495819 1052.975586 -376.282288
-743.946899 899.270813 -938.120850
-823.542969 1001.201233 -850.069397
-395.757355 1035.527100 -143.580719
-279.158112 928.146057 -643.664856
-422.782379 951.415344 -526.838318
-352.393799 753.503479 -705.756653
-689.917664 922.126404 -915.370667
-236.525909 1070.085449 -260.518951
-390.936005 1031.935913 -145.246445
-699.476929 861.469971 -970.782837
-572.122131 1445.917358 -842.099304
-700.781494 925.100464 -950.437683
-709.654236 841.628540 -956.427368
-336.053040 768.532349 -671.169495
-391.666840 1034.825317 -181.080460
-423.924316 1066.060303 -1069.892212
-307.611786 1065.823364 -229.710922
-667.165527 755.736206 -1025.322266
-349.332703 1087.490845 -398.481476
-328.947540 798.007446 -658.342163
-218.110489 1074.055298 -300.254761
-220.385773 1074.087036 -285.335236
-804.151489 868.854004 -935.451294
-314.279388 1104.685181 -449.249603
-588.278809 854.034424 -983.864929
-571.031128 1022.029724 -1004.466736
-799.464050 1213.824585 -832.985901
-629.909424 1198.198853 -885.846375
-353.818085 1049.926147 -121.825699
-419.433868 1065.255737 -509.713593
-819.078979 970.708313 -887.347412
-416.773895 1078.202393 -367.061188
-295.532715 1080.790771 -368.184174
-404.957062 881.050903 -558.548035
-518.867310 1046.475952 -461.838593
-334.610260 841.036438 -610.387512
-560.063416 932.245789 -1049.909424
-275.831909 1056.337158 -201.992767
-401.904968 1090.892334 -1007.723938
-358.338409 746.638000 -681.059814
-507.898376 952.804871 -1059.517456
-628.110291 915.595764 -982.445496
-576.896484 902.664246 -1038.382935
-815.403015 876.981995 -901.802307
-605.525696 900.911926 -1008.465637
-558.927368 870.870422 -827.680420
-472.524170 985.569641 -1069.762939
-606.820129 895.532593 -987.754150
-149.822311 1078.257446 -317.883026
-474.678619 1037.511841 -193.921677
-674.367188 1069.679688 -836.535278
-724.018372 1012.001160 -707.348083
-480.836243 1025.196411 -233.611298
-595.233948 1161.576050 -868.021240
-439.125183 753.995117 -588.919983
-391.576904 871.711304 -579.653992
-287.156006 1089.836914 -371.752838
-397.927399 788.339050 -591.515564
-166.991272 1076.424805 -300.697449
-496.404297 1026.991089 -227.562408
-447.136444 1030.038452 -209.453949
-368.526855 734.189941 -658.189270
-701.276367 945.616821 -932.895264
-536.026184 807.531738 -522.975159
-411.573639 900.829529 -562.870667
-318.876282 822.596191 -643.973755
-496.900085 792.981140 -547.833069
-725.418579 878.839844 -973.370239
-611.007324 1261.495483 -843.032410
-784.879089 867.052917 -922.943237
-810.002014 877.931335 -907.364807
-505.557648 943.466919 -502.789520
-404.434204 899.224792 -572.371582
-535.824585 899.450073 -1041.101685
-559.268982 1261.401123 -940.788208
-371.051880 970.087036 -559.183289
-283.822845 1066.118164 -170.487473
-398.061310 1094.632324 -377.462372
-570.761047 1066.230957 -971.370544
-448.537476 1093.014038 -493.956604
-311.721527 776.582031 -679.608582
-575.598328 1007.784424 -419.019104
-340.577087 798.277344 -661.799683
-526.677185 727.800903 -581.005432
-452.415314 812.007263 -568.563171
-496.664001 1062.452393 -348.110870
-458.250244 826.638489 -577.501099
-426.300659 1045.035889 -188.686722
-591.692261 887.793152 -467.309540
-793.475281 1149.930054 -812.338684
-331.145233 757.908142 -676.247009
-474.580139 1056.151733 -292.396210
-579.138306 1427.940918 -862.742859
-621.851563 1014.932373 -987.532227
-441.927917 1056.206787 -282.025116
-367.043213 1054.253662 -211.073593
-260.317413 1065.167358 -244.322601
-770.182434 939.570129 -910.274475
-497.436646 855.252380 -530.244385
-224.142868 1071.763550 -219.951767
-473.064148 924.807312 -1100.566650
-783.949219 1150.803589 -816.753113
-591.992004 846.098572 -1007.477173
-332.404907 1036.927612 -110.536255
-253.155060 1053.933350 -130.816467
-511.672485 988.309387 -1055.184082
-496.204742 961.294006 -1078.401611
-472.950134 856.458130 -565.443237
-397.249512 865.752991 -563.646179
-280.344421 1052.373535 -162.072418
-512.560303 997.314514 -1059.839722
-431.944458 1041.777588 -261.844086
-551.726013 880.401306 -1063.469849
-291.670776 821.098938 -675.595459
-614.079834 1015.806641 -984.260559
-581.067444 865.541199 -924.874756
-557.980408 814.625916 -520.486389
-322.453766 1057.840576 -302.271027
-592.667236 1141.949585 -831.506409
-235.800797 1076.475708 -336.495392
-562.301636 829.936157 -1068.271240
-558.967285 724.082764 -565.178284
-422.675110 1000.232483 -1078.594849
-500.397430 717.165771 -567.961609
-467.344818 752.317078 -577.549744
-413.674835 1074.000244 -344.147156
-457.931519 999.153015 -506.426727
-498.313538 1062.894287 -472.551971
-483.478790 732.043030 -605.449585
-684.774414 949.516541 -926.597412
-581.964539 861.345459 -1016.453857
-311.970276 1056.839722 -208.016464
-509.930756 914.029846 -487.080261
-435.833923 882.900635 -550.958313
-780.248596 1037.589478 -790.550171
-628.023010 1017.297729 -865.768616
-709.865540 982.627686 -915.798340
-347.750549 891.166382 -598.642944
-772.260376 992.483154 -887.184570
-597.080444 865.402771 -496.698944
-626.636353 992.168640 -973.750671
-204.267319 1060.755981 -205.529419
-603.859802 778.557617 -1065.598511
-326.199249 1084.426758 -411.974121
-245.083755 1079.181885 -354.042664
-529.063293 885.237793 -486.052368
-812.296143 1160.939575 -797.337524
-329.536285 783.938538 -647.450012
-575.159790 912.641235 -1030.961670
-550.194702 1298.550415 -897.942749
-296.131104 1082.538940 -313.353210
-417.455292 727.672180 -641.354736
-726.926025 924.316833 -960.832886
-351.898041 756.522400 -696.345642
-548.809753 872.392700 -1045.469238
-273.796478 1052.605591 -206.240707
-385.617493 929.332458 -593.489136
-333.307953 882.928162 -610.486633
-510.069489 972.320374 -506.756317
-491.196594 940.414063 -1057.435303
-783.456482 871.146423 -903.052307
-556.075134 1306.685547 -874.345581
-394.199646 831.909424 -610.304565
-542.163635 762.573242 -530.218018
-235.774643 1083.876709 -440.499176
-464.659393 929.535706 -1075.762939
-444.733429 1044.576294 -286.593048
-432.461090 1037.089111 -219.873672
-562.724670 829.070923 -494.247101
-350.959961 1054.366211 -563.698242
-798.430359 829.406250 -927.708801
-348.310272 923.648010 -583.864441
-473.951721 712.872253 -585.009766
-292.581329 875.963135 -661.176025
-833.936462 908.385132 -876.354675
-597.472412 809.671814 -485.390808
-806.573303 976.047668 -784.924927
-319.914124 1076.449829 -384.542023
-275.109741 1048.314331 -207.585037
-788.352478 1008.909363 -861.094299
-348.471008 1010.157654 -561.633301
-310.625061 1022.097107 -595.374084
-292.439941 1073.824219 -334.993988
-744.462952 1027.966064 -859.670044
-304.475250 844.698425 -644.156433
-336.555237 818.158997 -631.690857
-522.337097 1045.271118 -302.402283
-262.826874 1056.513062 -188.732697
-390.913574 781.401672 -624.898071
-545.849731 1190.441284 -932.544739
-745.535034 839.736755 -957.286865
-426.138916 1025.774048 -521.852966
-541.510010 844.056946 -509.885345
-534.709229 765.074951 -560.678528
-412.047791 1053.099487 -1029.912598
-297.223541 1062.922852 -277.085144
-306.111755 844.373352 -630.131836
-386.247559 1083.951538 -1084.999878
-371.867920 1051.934692 -539.131897
-408.612579 1069.834717 -1062.255615
-377.336212 870.494080 -597.094177
-603.144653 810.151978 -1037.996460
-633.681763 820.644531 -993.855591
-531.846436 1089.507202 -919.741577
-583.155945 776.003601 -1069.790771
-736.173950 797.568420 -974.464844
-733.148804 971.668030 -823.040527
-384.063507 1037.669312 -114.021965
-429.006866 1071.716431 -336.618988
-566.828674 777.544312 -515.050476
-237.895721 1071.298340 -289.367371
-424.754700 880.240112 -558.278503
-380.645721 1075.176147 -357.055298
-777.123230 992.891602 -882.264709
-289.920685 813.975037 -682.107422
-769.605896 927.318054 -914.759277
-784.008301 1011.558777 -841.762390
-809.858398 1205.834839 -808.580872
-801.579346 841.226685 -916.045715
-350.524078 983.873047 -572.518982
-779.044983 984.483459 -895.942932
-876.196777 1144.557983 -788.296143
-765.182434 792.393372 -956.143188
-458.889618 1038.529907 -209.738297
-450.012268 931.812500 -520.159058
-578.147705 844.895813 -500.951416
-579.015869 852.309326 -1029.264404
-566.339050 902.130981 -471.251556
-614.397949 1046.587036 -972.830017
-161.156296 1083.016235 -281.730377
-501.984436 739.454285 -562.144348
-230.256378 1062.360840 -264.351349
-287.582825 1083.131958 -315.513275
-583.444214 1070.780518 -948.148071
-719.101501 1136.937866 -786.700562
-748.345215 991.429260 -907.471924
-371.200623 949.441406 -570.140991
-282.887054 952.592773 -603.671509
-573.875000 742.828857 -520.611816
-389.262878 1050.388794 -205.170776
-560.532959 989.279419 -465.801910
-281.818481 862.709290 -644.893677
-623.233398 963.845276 -853.968323
-754.700806 790.064392 -949.951904
-575.586792 714.791199 -528.670105
-454.859039 1056.655273 -365.997009
-630.070923 1030.630615 -971.643982
-436.490051 1107.401733 -1018.325012
-512.416687 994.290588 -478.672791
-416.837158 1091.814453 -386.464447
-815.866150 829.858887 -911.121277
-427.249847 886.148865 -577.137024
-563.571289 1077.581787 -862.498840
-537.469788 726.000977 -555.022705
-453.167542 924.669983 -539.041565
-435.976044 771.788513 -571.565430
-887.360229 883.879089 -850.032471
-635.804016 1032.156616 -879.599121
-374.007874 1141.475098 -1063.069580
-426.054993 1084.939819 -1012.263489
-611.181885 859.414246 -1027.245728
-315.065277 1056.031128 -235.100479
-378.274811 1069.424438 -353.800323
-462.362213 727.328674 -604.633789
-367.701477 770.815369 -644.247498
-589.509583 1054.476929 -984.844116
-420.615570 1061.305908 -304.110321
-571.485229 811.715454 -1075.739258
-545.177490 1013.387451 -437.562836
-400.967896 1065.024414 -1029.125000
-344.648102 1063.208862 -220.518799
-555.048340 925.063049 -458.385315
-327.731262 862.716919 -606.991394
-294.543671 946.468323 -627.020203
-471.560638 855.247253 -536.618896
-407.367615 815.761414 -608.580505
-230.995682 1071.846313 -291.522278
-439.671539 1046.579102 -1045.317139
-565.903503 1009.792114 -457.366302
-741.988525 972.504517 -812.916992
-298.517944 808.676086 -663.397217
-190.560516 1078.740356 -230.219513
-807.849670 995.419067 -804.644165
-736.999695 784.724548 -977.676453
-254.105560 1055.378296 -207.498993
-798.741211 903.881042 -901.143616
-471.262390 1029.518799 -221.854965
-835.055542 906.749573 -860.112488
-479.416046 1039.793213 -1059.427002
-599.796021 1229.133179 -920.582703
-600.688416 728.599609 -510.238464
-499.122437 1060.793213 -1022.920837
-697.859131 855.102844 -995.003845
-322.469269 835.229187 -630.270569
-549.691406 1076.148438 -934.069458
-528.465637 872.167053 -1081.011841
-453.642883 753.557922 -596.624207
-542.270386 1248.511353 -940.215759
-567.018005 888.778320 -1051.613892
-192.962814 1072.768799 -261.414063
-402.355469 1037.455688 -514.925964
-508.074066 914.279175 -1087.610840
-582.121033 866.218201 -474.642792
-529.130432 882.228516 -1082.750244
-398.450195 896.308594 -554.253662
-731.513000 1035.516968 -880.404053
-459.524200 1029.709106 -1069.824707
-572.578918 949.226318 -466.148651
-387.554962 1041.063354 -184.148788
-571.876648 822.493713 -258.785492
-620.603760 1202.785522 -919.973938
-496.306610 1047.941406 -1045.425293
-214.118546 1077.500977 -323.784241
-370.956726 1074.264282 -551.904663
-271.407227 1067.057861 -285.441284
-262.628326 1082.295166 -388.217743
-348.053223 1040.271484 -124.688080
-671.220947 948.837585 -892.559509
-408.504700 1124.438477 -997.351807
-291.913849 835.223022 -648.101135
-829.044006 879.475586 -850.260620
-388.731873 754.038269 -655.279114
-626.073669 826.255859 -1007.753357
-361.600586 1110.312256 -536.849731
-373.819733 1099.215698 -443.727875
-308.950348 1050.013306 -198.178391
-232.146423 1069.181885 -273.479523
-573.143005 867.673767 -1048.795898
-304.721008 1096.208496 -427.871277
-471.824188 1067.388306 -1044.267334
-492.545013 1050.270874 -309.903107
-527.187988 1083.113159 -962.199951
-759.159424 1008.318176 -906.617798
-310.963196 798.518311 -661.177856
-575.952087 1444.686768 -840.811340
-567.832092 714.384338 -583.957031
-540.313293 1045.874268 -314.474152
-535.059692 1059.152100 -916.784241
-808.658447 821.600647 -921.572083
-307.153992 1050.109497 -176.470230
-318.700134 817.751343 -640.469238
-190.804031 1063.644775 -199.497162
-455.601196 791.237183 -573.287292
-494.442230 1088.453613 -997.758118
-573.971497 770.500671 -298.344269
-551.656372 893.522888 -1067.704346
-433.813446 802.736938 -602.507751
-346.792084 1057.801392 -311.141632
-512.394531 992.508606 -1047.050781
-287.599457 1077.268433 -377.361176
-338.833466 1059.142212 -152.441711
-366.918427 852.705078 -590.469360
-286.754669 1095.036987 -448.391022
-760.685059 965.812134 -893.584473
-607.014587 1032.982422 -997.311096
-341.594238 1044.480591 -122.293907
-562.903503 961.534668 -1043.378540
-513.460815 891.086914 -1086.021240
-441.372894 908.068848 -530.908936
-411.841858 765.236694 -609.814697
-445.377747 747.162903 -592.089722
-683.363831 766.097168 -998.381775
-394.312378 1049.270508 -121.983734
-551.442017 961.380737 -1049.263550
-565.590698 988.142151 -1021.680420
-371.399658 1053.800659 -301.740753
-619.648987 873.670776 -968.700256
-451.283966 1031.808228 -201.186676
-303.746216 1070.370850 -319.813965
-615.694824 869.934509 -938.773743
-227.381287 1080.608154 -350.942383
-515.796936 1094.062256 -1007.401672
-490.073578 928.940125 -525.090271
-741.313843 817.437317 -964.817627
-270.350616 1058.631592 -279.503021
-463.570129 1027.295654 -156.917892
-608.111938 973.789795 -436.516144
-438.177338 1029.481689 -182.867142
-540.319397 1012.119019 -457.968750
-547.909912 1300.651367 -888.264954
-534.654114 971.096741 -1040.381348
-590.396606 1003.212158 -444.059601
-315.160156 1051.376831 -578.368469
-524.158813 852.419678 -1087.953613
-645.877136 800.633606 -1014.944092
-569.620544 857.814880 -1034.633057
-557.037781 1054.613403 -988.930847
-602.035217 1003.713257 -993.441284
-596.984314 903.365662 -824.883667
-471.360168 1042.241089 -283.018982
-481.126892 1033.437500 -1049.492310
-558.269165 1029.036743 -1021.169556
-445.327759 1028.365601 -185.204895
-596.267456 877.798828 -1028.707764
-585.189392 826.812927 -1040.014771
-391.626984 1072.457153 -378.517548
-383.796967 747.319580 -714.864624
-387.322723 1089.262085 -1047.401978
-500.188690 824.520081 -548.510193
-362.966736 968.033569 -582.850525
-551.904480 1050.820679 -994.762878
-522.932617 1043.235474 -269.396637
-653.313110 804.039856 -1016.241516
-347.480774 762.689331 -683.558960
-376.547394 1066.624268 -532.192383
-313.596527 802.588684 -653.905457
-435.481201 1077.710693 -1009.754028
-519.981689 754.507385 -564.050415
-865.576355 1178.941162 -816.647217
-456.101898 732.142639 -586.722229
-561.638611 1043.858521 -981.999451
-615.715576 786.293518 -478.739349
-229.686935 1067.195068 -319.382416
-535.426575 1459.350098 -860.185974
-484.785278 1000.041443 -1059.400391
-317.447845 776.513428 -673.219482
-608.867065 1431.734985 -823.577515
-282.774750 1070.393921 -315.729462
-484.383392 702.516479 -622.287659
-583.813354 807.261292 -1068.961670
-496.694366 1085.700439 -1035.017578
-358.206787 865.075134 -602.421875
-331.218018 767.478149 -705.482300
-750.353577 926.089417 -941.805908
-515.959167 722.018555 -573.243164
-187.508484 1068.527100 -269.500092
-576.194031 767.080505 -507.783203
-922.506775 967.007202 -795.517639
-355.293030 864.856995 -617.378845
-441.492828 1018.690125 -1074.277954
-225.012726 944.783020 -608.663086
-545.689758 1348.003662 -889.431580
-785.928345 843.621521 -948.186035
-781.253540 1189.433838 -849.237732
-456.655243 942.240295 -552.331177
-401.231934 1073.437012 -413.060364
-496.177032 867.579346 -525.348694
-629.791748 1037.432251 -928.585144
-481.520142 721.612732 -573.048401
-652.919434 1063.884888 -863.614624
-558.536926 1140.658691 -902.886230
-523.128723 1490.776367 -856.012085
-817.579712 995.751038 -834.841492
-347.731659 753.367554 -655.120972
-586.430725 976.131775 -1013.589172
-281.579132 858.824951 -675.630920
-606.064819 1053.805664 -985.495483
-651.307434 797.009766 -1017.663879
-505.129272 755.530701 -576.804688
-107.618240 915.673950 -475.036835
-717.027466 853.206726 -978.302063
-277.664063 1089.727539 -372.135284
-446.227966 1102.382813 -489.259003
-599.070679 991.133972 -812.513428
-352.191742 1041.621216 -132.178162
-505.659668 1011.284851 -1044.624146
-637.870789 974.756409 -965.882019
-537.647339 737.227051 -545.121155
-325.529480 837.544189 -621.642639
-197.905991 1063.954224 -237.258530
-338.209259 954.004639 -591.221008
-349.128357 908.462463 -588.298157
-369.482971 1037.732178 -150.115829
-320.877991 768.863037 -686.310242
-283.944244 826.486267 -679.906311
-567.102539 931.603394 -472.860596
-627.469177 969.098206 -433.330048
-902.736328 913.079590 -817.679993
-360.875427 1035.736206 -163.992706
-455.891724 1056.506470 -1045.887085
-465.427124 816.039856 -538.359741
-307.875702 949.033936 -605.416443
-541.339111 883.885315 -1050.362793
-732.873840 1043.074097 -879.993774
-533.032532 747.203247 -562.069214
-362.379486 732.494019 -684.033936
-463.827393 852.092957 -529.227173
-595.502869 1041.243042 -987.005066
-362.747498 807.728455 -608.869995
-342.387054 1076.896606 -334.492737
-443.417725 1052.004028 -249.652695
-590.310486 1048.038330 -958.546265
-729.039917 1002.008667 -906.961731
-325.357025 993.827759 -587.627563
-249.702179 1117.055664 -465.974060
-837.354614 897.420898 -891.623596
-662.496887 1031.282104 -829.867615
-843.061035 862.860168 -890.843994
-522.822510 1047.447144 -933.503601
-769.937866 817.494446 -948.900085
-319.192871 1091.577148 -392.731873
-560.815735 1210.614502 -915.262634
-701.461426 858.307983 -969.977783
-509.989410 890.097168 -1061.912231
-529.735107 972.620605 -1050.119385
-272.891785 1106.881470 -438.883545
-498.490448 1057.258423 -332.307648
-162.375458 1085.536621 -320.343597
-305.579620 887.896301 -641.442688
-731.994080 1054.897949 -838.912720
-219.944550 1075.344849 -288.105072
-571.865540 880.370728 -1027.299561
-445.908508 830.332336 -558.398804
-595.331726 1269.613159 -910.167725
-525.906128 794.280640 -529.203125
-502.438995 765.944824 -556.256531
-375.156067 742.142578 -645.042969
-404.567535 883.059998 -590.135254
-572.583801 930.151428 -468.870331
-770.912292 907.759766 -921.503601
-544.043335 962.162415 -1037.356445
-648.815002 989.027344 -948.058044
-411.031189 1067.770142 -531.106262
-362.613068 1039.667725 -204.630280
-493.033539 1100.538818 -1026.656250
-258.296997 867.110779 -664.322937
-651.390381 858.538574 -973.445801
-417.980774 1071.408325 -398.782776
-590.625793 1098.326416 -854.871460
-498.635712 884.177795 -1086.696533
-408.264160 1163.431885 -1039.180176
-779.314880 956.969421 -911.497192
-825.723572 872.427979 -876.025818
-658.426208 816.249878 -987.764160
-331.122467 1080.359375 -410.438354
-388.518341 1063.224731 -307.457581
-429.634735 1055.801147 -1010.936096
-438.692383 741.699829 -627.694153
-428.072815 908.622620 -547.994629
-520.382324 967.719238 -491.233643
-423.263916 1033.398071 -165.689133
-511.339569 722.546692 -583.880554
-171.873749 1093.972778 -257.889832
-275.503601 1070.915161 -263.295929
-667.029785 967.964661 -935.355957
-594.039856 1137.985229 -872.539429
-329.546356 871.265320 -616.271851
-297.733185 1095.645752 -417.548859
-238.416351 1093.238403 -447.404938
-404.705414 922.656494 -544.064331
-422.577484 1066.577148 -313.991089
-467.863281 1061.644775 -344.206696
-286.600525 1081.074219 -397.770752
-565.852600 865.582031 -1050.085815
-541.401794 959.955750 -1057.046997
-485.497284 1034.895874 -490.032837
-605.708435 1202.411377 -873.921448
-529.462463 1116.190674 -953.405579
-449.633209 819.900452 -561.790039
-904.914185 924.769348 -830.882446
-599.285400 753.528137 -373.300995
-243.298859 1068.614258 -274.085297
-456.468048 721.576294 -640.513306
-583.168762 764.032959 -504.527496
-790.296021 898.245483 -911.635925
-226.179352 1071.160645 -234.478363
-362.189697 775.540955 -620.565613
-484.347595 1024.509521 -209.855682
-612.416870 928.102356 -1018.021118
-338.086182 829.197998 -626.206787
-601.959045 1484.597290 -852.355713
-781.288879 1004.687012 -858.467102
-295.023926 922.510193 -635.838013
-431.728119 1046.137329 -1039.627075
-544.325378 957.230286 -456.261963
-556.559509 879.485779 -1053.645020
-330.548035 1086.059326 -364.698853
-602.065002 952.971436 -458.393707
-412.099731 1144.137451 -1035.032227
-596.235596 794.865295 -1023.413696
-487.801575 874.318970 -1079.357666
-467.321381 982.338867 -1060.299194
-499.417328 1041.692505 -1016.562195
-614.667175 974.073914 -999.598755
-400.944580 1061.187988 -289.462921
-571.622009 1215.615112 -944.146179
-731.464783 1072.131104 -836.805054
-473.618774 713.790588 -612.605957
-389.049774 730.200500 -647.121338
-482.572937 1065.937500 -342.674652
-514.804382 1078.553833 -973.479065
-457.542419 979.544373 -522.986023
-783.253113 990.671936 -877.135864
-492.634705 1017.383179 -1063.391602
-275.618225 1081.582275 -367.875793
-604.463501 1054.303345 -985.020020
-263.849091 1063.593506 -249.813080
-921.000916 948.612793 -811.908081
-474.925690 1035.007935 -246.746796
-812.024292 854.068909 -929.456421
-468.506989 1067.994141 -1018.242249
-279.051117 1090.706543 -379.390930
-362.918213 829.057312 -628.692078
-260.941406 1069.653931 -235.483307
-399.104645 1054.192017 -250.870148
-530.888245 1362.825562 -888.667236
-350.242432 878.565979 -589.316162
-363.671509 764.485413 -649.852173
-795.803711 1145.459351 -818.216003
-531.024658 1091.524414 -977.309326
-859.779297 1058.171875 -800.130798
-438.026703 1009.019897 -1064.490234
-310.877869 1047.705322 -219.941803
-255.389282 1059.902954 -213.289948
-315.454468 1094.872559 -414.426666
-242.023026 1103.044556 -418.048706
-550.651184 829.524536 -1069.951660
-801.045898 803.192078 -912.151611
-425.988434 1059.557617 -525.535828
-418.709625 1006.142395 -518.066650
-618.234619 823.528259 -1014.093384
-540.386169 1050.907837 -326.935120
-417.417480 1087.203369 -1057.532593
-183.101501 1079.857544 -262.978516
-537.744629 929.060730 -1048.502563
-845.180847 919.627502 -847.313538
-552.151855 959.575928 -1032.665771
-655.190979 1014.943176 -846.745117
-343.274536 758.266541 -705.747192
-372.070709 1139.251587 -1074.101929
-530.014954 1067.742188 -988.592957
-582.142578 989.848816 -451.838745
-562.934509 968.876282 -1006.724915
-394.858429 853.798157 -568.618408
-358.665314 754.973206 -683.181580
-599.760925 1084.035156 -952.814331
-827.079956 872.565857 -897.738770
-215.503799 1081.432983 -179.672607
-315.046692 1077.978760 -396.383423
-463.297729 1055.078247 -295.643860
-696.257751 927.714111 -928.017578
-594.574585 1093.079468 -868.582275
-702.192993 788.860291 -1007.686646
-421.519135 743.122742 -639.078003
-558.624451 981.017212 -774.470459
-579.185974 1041.568970 -985.200073
-569.729431 1069.672241 -984.078003
-665.236816 763.192261 -1027.766479
-169.549469 1089.212402 -311.069214
-550.243286 725.369324 -551.019592
-512.698914 1021.640381 -224.936722
-609.827209 1103.347290 -957.749573
-618.519104 1002.176758 -949.536011
-370.399963 898.915283 -597.915405
-429.941406 724.795837 -639.453735
-605.474915 893.595032 -982.026367
-909.588379 1043.202148 -795.161499
-481.138153 924.526733 -510.950195
-172.205261 1085.406494 -236.419266
-460.809723 711.446960 -622.533752
-623.633667 1106.624146 -938.374329
-588.738342 1111.713745 -854.692322
-446.577454 760.190613 -586.839417
-537.743103 1172.281738 -921.640015
-816.153625 1093.557495 -812.005920
-423.359039 1025.511963 -185.657562
-549.061462 1074.085693 -952.695129
-456.081665 1041.278320 -1039.285522
-516.381714 1024.609375 -484.508636
-635.249939 965.309570 -983.905762
-345.250275 834.428528 -617.491028
-563.033508 769.082825 -522.350525
-333.675812 1062.650391 -207.497009
-912.764343 948.804626 -817.959534
-848.051880 1125.423584 -789.958923
-805.194824 948.505859 -795.820007
-354.335907 1070.003906 -288.911987
-391.551910 1072.557007 -1081.219849
-793.948120 1071.773682 -827.807800
-703.307556 1079.987793 -825.588867
-564.027832 761.009155 -533.358582
-584.420654 948.628784 -1035.308716
-679.822205 1147.940796 -798.610535
-229.208542 1115.867798 -436.738403
-266.407257 1067.043823 -293.912689
-551.411316 890.208130 -1063.286621
-833.365967 1225.619019 -810.908081
-473.409088 857.332947 -542.810608
-679.651917 918.099915 -929.468140
-716.952698 904.409180 -970.691772
-399.132874 1035.521484 -195.583282
-315.864868 1090.204956 -439.886993
-586.746643 852.762085 -899.235168
-832.626526 892.132629 -888.316589
-342.876434 1086.202759 -372.030884
-395.228485 746.295288 -621.260986
-320.435333 810.369080 -652.798401
-794.880920 970.454895 -876.786133
-234.644302 1065.287476 -243.188675
-572.639954 1435.794922 -864.472107
-522.107483 809.660034 -525.453796
-410.503632 1117.243164 -1063.632080
-469.961548 906.167358 -519.287231
-855.778442 902.236267 -866.782043
-505.190979 1037.959839 -282.168762
-292.014069 915.912170 -632.816223
-496.158905 909.287354 -1087.768311
-608.621216 992.265503 -992.162476
-219.823837 1086.513184 -410.257874
-461.165039 955.218323 -546.864075
-122.142021 871.779480 -519.526367
-464.697601 948.752869 -546.472290
-592.873779 783.430481 -489.056091
-457.127655 1062.038330 -1045.084229
-245.339951 977.890686 -600.086792
-873.420959 1114.776001 -799.364807
-447.414368 703.051575 -626.530945
-512.645996 794.212891 -539.947327
-617.878540 1069.858154 -876.071533
-326.463074 1075.752319 -262.699310
-715.738342 879.789001 -959.108093
-337.021301 1065.308228 -234.794724
-322.590179 945.366760 -603.416077
-476.570923 775.526367 -560.474182
-546.474854 943.719055 -1041.841797
-440.620880 1072.296875 -343.663208
-385.799683 1109.416626 -1081.946167
-558.796265 841.921021 -1062.234497
-558.955811 931.277710 -490.964722
-592.835815 951.351929 -1012.731506
-585.412048 988.669861 -436.790161
-601.497253 1091.259399 -970.617432
-830.881042 1144.568481 -794.088074
-400.137878 768.098206 -611.660828
-611.274902 853.610474 -1011.407471
-506.624390 1303.526367 -899.306763
-759.809021 891.018555 -933.182617
-481.292694 1056.202515 -1047.077637
-625.186096 876.362488 -896.875671
-488.322754 1050.180054 -308.970032
-618.523804 846.007019 -1011.249817
-754.777710 911.524475 -909.423218
-163.013275 875.893677 -512.434692
-593.139954 717.973145 -522.331116
-277.960480 1088.796997 -387.343323
-400.744080 1048.557251 -227.498886
-485.817688 925.338684 -1061.494263
-530.241699 1037.614380 -284.244965
-188.790710 1073.121582 -247.829865
-718.668152 956.471497 -920.571716
-249.406815 1083.187012 -374.481232
-718.667786 889.087891 -958.717224
-170.427734 1090.629150 -230.965393
-473.614258 741.637390 -592.310974
-412.413300 1044.903076 -1074.720093
-291.259979 1051.574219 -237.198349
-484.158813 1008.482361 -1057.593140
-772.713501 882.242371 -923.669128
-693.195374 761.117615 -1012.641052
-360.969604 1074.173218 -388.453094
-304.148071 943.538696 -609.082275
-408.086456 842.466492 -567.368774
-448.360077 983.997498 -519.770691
-187.995773 1080.332520 -245.275482
-822.399414 892.802673 -892.799866
-424.967102 1118.986328 -1016.071716
-576.936340 761.551147 -499.226654
-164.362427 1075.721069 -252.614990
-481.825989 1043.121582 -485.717621
-602.026001 878.308228 -1024.092407
-425.327393 1071.112793 -533.572388
-586.395813 1049.000854 -441.345184
-604.768372 1050.119507 -907.957642
-454.124695 945.721619 -1078.232300
-214.383728 1080.597900 -344.572266
-696.457397 1009.912598 -947.064453
-304.826416 1066.916870 -234.994324
-361.378601 815.159424 -621.924927
-543.911621 980.295532 -1015.417358
-689.583740 924.555420 -960.393921
-325.870789 1055.084717 -244.165756
-441.075012 1015.855774 -1079.398682
-420.599670 1029.230225 -140.409256
-569.733521 910.625427 -472.232208
-687.514099 864.138672 -973.954773
-367.355927 1090.782471 -421.366150
-287.943085 1013.043030 -591.249084
-571.160522 966.162109 -488.372314
-901.667542 914.160950 -839.935364
-209.023285 1077.791992 -334.784821
-563.135254 1017.663269 -423.255951
-465.216583 1187.624634 -986.944519
-431.236023 1099.498291 -1026.679932
-334.423706 940.127991 -578.950867
-288.778595 1083.530518 -389.198883
-232.971008 1065.757324 -302.342041
-571.420837 1056.526733 -994.623962
-416.945526 1034.251099 -177.397949
-538.893982 875.231567 -1067.124512
-642.361572 927.653076 -962.554260
-582.896790 859.808716 -897.856812
-513.004578 1052.290649 -1028.269287
-500.773621 1081.413086 -961.095642
-304.709778 1087.101074 -407.939178
-518.791199 695.218628 -593.632996
-347.596558 847.128418 -611.525146
-433.138855 1061.556641 -1056.341675
-597.695190 893.962158 -465.360962
-208.233749 1085.704224 -220.233322
-329.799805 1073.304077 -244.687683
-830.313660 1076.432983 -820.826904
-772.471069 1011.827271 -874.824890
-227.935120 1074.426758 -286.727417
-426.642395 1050.608765 -237.054306
-322.338348 1061.172241 -322.706207
-516.332031 956.555054 -507.328461
-421.395081 856.286560 -573.932617
-437.337921 1040.162598 -225.073822
-700.797913 863.299011 -951.957153
-345.929535 1045.173706 -563.276917
-459.328308 930.498596 -524.735779
-770.457153 1023.418213 -844.856934
-448.015747 985.298889 -1065.831421
-531.340393 1276.181763 -935.547180
-486.584503 794.234680 -565.934570
