ply
format ascii 1.0
element vertex 1378
property float x
property float y
property float z
end_header
-1335.469482 858.702393 -70.868271
-1389.611572 446.101379 -217.522598
-1294.180176 536.943542 -329.771332
-809.250854 561.413269 498.636230
-1304.893555 590.259216 -238.219177
-1020.184082 665.506775 176.764923
-1435.813843 490.653717 -110.238640
-1373.042603 681.050720 -167.342834
-1269.299072 544.786316 -347.457428
-1279.911621 861.616272 -148.227600
-1343.506958 747.021423 -106.299004
-1311.230347 549.042969 -307.526825
-884.662292 480.572968 490.655029
-1272.114624 818.919128 -246.750504
-1305.108398 757.072388 -239.400558
-1289.897705 819.433716 -115.589272
-964.650879 598.745239 385.979950
-961.560242 450.302032 -10.546529
-1398.117798 628.795288 -114.533714
-945.802002 590.960266 402.737335
-1312.999023 711.794434 -232.692703
-997.438477 483.335724 404.857971
-915.825317 580.364014 -88.550354
-959.482239 640.739563 349.613007
-1329.210693 830.101685 -149.631653
-1254.672485 600.097290 -129.244598
-1474.777100 916.307739 181.797729
-1017.089233 461.105682 76.634705
-1362.664917 673.630493 -138.230362
-887.164246 750.247131 308.116608
-1314.176636 803.417969 -121.700569
-1270.755371 892.938416 -211.005234
-1369.742554 538.530090 -257.005981
-1374.320801 586.599487 -206.323563
-958.505676 446.595245 -13.595396
-1023.397278 318.389832 9.030316
-1011.113037 557.480835 374.538483
-764.111816 690.430298 479.987701
-874.188477 686.976013 364.598572
-1329.341797 751.848633 -156.050797
-949.136230 448.468750 -50.600395
-1279.527954 611.875916 -296.070587
-935.400024 543.909729 411.404144
-915.392029 651.846069 16.186913
-823.423584 591.297607 480.569885
-1304.022583 681.995178 -241.617157
-1289.553101 813.445313 -249.600449
-1071.173950 556.180847 263.000031
-899.278687 548.470764 -57.133495
-1447.994629 446.315247 -103.111046
-1321.288086 791.128357 -147.239349
-1074.329956 468.243958 198.573883
-1294.898193 838.716736 -193.317169
-1359.904663 741.369385 -162.412338
-1049.211548 492.428741 175.867416
-909.944153 453.129791 498.130737
-932.317200 514.481323 454.618958
-1329.750610 534.197510 -255.812317
-1421.477661 588.364380 -99.379280
-907.297913 616.462280 380.364868
-1431.989502 869.378662 164.274399
-1315.815430 603.735840 -248.211746
-1315.594849 526.418579 -303.706635
-1265.249634 713.697388 -324.349365
-1299.643311 777.465210 -224.264694
-824.336121 704.013733 385.055176
-1078.119751 524.276794 202.253876
-903.040100 653.818359 -43.453041
-1503.319702 937.991211 199.898071
-1364.494019 535.136292 -267.301758
-910.694580 548.186462 460.003174
-1372.495605 491.582794 -226.991074
-1308.980225 679.706360 -270.381409
-1340.870605 596.772278 -204.784058
-1300.854492 530.181091 -328.265625
-1256.151489 539.406860 -372.101593
-1260.075195 801.619263 -276.751495
-1115.755737 412.665741 244.956131
-1435.522095 438.283722 -58.869801
-1315.727539 746.349548 -228.662567
-1271.038940 711.315735 -270.846344
-912.155334 583.887024 -80.635078
-1570.712158 578.221863 101.406563
-1414.655396 751.876465 -0.698500
-934.354248 556.563599 18.654510
-971.947205 613.721130 84.615746
-848.360352 658.333740 398.921814
-1358.144165 733.453003 -108.269577
-964.019775 529.178528 34.840237
-1425.778687 812.573242 -10.474829
-1395.003662 671.927979 -76.551910
-1425.377808 871.195862 30.977961
-1444.516846 422.358002 -128.133759
-767.431335 655.130798 465.904266
-1046.588623 564.654053 223.469849
-935.559021 530.848877 -85.111511
-857.219727 717.200745 361.785736
-1023.229187 518.471252 135.465164
-1283.789551 597.198608 -323.576843
-1363.547974 472.630280 -255.757492
-1288.848633 705.210510 -276.119293
-892.395996 597.995117 -46.443993
-1441.260376 470.270844 -166.938232
-1325.781494 720.834778 -232.476059
-939.504517 535.384094 22.027157
-945.039063 477.334290 444.890686
-1336.473999 870.667297 -44.920200
-1386.246338 698.882019 -81.136154
-1337.661011 586.573303 -245.016449
-1060.635010 638.189148 212.619339
-859.930908 580.775574 452.236847
-1005.025513 342.052582 22.163816
-919.343323 537.415527 -20.090147
-917.493225 559.738281 -24.487389
-1061.090820 665.327820 226.381897
-961.051208 539.667480 412.499420
-1111.881104 573.193542 260.212738
-1312.326782 571.981506 -279.434479
-1410.630493 568.287842 -138.312912
-928.089905 593.622620 406.511597
-1472.898682 403.982330 -38.176994
-935.250916 612.273804 378.778564
-917.305359 729.406311 324.806213
-921.582764 526.193115 -40.696144
-979.956055 420.650635 31.916006
-1466.173828 463.774841 -63.640301
-1338.792969 670.184509 -228.561951
-1480.113403 485.098816 -22.601627
-1301.273682 573.265747 -238.074402
-949.690613 441.902130 -35.483410
-956.892212 481.218262 452.318207
-786.438721 693.045410 426.313110
-960.883057 429.106079 -38.016956
-1080.818237 365.993225 169.418304
-1434.683228 540.022278 -96.063675
-763.366150 677.520264 479.002167
-1320.204346 607.798950 -5.586523
-864.563782 650.875671 394.608795
-1032.639648 361.559448 79.777550
-964.357666 604.555847 375.855774
-1327.740234 557.359619 -272.882874
-1026.458862 321.782013 66.779121
-1012.186523 614.372681 148.740631
-951.605469 546.307007 -104.417198
-1308.511475 824.138855 -188.898453
-1279.205933 823.138245 -238.520996
-975.853088 554.549561 89.303154
-1316.901611 801.350220 -85.578773
-1260.125732 586.655273 -155.349487
-1363.194580 537.553345 -249.037048
-1000.668762 557.621826 384.907013
-1294.249023 563.776306 -253.906830
-1264.258423 865.955872 -115.124046
-976.024658 428.493225 29.033388
-978.488953 548.936279 92.503464
-1114.432495 419.415222 238.062454
-1440.032959 940.388489 111.485649
-1378.374390 649.587402 -140.800247
-928.290771 568.126831 415.889557
-1314.072998 678.387146 -272.723663
-874.385986 622.945862 409.087555
-985.512085 424.111328 12.882327
-955.490417 433.551392 -23.259785
-1378.843140 585.598877 -40.263531
-871.557861 563.628235 453.348022
-1488.198364 970.777161 164.433914
-903.445801 615.266357 -87.411095
-1097.357666 405.991455 249.651093
-846.623779 639.365601 412.770966
-1444.459229 445.390137 -113.701889
-1271.274414 586.173706 -333.177307
-908.228943 629.070801 385.474121
-1408.712280 415.169952 -59.248322
-993.275940 348.196198 0.640136
-1280.540649 886.804443 -188.523972
-1314.154175 547.852722 -337.052826
-1368.119385 652.651550 -76.800407
-1456.412231 552.834045 -58.272766
-935.243225 511.503418 -92.171822
-869.776062 578.928223 453.437500
-1443.311890 547.316162 -61.825882
-1359.809937 715.211487 -143.300613
-884.769226 626.226624 -42.682201
-961.085083 445.654816 -69.464409
-1019.213989 307.627228 27.470621
-887.948425 469.970032 490.331177
-1520.802124 574.770691 64.923897
-1280.898071 605.045105 -315.331573
-1398.695068 725.829895 -25.480900
-1366.500488 782.412659 -21.164648
-1027.123657 514.349182 106.189041
-1380.307129 830.215759 17.676760
-998.029114 737.518677 192.910461
-1004.364136 419.346741 42.514252
-866.657288 644.678955 402.053986
-806.959229 710.818787 404.920898
-1361.255005 448.577423 -264.570984
-1365.677368 517.504028 -199.746887
-784.810425 649.967590 439.101990
-1486.309814 414.141571 -42.596081
-1367.822754 689.714172 -146.307083
-919.860474 586.116943 -82.920845
-1438.108276 520.941650 -102.323326
-954.021851 493.624329 20.415188
-1310.154053 474.453674 -331.165955
-928.527344 491.998596 -42.714680
-917.585571 494.595337 461.447449
-1004.724487 457.756897 428.000702
-1052.908569 666.209106 249.943771
-1363.521484 688.748291 -130.849228
-982.785461 563.560913 104.049126
-953.083557 514.800903 428.758362
-817.646118 699.151184 393.492828
-1385.641968 697.209717 -107.247108
-1408.403809 384.883118 -54.496193
-912.969238 635.435852 362.855377
-1303.764771 793.242554 -226.127716
-797.110779 717.850586 380.955017
-934.121216 570.743774 410.464722
-1418.342041 881.043884 131.270767
-1454.930420 779.925171 86.356758
-1012.783081 332.503784 11.758406
-1036.122925 508.573151 161.357239
-1463.333130 850.448486 214.661728
-973.233826 518.290771 404.297638
-1326.443359 761.788147 -213.618668
-1521.430542 572.039001 40.540245
-1342.602295 487.963837 -277.651093
-1362.227051 499.266602 -283.521210
-1073.603027 476.999146 197.926987
-1271.020630 826.214478 -141.062927
-921.586182 530.737610 -75.559242
-953.802185 553.796021 416.558105
-1006.960388 548.750122 151.972122
-1338.355103 672.677917 -240.196777
-896.830444 642.684448 5.178608
-1041.244263 345.099518 95.495796
-872.225220 465.088440 514.947632
-867.181396 656.802673 391.782715
-958.618408 621.604797 374.978271
-1218.162476 589.821350 -8.936860
-981.489319 381.321960 -37.242764
-897.941467 657.643066 -28.817234
-924.100647 507.667206 453.660492
-919.465332 482.749847 -47.356270
-945.942810 713.461304 126.795227
-900.521545 622.802551 -54.723934
-934.026184 586.394165 -7.869002
-988.544800 683.952881 321.075226
-1390.487671 874.206787 92.102676
-1347.163574 544.166260 -222.807114
-952.030029 580.777710 67.491814
-903.504456 532.120239 -77.453186
-874.316284 633.929199 394.893738
-950.324463 706.161987 104.119881
-956.149414 547.073547 410.779175
-1341.845093 674.165833 -160.311935
-837.002869 520.581726 528.895264
-842.744080 549.531006 488.872101
-1374.479004 520.773499 -217.798050
-1313.121704 634.321472 -8.153920
-1002.175964 557.881226 127.369865
-959.074097 509.686432 14.722983
-925.129761 628.508362 379.609894
-944.907776 495.425110 453.089966
-1334.665405 551.291260 -250.771408
-1416.391968 594.025696 -139.790634
-911.274475 521.619629 453.955841
-1273.165039 914.479919 -183.196976
-868.694031 713.889282 347.252808
-1289.464722 879.449951 -156.860474
-876.887085 445.381744 525.050720
-1295.415649 876.917847 -162.515549
-933.901306 580.503723 -10.735103
-966.091248 392.801086 -33.349400
-1043.734863 448.772858 406.546539
-1040.618164 630.375671 237.488678
-901.338684 622.649963 379.568573
-1318.405273 474.536926 -303.866058
-801.592468 645.855408 450.050232
-992.774231 566.922607 106.975655
-948.106934 437.966125 7.587037
-1294.706177 796.002808 -249.330154
-1062.230347 373.478607 160.632553
-1366.543091 504.143127 -234.343811
-944.272034 593.079285 396.708008
-1322.852783 760.647461 -83.579239
-921.021362 593.874390 401.598938
-992.612000 576.446899 377.780029
-952.962769 634.741821 336.876740
-1434.214966 511.949463 -75.800690
-1305.061890 687.777527 -272.900269
-929.190247 658.239990 35.170151
-1279.697388 874.512268 -226.880219
-1437.441284 556.770203 -92.001350
-1443.668335 435.770935 -142.882980
-1124.812622 452.364746 262.555695
-1273.427734 617.129456 -342.495087
-938.279724 668.151001 339.608459
-1306.555664 638.393494 -249.010574
-873.980957 645.664124 397.291046
-1266.678955 616.249817 -319.715363
-768.460693 667.210083 474.372070
-996.357300 517.147095 94.125778
-1369.240479 597.142334 -92.679253
-1267.302856 784.671326 -290.351746
-1262.702759 880.332947 -247.046066
-929.261963 504.391632 -50.700966
-1105.117065 576.819458 250.442093
-947.989868 451.474701 -65.514275
-1010.347168 359.691925 -15.652875
-953.769836 571.163208 48.518951
-1423.563721 450.711945 -163.722107
-1311.054321 550.027283 -291.138855
-898.888977 500.500122 470.267059
-1309.882446 712.274109 -257.890289
-922.318726 449.478119 483.496643
-812.944580 633.459839 452.634125
-1281.737671 605.286926 -298.408081
-1091.294312 453.607910 227.791641
-803.235168 588.056458 503.274872
-918.378540 636.263123 52.368584
-1001.995789 587.980042 110.592575
-893.795227 591.267822 -52.070057
-1432.119507 817.738220 54.592449
-1422.419678 677.351990 87.908249
-1359.882080 534.424194 -206.933212
-1435.851318 951.652283 124.578232
-1419.550537 498.926483 -182.892624
-1335.186646 790.310608 -162.870209
-1261.820801 606.044861 -337.744415
-1113.638306 552.594910 295.586243
-1489.224976 922.279724 207.977936
-831.465271 497.848602 527.928162
-1256.582642 617.339478 -369.885162
-1050.869507 354.765381 111.454521
-905.342163 558.036072 432.971313
-899.320801 634.598450 -56.943714
-1136.691406 519.439941 269.958344
-956.370911 505.359467 19.699108
-1324.166382 794.586060 -181.101837
-1437.559082 518.834534 -136.536728
-1001.572083 448.281097 425.679840
-1293.548218 572.042542 -323.346527
-858.669434 560.179810 454.471405
-890.586853 634.911194 389.922607
-951.097168 642.272400 86.859901
-885.327209 682.621521 360.648193
-1312.473389 603.730103 -206.872238
-1361.944580 466.546448 -227.275421
-925.047852 614.354431 7.788826
-1369.708374 859.616272 135.011642
-1017.628845 345.264313 49.637680
-777.556580 715.506531 397.167267
-839.568848 616.606873 431.517670
-1490.058716 564.866150 40.206955
-913.844910 743.409973 314.234344
-982.865723 455.710022 432.872467
-915.215332 699.047119 26.568851
-956.574097 413.606476 -32.866917
-921.537354 557.221375 -45.253201
-994.318665 371.314972 23.823030
-1336.715820 724.771545 -78.306808
-1046.112305 442.370697 144.244980
-920.062561 507.616730 460.566437
-1384.584473 600.389343 -157.950974
-1416.458008 598.060730 -72.429565
-1429.368896 421.657135 -123.899918
-1363.294800 672.884216 -126.177277
-935.010620 590.058960 397.452423
-909.117310 636.541260 -30.074038
-1449.530640 465.322296 -121.359673
-1283.881836 589.668335 -365.654114
-1372.733521 630.930237 -128.352356
-869.835693 705.503723 361.659760
-1263.040527 639.178223 -361.963287
-1292.222168 704.483765 -274.371552
-756.593994 687.246033 490.029114
-1115.197998 478.146271 277.961975
-984.947693 492.851593 429.372192
-868.217651 493.468536 510.424347
-1373.754028 728.919983 -144.900787
-1041.815674 477.446289 155.332535
-1412.810913 906.127747 71.526794
-987.640076 617.894409 348.253357
-1357.910889 781.696838 -58.363945
-969.073486 511.922974 84.360504
-982.116516 475.481842 83.782585
-908.922424 563.990051 -29.339407
-957.034485 674.522888 324.631317
-981.398376 490.764252 25.292578
-902.652954 625.058960 381.066193
-823.399597 683.163086 400.423126
-1375.755859 834.758728 138.644714
-1369.691040 627.659729 -41.959816
-971.892517 382.217041 -3.736264
-941.333496 476.750092 456.340637
-918.464294 524.547546 454.675476
-1374.646484 512.834900 -259.783417
-1049.348999 546.437134 363.252197
-1269.550293 890.696411 -108.252754
-1436.138550 513.274719 -113.709030
-1481.461426 458.220886 -29.945917
-985.809937 434.145142 39.618549
-1270.946533 600.610291 -272.815247
-888.881287 595.069946 428.215576
-1313.913330 759.121033 -178.754135
-1013.933594 473.280884 132.714264
-1011.357422 366.619873 -12.389846
-1446.706787 448.041382 -144.776154
-940.584595 580.713379 396.932190
-1251.688110 751.041077 -322.874512
-1474.864624 463.810120 -88.031448
-902.876953 567.044800 -49.205147
-1118.614258 542.829102 289.141632
-778.065857 591.218872 508.115662
-943.045166 572.630981 31.628300
-1309.445190 964.047180 -89.566673
-981.429504 575.598877 382.239258
-1063.724609 568.306396 261.822723
-1067.623779 482.661072 225.329132
-809.836426 533.052124 526.167236
-914.597473 752.872009 307.318726
-895.086548 752.846252 315.746521
-953.418579 690.678772 312.525421
-1327.862427 771.597534 -57.057949
-913.132507 534.199463 -47.067501
-1032.256836 482.785004 391.730743
-1355.868164 706.910461 -178.459961
-918.890686 629.761841 3.809546
-1262.673706 626.236572 -330.843658
-1270.349365 623.721191 -357.182648
-1455.156616 387.554230 -122.379837
-1346.291626 700.699341 -160.340729
-1270.741211 589.350891 -373.431976
-1422.678711 828.782776 15.203512
-1017.025269 561.275635 373.001465
-836.496948 477.788177 544.950317
-1345.990723 543.949768 -197.546799
-1022.928833 626.405762 168.519165
-1087.417114 419.979126 206.961960
-1263.923584 825.768127 -270.806702
-917.778442 615.623596 -26.386486
-1281.583496 603.585144 -343.768707
-1350.860352 675.694214 -188.350052
-943.794678 300.316223 337.987122
-918.232422 550.543457 -91.681557
-983.430908 571.159119 384.843140
-1083.684326 445.213806 237.486298
-1441.127563 534.299988 -63.526142
-1348.767700 702.730408 -177.527542
-782.290649 561.839844 529.517517
-964.975891 474.157104 -7.402950
-854.937561 563.553711 461.859070
-1438.510620 501.588470 -142.112976
-903.255615 557.795715 -72.245110
-936.085571 476.196411 470.949158
-881.142700 459.866608 505.901154
-1339.771973 694.596130 -230.384064
-1029.891602 394.395844 100.977905
-1423.911987 422.627930 -160.484360
-1284.153076 950.677734 -141.665955
-1267.131104 629.562195 -321.944214
-1332.529907 759.628723 -100.424210
-790.965881 573.486572 506.305756
-979.208191 492.398499 40.381298
-989.454285 484.247375 429.258209
-973.167847 494.265137 19.535519
-971.513428 480.383820 23.120937
-978.848999 721.228333 173.910355
-945.269226 650.226440 78.485817
-1291.589722 880.251099 -128.081436
-1273.600464 744.597839 -280.876373
-1382.472168 732.170471 -103.538223
-817.013062 704.489624 401.671478
-1038.881226 650.185547 246.902725
-762.253357 691.281921 469.739990
-942.683777 536.185730 -95.679314
-1386.345093 716.394653 -73.699043
-1283.750244 797.763489 -257.122803
-1458.885498 479.043365 -59.173141
-913.959045 664.222473 -2.287049
-1266.348877 618.729370 -352.962982
-946.807617 618.539124 56.112129
-1342.656250 842.517212 -116.217987
-1419.060059 397.626343 -112.905205
-1048.829224 369.680084 158.924408
-1286.502930 619.689575 -318.390259
-954.525696 482.079407 10.214324
-1025.353271 508.294006 374.495850
-1384.648682 751.264099 -98.431335
-1294.649780 872.917603 -154.897614
-894.447937 680.307129 361.878845
-946.686462 457.245300 -47.402618
-1374.028687 735.552612 -87.371803
-1435.171021 394.436890 -133.801544
-767.590454 645.010559 490.056396
-1393.975220 578.715088 -175.936005
-936.894348 459.117676 -9.308944
-940.126221 507.252899 -66.636826
-894.561707 552.672729 434.806824
-1256.404053 792.780579 -286.833496
-847.540588 604.320190 463.178436
-892.781677 705.560547 1.880230
-896.054810 620.759094 -30.635900
-1301.426880 696.050659 -275.353210
-1458.006592 478.910370 -17.722307
-1455.475220 422.419128 -122.782753
-906.453979 429.772186 503.784515
-1030.494873 495.694458 113.670296
-1291.134521 866.137695 -145.525284
-1369.765625 842.342102 98.074326
-786.104980 658.891418 430.414551
-840.686096 481.138062 542.452393
-1340.175415 749.778503 -94.713699
-1436.385254 468.659912 -128.559692
-834.374023 630.688232 418.619202
-1240.831665 785.767944 -291.618225
-1481.560791 372.226227 -76.215904
-1408.939087 876.625977 60.055996
-1294.733398 838.331238 -229.294144
-995.714172 525.186951 81.633659
-978.387146 519.580566 77.875465
-789.051270 598.524170 492.023346
-925.426514 542.762451 -9.921054
-978.984924 417.244293 -49.643780
-835.565430 534.937256 499.797211
-1416.970947 544.512390 -96.306534
-969.657837 684.286377 315.359283
-1264.743530 735.284363 -269.945313
-1334.921387 501.019501 -293.714294
-1036.905029 455.358795 144.896637
-949.366211 567.234131 71.259415
-1307.861572 590.561523 -313.697845
-1386.083618 714.571472 -101.929192
-1451.969849 436.112244 -100.402855
-1453.981689 401.241516 -61.980183
-900.624817 643.383362 -0.303379
-1383.065186 510.532959 -236.474838
-795.694641 592.362244 521.292664
-990.159485 588.253967 371.722839
-945.254272 468.303009 457.305542
-1018.909973 347.516663 79.213120
-963.984253 456.466187 7.217400
-928.219910 639.912842 363.165222
-1125.143066 460.540924 251.067490
-1290.750610 566.062134 -300.453613
-944.655823 467.053772 -51.594181
-809.208557 702.680847 398.772949
-1357.424316 510.360901 -287.170929
-891.210876 656.892944 366.024109
-1428.225098 888.791504 64.748314
-935.017151 474.028076 -46.181103
-977.352722 398.085663 -35.321774
-1286.133667 844.540283 -237.654327
-1040.545044 493.931458 116.837784
-920.922852 557.206848 -82.364853
-750.095154 620.651062 510.914001
-1332.853149 629.187012 -209.418213
-931.067871 490.106445 2.092038
-792.555664 513.484985 550.140747
-1271.238281 833.653015 -246.133713
-953.648193 732.242737 142.911377
-954.439026 511.197784 424.769775
-858.751099 550.473022 475.984985
-816.618225 647.383057 431.437683
-959.152344 643.930725 334.254364
-1416.191284 448.844727 -105.203049
-1381.410156 733.870911 -114.958031
-1337.022705 578.621033 -224.081161
-959.565491 583.580933 73.513176
-960.877319 665.268188 307.900421
-971.374756 380.228821 -10.055842
-1326.993042 498.138153 -302.216125
-1178.769165 621.823975 -43.974438
-1059.650269 377.184113 130.234863
-982.883728 362.951080 -2.243580
-968.734070 480.761841 16.913511
-900.853088 521.802429 -75.669090
-1408.700928 446.567322 -189.227188
-857.903015 621.422852 410.757019
-1125.234009 502.800903 281.159271
-1032.364990 567.786987 205.207794
-1438.387451 400.940186 -87.040405
-938.699097 542.089111 24.074665
-1384.419922 692.248535 -124.739029
-952.794189 659.769836 73.931862
-978.493042 525.230835 69.848915
-1278.680054 808.309204 -93.272064
-899.833435 674.116577 -0.837269
-1312.455811 505.762177 -298.190399
-968.156311 675.845642 129.339615
-992.157532 652.560120 136.202911
-1310.524658 939.696106 -106.938744
-1014.410217 393.882019 66.645882
-927.097107 668.968384 354.888763
-908.632813 675.267944 3.324321
-1456.223267 488.125122 -107.501678
-1037.416870 474.893341 146.125488
-1323.556274 732.547180 -79.481705
-896.556030 590.144775 -51.040539
-808.212769 642.329651 445.175690
-1050.143188 573.140076 183.866440
-1328.991089 744.906738 -62.627724
-984.827942 481.758423 72.459305
-986.672058 677.626404 158.581497
-1295.212158 782.010925 -232.422516
-1003.043823 437.416382 82.574959
-1345.772705 564.632080 -271.557770
-1297.493164 917.626770 -134.580658
-958.491211 442.089661 464.934509
-1019.216064 379.410492 68.637054
-1272.213989 921.478699 -170.268524
-779.697266 671.061035 431.535126
-834.435547 641.999573 425.941742
-1031.097534 631.644897 322.209076
-1427.623779 422.649170 -165.889114
-957.965393 556.017517 49.341923
-892.591370 650.010376 386.728210
-1502.529053 549.322021 27.824450
-1336.073975 461.299438 -273.088440
-1319.824707 594.514465 -168.333878
-908.193604 676.955383 -20.919214
-1023.450134 439.061401 67.608612
-1292.069946 742.825623 -253.568069
-1300.678589 826.752747 -154.058899
-909.340942 681.087463 352.686279
-1026.137451 518.333984 375.669891
-1028.600342 587.646301 189.693466
-1530.435425 470.113861 26.650167
-1439.265625 440.692719 -109.364227
-1281.875854 856.218628 -173.884338
-1346.480835 601.554199 -194.069504
-1356.197876 807.115784 -112.816963
-935.347290 692.405212 332.573639
-1377.155884 701.895447 -141.549408
-780.700745 721.081238 139.220856
-1352.618042 733.290222 -143.729385
-1072.524292 665.352539 260.527100
-1308.191772 570.892639 -245.233551
-1120.406006 472.550354 240.811554
-1081.236694 547.955322 231.644653
-984.984497 548.424438 378.265167
-1122.554199 464.574280 277.258698
-1378.353394 756.203918 -98.769737
-1023.253601 406.865845 71.830154
-995.632568 568.565063 112.896835
-912.157104 521.624573 -58.951420
-1360.488770 672.305786 -144.421600
-1043.419922 483.826202 148.576630
-954.703857 576.848755 69.714607
-949.034668 446.353790 -43.786793
-1418.112549 837.970825 -22.335390
-1028.187622 569.199402 193.973083
-1437.714233 406.873749 -157.285690
-971.858032 419.469513 -52.882381
-955.648193 435.905182 -35.677006
-1401.209229 801.151123 -16.763805
-1072.147461 551.205078 226.596878
-1416.392822 536.533997 -184.558716
-914.940186 746.017273 41.370872
-966.106812 394.272766 -49.348663
-834.574646 578.293579 482.986877
-1313.386475 887.438232 -65.859276
-885.881226 441.121155 519.562256
-1343.051758 669.400208 -233.129684
-921.242493 479.673431 461.193878
-999.921265 458.280487 59.203857
-899.995850 693.434570 342.131317
-1307.946777 702.226929 -268.519043
-1319.756226 768.156006 -210.040894
-1303.538086 917.124023 -73.735817
-1279.766479 877.482727 -210.170517
-1059.632813 571.149414 178.663025
-1364.956543 663.967896 -183.167618
-1012.564514 594.100464 165.385117
-1283.949829 739.648560 -243.475296
-1363.215698 538.452698 -221.605026
-1332.736694 789.836182 -158.616074
-904.312195 661.624207 -4.087964
-763.330505 668.373840 458.585754
-1515.932495 536.749756 37.795715
-831.960205 566.356628 495.346558
-1298.238281 631.783142 -299.735504
-959.140930 485.173950 51.037743
-1312.992798 783.765381 -225.330826
-1423.161865 498.155212 -110.717072
-985.376831 405.356720 21.034231
-1334.332764 692.964905 -33.480675
-889.393066 666.684265 367.740814
-1045.981323 545.257202 192.985352
-1264.721680 766.075684 -308.838867
-1451.520020 570.796387 -72.761475
-1303.042236 580.612976 -296.520142
-860.854675 681.438965 364.106384
-1414.787598 425.781555 -182.383301
-1270.121338 855.451599 -238.259995
-1358.266846 737.363098 -168.097321
-1010.828613 430.866150 110.380577
-948.790405 582.838318 375.730438
-764.739441 719.383484 154.054001
-1025.378052 330.566711 -9.201859
-1257.322144 905.583801 -157.642868
-1339.381592 630.151367 -200.671432
-1266.090088 762.441772 -308.725739
-1414.246216 546.636108 -135.824402
-1384.562622 578.566284 -162.626999
-1442.666626 421.289368 -129.349075
-1046.180908 391.012451 83.902466
-1318.827271 633.076721 -233.833603
-1422.520874 534.774902 -65.016953
-1281.293701 860.524109 -235.694229
-1410.768555 533.063354 -147.152267
-1004.373718 481.113068 429.180115
-847.383850 579.413940 469.050140
-974.300049 405.294342 -27.417442
-1066.917847 480.898438 164.429489
-1341.170532 522.049683 -307.463226
-1288.430786 685.084717 -267.348724
-802.853699 623.269287 449.026642
-1364.514160 678.909607 -160.364426
-936.270203 476.009399 -15.709652
-924.920593 598.702515 405.123016
-983.604370 626.057495 154.271515
-850.156921 723.949402 332.274933
-920.623047 498.087524 471.728943
-1066.420166 411.855255 169.308350
-902.764954 579.104248 -57.325020
-946.432861 563.770569 407.080536
-928.681335 492.872894 -60.333279
-1434.080444 837.112488 21.228910
-1433.676758 423.884277 -150.268463
-1029.060303 385.336884 92.758194
-1062.082886 391.226837 183.821335
-1341.285034 582.869690 -213.683868
-914.874573 509.613861 -30.890722
-960.120911 627.449097 65.076294
-949.641663 456.614594 -81.335777
-922.376465 641.970276 41.923859
-903.474609 678.374023 18.505579
-1003.607178 520.439758 399.073547
-1069.505615 620.919678 256.814117
-1357.974487 614.804138 -91.955971
-1325.087036 554.908936 -251.569626
-1303.591309 534.052368 -311.679382
-1373.985962 551.112000 -227.090210
-981.156494 614.847473 90.556625
-986.683899 425.616821 -66.514206
-1460.133911 973.755798 149.928329
-1066.899048 647.788391 271.620422
-800.244629 668.798950 429.925903
-926.538025 601.069519 19.827755
-900.987671 738.299622 72.025269
-1460.469971 461.267151 -87.199287
-1554.808350 516.052734 55.644222
-1415.485840 808.377014 126.202042
-890.347412 475.777954 496.604858
-1295.802490 467.836121 -346.480225
-819.177368 716.697632 376.888367
-1290.346069 856.602783 -187.295074
-1316.407471 824.898926 -184.318192
-1352.145752 738.136414 -175.420181
-1073.567871 647.979126 270.657623
-844.720642 660.565857 405.242523
-1324.074951 761.250427 -193.568512
-851.446411 662.316223 397.199768
-1321.717407 534.182678 -52.832558
-961.181946 626.404053 344.659515
-1379.881592 680.253174 -118.154434
-910.087402 641.044617 -51.459133
-1468.977417 598.109863 26.992937
-1369.742920 567.773010 -36.482014
-957.010559 586.239441 398.273987
-1325.552368 836.409363 -135.646011
-977.104431 566.023987 394.194275
-1274.540894 648.770874 -343.708862
-822.491089 562.707581 484.923492
-1060.430908 464.914337 205.683426
-1333.972412 488.619537 -289.952850
-890.236023 649.540344 -34.043720
-964.046387 693.489563 123.125580
-896.596924 604.367615 -25.050449
-1275.206909 690.632019 -280.313049
-1447.956177 546.166321 -56.692936
-1054.564331 498.829681 210.093491
-1417.366821 381.720032 -81.543098
-1316.228516 663.175415 -222.947540
-1461.505127 497.504669 -17.827677
-898.414795 561.635986 -42.510063
-1433.886719 486.242859 -155.120316
-822.555298 511.219086 527.693787
-948.914001 456.937378 -18.053917
-1363.681885 587.351868 -200.609665
-975.376648 509.077423 93.157578
-807.957764 599.891785 459.682587
-1476.050659 947.018738 126.871506
-1434.374756 527.762573 -95.865303
-969.952759 617.019226 129.650360
-964.144592 668.224243 325.732758
-982.377136 539.066895 116.417274
-1329.247192 671.299377 -174.249588
-1045.451172 562.349548 225.243698
-909.815002 730.062439 63.748405
-1333.504028 735.969543 -191.319214
-947.369263 511.421051 442.604736
-1260.046997 629.106934 -362.090607
-871.569458 516.797363 493.703644
-993.937927 516.423035 400.723236
-1395.179077 609.602417 -19.861080
-1369.462769 724.189148 -154.059357
-912.427490 659.967224 366.444794
-881.352295 464.020020 509.047302
-890.038208 734.924438 339.361359
-888.758362 635.044067 -76.351944
-1326.742188 675.876038 -17.054417
-1007.604431 668.219849 205.737717
-928.521118 660.480774 19.246668
-966.382751 397.235077 9.711113
-1494.509766 985.734131 220.698593
-880.281372 650.280273 389.495911
-823.781067 541.257141 527.802124
-1068.775269 432.141632 152.589386
-1278.355957 974.562317 -141.099121
-898.293579 594.577393 -38.727711
-795.847412 592.616089 483.468506
-1266.240479 512.797913 -366.767029
-1263.514282 586.450439 -116.050545
-1276.680420 851.799866 -103.218758
-1030.034058 453.860809 407.496155
-1269.429077 609.823730 -364.022064
-1032.541626 500.934326 157.095612
-1255.918335 870.552612 -236.772400
-1284.171143 861.466431 -97.232086
-1037.449097 299.229645 27.943117
-809.162354 579.633911 505.583862
-1375.242310 746.177002 -122.964592
-937.342712 474.523560 -22.638397
-1453.415039 435.931519 -62.580555
-907.421509 644.563538 364.900085
-1449.868164 438.506378 -35.963928
-1039.065552 355.259552 47.089272
-1292.339478 702.448181 -241.843536
-959.244629 544.141479 60.778282
-981.180725 374.600769 -14.461621
-1342.258545 750.584778 -163.175095
-1322.288208 772.514954 -191.257797
-965.838928 638.743042 357.269562
-899.827087 593.810791 414.241943
-1307.682251 847.052185 -168.429214
-968.838074 691.638367 132.742096
-1016.658691 404.491608 59.575684
-922.156372 498.557251 452.711853
-1277.223877 608.803101 -109.777611
-932.605103 548.005371 -13.428447
-881.227600 493.459167 506.248718
-1376.300781 789.125671 -34.487728
-968.655823 579.502686 386.158661
-964.988037 491.095398 32.745243
-901.841187 539.288147 -76.678726
-1096.458984 440.320068 227.827377
-1439.194336 795.383606 66.343513
-938.260437 586.217407 396.457733
-1479.008545 874.570374 196.336288
-939.708252 524.517273 428.242126
-1107.317749 677.032104 328.205078
-836.786743 593.537476 457.004272
-881.447571 740.138672 336.162384
-1531.078613 531.181885 58.578800
-838.998840 705.066650 370.713348
-987.695740 416.400177 44.818928
-1309.744507 806.315063 -186.675644
-805.329224 693.306335 396.695221
-784.391357 610.860840 478.233917
-1423.287720 840.653381 41.329338
-988.362427 469.218079 71.894623
-907.172852 605.499084 404.947083
-976.615234 556.068298 399.889465
-969.224121 640.124817 345.005920
-1454.353760 572.737122 -7.453598
-813.955017 661.528625 436.247498
-1283.426147 574.167236 -292.447845
-1266.473145 873.575195 -223.043213
-1294.868530 555.979248 -296.162292
-1438.500000 531.772949 -138.793839
-992.797852 489.502075 43.462612
-1385.336426 597.326294 -71.158424
-866.933655 675.864258 364.299652
-1282.637573 844.376160 -164.923416
-1326.451782 658.927673 -238.847366
-1037.640381 438.717102 133.942856
-1395.719849 590.023071 83.407433
-891.355103 623.484375 -66.370483
-1042.118164 312.890869 121.897797
-1351.857788 806.587769 -34.449284
-1066.133545 544.794250 192.989273
-1421.970581 506.157776 -107.740562
-920.493835 648.051941 -3.063094
-1413.373535 508.442474 -179.752884
-1253.721069 652.712708 -334.208282
-1059.005371 437.281769 167.872360
-1390.802002 849.531189 65.637627
-984.912231 531.762024 400.438873
-1268.333496 563.078247 -285.001648
-1397.156006 511.511658 -186.416901
-1307.106934 853.715698 -147.911850
-810.369324 628.679138 448.620056
-1000.858154 359.982788 -24.232599
-842.376465 709.158630 368.750214
-1065.245728 573.558899 205.637680
-1077.674927 483.166138 387.531342
-864.179688 524.929443 487.598633
-1057.009033 427.799957 154.136673
-951.260498 459.241394 11.955001
-1442.988403 464.855743 -99.018890
-1275.814331 570.750427 -357.568665
-1429.635620 645.879761 48.522556
-1266.978638 910.149170 -189.745773
-1003.006470 506.884094 75.304718
-1468.595459 361.476440 -102.669357
-1275.519775 657.584351 -334.022949
-1360.890503 695.762878 -128.372192
-909.925049 558.242004 -104.921051
-950.663391 531.981262 30.632509
-1015.062195 497.882843 385.247925
-1250.865845 867.171448 -199.154541
-1058.984375 622.388611 220.504013
-1308.918579 483.671875 -339.680176
-860.860474 475.159882 520.868103
-1269.388184 836.221008 -267.239685
-875.470520 696.408203 357.047272
-965.973389 707.316833 114.404228
-827.953491 513.067810 528.766968
-1350.127930 540.911804 -236.462433
-937.308228 632.825867 350.376434
-1020.744995 644.200317 167.515259
-1332.193359 591.153687 -231.522430
-886.050110 592.475891 431.128357
-814.655212 552.155884 494.982910
-925.222900 559.279297 -95.675018
-1276.089966 644.525513 -316.695831
-918.126770 535.168335 -43.974926
-1434.108887 604.365479 -66.995300
-1404.665527 472.583740 -185.960938
-902.778076 607.370789 6.603657
-1291.055054 735.378845 -269.995148
-840.175720 687.803833 388.922974
-925.066223 439.249329 522.685303
-823.953918 657.842651 418.438171
-805.394531 732.577637 376.393982
-1347.984619 851.088623 -42.272453
-1429.170044 412.112183 -169.543198
-897.490051 486.604950 499.034241
-967.816772 659.374084 316.187073
-986.027710 381.502991 -11.078250
-1035.273926 324.269196 -21.134949
-1291.298584 551.641113 -353.070343
-1311.800781 667.546631 -273.050507
-887.274475 647.784302 385.890717
-946.723389 453.301239 464.491150
-1392.818237 530.137085 -224.839966
-1014.863220 496.639374 399.508179
-1314.727417 808.037781 -143.477158
-1350.850586 681.102112 -206.615845
-1022.217712 558.927185 148.296478
-1014.017212 322.742096 -5.998981
-1335.745239 765.910278 -89.664223
-895.984680 593.535156 -95.058708
-914.130493 536.996399 -96.309547
-1380.905884 738.250366 -99.471817
-1027.739746 398.841431 96.722794
-936.117676 460.546692 -31.066940
-1022.878296 595.032837 146.468948
-1440.961426 414.900085 -155.094772
-1433.737793 502.301422 -41.845623
-1384.376831 741.235291 -28.910069
-1349.452515 727.647827 -170.338593
-861.605408 558.049133 474.595367
-1454.028564 439.817200 -35.840405
-893.303650 626.069092 -19.803768
-1280.052246 532.362671 -367.053223
-1028.302856 685.409485 197.267426
-1447.558228 473.967804 -137.608063
-1028.204712 486.287628 143.934525
-960.833679 449.574463 2.508468
-848.115295 719.280029 357.223602
-802.079346 636.331116 439.994995
-1026.694946 589.666992 165.931183
-976.539856 653.387329 328.611572
-1290.454468 735.446289 -275.249908
-1269.208374 628.391296 -341.319733
-897.790527 654.487915 -37.389004
-967.524048 455.513367 25.750364
-1304.225830 543.744080 -273.503174
-1292.184082 537.346069 -311.053284
-921.979004 505.890106 455.380951
-1292.398193 830.666565 -169.603271
-893.160706 524.099487 467.992859
-1295.010376 501.625397 -324.209473
-901.619812 640.180115 -57.408264
-1284.562622 638.985596 -329.708496
-1325.411499 591.122437 -185.917969
-834.713135 688.519104 390.104401
-1065.971436 348.670380 144.260757
-1464.990601 369.198914 -102.192169
-1295.833374 915.220337 -160.827698
-1375.112183 676.990295 -130.489685
-1048.806885 502.841797 201.459213
-1301.295288 683.028625 -263.157440
-908.517029 695.552124 -0.568754
-788.827026 634.526184 450.915558
-854.856812 550.187073 466.426147
-1296.587036 721.546631 -254.064606
-1436.347412 858.103455 76.800041
-910.680664 681.901306 338.753754
-967.252136 610.010498 366.181915
-1454.549316 551.037354 -19.215118
-987.632507 622.593628 144.550385
-977.183350 510.413727 406.759308
-805.405457 665.684875 412.999023
-970.620972 592.599915 95.882744
-1343.703613 824.959412 -115.759590
-1268.277710 573.217957 -362.602509
-846.530090 667.358093 410.213440
-922.271118 553.619629 15.542764
-1255.315674 662.993591 -319.563416
-1260.697754 927.049011 -195.992035
-922.914307 496.428345 -102.266495
-938.748413 508.969604 -46.072548
-923.781372 659.314148 350.897491
-947.180725 585.920349 393.636597
-1286.099854 642.044434 -50.556332
-937.539063 555.573059 28.343676
-1005.633362 533.480469 139.041962
-781.598694 615.977661 475.694763
-784.845886 687.035156 434.790253
-1475.442017 907.321899 178.292679
-1340.857788 544.163879 -277.441223
-1373.390625 475.162537 -237.050720
-1286.903564 725.463318 -280.270142
-1004.745361 348.185364 15.781691
-1251.631226 710.864075 -330.446564
-1457.630005 418.262543 -42.201759
-889.926758 716.471985 320.191376
-1311.297729 881.605286 -119.444237
-1407.573975 465.282806 -158.669220
-980.069946 492.249237 416.587158
-786.728882 708.445496 428.917175
-791.770264 618.223145 468.742676
-985.210632 501.837433 425.158295
-1040.845215 388.495728 113.559654
-763.814392 689.207153 430.636108
-900.083679 584.767090 -36.675552
-1321.552856 636.333130 -256.660980
-912.349976 544.429138 -93.580009
-867.257263 548.642273 491.536835
-901.903564 599.049133 -69.479294
-920.392883 440.067139 504.731262
-1269.589478 608.800354 -356.576263
-994.206116 620.546997 131.686493
-908.362976 591.132263 421.346375
-955.493469 573.865479 84.480675
-1306.281372 730.751221 -86.573006
-794.872314 576.539307 492.396606
-909.922974 695.969788 348.750122
-887.560669 684.147339 356.914398
-1420.449829 438.151917 -173.474533
-1305.898926 894.662476 -130.812622
-961.860718 432.135864 -32.024281
-1418.694824 459.025909 -171.594833
-930.323669 624.073181 15.646371
-1328.468506 790.103333 -152.024780
-1367.266846 469.538940 -251.218811
-1284.393311 624.426514 -318.385925
-995.959229 520.226501 129.221390
-1068.066162 419.779633 163.457367
-909.221558 521.672363 -45.497784
-956.626648 485.932251 21.432636
-1025.278320 687.449707 198.696503
-1366.187622 720.062256 -164.839798
-878.931641 671.650391 377.699982
-1421.304077 459.884949 -132.701508
-1478.407959 369.132874 -105.556068
-924.711365 585.159485 14.165750
-1241.725586 822.895447 -268.950958
-945.792358 452.794189 -42.588593
-1382.319824 512.258911 -174.948593
-906.642822 581.688354 -6.167562
-1331.142944 722.860596 -168.882050
-896.488953 662.739624 365.987274
-1400.508545 484.442474 -40.447239
-1298.878052 850.674255 -143.593521
-930.184937 488.889099 459.307983
-1447.091064 516.835999 -78.878960
-1292.443359 659.561218 -291.739227
-948.806335 460.844543 -53.883831
-832.057129 658.026123 407.691071
-824.740845 537.468384 503.834137
-1397.452148 721.987000 -69.363258
-1325.799438 532.434265 -279.869720
-874.545044 451.639862 534.664307
-1316.920288 841.010376 -132.248413
-978.132263 629.199158 133.532990
-1282.575439 595.544128 -329.936340
-1021.810913 538.036499 361.532806
-1302.616455 583.131287 -225.098923
-1289.291870 899.856995 -139.903046
-1414.384277 881.104919 57.630882
-1023.745911 484.993225 97.981056
-1066.720215 692.769592 254.196320
-1086.553101 507.010376 237.082947
-869.584961 579.433777 430.900360
-989.659912 255.913681 158.668762
-917.720642 683.123474 347.775940
-1013.229492 494.712738 395.512451
-794.442261 705.825317 396.740234
-1301.827637 590.882690 -254.420059
-1022.483337 361.368591 95.532089
-1298.509033 884.023254 -150.414276
-905.516541 533.197693 -84.374191
-935.642822 610.784363 61.176640
-1433.609619 853.704895 61.432343
-1376.817505 844.674622 26.153540
-1311.872925 604.336182 -264.419250
-983.150146 458.183746 445.069733
-969.918762 451.014648 30.989323
-997.824219 528.929504 100.742790
-1066.485474 446.812103 179.530670
-950.618896 671.204285 116.745483
-1321.515869 528.772461 -294.070862
-860.473755 640.533264 408.038147
-825.080017 728.257446 96.138023
-830.320374 704.094727 380.122711
-1043.192871 423.988373 109.614510
-987.906799 476.178223 418.634460
-1045.202881 438.744751 150.975952
-920.999756 612.793823 -19.860794
-967.161560 567.831177 389.447540
-895.562195 583.426880 -54.647240
-1506.480713 954.053162 219.120132
-1403.151245 558.764343 -173.495102
-1397.228149 510.387421 -185.547760
-1341.834717 750.291626 -192.971054
-896.028442 671.967773 -47.641972
-1427.931396 481.227753 -103.733566
-865.551941 741.444763 330.160339
-934.828430 501.763763 -7.828786
-1002.784912 349.353790 50.882153
-786.247009 589.162415 507.262756
-1328.539307 752.554932 -155.066376
-762.984863 636.549805 472.596161
-1355.127808 528.409363 -217.321182
-1285.433594 870.532837 -211.411942
-904.676208 659.326599 -40.463207
-972.085693 556.456421 58.190502
-1400.621826 527.590820 2.035847
-1341.312500 713.492676 -215.540894
-1290.838989 843.010986 -198.709061
-1274.714844 599.256531 -354.384064
-936.990662 622.065674 379.160675
-1289.231201 871.043213 -185.469177
-1388.823730 510.718719 -164.235199
-1469.416382 474.143707 -12.490854
-956.669617 439.108185 475.797699
-1294.864746 585.871521 -190.788864
-1084.291260 555.137756 285.335266
-961.838989 429.112213 -48.400990
-926.869080 669.722656 36.284389
-1310.131470 746.083557 -192.163162
-1361.971069 567.968323 -124.965309
-889.074158 748.067627 294.477417
-1486.677979 354.839661 -52.711895
-1543.601807 547.123779 56.377842
-1037.854614 520.407776 135.975967
-922.432861 513.867371 -66.208183
-933.071411 539.657166 -13.161113
-1448.221924 579.257568 -39.656509
-833.973999 727.828003 343.355408
-1279.680298 765.982178 -261.102448
-960.822327 540.280212 420.573975
-1421.772827 507.666656 -15.420365
-766.866638 663.412048 474.136200
-1286.219727 525.382385 -332.834534
-948.861450 449.645477 -40.266781
-899.163696 547.975098 443.809814
-1430.809326 520.462341 -146.479630
-1428.952759 454.328918 -152.731934
-1304.326538 917.052795 -150.501831
-1280.730469 584.401917 -337.749115
-1368.021118 549.522827 -159.133392
-1510.874268 509.177979 23.436234
-1363.242065 699.291321 -147.848755
-970.380615 380.818085 5.301473
-1087.486206 480.486359 215.084381
-1257.377930 572.188599 -199.445419
-926.396606 577.240967 -94.837242
-788.788086 616.156860 470.594055
-1261.311279 940.072693 -187.645279
-993.491699 695.274536 157.893570
-1272.631836 584.362488 -250.977097
-914.847595 622.349609 17.817789
-1425.830688 482.935303 -142.642487
-1262.362183 869.724121 -239.340698
-1390.317627 857.100342 -2.294799
-946.393250 608.098694 65.298988
-866.573181 503.510590 497.046295
-1285.813843 487.002838 -352.059357
-1344.802490 750.346680 -125.774940
-904.039185 502.266632 463.003723
-1050.486694 526.680603 164.197662
-1268.560059 762.539612 -252.039398
-1371.543213 420.985016 -234.369934
-975.417542 431.145294 449.357849
-985.971619 532.649841 390.697632
-1391.814331 756.185120 -29.700420
-1408.042725 859.372009 -11.613051
-955.139587 650.068359 97.314362
-835.312805 644.865295 422.501984
-1314.216553 779.061035 -200.848907
-1262.555786 744.550720 -302.028503
-1451.098145 1002.726501 180.027176
-1323.667358 456.832458 -303.544983
-1020.244507 630.339905 179.185989
-941.810425 478.060608 -16.555637
-1442.552979 485.296753 -108.906937
-1264.039429 817.124756 -265.584015
-924.564148 485.950653 -23.635923
-980.845337 393.934082 13.800995
-1339.284546 784.942383 -157.045380
-986.420166 488.280762 426.439850
-775.960999 545.014038 539.082520
-1331.381104 811.974731 -149.089462
-915.176636 674.406616 340.948090
-1045.309814 483.145721 157.330261
-987.096863 357.777893 11.315671
-1039.323730 347.430695 119.083885
-939.355408 526.627563 -94.198921
-879.014404 474.668213 493.271393
-1108.205688 453.626282 228.589737
-770.011536 636.855042 498.759369
-763.846191 700.710510 465.388458
-1297.473633 829.763733 -188.047546
-1308.796265 810.510681 -142.762024
-1458.680664 351.865753 -97.764793
-965.234192 579.583252 99.226151
-819.871399 646.314514 445.932007
-901.968628 700.677551 29.057175
-1356.703003 704.071533 -39.150669
-979.286987 385.181122 3.534573
-1273.080566 833.737061 -237.515961
-887.814087 691.951416 346.091248
-1472.422241 983.103455 176.927536
-1424.867188 393.040283 -175.087158
-974.652222 374.697205 -14.715061
-1001.347168 585.229187 373.861908
-1425.010132 584.515991 -110.549370
-1022.957947 554.234680 372.676605
-906.803589 536.190247 -46.979042
-907.495972 652.511292 371.517120
-960.677917 484.604431 454.043854
-1042.613525 609.401794 186.272263
-1315.247803 788.915100 -90.484756
-915.720581 463.380066 512.310852
-931.596619 749.818359 286.934570
-985.502625 436.951782 41.960903
-1258.543823 626.319092 -355.909607
-1299.937500 894.708801 -153.794006
-1438.422974 407.353699 -159.749771
-992.070862 425.780212 77.817070
-1372.085327 503.455902 -248.117142
-1082.796631 636.758423 278.917145
-1368.911011 707.873840 -111.003929
-914.300415 626.854919 17.926207
-920.737793 531.794067 -38.022179
-798.326416 700.725830 405.123596
-1489.838257 931.885986 203.382004
-1062.262451 479.407379 170.157150
-1359.057617 666.907715 -182.541504
-941.417908 440.649963 -27.434214
-911.783386 575.578003 428.546417
-967.919739 656.522522 332.332764
-1433.894165 510.629883 -140.604294
-933.075134 539.572754 10.278173
-1435.837524 364.807922 -147.452072
-856.113770 482.310547 534.845215
-968.765686 445.040680 0.316206
-971.721375 695.889465 135.264908
-930.723450 475.520294 -33.285816
-987.113770 612.244446 145.227875
-1418.009155 466.570831 -135.152954
-925.514465 477.936829 -36.987350
-1001.022583 446.996613 442.831665
-905.039978 562.803528 -39.135792
-913.137146 732.004272 320.992157
-898.958435 598.043152 -65.751320
-1433.737671 779.259277 -34.415134
-912.232300 712.435242 46.427784
-1062.523804 456.951385 153.189072
-983.424744 594.414429 97.418343
-1323.117065 606.986633 16.197712
-1413.221313 872.187866 84.283455
-1012.286987 343.388000 44.278370
-1419.543701 566.761108 -23.364794
-1379.085327 591.734070 -114.297333
-1307.519287 922.286133 -117.767067
-1068.606812 553.485657 227.614197
-1464.622070 366.415009 -93.560364
-1529.983521 617.604248 86.180817
-1318.074707 785.020569 -187.312027
-1014.890808 574.270020 137.621429
-907.651428 625.390320 392.354370
-1335.328369 525.989563 -282.078979
-1243.560059 727.095459 -319.119141
-1117.328491 497.872070 289.634064
-1002.251465 372.892120 75.744736
-852.210510 635.114990 418.706146
-1295.970337 836.015259 -223.673584
-892.172302 576.104675 -81.912445
-1340.836792 726.635559 -196.777908
-1238.917847 705.137573 -326.804016
-1094.778442 514.699646 241.569031
-1345.206421 769.064941 -168.043335
-899.158447 589.875000 423.636505
-1084.782593 443.583588 198.916138
-1306.282349 872.388245 -123.388733
-1307.037720 865.532898 -74.871521
-1025.293335 447.146149 431.071991
-995.905640 603.812805 342.667877
-1282.104980 610.875977 -293.171173
-1101.997192 577.776733 287.178009
-929.383545 589.389832 -14.777856
-1067.625977 489.732635 228.471344
-1260.554321 922.232727 -220.994049
-1357.952515 550.895630 -247.514404
-817.218567 731.355347 364.809540
-757.867676 682.874634 447.460449
-892.926941 641.363708 387.926025
-1321.556152 686.419922 5.242698
-1293.288330 611.712402 -259.856659
-1255.662720 873.791565 -185.238754
-1313.811646 807.442749 -169.959137
-929.691833 616.486511 13.624796
-870.574707 622.595093 415.351135
-1320.361328 686.155396 0.052667
-1021.040771 528.400208 385.418671
-1312.485229 551.412170 -316.476227
-1374.226074 488.302490 -229.402206
-923.435669 551.140198 -84.298561
-1084.441040 545.208313 287.433838
-985.060364 511.613678 417.344849
-1272.580811 831.253662 -107.191818
-955.748840 622.061401 370.592926
-785.957520 664.588989 428.978577
-884.588562 506.962982 484.354248
-1343.625122 489.713898 -296.196930
-1283.295776 877.960754 -208.762085
-1394.778564 513.392761 -207.879333
-991.851379 640.275940 338.010925
-1435.910400 551.222961 -120.716377
-1308.401123 778.709717 -225.695618
-1398.930420 483.931549 -190.381897
-1365.215210 711.182068 -103.644348
-1106.438965 581.791931 275.432739
-803.690369 556.213440 509.018005
-1067.425537 607.925232 208.400162
-1303.101929 646.112549 -273.196838
-760.399048 646.767029 468.158630
-784.781128 601.724243 480.998993
-1294.002563 960.992676 -122.624321
-1029.874023 448.278992 92.356544
-1278.794556 830.616272 -203.777985
-901.653931 598.759460 -46.393375
-809.607605 718.982666 396.854950
-899.270813 681.163452 352.515900
-1472.003540 920.238281 172.190781
-1304.353027 823.738525 -177.532288
-1436.337524 492.236664 -123.063026
-1071.982056 346.152496 142.707077
-898.632874 667.926941 -18.399019
