ply
format ascii 1.0
element vertex 1393
property float x
property float y
property float z
end_header
174.486679 901.114502 -684.096985
278.641968 423.750732 -918.299500
361.013611 734.153320 -896.926025
156.614059 442.929169 -969.606750
193.212967 595.845886 -1403.428711
186.041870 452.674438 -949.431641
350.372620 637.450806 -1286.504150
212.394913 519.270569 -915.452881
492.471527 559.725647 -710.569336
271.622070 912.115417 -604.632385
437.264099 540.843567 -887.688782
514.019226 504.890961 -1331.909424
315.070007 356.301300 -1365.881714
344.109314 535.509644 -1314.924316
286.405579 903.554871 -567.913513
312.388794 793.812805 -1319.065918
196.343018 708.558167 -947.857910
258.476746 621.487915 -1310.495361
173.842941 726.088440 -1418.604858
80.578140 523.631592 -1403.865601
417.064453 603.124207 -883.146545
126.933243 765.427734 -969.582825
193.693909 568.607605 -916.886414
155.646729 836.741150 -967.065125
44.972225 882.450623 -725.731934
603.161255 597.216675 -1308.282471
393.726227 650.346985 -878.393738
304.241333 863.508972 -722.169189
84.697601 875.356262 -816.512878
198.197250 525.459961 -919.477112
378.725067 530.968994 -868.267639
197.686554 456.843719 -1398.804688
421.239319 521.125793 -1356.413208
81.489197 475.578491 -958.583191
405.759949 587.696228 -883.135254
340.631317 539.379578 -881.782776
366.473724 369.124207 -1337.865356
93.945168 933.413452 -624.854309
134.430069 739.422424 -968.254150
307.995361 874.597168 -757.472473
404.923828 652.852722 -1336.657349
293.661896 765.790466 -1371.105103
215.373459 896.410400 -660.983093
376.073761 683.506836 -885.864014
133.505310 543.156799 -1395.950806
596.975220 619.508911 -1293.183594
534.101257 543.960938 -1316.478882
311.668854 449.607330 -901.598755
149.235031 898.285278 -706.527893
223.353622 903.208984 -597.922546
188.162018 628.961365 -924.855042
294.125183 909.900757 -569.324158
403.939178 649.787903 -890.602112
353.213745 531.368530 -885.219360
424.132996 690.366638 -877.794006
175.597168 514.005188 -943.726013
167.685120 797.890991 -962.926697
376.661652 421.906830 -928.420715
341.087158 883.323364 -633.843811
212.249802 875.484314 -825.572327
130.268478 677.674377 -950.171570
277.253082 721.243652 -1361.847534
171.368134 885.615051 -737.898499
78.324242 896.782715 -721.689087
119.452431 563.904175 -936.515930
438.427643 362.315247 -1341.885498
205.707123 937.765015 -588.996033
524.654297 434.377899 -1334.742920
247.929565 873.905640 -692.090698
179.547806 781.111694 -1422.357056
533.367249 679.145203 -1310.871582
293.604553 490.058838 -1382.629395
286.545441 360.960022 -1374.660522
161.958374 566.419800 -1403.743774
473.167725 469.188538 -1338.257935
321.454376 366.231384 -1360.381714
551.540955 933.831970 -1346.440674
304.344299 450.493622 -1361.358032
296.621887 579.768616 -1389.472168
377.616486 381.789398 -1335.523071
473.454224 595.606506 -1355.522461
103.963463 558.285889 -1381.947510
250.906906 869.106140 -722.903198
197.992508 507.078003 -1401.534790
115.261681 548.297729 -1390.416870
285.065247 471.992279 -1391.012695
173.230850 671.083313 -1386.698364
299.050598 748.972961 -907.353333
162.440826 925.831787 -551.884155
558.315369 532.505310 -1324.605469
81.410271 887.682373 -755.660095
272.289124 617.230774 -901.456787
565.623047 620.852661 -1303.068237
128.995605 920.995605 -620.421265
434.940186 383.800751 -1325.736572
164.024094 894.040894 -695.968140
100.507751 549.022095 -1399.548096
437.582794 544.529968 -867.777710
485.927094 500.057220 -1347.127319
280.938599 851.286804 -839.566345
475.567657 1026.003052 -1363.836060
382.172821 763.860901 -905.557922
456.788361 639.107117 -871.114441
446.322357 491.734253 -1349.255737
328.399292 745.891602 -911.898132
507.841736 739.467651 -1333.363281
94.315849 512.046387 -943.681641
341.300079 397.573517 -1372.078125
336.228485 581.927063 -875.848450
386.161621 868.098267 -685.364258
187.425873 794.381226 -924.354004
99.450806 530.082947 -941.083801
437.485748 704.256531 -873.742004
304.864410 870.599976 -799.410889
193.625748 900.767578 -654.918091
284.261841 898.706543 -607.975159
550.566772 468.102936 -1319.894287
146.832916 563.090271 -914.073608
221.090942 857.284729 -779.555237
88.918030 576.493225 -931.850891
300.262451 749.144348 -926.161316
343.976196 461.251923 -1361.445557
294.621307 329.628052 -1362.286621
341.281281 421.327118 -894.842834
334.776978 881.526978 -617.103760
531.841919 593.086914 -1336.764404
244.038559 883.355286 -730.433289
173.148895 475.971313 -927.725830
429.691498 881.680359 -1341.635620
79.237587 934.176575 -579.271240
162.122604 909.210571 -655.239563
267.556274 873.081543 -830.895447
242.543152 566.848938 -1397.908081
257.698792 890.819641 -629.352966
173.983826 493.004791 -926.057983
236.997055 543.858521 -1381.839478
226.090408 372.828339 -1372.421631
300.393311 463.541168 -888.886169
556.986694 450.631195 -1332.018066
181.314835 620.315979 -1374.996338
368.494232 645.358948 -872.224670
173.506378 891.411926 -734.982422
519.204651 511.220764 -1333.162109
255.477631 854.135437 -787.916565
474.446228 573.216125 -1360.255493
102.605591 881.640747 -741.816956
128.908386 679.553589 -944.845276
628.720459 528.793457 -1318.886963
140.609085 554.540894 -1394.644775
222.280869 505.272614 -907.797302
363.073456 583.166931 -878.950989
108.998123 496.536194 -938.634460
170.675156 953.103882 -567.893494
116.199005 608.674622 -1393.215088
308.676788 605.330566 -907.437012
615.469299 538.261353 -1295.689087
264.426788 697.816772 -1353.474609
298.233490 925.479614 -563.727417
344.221649 859.913513 -821.819702
445.039001 852.604919 -1372.980225
291.306488 819.065125 -925.982361
307.038666 437.906525 -1385.237915
184.774857 580.904297 -934.167053
117.737343 584.660034 -1403.693604
461.140198 434.641998 -1339.966064
431.343994 750.711548 -882.138733
370.210602 796.269104 -911.609924
352.524017 819.507813 -920.751099
398.129486 471.167084 -1322.490967
314.044647 508.049774 -1391.180542
524.949890 450.519714 -1326.782593
500.719879 523.726563 -1323.770874
401.378815 860.051208 -754.446045
90.169556 894.477356 -693.668579
430.929169 579.593750 -1356.057495
610.380615 508.055756 -1315.621826
231.295746 618.224060 -1359.078491
498.615814 605.925293 -1324.719727
279.471497 614.955688 -1401.740845
659.566956 599.735046 -1291.024658
256.999512 550.930786 -891.176086
375.358887 869.958313 -694.067749
388.603760 488.488129 -880.842163
543.538818 423.611816 -1320.422241
326.250427 472.307983 -887.873901
153.647034 527.251099 -1408.999268
280.636597 569.721558 -1392.393921
296.882843 674.801636 -1353.803345
535.158508 694.515259 -1291.346924
507.625946 540.477051 -1321.224365
276.761902 874.423706 -725.486450
243.214050 436.221863 -1383.734863
348.218536 330.663727 -1356.007935
102.620277 900.549805 -640.122498
188.216370 882.776306 -763.397766
466.355743 548.032837 -1363.639282
167.566437 603.426819 -1389.707031
357.974792 484.990417 -893.401184
509.288818 530.393066 -1337.228027
181.209244 505.882568 -933.446655
187.634766 872.115784 -733.697693
184.585480 582.015076 -919.417847
100.660851 924.094360 -632.926880
397.339874 788.440063 -1357.144653
282.582703 404.283264 -1362.295532
493.508148 552.739685 -1340.633301
396.769562 465.289856 -902.367981
565.325134 439.725616 -1326.758179
411.794342 689.179016 -871.551575
272.198242 873.602356 -723.770752
341.317383 815.615112 -923.201721
366.212341 420.346893 -1311.496948
516.263550 870.868042 -1345.002197
384.827911 442.969421 -910.295410
391.754456 861.247986 -803.307068
593.943970 648.865723 -1326.828003
140.940414 886.699280 -711.778992
210.626129 438.186035 -1390.093628
500.996826 833.009033 -1358.307373
301.420197 876.591614 -707.117554
171.527954 776.613525 -1439.369385
477.303009 621.581482 -654.406799
398.742493 544.322815 -1359.462036
153.013077 525.870605 -930.737732
75.107292 674.231018 -952.216370
297.021271 441.789093 -908.270020
316.743164 688.087097 -923.873962
259.139130 716.597961 -1356.723267
199.736435 691.988892 -917.433777
261.345459 587.919006 -1392.709595
467.315186 530.712097 -1358.937866
198.955933 893.556641 -708.905579
424.031738 538.410522 -1366.071411
518.231689 650.954285 -1341.327881
162.748917 902.142456 -658.318909
288.928070 457.454132 -906.954773
254.098175 878.115784 -675.016113
114.533463 536.239807 -1406.659790
292.124115 763.635742 -1345.409180
209.693649 541.555237 -901.442444
85.153793 540.871094 -1419.508423
430.403229 663.176697 -1358.495239
500.209198 419.893311 -1319.494995
163.695587 809.530518 -956.520508
99.597771 893.585999 -728.948975
279.759064 640.546509 -915.044617
263.325500 667.286621 -901.466309
161.719543 594.555847 -942.639404
215.349304 901.100037 -613.626282
484.580505 835.853943 -1345.393677
80.114372 892.671509 -748.624207
299.386597 882.743591 -676.681335
184.484512 858.173401 -821.712524
425.745392 560.398193 -870.210693
492.304443 643.124756 -1340.853271
283.498962 573.364868 -1387.370483
149.126602 631.789246 -1391.853882
459.760986 429.097229 -1337.192749
170.356537 896.343933 -670.023376
263.053131 478.607452 -911.051453
346.871826 865.712463 -711.305786
236.539444 913.221802 -551.672119
280.759827 867.592285 -704.761047
254.302292 811.832275 -942.750061
187.472534 823.718018 -1454.375366
396.046906 440.664215 -897.635193
253.984665 706.309021 -904.860962
89.200851 562.224731 -1425.995850
300.749268 870.819763 -725.191467
378.071533 530.753296 -887.391357
363.105865 445.913147 -1363.577637
134.471176 922.671692 -570.232361
227.873779 510.567078 -1380.581787
390.276703 510.132813 -1318.805420
114.162361 886.346619 -711.472046
428.381836 446.366028 -907.688965
261.850922 874.390015 -753.421753
98.484779 918.940430 -628.364380
567.821594 606.625671 -1300.584229
128.503891 926.538635 -594.435059
128.471359 864.419556 -811.578064
312.775940 904.555420 -591.868530
384.440155 860.849670 -715.537903
268.727112 847.473206 -802.788635
126.091309 866.394165 -829.479126
313.689667 427.297852 -1368.731323
378.362579 441.416901 -917.814575
527.970764 435.613678 -1321.935181
341.309021 701.901123 -894.718628
197.241608 740.514832 -932.986633
181.280914 783.656921 -940.978149
462.695374 447.259827 -1340.339600
331.591339 308.911011 -1346.421509
462.503296 623.382385 -1335.520508
294.270782 870.263184 -721.955383
509.814240 437.267273 -1328.343750
362.106049 363.509735 -1363.377441
258.008423 593.580688 -904.112671
535.414917 555.891663 -1342.274536
674.764526 619.576233 -1308.907227
165.731476 512.125366 -926.903259
312.708221 874.919434 -744.825562
276.310394 900.563110 -594.946289
259.169098 600.577515 -1270.175049
319.286041 372.169067 -1375.705444
320.825836 886.278748 -624.891113
215.842010 604.325867 -1377.550659
523.226501 476.187439 -1337.277954
134.053360 522.604980 -943.657654
331.868591 375.350525 -1359.823364
162.158768 637.313599 -1393.057617
321.037415 883.200684 -661.458740
174.816971 478.266022 -924.364563
354.592438 812.696411 -900.825378
369.617432 893.818420 -598.362305
229.605820 544.879333 -1411.200806
564.357056 1062.595703 -1332.796631
453.404694 735.121338 -680.042480
260.684845 474.583984 -901.726563
505.368195 657.512939 -1268.697998
512.963623 404.766357 -1335.037720
590.935425 505.876282 -1298.853516
305.127472 362.245514 -1364.300171
281.772583 884.467590 -681.092163
87.766937 885.454956 -722.815857
323.298553 568.106201 -1364.867676
260.375336 800.966797 -1429.640869
324.749786 446.912506 -1342.609131
516.311096 508.505524 -1346.261108
438.402710 632.988770 -867.030457
337.568237 879.938110 -605.977234
576.061035 517.639038 -1318.796021
332.721283 577.286560 -1291.577271
340.576385 870.113892 -737.223145
296.833954 901.846619 -598.764038
415.348663 483.785553 -887.205200
206.421173 493.766785 -1397.116211
301.803070 377.102386 -1372.409668
254.736588 711.752991 -917.825989
529.552551 675.005920 -1311.138184
369.945282 571.287109 -1304.419434
289.421783 561.041260 -1353.893188
500.095795 805.164246 -1325.285889
327.809265 566.444885 -877.510498
372.801941 851.496277 -758.148804
418.549286 378.778748 -1325.653076
271.199799 856.030762 -774.677490
241.409790 888.501526 -687.740540
216.793579 726.230774 -934.059937
491.276611 539.953064 -1348.889526
458.549408 557.942810 -890.926941
325.759888 444.913971 -1367.422485
488.946228 382.036041 -1328.187988
230.427017 902.055542 -619.420227
344.320404 857.834045 -818.453552
342.725281 394.317200 -1342.939209
434.576294 640.534058 -1283.472046
170.214050 691.135376 -923.530029
330.371063 623.082581 -1315.665283
515.263489 794.977051 -1335.624878
93.444473 897.788940 -714.181702
126.804886 561.442749 -1317.644043
493.370758 497.190857 -1348.816528
275.735138 583.244629 -1400.024902
538.380554 1000.562927 -1367.419067
99.514061 877.592590 -785.088196
236.468933 881.976257 -785.119934
307.316650 347.075470 -1365.124756
580.216064 679.696167 -1295.084961
235.561188 589.296082 -1404.928955
476.709595 900.738159 -1262.809570
287.713654 520.430725 -906.530640
220.980331 778.784485 -931.123169
296.416473 667.021057 -1360.284302
302.552979 648.481934 -1294.439453
368.960449 451.295563 -918.014954
581.609985 603.043213 -1320.887207
347.871918 455.873016 -1306.250366
388.425568 394.678497 -1334.972900
278.793243 500.739014 -1381.298950
89.976601 894.731323 -663.617310
129.525223 785.930603 -983.024475
391.758972 753.798767 -894.845947
33.012421 899.686523 -719.181641
552.475647 970.939209 -1333.171631
359.496826 638.715942 -1237.331055
284.027588 543.526917 -1373.114868
147.857162 757.237610 -932.290344
311.232086 596.846619 -1392.624390
371.143158 842.444336 -787.872498
72.025009 884.496155 -741.662476
256.602600 587.440735 -923.733582
337.160095 464.033844 -887.129517
457.513947 550.235046 -1363.399658
163.324188 886.358765 -685.783203
353.809357 898.365051 -600.855530
225.258835 612.538208 -919.759277
202.203827 763.591431 -934.333008
322.954346 874.887268 -669.232056
76.127747 878.888794 -767.842896
212.296432 860.269592 -791.959229
371.586121 393.431824 -1366.084717
299.089050 871.294434 -754.529846
286.683380 857.148010 -761.082886
436.142212 493.701843 -895.090759
367.257141 849.813477 -729.218445
261.392303 461.532745 -1370.435181
323.671875 880.249512 -673.868042
232.871063 873.076172 -705.560791
385.303192 507.762817 -874.908142
194.875458 878.309570 -760.859741
583.576660 634.381836 -1258.725708
116.014336 893.363403 -720.375671
202.338181 845.519165 -811.562744
62.930618 628.020996 -964.064209
197.991425 937.167358 -592.118164
555.626221 630.409546 -1319.230347
508.127930 387.406067 -1323.837036
572.936096 633.110901 -1271.096680
348.189117 621.268066 -1305.072876
507.012756 632.943359 -1315.733643
109.119026 922.697693 -609.911682
213.648621 534.922913 -915.663879
207.721390 878.993164 -760.318298
340.325287 892.305298 -613.621948
362.390015 873.857483 -659.870667
465.372589 922.658264 -1295.075073
374.585114 583.252808 -1341.204712
278.992859 605.838257 -890.917908
251.796570 811.473877 -954.709900
509.506348 434.828705 -1329.580444
368.006927 867.412109 -694.238037
366.349152 451.719635 -910.372314
170.873444 903.613220 -655.482605
53.195057 889.908997 -722.696289
610.636047 619.196106 -1281.620728
224.811325 708.496826 -922.791748
394.510010 753.223938 -870.205627
410.899994 642.402100 -867.098694
525.250549 543.299316 -1317.030884
295.848877 534.772156 -1401.493408
389.502045 549.293152 -870.434448
194.710785 894.869507 -683.752258
585.428284 580.130188 -1301.194946
82.600319 906.711731 -670.206665
206.884827 480.569885 -1396.241455
416.662933 358.787994 -1331.265503
598.963196 548.594238 -1325.020020
199.246170 475.258972 -911.765869
198.065430 754.458069 -951.680176
117.364868 925.327637 -587.947571
446.086334 371.037903 -1322.164185
306.207642 871.512939 -666.652771
318.330292 798.623840 -915.908997
147.298660 551.794250 -1396.425293
267.742401 484.712677 -917.426147
237.920761 867.153687 -842.140686
402.718597 544.352234 -873.302124
80.835564 476.812744 -959.953369
352.015045 430.018005 -923.033691
304.511566 450.451569 -906.278381
118.360771 527.074768 -938.871643
475.670776 599.121277 -859.288879
220.486984 978.615356 -562.530762
147.363388 861.794739 -835.673279
594.780701 673.353577 -1268.442139
381.488312 873.530884 -663.523987
49.496616 565.393188 -1404.126953
459.000977 474.634766 -1328.063599
225.719940 737.749939 -933.137756
323.226563 879.919556 -634.233643
340.917847 473.116241 -898.128845
188.628235 913.857727 -570.082886
463.140350 627.578064 -861.364563
157.097778 517.989685 -924.965271
166.688431 584.007935 -925.774109
606.509399 624.939697 -1307.438477
380.979828 616.036987 -868.059814
115.545647 875.457092 -747.400513
380.459045 625.662537 -891.418762
260.954346 523.033142 -1392.702026
324.319946 441.259460 -1367.270020
89.954445 694.144226 -937.741638
467.052521 615.267090 -659.367371
184.603851 517.125061 -922.501648
612.622864 667.718689 -1282.463257
491.677612 387.911957 -1316.795044
523.022339 651.081848 -1255.845703
207.426758 786.622437 -935.242371
289.730438 864.419434 -708.138245
127.400726 875.634644 -762.575745
276.838776 886.421265 -687.984741
300.371613 519.234253 -881.511719
80.206001 608.572083 -1422.004517
338.194427 535.502502 -875.216370
441.331268 759.210815 -1375.447266
497.868286 426.254059 -1314.170898
343.622955 563.791687 -899.272583
192.111496 917.465698 -618.536438
184.654648 892.366272 -681.696594
220.327271 559.113098 -910.447510
120.400841 442.718018 -963.949768
321.001404 468.981323 -883.516357
203.501404 593.966003 -918.786987
255.809540 543.496338 -1389.671265
326.341827 873.570251 -675.152771
116.659966 589.212524 -1416.512817
300.473511 724.365784 -908.820129
282.345306 546.424133 -895.021729
229.318512 883.172485 -697.026123
483.976471 447.902618 -1333.797241
384.170105 651.397888 -884.669250
411.121918 542.756470 -863.515930
233.958115 771.033813 -913.713928
475.390137 682.864075 -1310.126221
292.004608 653.066956 -1370.964233
318.423187 730.033447 -901.985779
341.227844 685.856018 -893.292236
295.676025 900.529053 -593.775879
292.937469 435.396790 -919.589478
198.416412 892.752136 -687.398438
536.344727 521.265808 -1317.910889
375.494354 418.608124 -1338.956299
254.929794 483.709167 -903.331665
167.553360 764.037964 -962.527954
341.396179 500.282043 -884.026123
240.144470 495.525726 -907.252380
479.123230 534.319885 -1359.219849
176.009796 713.759155 -1409.442383
403.296051 752.851013 -884.429749
232.087082 510.881134 -904.975281
617.255737 512.703735 -1307.051636
408.478668 506.766541 -1343.548096
65.532112 910.031128 -655.287415
269.128113 909.668030 -556.363953
438.205750 340.971863 -1344.455811
136.041382 886.178406 -762.787964
310.935425 858.194458 -797.786560
357.146820 474.766144 -884.800842
114.593018 542.427063 -1399.599243
677.389465 618.263306 -1301.715576
428.445953 673.421509 -1275.155518
515.683289 605.327576 -1343.085571
360.677338 804.042542 -902.553162
333.537994 512.414368 -884.288269
553.442749 646.946411 -1318.847412
239.409760 428.243652 -1385.989624
335.684631 540.084290 -875.893372
560.178650 731.077637 -1318.514771
353.955780 524.541992 -1372.287354
235.329315 658.281006 -917.206604
169.151962 862.897705 -1427.968384
363.026337 447.054535 -1354.022461
442.301605 640.140686 -1327.408936
434.645325 680.003296 -862.112122
150.512085 869.709717 -834.988403
176.700684 471.860687 -910.605286
387.768738 594.541504 -864.377380
311.554535 881.709778 -645.079346
302.650543 620.383423 -1377.176392
86.576607 733.654053 -963.742188
331.381531 564.240417 -1271.019287
190.267365 474.208740 -940.069153
119.349709 638.951294 -945.836609
86.674957 934.890747 -574.464050
143.306213 885.740967 -764.172852
234.610214 471.761017 -1394.029663
543.415161 1061.169922 -1337.646362
283.346191 901.049683 -577.587646
93.865143 684.079773 -936.264465
246.306747 890.326477 -723.723755
202.388229 896.443909 -636.659668
118.167130 483.810455 -937.093689
365.162964 520.631592 -883.373230
288.047699 631.757263 -891.725647
147.964294 565.247803 -932.005188
402.807281 796.164551 -1358.786865
380.433472 534.917114 -1273.580688
236.827805 924.914429 -576.644470
342.942505 410.277069 -1372.343506
307.394836 584.919922 -1385.424927
218.404861 548.016174 -1415.861694
311.415253 860.948547 -778.150696
290.441193 454.616028 -907.646667
454.523804 849.220154 -1345.965576
429.713287 592.392334 -1362.810303
484.767883 618.594666 -1348.224731
244.424042 510.456055 -892.441589
671.242432 609.084351 -1307.226196
219.269073 876.401978 -752.389282
412.274200 482.717590 -1350.437134
618.174683 511.211609 -1320.793579
132.037292 499.775818 -930.340637
125.591187 878.739380 -807.119141
198.165054 926.204346 -564.182068
218.305923 529.284485 -1383.372559
128.698730 944.642883 -581.608276
332.653290 472.196136 -899.231689
95.015541 868.656006 -789.603455
169.519562 601.665527 -912.232971
274.774200 925.076965 -560.464966
554.813660 620.735596 -1316.459839
224.947235 859.733582 -1416.613403
209.834732 886.656860 -745.938660
84.784081 887.028748 -714.683655
355.270050 862.962158 -762.472229
472.641876 797.839905 -1360.705688
122.767906 763.628845 -950.068970
580.279358 452.717010 -1324.321289
331.329895 615.361206 -1369.230591
154.261490 560.797852 -1408.171875
619.137451 578.419189 -1301.026245
371.402222 487.271973 -1335.364380
100.079338 885.434326 -733.445618
423.635864 493.281830 -1338.455322
394.899445 607.860901 -1344.169922
435.272888 349.877899 -1327.490601
205.598923 933.835144 -570.521484
320.462860 823.129761 -917.152344
179.609100 615.438477 -951.397949
636.199463 568.738708 -1309.661255
408.589630 631.497437 -890.655457
537.506958 809.160583 -1338.622070
619.814636 585.611511 -1293.316040
342.839172 585.778259 -897.798279
118.036148 899.344421 -655.121704
96.382286 547.874451 -1415.339600
73.164116 880.783997 -724.515747
527.393372 654.187805 -1340.015625
194.093643 423.730286 -952.751526
311.478058 625.156311 -1330.413574
512.904297 397.445160 -1312.242554
318.008118 741.290344 -913.429871
193.268478 478.345337 -1402.859863
371.216125 515.448364 -889.756836
375.720154 667.928040 -884.603027
171.653000 549.065430 -1404.273315
335.602051 490.074493 -887.701233
133.928558 535.942505 -915.675720
262.742920 873.922485 -678.312866
511.043396 746.380066 -1323.082397
189.542862 529.705505 -1388.546509
169.533997 581.223267 -943.149109
672.301880 585.164490 -1309.406494
416.748413 526.942383 -871.909058
422.588806 361.960968 -1346.868164
393.212219 476.696106 -877.300720
241.976410 515.408203 -1377.384155
252.384964 657.418213 -912.977417
237.758057 793.366150 -944.258606
354.831970 852.410034 -784.455444
171.866241 894.308228 -692.059753
296.544342 642.827576 -918.866211
308.048218 790.078735 -928.130310
320.266388 866.387512 -803.207092
422.037079 343.851135 -1335.091309
300.636536 857.172180 -822.394470
568.835999 540.581055 -1321.054443
218.694962 636.736084 -1359.872803
114.558678 871.212646 -812.623352
520.193542 615.320618 -1320.660767
433.813599 351.150513 -1351.850952
528.992981 527.364014 -1317.358032
672.327332 589.337158 -1301.079224
208.272842 926.822693 -584.557251
187.903503 926.189453 -556.410950
326.480347 732.378052 -925.721802
360.101868 771.808044 -903.935608
478.053802 460.060516 -1342.080811
116.243279 508.362488 -936.194336
71.637558 886.267761 -770.903625
167.110260 817.463562 -1437.191772
439.596100 845.969238 -1348.563354
105.405884 904.744202 -640.921875
214.160385 472.899384 -1395.748169
122.501396 881.273743 -799.353088
118.911781 914.144714 -655.470642
338.186859 492.032684 -884.687134
401.438416 641.244507 -1346.946045
86.767380 893.775818 -708.412048
507.902832 598.726196 -1345.398438
322.384216 462.754974 -1365.899658
308.101990 704.049194 -921.281921
119.712334 901.745483 -693.812622
75.077072 598.199707 -927.196960
311.427460 536.563721 -881.073364
226.900543 443.702118 -1392.068848
103.663994 520.653870 -1408.941772
103.450249 602.384277 -1423.418457
217.945908 882.587402 -730.718872
307.110535 436.677368 -923.020630
215.418243 637.442993 -1403.392578
83.057007 578.658020 -949.138550
414.151276 449.216583 -912.796936
292.108398 382.049744 -1371.249512
518.363281 866.651489 -1338.448242
453.994202 383.344086 -1350.443970
169.825836 739.122192 -945.063049
514.222595 417.983032 -1309.718018
327.649933 331.138855 -1357.890991
581.994751 509.002136 -1317.466675
107.676033 634.819702 -947.068909
231.388428 456.322998 -918.723511
370.991119 859.834473 -659.370544
301.789520 552.336670 -897.199890
158.505722 883.882202 -765.584656
384.337067 508.254517 -1348.995239
239.129547 695.189941 -919.813904
559.575378 680.248718 -1290.718506
100.224907 616.623047 -948.283264
380.433502 876.849548 -661.926697
262.767883 558.186401 -892.407715
162.809937 727.130859 -943.607483
285.573944 639.937683 -909.455017
266.579712 778.001221 -1378.240479
175.493225 494.107727 -1404.792480
321.367523 880.284119 -632.666260
170.709564 673.899231 -932.205933
145.895706 881.801575 -728.529541
271.586395 855.651550 -813.005981
251.780701 847.764465 -827.063477
305.724884 424.223938 -1383.855835
168.530807 464.311340 -1404.123779
113.666832 889.245728 -719.911621
126.208969 722.250549 -977.952576
411.810028 486.315369 -899.617432
293.069244 894.932678 -625.303772
230.589676 454.697754 -908.414795
247.723068 762.945618 -922.591980
594.707397 475.501587 -1311.583862
293.736237 345.023102 -1369.903076
241.369217 656.975403 -922.423462
550.978088 540.464233 -1334.046753
157.220078 492.120392 -923.452515
87.488655 538.704834 -943.590088
371.388977 547.133179 -869.830322
558.897156 479.875824 -1328.670288
263.602081 464.696960 -1382.350098
197.042633 614.210327 -1396.493286
266.527435 696.160889 -1352.431763
67.266685 893.626038 -695.254761
565.791382 560.385559 -1332.405029
238.761261 905.197021 -633.717896
457.374451 505.031738 -880.281616
109.303612 896.525269 -667.291016
519.421753 539.170044 -1342.071167
485.306915 789.398438 -1340.894287
466.368500 577.902954 -1358.797607
83.987694 875.274292 -783.994263
334.527557 604.051636 -1358.970581
489.240051 638.060974 -1267.170166
120.420792 538.772888 -1398.665283
478.121094 641.820496 -1315.237671
463.499512 950.117371 -1309.902710
284.354279 606.229431 -886.737854
213.637390 607.624939 -1325.598267
140.187057 581.784241 -947.604248
579.826477 495.523376 -1303.078125
358.504639 864.796326 -750.474182
244.612488 896.051392 -659.392334
271.626221 836.317566 -953.182434
256.936829 834.148438 -1405.901123
190.307449 752.504089 -1421.239502
472.015076 559.175842 -1360.240479
237.399231 483.854889 -916.039246
346.362976 652.411072 -889.497925
189.447464 916.095154 -582.608459
43.018509 942.494141 -642.723816
274.888519 576.172974 -1405.071777
334.916992 464.071564 -886.572266
304.985260 456.667358 -1371.208130
120.296333 946.702148 -584.985291
341.697449 478.730011 -1221.673828
474.732513 538.140381 -1359.493286
202.437500 477.110077 -1399.226807
243.940323 884.229126 -729.067688
89.241722 882.072205 -764.365906
451.878265 499.522308 -1344.546631
415.760681 818.680298 -1349.347046
181.915131 532.448669 -1407.127686
403.773438 376.548950 -1341.468140
299.701324 878.941040 -687.728760
419.639099 370.556732 -1328.732422
276.901550 885.821533 -672.252808
173.353729 499.224274 -925.444580
335.657135 441.334167 -1384.614502
193.974167 910.876221 -584.713135
219.387726 436.054108 -950.764343
624.065186 562.314697 -1308.136230
295.629578 873.156799 -705.024963
125.617355 548.658325 -935.529602
184.769852 617.619690 -1370.971802
118.361145 662.059753 -1421.981323
128.380646 889.613770 -706.201111
66.541847 898.239197 -688.243347
82.047729 550.562439 -1430.293701
465.382874 504.538910 -1329.204468
202.442032 568.394165 -1401.527100
314.356079 904.937866 -582.140930
262.224487 519.902893 -898.761108
308.127838 503.630280 -880.623413
321.940033 451.310944 -1366.380249
122.396935 876.005127 -775.318726
428.473846 465.156006 -892.503113
239.165253 481.063171 -905.469543
184.130890 500.080048 -1404.352417
460.405334 650.527832 -1322.939331
227.296463 797.924866 -945.617920
90.656723 893.480225 -690.042786
210.537384 880.320984 -765.828064
364.314758 853.004211 -737.564453
316.242218 860.364624 -718.965515
364.133484 701.928711 -890.704346
543.342224 586.629639 -1333.662964
276.273071 378.338745 -1373.287842
539.547974 590.791504 -1314.455444
105.652534 656.417114 -1412.802612
326.591034 415.038147 -896.003235
54.716068 577.754028 -960.604675
302.600128 527.165588 -1395.209839
132.975113 629.286926 -939.344543
517.065491 711.315735 -1304.838867
393.872406 531.636597 -1349.500610
472.371094 654.084839 -1350.501831
242.166214 444.126648 -1388.298218
179.332382 653.098145 -925.409180
609.803528 594.131165 -1244.674194
134.765259 550.402771 -928.359192
512.562195 425.500610 -1334.557617
290.201111 478.362671 -895.269470
177.943253 716.503052 -954.326965
132.370041 510.017883 -1388.573853
359.719116 441.500793 -919.293213
177.784332 870.284912 -848.889038
278.857056 879.751648 -696.686462
465.314728 536.850098 -1347.136841
537.507813 1018.784058 -1358.113281
146.216919 879.891479 -764.959045
365.989960 867.467834 -709.959229
419.835480 384.703125 -1332.447754
398.736847 842.241577 -781.588623
182.201477 848.790527 -808.829529
330.325348 608.310669 -1351.453735
303.875122 608.884216 -885.095154
363.159668 505.496918 -879.309021
349.398895 875.452209 -696.239441
193.108078 520.339355 -1415.001099
246.521378 912.152100 -552.209839
139.097931 441.409576 -957.337341
438.191376 386.663025 -1346.094482
121.673523 930.404236 -582.827820
259.888794 650.655334 -910.158691
141.946793 458.628082 -943.058960
274.033691 897.938965 -586.424988
345.610901 674.512085 -909.424866
289.955963 577.225769 -909.426147
486.332123 579.330444 -1350.830933
631.277466 589.360168 -1313.044678
326.855621 449.308044 -891.022217
109.554710 896.932739 -692.469910
152.400162 635.684387 -1385.122192
276.550659 511.698364 -1382.827148
510.956482 499.627808 -1339.814575
444.785828 635.732788 -1335.253418
162.339386 687.791443 -940.875305
159.709381 873.502563 -745.983459
135.570236 714.263184 -1397.599731
228.738144 600.336548 -917.697754
201.751892 436.582336 -923.658875
465.070709 478.250397 -1348.969727
285.993195 900.372009 -576.864319
202.009827 767.584534 -952.397522
119.532890 519.288696 -953.046143
360.183167 872.912476 -699.682922
292.801422 427.152802 -1397.121338
536.210327 649.940674 -1298.108887
381.072693 608.500916 -887.603577
385.133759 519.291565 -880.182678
224.538467 618.413879 -1366.206543
246.691544 881.686096 -701.351318
288.786957 627.401245 -907.115234
192.168777 633.308472 -939.150574
458.810699 736.638306 -675.680115
451.096283 347.891724 -1333.713745
358.134460 618.099731 -885.874634
227.573074 867.839966 -748.434265
295.885590 860.086365 -754.848511
667.376953 638.180115 -1306.594971
315.896912 473.058594 -888.463074
556.298096 553.905945 -1312.265503
629.555786 549.405396 -1313.897583
156.125885 555.361816 -1393.360229
86.751984 730.594849 -940.462524
128.105896 878.661011 -765.868896
254.008591 584.131958 -906.384583
170.081055 909.307434 -599.431396
102.297516 907.912964 -688.896484
150.357758 534.963257 -925.313538
181.873520 791.492737 -1458.078247
511.380280 563.076050 -1347.086670
537.385254 429.671051 -1320.365234
337.489624 444.402435 -1354.940674
340.947876 433.151947 -923.062439
403.570557 865.676880 -750.519958
165.205307 514.550354 -1419.147949
138.763916 861.446777 -838.925964
132.293991 528.626709 -1412.896240
382.274506 510.629395 -1341.527710
103.034142 690.784668 -935.571655
182.265930 901.242920 -612.567688
90.729294 912.652039 -648.932312
520.964722 551.815918 -1341.652954
298.023376 697.933960 -1329.313354
302.678802 674.762939 -1252.024292
147.092041 887.037048 -694.012878
334.105560 876.472290 -685.752991
398.646149 484.380737 -1344.479004
349.359314 493.967285 -1294.028320
88.403397 767.933777 -943.515747
563.673096 602.626709 -1227.494263
305.603088 609.636658 -1351.120483
202.317459 592.982788 -920.645447
242.604706 658.737793 -904.994446
362.806824 854.173401 -751.810303
420.756348 394.586334 -1345.644653
344.671875 525.058044 -901.678528
355.200928 724.887390 -1239.699219
98.942490 545.443970 -1433.244019
427.150269 770.317688 -1389.407837
135.640442 888.344910 -720.840637
227.598145 866.483826 -739.449463
265.879364 551.264954 -1392.404541
304.128204 567.394470 -1371.204102
443.354736 607.167542 -1342.441162
454.157806 549.317749 -1366.996338
362.995056 596.818115 -897.170715
58.446957 876.418335 -792.862488
501.817474 595.035339 -1341.321899
96.376457 506.485413 -943.008484
673.487732 583.206543 -1296.345825
500.373993 473.231384 -1335.028931
566.317322 596.538452 -1326.067017
513.789551 722.715027 -1322.961304
373.751892 649.589600 -1343.293091
142.470428 563.880188 -1403.515503
419.544495 654.466614 -1325.918213
307.901764 813.169739 -902.611145
298.384247 811.869751 -931.547180
340.965576 567.339050 -882.351929
242.059708 863.471985 -831.990967
310.979492 503.475281 -1353.927490
380.474335 387.926666 -1326.773071
161.505478 699.944153 -957.049805
420.931061 481.976898 -873.994873
586.968933 580.243591 -1326.723999
494.000580 751.683777 -1358.760010
299.074799 860.413574 -829.368042
518.080750 652.231567 -1278.302856
607.431580 697.359741 -1326.453735
304.930817 815.002075 -919.791443
346.677185 878.592957 -680.039734
278.840027 732.350769 -1300.812988
291.358612 566.758545 -1399.181274
452.991486 1065.381836 -1357.782593
162.893692 482.916138 -927.243774
239.029846 629.779785 -1387.514282
331.138947 313.951721 -1354.720215
333.412720 601.588867 -1367.377686
232.053101 570.921753 -1380.322388
215.162689 496.444366 -1395.648193
485.801239 606.863342 -855.756165
444.169861 778.929871 -1335.174561
561.376526 719.979431 -1291.529785
343.811920 483.874390 -1326.336060
365.504242 867.323425 -734.964600
448.029358 582.542419 -845.963989
274.856873 932.060364 -557.101074
343.310883 438.113434 -1337.810547
395.666229 371.573059 -1341.384644
337.068848 847.012512 -780.846375
260.778687 781.952393 -925.966736
396.709717 594.774902 -869.462463
215.394516 643.890259 -918.896790
239.799683 607.703979 -1388.218750
338.634003 852.666321 -769.591309
605.686218 585.747681 -1319.319214
322.031952 877.015015 -618.238525
114.264442 596.511780 -1400.337891
270.292938 458.701019 -1379.330933
405.684509 578.954285 -869.084045
243.363159 911.678650 -595.546936
279.170166 511.739380 -895.110352
247.888535 875.221741 -823.647522
285.431335 529.150879 -915.901062
305.605469 657.219604 -1363.316406
400.413910 930.175171 -1292.719360
315.671448 887.263550 -607.976379
172.239777 938.984985 -589.512390
158.629959 509.653198 -924.809814
228.802124 879.235779 -774.287048
253.599060 862.991089 -747.421082
315.066864 627.772522 -896.667908
449.924438 900.655884 -1305.947144
392.394409 565.916992 -885.526611
263.460815 884.027588 -688.672058
95.616508 742.726379 -940.218872
511.330261 928.726501 -1304.286255
167.885971 614.120056 -1384.233521
290.455719 686.911682 -903.931458
312.506866 558.244812 -888.818604
294.715057 599.226501 -908.656006
604.337341 709.446838 -1288.621460
273.756989 699.964417 -1371.388550
78.991318 518.061890 -947.393188
73.616798 631.970520 -955.171753
170.473801 591.876404 -1355.981689
321.894104 564.082458 -1382.737915
347.154419 537.278809 -1322.032227
429.789398 626.636719 -857.407410
416.869263 471.262329 -1344.045288
451.924011 476.743195 -1343.855591
590.504517 477.083771 -1309.674683
357.488708 536.506287 -878.478577
417.541656 497.569305 -885.989746
77.669807 529.084167 -1406.968628
195.860809 467.136536 -1398.758789
464.894928 694.206055 -1284.155640
119.031754 951.416382 -578.902405
548.018982 1015.333374 -1335.367676
190.064224 681.589539 -1380.434326
502.379517 622.695068 -1323.926270
284.744019 895.843994 -592.643127
297.450989 428.304932 -912.532410
88.029762 883.261780 -717.997192
192.062225 521.336975 -1412.220337
253.558563 874.431030 -756.730652
203.748749 623.420044 -1381.204590
256.714417 420.757904 -1383.942871
483.796631 675.101196 -1324.125854
146.942108 745.072632 -953.739319
356.768921 449.641144 -1348.228149
268.548859 913.387756 -583.866821
604.774658 718.792480 -1291.903198
208.430099 431.957855 -913.174194
475.331238 834.584167 -1361.399048
416.025940 485.456360 -888.736450
243.441940 890.680847 -640.623657
592.364563 653.662781 -1266.520142
230.978317 416.922394 -1373.874634
410.002563 522.407043 -1361.859863
-17.779417 577.217834 -842.412964
121.485771 499.684204 -920.433533
373.339111 880.720947 -667.045593
461.279480 640.561707 -1323.349365
470.098938 705.615479 -1334.626709
233.431778 493.924774 -1403.582031
103.964409 797.744202 -973.853027
188.683609 638.404541 -931.954651
214.741455 913.851929 -576.614563
545.004639 651.689209 -1269.201782
389.832520 376.968842 -1321.116089
123.171303 884.512207 -778.272034
451.666656 692.242249 -1277.776733
182.650513 543.760742 -923.511780
385.912018 638.770325 -1347.007935
364.355194 865.255066 -755.288208
415.825470 660.642944 -1320.310181
573.100525 581.741150 -1319.116455
575.032043 658.370300 -1333.553833
254.742020 639.025085 -1319.683228
264.873901 443.416473 -1383.896973
351.294952 696.315125 -895.280334
398.652649 637.934937 -1339.242310
405.224152 533.035645 -1355.007813
95.255684 491.237183 -947.207886
178.701141 863.055237 -786.512939
244.880997 819.798645 -1373.754150
534.729248 708.178101 -1290.550903
291.169037 603.606506 -1389.382568
295.454224 454.140991 -892.156982
313.319153 894.477600 -634.414734
162.149155 913.174927 -684.082764
368.739868 421.506866 -1343.024048
279.150421 897.817444 -573.104980
190.818802 461.577240 -919.234131
329.384094 536.826294 -901.332031
362.705597 863.008789 -721.042786
231.482986 504.753571 -1411.440674
75.268471 897.214050 -687.871521
76.646523 579.640808 -1418.905151
401.548340 636.767151 -874.623840
401.092346 417.016510 -1327.497437
244.257477 809.355713 -930.647461
393.402100 669.925232 -884.409607
393.628540 852.761536 -763.230835
337.387115 919.074951 -579.869873
237.263763 814.817261 -943.138489
407.608276 431.500702 -1323.072632
476.539520 452.265961 -1324.605347
270.628052 573.230286 -890.621887
516.692688 837.409119 -1337.352539
279.025940 550.077332 -908.810425
218.260025 743.772095 -933.479736
263.068970 884.167236 -652.478027
415.782776 489.524078 -890.978821
281.166656 527.898376 -899.988464
422.345154 459.014893 -904.195068
268.023346 789.652588 -1384.581299
180.421646 753.692322 -1424.560913
318.855316 900.173096 -579.068237
275.918365 564.233887 -899.864929
198.364899 723.137573 -930.970581
406.073486 635.699524 -1282.605957
100.120445 558.250793 -929.256592
246.884659 502.250031 -924.088196
304.636353 653.092529 -1376.698608
319.364288 889.635803 -596.036560
225.126617 659.228882 -906.128906
301.512939 880.174622 -685.702637
272.493439 354.156555 -1371.967896
245.003464 783.774963 -953.208740
87.580864 492.375031 -949.863098
227.114731 458.719696 -922.152710
350.272614 675.976563 -892.529541
398.537811 853.112183 -712.191162
405.401520 621.240479 -887.713867
133.348297 890.877747 -737.234253
118.815552 549.985779 -933.270813
605.649902 545.387451 -1326.275391
544.229919 589.158142 -1314.443604
405.326569 592.808472 -871.918152
366.112671 427.591553 -899.702759
368.006439 869.239868 -704.096191
515.276733 1015.564697 -1357.421143
566.879944 993.149841 -1345.011719
236.776611 650.168640 -934.043335
305.071075 467.098083 -896.065857
218.652267 565.517151 -1384.986816
303.469421 459.483063 -896.047668
174.546127 748.362427 -926.133667
436.002258 522.414551 -867.983459
551.540588 481.118134 -1321.095093
367.495270 478.481598 -1346.553833
356.901062 579.688171 -903.099365
286.798767 878.262146 -702.802856
372.410492 860.687500 -703.858093
175.207031 859.649597 -809.105713
149.281891 888.698120 -769.382385
444.983429 665.645386 -1304.565186
141.237411 697.591492 -944.917664
149.759689 965.388489 -573.600769
118.973930 519.520447 -940.433044
417.316498 530.671509 -1362.495850
435.594940 333.206696 -1325.553833
180.681656 494.082367 -930.362610
200.608505 594.299988 -1399.043579
392.017517 374.905670 -1341.010254
242.457962 594.353333 -1402.423218
307.155579 397.260437 -1366.387573
119.077194 583.135193 -921.462952
137.268433 563.732910 -934.816650
457.811707 403.552917 -1322.255737
196.497803 453.211670 -919.417480
418.438782 647.037598 -1314.992065
234.378479 580.398254 -1395.091431
444.045837 618.158875 -1352.045288
506.181763 708.844604 -1337.271240
539.102722 962.732727 -1369.007202
420.588470 591.081726 -870.317993
467.899689 636.249878 -1316.990601
403.152588 845.294983 -793.417908
163.587006 481.153229 -925.771057
103.690308 870.880737 -797.403076
136.794937 515.390442 -930.058838
208.113693 433.492981 -929.518005
190.186783 937.005554 -595.468811
375.081238 873.555359 -661.389709
427.764313 839.302795 -1349.409424
389.304169 753.828674 -884.412720
248.481445 686.789001 -1357.936523
322.221680 852.756042 -822.933105
217.583176 859.130188 -788.510559
333.026489 626.638489 -913.241760
529.676758 534.749451 -1331.308716
295.735901 538.925110 -891.463257
174.958267 563.496704 -1419.970581
283.326904 866.972717 -828.409912
530.180725 809.547485 -1353.011353
309.110352 610.210083 -1381.476074
168.484055 773.930115 -943.643799
267.121124 880.357849 -681.325012
351.592834 601.105408 -900.594971
35.352730 882.688782 -755.410278
213.327881 722.787537 -942.525940
284.016357 393.985718 -1373.973877
258.100128 490.152740 -890.014893
254.895935 895.866394 -629.051331
252.838287 835.200195 -958.805786
297.193787 492.686554 -893.147705
293.755920 414.821716 -1375.441895
493.626923 468.369965 -1318.483154
143.509720 475.362610 -936.965271
682.351563 607.188965 -1287.583252
318.037720 575.784363 -1394.954712
258.338989 942.586670 -545.094849
380.574646 555.422668 -875.138794
421.725311 408.567230 -1319.495483
95.806793 579.691650 -1404.277710
483.893829 458.789246 -1337.614258
418.235016 445.601044 -901.039978
515.932678 790.254578 -1323.276978
319.926697 497.691223 -1387.643188
335.684906 469.416077 -1241.226685
105.863388 893.791626 -676.618774
275.065308 916.914551 -894.144714
256.358398 534.261597 -1394.578491
151.958710 899.082336 -638.433960
314.076080 452.795319 -1371.470825
363.967102 633.460693 -1242.284546
333.912872 445.037964 -907.997620
301.283112 533.514526 -1384.582764
546.207397 635.206543 -1262.626587
215.622559 638.079712 -917.723511
109.673714 636.343811 -1361.917847
503.877716 387.983704 -1335.573486
75.967216 909.678589 -625.836365
184.414307 437.973572 -961.981995
352.205719 644.239807 -875.861511
146.266296 904.527954 -621.097900
541.797119 742.888062 -1311.331665
317.576233 528.346008 -1372.471069
494.721863 552.917786 -1331.826782
392.602295 894.902405 -1298.094971
318.215820 887.658691 -667.790039
573.091736 632.947998 -1255.670898
351.951294 885.043152 -624.279053
82.273361 715.581726 -962.946777
639.808655 600.793945 -1271.889526
186.233749 874.017334 -754.216492
269.041351 433.788300 -923.556091
-30.476179 717.279968 -775.112549
363.479950 532.728149 -1249.555054
405.599518 553.825928 -1347.516724
273.509155 742.573914 -903.448730
365.413269 620.604492 -882.502380
133.997299 514.851074 -954.338745
265.257843 481.464386 -894.667480
324.357269 868.941772 -743.617859
371.837799 474.631714 -888.024231
463.553497 638.647461 -835.494141
427.599152 597.441101 -1362.543579
130.897369 613.328247 -922.512146
50.450314 890.866333 -752.922913
97.054367 689.727600 -1435.970703
461.447723 647.942383 -848.714722
380.505005 845.126526 -754.676086
328.306702 448.246429 -1388.274048
321.615936 462.574982 -910.575195
517.135315 418.682770 -1324.789795
463.509277 673.465515 -1355.503174
153.814117 558.397095 -1376.831543
506.228699 400.612915 -1336.385254
273.433197 853.281677 -783.393005
405.048584 459.843262 -1344.243164
153.561981 564.207520 -926.732056
658.361389 586.718933 -1289.791870
267.357391 873.590271 -746.386414
637.201416 632.232849 -1279.005371
275.239014 887.883667 -621.646545
490.316071 525.506226 -1330.716431
399.427673 537.159607 -1348.522583
476.140503 495.211273 -1345.856079
328.636780 523.378052 -1382.195068
603.010803 720.456177 -1284.098511
281.497925 867.439636 -781.722046
350.830658 421.079346 -1332.648804
525.191162 821.093445 -1354.549805
80.926796 540.606750 -951.920044
495.296265 490.799286 -1344.190918
353.625488 658.027588 -897.390259
437.320801 489.341339 -876.685730
363.517914 431.166199 -893.381714
133.320129 936.010376 -596.891052
252.738861 430.573364 -926.032410
382.419220 346.944305 -1348.813721
353.185852 419.374969 -1354.124023
548.744385 453.887482 -1328.632324
153.691833 872.353271 -768.886902
296.621155 413.712097 -1376.613281
547.875366 439.337494 -1320.479858
475.363953 555.211060 -1347.149048
644.630859 617.013916 -1304.423462
250.607620 512.758118 -901.497375
207.722870 437.671539 -959.831787
456.512909 586.167725 -864.706909
311.537109 611.444824 -895.073425
380.896545 862.789856 -679.334290
541.432312 521.328979 -1311.657837
406.360168 462.687408 -906.616150
164.844498 544.335144 -927.370361
421.702087 356.838013 -1340.669678
610.052856 597.948425 -1291.462280
268.817566 593.777527 -1394.695435
369.272797 632.485840 -894.676270
595.249939 590.675354 -1321.740112
191.505157 448.513733 -936.730286
72.191917 903.951416 -665.599792
287.623016 617.931274 -918.866455
68.761482 553.471619 -941.514404
283.378540 870.916443 -741.554688
397.322327 537.737305 -1362.501099
301.831970 867.462341 -737.354919
135.730835 531.566345 -954.332886
348.900879 685.775513 -879.950806
374.113922 579.383362 -1355.108765
258.829559 911.694336 -555.519226
423.796692 531.183838 -1341.227417
394.558167 479.263458 -886.692688
399.762909 857.487732 -707.268188
380.385193 558.957947 -1353.675781
175.223694 880.123535 -766.758911
440.978455 526.080994 -1364.217896
119.099754 661.522888 -1399.520752
373.466797 480.874420 -896.130127
183.892380 459.314789 -921.439819
399.846344 447.836945 -906.328979
520.263428 871.479858 -1316.526489
403.467743 525.942627 -869.847778
386.699951 651.015808 -1248.087646
236.395615 901.895142 -624.314941
427.759583 678.130798 -1369.671509
481.073486 567.947510 -698.631104
365.529297 890.057068 -607.878601
111.641869 601.946594 -927.844727
416.595520 475.812775 -1354.191772
578.364563 483.492462 -1329.612427
406.597382 406.059418 -1341.063965
95.312744 907.446106 -627.580688
542.118835 420.289246 -1318.260254
415.887512 427.543121 -1336.153198
323.295441 475.438751 -887.107361
437.659271 625.914734 -854.286682
239.053757 665.443542 -922.995300
111.558861 794.100891 -967.966003
70.117287 904.371887 -660.602600
265.562988 813.197144 -922.313171
161.343048 923.029419 -571.698486
188.380569 489.113281 -1404.618530
136.893646 689.187988 -960.887451
220.203156 442.198242 -931.309631
286.484802 592.827515 -903.942505
578.937134 484.234283 -1315.006226
427.943268 550.161011 -1356.167236
542.000977 481.354034 -1310.860474
323.598083 769.069763 -903.529724
202.360321 573.409973 -1402.210449
321.642914 546.612671 -1213.376099
74.404457 887.091248 -703.423767
195.200439 748.430115 -955.222839
675.634766 573.872192 -1307.899658
516.981201 780.169312 -1334.268677
59.294971 870.734985 -783.797729
433.335480 674.175415 -1292.988281
302.440033 426.133606 -914.491577
291.541168 617.915161 -1396.432129
212.938690 780.082886 -936.569641
255.994049 392.930023 -1382.180298
255.040558 696.426453 -1377.103638
638.151733 614.130005 -1300.088623
163.756546 648.303284 -921.126709
107.690918 495.538422 -945.467957
206.952255 881.792908 -759.092346
546.038025 567.435913 -1336.183228
250.541138 469.413818 -900.227844
383.931458 390.315979 -1333.227417
124.144241 646.314758 -1383.277466
322.494965 466.496124 -884.768982
309.991943 872.717529 -695.441223
247.086609 717.065186 -925.942932
297.790039 777.003784 -905.101074
360.801697 871.361816 -667.029846
182.089493 900.301147 -625.545715
82.811623 900.680664 -661.515137
181.770752 891.723267 -688.499023
577.872131 547.359985 -1332.901611
326.508270 868.763306 -701.579041
204.352219 633.472900 -913.896240
69.990623 613.811523 -1387.310547
390.620880 854.652832 -754.399597
100.336212 724.623291 -960.444397
94.403679 557.312927 -924.072327
288.159149 384.957245 -1357.054321
234.473694 433.741821 -1374.004517
