ply
format ascii 1.0
element vertex 1380
property float x
property float y
property float z
end_header
-137.936508 874.332397 -843.294189
47.297020 968.495667 -734.483887
-101.702950 610.694336 -848.120239
-151.801514 554.713684 -1319.052612
-80.931206 925.173767 -1251.337891
3.499599 585.772461 -888.525818
-6.740530 778.692505 -1319.828857
-165.635117 544.443359 -874.180115
-151.233887 808.276917 -863.914673
-22.124104 1044.639526 -1332.769897
-137.551605 1245.893921 -1291.894897
10.901011 651.651428 -1349.892334
-13.563106 979.610413 -566.487793
-54.378605 973.297791 -630.995178
-127.955162 970.124329 -592.505737
4.217445 777.912781 -851.236023
57.946640 717.135254 -1344.892578
51.382107 951.324646 -737.642212
-197.344986 990.913025 -544.089355
-310.663025 942.580566 -682.094910
140.746231 800.528992 -1338.850586
40.760925 766.224731 -1352.090942
-85.842682 976.441162 -514.053101
-365.713074 978.077637 -1324.430542
10.873039 967.033142 -750.822205
-259.375885 655.994202 -1338.776001
-222.744110 598.269775 -875.625183
61.454739 823.352417 -859.364929
-253.677567 953.121948 -578.432800
-166.963486 533.868164 -1332.985229
-258.049225 562.169556 -1325.347412
27.233784 594.855164 -911.977112
-102.739067 975.508301 -1298.591187
-71.611382 980.061523 -1290.220825
-305.300323 975.965332 -1314.234253
-179.262894 538.279907 -895.512573
-94.572014 788.187256 -1320.962646
-216.500549 819.478455 -1275.406982
0.477225 672.332275 -851.999329
-252.027618 740.068787 -1326.989746
-95.761597 596.907043 -1239.936035
-205.629074 953.507568 -630.826904
127.054070 749.430298 -1359.306396
33.740780 638.806091 -877.450684
-44.828136 1218.872192 -1299.008911
-101.532654 535.389648 -1306.066162
-203.768692 550.446167 -870.188904
-53.308323 760.723755 -851.934204
109.668350 705.006409 -1346.552246
22.661764 729.313538 -1342.465698
-279.569153 833.476807 -1264.857178
-351.424713 648.094177 -1310.928711
-231.448044 938.590149 -725.882629
-120.061485 824.112000 -1297.926636
-274.546356 685.235840 -1320.760132
40.845963 869.593689 -1294.021362
-60.630760 572.955811 -1325.243164
-5.908135 980.258301 -591.003784
104.178467 780.190125 -1337.411011
-17.465578 868.097351 -850.216370
-307.350922 709.295959 -840.978333
59.902607 617.982483 -905.508179
-167.945236 992.306396 -498.322937
-368.828400 688.371216 -1298.931274
-235.767700 896.026489 -843.038635
-185.531128 914.539246 -844.093323
-105.985970 989.578003 -765.525452
-58.978909 733.393005 -1320.965210
10.911125 824.104614 -1300.620361
-138.458694 900.598450 -858.691040
-203.302444 931.177612 -841.597961
-332.111237 677.840271 -1305.544678
-203.099228 943.031372 -709.825684
95.285728 755.573730 -1344.676270
-27.108826 724.439636 -853.573608
-8.746803 984.512634 -511.535126
-209.093872 605.835815 -854.307251
-157.917999 629.863831 -852.698486
166.646759 708.313904 -699.890808
-118.768723 859.179688 -861.530396
-118.477875 937.866394 -843.593567
-207.517471 960.506104 -515.404968
-188.909363 639.245544 -851.675049
55.882908 965.028198 -732.508789
59.117104 657.555603 -879.756714
51.823151 637.484863 -885.881470
26.005125 976.944458 -628.795471
-136.620483 733.264954 -836.149902
36.373127 793.966187 -858.476379
-152.150192 666.649292 -850.983521
-97.173393 983.151672 -484.492493
-185.424942 886.206970 -854.650879
-354.695496 866.264526 -1302.656616
-54.732250 762.961060 -1350.636475
-136.259354 802.940918 -1249.026978
-121.134544 975.330078 -765.290710
-7.958389 751.265869 -864.946960
-185.315735 866.080200 -845.735718
99.898018 921.395996 -1323.043701
46.595200 652.458862 -873.772644
-184.039780 966.557190 -524.966431
-120.941811 687.827515 -1104.296021
-316.923706 638.400879 -1318.983032
-49.613647 778.400146 -1320.692383
-170.688187 656.244812 -845.251953
53.945602 854.772400 -1315.028320
-50.976917 743.525269 -861.123657
-66.017227 863.373657 -857.450867
-280.313293 786.325989 -1277.184082
42.339504 626.529541 -877.920471
-63.570248 872.807800 -850.005310
48.075356 676.077820 -882.470459
-232.591385 646.870422 -1326.559326
-38.560680 977.220947 -611.437622
-0.872232 601.703918 -892.073792
-129.010391 668.975159 -1315.992554
14.448037 809.991455 -856.628662
-314.289124 701.770386 -1316.579224
-186.395844 821.139221 -846.922791
-21.404448 721.737366 -845.844971
-70.382713 1026.798706 -1311.436646
-61.008076 893.843323 -1255.328003
90.563713 747.260620 -1357.638062
-113.677147 850.511047 -837.854004
-25.512213 980.764282 -532.379211
61.804207 971.178162 -705.337280
-15.073341 977.906006 -641.950867
-287.623718 837.723206 -1280.492310
-137.882889 788.588562 -1194.988037
-249.364883 641.456909 -830.705078
-212.954102 876.742249 -857.762329
-270.949799 565.450745 -1309.230835
-103.416161 626.344177 -1321.255371
24.871691 663.568909 -878.156128
-74.652931 901.056091 -861.503906
107.983032 810.840942 -1290.112427
39.555019 962.278442 -725.859680
-53.532513 1000.791992 -1328.703857
-96.132446 1137.380981 -1230.294312
-40.722343 1056.087036 -1298.646973
-86.905426 822.247314 -1251.199585
-30.069048 705.649414 -854.980774
-319.197540 760.402344 -1302.539673
-52.659737 977.806580 -581.451599
-21.681164 674.690491 -1351.467285
-259.354889 958.605225 -621.183167
12.740515 703.226379 -882.056458
-121.780937 800.895630 -860.592163
-71.132942 733.761169 -1334.742188
-155.313614 972.122437 -646.861511
70.524933 698.287476 -879.906067
-158.946518 777.195374 -852.158936
91.148979 905.916809 -1321.234985
-51.032764 660.804138 -1349.880493
-297.951477 778.863892 -840.323792
-137.368958 972.711426 -740.110901
-153.509674 800.969482 -1225.412476
-171.570892 978.324097 -561.445129
-106.628616 512.602722 -1342.053467
-42.304211 606.627686 -1341.953979
-303.306702 763.184448 -1316.417236
-60.865601 619.354797 -853.193481
-0.494039 939.360413 -1307.172241
-100.098129 962.593628 -590.701843
-230.404770 808.127380 -843.482727
-63.943172 769.908875 -859.228027
-162.814667 607.994629 -1324.096191
-207.351486 798.620361 -860.857483
-25.936911 635.788330 -857.657227
-12.612854 967.631897 -688.915771
36.700974 777.696411 -870.030212
5.451452 801.971680 -857.108643
-167.261230 938.597351 -704.839172
-152.718033 477.313171 -1328.971069
-34.433205 636.639404 -1339.739380
123.555412 876.489563 -1338.595947
-136.573151 977.333679 -541.057251
-187.478485 1195.361450 -1265.188110
-155.783325 696.361450 -861.613831
-29.986696 555.811157 -1351.772461
48.800049 580.356140 -900.759705
-260.822174 731.550110 -1298.701660
-148.741745 834.688721 -1169.039307
-57.872810 972.453979 -683.498108
-30.356653 1040.339600 -1217.509155
51.564808 743.916260 -1343.835938
40.219463 990.154419 -643.673950
-59.535133 694.251587 -857.204529
21.216141 983.623413 -560.102844
-63.554745 506.335266 -1346.482544
40.531784 588.778503 -1348.875977
-90.661003 656.722839 -1203.446289
6.961111 1008.239014 -500.093994
-210.904114 635.470947 -854.033997
170.648499 795.124695 -1341.953979
10.561377 963.135559 -729.560669
74.520332 631.968750 -1363.080933
-148.284698 634.455261 -1330.444214
-39.489170 960.305481 -1303.902832
-232.387329 658.722900 -1308.649902
11.970803 867.606873 -1311.954956
-179.124359 989.939636 -469.334930
-21.574215 706.671326 -855.613525
-235.012192 601.811523 -849.581848
-61.453209 854.711609 -1249.870972
-53.767109 613.069031 -884.789490
-253.111328 561.346924 -873.674683
-23.378834 749.717346 -857.542480
-385.801178 638.781982 -1291.897095
37.361782 602.657959 -903.059631
1.668314 859.755066 -847.120239
-29.466270 574.627930 -904.341980
-125.210510 492.438507 -1341.698975
47.803631 788.267090 -870.465759
13.875685 965.681396 -682.485229
56.603458 967.552979 -674.155945
-161.473816 991.868347 -530.064636
-219.992569 702.983704 -850.332581
-216.149826 643.106323 -872.252380
-273.039642 728.957397 -1316.413696
65.708160 621.548645 -914.606689
-101.679710 672.999939 -1212.794678
-177.949265 559.291992 -879.563049
1.079765 972.591309 -630.731384
-98.948784 741.067993 -1212.064209
-102.343826 702.092285 -865.781128
-230.765961 965.416260 -565.499817
-205.755615 963.746704 -571.248535
-207.655075 941.362305 -715.389893
-152.797562 699.560791 -1298.455200
-300.731659 792.676270 -1290.622681
-15.394978 691.663818 -875.210327
28.082870 843.666687 -1322.051392
-11.848645 986.319153 -492.667267
81.877304 832.533020 -1270.301392
-47.036148 608.294556 -886.439392
-39.137642 867.552307 -866.246826
27.406527 731.861023 -858.815430
-262.549042 639.693970 -836.354309
49.778229 977.985046 -630.836182
-2.462419 584.603577 -882.725891
-87.379311 1044.913940 -1321.196899
-284.990387 826.529297 -1284.168213
49.373295 991.117859 -620.308655
154.034805 793.198853 -1351.793335
44.349831 886.139587 -1277.701050
117.522774 696.542419 -1349.600708
-255.458771 956.099976 -584.477539
-173.979553 971.861755 -619.780823
-54.303764 973.680603 -627.766479
118.929504 815.668152 -1309.349243
-61.130775 518.966248 -1340.896851
-161.407547 971.867004 -619.218933
-8.075535 972.412659 -641.088196
-22.826281 1012.144897 -485.217163
-10.912576 822.231873 -842.171448
-94.093155 817.912964 -847.054199
-215.626602 963.256897 -684.517456
-230.670746 668.045349 -848.710266
-212.895111 943.273621 -719.714355
14.444139 666.662109 -857.458008
-41.089733 527.275940 -1335.295776
-60.504189 872.004333 -841.194641
-73.374413 663.533813 -1324.178711
111.138512 767.235291 -848.881287
-4.188743 971.452271 -654.590210
49.078426 799.627808 -870.353638
-186.214188 975.215027 -549.500793
35.034077 729.905151 -872.580139
-203.446259 958.567261 -623.547241
104.585320 685.095154 -1358.729736
-67.477348 814.791565 -1336.568726
-3.899145 606.430847 -1358.109009
-172.429703 875.107605 -1221.045654
-231.441452 969.626465 -578.825256
96.654175 846.852844 -1299.168945
-1.871636 689.821106 -861.367249
-59.142471 645.375793 -1354.649292
-259.896210 554.699890 -1313.537720
-168.499237 997.049438 -460.065552
55.779316 733.502563 -869.517883
-278.500793 934.495605 -671.004578
-253.335373 832.228821 -837.617065
118.005074 868.480774 -1289.916260
8.145971 953.843445 -722.959106
-100.464684 570.462158 -865.336304
-1.456621 1004.996826 -500.708954
-180.568695 699.967224 -1332.840210
-102.784119 964.243164 -727.033813
-52.083946 571.922363 -868.902649
-245.594604 918.822571 -1202.414917
-148.956589 693.575867 -1318.854858
-128.124771 953.621948 -665.975952
-149.226974 978.730957 -553.371765
-118.658913 985.091003 -836.399353
-185.637939 834.448608 -848.118286
-267.933411 942.289673 -664.966309
2.011906 964.026306 -636.287537
-89.096397 672.669250 -846.515503
18.585253 695.776978 -1349.576416
-160.387177 990.422058 -538.038086
-132.912170 971.906921 -724.804016
7.264422 975.983826 -642.538940
-187.632614 971.371216 -500.256226
-96.452400 963.189148 -1319.529297
-106.386391 630.169739 -1318.243774
-203.060410 659.174194 -853.014099
-152.041962 557.784973 -1355.888306
-72.449539 1028.865112 -459.893463
-122.596764 652.060852 -859.527893
-75.876099 482.247009 -1334.472534
97.739693 783.528137 -1324.506104
26.017696 688.870056 -1342.985229
21.887394 629.689575 -891.195984
-266.708069 720.197388 -1318.844360
-360.882416 629.415833 -1308.756104
-196.340286 945.281555 -670.020020
-53.418625 966.004333 -721.440125
-9.392867 605.122742 -892.656799
-122.072411 575.924316 -1320.577515
-164.183578 587.809753 -1348.807617
-297.312714 888.810425 -836.673828
-55.174988 854.398926 -1242.987549
-208.453949 971.507935 -553.010925
119.133987 724.563416 -1345.140747
85.947556 647.676147 -1347.602417
-316.390320 708.472107 -1294.493774
-81.433220 665.626587 -1286.222412
76.185234 648.531860 -888.113403
2.104219 699.234009 -1343.075928
-197.818069 962.787537 -615.958557
-226.149033 566.783081 -874.414063
-11.669620 977.557678 -608.925415
-190.066940 967.778687 -667.367188
-98.430634 752.451355 -857.225281
-120.538055 558.126160 -1304.766113
-334.324524 617.543884 -767.488708
132.034210 778.385742 -1342.707886
-187.178223 963.011169 -535.544922
-52.406513 528.920532 -1344.713989
22.620205 580.133057 -1348.234009
-285.717072 963.600525 -526.969666
-14.666203 839.896606 -869.148071
12.801055 847.752136 -1286.199219
-59.582478 972.936646 -645.623779
69.356056 763.646667 -1345.541504
114.484947 748.851990 -1343.677979
-154.484650 506.424225 -1337.755127
-240.838257 948.927551 -684.134216
-192.080826 984.904419 -469.785828
30.448599 990.719910 -539.194702
-225.992828 610.871887 -855.943237
-21.563595 810.623718 -1326.972778
-80.650459 713.497375 -1340.364624
-156.542587 965.921021 -688.309692
-213.178162 672.082520 -861.880188
-25.988663 862.199402 -1318.041138
96.905617 804.621887 -1323.391357
-72.345970 973.743713 -732.286560
-53.984962 956.647827 -862.561279
55.063988 790.915833 -1341.155518
-36.834999 1022.678345 -1303.565308
-59.272125 973.302124 -633.565308
-26.835440 750.672363 -1345.605591
-87.126503 593.968689 -866.859253
38.662067 893.083008 -1327.127197
7.360268 849.801025 -1266.554443
-26.254578 517.845215 -1351.088989
-144.501846 977.430420 -727.471741
-43.033195 711.967163 -1323.657227
-193.352020 895.029541 -1210.624146
139.191895 827.926636 -1285.401367
-225.081528 956.375977 -533.321716
59.488972 679.622253 -1346.534302
-32.864449 956.610718 -854.890137
-18.808342 806.425110 -1337.580322
-196.099411 892.253784 -842.603699
-157.174744 598.318604 -1354.164307
6.313559 816.348267 -1324.666992
-219.394943 854.512939 -1271.212158
-2.598483 640.484497 -871.469727
29.477394 803.679504 -857.423706
-147.452164 639.603149 -852.489014
-278.069855 783.553101 -1286.913086
-82.751259 951.522217 -1325.134644
15.436545 770.262573 -1348.600098
-269.565125 661.883728 -837.214966
-97.119011 858.638245 -1276.845459
-108.094551 982.125061 -570.350586
34.414745 681.208008 -878.150024
8.323993 556.703918 -1358.333374
79.592293 907.812683 -1319.832397
-70.307953 559.070618 -886.416199
-189.668884 577.714111 -848.632263
-55.908413 639.496643 -1347.259888
-12.290215 603.435547 -1332.944946
-284.684235 939.330566 -591.283142
-196.411911 960.910950 -543.954834
-159.400299 557.936340 -1332.272705
-222.408234 543.568970 -879.664612
-37.687553 963.693176 -741.795776
-94.339294 781.475464 -863.667908
26.148220 579.179749 -899.416016
-101.041740 691.789490 -1252.657471
-235.409027 712.424072 -1323.030518
-76.295341 813.025391 -873.456787
-102.472954 896.123657 -852.042053
-85.517624 983.992981 -761.156982
109.424171 845.117859 -1269.125488
-67.254929 982.247009 -497.255341
201.580109 835.047729 -1341.851440
-221.644821 949.537231 -725.654785
72.023308 795.210571 -872.999268
-422.163208 700.810181 -1292.860352
39.603745 980.724060 -567.746277
-63.378151 1006.497559 -439.649353
-132.722595 536.439270 -1356.966675
-98.998482 864.845703 -1305.498779
67.697334 651.554626 -886.183960
-274.224152 817.072083 -1226.561646
6.152333 1029.924072 -1303.042969
-286.177399 745.062317 -1294.294922
31.590000 787.899841 -857.801575
-65.573082 953.330627 -732.415955
7.343551 983.608765 -552.044067
-2.142812 762.577209 -1336.034668
86.709534 693.881287 -894.269775
-121.820244 1206.120361 -1298.574707
-77.331390 986.262390 -454.959167
-180.006409 1003.602783 -461.847443
-237.910675 971.936157 -485.303711
-250.545578 553.050659 -862.638489
107.675743 749.209656 -1345.589111
120.389481 736.729370 -1357.483765
-51.894646 976.717529 -640.374756
64.246544 657.948364 -1352.600708
-376.621399 630.367859 -1296.854858
-172.876343 739.775269 -1254.687378
38.341515 747.574463 -872.005432
18.346643 973.016113 -628.501221
-89.619408 979.957336 -574.314880
-125.324471 569.221008 -876.657471
70.611908 609.263123 -900.223022
64.834679 867.187744 -1290.970581
-13.275779 979.574524 -600.461426
-138.461578 967.696045 -754.829590
34.961643 973.379150 -642.933960
-100.919228 514.011963 -1331.966187
74.086258 590.842407 -903.631897
-12.582608 853.413269 -865.614807
-110.054970 1003.565002 -1290.258667
-3.556509 977.161377 -628.598511
-215.186874 629.252136 -1328.171875
92.178574 825.382690 -1309.245728
-126.091278 1084.612793 -1221.022095
112.794662 717.795044 -1358.141968
-223.172577 959.959717 -537.456665
-130.988800 559.348633 -870.471863
-45.629829 709.988831 -1350.003174
-4.907897 667.426331 -854.567627
36.083359 647.593506 -881.636169
-39.262825 984.776978 -489.717224
-239.295074 967.001404 -575.956726
11.904675 990.402344 -512.115051
-72.611427 846.452332 -1222.962402
-147.593948 648.805298 -1302.676758
-305.898315 682.682007 -1322.941528
-131.943970 970.272461 -664.936157
-202.007507 697.722595 -1288.552124
-130.515411 664.285889 -1295.173706
14.129630 985.280579 -527.979004
-93.014755 953.913940 -712.704651
-105.014763 766.649109 -1304.483643
-126.207993 484.306274 -1339.570923
-90.857674 816.835266 -1326.345459
-249.777435 613.095581 -1325.574341
-37.209366 952.938171 -736.231079
-241.061691 947.128052 -626.241272
-254.630615 613.543579 -1344.862061
-140.038254 970.438049 -735.986633
-278.127502 789.632935 -841.454895
40.660740 620.239075 -1357.843872
-194.885834 732.405640 -1311.576416
136.423111 750.848022 -1357.208374
-46.521061 996.835754 -1325.101074
-435.884613 712.341553 -1303.297852
-174.131210 721.783630 -1311.774170
-82.062363 974.840820 -669.107422
-28.711149 985.903259 -599.752869
-253.452271 641.272888 -1323.620972
213.592422 847.842224 -1333.696777
-206.360016 722.229675 -870.830627
-33.655674 992.870483 -468.263550
96.490997 678.506470 -873.981689
-92.929649 955.780762 -703.572571
-177.603104 869.287354 -1189.385254
-173.408707 971.776184 -607.423645
-85.689964 734.798462 -1347.409546
-226.628204 678.684814 -843.441345
119.740906 806.392883 -1329.267456
-165.242722 735.640808 -1310.934814
175.339096 685.423401 -780.136963
-253.584030 954.879639 -560.404785
-155.634018 538.185669 -1321.044922
-145.226624 683.814697 -837.022034
24.807409 846.716370 -1302.649536
-127.156494 791.115662 -850.431519
-12.653318 595.152161 -884.158752
-125.827423 909.717712 -848.279968
-96.848412 844.962036 -1325.968994
-218.707901 829.660400 -859.459106
15.090505 766.831238 -1346.355347
-111.542946 656.671692 -1245.904541
16.558874 637.569519 -1346.236694
87.361755 751.533447 -871.066345
-116.219826 966.667297 -556.530273
-32.213661 977.551697 -648.802002
-248.334015 561.963074 -902.878662
113.649109 781.113586 -1323.101074
-390.622803 709.748901 -1309.253418
-258.714355 854.575989 -866.396423
11.677271 747.494507 -847.609253
68.386696 665.451172 -890.599976
55.156204 617.598022 -892.358704
-175.657135 772.008545 -844.031189
-111.552521 975.306885 -622.916626
9.719264 879.884033 -866.426453
-108.791565 556.733887 -887.353699
-85.139755 973.224915 -625.569397
-108.542091 674.774170 -1330.651855
-76.550789 717.498230 -1324.499268
-127.422585 608.782288 -1334.189941
53.892063 646.835632 -1334.703857
-32.927715 570.327087 -1354.080688
-197.506592 733.925964 -1319.981567
-91.831314 844.512573 -1310.255493
-202.917709 814.992126 -846.823547
-24.283340 609.239746 -1345.199097
-213.804016 961.598877 -642.046082
127.606743 894.244385 -1338.755493
-119.923973 968.249512 -752.416321
-147.567307 543.326782 -893.340820
-116.044563 571.265991 -1354.845337
-31.663557 971.856873 -613.470032
50.562782 837.483093 -1306.475952
-129.212875 765.434082 -1181.974365
-208.797836 963.857910 -561.769104
-174.618790 987.190247 -500.027252
-233.789810 654.785950 -869.834290
-34.452900 627.074158 -1347.502075
-135.035461 671.038391 -1228.917725
-31.445511 794.260498 -1342.816406
-301.689056 794.875732 -1247.620728
-152.515701 975.221924 -737.762390
22.983084 858.841125 -1274.524292
-151.959198 789.490845 -852.377502
-105.186440 527.933533 -1358.711060
-157.226883 620.816040 -854.132813
52.041336 608.580261 -926.755737
-47.314281 946.313049 -854.030884
21.315081 636.446716 -872.825195
-326.512695 675.992493 -1309.767212
-21.571468 613.886047 -888.534180
-250.154404 698.712524 -845.226807
-65.599335 650.626221 -846.257080
69.364670 981.799866 -701.146118
57.826382 652.900330 -871.943420
-237.791397 602.887939 -1347.005127
25.267435 978.602417 -682.778259
-182.080078 724.851074 -1327.350464
-283.494659 713.763306 -1196.853149
80.147964 637.610352 -920.382202
-195.987717 971.777405 -513.957703
-35.779682 962.055603 -693.155212
-181.672623 805.853699 -1305.366821
-221.150604 778.601318 -1328.940063
-167.147598 641.197815 -1325.862671
8.216660 973.558716 -633.820801
-47.202206 667.947693 -1341.263062
-222.337631 847.952942 -858.968262
-89.729919 974.358154 -679.859558
-170.755676 723.549622 -849.820679
-19.005156 1239.194458 -1299.602661
-94.608093 533.847290 -898.991943
-211.533188 964.309937 -547.937500
-45.660488 567.141479 -892.892822
-92.671432 503.662079 -1341.968018
7.452755 718.649048 -866.500122
19.440985 964.983765 -626.162659
-110.401649 971.791687 -591.055603
-174.822571 960.061890 -737.249329
-39.637035 643.796875 -860.542847
-156.656174 883.438416 -858.421692
-16.383429 647.849976 -862.728516
125.847046 746.300598 -1332.117065
-14.015404 616.452393 -1344.868530
84.069115 706.949463 -1334.868774
-9.530989 890.228394 -1298.253906
-111.848915 689.655151 -1319.078247
-131.401901 528.659790 -1336.582397
-397.576019 661.592712 -1284.511963
90.462013 720.120911 -878.267761
12.692503 978.765747 -599.757507
-333.227905 925.933472 -1294.427368
-195.064987 980.526672 -485.579376
-139.674362 966.748108 -725.652954
-66.404610 775.309814 -869.730957
-167.843872 975.409119 -579.518066
49.498562 863.235657 -1289.271729
-115.097969 552.479187 -1336.998169
-103.436440 1012.017578 -479.567993
84.381020 677.474182 -875.798035
-206.140503 949.083862 -633.310364
-65.937241 731.352600 -1336.403320
-109.465042 971.106995 -550.719482
-188.771301 724.686462 -1323.299072
-265.318848 946.907410 -614.959839
-204.780060 960.284058 -625.604065
-14.307859 595.965637 -1343.413330
-118.600296 1076.581299 -1223.806885
-24.103182 731.820374 -1340.162720
32.810192 636.810303 -1348.141602
-148.925308 969.006226 -698.803223
-406.167603 832.236145 -1295.046143
-197.588669 971.239624 -543.448608
55.221668 957.787964 -699.846680
-252.147217 950.715698 -647.287598
-182.265869 583.654114 -849.792908
-217.885422 958.442993 -569.135925
-103.875381 968.931763 -632.020874
-180.638046 699.756226 -836.828552
36.894501 587.503906 -1337.859375
-92.088692 982.221008 -771.532043
145.354996 750.761292 -696.294495
-91.931557 522.788391 -1325.200195
-32.130020 970.276733 -1299.514893
-21.249544 971.379089 -600.925110
-206.907883 606.673523 -1328.779053
-90.679733 968.284241 -555.422852
-44.472134 968.667053 -567.823975
52.949345 646.337585 -869.837097
-355.094849 697.719543 -1263.779663
-196.995789 818.940979 -830.190186
-107.069527 779.200317 -1299.939453
-67.981277 694.671204 -1337.789673
-163.106964 789.761902 -871.346802
-55.405479 540.840942 -1331.641479
-81.953636 973.145386 -725.593201
-143.357132 978.194824 -524.941406
-83.163788 535.451355 -1313.918823
90.782623 622.607544 -903.632935
-125.620850 758.261902 -1186.919067
-162.599091 959.051147 -600.111389
-136.368576 968.811890 -542.076111
20.428307 743.287598 -1341.765381
104.997925 760.370911 -1342.417358
47.257961 684.351929 -1346.126709
68.003670 778.845215 -1337.705566
-100.104218 971.633789 -675.551880
-154.123901 624.769043 -1300.832153
-152.303665 963.680542 -620.957458
-173.786179 655.346924 -1325.645142
-268.032227 559.333435 -1312.307251
-226.114716 971.719299 -498.278778
-230.209167 576.237793 -863.683472
-277.280792 878.307129 -847.479675
-98.751129 628.829407 -1318.598633
-47.897953 980.332520 -549.601563
44.195160 607.849670 -1363.429932
82.691544 840.901794 -1289.826904
-11.421976 742.990662 -1340.083984
-331.162231 642.225037 -1317.246094
127.461838 816.569946 -1320.580444
25.601746 660.514099 -1350.568359
-96.137741 564.448486 -1291.313477
-41.052158 696.297485 -864.405762
62.169701 851.871033 -1299.045288
49.913837 751.851746 -1348.676392
-197.761398 919.273804 -843.854004
-145.490387 992.327026 -479.345245
-209.515503 957.761230 -737.350281
25.596445 969.021667 -661.601257
-101.052971 983.443604 -486.147003
-70.832344 563.178162 -885.628418
-389.399475 879.207886 -1299.741577
-275.217499 637.092590 -1322.573730
-178.712601 976.344666 -570.972351
-20.711260 594.412964 -870.441772
-9.023832 675.091736 -866.868652
-110.219955 544.250427 -1332.289429
-237.889786 772.933228 -1307.599487
-73.169464 972.733032 -595.738708
-49.312241 610.494141 -1329.454102
23.787386 970.184753 -687.158752
-249.713455 752.185120 -857.256226
-300.317078 942.952087 -653.285461
-43.891697 978.786987 -562.980591
-389.302368 940.430115 -1292.162231
-427.799866 739.212646 -1290.100586
-189.557236 995.891968 -432.571960
-108.109261 597.006409 -858.667175
79.038956 635.934265 -920.976318
-224.317383 974.949280 -531.856079
-122.654442 526.493286 -1325.695435
-157.875626 970.695496 -633.853027
-58.829350 975.020203 -530.557861
-185.531647 964.322327 -576.504944
-47.323162 939.916016 -1329.585083
-285.168762 745.979065 -1305.781372
-59.154625 991.934326 -512.642334
-15.529176 643.731323 -1328.492432
-314.901001 607.675659 -1302.109741
-191.857681 969.453674 -651.667480
-291.740204 728.196838 -843.431030
-310.651672 703.014648 -1327.509644
22.405607 862.897949 -1305.648560
-309.820282 807.115845 -845.015503
-235.845215 956.605652 -518.424500
30.819061 620.546997 -1349.054443
-179.749023 961.209167 -604.785339
84.792053 747.283508 -1344.293701
-137.427704 707.668457 -1223.241333
19.035368 574.837708 -890.164490
-73.887558 958.421997 -655.978027
-369.990204 1008.943420 -1291.970825
-212.497818 769.173523 -859.363647
94.708260 842.345398 -1339.329468
55.781586 981.167969 -651.007874
96.498146 742.573547 -1358.142334
-211.131943 569.132202 -866.946838
-241.645645 958.677979 -531.271484
1.811492 1005.612000 -476.787689
-330.801483 588.822693 -1301.596313
-13.098559 809.841125 -1334.415405
48.634758 728.549561 -867.347656
-368.022888 888.168823 -1298.456909
-273.549683 624.319214 -1323.232544
-251.627014 750.059082 -847.227112
-56.636177 998.204834 -489.619873
13.245935 979.287415 -650.251831
-264.457153 778.653320 -837.823730
60.024811 814.850220 -1322.961792
56.472378 971.473267 -642.396729
-371.671570 701.154602 -1256.978271
72.778992 628.243958 -901.066162
-124.045761 678.886658 -1311.000610
13.660996 980.583252 -536.581360
-180.028000 789.379944 -1282.838379
105.040642 927.758789 -1322.805054
37.124523 734.881897 -1328.156616
-142.411011 676.676758 -855.600281
2.139681 618.944092 -1351.806152
-266.251740 665.152527 -849.224060
-41.074776 971.514160 -1323.010620
3.318573 985.389099 -762.915833
16.144539 583.899536 -899.344849
196.980377 861.010925 -1340.647217
-207.657867 820.512207 -859.894348
-25.289520 993.023132 -512.267944
-5.768056 985.933044 -765.232300
168.330444 849.080688 -1338.971558
-22.742044 982.640686 -504.498322
-26.735432 640.318115 -1330.143677
-190.754807 574.441040 -863.839172
-256.155090 986.054565 -499.762848
-259.020386 653.597961 -1307.710938
-103.880920 615.151978 -866.409607
-183.219849 965.829468 -542.625366
-241.828125 676.026184 -840.296814
-95.953880 983.049744 -526.160278
-136.926208 957.111633 -626.298645
-49.162193 637.524902 -878.114563
-177.080627 750.242371 -844.412537
174.128113 694.656921 -730.045410
-114.791603 896.479126 -842.835938
-266.709381 762.853638 -1291.462646
-28.696089 1214.694702 -1284.392090
35.390949 790.894287 -1341.203369
-229.738022 675.000549 -849.482605
-65.814384 574.118958 -1331.187988
-323.974701 988.413757 -1316.167358
72.971954 817.818848 -1320.587158
-64.726196 791.559326 -1342.564209
-222.879913 615.080078 -1343.351929
-333.828827 947.912109 -1315.270630
-233.718155 704.724609 -1320.915405
39.149105 595.873535 -894.155151
-69.646889 712.241394 -1339.045532
-89.269409 671.719910 -1314.122192
-269.609772 958.339172 -546.546753
74.357040 805.713318 -1267.081421
-226.508575 572.202637 -1313.286743
-158.605347 966.063293 -686.061462
-80.673416 669.963684 -1323.519165
-100.223091 869.042725 -1327.117432
-174.735397 964.889893 -699.756104
-263.216675 950.417603 -642.913513
-156.214371 974.381226 -655.409058
-237.464081 959.607178 -619.169373
-96.510994 737.172119 -853.976868
65.851036 894.530884 -1309.713013
-141.391144 984.794617 -478.802246
-205.573410 538.960388 -897.774963
-72.180122 969.745605 -595.016724
-291.286285 821.213989 -1124.663940
-54.763805 689.784424 -1340.392944
-30.233137 676.370178 -858.040527
-108.086060 965.155212 -634.434814
121.674179 759.973328 -1345.203369
57.136753 576.533569 -919.029480
-182.715302 985.627930 -501.579803
-223.784714 610.248779 -1328.873047
-74.052780 690.436218 -872.779175
-254.446671 895.316467 -847.161560
-76.944031 726.974548 -1345.286133
-301.126678 953.146667 -612.485535
-349.615173 684.705933 -1302.136353
138.574402 741.554077 -756.850830
-56.744217 976.693542 -531.546204
-6.267071 756.169556 -858.756104
-200.937866 975.254150 -545.988342
-108.809654 988.207275 -471.719421
24.214922 959.216797 -720.156128
-175.408020 962.824768 -736.590820
-273.972900 691.879150 -1303.245117
-38.777172 1021.481140 -1332.104614
-123.385628 622.492188 -845.753479
-8.142516 1024.414429 -478.960144
-76.950310 752.198669 -1318.990967
-136.858887 760.793396 -862.361206
29.479685 966.961914 -727.231567
-109.348640 852.894409 -1236.844360
-309.181732 685.170410 -848.027649
29.885502 738.923523 -865.369568
184.117477 804.129761 -1351.462402
-108.805840 699.160461 -856.951721
30.118841 989.161560 -550.459412
107.098083 818.023254 -1247.062378
18.050854 731.705078 -1331.517456
-236.975693 701.487244 -849.663635
-35.267746 676.457092 -1348.196533
-75.483429 544.229675 -1342.291870
-116.964241 562.119934 -881.493896
-292.553009 900.691711 -1309.899048
-166.052612 974.364319 -545.637451
-175.307251 978.625488 -478.182220
-162.433289 905.901978 -868.395508
-214.849075 856.444275 -847.558411
158.050079 787.344421 -1346.054199
34.061111 694.042419 -856.073303
-277.514618 788.275452 -1283.325562
-277.746368 942.758972 -622.395325
-78.810860 969.252258 -688.742554
-182.472580 717.492615 -836.194580
-25.890079 1044.891357 -1323.157104
-144.382217 885.251831 -829.746216
-12.249692 525.927124 -1338.147217
74.267586 842.697754 -1269.022461
19.016157 615.981750 -894.822876
49.582554 585.167419 -899.965271
-136.175369 1011.118591 -452.237976
-45.128922 540.400696 -1346.193237
-34.072598 668.802856 -864.730164
116.565910 899.495239 -1319.370117
-346.177582 725.212830 -1292.122437
-191.160431 675.535461 -1329.647095
25.655886 574.339722 -898.361267
3.039200 1172.953125 -1303.727173
59.230175 897.204712 -1295.987915
-95.194878 859.763062 -849.354309
148.637375 865.955200 -1330.776367
135.842651 771.159119 -685.109985
53.557491 684.036011 -1358.384399
-357.643097 691.497314 -648.430664
-171.117264 993.481689 -484.791199
-359.290771 952.743896 -1313.717041
102.623413 906.662720 -1320.177734
57.662369 761.068176 -1340.893066
-316.401031 746.360657 -1240.085693
-148.432434 970.018494 -757.159424
21.469645 978.615112 -598.338074
-195.782471 941.544617 -697.940918
-22.920698 531.264160 -1346.965454
-3.624358 974.587646 -696.580017
-216.530060 940.730835 -1239.232544
-316.053070 769.884583 -1269.614868
-146.776291 561.435791 -867.517883
-135.153320 966.645996 -545.179504
90.646568 696.884338 -876.992676
-175.221664 983.120178 -465.832947
-118.248238 960.485718 -639.860718
-288.543121 750.417603 -1303.547607
-382.135132 898.051147 -1300.788452
-0.116861 865.258240 -863.993958
140.495941 817.163757 -1335.718506
39.550804 814.493713 -1324.729736
-376.483276 693.658875 -1255.112793
-122.199944 633.076477 -855.077759
138.112778 787.835754 -1350.918091
-219.845306 808.442749 -1220.682495
-173.035431 728.122864 -851.501038
-200.419281 617.436768 -841.537720
-33.170948 587.093018 -1351.386719
0.737693 975.035828 -630.446716
-232.593643 874.183228 -850.741272
-276.623871 817.945679 -1249.007446
-133.370209 727.258484 -1314.116333
-312.055145 792.264648 -1245.942871
30.429533 857.688049 -1287.788696
-89.649261 539.157166 -1336.966309
-105.392960 977.298340 -747.010925
-177.313965 702.533691 -850.598572
95.289436 801.624878 -875.229187
-232.763367 953.411560 -742.506470
-24.952368 815.301147 -1336.047485
-297.020172 769.354919 -1293.335083
43.787079 641.737854 -1331.319458
-210.535522 637.734375 -834.855042
70.352127 701.802002 -1352.511108
-174.278030 764.454468 -853.459900
40.383846 970.492920 -679.806091
-132.055573 618.394043 -843.534058
48.529713 630.669189 -878.286438
-322.392731 617.512390 -1303.332275
-137.232513 551.688293 -904.003662
-78.092430 969.507446 -618.513977
65.611237 845.327087 -1316.599731
4.330202 556.703430 -901.609375
-105.602402 987.820435 -471.343018
-298.874756 881.965881 -1289.288574
-132.191071 832.720764 -863.714417
-45.961815 993.284790 -1324.767944
-301.194611 780.751831 -1272.571045
-161.227325 548.830505 -879.090698
74.512115 595.809204 -918.915100
-31.573566 845.743713 -1270.065063
-115.546265 976.172180 -511.971924
-284.183533 624.997925 -1323.776855
-79.336365 826.767273 -1283.360840
-195.107513 528.839966 -895.602051
-260.722626 952.459961 -577.307861
-284.846588 650.877686 -1320.824097
-113.736191 524.864990 -1335.492676
-130.710587 618.433472 -1343.639038
-298.029449 652.646362 -836.131348
-45.138779 534.859009 -1353.845703
-136.612427 541.657715 -893.926636
-19.358234 961.840149 -647.992920
-285.273499 928.752808 -1275.424072
-255.297653 773.304199 -1292.448242
104.968697 761.803101 -824.361145
-86.869736 1251.599731 -1294.973877
-219.743195 570.379578 -858.090027
85.438446 737.628784 -868.297241
-11.967967 606.102966 -881.425903
-9.815184 823.063171 -1318.729492
-43.994427 987.214111 -538.981079
-178.764862 975.596802 -492.516602
-131.372971 730.183594 -846.993835
120.479507 743.172180 -1344.325073
-142.335007 968.069763 -528.734619
-101.802536 678.615967 -1326.105225
-109.437584 692.549377 -1319.179688
-107.618988 815.091675 -1305.248047
1.845213 925.235352 -1333.188843
-172.597626 816.558594 -843.125427
-78.136787 1096.144531 -1247.010620
-131.755051 514.001587 -1343.162842
-67.774452 837.037842 -1291.642334
-42.561111 961.679749 -647.559753
-22.289520 649.814880 -1327.709229
-114.143745 560.916809 -882.299927
-47.741817 971.257751 -647.328857
-127.754059 648.505676 -842.954407
-161.109650 568.187561 -1330.847168
64.994102 787.288208 -873.852295
161.645126 774.915161 -1348.318970
-119.275970 980.439026 -511.517426
-158.777557 834.533081 -847.862732
-262.495667 582.664124 -1311.355103
-117.713013 697.380249 -1318.809082
-225.370819 961.116211 -607.320862
-149.883591 904.792114 -848.321777
33.502316 686.221130 -1344.946777
-418.486511 703.563110 -1253.436890
-232.268890 688.210022 -847.720276
176.388138 828.930908 -1346.444092
-218.531509 567.505493 -857.312622
70.935143 957.256653 -720.267883
-9.951469 795.759521 -846.046143
-260.126495 631.123047 -1321.582031
85.304703 737.919189 -863.997559
-4.715519 1199.770630 -1304.817261
-61.825642 781.220093 -869.759705
-186.398102 968.816650 -509.769989
-144.189804 598.397461 -1311.278320
-74.843079 947.195740 -749.843567
-272.515930 815.345459 -1298.618286
-200.114365 963.099060 -647.666992
-406.317078 754.586670 -1279.538818
-17.936041 977.093811 -537.757507
47.305328 605.843140 -894.244324
-224.737396 961.866455 -687.685974
139.697189 901.853516 -1332.731079
-253.555359 953.685852 -569.302368
53.990166 867.196350 -1306.854614
165.369858 857.512756 -1317.901855
-173.877777 671.010193 -838.490540
-316.392670 732.639893 -1307.983765
-106.548294 632.393738 -844.107788
-53.273735 974.735474 -677.361023
-77.036758 981.775818 -481.660339
-163.016724 722.765503 -1324.207520
-126.096291 970.647644 -621.297363
5.088027 976.311035 -613.406677
-4.030862 733.839355 -857.289246
-21.680399 972.291504 -644.190369
-25.996664 786.045715 -1317.375854
-100.562538 960.232727 -618.180481
-129.467041 713.818970 -868.798157
-119.452774 535.713623 -1318.669800
-39.171844 730.560852 -1322.654419
-164.946152 968.961487 -524.138062
-253.523849 634.240845 -837.550598
-249.901672 966.136292 -526.039307
-93.359520 727.824097 -865.350952
-60.573208 762.953796 -852.735107
55.284218 984.941345 -627.053955
-65.561584 968.523071 -602.206787
-175.547256 638.945740 -866.339050
-110.699074 955.753784 -674.111084
70.802193 661.029541 -872.371765
25.240046 676.963501 -1344.290649
-142.105270 968.615417 -633.792725
-224.243500 754.606812 -1322.938232
-65.569519 892.493469 -1277.826050
-97.303566 656.067810 -860.129822
76.928192 836.838257 -1340.386719
-190.489105 831.249634 -1190.484131
9.358978 973.350830 -609.806946
9.433770 964.473938 -1319.845703
55.558044 762.109985 -1325.225098
24.142458 644.476440 -867.344055
-272.787689 955.995605 -595.200745
-355.466644 970.254517 -1290.196533
-182.746979 723.426025 -864.927612
-124.194847 755.821289 -1295.256104
59.833134 701.866211 -1343.797607
-155.090454 643.583191 -1291.623779
-152.132996 956.869446 -613.906006
-258.446259 819.912537 -1299.370850
-102.359291 952.157471 -721.872131
-203.823166 554.915710 -1329.833984
-433.280853 698.657104 -1303.791260
-131.525101 788.100342 -851.361694
-50.601387 953.371338 -1312.602173
-263.178711 749.161926 -1296.486206
-260.913055 623.056396 -1325.343384
-180.233414 962.149170 -685.862488
-155.763535 542.122803 -877.572632
-242.076218 973.808838 -478.935455
-342.524597 733.309265 -1306.611450
-58.033886 978.269714 -555.781555
-37.419498 978.638855 -572.595703
100.228508 774.399231 -859.941711
12.733664 974.986572 -640.505066
-175.477692 800.848267 -850.382446
-176.952087 609.044189 -1331.674561
-416.339935 777.619324 -1294.786133
-85.480278 964.594299 -684.407166
4.892965 971.501404 -713.950745
-329.663788 651.087341 -1335.599487
-219.679077 973.866943 -491.477875
23.838541 990.783630 -506.214966
55.569511 639.339233 -1349.252441
-102.050018 799.692627 -1323.618286
-169.581085 583.487061 -850.041626
-247.738113 682.032715 -845.835083
104.735168 786.431702 -1347.817383
16.715754 713.723511 -873.143250
-233.401382 741.433289 -1303.632080
-168.085556 679.750122 -850.384338
-47.696373 856.735779 -1308.494629
-170.014572 885.779053 -829.464905
-21.375103 964.273376 -725.288696
-83.001114 792.367798 -864.045898
-30.953709 563.945129 -890.782166
114.204155 810.469604 -1326.076050
-275.430084 592.359131 -1333.724365
-35.910183 867.602844 -1250.442261
139.391800 726.573547 -734.205688
-215.204086 614.449951 -1331.278809
134.967789 822.978638 -1331.825806
16.401936 782.878540 -861.032898
55.065403 701.485596 -863.335266
-253.898010 774.293274 -845.961914
-71.688087 650.622131 -1338.890747
-264.847168 779.881287 -852.188721
-268.924805 606.467957 -1320.094116
-145.076248 626.513794 -853.888550
38.809357 593.715515 -1352.865479
-90.658249 583.284058 -1306.289185
-58.917805 1138.531250 -1277.899902
-46.241081 1245.083862 -1295.102173
-233.344147 959.913696 -541.948547
-350.310303 753.168823 -1302.605957
-75.337502 523.762878 -1340.234741
124.466110 855.203796 -1326.590088
57.943916 633.847595 -887.978149
-320.319611 698.056885 -1312.476563
106.621483 677.435242 -1355.337769
-255.386993 955.972046 -655.289063
-318.816223 674.152039 -1328.486694
-275.434753 705.657898 -861.940674
-164.816437 964.865295 -664.770020
-125.674362 738.616455 -1170.127441
-18.975204 551.498230 -891.814087
-44.384979 993.172424 -490.202789
-278.628693 940.662598 -642.304138
-159.293289 975.043701 -493.887207
-279.313477 941.735535 -692.524414
9.360312 963.544617 -642.852112
-147.513702 966.089539 -612.489868
-130.565323 916.789978 -842.016052
-56.786953 663.834961 -865.530090
-116.909973 625.075806 -869.511169
-286.614868 954.422974 -549.198242
-243.422836 956.303345 -568.495056
-106.974152 882.446960 -837.119751
-228.124496 577.063354 -1344.751099
-30.243114 573.147156 -888.982361
-143.307892 969.011536 -626.046204
57.683163 729.390808 -849.519653
-275.557983 941.458618 -692.923706
-315.262726 957.252258 -1278.002197
-4.199910 600.545532 -875.306702
81.545044 768.703796 -1340.151367
46.472393 793.509827 -871.443359
114.908264 751.898743 -881.770020
-122.090355 1205.560791 -1310.244995
-161.012817 951.246948 -723.284912
96.142319 724.537781 -878.021545
-73.728523 956.851501 -697.468872
-280.631500 696.775635 -1313.969116
-10.142315 971.303467 -573.684509
-3.400870 825.249207 -1331.459961
-231.726288 961.525391 -540.516541
-61.438854 775.276123 -1329.791992
-271.802399 824.366150 -822.737549
-190.636642 963.162598 -595.773926
159.983887 694.154541 -793.868713
-43.412487 615.416016 -875.977966
-2.030328 676.850098 -1333.767334
-72.685600 1002.697205 -1323.677734
-19.914299 546.404053 -1332.421875
68.954643 626.831665 -1336.943726
-266.136047 679.431030 -1332.738403
5.286436 709.292297 -881.326538
-231.831085 587.916565 -876.964966
11.431645 837.508728 -1325.850342
-61.690948 966.784058 -733.218262
-111.812592 988.152527 -470.859039
-162.651794 963.380188 -550.926270
-19.825651 902.530945 -856.659546
-121.485695 689.537598 -1214.990601
-5.807776 900.705994 -1274.748291
-154.478989 965.297302 -635.674805
-126.775780 968.005432 -619.052429
71.287766 935.284851 -1314.208374
-89.917381 573.300598 -1318.027222
36.228062 816.275940 -1336.724487
71.235115 682.985657 -1360.617310
-217.067932 675.321655 -850.482849
-288.358063 680.691406 -1317.892456
-145.152008 771.883484 -861.562622
-104.000526 584.004089 -1316.576660
-365.431915 703.972595 -1215.472900
-400.349335 717.948914 -1239.729736
-102.218010 971.023987 -694.247375
-7.191781 680.191833 -1350.429810
30.759987 845.626709 -1300.912231
-33.939896 975.518555 -586.976196
-30.810963 978.710571 -563.554932
-113.563553 699.346863 -863.917236
-99.156960 560.151550 -1353.662598
145.214645 826.941895 -1319.987549
-134.375443 856.868835 -843.916443
72.535683 824.801208 -1330.845215
-138.248489 976.686035 -585.219543
27.607924 698.851074 -1356.558228
-173.563766 977.256775 -466.496368
-51.030380 743.049133 -1340.273071
114.590523 805.787659 -1316.679932
-29.522987 881.609131 -848.867126
-46.485901 565.229797 -1339.056641
28.072540 840.774597 -1299.576782
-248.252853 863.733337 -854.140320
-60.252075 842.381714 -1270.374878
-155.717819 617.110596 -854.324951
-93.150940 980.261230 -541.217957
-93.261894 979.343506 -753.066162
-87.113426 665.639404 -855.543152
143.345963 775.946411 -752.136047
-69.215843 490.803589 -1330.813843
7.087148 583.023071 -890.204468
-86.674088 538.703735 -1338.720093
-34.236160 975.573364 -597.089722
58.874054 761.666870 -858.583740
-79.283134 971.703979 -644.998779
-112.695244 638.893677 -855.282227
-337.149109 614.148010 -1313.509888
44.455044 774.994019 -858.791016
-18.200497 843.893738 -1270.196899
4.692795 714.133057 -853.124573
-196.803146 834.616455 -847.967102
-46.539120 978.141968 -670.779175
20.488922 750.088013 -849.046997
-203.281525 652.422852 -1337.444580
149.845215 747.137329 -1354.036743
8.362538 965.939636 -672.742615
-117.502319 517.893799 -1338.471680
-31.543003 977.694031 -601.042297
34.933014 984.886780 -690.091187
-45.270790 816.294983 -840.535278
-1.084430 610.646973 -870.561829
27.136885 770.400330 -1336.678711
-4.786277 809.416077 -1335.214355
-64.522568 973.082275 -558.405579
-76.633789 970.830750 -619.738037
198.587906 836.354553 -1342.909058
-52.144253 1217.002075 -1315.518311
87.193123 811.222656 -1335.634033
-300.905060 700.222473 -1307.628052
-211.583878 757.615479 -1285.935425
-70.248291 528.500916 -1331.996948
117.024307 746.726074 -1354.391724
-261.807892 959.480103 -535.936523
187.102615 883.646667 -1330.046265
-197.654999 582.685913 -853.686829
-233.980682 956.487671 -600.175598
-211.000336 693.052917 -831.985718
-114.336777 924.090393 -859.357727
-123.265259 592.811218 -861.714783
59.093830 733.116333 -1350.647217
-221.443436 836.720459 -1254.105225
-163.021240 980.099487 -529.584229
-58.552998 971.041321 -609.234253
-376.007599 692.950806 -1265.883545
98.954109 750.957764 -1358.042969
161.826706 856.179504 -1306.766479
-23.695786 1094.856812 -1301.379272
-218.049576 962.964661 -596.365723
-268.488556 640.771912 -1307.613770
-63.684875 514.092834 -1359.193359
-190.761505 548.846313 -870.227905
-22.121006 695.327087 -1339.601196
19.070265 872.126709 -1336.451782
95.701424 711.947144 -880.185181
-86.894768 717.290222 -1128.345947
-39.262852 857.257813 -1270.348389
18.691727 708.708435 -1326.945313
-83.321800 736.052429 -1122.757446
-404.142639 844.574280 -1299.390381
-70.548050 588.175903 -1308.536377
1.064011 976.403076 -531.478333
-192.592133 721.162964 -871.214233
-1.665525 971.664490 -564.134644
-112.616043 933.798096 -868.891357
-59.000210 981.870789 -518.265808
-76.504738 926.838257 -852.888062
-40.925697 884.840393 -849.537842
-21.188938 976.253906 -529.801636
-258.446381 952.022522 -650.340149
-279.589935 831.729614 -842.175537
-112.190414 558.347595 -1338.896851
-198.340515 585.327148 -869.024719
-282.653839 761.674011 -1249.221558
110.972229 871.883240 -1301.296143
-232.817947 953.837341 -624.008423
-316.310730 791.835510 -1282.526001
-88.003609 787.035828 -868.129395
-32.414616 742.618347 -848.045044
-10.798905 1051.227417 -1319.907471
-317.379181 672.125977 -1298.842041
-133.161621 969.719421 -520.233398
-17.512959 974.097961 -647.994995
-68.318993 834.565125 -1309.857788
-200.451584 983.234375 -470.586029
109.770180 849.412354 -1306.478149
-252.883820 954.963745 -632.441345
1.539426 762.728088 -1350.673828
-106.490005 515.526306 -1342.974854
-55.172821 913.881592 -1316.853027
49.758881 579.150818 -908.425110
-422.862701 744.824951 -1299.101563
-187.170319 730.489868 -1321.327515
-59.473709 1010.375916 -1282.009644
-290.226746 941.724060 -667.985474
-142.152100 481.181335 -1335.770996
-9.237535 958.096375 -718.766907
41.805653 858.287598 -849.905884
163.827698 855.644653 -1350.367432
-76.180199 977.671875 -729.035339
-161.116623 977.687073 -493.346100
-114.279655 991.386658 -556.353943
-66.542168 992.203247 -445.290405
-299.321747 684.403259 -1316.626343
-71.283546 987.597778 -474.518524
-177.759537 966.085388 -721.139832
-101.251923 1012.115723 -483.879120
-51.864552 976.359619 -765.103027
-92.360077 516.404480 -1333.892090
-358.719513 666.509338 -1265.173828
-246.107803 963.153015 -511.320831
-82.835388 968.168030 -723.859863
-134.608429 969.727234 -623.616150
-80.779579 571.796021 -1297.640137
-292.907410 884.476135 -843.599670
-73.189919 968.715271 -659.055176
-262.113464 860.387085 -1281.217163
-173.793091 684.555115 -1281.379150
-239.577789 579.837341 -850.163879
-173.890228 744.385132 -1314.330688
-237.901321 617.252258 -868.705017
-67.926445 1025.701416 -1308.311890
-46.644989 973.535706 -664.950195
-117.347595 979.658569 -722.479370
-21.610718 768.384033 -855.749023
53.736725 597.267517 -908.055481
65.268547 612.405823 -888.302917
-317.440033 685.994995 -1317.147705
74.617264 714.296448 -878.805054
-97.053841 613.000244 -849.446350
-12.978246 976.684448 -569.261902
25.806396 974.421326 -602.106506
-137.526611 966.195740 -586.366943
8.807857 655.345825 -855.415894
56.924229 963.972229 -725.350830
-123.951805 603.750793 -858.881775
-233.705872 714.461182 -1324.246582
-302.495270 769.711853 -1299.684326
-122.241417 601.592834 -847.147644
-105.751328 970.184753 -631.293762
-86.549263 579.740356 -862.586121
-43.915695 966.440308 -620.713440
-130.610321 956.205444 -718.798767
24.380159 737.216064 -881.466309
-16.675459 1005.171997 -486.840820
-34.531055 977.134583 -548.354858
138.970566 728.724976 -743.053528
21.305819 592.269592 -1358.145996
-11.307845 688.946289 -1332.103394
63.246555 903.860962 -866.206665
-52.286819 525.835266 -1334.291382
42.104519 631.886658 -874.078125
-115.289986 816.183411 -1282.674072
-29.635616 545.291870 -1351.845215
28.767685 604.511719 -1350.089600
-52.486145 639.734802 -1343.023193
-35.394035 1007.901306 -466.717163
-119.721474 827.711670 -855.471313
-69.305145 789.043213 -849.898926
-2.542746 691.616760 -1357.953369
-42.985268 746.741577 -1338.520386
-269.902344 833.834351 -865.376221
99.251343 853.117310 -1324.843506
-271.210419 765.652954 -1222.994263
-75.298050 764.553711 -1317.982544
88.659134 728.858948 -855.421692
-62.401955 787.441528 -1337.309692
-221.370331 963.266724 -605.557312
87.042824 681.564758 -869.701599
-91.969391 958.745361 -646.348999
11.496537 562.659973 -1348.178467
-239.371689 672.186035 -1345.335205
82.821045 757.599792 -1344.343384
-43.049126 1000.919128 -478.324127
-53.120411 712.222473 -1338.232178
-98.897308 839.433105 -1301.751587
36.436993 668.319885 -1356.140747
