ply
format ascii 1.0
element vertex 1375
property float x
property float y
property float z
end_header
-29.987871 -760.978882 818.979065
148.382767 -1420.141357 339.932617
-18.723818 -1474.969116 422.147614
-312.374603 -1446.824951 412.130981
-165.651276 -1502.251221 573.543213
-144.042023 -922.698792 752.356445
-217.884003 -1472.363037 423.541351
2.705770 -880.752869 771.067505
-206.934845 -1001.806274 381.589172
135.939026 -1446.246826 428.672638
-153.068451 -759.488647 827.077393
108.358261 -1019.036255 486.925018
-141.358704 -1460.004883 595.971863
-149.117615 -986.163696 456.162659
-45.189762 -786.824646 810.128906
-374.062195 -1477.177979 522.075134
14.733502 -731.023865 829.030396
134.920898 -1564.215942 642.644714
-352.005615 -1444.082275 408.518799
77.206070 -1468.717651 316.319885
97.418701 -785.241821 812.069092
-200.198914 -983.737854 458.336853
-344.965118 -1433.231445 441.355804
-169.210373 -1459.694946 336.470825
-308.119232 -1447.681519 447.779999
-212.247894 -999.189697 497.717804
-39.322762 -732.348511 828.608276
105.874855 -1412.607910 431.256378
39.922321 -1024.029419 538.785645
-196.863846 -1448.789429 223.248322
18.870029 -852.981384 783.003662
-44.408092 -1419.943848 190.248856
-159.848846 -986.872559 354.275635
67.653435 -1030.294434 611.559570
122.042747 -1473.834106 357.326538
-234.883255 -1478.359497 419.652618
47.439850 -988.703064 343.884735
-224.526855 -1004.770081 383.452271
-219.211639 -1506.651489 648.604797
-110.033249 -1446.602905 204.338501
47.158627 -923.943726 762.423279
-247.233200 -876.046326 703.347412
-56.355812 -996.259338 303.015625
-165.073792 -918.983643 758.161011
-308.983154 -1470.703003 575.429626
-235.367722 -1424.178711 509.662750
-128.765518 -1474.295044 498.525208
-233.470139 -1437.349121 249.017319
-199.158722 -1452.744385 239.925537
-253.610703 -966.957275 560.706360
153.682922 -1451.498535 310.678497
-49.698616 -962.110962 732.758606
-130.198303 -782.834900 812.379333
-138.981720 -1471.742676 332.060028
-70.452530 -867.779480 783.247498
-95.881660 -1388.202759 297.582611
89.299042 -922.909485 763.666504
-199.478531 -1570.036133 894.124512
-77.795059 -933.476868 770.881104
-304.606781 -1450.506836 363.994293
84.034279 -770.878601 809.639099
-256.252686 -1440.396606 277.449219
-104.442924 -1008.162964 523.444824
-114.002861 -1418.662109 215.361252
-355.948120 -1463.376099 471.857361
-275.095612 -1013.917725 521.412292
26.855991 -1074.234985 695.593506
-188.825211 -1013.023010 515.324951
-42.040394 -1028.911987 581.872559
-34.173767 -1454.178101 440.935852
180.504578 -1431.945923 352.211670
10.230959 -1491.220581 362.838715
-91.497658 -1033.014648 614.830627
-120.734680 -725.441589 835.408325
-207.568130 -1437.648071 252.656769
201.778244 -1480.626587 416.667114
156.608109 -876.864929 763.756042
-2.481419 -1432.375366 179.736237
-3.868927 -993.056152 400.482513
19.139729 -779.025513 801.913025
-35.494564 -1058.567627 646.755127
-182.572052 -1038.239014 662.169617
224.298141 -917.781189 432.903137
-210.581406 -1438.901489 244.833908
-80.855858 -1049.585571 627.934448
19.582857 -935.630005 734.203369
-248.791306 -1474.723267 450.320313
-162.532715 -1447.523071 251.199020
-138.805893 -781.864624 806.207397
-68.997826 -1460.898193 456.182587
157.075363 -996.827881 462.149811
-147.444016 -1429.593506 214.646286
96.425606 -820.137085 785.507813
-349.996735 -1433.255981 431.293549
2.380481 -797.128723 799.271973
-155.624603 -1466.598877 372.485077
13.211082 -825.024780 786.766113
-13.752267 -987.202637 373.263519
-46.897221 -992.413086 416.195251
-24.209970 -1063.567871 712.808411
146.871765 -848.496826 774.622986
-80.428024 -1444.363647 327.186096
142.997559 -1464.231445 388.915619
30.688053 -746.707703 820.131714
73.509605 -1087.019897 685.024475
-122.321922 -836.865540 785.928528
-106.070587 -1409.359253 136.332870
70.397469 -1490.149536 370.900452
-142.713394 -983.609375 459.169098
-106.329453 -1397.804565 214.071640
21.794662 -894.887146 760.424927
124.422798 -1469.430542 355.305481
83.738113 -1489.432861 369.929596
-114.006584 -1293.521240 397.076630
-297.447632 -1438.069824 475.734894
110.453224 -847.348755 772.299377
-134.662842 -1419.105591 260.886292
0.687415 -992.058289 379.537750
-172.444687 -1024.139526 572.681152
-194.786407 -1002.994080 416.716827
45.584805 -1015.087097 387.970795
150.231857 -750.097168 811.023315
-135.348068 -1457.674683 392.886505
-52.044323 -916.009644 770.474670
-11.251632 -988.286804 436.483215
43.080715 -1003.045898 429.374664
-77.976387 -815.725342 798.713623
-110.529816 -1288.416626 402.387207
-183.263199 -992.761353 480.362030
62.649120 -1459.082886 259.008392
-195.365128 -1438.181396 311.227631
-199.995132 -1003.761719 454.916199
-29.460882 -995.951782 479.952393
-194.158020 -998.628052 377.223969
-120.785156 -948.494690 748.434143
-51.580685 -943.467712 769.680603
-90.305992 -1355.921143 426.877747
-185.550995 -1023.845520 607.889282
6.495922 -888.687866 761.601563
-8.676875 -1025.057129 503.047913
195.782349 -1483.895996 368.223480
111.455231 -1061.758911 585.164917
98.424202 -1444.605469 265.337280
-39.816944 -999.678955 455.554291
-204.348267 -1539.180420 814.629211
-82.128777 -870.734863 779.861694
75.140762 -1018.889099 306.995728
-32.652470 -809.157471 800.207214
-110.497375 -803.640991 794.544189
-111.194023 -992.248840 444.637451
81.841743 -903.166626 749.004272
-94.379486 -987.318726 366.489838
-13.388786 -821.749146 790.500610
87.044289 -1024.158081 487.041290
215.589966 -1434.422852 370.389160
-94.257195 -1023.111572 315.232849
45.036045 -1060.927002 629.577759
-108.214767 -1408.349854 190.861908
114.599442 -1462.870483 272.689362
-50.323441 -987.578735 388.842743
-265.579926 -1439.848267 265.245056
-169.729996 -1483.542847 600.987183
-80.969368 -1047.569336 613.192261
-58.370998 -1056.012939 696.172974
-127.936203 -1424.397217 223.707321
-45.822430 -998.121033 365.962646
92.712349 -1018.703308 344.301697
-160.799789 -1428.552124 258.058136
-108.474533 -1352.643921 266.685760
-65.049393 -932.329346 758.270264
-49.485191 -970.501892 759.737061
-141.722275 -884.720398 764.335938
-159.161346 -1432.224731 193.708954
-102.544525 -906.033081 773.566895
-146.327530 -979.889771 411.035675
116.059624 -1008.989197 425.981873
5.036242 -1005.215454 316.717773
-164.447495 -867.076233 780.555664
-114.464561 -909.317688 772.355774
-20.973606 -769.997253 820.833801
-73.172890 -1420.365845 248.995255
70.074364 -894.327026 756.373840
-123.926140 -1450.962524 542.023560
-134.960159 -990.107056 410.230560
-144.390579 -1432.233276 159.360703
-135.949005 -893.341248 778.884277
-194.563278 -1031.618164 349.591705
-15.654085 -895.616028 769.791077
-204.940338 -1477.141724 418.631805
121.726860 -859.263855 781.503479
-71.243057 -778.029236 802.488708
-33.398926 -1021.077881 518.213989
-75.937973 -1010.936768 489.123413
2.682363 -1017.819153 319.700836
74.736015 -1464.341187 413.779572
59.813568 -1016.090088 342.245789
92.310333 -1014.437744 454.516907
38.429035 -906.929932 756.324890
79.047104 -1059.521240 659.936768
-112.278709 -762.410095 826.682190
-163.223221 -989.544983 448.631989
-107.187897 -993.365540 423.482910
118.505302 -854.039307 773.235168
-121.416161 -1013.036743 336.449585
-46.723606 -989.999329 401.562134
-113.277260 -1412.864136 171.410767
-195.346222 -1463.852295 567.514709
58.341759 -729.653931 849.433838
-331.221161 -1428.441040 531.999084
64.029137 -1060.101807 691.980103
29.939869 -1013.520142 476.806610
-57.160873 -1455.832397 238.158203
-411.335449 -1451.357178 477.817322
-56.303207 -996.259460 340.013184
2.506304 -1498.471924 435.001038
54.103821 -1012.543396 313.631073
116.027222 -1022.892883 481.009674
83.877396 -994.684448 427.711487
-299.509613 -1452.068481 450.097870
57.471977 -1434.609619 223.479980
-212.592316 -909.623779 747.906921
-70.629898 -1447.475464 163.127075
-68.648048 -1020.779419 550.963440
56.265957 -795.160645 810.478638
-212.129089 -1448.569824 254.505402
-66.269073 -1032.004639 562.216125
-176.260925 -1432.748657 730.122437
-312.074738 -1442.130493 320.228882
171.111053 -874.440552 754.437683
-324.692108 -1448.029663 546.712769
124.893433 -1031.851563 608.512817
-379.981903 -1471.221313 470.650482
63.449612 -1065.739502 704.568481
-303.700562 -1428.391602 532.520447
-10.161573 -1469.320557 362.439209
-135.360931 -858.762573 787.896240
65.222664 -978.074524 746.271423
-56.223419 -1443.843384 262.022186
-166.567825 -1424.382324 158.555954
145.245941 -858.785767 773.912720
1.330186 -926.122009 747.584412
-115.657768 -979.274109 410.289978
-150.446045 -1014.955627 563.069275
-367.389923 -1453.059814 469.161530
-292.748108 -1456.969849 324.081757
30.124256 -1029.087524 618.017212
-105.949173 -1004.798950 495.873718
-194.840759 -986.581421 502.466309
-145.492172 -993.714905 463.672089
-66.428650 -1016.181946 325.168030
73.742798 -1477.750000 398.321686
-242.204620 -1464.327759 453.002808
-19.254648 -713.006897 837.262024
-81.957008 -1446.171265 176.765686
2.917177 -1465.195557 331.977509
-83.498489 -719.166626 834.905640
-241.995789 -1011.619141 497.306152
-167.968430 -983.480591 446.737152
-37.211689 -932.524353 758.178467
-163.306427 -1459.326172 360.646698
-9.762466 -793.103088 796.857483
-115.286423 -954.445923 756.046021
-99.365028 -1006.951172 504.077789
159.395874 -1448.302490 311.325500
-159.811493 -1527.153076 824.471558
112.166725 -1046.805786 584.090027
63.190174 -712.043640 844.158264
-196.202164 -987.652344 417.175018
-171.958664 -914.996582 760.614258
-87.028618 -997.382080 321.709320
-28.113829 -1014.308716 489.301605
-276.158386 -1465.508301 354.176422
86.673477 -995.122070 374.261871
-21.291248 -1042.821045 603.750427
-106.523666 -1508.233032 675.307739
-202.341232 -1416.976807 193.561722
138.756287 -1463.454468 360.100769
71.900841 -1496.976318 404.795898
68.145889 -1435.420166 236.067291
-84.250916 -737.474182 829.037476
-74.546577 -1433.024536 228.897537
-185.947418 -1456.251709 303.407928
28.511452 -1038.850464 693.121460
-55.081558 -1006.409302 361.402496
-13.957762 -1010.230896 466.782715
133.412033 -1014.557678 445.611847
120.816338 -1458.255371 394.663635
134.025604 -1002.789795 363.354889
-12.833819 -986.192139 332.294952
-52.212086 -922.981873 762.355469
-220.986206 -1444.464966 367.694641
133.200027 -1479.684937 306.350708
-16.270866 -727.960876 833.947571
224.240967 -1485.611084 426.546204
-235.899994 -1465.673584 442.042511
-266.958801 -1401.577393 469.889404
-47.911293 -1001.337036 522.140747
-102.431633 -1002.854797 301.511322
-139.687897 -1485.288940 381.696228
-208.380707 -1447.646606 242.218185
-217.471191 -1456.778931 571.723877
14.566408 -1004.297546 429.224274
-250.373276 -1471.521362 462.979309
-101.321800 -1456.360352 326.319031
-189.558136 -1436.049194 237.164551
-176.335159 -1464.902588 356.077942
-38.646107 -1446.147217 184.719269
-72.146568 -1009.697937 483.524017
-168.035843 -1001.952271 513.466125
-135.596024 -1395.088745 303.826202
77.532661 -1017.238342 324.734253
-133.824753 -999.600281 505.167053
220.121460 -1474.957642 346.529266
159.085449 -1456.246338 406.882416
-140.682465 -1461.502319 422.657135
15.386407 -901.649780 762.685669
-119.879601 -1423.681763 340.816833
-3.522587 -1475.222534 385.076752
33.186794 -820.674561 784.522644
132.459213 -828.941467 786.188416
-416.276398 -1461.721558 534.914368
-123.780632 -1014.868286 449.952423
141.050110 -1000.746704 393.222229
146.178894 -752.758667 806.042847
-308.760040 -1421.795776 475.738892
-105.253113 -1029.249634 531.692078
-153.665176 -992.496887 412.212952
97.024483 -805.109314 796.580444
-187.682999 -1527.748657 678.755066
-17.220589 -712.837585 836.870544
-38.218704 -741.220825 833.181091
116.054985 -946.761841 739.639404
-77.049545 -979.681152 324.251953
37.112206 -1029.993164 615.884583
-48.680756 -979.128235 408.536774
-175.421478 -1487.602783 447.278351
-6.279830 -869.149231 791.454285
72.940170 -1524.159668 618.267822
-238.524139 -1454.686646 396.785767
-61.565651 -789.672668 807.191162
-49.495914 -1024.337769 507.428680
152.268723 -808.310364 781.717163
-275.319275 -1457.694458 502.492432
-248.518265 -1465.023926 327.014069
33.614094 -1025.330078 453.816833
-49.801495 -998.148682 428.501862
-103.614777 -990.880615 385.789154
-18.722254 -1001.225830 454.342590
145.579269 -1446.339722 427.552277
79.806030 -898.286499 765.696899
80.252869 -1064.274292 698.159668
-174.214890 -1489.630127 460.970428
-235.428986 -1450.971558 409.808044
-102.462143 -1043.136841 631.139526
-76.662498 -982.406372 345.213287
-107.615013 -983.887756 385.034973
-236.990662 -1442.575562 230.922318
-122.959854 -758.425537 828.682434
-83.705650 -1049.163086 625.705200
-112.413788 -878.196045 780.788269
-50.764774 -1448.963013 268.031738
125.794121 -1063.691162 675.890137
1.592205 -997.242737 339.254089
-191.510452 -1007.657959 576.729980
-34.401886 -999.390259 378.545624
73.765137 -1497.899170 622.108948
-31.527660 -1477.063843 413.782867
-204.746765 -1463.315552 319.138214
-67.583267 -815.743103 794.982483
-135.982544 -979.784424 364.694214
-143.026215 -808.197632 795.931213
-31.777641 -1450.816528 204.747803
-78.209053 -1429.885376 208.163025
-124.365227 -1000.478516 487.672150
-69.268204 -1016.634644 557.322998
-150.621994 -1487.095825 656.472290
-148.882751 -812.827026 788.309814
-188.871033 -1463.913330 304.301880
-4.004447 -984.037659 410.089844
-169.617599 -1566.093140 856.144653
0.139753 -1457.214478 284.384583
62.419044 -1022.859863 456.715820
102.089920 -845.685669 774.498840
-201.080444 -1009.999329 372.311005
-89.866783 -997.750977 520.895508
64.625130 -744.218262 837.301697
-16.293612 -1469.362427 286.399658
6.604706 -900.852844 774.086670
184.776169 -1439.768555 349.720306
4.771994 -1047.410278 623.103027
148.631393 -804.989929 787.738953
-238.425125 -1008.525146 400.681091
-158.341690 -1017.394348 506.039398
-109.177292 -1036.915039 661.059387
-230.604294 -1442.241455 484.603607
30.102100 -903.432861 773.520935
-156.670197 -1017.164551 571.213562
-179.927902 -1532.295166 662.667053
67.869324 -1041.353882 687.983765
17.098598 -1036.069336 670.299438
-250.876694 -1454.269409 475.768250
-155.266083 -982.295227 358.984619
-187.467743 -988.257935 423.687225
94.134987 -754.001892 812.868896
-103.665161 -810.064819 797.370789
-243.671906 -1472.537354 409.174652
-46.922485 -1448.697388 285.628937
-167.793228 -1462.110352 327.287323
-188.270447 -1494.592773 642.110901
-63.876873 -1420.544922 248.630096
-217.917450 -1461.071167 542.700745
-61.160168 -850.928833 784.711182
-70.440704 -989.344299 353.657837
-105.909309 -770.757874 813.555298
-64.632507 -746.320618 821.533630
-2.642905 -1442.152832 270.725098
-106.085533 -1449.994141 342.878632
-146.285736 -1031.009888 589.065063
-43.531193 -825.737183 796.432434
-200.454987 -991.338806 379.092926
-187.001678 -1532.810913 656.090271
-96.345795 -1363.036255 491.502380
-204.567871 -1492.957642 620.834778
101.629356 -1001.502502 386.308319
-119.638748 -1019.764038 495.392212
-265.927338 -1442.675415 301.532166
-48.877655 -996.977844 490.517822
-265.257141 -1448.632324 413.790985
152.977600 -1462.156494 288.594910
87.590607 -1010.370300 328.811371
103.738930 -1410.979614 419.169312
-128.763779 -1055.752930 687.140198
-46.484222 -1006.762268 380.763763
27.281628 -678.157593 855.664307
-154.925430 -1452.022339 327.928253
-31.506208 -1031.107056 653.416321
-80.181313 -976.772095 389.484589
-182.140549 -1506.838867 737.444519
38.874630 -740.115479 825.833069
-4.547773 -987.569946 301.945465
6.385159 -1002.238770 326.374084
-147.277313 -1473.444458 372.530457
-69.294022 -1429.928711 168.415604
-90.103470 -987.356262 393.507172
-78.711136 -1033.702148 623.532288
-211.733871 -1493.192627 624.831360
-16.852156 -1037.113159 607.897095
116.280289 -1021.263916 479.595551
-131.776245 -809.195923 803.653687
-58.664806 -1429.892090 237.129120
21.591423 -820.210815 792.865906
150.650726 -1458.251709 411.855682
-161.051102 -981.940796 431.166382
117.526672 -1466.953003 342.321564
-27.521051 -730.597595 841.210632
65.625954 -1002.183289 436.248108
119.466652 -1436.572754 484.254517
11.965185 -704.722717 847.578247
-87.479622 -1007.909058 506.445190
-96.387398 -1438.834106 244.797333
6.600589 -1448.619629 332.402863
-229.026138 -1458.969971 460.781006
-49.939507 -1435.844238 211.954010
-168.966461 -1469.136597 370.385223
-32.069729 -1448.353760 266.146790
-139.540283 -1406.133545 516.140320
113.276649 -1461.552612 406.987305
-106.228424 -1458.767578 386.787201
-64.204391 -1427.211182 262.200958
8.891987 -868.979980 784.067322
-15.006594 -753.459167 822.014832
-64.863464 -1351.591553 450.367920
-115.854645 -990.039612 333.310150
-148.867294 -805.498474 815.078918
-129.956116 -1018.420837 602.701477
120.510246 -933.907715 749.119080
-97.166534 -708.134644 856.050049
-190.595016 -996.159790 393.704895
20.839888 -884.124084 774.930298
30.369469 -845.526123 782.475586
71.804703 -1479.113892 292.387054
24.578779 -826.581421 788.243103
-27.525356 -1459.153931 643.756897
108.320343 -880.606201 760.566040
50.346710 -1443.265869 214.719025
59.478920 -1034.608032 300.743103
127.396629 -850.959595 768.243591
40.188004 -1493.372559 423.143463
-80.018051 -1427.227173 195.770218
-231.616180 -1457.279541 537.372192
240.970612 -843.352112 534.341431
-128.583145 -915.146851 774.648743
-253.255737 -851.567017 516.173218
27.619785 -705.306274 843.059998
-274.857361 -1468.675903 394.458649
-25.322668 -1436.594116 191.099838
86.150711 -908.507629 760.962708
-226.907990 -1000.387695 416.789703
-249.790192 -976.741577 451.061890
27.644037 -1480.669922 421.233551
-142.699310 -1017.287292 515.782898
200.994934 -1439.081665 348.765869
51.756130 -1478.068604 361.128632
140.482712 -1477.377930 417.893372
-10.301966 -1430.880127 506.661346
136.743317 -1491.431885 401.743347
89.123276 -713.104736 840.309875
26.606995 -800.865906 794.925171
-9.860898 -1467.679565 257.136810
-59.706734 -1422.424072 232.966629
90.052238 -1049.191895 588.587097
23.255615 -1044.446655 546.079102
10.656491 -777.227966 828.938965
-143.061172 -992.482117 444.200226
-229.702148 -1468.069092 331.907318
174.231689 -1479.964600 373.534821
-69.047935 -831.999817 791.206848
-210.217590 -1429.555908 219.778778
-296.601807 -1460.889160 493.935791
-145.236298 -1481.937256 644.983826
-138.029724 -1469.896484 369.200104
101.052277 -1018.546875 319.715576
-356.877289 -1467.346802 409.944885
-68.413933 -914.799866 766.875732
-94.743088 -1439.101440 299.778381
174.796570 -882.419067 758.922485
-60.671661 -976.176636 764.883118
75.298218 -950.350525 745.404480
11.557313 -769.437500 824.974609
35.057167 -1442.925049 218.100845
-155.323059 -984.910828 369.667633
-168.636749 -993.162659 341.156494
150.034332 -1426.650269 373.122253
94.455910 -1063.057129 604.833557
-323.944519 -1484.430298 524.763489
67.988434 -1449.144287 227.291626
-152.792862 -1001.281433 341.964264
146.030853 -798.908875 788.596130
-87.788353 -875.292175 780.564758
-12.955559 -988.683289 326.781158
-371.704956 -1455.110229 475.548981
2.844446 -989.159302 345.098480
54.166687 -1482.409790 328.897705
-61.509018 -840.022522 780.441040
88.889503 -1018.545959 317.595428
-58.621788 -1433.561035 197.106155
34.906448 -1000.452637 425.775787
43.115929 -884.760925 760.859192
-62.350643 -1006.908997 499.575012
-285.965637 -1446.769897 394.317688
-136.888733 -874.578125 779.705444
42.857533 -993.231812 298.906647
-207.145721 -1534.717529 844.306274
-14.939727 -1056.510254 686.452820
-315.300232 -1451.990112 318.184174
-154.813492 -1476.265381 359.147766
-140.830414 -929.479614 771.601990
-79.227692 -1037.673218 649.186707
-12.137172 -962.009827 760.574646
-145.494049 -1416.935547 289.234009
-37.124023 -798.536255 808.811646
126.532814 -1051.937378 638.375244
-90.301064 -1542.169800 893.321716
-166.630737 -1437.932617 310.177582
-67.278206 -1035.989624 671.530701
-92.870476 -1458.762573 427.157623
-222.129913 -1448.984985 281.094238
-85.710426 -1037.949951 563.454407
-12.344771 -1468.297363 290.846558
-84.095268 -1040.669678 655.899292
-340.003296 -1446.300537 450.563934
68.014633 -971.140137 742.384766
-372.444672 -1473.409790 568.572632
-80.880760 -1440.196289 185.233368
-135.797974 -793.173523 807.809326
80.347687 -1039.328369 472.674011
-173.563217 -1015.695496 352.895233
150.703415 -1046.241577 570.897522
-266.698212 -1443.605469 370.828674
-11.485809 -951.444885 757.659424
152.062592 -1457.555298 388.983521
72.605583 -1458.463257 260.966705
-8.823013 -1491.676392 434.943756
11.335724 -954.634766 735.958801
46.128906 -1477.015259 381.434021
61.974808 -774.514954 808.871338
-1.367849 -767.538330 818.301636
-160.248825 -740.096558 836.241150
-112.798874 -1408.850952 202.597641
38.080063 -929.521912 745.397644
216.168350 -1493.826294 431.626648
100.010162 -870.321899 775.549438
-43.490437 -1431.137939 477.417511
-40.462990 -1009.055420 339.889465
-36.199253 -788.457031 803.855835
17.816195 -1447.226807 218.737350
-72.298134 -1308.614258 395.421295
9.378495 -1446.622559 546.984131
-102.640381 -789.074646 817.047913
148.311142 -747.206726 834.339355
-70.112617 -1052.555908 670.062439
30.523285 -844.306274 780.444824
40.028889 -729.017090 863.101990
38.166847 -1491.636963 567.317932
46.371490 -1001.319641 402.680542
-299.092773 -1458.724854 565.035034
57.088566 -904.723267 770.214478
-208.798965 -1015.483154 381.804352
-118.031715 -737.654602 824.910828
-3.027830 -1032.000854 499.626678
-287.577789 -1456.430054 372.899536
146.498596 -1038.857300 563.368591
0.581405 -1052.750854 658.438049
113.517242 -1425.822876 438.101776
-67.477066 -987.931335 447.043640
-37.722794 -726.340820 831.888489
-197.498459 -1482.362915 674.421814
-184.799774 -1522.222534 795.650940
-288.887299 -1457.888794 497.331818
-66.748497 -1039.143311 577.366638
-183.786804 -1008.110046 482.423828
32.865696 -1444.408813 458.349335
-213.299545 -1003.697266 539.843933
-217.574753 -1001.041931 443.589417
-165.403519 -986.068420 365.354553
-174.031265 -1474.245605 335.128906
-129.239044 -1002.946228 467.632629
108.978600 -906.677734 745.328430
-143.149323 -992.731506 344.501923
36.369446 -704.557739 842.721680
-83.687027 -748.967773 817.705505
40.129459 -1353.287354 432.086945
-296.079346 -895.897278 467.520996
-130.898224 -749.160095 830.923706
118.743805 -1037.316895 486.254395
-250.580139 -1460.246704 462.531158
41.032951 -984.769714 413.252167
-68.692665 -997.248657 512.003113
-59.576538 -986.568054 362.872955
-143.566879 -885.185364 775.469666
-202.516724 -1427.333008 201.160324
-134.448975 -888.319519 780.466064
-27.158056 -1395.313354 449.774353
-145.054459 -739.342529 827.744812
-29.046648 -1053.118164 620.184509
-190.451675 -988.024414 482.401184
133.917526 -1456.574829 363.382385
9.717848 -693.041138 840.324829
-79.877350 -706.992004 847.907715
-136.361008 -1028.719482 518.159119
48.697254 -1064.000122 637.619629
94.878227 -798.341431 804.320740
-276.290253 -1465.547729 362.592957
-181.870850 -1018.762146 540.516235
174.062729 -1427.503906 360.756409
-11.455538 -1042.721802 690.127686
153.846069 -1068.159302 644.694885
-104.941254 -1459.679321 360.327881
-36.033154 -1429.795776 172.067398
132.628479 -957.108337 736.701416
-52.422626 -1056.520996 642.119934
153.086395 -793.862305 797.580444
-159.427979 -1435.853760 223.528503
-17.496687 -770.492859 815.365112
-308.800812 -1436.248291 483.931854
80.569603 -1500.954590 582.893372
-226.337402 -986.078125 464.515839
-213.166687 -1001.175964 435.118713
-59.462582 -998.960327 317.373627
76.903419 -1049.226685 630.534241
-266.746613 -1435.069702 266.640320
-142.663086 -955.010742 759.494812
127.278709 -1443.157349 368.874969
-86.565582 -1418.186768 191.741837
45.178661 -1034.544067 555.310852
-136.997345 -1448.472290 347.692047
-171.684753 -1013.997070 309.899292
-189.916122 -1506.179077 580.202148
56.929131 -723.183899 832.569336
-251.063400 -1454.260986 356.259399
151.117859 -957.688416 738.953491
-217.462646 -1450.732910 236.004318
-172.938187 -1557.348999 846.203552
71.570854 -1029.668457 605.521973
87.173836 -888.600159 770.195923
-325.496979 -1456.979614 461.296844
-56.687767 -738.197937 819.214966
-85.322762 -1351.438965 424.375488
-196.865631 -994.830872 460.369598
144.971298 -1052.679565 586.707092
165.638016 -1457.713989 433.899353
141.293533 -1037.047852 526.817383
-297.514709 -1440.949219 305.687561
-208.608170 -1514.748901 564.224426
-188.852707 -1425.940918 199.358826
194.381241 -1485.422607 394.238464
73.984230 -1035.956665 576.747314
-25.113426 -1006.674561 319.330109
-109.538437 -729.099121 828.823547
-134.734161 -992.029663 451.037445
-165.945190 -994.898499 480.061584
107.444824 -833.772705 783.112183
-239.106903 -1471.943481 372.814850
147.818527 -1450.330322 304.294250
41.139233 -1455.772949 256.350098
-139.198105 -902.804504 777.103638
-102.348930 -1018.369873 565.551147
-5.521570 -1013.273254 334.059570
-46.258472 -1032.014038 641.846985
-29.288233 -890.382324 777.714600
-141.674500 -1015.927795 506.441345
113.184509 -1009.122437 349.971191
-40.327759 -1041.614380 612.208740
-349.772095 -1453.085938 393.232788
-155.675598 -1009.331848 309.281158
163.672119 -1482.920288 443.616180
-220.150009 -1468.312744 407.108154
-150.251877 -734.072021 837.838562
41.871891 -1020.044006 500.268921
-270.393311 -1454.459595 485.355377
-121.271553 -991.137634 339.423523
170.339447 -1029.131348 464.938660
-227.185287 -1398.818726 474.996613
-152.462479 -1011.681274 555.521362
142.227066 -1500.729248 493.357269
-63.138824 -1448.927734 167.804825
-43.082172 -992.410156 414.415436
-56.863022 -1004.202393 480.975037
-181.525772 -1478.404419 368.806091
76.801712 -868.493530 779.925049
-217.809311 -1400.660889 487.666809
130.454315 -836.025818 784.510193
-20.857391 -994.997864 339.551758
163.405197 -1462.911987 402.468658
-174.944672 -1482.144531 683.246216
-125.743469 -945.226746 769.441833
-129.394745 -1422.325806 509.936920
15.793830 -997.118958 340.401093
67.507851 -750.644714 813.020264
56.876175 -880.154480 779.168579
-187.866425 -1009.355042 494.614410
-193.349518 -1445.677856 278.082245
-109.328751 -991.476868 419.401794
72.737076 -882.370056 781.912781
8.718612 -870.817322 767.354919
75.710472 -936.001099 732.860168
-213.873032 -1446.034302 293.318451
-400.492676 -1465.136963 493.694702
128.463058 -1040.704590 586.024475
11.568736 -918.386230 750.752197
-134.196503 -815.832397 801.884216
125.658142 -1036.826172 493.189545
-136.790512 -876.758423 785.169250
9.664490 -878.567993 782.700928
156.523956 -1453.425415 323.465546
-150.869995 -1438.224976 169.382660
70.519188 -849.694885 779.620239
-45.310390 -750.642822 821.745056
0.200616 -718.773682 833.143005
-102.185966 -780.511597 807.109863
-200.707993 -1481.742554 644.750305
-303.392853 -1452.274780 489.226105
-218.121201 -995.130737 417.735626
-104.822563 -891.687866 773.756653
182.745224 -914.907104 757.441895
150.783417 -1022.684448 562.807617
-117.422424 -1369.174438 496.889435
-15.655169 -1443.121582 222.777863
-247.151657 -1449.369751 319.098053
47.880199 -713.527466 843.535095
-185.553619 -982.190918 517.953857
-109.383018 -737.547791 840.642334
-0.143019 -1015.030151 551.789551
94.075684 -1477.091431 309.238953
-212.462906 -1472.243774 444.845764
118.615845 -1485.685547 388.927704
-117.988518 -924.757568 767.745605
-108.817230 -951.405273 768.062805
-62.321308 -977.684692 360.893921
-113.549217 -1006.327759 316.047424
-142.734985 -1445.169067 503.193390
-301.669922 -816.272095 540.507751
-220.886169 -1480.606689 429.742004
-37.352604 -1445.737061 258.216248
-128.875656 -1034.765747 542.674500
-194.210358 -1462.386719 358.516968
-39.320366 -992.680908 337.476196
50.371025 -968.466003 746.440430
70.462753 -754.757385 807.622253
-61.960167 -762.451416 816.710876
-119.240578 -928.187866 747.873047
-17.178602 -1455.973145 348.400238
73.970871 -782.911194 799.104980
-20.723577 -1040.746948 627.906311
-322.836578 -1429.110474 496.241821
-265.573547 -1438.265137 287.488739
-197.206680 -989.302979 386.359650
-202.763824 -1463.898804 507.773407
104.670433 -1462.887451 425.684052
-124.587204 -816.635254 798.273987
-128.893478 -1390.607300 256.825928
144.247513 -761.263062 805.824341
46.391624 -1034.989868 495.518188
-243.746155 -1440.927734 283.819000
117.509064 -1068.244385 611.426575
-224.194366 -995.930603 433.073425
-188.648651 -994.757141 433.264618
58.509594 -1456.386353 258.803375
-256.003052 -935.135986 563.096497
-167.449066 -1544.566528 835.671265
-29.183578 -1046.908691 551.861389
-60.987373 -992.343445 425.035980
-125.328529 -985.022339 382.839722
-190.872223 -1457.417969 338.951599
19.701130 -928.051636 746.808838
-311.082001 -1417.039063 479.345428
35.739254 -867.690125 778.191284
-68.290176 -1445.703735 322.258972
-266.291351 -1450.486572 343.019897
-51.853035 -1007.868774 306.832489
-21.286165 -921.079346 767.057922
80.962372 -1475.636719 302.158478
-5.114638 -889.485779 771.880737
79.504021 -1006.126709 414.440979
95.257133 -1011.709167 432.568878
122.485657 -799.857971 789.402466
-88.840805 -887.099976 772.762573
-305.308807 -1469.851196 443.329102
62.198833 -1008.321533 368.671661
-256.950958 -1458.964355 370.314941
-73.637749 -1503.369507 659.929199
-288.817474 -1417.965454 495.001495
-174.829010 -1477.207153 371.480286
-48.149128 -1446.896729 254.098328
-27.479254 -716.916077 840.558838
-97.635368 -1040.541382 657.966187
-104.450745 -977.094360 367.630249
19.430544 -1033.655518 574.585022
-282.276978 -1456.416992 372.681641
49.377895 -841.928772 782.346313
-289.280609 -1466.214355 475.311035
-296.655975 -1466.259644 529.085083
16.468678 -1464.528442 315.421265
88.467369 -1537.436035 600.825623
60.592094 -996.788696 350.145905
-107.979813 -1388.677856 257.166931
-168.198700 -1016.391602 569.040222
41.870411 -740.116638 818.146057
84.983864 -1070.847534 662.399109
-249.009033 -952.479553 565.826172
-138.781097 -822.410400 796.215576
-112.352028 -899.205933 768.796265
-112.197281 -936.492371 764.871094
239.679901 -921.105347 468.892212
-230.841019 -1429.777466 480.537048
-379.900208 -1467.382813 519.775330
-161.172287 -1501.798462 664.270813
-162.955627 -786.096985 816.063171
-91.039795 -854.134277 774.680298
72.707497 -1477.290283 377.150391
-272.406830 -1468.824097 399.011383
-68.026176 -945.702332 756.851746
-105.692024 -717.705383 834.061340
-69.934166 -837.424927 796.137146
160.285797 -1412.539063 350.491669
-7.552969 -778.839600 812.099060
-272.919617 -1454.609375 476.451294
-95.923195 -1068.495117 714.995422
-149.020493 -1414.329712 176.034668
-44.240974 -707.613098 835.741882
102.310944 -1513.404053 592.166077
-234.676514 -1474.359619 398.632019
-150.233932 -1005.756470 454.178680
-302.315094 -1462.449707 412.670105
-31.480541 -1427.929565 159.112549
-268.032867 -1470.624878 441.493927
-123.223961 -798.434204 812.513977
-71.120605 -921.747681 762.433960
22.236135 -1436.886597 232.674225
-63.899120 -982.394958 357.500763
-179.988022 -988.211304 449.592682
74.217850 -998.581055 371.533844
-152.312210 -1489.759766 467.100067
-30.350897 -1428.843262 174.372879
82.029137 -1027.652710 593.522095
-324.915710 -1413.222534 457.469452
-79.911003 -804.915283 813.442932
-101.123985 -1439.476196 303.543457
69.655525 -1521.816772 603.265503
170.011246 -1013.061707 482.018463
-270.181549 -1472.635010 525.516479
20.338594 -717.811646 839.911926
-103.841827 -1479.282471 425.164429
-101.896080 -1451.465576 477.291260
-12.074385 -1011.383179 292.777924
17.869886 -1426.205933 544.622803
-316.508301 -1458.677124 418.272003
80.973549 -1471.602661 344.924652
-119.901047 -729.034790 862.796753
-158.371582 -1444.308716 260.833466
12.571671 -1002.556213 493.205872
-69.112846 -1336.065063 477.199341
60.326027 -1485.393921 420.910950
-170.757309 -1449.672974 301.112640
-125.409134 -1404.447510 190.297165
-173.075134 -900.049988 766.889221
155.652542 -1499.593262 498.878937
-40.961910 -708.766052 855.164795
-291.462128 -1455.731812 384.210480
-117.949463 -984.383179 394.126892
-128.627319 -780.573792 813.287842
111.402824 -1043.863525 514.343750
-93.198952 -735.795227 830.433838
-188.204880 -1475.610962 405.299225
-239.847946 -1449.013916 391.876648
9.128018 -989.263733 402.242310
-187.363022 -1417.845215 516.128906
54.822842 -1428.684326 206.587158
-31.439032 -796.695923 820.180420
-114.617409 -1445.812866 573.381348
-148.327545 -927.235596 770.366150
-176.078873 -1018.059143 569.166443
-91.548706 -1416.143921 169.606720
-342.563171 -1469.338623 400.009949
-187.329193 -1013.052307 541.060242
-333.325287 -1442.195190 444.515747
-96.209023 -990.001831 337.329773
24.903622 -1033.748413 523.705383
78.088989 -837.651917 787.192932
123.048958 -1485.886841 487.151428
-38.285954 -996.649109 323.236908
119.945602 -1062.330444 615.685425
-64.736465 -991.415466 351.196381
-193.758362 -1504.837158 703.715515
-281.437317 -1456.030884 329.815887
7.144366 -909.302612 776.436584
172.997910 -1512.959839 495.976379
-59.003727 -794.745850 806.275513
2.342214 -817.331482 794.195007
-149.856216 -776.525085 829.409363
-222.999634 -1015.765503 590.640869
-121.529755 -1426.858643 212.575653
35.094074 -1006.567566 462.743225
-86.796410 -1387.293335 492.182220
104.757980 -1529.848999 582.456482
68.978371 -740.031677 841.085083
-41.661270 -716.121155 851.814880
62.212578 -855.698608 795.443542
153.766098 -1017.751038 411.087402
175.720901 -806.908569 783.633606
122.550957 -1480.234375 327.041046
-0.581713 -689.065857 856.741272
-136.897202 -912.169861 775.297668
75.260201 -1434.286621 216.254913
-16.967379 -1457.428955 306.763306
-147.381851 -745.300110 822.414063
-46.095165 -1467.317993 331.263977
-215.338211 -1021.661926 612.224731
157.376877 -818.171692 771.829163
-7.150505 -923.738159 750.292786
-159.459045 -1520.543091 822.892395
-234.584106 -980.766907 584.084717
-162.168076 -1431.601807 183.880737
-146.430634 -1408.427612 522.445923
-196.214935 -1471.915405 496.497620
-101.958084 -1415.704834 524.191650
-132.540421 -1442.215820 319.463593
-17.242861 -990.375793 371.436523
64.548042 -1019.358459 439.514008
-215.441498 -1496.775635 656.787048
-232.975952 -1004.908691 438.797180
-120.293770 -991.130859 382.173431
-88.311600 -987.907227 408.022614
-220.917511 -1536.343018 838.087585
82.975288 -1465.897949 406.809723
-100.675545 -1426.573975 204.821243
43.291248 -913.374756 768.197937
-42.471565 -1043.442749 638.790466
-181.786285 -1460.749878 347.361938
-221.506683 -999.963501 412.255707
-84.520737 -1376.977539 495.074402
-111.693329 -730.969543 851.698425
-266.013641 -1446.666382 401.535004
-202.873718 -1042.751587 661.184937
-31.859007 -1056.014648 632.729553
-234.929291 -1014.133484 381.785828
-98.092087 -790.237793 807.601379
9.380527 -867.428589 786.743835
-58.442123 -716.247864 856.969788
-215.866562 -1002.564392 403.917603
69.652565 -1014.085876 362.217346
91.878242 -1044.629517 605.131348
-84.140007 -977.470398 762.577454
74.753815 -1061.813477 607.660034
114.013832 -1465.371826 450.625580
-148.864044 -802.535583 802.907227
-238.099274 -1442.552368 280.727509
-79.514549 -1428.817993 302.395050
19.299749 -945.218201 756.986389
-56.264839 -1023.461243 535.384216
-232.944077 -1469.769409 439.389984
-224.911316 -1440.656982 253.702316
133.613724 -1032.601318 609.325378
-61.936031 -818.593079 799.591980
128.289047 -1450.722534 292.318085
-54.183544 -705.987915 839.980774
-132.393753 -1027.802490 512.539673
143.707535 -1040.006714 560.494995
43.419586 -1459.945313 296.885895
-277.085968 -1456.693359 344.313721
-300.942047 -1463.654419 411.182007
-156.079208 -1485.488647 771.362854
-109.470367 -752.195374 826.399902
-99.578552 -1425.787109 173.144867
57.436600 -1448.576172 240.012268
-31.130941 -942.799133 753.441040
-115.293922 -1034.373169 586.258972
179.776566 -845.386658 777.176941
-142.736969 -1023.983093 548.078613
13.203212 -912.876221 768.755066
-361.190582 -1439.669434 427.066986
-218.251877 -1463.175781 462.915649
-99.233505 -783.428894 800.153381
-285.268616 -1444.678711 281.148132
45.004955 -1001.047485 283.429077
-136.212830 -1391.734985 220.802078
97.595940 -1472.329590 330.541901
101.630112 -1538.290894 650.809387
-233.903961 -939.744019 527.461548
-16.586872 -993.682373 347.103790
-302.390137 -1479.814575 582.109741
-203.546188 -1483.366455 414.752014
-293.606293 -1443.681519 319.793335
33.697681 -881.178223 779.209290
-278.636810 -1468.373535 458.325104
-121.302612 -1480.846680 434.322632
16.501768 -998.578064 344.761566
-71.452827 -1055.213745 688.272217
-268.679932 -1451.796631 343.531677
75.236008 -1470.861084 351.157806
-131.581512 -1410.869507 198.418488
-127.370941 -1024.081909 541.826294
-202.878922 -1509.014893 626.036133
-27.267284 -985.193909 425.595734
-64.380371 -1422.995728 459.792877
-24.568838 -1062.149902 663.860657
-181.082809 -989.614319 493.871979
-88.732895 -1431.219482 255.672455
-220.850632 -1449.937378 516.641479
-192.787918 -1536.851074 829.114441
-154.499146 -869.358154 781.763123
154.201233 -1445.502441 343.426941
-119.204674 -1426.027588 542.530273
-122.474419 -981.894958 351.318787
-261.695648 -1439.894165 286.898926
-51.429947 -1378.993652 463.278931
-190.913101 -1557.442627 806.694702
-194.734222 -1427.474365 205.791351
-145.190384 -1473.041626 502.844788
31.559942 -997.216187 342.080658
111.687263 -798.290344 796.389709
31.111179 -727.288757 834.388977
85.494598 -701.851135 846.967590
-56.957771 -1003.071350 533.274231
70.106339 -983.327271 356.695435
-188.925171 -992.007202 370.404724
15.237243 -936.691528 749.664429
-84.541870 -1424.842407 424.908020
16.833538 -1476.255371 264.323792
90.588127 -1056.275269 625.654602
-90.550247 -922.506775 749.923889
-124.608597 -1427.143921 263.415466
61.016781 -1458.475220 448.738129
-88.820488 -1033.603027 521.713928
-153.986359 -1001.379944 311.860046
-197.016602 -1455.243042 497.183899
-212.918198 -1480.829468 425.514404
-132.558716 -1463.609009 345.690277
-206.462616 -1014.519714 520.073914
-105.587318 -1463.774414 346.974609
-185.676422 -998.568848 463.259399
126.027847 -893.574219 751.995422
-267.524963 -1435.904419 332.311249
-137.865189 -1497.164429 622.966675
172.934296 -799.460876 803.753113
-148.435684 -971.244324 776.344116
74.700516 -698.332214 852.089783
-102.614700 -1492.942505 687.153381
-61.440189 -1026.645386 594.639221
-103.445854 -813.981140 791.602905
-222.068909 -1437.923096 240.372940
61.959873 -763.170837 809.039856
-142.828964 -988.509827 428.555450
69.386810 -997.056091 371.654846
-112.570992 -977.787537 381.671478
-124.454613 -1447.228271 283.763763
-246.920013 -1452.996582 344.993866
92.004929 -1021.708801 514.896484
-327.130737 -1455.316406 473.235535
60.223938 -803.489868 797.562439
-108.627785 -1494.203979 694.243103
-148.917160 -798.254700 803.265198
8.782158 -996.073181 351.816284
-94.379730 -1427.445557 170.983383
-143.157104 -1473.846436 429.655792
64.777206 -816.445618 792.981445
-3.454606 -1448.131836 461.452972
121.629250 -1026.118652 429.006622
149.319443 -915.989624 741.869263
-2.323740 -1445.466187 238.383820
168.162460 -872.337158 763.817749
6.030689 -827.774841 797.911743
-16.471672 -994.560364 415.674347
-246.683746 -1447.904907 369.615051
112.575790 -930.392090 747.326538
10.945883 -1473.412964 486.317810
-16.766088 -1010.368164 372.028320
-227.898788 -1422.992188 498.759888
-181.504715 -1438.986816 498.394775
-125.466545 -1477.862549 390.049194
-150.300186 -823.162598 800.691528
-210.074234 -1478.054565 456.379669
-58.135937 -734.540039 824.871338
-145.996597 -912.895935 756.897583
-7.300120 -1020.416077 532.528320
-186.493378 -1503.338867 638.434692
-79.954971 -817.577576 796.104309
-147.958511 -1479.214111 496.248718
15.243693 -1003.712524 461.909729
31.229940 -1004.205078 319.957245
-53.729668 -985.152832 298.122803
-66.857689 -1451.870850 280.390686
-153.084030 -939.823730 755.419800
36.397640 -1000.639648 476.827271
-217.089981 -991.997192 391.958069
-108.226006 -719.307129 851.121643
-263.667297 -1427.677979 289.308624
-132.872955 -970.744202 754.287537
70.569550 -1012.328674 479.919586
-46.163593 -823.705200 802.152710
-126.918793 -986.499939 370.444427
77.441994 -1483.134521 284.259613
-42.919621 -1021.911926 554.544556
-89.644882 -1348.548584 282.803497
-289.503387 -1466.470703 372.993530
43.424870 -959.903809 726.668091
-278.750702 -1448.741699 491.522278
-137.380814 -1004.568970 381.557007
-29.602501 -842.266602 792.574036
-47.700359 -1457.828247 336.724365
-248.599884 -990.035217 461.304932
-74.604927 -720.423462 834.046814
-217.132858 -1497.246826 674.138855
126.831413 -1465.126709 310.627777
5.160943 -1009.025574 455.496704
-75.342171 -862.844238 784.179871
109.780106 -1483.404419 339.138733
16.909653 -1033.950806 519.691589
54.052746 -1470.026855 415.550629
-38.370445 -1391.857300 431.843140
40.412376 -986.196289 400.174713
-56.454311 -878.499634 775.122009
-115.069481 -1371.887817 257.048157
-274.910645 -808.429138 651.196411
55.770401 -907.447815 772.650635
104.503273 -775.579407 811.209534
21.550041 -1037.501587 659.659729
-135.510941 -997.130981 527.095398
-216.615738 -1479.341309 418.523193
-208.680511 -1454.354248 251.650482
1.745399 -1459.605469 214.313858
11.337121 -998.537048 475.944183
-85.974312 -1457.948120 729.745605
126.966225 -1458.550171 343.025665
25.780621 -1438.011597 248.762512
-166.869217 -987.487610 387.382172
120.911575 -723.733337 832.053406
-124.828392 -804.839355 799.402405
-103.488976 -745.726501 821.684326
103.139999 -985.655029 365.013062
-151.666321 -1428.080811 230.415924
-12.571315 -1472.610352 254.646042
-293.638214 -1456.778320 378.158081
-197.823502 -1006.769836 533.427795
77.086578 -945.952209 749.135620
-76.728630 -983.307434 430.362427
-292.479858 -1460.715454 468.326538
-21.125410 -886.538452 775.802429
57.489819 -738.530945 820.745117
-77.788567 -1446.164673 260.774994
-163.661316 -1002.866333 438.222351
163.614151 -1017.725708 417.153137
17.075188 -716.678345 830.438721
175.009415 -1448.822998 369.690918
170.012329 -1520.813965 548.381409
-154.048035 -795.144348 795.771179
-62.580631 -1022.098755 502.206116
44.118900 -958.795654 752.832275
-228.790741 -999.685730 490.398163
158.936813 -1445.520142 272.961975
155.543976 -936.693604 736.375244
130.856613 -1520.941406 576.968994
-111.798241 -901.479065 768.859436
66.737709 -1456.785889 327.814941
-75.400085 -993.751831 404.113373
-117.833321 -992.757202 449.643158
-159.044907 -1431.000732 275.180908
-201.520966 -994.849060 355.411133
-57.468307 -1044.599121 621.162659
-203.051315 -998.448547 383.585693
-134.425888 -991.837830 349.853729
58.279976 -874.648071 775.714111
84.751244 -1069.611450 640.103333
4.543562 -988.416443 431.378052
86.523643 -764.618347 801.275879
-201.451569 -1439.850220 259.881042
-115.550301 -833.705811 800.705078
-138.971176 -994.031738 433.278198
-78.216148 -1027.236206 532.971802
-110.319199 -847.060303 778.084351
-71.452347 -1020.124634 473.160339
-9.962163 -1434.713135 466.612762
94.280312 -739.237000 845.393311
-186.383545 -1006.366699 330.836975
118.065170 -908.002808 744.310669
70.291969 -1004.491516 327.202850
-180.168121 -1442.516724 248.200958
136.481644 -1016.324463 416.906586
-197.006485 -1515.162109 684.334534
-121.603050 -1023.551819 536.774780
-1.756285 -1458.263062 271.205872
-143.153793 -1465.756714 331.723724
-204.941513 -1520.254639 612.686401
173.264496 -1469.575806 453.794464
-67.346863 -871.736816 780.412048
90.468430 -1528.733521 605.640442
-157.120728 -1467.165405 346.793457
-15.010058 -1451.222168 479.375702
56.427460 -1491.206909 372.366821
-148.671753 -1009.958679 306.836334
-31.457314 -1026.538696 536.671265
-114.575050 -928.190125 755.187439
-277.119415 -930.896790 519.267334
6.837846 -1484.330933 442.011810
-61.412003 -1406.020996 483.912506
-61.473099 -746.018433 824.650757
-13.284266 -722.326843 836.491455
-174.877121 -1431.064941 198.615982
-166.397430 -1401.149658 496.409851
49.499214 -708.324646 859.420166
-121.498863 -1001.837219 511.745087
-42.115314 -1000.069397 298.705750
-148.927536 -888.416138 773.920593
-336.665100 -1445.272827 461.979034
-242.008102 -1464.845093 487.881805
-163.434219 -1510.413574 526.164307
-181.111664 -1485.150146 457.400024
55.255646 -955.194458 753.868347
-92.014862 -880.487122 776.857361
-110.701218 -1000.370789 434.899017
74.624855 -999.721924 408.502686
-214.648788 -1009.414185 362.048981
-156.995636 -919.937744 762.156311
-217.989090 -992.581116 459.204163
-202.788452 -1016.495972 505.589569
38.972500 -752.823364 832.930847
-156.483475 -1466.194702 355.558411
-131.595428 -934.842896 760.036438
-126.203857 -785.133362 812.811707
-134.125534 -1463.478760 475.119141
-83.672905 -770.473206 809.445923
125.790146 -1019.334778 449.930878
111.537468 -1069.163574 617.294373
-168.781281 -987.722107 369.318024
32.983963 -735.749451 827.019226
-210.158035 -998.855652 349.277771
-112.350060 -1493.246582 523.185669
-241.741837 -1440.964478 286.306732
-111.166367 -1052.551392 655.062134
209.871445 -1482.229492 397.812897
-316.351746 -1400.302246 475.092010
-136.153336 -1480.105347 390.027283
-118.903656 -806.610901 796.126770
-10.758589 -1472.444458 467.175293
-225.207382 -1479.210205 581.437866
-82.157684 -819.996643 798.665100
-129.231445 -788.210266 815.367432
-196.596512 -1009.827393 496.650330
115.486610 -1001.348999 455.976654
-49.618668 -941.232056 755.944702
16.928850 -1080.843018 677.887390
205.962662 -1482.857666 366.110443
-86.700790 -1450.133667 256.494568
62.251255 -1452.645874 251.570831
-42.266945 -999.021057 323.596497
-36.861202 -1471.297363 299.268555
101.257347 -1039.001099 320.758087
-33.834049 -1418.750000 179.097183
71.930710 -959.297363 732.610291
-35.242203 -886.577576 762.797607
-56.543228 -922.965454 774.456482
-84.491905 -1421.969238 143.926559
-76.411591 -1018.912170 589.532715
-126.229012 -997.242432 473.513580
-100.589546 -1005.962585 352.523987
-90.117104 -1480.402954 572.595764
-72.435455 -996.629333 323.604584
-43.639599 -885.087463 772.231506
-120.264633 -1007.442749 328.095276
-106.196198 -816.197815 795.518738
144.993362 -884.094116 765.904053
-74.124863 -1311.508301 352.137909
-163.424500 -1488.443726 422.906219
-167.506729 -1436.625854 217.987595
-136.537781 -949.720276 766.820618
-278.236084 -1437.417847 288.072449
-99.933022 -981.016968 389.326172
-134.308105 -1539.653809 889.914551
55.986713 -772.633789 819.356445
35.508862 -920.030396 764.379822
-120.645607 -737.725647 843.439514
125.385399 -735.643005 828.561279
-25.685570 -998.403503 412.987183
11.899608 -984.452515 405.043182
-67.193428 -1001.820862 469.020538
-263.184692 -1443.900757 299.218231
-190.021194 -1010.106873 558.967468
-132.074005 -1452.450684 296.293335
101.422264 -1025.686890 455.851349
142.100937 -1014.383301 446.504852
-205.938370 -1439.747803 338.231964
59.334656 -995.647827 328.570953
-280.165924 -1440.245972 273.436615
-131.957031 -1426.195313 206.118851
-167.236908 -1446.241943 331.732422
-66.953377 -1457.693115 411.816284
-153.441528 -1510.995483 524.000122
-238.381058 -1005.103821 616.264404
-202.503281 -980.794250 429.854218
-147.222000 -1472.086426 446.816620
25.743927 -1415.035889 464.059875
134.420486 -942.013733 743.626221
-137.013916 -805.356567 801.416809
-110.818962 -1407.680176 291.306671
-212.179245 -1524.206787 692.726257
70.966774 -1060.302124 610.025330
-213.014572 -1436.900879 236.349854
66.420380 -1506.312988 605.516418
131.412048 -1450.409546 420.671570
26.640366 -1023.992615 544.891357
-329.470428 -1446.692017 355.622009
-274.533173 -1465.971436 460.817505
113.463020 -1014.227356 443.292328
-218.062943 -1502.715454 648.723755
-53.026138 -871.304932 790.219543
70.255768 -1477.650879 361.262787
-163.535736 -1017.657898 575.656799
44.228397 -1011.997192 359.086700
-191.218170 -1466.997559 485.284607
72.261932 -717.462524 842.614624
-146.590363 -1059.259399 690.622253
60.080517 -1481.234741 447.686218
-149.330017 -1424.700439 176.683716
-158.126495 -1404.808594 148.847031
94.802094 -999.036133 360.373505
-167.362030 -800.709900 810.748108
-233.249115 -1002.372375 445.686951
-14.457718 -1483.133789 451.269989
-103.262161 -941.955200 765.538208
-169.061157 -959.995850 763.737976
-193.572601 -1569.014893 886.385437
140.331680 -914.148499 743.151733
-75.500008 -1361.892944 511.972504
145.960480 -739.445374 828.609985
-375.953125 -1465.371826 533.152039
