ply
format ascii 1.0
element vertex 1348
property float x
property float y
property float z
end_header
-90.714745 708.095825 -847.915833
-191.132233 1015.676208 -408.759674
-413.979370 700.397888 -749.677002
-436.126953 950.298767 -550.600342
-285.948303 1193.753906 -1182.291504
-218.742554 643.094055 -814.468506
-223.793259 791.338928 -1284.635498
-152.088333 1022.975098 -582.361633
-240.960815 993.711182 -435.996490
-279.825500 658.272400 -1262.453125
-291.716156 1049.997803 -1210.267090
-206.071259 1001.154968 -666.941528
-195.206070 999.739075 -505.104797
-225.894135 919.911560 -755.632751
-235.585464 625.001526 -1281.252441
-375.677734 1090.295898 -1123.806152
-385.951599 983.610962 -490.336365
-293.571106 629.507324 -805.911926
-183.050873 796.146179 -1280.020020
-95.647804 824.364014 -1283.135132
-331.927979 701.272583 -762.623779
-80.985573 849.184814 -1266.509033
-139.940109 943.004700 -1188.767822
-412.708984 960.544006 -589.804688
-127.808304 1005.658630 -593.330383
-233.149918 642.451538 -822.364746
-429.683716 760.628906 -769.865417
-331.326263 1254.335205 -1183.948853
-620.858826 893.177246 -1188.909058
-428.356232 953.505371 -391.117950
-437.386871 785.087830 -1234.281860
-141.361588 816.513855 -1289.051758
-376.052551 949.874512 -743.928040
-366.813385 594.151062 -799.077454
-299.170837 624.199707 -1266.930908
-299.354767 672.599182 -1219.495850
-202.637161 1004.361328 -513.848877
-0.789256 760.518005 -700.173401
-137.051163 855.632690 -775.923889
-216.090103 1003.866089 -418.689911
-359.189606 605.676880 -776.100159
-163.035889 1023.585815 -444.263641
-553.781677 675.533203 -1220.041992
-198.986130 905.366089 -1258.764526
-244.207031 1004.330200 -582.487732
-316.391815 979.822266 -390.437408
-304.057343 915.303711 -1163.368774
-432.735504 652.776489 -749.458740
-298.072540 801.713989 -1120.445435
-156.380356 742.504883 -816.629761
-487.880951 826.692017 -1200.805786
-275.962463 982.560059 -562.918762
-217.186203 610.987610 -1285.334717
-118.537277 787.481567 -792.090210
-345.964752 853.248047 -1167.347900
-471.774323 942.803284 -501.820313
-105.632416 895.728271 -1247.880981
-177.191879 1013.622437 -480.301575
-420.267853 951.381714 -434.666595
-425.784454 921.185608 -736.601563
-222.394623 659.307312 -798.434814
-381.988403 691.587402 -1266.059570
-265.816589 993.592712 -473.749664
-232.354385 874.420105 -1244.945313
-201.269821 907.676208 -1247.849976
-284.011597 877.461975 -1229.377075
-430.656860 952.869202 -608.355835
-81.569237 898.804199 -1266.080322
-130.473083 887.533508 -1270.525879
-196.877991 911.215271 -1173.897949
-87.723419 725.191345 -816.492798
-218.363174 1002.547424 -1195.268921
-170.262405 669.416504 -799.910706
-270.941193 952.192383 -1218.107910
-358.325256 1035.096558 -1193.092896
-394.517395 767.386902 -760.755981
-338.779510 903.863708 -1204.240601
-140.498352 1011.988098 -1237.253174
-137.448151 696.534363 -815.119141
-141.869705 1033.712280 -1235.992065
-346.082672 978.205566 -459.566162
-477.795654 792.249451 -750.758850
-259.380096 776.148071 -773.340515
-505.481567 779.729919 -1214.987427
-186.737534 629.712463 -821.491394
-194.229218 825.529419 -1281.831299
-381.168976 972.423035 -420.624390
-453.002411 844.055725 -1192.549805
-187.193542 880.116699 -1270.158325
-238.418488 783.461853 -1267.488525
-405.383392 1281.661743 -1184.419678
-472.074799 774.356323 -1221.463501
-388.454834 620.140198 -784.346619
-467.133392 943.353882 -453.454010
-412.628723 958.787598 -473.589050
-305.658478 814.394775 -1248.007690
-392.958282 955.739502 -521.939941
-217.686203 848.546753 -774.998352
-283.731262 1007.043579 -438.834137
-333.158234 752.539368 -792.045166
-395.888214 897.276184 -1112.234375
-193.820511 864.307434 -775.739807
-292.786591 606.082703 -1273.610962
-345.305145 1309.468994 -1175.014771
-240.138199 990.960327 -510.374878
-125.340042 691.276367 -820.924133
-283.026093 792.798401 -776.935120
-299.472595 615.170166 -1260.706177
-50.348366 931.143127 -1251.203369
-236.915024 959.450012 -1225.901489
-175.579010 884.576660 -1150.137207
-144.879288 1016.960571 -529.526245
-414.949219 734.856812 -1253.969482
-155.212952 1001.734680 -1232.878296
-227.057602 891.304871 -1261.056030
-219.152161 1002.935181 -436.011566
-361.707581 980.591370 -574.899170
-300.956299 973.604370 -763.450439
-316.436310 994.070923 -619.480225
-255.599014 992.190491 -468.386749
-225.965073 653.351563 -820.739441
-173.238052 658.300415 -1300.648804
-22.672808 793.527100 -664.607849
-215.561661 827.570801 -1278.565430
-54.507175 825.844116 -797.183228
-191.325119 1023.076599 -421.863525
-412.162872 1258.890015 -1120.931152
-129.003235 986.805664 -1240.581421
-193.052399 607.301086 -844.457336
-133.041260 714.695557 -825.896179
-264.107422 681.444763 -1258.338989
-263.501892 644.662476 -1226.597534
-251.460022 719.624207 -1260.005127
-228.463165 710.740723 -1286.611206
-432.795868 630.369385 -1240.150635
-212.456970 714.825317 -1281.286987
-340.093689 677.682373 -795.054260
-129.523804 714.013428 -1275.291138
-208.042053 1002.763184 -445.196442
-119.189445 910.038025 -1193.015015
-324.275208 771.990417 -791.214417
-610.556335 911.335876 -1203.299316
-212.322098 782.139832 -804.201294
-325.229828 669.442749 -768.086243
-148.588501 874.570801 -1266.635864
-110.954300 843.601807 -1286.193359
-321.942352 890.719238 -1217.621094
-96.592735 699.078308 -834.011597
-205.863205 1005.742615 -417.743225
-241.078140 649.844482 -1273.698364
-282.857178 931.206848 -1212.589233
-581.430481 688.920654 -1195.920532
-144.048279 1016.930664 -624.531494
-220.475143 827.566956 -776.296204
-288.114441 706.718018 -1211.332520
-469.310852 643.041748 -1244.824585
-450.514984 958.144043 -476.701324
-419.587677 672.765381 -1259.363403
-265.422394 997.978577 -519.972046
-308.403137 598.318359 -803.552063
-377.931305 971.963074 -498.685638
-433.686462 921.183594 -1115.059326
-239.418472 756.769836 -1283.580811
-140.703751 773.061096 -807.091064
-366.897003 961.918518 -443.202606
-169.105927 649.563904 -824.505676
-351.933990 601.850891 -779.474854
-213.063416 1016.326050 -598.505798
-401.692108 964.984619 -565.240906
-227.151764 1026.747925 -1221.572510
-334.086700 946.524170 -746.568481
-359.364868 932.954834 -762.160828
-344.307587 987.162659 -588.298584
-316.820190 1072.938477 -1229.364746
-483.369202 825.916321 -743.079590
-351.574432 982.163635 -366.780151
-429.366974 777.003113 -748.770264
-333.489258 653.112000 -783.837830
-371.654968 913.866272 -1176.685059
-387.594727 637.019470 -773.149719
-203.973328 787.401184 -779.055969
-403.625214 788.465515 -740.511780
-136.104797 1029.755493 -508.022430
-227.434067 652.887573 -1272.057007
-303.374329 695.473999 -771.845764
-102.633110 789.980591 -1293.599243
-210.817551 646.434509 -805.771240
-121.660973 850.520203 -1259.663940
-304.832703 676.988892 -767.236511
-241.885040 991.879700 -611.183044
-290.430695 989.217712 -541.619873
-339.810669 679.508545 -790.637817
-222.611374 994.829773 -545.497864
-90.659882 1014.448792 -1263.909912
-497.549530 798.190369 -1213.193237
-315.951477 665.419983 -781.741089
-100.043762 706.906067 -815.802063
-229.608154 993.389404 -463.103729
-174.748322 761.350220 -799.175110
-301.835327 588.738525 -804.352478
-348.661316 977.264404 -344.565155
-265.521515 628.772583 -799.253296
-259.235870 985.583801 -514.987732
-143.401581 830.215149 -1273.900879
-316.245361 837.388611 -1244.957886
-205.231064 1046.225464 -391.028015
-327.100494 983.257690 -478.831665
-118.591988 758.722229 -820.881348
-288.842773 642.247131 -1253.408569
-231.586151 864.335022 -1258.593018
-272.582947 989.863159 -390.568054
-474.017456 843.249756 -1188.570679
-188.038147 728.734985 -1291.763916
-478.400879 683.726196 -1236.111694
-467.840637 856.675598 -721.158875
-290.811340 777.983582 -784.620178
-477.877625 774.259827 -1208.311279
-305.516296 998.524658 -616.495056
-361.109985 978.023071 -437.949738
-400.689880 943.482361 -1119.438354
-270.587250 877.236389 -1242.635376
-137.050812 636.124146 -834.350708
-218.980576 622.252686 -839.833740
-168.102814 1015.454712 -566.221375
-378.143921 769.885986 -1254.318237
-188.891281 637.119568 -816.553894
-269.358276 994.842834 -425.873474
-437.192566 946.330322 -428.835297
-436.088806 702.064636 -762.232056
-127.727409 750.986206 -798.570740
-190.247208 1009.243225 -545.926392
-259.816895 923.734436 -761.266846
-256.310150 1109.417358 -1204.942017
-134.120026 1023.432373 -626.527344
-270.257965 630.982117 -818.212830
-536.986328 756.901428 -1206.948730
-178.954895 686.764587 -801.269653
-96.348534 1002.736206 -1259.591309
-377.483246 975.242493 -367.137970
-310.467957 975.221802 -525.034912
-168.714050 925.996155 -1206.137451
-226.772690 915.658325 -1166.296875
-93.338348 819.887878 -1294.912109
-231.654037 777.585144 -1285.447754
-62.363483 871.087769 -1268.283325
-464.292419 936.401428 -485.335571
-187.130722 1010.201111 -522.802063
-163.409485 623.444092 -859.743408
-249.715408 944.322388 -1216.658569
-362.127716 718.752502 -770.450134
-239.452972 930.204285 -1238.096191
-260.215576 636.089905 -817.746216
-224.671616 593.396606 -834.592773
-279.710754 852.777466 -777.068665
-509.813477 795.138062 -1182.311035
-216.028503 1002.468384 -404.952881
-175.889618 619.048889 -846.583374
-370.218170 969.022034 -357.166199
-233.075470 1009.886108 -613.307373
-249.888092 660.460083 -791.635803
-445.985992 728.584290 -1240.066040
-210.047913 801.752380 -1279.759766
-508.330780 633.290833 -1220.998535
-357.899597 722.003662 -1252.292847
-188.191071 1019.922485 -1221.159424
-374.363861 992.649597 -657.589966
-285.812897 708.087280 -781.711487
-267.368195 673.691467 -789.184387
-310.525696 976.276001 -758.841553
-328.526550 584.076294 -807.935791
-299.860626 758.723694 -770.620972
-183.397171 1027.875366 -392.234711
-404.827484 968.211060 -559.751221
-445.206665 611.128601 -781.487671
-277.692993 1004.905823 -637.558960
-164.563599 685.262085 -1297.257690
-20.093201 934.992920 -627.371094
-168.628464 709.011536 -1291.042969
-560.928345 768.862366 -1177.672607
-174.346313 1004.869751 -452.389191
-511.262604 812.891052 -1205.433716
-189.524033 776.385864 -1275.610352
-337.987701 558.494507 -808.862671
-223.712112 1014.700073 -644.287476
-477.958862 722.032043 -1234.016724
-265.210266 711.307251 -1236.666138
-72.629204 948.813538 -1205.454102
-118.093849 1014.694641 -517.782227
-339.973785 807.952881 -1130.623413
-189.790741 1017.745117 -408.329895
-282.644623 938.561951 -770.280029
-232.930740 693.316284 -789.740295
-122.951302 1011.446228 -1242.374756
-423.122192 866.083191 -1174.131348
-490.527618 674.958984 -1239.377441
-298.300385 935.274841 -1214.783203
-229.605972 1022.123230 -353.404449
-235.906799 845.669128 -774.323364
-191.232010 741.030457 -1286.790527
-296.810211 1145.273560 -1187.710327
-208.906570 1004.471741 -660.858826
-386.829468 619.319519 -787.095093
-86.810043 820.920227 -1290.543579
-386.611481 969.985168 -481.425079
-457.427124 652.107544 -1243.837158
-182.407227 708.753845 -808.850891
-473.283020 838.560486 -1201.225342
-302.418945 631.123718 -813.318298
-233.431305 628.583374 -807.220947
-52.289024 908.910767 -1275.553223
-243.242493 882.661804 -1261.297607
-111.914345 710.833679 -834.557861
-543.632751 741.697937 -1162.501343
-183.444366 1023.642700 -619.667480
-373.481049 650.924194 -1257.557861
-364.954559 969.985168 -439.863464
-84.673309 903.740479 -1268.031860
-130.951050 934.585205 -1229.153687
-486.944458 833.371887 -1213.103027
-590.509155 703.060669 -1185.464233
-286.123810 999.141479 -1167.693481
-190.084976 713.590759 -785.475708
-373.080780 978.601440 -350.079987
-205.680527 738.899902 -800.078735
-269.664490 648.039734 -1266.311401
-265.227386 997.353943 -498.690491
-623.345886 838.818237 -1190.390137
-326.330231 720.546143 -1248.314575
-322.958679 858.697021 -764.278198
-80.983047 988.088806 -1264.051758
-266.761353 1082.662842 -1205.343628
-156.306778 677.990295 -815.194519
-293.905579 1004.374390 -601.540894
-247.743225 812.637634 -1246.959106
-444.159393 810.237610 -1235.617432
-226.744385 733.599487 -1276.235229
-228.051407 1017.561157 -667.749329
-323.026276 988.360229 -509.285828
-106.566132 757.166138 -801.113159
-407.490906 687.217285 -1252.835938
-190.207657 715.873840 -814.770630
-388.925201 598.181335 -772.831055
-524.223022 809.037537 -1202.251587
-411.964539 964.092468 -586.628113
-272.972076 773.995361 -1262.225098
-381.954773 964.380554 -449.268066
-333.241699 790.185608 -1143.777832
-293.583130 1004.508484 -610.339905
-231.503479 663.591797 -795.227112
-311.539154 1266.775513 -1167.449463
-86.199013 955.609558 -1252.917480
-196.122498 840.328247 -786.603394
-343.244781 722.810364 -773.643555
-186.749786 1016.946838 -565.692810
-77.361588 941.954590 -1269.238892
-232.148590 877.564209 -756.848267
-338.247314 980.289673 -365.498138
-474.289703 936.369202 -561.731445
-311.442688 987.535156 -432.760284
-432.054108 947.750671 -473.137909
-122.720673 788.343872 -1296.897095
-221.997955 648.267822 -811.398315
-101.491142 684.152710 -836.240601
-93.112335 905.237732 -1238.045044
-195.168274 811.231567 -779.139282
-453.778076 853.293518 -1170.498047
-552.481812 802.728394 -1186.500366
-397.279297 751.354187 -756.202026
-279.525482 638.167664 -1254.097900
-254.509720 779.147766 -781.939148
-233.395355 1000.534607 -578.547974
-424.909485 943.286438 -530.221436
-273.284515 921.995789 -1241.499023
-236.022079 750.212219 -1255.262085
-264.749634 579.796143 -1289.243530
-297.630524 735.404663 -1154.706909
-323.533020 582.408997 -1275.849854
-288.567627 856.765564 -754.434448
-242.290848 1004.061768 -424.652283
-211.529526 775.786621 -774.393555
-93.858917 712.528076 -816.967834
-320.093414 1073.732422 -1220.758301
-235.256912 721.388123 -775.499512
-311.807556 1012.800293 -379.815826
-445.228363 969.370239 -379.822327
-199.638702 669.308105 -1270.445435
-484.055847 933.349121 -507.024689
-154.180557 1016.214417 -656.867065
-339.936768 983.698425 -412.661133
-297.838196 996.388794 -754.374817
-375.869629 813.383179 -1167.090454
-422.892914 757.618103 -739.772644
-436.102478 736.029663 -1239.960815
-258.572754 1002.523926 -472.930084
-489.265076 712.136597 -1253.992676
-238.332413 725.728210 -1278.368042
-90.065437 963.453125 -1253.384888
-373.556915 962.892517 -416.046448
-47.109051 924.437927 -1285.858887
-270.438690 994.113770 -444.281799
-236.969391 607.510864 -816.901672
-297.597992 874.426819 -1226.090576
-216.986420 999.088562 -508.179932
-175.842987 1018.677002 -603.000427
-310.965393 622.871765 -792.204346
-288.514130 986.383850 -494.263214
-224.459686 717.924377 -1283.761841
-87.772026 740.256531 -818.324524
-633.960144 831.067017 -1173.678101
-230.611298 663.561035 -1283.451660
-193.420227 731.730530 -803.353271
-286.243561 1142.985229 -1173.311279
-325.848938 1303.024048 -1187.945435
-219.081085 618.499512 -1288.982788
-98.251122 799.169006 -766.399780
-304.442108 985.328369 -484.721405
-278.627899 1138.123901 -1192.474609
-496.789764 823.556396 -1188.946289
-357.106812 980.055237 -467.024414
-106.549744 805.633728 -793.282715
-158.068405 1022.386353 -456.209412
-59.359634 813.874634 -778.040344
-221.642593 997.311340 -454.877441
-435.369019 918.529236 -750.993713
-130.681274 831.598755 -787.213440
-54.246582 912.382202 -1272.100098
-117.746078 922.936646 -1243.341919
-397.684692 671.605103 -1264.804565
-283.678894 869.960510 -1259.746094
-251.908966 998.323669 -464.833344
-346.045013 813.942688 -1115.589600
-438.434753 845.487183 -728.380676
-285.716095 995.981934 -644.679199
-387.586639 973.287903 -558.964966
-148.443863 766.137329 -1290.281738
-460.232178 937.088989 -499.819275
-251.096909 605.215210 -810.009644
-69.116783 758.932251 -814.506775
-235.434616 963.612610 -762.339355
-502.201080 664.994934 -1236.527832
-226.752396 993.541626 -447.505554
-347.282990 844.831909 -772.294189
-290.206543 693.458679 -785.542786
-52.601406 854.188293 -743.977539
-138.023590 1021.313110 -1238.163940
-358.974030 977.643616 -373.949310
-281.867035 943.060669 -1225.506836
-146.073746 809.829956 -1289.912231
-190.173187 1009.336609 -425.899536
-369.131561 971.486938 -479.538910
-348.878326 835.213928 -783.187622
-198.551041 728.246033 -1285.368774
-134.290878 1028.722290 -1238.180664
-356.554718 717.687988 -1251.362793
-82.644066 852.560547 -1292.615479
-169.552002 978.871155 -1194.766357
-351.851318 943.730286 -1086.545776
-317.249573 923.451355 -1236.173340
-415.236633 882.030457 -1188.426758
-82.489182 909.708191 -1248.483765
-242.818619 866.259399 -1268.752930
-151.108276 609.391357 -850.817993
-256.843658 759.593445 -800.382874
-174.509354 643.274231 -840.666748
-431.670593 680.823547 -759.601990
-244.092880 853.357361 -1264.338013
-236.422821 626.592468 -1264.400879
-390.461426 967.690491 -604.656494
-167.594742 895.961304 -779.757874
-287.016968 731.312378 -1160.912354
-177.346237 1013.662354 -557.293579
-241.920349 632.111877 -1283.461426
-324.028076 708.997925 -771.651978
-191.582703 1007.927246 -614.222839
-199.673813 644.753601 -809.189819
-399.096924 713.791199 -1231.546021
-90.212196 876.895935 -1288.251831
-383.230408 827.519165 -760.142761
-131.410797 1031.535522 -463.656219
-377.241394 868.672485 -778.299194
-212.130157 1004.810059 -393.039001
-226.853561 993.222778 -577.080872
-230.807785 701.870056 -1283.365601
-331.556335 971.284302 -437.824158
-416.020691 948.817871 -495.780640
-255.211990 988.407227 -452.008820
-44.861557 943.490906 -1282.719360
-106.824677 811.637146 -806.015747
-197.132141 787.433777 -800.457764
-190.463974 666.435364 -1292.501953
-290.265656 643.860657 -1268.591553
-447.263916 882.542480 -745.958923
-266.462952 721.948486 -770.110962
-416.104736 725.083252 -1246.675415
-223.854752 1004.956665 -448.770782
-332.543884 898.261353 -1230.575073
-485.673981 738.011780 -1249.517944
-179.548859 791.894287 -794.073975
-434.488586 760.562073 -757.039673
-199.387329 889.483826 -765.755737
-330.212738 772.890747 -1172.965942
-305.744965 826.812439 -1114.700073
-384.053528 898.070923 -749.804565
-243.759811 993.169983 -534.802124
-395.456299 653.681335 -1276.427979
-396.209015 858.000977 -1189.936523
-52.760487 932.598877 -601.115173
-222.483063 678.397034 -1263.066406
-424.139923 591.748169 -1244.632813
-166.555084 921.180237 -1244.943237
-101.652054 780.079956 -1296.682129
-415.342834 960.487122 -593.672607
-304.423096 751.426697 -1183.697632
-460.164337 940.654846 -599.375183
-135.913528 645.468140 -863.497375
-340.732544 887.702209 -751.535156
-428.301544 680.302063 -763.249084
-466.221741 1258.217285 -1137.180054
-263.073364 1134.918457 -1230.494141
-550.848572 698.167236 -1203.583008
-218.676987 1012.613220 -592.426514
-518.337708 1030.584961 -1211.396606
-532.900024 769.344116 -1165.811890
-193.620316 712.735291 -1289.927368
-449.975952 625.587341 -1237.630859
-478.826874 705.254089 -1232.276733
-202.293854 798.750916 -782.239197
-459.380920 955.586060 -436.906769
-211.032654 997.923279 -607.566528
-98.643456 684.360718 -864.910828
-371.568604 760.101013 -763.460571
-397.650085 728.038025 -1243.636230
-215.479630 1008.667542 -534.460266
-394.988831 852.264160 -1220.371582
-68.098907 1011.221313 -1258.108887
-254.776825 901.433228 -1169.924805
-285.296356 610.186157 -1273.875977
-129.659744 896.159241 -1247.512939
-180.198700 667.219482 -797.972717
-598.648193 696.346130 -1210.834106
-284.472382 710.979614 -1160.164551
-264.719360 887.173645 -1256.725586
-285.366180 880.499939 -749.220581
-376.864960 735.813232 -1245.732788
-240.692078 953.424438 -1196.614258
-364.324036 661.826538 -779.058167
-291.813354 1154.039917 -1178.167114
-250.557556 831.218994 -1260.011719
-331.200378 708.063477 -1230.783813
-382.288757 965.046753 -596.564087
-350.281097 967.776428 -642.820923
-201.489807 1014.061157 -571.353333
-307.610016 885.300537 -1116.816772
-208.826538 597.632813 -852.088318
-152.015167 794.080505 -811.322571
-251.823105 996.316406 -567.450378
-383.416565 975.204224 -433.096283
-356.981262 577.622925 -1258.875000
-199.070267 1013.276672 -587.367798
-219.291153 1002.199768 -401.241394
-127.785027 782.086609 -1283.720459
-559.247681 710.070801 -1192.227539
-265.368622 862.241211 -777.883789
-195.589569 1008.520569 -562.899902
-329.387604 592.880066 -828.115051
-367.870178 970.464050 -623.829163
-398.514099 686.245850 -768.963684
-401.615479 711.855042 -1244.502930
-291.579315 995.557190 -532.001099
-316.063538 590.783264 -812.551086
-297.664215 915.981567 -1224.664673
-405.751984 951.542542 -568.906067
-315.239349 985.849243 -380.919861
-238.851624 1000.420959 -430.505280
-335.419281 871.055542 -1224.673218
-271.953888 580.401062 -849.627991
-475.053253 671.129211 -1237.713989
-173.402756 1017.452209 -408.655029
-350.860779 965.258362 -555.644348
-267.486816 993.491516 -554.955566
-344.282043 737.621094 -765.890503
-150.338745 1014.916382 -614.345459
-242.594406 789.075256 -1279.926514
-77.579369 838.788879 -1288.512939
-244.311417 990.292908 -445.986755
-164.731354 940.455505 -1201.525146
-259.902679 669.447571 -1235.541138
-302.000977 569.652893 -1280.996460
-325.299500 965.391052 -757.676514
-54.698383 902.043518 -1266.248291
-421.930298 949.233582 -429.295197
-140.978897 1017.554138 -483.757904
-493.820740 827.588989 -1180.347046
-498.590942 764.273804 -1215.862671
-162.186630 1017.665344 -601.461060
-284.792206 996.894531 -452.065948
-170.420364 737.315857 -1282.044434
-362.532837 763.478943 -1228.418213
-605.939880 721.923584 -1218.287842
-249.664719 657.779175 -1266.355835
-118.555283 679.526917 -840.452026
-372.747223 928.450073 -758.251221
-340.455780 875.978271 -1188.759644
-364.368317 669.023193 -771.861755
-314.230072 879.215942 -747.530212
-124.783394 846.291077 -1262.740356
-368.635132 971.994568 -487.280182
-422.999725 955.902039 -589.806458
-315.343658 827.613831 -1103.825439
-442.185822 958.375183 -592.628784
-218.393204 1008.158752 -553.580322
-470.057068 710.200317 -1236.972900
-454.028168 788.360107 -1243.467407
-220.574158 891.373596 -765.387512
-229.647781 979.221741 -1179.015015
-190.843964 731.286743 -1284.495728
-211.519028 874.650024 -1254.887085
-565.627869 988.674866 -1201.716553
-256.375214 998.447998 -367.417603
-385.364105 894.214294 -762.878357
-114.884758 790.088013 -800.884583
-281.777985 987.171692 -477.399323
-84.896111 732.016541 -823.235413
-244.426193 1053.497559 -1232.558472
-193.520706 1007.939148 -607.395691
-162.613297 1014.055420 -504.865845
-237.311920 909.925476 -762.153015
-237.277191 1001.661987 -587.101074
-337.679321 727.753540 -1208.290894
-336.798431 777.935425 -1239.675049
-577.894348 944.619812 -1184.079468
-281.777527 957.493347 -767.039368
-458.278595 756.884766 -1233.644409
-264.838501 886.691895 -764.579651
-212.327545 642.266235 -816.673279
-332.782806 704.497070 -1264.558228
-380.728424 965.094788 -394.764557
-378.297180 962.505432 -577.984436
-412.699860 768.120361 -1236.792603
-225.568649 1037.438110 -1204.475342
-63.919895 990.095032 -1252.313599
-330.345795 730.119873 -759.670288
-329.606262 982.819397 -550.097168
-323.828552 624.724976 -1266.173096
-340.495422 671.227783 -1240.970581
-283.345123 617.361206 -809.144287
-262.331573 649.144348 -782.062073
-153.577301 655.432739 -813.841003
-403.553284 612.410400 -785.702271
-368.468262 968.858093 -363.539642
-226.160110 869.869324 -763.874390
-169.706116 914.985962 -1209.527588
-307.105957 993.069946 -552.896973
-395.916016 960.338135 -438.032806
-220.870117 891.116577 -1246.952026
-200.223907 1008.381042 -527.105896
-494.330933 669.597046 -568.821960
-369.577301 669.585449 -1241.440430
-247.730225 590.718567 -845.748901
-466.868073 766.697083 -742.676758
-158.843170 956.004761 -1204.169800
-23.109831 966.456421 -1261.275024
-342.135254 776.844543 -1229.855469
-187.900497 656.984253 -810.014038
-278.687927 580.294983 -839.430298
-140.769089 712.459351 -1274.039429
-158.530289 798.966187 -1275.353516
-207.629883 589.727539 -847.951172
-430.056671 842.736633 -1233.565674
-490.764221 810.291809 -1212.432251
-455.333191 947.311829 -559.196838
-318.407043 866.704529 -1117.556641
-138.117569 909.344849 -1181.955200
-283.658936 981.968567 -497.160278
-464.181183 798.984131 -1205.192993
-219.974274 903.276550 -1254.097900
-544.746887 681.336731 -1222.388794
-485.238220 933.215332 -499.726044
-168.685074 935.339050 -775.799316
-203.961609 1007.477905 -542.169128
-386.984924 751.423523 -1241.287476
-288.894073 838.849792 -1233.640137
-307.982880 1111.667114 -1203.677368
-275.096558 978.581360 -740.654175
-569.994812 965.135925 -1172.431030
-195.943222 1000.772705 -518.464478
-269.172485 694.319702 -773.271301
-282.290466 664.990662 -1254.406738
-367.770782 961.539185 -544.613281
-75.084938 744.392639 -839.685181
-424.032410 934.583679 -740.309875
-408.325836 953.479980 -643.478943
-639.902954 777.564209 -1133.274292
-303.141968 687.828308 -1188.525513
-139.918076 1019.664795 -582.769958
-243.327057 925.391296 -1242.442139
-405.080963 953.530029 -438.889221
-521.179382 663.624634 -1227.936401
-144.982010 635.652771 -857.803345
-170.856079 1013.046814 -516.681274
-391.357605 965.453613 -516.788330
-245.087173 1013.725647 -378.201324
-183.065323 935.520264 -1257.755371
-167.517624 846.718018 -1282.192993
-216.638702 909.292786 -772.060852
-150.003143 669.765991 -823.444519
-100.716766 841.226440 -785.324097
-446.659058 729.728394 -1260.466675
-347.357819 982.443970 -472.000031
-238.567474 613.390137 -809.468628
-51.280319 822.483826 -819.609924
-213.713211 1017.114258 -447.915344
-176.832932 1009.232056 -454.910217
-284.521637 919.176941 -1144.290283
-324.462158 982.259033 -566.962585
-413.552765 968.483276 -591.555054
-327.125854 869.230652 -1197.579956
-72.650574 966.133667 -1268.323486
-204.514542 621.077698 -817.307800
-390.439850 679.678101 -1250.965088
-267.125610 934.096619 -1239.610718
-191.701324 774.323792 -802.523254
-226.924347 1031.800781 -675.599609
-152.568893 1027.109741 -457.523041
-347.782471 710.935852 -755.940491
-621.173218 767.738403 -1182.015503
-165.093735 642.601624 -833.778992
-342.875793 790.595337 -775.189392
-208.912521 714.631836 -795.943970
-530.283325 781.711487 -1231.265015
-234.057251 789.162903 -778.571167
-429.610535 952.326477 -532.772034
-173.373688 1014.261414 -524.825378
-193.893982 1012.542847 -507.738342
-419.067993 770.670715 -1238.444580
-84.764725 855.433472 -1293.935913
-171.948380 657.948853 -809.356812
-303.749847 742.719299 -1246.418823
-302.624817 986.182312 -600.413025
-114.704895 658.372437 -870.517395
-298.090546 832.407349 -1127.610596
-351.869507 597.873657 -803.111755
-257.172089 760.245239 -1095.590088
-412.328705 904.036377 -755.342896
-359.807556 805.458191 -1210.121094
-423.850769 988.489563 -391.545959
-195.618744 1008.101990 -600.676575
-270.646545 1118.544434 -1136.029663
-451.108948 724.953552 -1240.123413
-241.693542 887.094299 -771.131958
-296.041229 992.008972 -425.646393
-332.451538 647.626648 -782.569519
-575.020325 729.420959 -1201.889038
-267.530579 612.275757 -805.246338
-309.370880 985.587341 -453.591980
-382.746582 743.405334 -1232.054443
-171.504776 1014.963623 -558.700928
-63.599785 720.639099 -831.456665
-341.907532 865.393188 -758.103455
-192.526108 928.438721 -1202.004517
-288.333069 819.657837 -1257.250366
-315.618561 985.942566 -430.919037
-485.917389 682.442627 -539.370239
-494.974091 707.393127 -1241.319336
-485.438477 744.062805 -1238.568481
-159.590958 1021.045044 -575.351257
-69.259491 984.913818 -1238.248535
-182.446014 907.359375 -1254.794678
-364.348145 974.277893 -555.452332
-411.375214 656.092773 -775.220520
-131.142853 950.794617 -1239.010986
-187.020859 1006.306763 -420.515381
-497.547211 821.398071 -739.454285
-414.649780 838.317566 -754.457153
-283.912292 618.825256 -797.150391
-259.005676 971.841614 -768.054504
-285.122742 921.339844 -1152.752441
-415.319946 686.724060 -1233.914917
-286.137360 1001.461121 -409.217804
-590.447266 773.351868 -1180.078613
-445.503754 841.132690 -1233.470093
-440.092346 755.728088 -747.625061
-174.765945 762.974670 -1278.878418
-256.656006 986.920959 -1171.548584
-227.562653 676.473816 -1280.965698
-327.286194 823.033875 -786.365967
-150.958069 764.492065 -782.873169
-223.307693 659.144592 -1276.239136
-281.472626 986.274719 -599.340698
-604.809326 801.255798 -1178.330078
-151.981430 854.711365 -1271.976318
-128.041412 825.753357 -1277.538330
-311.818604 1176.413452 -1141.489380
-546.849182 736.654541 -1208.705566
-133.039368 697.097107 -809.007263
-108.363434 861.930054 -1286.845337
-311.997803 753.874146 -1208.788330
-387.449524 897.212097 -729.943054
-254.691162 1018.215881 -382.266174
-411.402283 955.764954 -552.407288
-482.862061 933.478638 -514.345093
-198.621170 1019.498047 -1197.862061
-331.326202 815.801514 -767.263245
-464.934235 647.150391 -1243.037842
-335.477478 590.201538 -1260.858887
-255.713196 606.173157 -822.581665
-313.163788 927.851624 -1238.066406
-223.590302 601.204773 -827.556458
-442.525970 833.534363 -1204.052002
-546.355164 818.465149 -1171.272827
-367.925507 980.169983 -422.777832
-376.233032 707.869629 -1238.983276
-384.100403 961.513000 -476.230896
-324.578705 855.129761 -1111.928711
-177.719543 778.707703 -784.202271
-264.201996 654.388184 -786.075989
-352.887482 646.647278 -779.561707
-36.807529 994.881531 -1264.780273
-93.441566 896.619568 -1279.305664
-166.406418 836.246826 -770.968201
-351.885559 634.998169 -777.624329
-121.159340 721.630554 -822.967102
-98.315140 946.319153 -1197.123657
-205.965698 938.101013 -1205.518799
-470.593658 994.042725 -1175.938232
-119.010254 760.076904 -1293.056274
-327.726929 628.417358 -776.250488
-216.212555 892.245117 -1248.171875
-384.028107 638.671997 -1270.389648
-218.210358 709.161926 -1295.150024
-312.404175 626.842346 -804.537781
-139.587845 796.257080 -783.428894
-62.515804 810.910767 -794.813782
-276.624542 710.286804 -780.375671
-262.766479 641.890747 -816.398499
-283.525879 761.819763 -1261.209229
-231.135330 994.280396 -634.835327
-75.840820 734.415222 -830.302979
-234.737656 808.913879 -783.315002
-331.895355 969.484192 -536.552734
-232.592606 1003.521301 -640.253113
-378.796539 1061.521973 -1198.594849
-347.321259 862.432251 -1119.994507
-369.158417 965.973816 -423.807648
-360.454620 623.593201 -788.782471
-452.616180 939.955994 -464.260376
-335.555481 989.099304 -356.705994
-192.048950 1006.762329 -467.535187
-342.804962 734.134827 -1216.657837
-277.122437 864.049927 -778.595764
-179.192429 692.924988 -800.359131
-334.511963 974.398499 -1098.536499
-378.259399 597.340271 -821.507813
-446.999176 745.534851 -1233.907471
-124.388710 965.634827 -1193.703369
-374.458038 679.775208 -784.267456
-266.499908 676.668274 -791.548462
-370.508148 929.540833 -758.969177
-308.570190 984.041382 -353.780304
-356.847870 981.219238 -539.800598
-364.881226 970.315491 -568.236572
-73.519127 839.082703 -1270.724854
-177.021957 808.760681 -1285.655273
-397.893860 743.123108 -1244.848389
-461.529816 634.571411 -1234.211182
-383.840576 967.572144 -574.147095
-324.249176 618.577271 -1268.703857
-484.841339 833.856628 -1224.004272
-65.992058 887.211365 -1263.804810
-330.329132 869.608887 -773.338135
-319.031891 728.462280 -1224.279785
-64.424690 840.173950 -794.173584
-250.648743 628.061707 -1275.864868
-480.788513 774.165344 -1225.282959
-272.455078 1119.047241 -1215.033081
-471.207916 815.392883 -1232.569458
-242.151932 1017.868286 -1214.326782
-248.628342 730.839050 -1258.251099
-379.576843 981.347412 -398.904999
-146.767120 742.817871 -808.738770
-508.214752 863.702393 -1168.103882
-409.299377 788.918457 -754.761780
-442.914246 745.671570 -1247.908325
-172.931503 788.855835 -1275.924927
-260.810181 947.386169 -771.637695
-381.235504 839.477295 -756.312561
-419.658600 955.614136 -579.098389
-427.546051 820.637390 -761.515991
-270.536652 833.517700 -1263.534058
-528.686401 1003.409180 -1192.515869
-282.528137 642.261536 -1254.798584
-376.479340 975.125549 -495.371460
-378.799500 677.790649 -1267.370483
-329.953461 948.664978 -762.736145
-144.719742 1013.944336 -647.523132
-439.541046 957.555298 -582.455994
-117.020111 1047.315308 -1235.862671
-79.022530 977.095520 -1265.959717
-231.604111 993.920044 -631.009705
-471.129669 641.844482 -1229.288818
-420.677612 674.786133 -767.370605
-82.848839 689.007019 -844.515686
-332.075470 982.034363 -511.008148
-329.222168 957.281067 -750.253540
-454.256256 941.424683 -440.842072
-310.415619 634.131287 -1269.215820
-319.181976 590.762024 -798.467041
-454.641144 946.918030 -481.462921
-425.847443 602.778748 -785.981445
-253.862289 593.081238 -1285.256714
-517.695862 757.496521 -1160.186523
-140.724915 703.784729 -1278.475830
-146.470932 1018.834229 -550.973816
-623.474976 792.255493 -1184.742676
-225.905624 901.365356 -1239.149170
-411.335815 946.587952 -632.788513
-437.141327 793.318848 -746.819824
-425.074860 672.227661 -1260.141724
-75.307945 865.111816 -1276.004883
-400.467163 728.401367 -762.196045
-227.164032 757.140503 -795.685486
-95.036850 900.570068 -1265.834961
-310.109131 1018.038879 -357.028137
-543.224304 860.780151 -1181.369141
-175.196396 625.977905 -820.044800
-252.416092 1004.974487 -648.402954
-102.021034 948.047852 -1240.340088
-194.798889 1009.505920 -568.026306
-244.400497 774.575623 -791.168030
-391.190552 767.089111 -1255.238281
-442.159332 700.034851 -1244.183960
-202.598785 794.035278 -1277.251221
-282.153442 1164.730713 -1180.387695
-419.566986 942.685425 -432.170685
-266.058716 927.259277 -773.509766
-117.733459 796.297424 -1281.494141
-141.315063 701.121338 -797.896301
-335.474731 929.361145 -1197.651367
-322.462189 1253.294556 -1169.852051
-350.553314 921.483215 -750.294678
-228.347641 848.090637 -1258.790649
-451.768097 947.986572 -555.993286
-377.595673 960.572449 -616.884277
-226.664413 1059.271729 -1218.099609
-264.466492 762.074951 -777.310059
-230.228668 997.057678 -428.167542
-449.255615 728.248657 -1236.649780
-283.605499 587.898499 -1278.020996
-469.290558 711.146240 -752.117798
-325.891266 820.097229 -1202.979980
-189.733185 779.177612 -778.117310
-167.462402 702.787415 -1271.330811
-428.617462 949.285400 -422.835510
-226.922806 1001.600525 -606.229431
-181.530228 952.469910 -1248.682129
-120.871811 700.511780 -807.225891
-433.421387 800.457642 -747.147888
-499.554016 711.801086 -546.137024
-185.863586 1031.842285 -647.723572
-321.086700 716.828003 -1264.769287
-346.174072 666.011597 -1256.642944
-364.660858 963.967224 -416.701324
-197.784332 765.970337 -807.871704
-468.639313 792.782898 -726.825012
-329.696320 976.539795 -414.745300
-299.608307 980.976929 -617.545044
-335.339081 871.009521 -758.266235
-241.475800 892.637573 -779.540955
-279.634399 877.678162 -1260.545776
-79.493332 718.996399 -854.196167
-229.640411 812.791626 -776.617004
-334.444183 1144.104126 -1150.202148
-364.662109 816.516418 -745.443176
-276.122162 925.284729 -1248.331665
-462.873199 928.723450 -486.028687
-242.509598 999.550354 -487.376434
-183.446625 1010.265137 -459.648895
-177.053879 805.407898 -1259.820068
-467.691528 688.034485 -1237.480347
-458.816101 870.018433 -766.497253
-253.378372 821.089294 -1263.383057
-436.542053 836.627014 -730.312561
-338.924683 565.208740 -1260.148438
-503.870819 802.475769 -1183.742920
-199.731720 645.623962 -828.069031
-389.284790 624.587280 -777.771179
-404.501770 724.242554 -1249.100464
-522.630310 708.981079 -1223.335327
-221.229218 835.860962 -797.256653
-373.206818 970.902527 -539.609192
-271.947021 1000.890686 -748.302551
-238.785004 950.795593 -1191.164795
-413.594513 960.421082 -504.593536
-130.973953 723.695068 -1303.976807
-243.195755 683.486145 -1247.016479
-377.242981 965.837036 -476.853119
-93.018394 940.765381 -1256.618896
-321.758881 870.017517 -1095.339478
-407.713898 591.526367 -798.232971
-437.067322 838.079956 -751.696777
-185.140274 695.173157 -1287.559204
-360.547821 976.220947 -506.807892
-100.239815 909.324036 -1270.099243
-258.535187 1183.344849 -1199.093262
-342.186310 1049.937866 -1219.239868
-90.205910 722.940491 -828.581787
-85.028076 703.768494 -838.936157
-403.432770 960.913940 -378.885498
-85.736046 846.941956 -794.217773
-423.192841 958.932190 -536.646790
-185.304459 637.487793 -824.045349
-112.079643 771.117554 -1284.695679
-466.673645 711.321045 -1258.261230
-110.963135 744.094666 -797.843384
-93.989037 797.126709 -770.850708
-461.141846 939.328918 -454.472168
-303.738251 632.338623 -779.025208
-365.354919 608.861511 -784.104858
-203.801361 1021.589417 -403.070099
-222.683136 886.721924 -1249.480225
-239.195084 893.962952 -759.869507
-143.090286 889.756104 -1273.318115
-160.826004 646.338013 -828.163269
-277.380463 999.390503 -593.265625
-456.958435 934.526855 -541.267761
-228.536407 885.673584 -1259.502197
-158.479691 650.991882 -815.252075
-470.869873 755.831848 -1241.018311
-345.317780 981.702881 -426.539276
-129.190933 743.036255 -1287.020386
-93.201538 905.243713 -1204.531860
-384.712189 767.564697 -776.887878
-409.049805 917.181641 -738.847656
-358.710571 979.768372 -500.105682
-403.490906 841.862976 -751.417542
-564.246399 870.769653 -1153.624390
-436.976288 947.364319 -499.500214
-478.115814 842.118103 -740.902649
-113.598953 808.319580 -1282.486206
-468.293304 767.126465 -1246.711914
-333.358856 869.091858 -781.548340
-294.598083 871.897217 -1232.953369
-488.512390 905.749390 -1179.574951
-442.735229 807.607666 -1203.966553
-381.722565 883.837280 -733.437988
-207.364899 725.405273 -1283.789307
-235.517502 1004.282593 -554.344910
-271.525330 1074.975342 -1205.502563
-242.253448 991.745361 -630.242615
-250.604630 874.408386 -1235.416748
-152.745529 859.652283 -1269.431152
-120.444191 771.054993 -801.176147
-208.268661 884.571899 -1240.041626
-227.092346 847.224487 -1262.777100
-450.029968 707.767456 -1241.625610
-101.179642 955.042847 -1248.971924
-428.291565 928.360840 -733.474426
-333.694855 830.761047 -1181.468994
-203.262421 1024.870239 -397.516479
-368.628723 977.334534 -575.088684
-251.648026 623.473938 -813.276245
-323.954346 834.573181 -748.280518
-138.824310 733.666626 -1277.222046
-366.039032 945.937683 -757.916138
-98.554253 794.467224 -799.803345
-136.622147 772.579529 -1295.020996
-405.304169 617.369446 -769.387878
-182.371948 1015.095825 -427.245941
-404.692169 963.441772 -461.015167
-231.496094 995.204773 -518.188354
-523.849731 698.829346 -1192.037476
-177.487030 675.198486 -1279.547852
-427.766479 778.660400 -1214.977417
-422.704346 719.065613 -1246.076294
-322.767395 873.358643 -1223.309448
-359.616516 843.144958 -772.429382
-110.272018 1022.099060 -552.956543
-332.389709 856.695923 -1227.007202
-184.520355 1015.919495 -414.212830
-266.978180 969.109253 -758.720764
-403.882477 580.922119 -1247.011841
-343.313538 734.313965 -770.807068
-263.807800 1008.189880 -398.061584
-95.339775 649.809509 -859.654419
-394.744934 955.419128 -540.472107
-145.610687 1015.002136 -494.949799
-169.343185 949.324524 -1228.459595
-300.591309 1112.928711 -1208.503662
-38.790028 945.277100 -1273.204224
-367.603149 733.812439 -1246.054688
-245.917664 773.735291 -1268.364624
-475.594055 867.130005 -742.867737
-215.264038 982.589844 -773.841980
-155.375793 1020.925537 -517.755127
-237.590515 815.418396 -1264.668701
-119.945244 1017.290161 -1254.726563
-358.668304 583.886963 -1254.477905
-380.794373 807.529602 -759.368164
-175.235718 942.931580 -1250.953491
-180.784363 1001.873962 -562.138672
-232.796097 642.340210 -797.896362
-199.889252 1010.847595 -1220.794312
-363.343536 788.624329 -1238.729370
-201.299713 1014.353027 -580.473267
-145.419983 890.214233 -1251.567871
-257.779755 617.603455 -809.533569
-342.677704 979.532104 -550.305786
-284.926575 1008.012756 -627.301331
-168.531036 1014.847107 -557.574341
-209.001205 1008.502991 -413.065247
-284.058228 898.263550 -1251.126953
-184.705078 1016.722595 -396.895752
-417.792755 927.586060 -764.886353
-343.227478 977.495667 -398.601227
-551.294861 719.104492 -1203.750977
-290.756470 765.587830 -762.868958
-487.615631 850.093140 -1199.533081
-59.099712 898.639832 -1281.829834
-173.613434 812.415466 -1280.729736
-445.899536 621.875183 -1247.059937
-631.097595 810.533691 -1197.000000
-258.490631 998.631592 -631.183472
-370.795929 959.364380 -495.382843
-59.663368 800.263855 -820.905579
-336.452667 780.249634 -782.959717
-378.510834 955.984802 -623.552673
-393.609375 960.415588 -431.436462
-401.431305 681.921936 -1249.016357
-152.616547 822.958130 -785.846802
-65.583946 875.270203 -1290.138428
-400.790039 675.949951 -1253.697021
-167.129868 946.106140 -1259.063721
-381.114136 881.302307 -747.242004
26.677048 783.371521 -664.336487
-92.817078 819.160278 -809.293457
-560.583252 765.414856 -1183.801514
-287.317200 1147.866089 -1175.060181
-260.706909 619.649597 -813.280396
-170.399033 921.070496 -765.720642
-325.826508 973.735229 -442.920959
-115.213226 885.236206 -1269.386597
-286.962372 672.079468 -778.271545
-382.489075 981.154114 -394.521454
-268.907410 863.701782 -774.166443
-212.703110 641.806152 -1275.227173
-331.529266 1065.210327 -1197.242920
-128.524841 764.013062 -795.376099
-285.006775 645.120911 -778.906006
-160.080505 1011.002014 -591.240479
-433.150269 799.393250 -1228.950195
-144.165878 636.635681 -861.928040
-258.354736 627.112854 -822.356934
-303.724884 658.566956 -1247.073853
-361.330200 631.921875 -1250.219482
-271.044098 825.374023 -776.323608
-188.730209 1009.593933 -552.742737
-280.391418 981.047607 -571.881714
-412.017914 955.726074 -395.819733
-194.473740 1009.116272 -405.992126
-304.632996 890.435242 -765.631409
-371.369110 614.315674 -803.507996
-272.917084 756.252014 -1244.854492
-152.323273 684.852234 -799.088318
-373.627289 975.823059 -545.522888
-250.132645 647.537598 -1267.271851
-322.292877 992.570923 -610.313477
-255.082153 614.079407 -1285.677490
-239.999664 747.477051 -782.188293
-347.263947 983.089355 -515.394836
-286.818604 888.578491 -751.503845
-254.894180 998.517578 -590.021606
-254.821533 598.828430 -1288.631470
-240.731400 1093.449707 -1218.670166
-416.256409 676.264526 -747.138916
-159.875977 1028.993652 -557.634033
-534.464844 724.609070 -1194.196045
-339.307922 694.066833 -1261.685547
-88.411575 809.642639 -1294.190308
-584.675171 701.310974 -1201.010620
-415.549835 781.027954 -1234.577393
-152.353210 1011.238892 -447.574554
-148.706024 648.853394 -831.085632
-309.964966 752.978638 -789.658325
-129.369690 642.036499 -856.280396
-128.905609 1017.602539 -584.608704
-315.316162 706.379211 -1266.596802
-296.116669 926.119568 -1157.777832
-185.343735 998.979919 -623.757202
-218.741180 1004.413330 -542.071899
-513.607300 778.443115 -1192.030151
-149.652466 640.018127 -870.581848
-358.350189 963.213684 -534.175781
-466.364014 796.308899 -748.294189
-148.443253 824.074097 -1264.113770
-212.228836 1005.399109 -508.219666
-182.458237 734.706360 -1291.661499
-209.351318 961.107361 -768.883789
-214.581909 681.783569 -1278.559204
-372.408569 979.717102 -418.261902
-374.782257 616.021362 -783.924377
-176.213409 801.928284 -1274.429077
-165.537582 920.280945 -1183.513672
-441.782104 935.465698 -732.321350
-326.882568 829.499207 -1229.775879
-374.817841 750.248230 -759.263123
-374.116089 938.362854 -729.146973
-429.641937 722.722595 -775.378418
-218.600113 1000.284668 -434.942139
-116.972908 743.883545 -819.207581
-341.689972 736.601624 -772.459717
-512.659180 751.658936 -536.548584
-345.540497 612.458374 -790.055603
-319.579681 911.888123 -767.972473
-468.400513 743.870911 -1247.808105
-151.276505 807.203308 -786.998779
-135.411972 939.863831 -1227.651489
-173.987167 714.810181 -1294.883789
-176.881607 973.485901 -1217.302856
-296.383972 853.116333 -1249.698975
-344.281219 983.948364 -594.929260
-97.302765 796.318481 -796.144714
-34.520775 954.250122 -1286.500854
-463.878998 825.496094 -1159.452515
-295.412659 1082.005371 -1219.348389
-272.689850 846.697815 -1266.076660
-272.420013 996.587708 -393.841644
-166.598114 688.766479 -824.537964
-474.128998 856.253723 -1177.423950
-225.681534 582.390808 -1293.735596
-280.083160 554.017883 -1274.811157
-104.289543 686.370239 -853.615173
-312.516449 576.824646 -1265.682373
-269.366394 670.941772 -792.052795
-333.681213 811.594055 -1227.981934
-116.596466 647.500671 -847.705322
-385.099365 669.820618 -1254.883667
-212.636261 911.971924 -1233.449829
-353.200867 676.486145 -778.758179
-110.888649 892.204407 -1261.180908
-304.208527 1006.594666 -408.416779
-129.375381 844.575439 -800.063721
-136.734314 713.213135 -808.571960
-246.251526 644.593811 -1236.121094
-303.436890 1014.978699 -379.647430
-422.431183 631.285400 -756.227844
-311.928436 938.727966 -1224.677124
-124.037010 621.929321 -866.903687
-373.121460 681.097839 -786.762573
-411.113281 962.149292 -354.401611
-416.003632 953.724243 -515.425537
-103.101364 769.487549 -1272.910400
-395.266937 965.554260 -598.212280
-144.726334 902.150452 -1268.367798
-396.386597 955.726685 -439.218048
-195.853699 615.236633 -830.686218
-467.532440 939.270752 -575.233887
-494.845795 636.109680 -650.940430
-210.480698 1026.788940 -661.224792
-309.597534 1073.135986 -1210.985718
-313.279572 986.334045 -522.559692
-261.882111 985.344238 -551.988342
-273.235535 836.021484 -765.228149
-269.220734 624.826172 -787.993896
-110.125687 682.007935 -844.293640
-404.159912 955.550659 -412.525116
-165.935822 928.015137 -1254.405273
-59.060394 929.635193 -1236.389038
-236.671112 1000.593445 -444.779541
-274.829193 574.785461 -838.362244
-248.452072 918.815613 -1255.712769
-381.640076 572.209839 -814.456299
-394.191742 969.676270 -611.570435
-199.725525 934.895996 -1168.859253
-284.975342 927.879150 -757.585510
-400.728882 955.196045 -511.762817
-164.778610 708.696167 -805.365112
-193.146896 709.955322 -815.062134
-184.644531 679.245850 -1289.799194
-361.134979 647.131104 -778.454712
-275.829468 987.244751 -766.410156
-219.705322 780.143372 -1286.686646
-185.786987 949.814209 -1244.058960
-364.235565 979.472107 -594.896851
-304.317810 995.916687 -607.033936
-179.167282 871.578247 -780.696838
-227.261520 1014.182068 -386.998810
-315.661743 1039.075195 -1211.080933
-286.286621 662.192566 -1255.688477
-243.984070 999.702271 -518.221436
-270.367371 603.753906 -817.611450
-271.218658 994.866211 -594.791199
-299.284973 584.388794 -826.494507
-276.145599 995.161194 -486.821503
-299.988739 906.214172 -1233.434692
-288.124634 602.867859 -1265.141968
-243.601395 922.713196 -770.919373
-378.877197 673.862061 -787.083801
-356.547729 812.873047 -1231.871216
-268.317841 940.390991 -1239.375366
-140.978485 623.960144 -830.066162
-79.567207 838.960449 -1281.432007
-183.781311 937.431152 -782.580627
-235.527054 1000.646301 -477.929474
-379.643860 775.869385 -761.338318
-296.098633 984.574341 -453.605469
-308.080719 730.431580 -1237.976318
-150.827515 730.140015 -1297.540527
-203.388748 849.770325 -798.420105
-349.189362 838.916077 -768.309204
-225.298553 1012.933838 -523.134949
-161.372803 718.589478 -1285.453369
-113.147461 835.600891 -792.030640
-302.094513 1070.693970 -1201.233276
-246.471497 884.913208 -1261.417847
-437.386902 767.067444 -1233.064941
-405.726044 969.236816 -551.306580
-188.231979 918.152588 -1236.399048
-336.610565 726.215332 -1265.475586
-89.764816 847.271667 -809.651489
-626.851807 842.907776 -1188.252563
-167.248306 616.603210 -847.526306
-407.546631 632.930725 -799.638062
-301.861053 832.902832 -1260.808838
-213.471191 910.185974 -1238.868774
-191.043503 754.943298 -1288.293823
-111.849091 812.344421 -1280.417358
-301.502869 991.865051 -398.060516
-455.225708 718.773010 -744.379700
-312.390656 575.436218 -1276.288208
-138.272049 727.592163 -1302.542725
-91.896202 907.354248 -1265.870972
-367.329681 977.677429 -501.756409
-280.659119 588.406494 -1279.377197
-224.421936 691.142578 -1261.827026
-510.166931 708.185547 -1239.846924
-463.863922 711.343628 -1253.596436
-254.814926 602.430176 -845.598328
-197.477249 947.020203 -1192.350708
-109.463089 830.366760 -1288.126465
-162.731705 714.219299 -791.876526
-322.052490 983.866333 -385.741547
-258.622681 996.088074 -405.073242
-225.842896 1004.746582 -410.361420
-471.309845 924.809875 -1175.515259
-142.224396 720.142883 -818.169556
-418.284973 757.039001 -763.588562
-188.180481 880.416565 -1257.891479
-245.658203 999.572998 -569.502747
