ply
format ascii 1.0
element vertex 1361
property float x
property float y
property float z
end_header
-668.557983 891.958252 -142.053482
-641.883606 625.479187 -568.614563
-765.458069 835.430237 -966.940430
-651.889587 927.706970 -197.833008
-719.222168 943.093567 -967.239258
-832.463745 993.459656 -848.867737
-664.839111 864.193298 -1018.951538
-688.263123 1109.502563 -908.037354
-582.523621 793.418762 -544.040405
-1157.018311 933.451660 -814.954224
-543.556580 789.295959 -539.073425
-728.904297 992.845337 -925.658936
-614.745911 1028.750244 -987.258911
-659.370239 958.130188 -306.277527
-560.660400 683.560364 -605.761230
-778.791443 837.862793 -432.826141
-914.083496 1102.859863 -820.102234
-518.199829 753.149963 -586.951782
-716.383057 853.730713 -67.320770
-923.392944 796.171326 -946.605408
-582.579956 693.937073 -566.580383
-797.015076 754.085815 -55.792492
-870.196655 836.193115 -419.119019
-655.213623 905.945801 -102.665527
-825.075745 759.492249 -142.247665
-853.678711 786.062805 -962.995667
-831.104675 732.062866 -82.151726
-681.071716 885.904846 -162.329712
-781.670532 751.416504 -985.034790
-694.039246 553.086060 -585.341919
-992.196472 1308.285278 -717.742554
-682.551392 927.047729 -255.792648
-729.922424 938.338440 -327.122620
-554.370605 792.629578 -564.191833
-881.278809 765.798157 -272.345856
-633.662354 922.556458 -157.287094
-739.907532 1000.212708 -944.402588
-763.727783 752.141541 -478.832367
-668.527893 890.970886 -131.010376
-810.621277 864.015076 -313.661896
-820.889160 667.579590 -992.701599
-684.211548 530.255798 -612.427002
-686.366089 668.952576 -544.581116
-666.785767 645.593994 -550.690857
-782.876282 793.509583 -133.215698
-747.315918 848.205750 -179.734085
-651.324402 1008.032593 -982.241455
-679.705078 879.510437 -149.723343
-624.695801 591.641785 -599.311829
-837.688110 664.754822 -481.239929
-745.753174 1095.705444 -904.443787
-852.692566 896.677734 -904.316345
-1107.583496 791.643250 -869.071838
-696.174011 542.440796 -602.010864
-710.888000 780.626221 -985.011292
-906.826477 1173.870361 -798.753967
-533.983398 814.294617 -547.877258
-639.771118 965.443848 -303.527863
-614.238159 757.345459 -536.094910
-519.728943 794.801758 -582.982117
-693.873596 666.768494 -516.842529
-808.031677 835.491150 -262.362701
-718.682495 802.963989 -971.793152
-690.835876 987.399109 -962.313599
-702.118347 1051.352905 -932.361572
-622.675842 893.148865 -1014.585083
-753.610352 782.083862 -828.140808
-853.797180 766.677856 -954.339233
-488.877869 812.114624 -591.169434
-622.766846 799.596619 -1050.488647
-1121.252930 813.756897 -853.886780
-622.511597 1062.849976 -918.743835
-1029.895508 669.058472 -857.128906
-792.477783 875.240112 -962.142029
-700.151733 848.421265 -55.523884
-779.385925 843.225708 -271.142944
-716.090332 1038.075317 -878.354858
-675.592163 790.358704 -508.977570
-629.204407 1019.415039 -979.824219
-708.155212 1045.006714 -911.158508
-669.815063 869.009888 -1005.004700
-662.216431 922.158691 -79.971169
-660.568237 752.600281 -1048.754639
-828.932983 766.767883 -147.429596
-711.727722 1051.340820 -897.498108
-600.502686 601.582214 -608.477539
-787.716064 854.422913 -442.853271
-709.670166 975.527954 -958.725708
-571.574341 762.571228 -534.827820
-654.924622 1055.216553 -919.527832
-628.874634 944.136108 -1004.454102
-575.316162 780.221130 -548.686523
-612.636292 950.374756 -148.421814
-652.543274 830.426636 -1033.076050
-972.063843 684.263855 -929.338806
-686.091919 893.978638 -202.659561
-614.674011 914.333191 -1009.650330
-651.837219 876.082336 -1015.849915
-757.726807 796.093994 -58.117844
-962.091858 1208.293579 -758.776001
-708.266846 1028.332642 -940.128174
-805.174927 855.487122 -283.300293
-881.793823 780.279358 -951.427063
-828.326355 840.566223 -809.968445
-812.378601 839.853333 -873.897705
-561.383667 657.605286 -593.750793
-627.424377 951.099365 -189.698944
-1019.173584 828.266235 -860.963745
-684.564758 917.327637 -223.375778
-1059.347778 767.519470 -876.290588
-621.627747 670.205383 -559.822021
-522.528015 812.227112 -570.328369
-756.031982 842.846863 -440.509399
-765.461853 664.908325 -510.227692
-687.380066 886.430664 -153.757736
-873.857483 768.019775 -940.443542
-596.420349 659.253784 -570.250610
-718.793152 864.504700 -153.152573
-746.818542 784.250488 -909.726929
-868.855469 766.077820 -270.216858
-770.383972 855.863220 -235.117584
-661.442139 940.841431 -998.948242
-761.296570 803.196106 -104.503471
-931.689636 747.578613 -945.153259
-709.159668 803.282471 -822.291992
-636.511414 775.167725 -1047.105347
-1051.182983 918.830200 -861.397705
-904.427185 731.429932 -960.511536
-839.441589 939.508362 -408.402466
-791.551636 849.671143 -264.418701
-656.026428 893.847168 -62.306503
-765.822937 718.634644 -489.583252
-882.922424 1104.013794 -859.980896
-787.641602 812.841919 -966.815369
-558.646973 676.209106 -593.391724
-883.192078 733.735291 -195.403488
-620.258911 580.753296 -607.090454
-744.827209 628.574158 -525.656921
-785.523132 702.754700 -502.220093
-850.509521 757.088623 -155.415176
-749.083191 548.477539 -554.594666
-559.898438 920.834290 -513.568054
-656.265808 886.153503 -98.749855
-868.082886 753.813538 -220.154221
-680.477478 892.324158 -165.172668
-802.757629 485.004425 -353.112366
-587.552551 751.080322 -559.327332
-659.510193 932.196228 -220.546860
-824.708618 785.521851 -465.771484
-852.869202 635.188232 -990.023682
-798.548767 769.284851 -477.142029
-760.197510 874.760010 -459.361176
-524.895935 839.769348 -541.334167
-730.751160 943.339050 -963.030701
-909.666992 784.052124 -937.385437
-915.116272 1152.837036 -790.246277
-772.791321 884.410889 -278.587219
-821.554443 822.901062 -447.605469
-704.905396 893.505981 -213.779373
-981.229919 682.363647 -910.504822
-592.248474 821.341187 -517.618042
-854.002747 759.681824 -200.155350
-563.223755 927.102966 -495.494995
-788.044250 775.418823 -58.651775
-844.439514 936.545227 -867.030640
-796.986633 856.645691 -892.025146
-512.410767 698.041077 -643.046204
-789.004883 846.069702 -445.540985
-824.844971 934.332092 -932.736450
-582.065186 641.094849 -628.298340
-666.719116 789.129639 -1037.697876
-881.010193 709.069031 -973.391052
-795.223572 774.743652 -128.942261
-721.064026 805.017456 -1002.976379
-722.537292 870.103088 -177.271835
-701.647034 848.498657 -92.048706
-580.927673 642.438599 -601.346680
-560.004883 788.736267 -532.801270
-580.846008 838.423828 -529.522949
-737.734619 973.455994 -950.181396
-617.868469 620.824646 -564.793396
-929.374512 793.379822 -858.070557
-852.308044 809.140442 -817.042664
-790.168762 919.443909 -929.879456
-732.429016 837.658386 -760.396179
-696.190613 878.950867 -172.463730
-844.887085 709.915894 -1011.898804
-804.400452 752.943054 -75.539009
-725.734680 893.161926 -980.650024
-852.094421 788.318970 -276.656372
-717.526489 1045.323730 -887.986877
-614.643005 995.501831 -318.146729
-1034.717407 779.842773 -874.562500
-703.870422 925.697571 -293.337067
-753.631165 758.757874 -970.462585
-500.447021 889.898987 -438.370117
-712.568298 1015.886108 -924.839722
-776.884155 824.708313 -190.517761
-672.263794 858.026245 -1017.661560
-900.071228 734.924866 -259.362579
-748.727661 983.480774 -878.594971
-805.683594 798.808289 -191.318787
-897.877991 834.464233 -934.964111
-646.860840 914.723328 -124.835449
-748.278381 1039.498535 -883.428284
-498.814392 747.260254 -612.125305
-745.536499 788.768982 -490.600586
-644.018494 999.009827 -988.021606
-619.587646 1008.657043 -981.330078
-728.613281 684.086975 -1027.020020
-934.649475 764.364929 -935.697693
-912.128784 853.629822 -913.309326
-730.712769 1020.432556 -874.803467
-548.642395 889.480286 -528.092529
-559.654541 801.304993 -550.535950
-843.242126 682.531921 -984.511658
-760.638245 1020.393799 -925.617371
-684.666870 656.180054 -534.766052
-844.980225 747.955505 -182.140701
-747.034790 935.192993 -956.885986
-638.714355 761.203125 -1064.929688
-809.598083 826.583130 -859.648193
-676.473206 703.458618 -1040.914917
-888.740417 1147.486328 -836.710815
-709.997681 863.557434 -184.877823
-720.887268 838.292297 -101.586967
-639.758728 926.615173 -139.249985
-781.350037 788.645142 -78.887558
-645.806641 1046.584106 -921.127686
-714.463257 873.212097 -193.985245
-585.171936 649.702087 -594.457886
-540.148865 677.104431 -597.801697
-762.577820 570.293640 -562.753723
-634.029236 930.537903 -985.764709
-604.880310 617.843262 -599.365723
-714.061096 902.998108 -283.337219
-740.634277 1047.619873 -866.877380
-897.767334 808.124390 -836.266052
-657.122070 855.858215 -1014.943420
-854.322021 796.071777 -289.855774
-506.597382 741.487488 -631.087036
-670.497437 869.809387 -76.736488
-908.334534 1171.904175 -793.121521
-638.924927 899.919373 -91.221924
-977.229187 777.616821 -883.931152
-777.793457 849.728333 -742.241699
-784.887634 618.165710 -497.352600
-902.987549 673.256348 -977.707214
-776.902405 908.491333 -445.185913
-683.501648 980.325623 -966.361511
-802.644897 766.007751 -136.222717
-638.183289 811.979126 -493.049896
-633.199402 818.589844 -505.445709
-666.194153 844.463135 -1025.286011
-780.878662 915.171509 -953.678040
-919.615051 1240.338989 -787.684143
-665.887573 905.439636 -183.528702
-732.235474 992.771912 -941.160889
-510.707611 816.132080 -568.236206
-755.805420 857.190308 -972.432434
-502.272491 821.779358 -573.341187
-605.244324 867.915283 -1013.127014
-614.549194 605.618164 -600.424683
-616.293823 634.604004 -568.219360
-844.923950 783.480713 -949.377319
-767.308777 835.293701 -450.594757
-625.092834 616.578308 -604.000732
-958.568237 868.265076 -860.798767
-841.932861 755.864746 -152.563354
-841.098450 969.148499 -884.912720
-744.162415 810.029785 -61.083504
-804.827576 760.287781 -1011.287415
-710.137634 851.831421 -454.899536
-537.169983 688.321838 -590.487854
-714.289185 1013.924316 -889.215881
-688.476929 1010.401733 -965.655884
-629.211365 913.927979 -129.466324
-891.636353 746.204712 -458.558380
-694.506409 608.501099 -562.068970
-637.700928 951.077942 -182.951233
-792.737732 848.103271 -953.331482
-1008.255371 1255.616211 -730.153503
-513.178101 868.525452 -524.904968
-683.970947 879.212036 -134.092819
-984.234436 771.611633 -896.540405
-778.400696 962.664124 -942.282166
-502.840210 723.314331 -614.099426
-679.276306 821.159973 -487.858673
-718.595459 932.276917 -985.883972
-877.176514 739.953979 -950.535278
-699.523682 859.347473 -130.789627
-800.653564 728.646423 -1001.737366
-698.245972 592.030396 -559.057190
-639.838257 1126.918823 -943.056274
-663.156372 872.282166 -993.922119
-781.837219 615.323425 -514.792236
-695.833496 1135.584717 -893.092712
-571.012512 657.889221 -619.552124
-640.828125 920.672302 -134.187851
-797.521606 812.938232 -194.493240
-642.099731 839.981018 -1033.745361
-707.563416 851.903198 -1010.218140
-509.713318 817.354370 -540.235596
-703.699585 1002.508240 -948.118225
-867.134460 814.615662 -949.597473
-707.082764 861.405457 -150.777695
-759.448975 812.772705 -98.575188
-659.826294 996.106201 -971.008972
-751.620850 739.995850 -492.893250
-704.122498 942.790527 -313.227966
-645.306213 947.041565 -235.022171
-828.927856 950.580261 -901.210999
-1002.710449 702.353577 -895.201050
-631.319763 928.917114 -113.682999
-790.912659 643.932007 -504.160858
-686.801758 716.314575 -1013.945801
-724.165222 578.749756 -574.032837
-1006.250793 1292.276611 -738.163086
-665.607056 817.815979 -1032.019775
-915.696960 911.362854 -809.440063
-972.984436 944.248474 -778.505066
-884.878418 1132.286621 -860.585999
-696.594360 603.850586 -550.035889
-729.748535 959.246582 -973.306885
-838.838562 673.420471 -1012.860779
-757.029236 842.808228 -166.119537
-821.252991 771.019409 -169.163223
-755.341125 767.410278 -1003.721313
-739.915100 975.309509 -952.410706
-841.678040 618.802063 -496.749878
-715.058472 865.605896 -86.693932
-546.235840 931.266418 -519.466431
-732.068542 872.571533 -220.683929
-781.091858 980.545959 -902.414795
-715.449402 966.825439 -973.144775
-765.841125 837.850647 -479.372986
-808.601990 682.665405 -995.477173
-645.385315 973.209717 -311.530640
-754.059814 620.189636 -526.103271
-824.765930 794.250000 -197.798065
-834.745117 772.174805 -192.077591
-722.735962 873.992920 -197.420013
-633.302185 1149.515747 -925.434753
-954.797363 740.934448 -886.066284
-759.258545 792.441956 -61.758801
-699.852661 747.906738 -500.838287
-855.643738 762.189697 -218.263245
-649.730042 1055.876343 -947.175842
-863.586487 712.931824 -963.611755
-873.985596 758.505493 -240.713791
-926.020081 830.834290 -916.514526
-847.928345 701.150391 -485.362427
-868.847229 821.954346 -326.497559
-821.655334 961.197571 -839.723267
-750.722473 974.218079 -953.889832
-997.887268 802.428711 -873.223267
-626.157043 894.675903 -470.880310
-584.342529 811.645081 -526.086792
-777.431458 784.446167 -99.916908
-912.677063 886.695679 -823.497498
-673.439270 731.022339 -1032.552734
-748.988098 790.541138 -459.532013
-961.981445 728.668640 -930.867126
-963.949341 701.551392 -925.911011
-997.925415 640.345459 -933.746216
-839.552856 999.617859 -856.259583
-797.538391 864.171326 -302.814972
-876.534790 1048.797974 -877.074036
-808.783081 685.896606 -484.767426
-892.596741 1051.842651 -851.866943
-641.853699 827.814575 -511.165009
-859.842896 735.420959 -173.787033
-736.061157 688.666199 -1037.210327
-660.634033 733.934021 -1051.768555
-733.561157 777.009277 -497.428223
-675.873230 945.350403 -301.671143
-600.245422 712.533447 -551.041138
-828.019836 755.401184 -474.961945
-933.144592 1037.525879 -854.279785
-878.229065 726.289917 -196.894867
-686.682739 907.971558 -205.676102
-727.826660 897.041443 -238.708755
-821.610596 939.828613 -910.495911
-768.639587 828.233948 -171.588013
-563.870911 686.426514 -579.617615
-551.612610 720.209534 -582.643005
-1017.744446 733.836609 -882.668579
-521.961609 707.443604 -607.979431
-597.964783 640.178284 -579.641357
-812.860840 784.960083 -171.220276
-841.540405 776.909241 -222.598663
-725.615173 905.996277 -320.117554
-521.764709 723.096497 -593.263916
-953.085571 832.556824 -897.756775
-711.798035 845.237732 -55.065395
-731.733704 840.908264 -79.475525
-844.562134 735.264282 -132.342575
-992.001465 909.109436 -786.448181
-866.346924 728.669373 -181.057495
-815.846802 694.968750 -483.242432
-704.925354 627.641235 -542.466370
-524.072510 880.093750 -496.211029
-819.501343 933.641724 -927.058655
-787.652405 559.059143 -531.160767
-775.934143 991.752136 -860.373291
-950.663391 679.292969 -957.560730
-756.888245 899.973999 -332.960968
-805.483704 780.322266 -141.698135
-914.214111 1229.511475 -778.241028
-624.801880 594.795410 -603.089661
-617.458984 616.402649 -579.925049
-752.903198 831.840515 -962.949585
-947.122375 680.091064 -968.329895
-826.465759 843.095276 -316.532379
-877.920349 709.404175 -979.002441
-699.674744 898.193787 -987.190735
-727.209839 780.094116 -481.718170
-506.077301 783.821289 -571.799744
-664.872864 586.775452 -572.370972
-618.702515 714.961426 -564.708374
-761.209229 744.631897 -1000.883240
-843.284851 660.833801 -1007.945923
-658.363892 787.590210 -523.735046
-883.681641 759.756653 -261.852142
-930.194763 776.066956 -935.721558
-407.692871 837.216614 -422.717285
-766.118347 1054.089355 -883.416809
-709.723083 902.335083 -283.902405
-873.503601 642.524902 -982.120361
-571.917847 673.658447 -601.261719
-745.219727 819.534912 -124.944923
-1004.907837 842.401489 -854.490540
-589.758057 632.881775 -635.066040
-615.348999 901.262512 -1026.422974
-690.698669 848.601685 -71.768234
-535.297058 693.373840 -588.414795
-647.675293 908.201904 -106.096939
-573.145264 645.235352 -590.897827
-695.187744 666.711060 -533.165649
-719.578064 757.971008 -800.737793
-904.685913 752.088013 -295.462189
-641.700989 914.918823 -1002.338379
-820.472717 785.636780 -191.743240
-652.779785 911.742554 -151.916595
-811.702087 584.785706 -505.687561
-512.256714 721.111328 -606.024414
-756.952820 678.007385 -1014.305359
-662.851929 951.911621 -446.743622
-813.885376 759.110718 -109.148438
-649.775269 812.221252 -1029.978149
-738.315674 754.238098 -502.427124
-518.334839 848.225525 -541.300598
-667.417664 760.871948 -1041.936646
-542.523254 733.457520 -572.876160
-755.445190 780.875061 -480.745331
-695.971863 531.924072 -574.799377
-783.978027 927.591064 -954.467529
-909.047302 812.410645 -947.722351
-604.922729 612.286438 -604.987976
-810.435059 814.640869 -228.664139
-731.349548 919.782898 -969.536804
-833.985962 505.503448 -422.677094
-675.368958 838.417847 -491.807312
-690.730530 930.683960 -266.298248
-658.260986 820.010559 -1033.693115
-610.209534 673.739868 -579.449097
-765.407715 855.138489 -446.486633
-936.164185 887.018677 -857.267090
-826.025574 621.094299 -498.243988
-510.943542 769.867493 -583.030396
-649.505249 987.419678 -963.908813
-776.676575 805.977783 -67.154465
-593.212341 857.778809 -505.635956
-796.117920 947.449158 -938.896240
-830.615234 688.181763 -999.605225
-929.322998 832.383484 -865.553589
-816.614380 744.292725 -1013.606628
-716.599487 594.957336 -550.473450
-539.916565 673.713867 -606.905762
-443.130585 857.792847 -324.388824
-893.818665 795.436951 -948.451294
-777.959778 748.715759 -491.527863
-701.232849 531.155151 -605.584778
-628.157776 1087.803101 -950.586487
-875.451233 849.215942 -837.896057
-570.804260 748.586426 -549.273438
-717.276672 1063.381958 -901.009583
-928.365173 892.791992 -785.871094
-923.260620 835.398010 -873.776611
-823.461670 773.893188 -187.651123
-882.648987 892.199341 -757.833496
-943.579834 668.125122 -975.287048
-778.437134 830.140869 -454.018097
-961.900208 688.868896 -890.603088
-759.974060 823.422729 -141.154312
-717.998657 852.166321 -978.564453
-787.964233 879.603333 -944.905762
-788.719910 771.929810 -47.935551
-764.061829 866.893188 -272.711273
-699.452332 751.859314 -1005.541870
-874.766052 781.328918 -313.881134
-826.602112 779.126831 -203.375290
-540.824829 696.338318 -587.446960
-865.223511 714.236572 -438.016296
-778.067566 984.848511 -891.665833
-670.009216 881.070618 -105.375801
-856.433533 799.833130 -291.323578
-639.733215 927.053528 -147.964172
-904.881409 751.899414 -935.761658
-697.634521 842.794617 -54.475491
-594.058777 645.915222 -583.993896
-667.919189 680.947021 -537.329346
-752.880005 1041.796631 -887.522217
-762.402588 796.797119 -80.492302
-636.361633 989.857361 -993.475342
-859.472351 801.835510 -416.212616
-820.315063 768.782654 -979.040649
-552.060120 704.278992 -569.263428
-600.283386 888.277588 -484.634644
-761.912537 852.104919 -211.185455
-802.110779 795.791992 -439.607910
-838.605164 668.166992 -477.137726
-752.076111 742.822693 -1035.685913
-827.246399 841.626648 -887.870605
-684.727905 941.549561 -285.457153
-750.780151 663.663757 -1021.609741
-774.379639 668.738708 -1027.651611
-884.530151 721.151245 -972.870544
-515.420105 934.366455 -332.168335
-910.900574 758.330444 -972.989319
-924.937866 785.025208 -427.523712
-883.651794 1142.831421 -839.631226
-617.234314 797.659973 -503.471832
-862.004517 930.809631 -878.554749
-686.307129 1030.271484 -931.273438
-1004.537964 646.533752 -879.086914
-697.703491 912.821106 -231.139191
-871.194031 777.311646 -443.024414
-623.276550 936.734924 -160.297867
-806.896240 763.164551 -465.885132
-684.928284 776.648010 -996.027771
-866.570374 765.534241 -209.098083
-807.316284 948.081787 -877.731689
-648.366211 783.624756 -1040.380371
-848.602478 737.365173 -132.761871
-972.195740 610.902222 -948.154968
-509.154480 742.879272 -647.320496
-786.919189 808.263855 -452.884888
-777.806274 783.375549 -76.208717
-679.013916 916.323486 -255.592850
-916.615295 782.575989 -919.759766
-769.746826 842.920532 -219.871887
-702.962036 858.674744 -103.271767
-508.916077 737.328979 -600.122192
-805.673828 938.023132 -821.846741
-731.885620 860.193054 -219.270889
-689.109619 805.444946 -1002.514282
-752.420593 827.568115 -48.247990
-635.000183 636.169495 -574.686096
-683.563293 946.263916 -318.332092
-990.802979 690.862366 -912.648193
-719.770874 892.822937 -247.969864
-970.660706 809.886719 -896.305420
-642.427612 734.784241 -525.470947
-812.426392 1086.488281 -849.027161
-528.068848 729.286499 -578.051758
-828.854614 752.807007 -143.575455
-766.395081 902.926208 -316.570587
-804.626709 599.064026 -512.604248
-679.492249 762.354858 -1026.750000
-709.602356 893.762207 -187.937408
-871.019165 739.896179 -428.216156
-675.592712 936.057800 -263.427856
-682.630981 1065.113159 -868.192688
-694.518005 809.025085 -483.704346
-768.897827 974.090149 -931.397766
-594.490356 649.034912 -601.582031
-890.981628 731.593262 -234.510101
-614.035522 798.189697 -514.122559
-603.753235 868.688416 -499.549316
-803.700195 853.813721 -289.937073
-848.034668 790.418152 -250.100174
-762.189453 678.115784 -515.975159
-644.764526 738.067383 -537.113708
-761.089050 694.071350 -1023.575928
-770.001038 805.315918 -131.909302
-751.810913 682.790283 -506.880676
-681.620422 1034.185913 -939.267944
-699.423035 835.588318 -1001.640259
-1099.776001 909.650146 -855.460327
-796.852112 991.536621 -915.254639
-646.296143 642.075745 -554.865417
-668.852051 872.734619 -1006.645996
-713.053650 730.379578 -1012.577759
-637.145752 667.472351 -564.260315
-951.754150 1277.937744 -756.692993
-804.053223 738.516724 -499.823730
-712.682373 864.059448 -137.650589
-857.618652 803.199280 -324.549896
-813.118408 873.941467 -802.950317
-596.818359 727.698914 -544.100037
-762.405029 857.667175 -225.186157
-642.305542 1036.685303 -943.574097
-824.574585 760.365051 -463.809875
-800.452271 838.392273 -257.188782
-651.171387 734.471985 -1041.141724
-581.429443 624.381165 -618.717102
-861.874329 766.177673 -223.107300
-739.803101 1000.863831 -943.876038
-828.527039 679.554871 -1005.553467
-945.376831 686.733398 -911.796082
-640.372498 621.311218 -573.668884
-831.936829 813.340942 -912.759583
-697.021790 941.873047 -450.682953
-940.025635 1120.149780 -789.397156
-778.635559 992.375671 -929.427185
-797.659668 659.756409 -521.896057
-967.894348 686.150391 -937.544739
-818.093628 856.360168 -426.095947
-989.771240 699.696960 -917.852112
-545.040283 646.126953 -628.405945
-777.426880 837.976135 -223.570847
-600.992737 615.170654 -587.860535
-836.740051 815.481750 -954.008240
-948.064270 1033.474487 -821.369019
-696.020508 864.656860 -152.711655
-754.690613 874.231018 -265.757416
-726.048279 1023.491272 -923.535767
-627.096863 799.523254 -536.197937
-657.002380 901.369446 -172.918640
-551.415466 646.595764 -627.032593
-702.104004 960.362915 -350.858459
-517.684509 743.715637 -581.497559
-751.415588 820.574158 -97.303009
-945.883667 700.873291 -931.378906
-877.912781 744.167847 -205.707550
-732.918457 926.867981 -979.750427
-885.573669 659.578491 -988.723450
-827.332520 846.207764 -442.718567
-739.910828 678.688721 -1035.954346
-836.963074 918.471741 -896.869263
-902.132080 1093.821777 -809.115845
-680.628235 874.225586 -98.459930
-588.331421 828.896912 -517.008789
-919.375916 772.994202 -854.516846
-816.509521 783.099060 -989.732971
-668.956848 740.899963 -512.355347
-637.874268 629.993530 -557.336609
-703.570190 830.166504 -37.833633
-719.713623 564.485840 -578.842041
-985.787903 757.890991 -895.790161
-811.542786 689.832214 -1019.763062
-762.541321 702.626282 -489.822876
-946.884460 739.943054 -931.087219
-720.144958 548.185425 -569.144226
-798.369080 797.894470 -171.411331
-878.590820 752.643677 -946.070313
-887.690552 694.353394 -459.253235
-637.974670 935.889526 -237.072937
-777.661316 1007.450745 -914.625671
-766.240051 877.392090 -273.841919
-846.255615 817.050659 -294.478790
-683.339294 1041.032593 -868.944824
-814.779358 982.011353 -915.351685
-742.637512 520.087219 -565.180481
-653.497559 704.232605 -1058.902100
-663.996887 750.697021 -1060.713257
-646.309021 918.511719 -156.813461
-974.042419 680.768555 -940.349915
-558.823486 727.237854 -560.488403
-724.673157 1060.083862 -888.122559
-709.483398 927.941895 -294.245453
-887.589233 1107.026855 -868.788574
-836.916565 935.924316 -921.184204
-558.963989 859.761414 -532.238159
-946.028564 695.811768 -970.431091
-759.048462 570.950317 -541.511414
-803.702454 851.842285 -322.630402
-632.188171 638.869263 -567.315613
-902.115356 680.497192 -978.414001
-829.395691 778.799133 -214.126480
-889.525879 740.757690 -436.036224
-778.101013 851.198730 -238.026321
-869.423889 728.688599 -178.755661
-688.851501 1155.056396 -894.854004
-644.635132 905.203552 -119.710365
-777.733093 1025.355103 -883.457275
-718.768982 829.405762 -30.996210
-805.884338 832.383057 -254.237091
-890.426208 736.394958 -946.328674
-831.479370 649.443420 -503.497772
-745.228943 834.652954 -972.573425
-767.173523 690.265686 -1022.565308
-583.752014 628.993774 -607.505554
-845.181396 1073.502197 -880.079285
-676.744385 894.829651 -170.847687
-451.710144 851.337769 -383.157959
-756.630615 607.867432 -540.718933
-673.164368 1040.649048 -953.747375
-840.620361 789.095154 -220.172684
-702.960632 817.932190 -1019.534912
-682.288147 608.308777 -558.277649
-692.531433 859.048889 -124.524391
-767.382019 817.375488 -465.690826
-720.207825 836.962158 -982.478333
-683.993835 768.753601 -1028.903687
-745.437927 932.943115 -960.718567
-636.448059 951.291565 -192.081711
-763.977661 934.516846 -953.925964
-862.654480 655.328979 -997.016357
-777.333801 1053.639160 -902.301453
-747.731323 914.879700 -306.328949
-794.792664 833.578186 -236.642014
-844.271301 791.639771 -203.298904
-1054.251831 908.454468 -861.536743
-877.461731 757.835449 -962.704956
-961.525635 670.288818 -947.306274
-776.486755 549.166992 -538.384827
-799.636475 815.056152 -190.064285
-527.931458 800.723877 -541.071289
-740.646667 978.241882 -926.300110
-752.907410 916.560059 -977.660828
-743.106750 928.503357 -446.412018
-771.157898 812.514587 -174.458603
-681.730164 1024.134766 -952.339966
-504.254456 763.718445 -635.172791
-809.699158 787.554749 -136.664169
-665.229248 1067.501465 -927.996521
-653.534607 561.161255 -614.264954
-639.765564 963.645020 -334.400238
-873.134155 754.367493 -989.873779
-718.234741 1062.519409 -911.132141
-750.016235 1149.997437 -865.501526
-607.327698 802.135010 -526.168640
-674.381470 998.595581 -976.124451
-687.674316 994.128296 -960.127563
-1142.984863 889.124268 -826.570984
-842.545349 768.553833 -185.762955
-881.939026 900.967224 -871.362305
-770.117981 572.404114 -534.396851
-818.504578 666.560547 -996.707275
-806.663208 672.216492 -488.658447
-656.920288 912.753540 -171.376236
-807.894592 791.860107 -968.995605
-901.150391 1205.866943 -795.701721
-799.612427 863.085388 -946.172852
-776.192749 1016.605652 -912.229187
-723.780151 668.896118 -1047.668091
-615.582397 614.914185 -575.537598
-826.718567 698.188110 -981.649780
-794.575684 874.531006 -307.083130
-767.189575 740.655273 -484.993927
-810.779602 743.680786 -471.374695
-848.571655 801.749084 -321.265076
-610.959778 934.379028 -151.661560
-1054.305542 1248.508057 -713.320862
-780.062195 728.632019 -1011.142151
-925.447754 818.006348 -919.237366
-810.151367 757.546814 -973.019104
-764.401550 728.671021 -482.310181
-693.217773 1022.622925 -940.545227
-900.747986 1049.111328 -795.251892
-725.975708 592.014343 -525.056030
-761.353149 794.063782 -78.533844
-513.073303 727.744873 -616.301086
-717.180664 708.540588 -1018.832031
-905.858093 1062.611816 -818.888489
-784.280518 845.626587 -250.965652
-798.011414 738.384399 -1021.558533
-747.497192 728.999756 -480.318451
-821.784119 689.470703 -1005.284180
-627.989502 822.619324 -1035.664429
-757.354614 810.649414 -138.394714
-655.793518 856.079346 -998.394287
-630.512390 853.514954 -1033.550171
-665.758972 892.477539 -152.351456
-821.443481 796.163025 -243.283249
-658.688171 759.549500 -1044.469116
-1013.382385 655.889038 -911.518799
-959.313965 749.914856 -943.844727
-889.035217 731.158813 -834.525391
-614.168457 831.609558 -494.241547
-852.443726 747.876648 -161.125183
-661.144409 745.607849 -1035.697388
-896.951660 1095.075928 -851.839661
-497.604248 770.612610 -580.378967
-732.644226 1035.764893 -920.649963
-760.850342 981.391846 -942.316650
-988.013977 762.407471 -896.746033
-698.464600 916.635315 -450.748169
-689.636292 963.675781 -327.628662
-604.483521 707.494385 -558.114502
-638.547119 914.083069 -108.931732
-883.896729 795.495361 -325.753571
-686.252991 988.338196 -944.650391
-768.129883 825.570679 -148.810638
-649.691895 907.597900 -124.714134
-917.833313 851.553284 -897.861267
-647.275513 588.832153 -614.918579
-859.553589 734.811157 -959.772156
-739.517334 736.278320 -1011.196838
-929.463257 777.809448 -949.039001
-650.142822 955.245850 -276.282684
-803.337402 936.481995 -935.203003
-890.819092 732.796875 -240.542221
-647.088928 565.874695 -622.775330
-696.567505 857.588135 -1012.833008
-963.769653 1122.487671 -718.376404
-789.577942 904.133057 -908.016418
-692.662659 543.702881 -593.003235
-740.563599 979.335510 -940.602051
-555.972839 681.059631 -586.657654
-868.647461 809.190002 -432.424835
-776.623230 780.185547 -37.009026
-942.176514 657.780945 -944.861206
-532.677490 892.988342 -489.519623
-886.936646 1009.787292 -802.748535
-727.359131 676.087708 -1037.896973
-931.871521 1145.887817 -784.487549
-735.641174 832.497498 -128.972473
-854.277222 758.092834 -465.088531
-701.748169 730.451660 -509.418701
-775.822266 584.879395 -530.753906
-598.584045 873.526184 -501.759796
-769.032532 621.269043 -518.023804
-920.070190 1072.771484 -839.885864
-861.032593 717.305542 -113.367928
-660.281372 606.582397 -558.148987
-642.988403 796.601440 -1042.116333
-748.796997 728.513611 -1016.731323
-626.637573 1050.514893 -975.313049
-839.675354 744.056641 -125.863739
-791.957397 776.266724 -117.926781
-639.695374 589.698547 -568.985596
-787.750000 773.986450 -54.562519
-666.443665 1013.722229 -976.200623
-646.573486 573.959045 -617.594971
-879.393188 1129.829346 -856.341553
-680.609009 603.761230 -577.954163
-821.884216 812.222656 -245.843536
-721.559204 875.512085 -158.522827
-797.688232 845.223328 -277.992371
-661.991577 1113.666382 -877.467346
-887.801208 1167.041260 -809.244812
-747.639099 870.122131 -224.468658
-838.901672 680.154236 -488.076477
-676.487122 862.539612 -75.948967
-877.549377 759.252869 -252.441727
-668.274963 900.567566 -79.904297
-783.270752 818.094604 -166.947632
-809.115540 698.770874 -1005.478394
-691.377747 989.766113 -973.970276
-814.290466 854.651367 -459.066040
-715.720581 767.014954 -488.732788
-633.937500 943.076050 -213.699020
-719.243347 625.644714 -537.673767
-749.745056 828.453857 -160.336014
-755.541382 801.683533 -78.751076
-899.367798 712.966797 -197.203262
-858.273499 752.591919 -953.258789
-814.253357 791.355469 -200.797760
-930.637512 1087.990723 -838.280273
-634.524414 907.215088 -99.943687
-895.598389 739.277283 -266.201385
-841.302490 773.296875 -211.419571
-553.175476 741.533325 -577.417053
-955.212585 742.408020 -925.836731
-724.842896 527.993469 -570.190674
-582.674377 636.551575 -589.297729
-791.757935 856.038696 -951.351563
-882.476807 706.881714 -975.989258
-917.252808 816.376709 -934.808838
-801.536743 826.232361 -279.151550
-810.321960 736.686951 -974.109070
-1060.019287 692.060486 -890.796875
-633.815491 931.513428 -153.480927
-468.033020 766.673340 -612.893738
-574.829773 833.292358 -508.076630
-890.977417 1125.613647 -808.521729
-721.180847 817.141052 -31.043678
-692.189697 1075.258057 -887.474426
-633.150635 938.919434 -996.057434
-842.029480 1003.174500 -847.531982
-707.010925 880.262817 -197.124023
-808.548889 663.838074 -1015.336853
-691.130005 884.991150 -160.366577
-791.647827 928.702087 -943.332520
-743.548157 731.812683 -507.505219
-806.056885 796.788086 -157.958160
-737.758301 805.419373 -490.985229
-514.113953 735.260193 -595.206299
-959.831604 801.659851 -883.958008
-628.535339 1067.107666 -922.270752
-788.050659 929.642212 -434.037231
-895.356873 782.126465 -963.241638
-622.143860 731.546021 -540.487976
-839.408875 852.072327 -830.562561
-579.723389 737.511169 -553.385498
-835.431152 977.499084 -896.488342
-848.686584 723.795837 -442.739471
-804.484558 562.246155 -509.268982
-805.413452 829.840210 -299.629028
-804.951050 749.039429 -58.516823
-940.423218 1131.275635 -735.847961
-691.892822 884.059631 -149.690292
-899.460754 677.397888 -973.080200
-619.087341 942.484192 -158.474884
-724.667786 755.754211 -992.940430
-883.225159 755.374084 -963.292297
-663.765137 877.877075 -1005.922241
-762.085938 845.164246 -209.622437
-843.807983 828.581177 -315.673737
-666.490112 891.223206 -91.664917
-638.755615 583.961060 -579.218140
-1073.363281 682.237976 -895.216370
-636.906311 974.053833 -301.664185
-522.164978 694.415039 -626.671692
-683.379578 758.812622 -494.406311
-644.720032 728.961670 -1052.957886
-752.589294 843.814819 -220.463791
-528.213989 706.571838 -619.120056
-817.684387 783.156433 -156.166733
-885.517578 729.380249 -129.406464
-1088.330811 833.182373 -865.833130
-823.711792 813.170593 -276.728058
-787.054443 601.175781 -516.817078
-545.764160 904.075256 -503.801300
-734.895142 906.157776 -301.678894
-631.341187 767.652954 -1059.859131
-692.501343 548.960144 -573.605408
-670.703674 812.259338 -1023.633850
-530.274231 801.717773 -564.064697
-944.871155 664.454529 -959.015564
-917.214844 786.036316 -833.178162
-537.142761 777.805603 -546.336670
-608.375732 648.266357 -567.029846
-725.301819 848.878479 -1010.252930
-679.664612 557.221985 -615.953491
-754.271667 711.700134 -1020.369324
-789.972839 724.159668 -1028.996094
-635.384399 594.908997 -581.396667
-772.307007 807.166992 -129.630890
-758.508179 1032.987915 -882.378723
-941.721741 816.548462 -910.282593
-762.567993 827.868347 -130.009888
-553.288879 791.356812 -530.793701
-733.258362 902.429871 -275.174683
-854.695190 696.732239 -989.688110
-742.394470 873.449219 -237.676270
-576.556885 671.951355 -581.843628
-643.738281 549.175903 -623.145752
-726.823242 560.434509 -555.540283
-641.658936 631.583984 -560.632080
-537.260376 786.546509 -554.612976
-543.415466 716.681030 -575.673340
-777.558350 958.132141 -950.122498
-660.347839 1157.332642 -908.611328
-771.962708 904.503052 -327.827576
-751.079895 839.088806 -447.623840
-581.535767 677.019043 -569.431091
-807.991333 684.341431 -1009.185852
-684.847046 1098.793701 -902.898682
-839.366699 783.445557 -216.065781
-669.982605 920.180115 -213.126572
-757.267212 722.114685 -998.147644
-528.028992 661.528503 -619.199585
-649.744934 917.775757 -180.525635
-660.619324 934.664246 -211.307159
-716.087219 988.882507 -961.423340
-800.256287 862.657410 -295.103088
-631.446350 601.275024 -580.106079
-748.161438 886.161682 -979.027649
-816.509216 935.590637 -934.887268
-953.690979 688.061646 -948.164856
-856.617554 912.299561 -764.445740
-812.414001 839.745972 -892.422363
-600.832275 715.823669 -571.254089
-813.229309 846.401855 -287.974091
-627.126282 687.845642 -567.514160
-808.646606 822.061646 -459.430847
-772.327881 625.435669 -515.868103
-632.664673 914.825073 -156.816467
-770.923523 853.882019 -246.742538
-718.033508 958.834167 -974.921082
-454.396759 854.841797 -390.105804
-609.417480 1054.908936 -964.750305
-964.206299 732.636841 -921.560791
-533.299500 716.650879 -594.174561
-765.439392 932.552124 -934.628418
-652.414307 583.783203 -573.897949
-530.990234 693.999573 -606.476074
-547.767212 636.796570 -633.151367
-835.487244 640.368958 -488.802521
-652.905029 844.256897 -507.548096
-759.793762 670.133545 -1028.144409
-705.557861 855.109802 -984.183716
-745.401184 909.708740 -289.559601
-848.956055 783.756470 -269.019653
-792.360596 757.802124 -992.230835
-979.710815 927.005554 -812.052307
-608.227722 1035.117432 -973.030212
-730.666443 903.521606 -308.307037
-428.221680 858.105347 -352.870911
-790.057190 776.927429 -108.720085
-788.159668 792.704041 -465.182709
-909.894714 1060.242920 -846.827637
-768.625610 663.411682 -1030.386475
-610.759827 1005.930847 -999.142395
-746.562134 796.001587 -55.637188
-714.811584 1030.091919 -943.986938
-715.634705 853.942322 -97.700989
-851.417297 791.689026 -959.356079
-619.617676 604.324768 -584.772400
-666.785156 814.848755 -1039.351196
-666.757080 655.521118 -546.464661
-740.050232 937.693848 -961.606018
-698.125244 740.192444 -1052.500244
-847.827087 804.976196 -315.606140
-729.435059 1010.764282 -926.086975
-756.207886 916.611328 -978.321106
-908.265869 784.180420 -849.411011
-528.337952 868.184937 -552.603271
-809.936218 799.506775 -453.392853
-947.698303 1287.958374 -755.271545
-670.925232 897.619690 -157.693146
-745.137024 834.103516 -447.218170
-668.935181 870.202759 -86.598511
-842.490662 790.901855 -444.700287
-705.864624 911.732239 -995.935608
-908.245972 752.952087 -948.019836
-912.766968 1069.327637 -839.481628
-870.271667 758.458435 -246.231033
-695.922974 608.334900 -548.838501
-768.461914 972.818665 -916.534363
-641.246033 933.992493 -205.609100
-1035.057617 672.418884 -938.233765
-567.095703 652.127747 -632.959290
-736.490540 907.978943 -443.393188
-713.883545 867.934143 -181.052948
-763.761047 968.844238 -951.577576
-554.484497 809.633850 -535.857117
-614.442505 801.340515 -517.820190
-608.669983 864.882263 -484.189911
-695.215088 1170.800781 -886.412781
-834.095093 765.055664 -153.316330
-515.167358 727.906189 -600.798584
-732.304810 551.089783 -554.094421
-671.359253 902.228821 -166.491379
-947.890564 698.104919 -954.596619
-813.650269 677.619263 -1013.989746
-613.442444 976.643311 -1007.678040
-883.425659 744.214661 -246.125031
-502.817963 759.723450 -592.871033
-735.221130 818.311401 -455.918640
-695.624512 878.992554 -478.627075
-746.625549 948.165588 -968.378967
-913.197815 799.053223 -908.495239
-1031.924072 1239.484375 -725.885620
-950.308594 628.662964 -952.204773
-906.949280 1131.082764 -849.083496
-630.233887 912.981750 -104.739540
-816.410461 828.268311 -264.691315
-737.215210 914.135681 -288.097687
-1021.767029 656.752991 -921.438538
-766.082092 810.378052 -60.152782
-934.998535 747.442078 -952.437744
-754.019104 837.757080 -167.499786
-949.326599 1151.071411 -725.845459
-754.626038 874.832642 -462.113983
-877.778259 1182.848389 -801.817261
-781.052063 1105.535889 -847.154114
-612.934509 707.826294 -551.210999
-798.760193 1002.180908 -901.775879
-835.190247 736.260193 -116.492630
-547.456604 774.128906 -573.411072
-943.721313 1249.652588 -759.023560
-796.623718 983.865967 -911.874634
-890.456970 691.444885 -987.803589
-765.888672 824.607910 -882.851257
-781.802124 786.573364 -129.761826
-750.294006 877.688782 -269.969116
-790.780518 820.772949 -184.092422
-663.583008 855.146118 -481.793457
-957.981079 784.718506 -871.896912
-835.716675 813.170898 -268.880188
-781.126221 757.810547 -477.993652
-806.535706 847.154358 -322.820190
-884.056396 726.753967 -450.850311
-755.417786 1012.786926 -845.809998
-688.777832 930.335449 -465.519867
-664.190308 904.108582 -149.731705
-995.383667 663.052063 -936.865173
-927.909363 1112.240112 -810.362061
-896.376709 759.226074 -430.947235
-715.271179 896.782593 -994.552795
-827.713379 701.722473 -999.008423
-523.905396 702.063232 -617.093628
-644.176514 1157.440308 -907.945557
-703.909058 665.891663 -513.566040
-769.307861 871.523071 -274.981293
-756.518005 1084.872070 -876.475159
-561.443787 742.107361 -573.295959
-613.240540 1123.211548 -952.072571
-896.680786 798.321960 -939.273987
-793.831665 656.433960 -1010.221924
-938.587891 837.251038 -865.727478
-727.887268 736.880188 -1012.532837
-722.414673 909.471985 -285.643066
-606.835693 939.020508 -134.565735
-742.550720 676.782959 -524.154480
-784.722046 753.219604 -484.366425
-904.424500 1185.741821 -762.035095
-820.505981 602.996460 -506.161560
-670.640564 887.692932 -151.720505
-982.318115 1243.498535 -743.960510
-714.164795 534.779541 -592.197937
-645.868591 578.647583 -588.909058
-632.320740 721.827698 -553.544189
-779.018311 807.390930 -464.884857
-746.245911 804.510742 -47.872410
-908.099854 714.124695 -449.275238
-678.012085 897.593018 -160.418976
-614.058777 773.527832 -526.469727
-807.778687 662.967224 -475.540100
-861.900269 749.576904 -206.064529
-956.998840 791.667053 -907.498718
-735.766357 839.476135 -102.707283
-751.460938 883.137390 -973.673767
-679.131653 905.232544 -194.964417
-880.966187 696.452332 -464.790619
-739.113220 847.118469 -155.355911
-711.984558 918.923767 -333.848145
-710.874817 824.163818 -477.506866
-763.625244 841.661316 -237.892105
-662.602844 940.335815 -244.589539
-751.195190 801.071045 -56.429691
-723.859558 769.481628 -1017.930237
-514.562195 859.636475 -519.026489
-619.662109 679.928345 -540.907593
-892.016235 846.132019 -883.100464
-931.633179 653.267517 -970.757141
-625.200256 922.936279 -1006.398621
-864.589172 837.263489 -958.007446
-658.720642 923.538513 -200.446564
-786.475342 898.555786 -967.648926
-773.360657 929.705078 -937.533752
-676.533630 984.072449 -967.403931
-531.659668 806.822815 -553.725830
-949.521240 724.403625 -941.760071
-863.819214 651.594055 -983.143555
-735.536377 525.612305 -563.910522
-733.501038 520.725342 -576.341919
-1012.847229 630.322083 -916.484497
-536.348999 803.193359 -535.425110
-678.796936 919.546997 -230.574554
-648.957642 618.168274 -557.718018
-595.161072 838.702515 -521.794434
-797.289185 1001.789856 -858.281982
-673.524048 758.505249 -1015.375183
-917.974670 866.868958 -900.229004
-849.197693 701.165833 -448.858215
-734.770081 685.449097 -1049.428589
-721.663696 755.878113 -499.274811
-735.188660 611.443054 -519.666931
-995.711426 665.124817 -883.424011
-685.622864 898.099365 -176.617615
-611.304138 604.974854 -636.497803
-759.774780 818.873291 -127.091873
-627.248962 1101.851563 -944.583801
-532.059326 836.736694 -505.213165
-886.748291 886.399414 -881.971436
-1007.727112 871.078857 -850.833923
-741.327148 782.972229 -986.871338
-758.743652 954.211548 -961.358704
-773.345032 660.576538 -519.161621
-635.024841 918.297729 -1019.232788
-726.546387 628.814209 -526.683472
-720.688660 797.161743 -480.910858
-583.449585 670.625671 -571.157959
-639.955688 917.300964 -475.584167
-572.665466 872.725891 -503.789490
-636.185852 849.627136 -506.166443
-708.353699 870.697449 -85.705742
-927.040344 1120.901978 -802.998840
-653.016174 569.667175 -594.485291
-734.731750 779.372925 -927.412781
-521.697266 705.564880 -593.283325
-773.347412 750.866150 -997.313477
-633.478577 773.403076 -1046.089478
-690.400757 850.254517 -1008.599609
-619.118225 821.591187 -509.622345
-821.905640 633.089783 -474.879547
-858.705505 776.205261 -315.637726
-474.021454 873.631165 -474.420593
-917.327820 1078.010620 -852.963196
-657.065430 799.163208 -1033.377686
-626.966797 786.646179 -513.163940
-839.657532 715.703735 -474.735535
-660.476929 1053.742554 -937.249390
-532.823853 750.997864 -570.202515
-652.389954 816.978027 -1015.544006
-679.886963 841.374939 -479.826843
-543.968567 723.366028 -578.476074
-678.177979 1069.891479 -910.907898
-820.710754 834.593994 -435.079193
-711.317200 644.055420 -1042.684692
-940.393372 1284.614990 -747.849426
-669.944214 951.636841 -318.211029
-747.879883 891.905334 -293.891815
-976.151428 1232.096680 -750.978088
-651.204590 880.495972 -1009.249573
-478.734619 821.165161 -538.163696
-775.038635 797.100342 -124.209206
-613.555786 972.925110 -1000.727905
-729.555115 900.130676 -470.622101
-831.313843 810.609863 -248.729675
-730.418701 869.670959 -200.129105
-546.478027 794.464905 -559.256653
-763.194763 877.233215 -299.689117
-1040.348389 756.943054 -879.773682
-695.844910 999.564026 -321.255493
-668.365540 886.203857 -474.758606
-1014.087952 635.595276 -933.726624
-694.110718 1050.464600 -937.017883
-712.744507 974.750977 -971.301514
-687.733765 819.938293 -1016.833435
-956.065125 1072.744141 -755.897217
-789.615051 806.084045 -89.964523
-940.751099 773.177002 -928.955322
-665.987488 925.029419 -216.499084
-755.855957 830.188171 -120.773293
-723.801331 919.804626 -438.737030
-750.565918 620.223999 -525.977051
-631.321716 756.597229 -1056.266113
-657.375183 947.580078 -264.964661
-883.587097 1103.277100 -837.479492
-856.596252 806.313477 -952.516174
-677.854004 572.868713 -579.319641
-1033.068726 1214.870239 -732.124207
-951.925537 741.808167 -933.068420
-753.246460 901.616089 -965.101135
-698.955566 876.823608 -174.616440
-709.349243 924.385559 -459.772797
-961.317688 862.184998 -878.414856
-889.943115 729.676941 -825.633667
-799.308289 790.313538 -473.513824
-1044.776123 1203.621094 -753.528259
-720.641174 847.196838 -73.581802
-878.666992 750.779602 -263.588440
-812.083740 793.979309 -108.934937
-802.896851 947.497681 -817.310791
-674.535767 786.027893 -1022.071838
-730.998169 912.092102 -296.683411
-951.632568 717.864075 -916.722351
-747.385925 531.845459 -554.376831
-979.537720 713.977295 -923.817017
-783.569153 802.853882 -142.469894
-901.841858 688.214600 -974.068481
-597.680603 620.900024 -608.550903
-675.262573 857.681702 -1009.631958
-913.661438 780.501831 -844.772156
-687.270752 732.499878 -535.815186
-705.818909 963.727356 -977.277588
-499.919403 782.409729 -590.367371
-773.777283 607.162292 -536.049316
-894.849548 1114.795776 -855.221741
-913.686523 1118.094360 -817.160034
-523.953674 717.923096 -585.019409
-770.601990 792.022827 -68.770332
-699.588318 734.161743 -1010.454529
-850.714783 765.669067 -185.822418
-691.840332 887.413025 -167.892105
-709.639771 635.380310 -533.875366
-792.726868 810.696045 -223.089310
-699.416016 923.891357 -455.670593
-695.317383 855.963501 -115.968559
-658.112000 938.039185 -211.939377
-673.646545 795.528320 -1022.374451
-757.377686 824.189331 -175.329330
-822.825684 804.326782 -239.258621
-944.399719 851.095825 -858.090149
-646.389771 544.157349 -603.128845
-668.600708 943.025330 -257.496582
-635.790588 563.746094 -637.089722
-829.202759 784.666992 -971.838013
-743.368652 987.403992 -858.138794
-951.335022 655.123352 -966.405518
-705.533020 1107.253784 -886.030457
-936.613281 834.953735 -908.765869
-789.842773 813.270386 -177.811539
-694.123779 918.822876 -984.672302
-718.333130 1118.140991 -896.179321
-607.436829 824.272217 -524.579407
-731.491760 536.646057 -617.585144
-692.475342 878.524414 -159.032303
-657.359741 881.946289 -67.139420
-728.706665 851.178955 -168.247498
-636.547363 970.030823 -995.188721
-752.398682 1001.792358 -934.434875
-493.964691 737.816772 -601.906677
-779.409546 868.473083 -954.841736
-983.556763 709.571045 -886.231934
-847.744385 847.330505 -418.960175
-766.831726 792.271362 -109.328888
-743.357239 966.029663 -951.101929
-899.546753 772.361511 -316.893921
-776.949097 959.211792 -854.933777
-790.083069 861.708130 -277.296997
-710.251648 915.970642 -283.398987
-768.001099 1013.920227 -873.969421
-795.258179 992.519165 -872.332886
-887.072754 1156.406494 -831.068787
-802.163269 1093.432617 -870.163269
-762.281494 845.850464 -248.975067
-536.419739 746.983459 -583.844604
-922.801392 773.117310 -951.144775
-786.923706 884.998901 -432.620178
-712.916748 970.711914 -967.768433
-769.048340 673.041687 -503.075836
-794.755798 786.786316 -96.460999
-755.960083 853.809753 -900.394043
-657.923340 808.340637 -1033.118408
-809.224121 942.860596 -921.015381
-694.902039 1134.062134 -877.283142
-668.150513 878.380371 -73.307083
-929.660400 778.123779 -929.036255
-634.432983 584.908875 -610.546936
-674.658936 999.859192 -305.344147
-1074.153931 717.592468 -891.090515
-713.132324 862.043213 -60.172043
-812.510498 928.377991 -825.989929
-751.550781 892.282166 -330.061829
-726.938049 909.501831 -298.087402
-801.230408 777.638367 -75.890388
-816.263184 893.194336 -424.747803
-579.837769 656.344177 -577.568726
-889.128296 719.211365 -987.402161
-859.403992 761.962219 -251.857269
-643.288635 737.655273 -528.270325
-613.068359 677.447083 -560.936035
-1103.019531 857.005249 -846.684265
-812.332581 1006.892212 -879.392761
-611.725952 956.809387 -1011.840332
-711.187927 836.505737 -985.610840
-561.989624 659.694458 -630.146240
-652.644531 904.796875 -147.196625
-789.869629 839.005859 -427.813873
-621.587524 950.069702 -1004.941772
-637.185364 965.846619 -245.875732
-784.754761 832.715820 -205.567947
-807.651733 758.178833 -86.148209
-619.335815 603.234680 -589.164368
-626.839905 805.631348 -1044.831299
-782.260742 849.091003 -956.597839
-642.921204 849.224487 -1034.522217
-706.057556 842.658386 -42.731281
-1106.856689 880.071777 -852.901611
-620.451050 1078.196289 -948.890320
-677.409424 895.720642 -72.867378
-835.127747 982.326721 -841.283386
-690.974182 1140.008423 -899.844238
